1.153117343783378601e-01 -1.488069258630275726e-02 -4.156447947025299072e-02
1.623901873826980591e-01 -6.061012297868728638e-02 3.005852401256561279e-01
1.746245324611663818e-01 -1.395897567272186279e-02 -1.607225388288497925e-01
1.136856526136398315e-01 -2.351629361510276794e-02 -5.594795346260070801e-01
1.844489723443984985e-01 -1.879533752799034119e-02 3.203575015068054199e-01
1.799418032169342041e-01 -4.345364868640899658e-02 5.519497394561767578e-01
1.920363903045654297e-01 -2.047020755708217621e-02 -3.699230551719665527e-01
1.583801805973052979e-01 -1.381538249552249908e-02 1.957456171512603760e-01
1.662922948598861694e-01 -3.416965901851654053e-02 6.334854364395141602e-01
8.948095142841339111e-02 -6.097799539566040039e-02 -5.372676849365234375e-01
1.008791998028755188e-01 -5.434923619031906128e-02 5.783035159111022949e-01
2.019425630569458008e-01 -5.161654949188232422e-02 7.955648750066757202e-02
1.019741371273994446e-01 -2.293762750923633575e-02 -4.799496233463287354e-01
1.364952325820922852e-01 -1.616439409554004669e-02 3.221344351768493652e-01
2.047736495733261108e-01 -4.756552726030349731e-02 2.135301232337951660e-01
4.955885559320449829e-02 -5.558006837964057922e-02 1.773749589920043945e-01
1.625264585018157959e-01 -1.830438151955604553e-02 -4.611009359359741211e-01
4.249041527509689331e-02 -5.343346297740936279e-02 -8.967185020446777344e-02
1.172421574592590332e-01 -1.862989366054534912e-02 -4.106070995330810547e-01
1.215443909168243408e-01 -3.022891841828823090e-02 6.340256929397583008e-01
1.387982815504074097e-01 -2.676433324813842773e-02 -6.764546632766723633e-01
1.163863018155097961e-01 -5.514256656169891357e-02 -6.949886083602905273e-01
1.314501613378524780e-01 -1.333471387624740601e-02 -8.858782798051834106e-02
1.661966890096664429e-01 -1.298001967370510101e-02 -1.059404537081718445e-01
1.670180559158325195e-01 -1.728416606783866882e-02 3.570956587791442871e-01
1.514800041913986206e-01 -6.541115045547485352e-02 -2.298020422458648682e-01
5.909845978021621704e-02 -6.070956587791442871e-02 1.789564490318298340e-01
1.132937967777252197e-01 -2.759924158453941345e-02 -6.468833684921264648e-01
1.066396683454513550e-01 -6.654026359319686890e-02 2.586296796798706055e-01
1.844043433666229248e-01 -1.482536830008029938e-02 5.977994948625564575e-02
4.639436304569244385e-02 -5.310656130313873291e-02 -2.707480192184448242e-01
8.790527284145355225e-02 -2.144806645810604095e-02 1.990484297275543213e-01
1.570038795471191406e-01 -1.641178503632545471e-02 -3.986797034740447998e-01
7.880797982215881348e-02 -6.180877611041069031e-02 -4.619181156158447266e-01
2.018076628446578979e-01 -2.778399363160133362e-02 -4.390824735164642334e-01
1.979965418577194214e-01 -1.783695071935653687e-02 -1.374858319759368896e-01
8.277156949043273926e-02 -6.538734585046768188e-02 2.265504002571105957e-01
1.296503692865371704e-01 -6.749120354652404785e-02 1.451911926269531250e-01
1.556369811296463013e-01 -5.868231505155563354e-02 4.211850762367248535e-01
5.447270721197128296e-02 -6.102600693702697754e-02 -1.668001115322113037e-01
1.681589484214782715e-01 -1.701235957443714142e-02 -3.955196440219879150e-01
1.115909442305564880e-01 -6.779430806636810303e-02 -3.063097000122070312e-01
1.894319355487823486e-01 -5.297498404979705811e-02 -3.929604589939117432e-01
5.235379934310913086e-02 -5.380573123693466187e-02 2.641347050666809082e-01
1.387407332658767700e-01 -5.860733985900878906e-02 4.942927360534667969e-01
1.535961478948593140e-01 -5.789105594158172607e-02 -5.648952722549438477e-01
6.979356706142425537e-02 -6.580681353807449341e-02 -1.345034539699554443e-01
1.082730069756507874e-01 -2.079189755022525787e-02 -4.452098608016967773e-01
1.141236722469329834e-01 -2.447469159960746765e-02 5.190603137016296387e-01
1.110403314232826233e-01 -2.394035831093788147e-02 4.937635660171508789e-01
1.734430342912673950e-01 -6.191047281026840210e-02 -5.101232603192329407e-02
1.641591489315032959e-01 -5.948797985911369324e-02 -4.437561035156250000e-01
1.176306679844856262e-01 -3.300724178552627563e-02 6.542589664459228516e-01
1.455405205488204956e-01 -1.377401128411293030e-02 -2.434500455856323242e-01
6.887040287256240845e-02 -4.004996642470359802e-02 4.736987352371215820e-01
1.247931793332099915e-01 -4.936996102333068848e-02 6.574357151985168457e-01
1.954305768013000488e-01 -5.133108794689178467e-02 2.577516138553619385e-01
2.128793448209762573e-01 -3.737033903598785400e-02 -3.336823582649230957e-01
1.286907047033309937e-01 -1.907922513782978058e-02 -4.771411418914794922e-01
1.049603819847106934e-01 -6.207724660634994507e-02 4.300915002822875977e-01
1.265814304351806641e-01 -6.389904022216796875e-02 3.615203201770782471e-01
1.216672286391258240e-01 -1.790699921548366547e-02 3.450307548046112061e-01
1.640826165676116943e-01 -1.538621447980403900e-02 -3.326205015182495117e-01
1.211061403155326843e-01 -1.723714359104633331e-02 3.097835183143615723e-01
1.061323285102844238e-01 -1.970932446420192719e-02 3.232608735561370850e-01
2.062915563583374023e-01 -2.482080273330211639e-02 2.634441256523132324e-01
6.602207571268081665e-02 -2.668387070298194885e-02 9.011946618556976318e-03
2.178189456462860107e-01 -2.737072110176086426e-02 1.536199450492858887e-02
1.580612510442733765e-01 -1.291714608669281006e-02 -1.504509299993515015e-01
1.395868659019470215e-01 -1.721687987446784973e-02 -4.306082129478454590e-01
1.710276454687118530e-01 -4.949518293142318726e-02 5.343815684318542480e-01
1.077395752072334290e-01 -6.733334809541702271e-02 -3.377497494220733643e-01
8.101104199886322021e-02 -6.772944331169128418e-02 -1.091100573539733887e-01
1.650810241699218750e-01 -1.488034985959529877e-02 2.494504451751708984e-01
1.582622677087783813e-01 -1.415590010583400726e-02 -2.714756131172180176e-01
1.996686160564422607e-01 -5.121186748147010803e-02 1.776072084903717041e-01
7.347561419010162354e-02 -6.243313103914260864e-02 2.827155292034149170e-01
1.843658685684204102e-01 -1.770214736461639404e-02 2.770429849624633789e-01
1.224682927131652832e-01 -6.903402507305145264e-02 -5.276627466082572937e-02
1.793634891510009766e-01 -1.782215200364589691e-02 -3.724814057350158691e-01
5.788249522447586060e-02 -5.738019570708274841e-02 -3.839546740055084229e-01
2.047961056232452393e-01 -2.249991707503795624e-02 2.186842858791351318e-01
1.428163647651672363e-01 -1.872311532497406006e-02 -4.907899498939514160e-01
1.753621846437454224e-01 -1.594592817127704620e-02 2.580609619617462158e-01
5.045840889215469360e-02 -5.270992591977119446e-02 2.502553761005401611e-01
9.596313536167144775e-02 -2.680030837655067444e-02 -5.500164628028869629e-01
2.093359231948852539e-01 -4.721555858850479126e-02 -1.897451877593994141e-01
1.626763641834259033e-01 -4.509421810507774353e-02 -7.149180769920349121e-01
8.127873390913009644e-02 -6.578628718852996826e-02 -3.168345391750335693e-01
1.200763136148452759e-01 -6.643916666507720947e-02 2.569749653339385986e-01
7.518719136714935303e-02 -6.696096062660217285e-02 -6.964374333620071411e-02
7.924039661884307861e-02 -2.565865963697433472e-02 2.896330058574676514e-01
7.886277884244918823e-02 -2.234163694083690643e-02 -7.734590768814086914e-02
1.670226752758026123e-01 -1.307929307222366333e-02 -1.167097091674804688e-01
5.849194526672363281e-02 -3.651015087962150574e-02 3.130730688571929932e-01
1.216204017400741577e-01 -5.534327030181884766e-02 5.842483043670654297e-01
1.788667440414428711e-01 -6.006558984518051147e-02 6.733042746782302856e-02
9.752670675516128540e-02 -6.889476627111434937e-02 3.218042850494384766e-02
-4.235920608043670654e-01 8.009415119886398315e-03 3.064715303480625153e-02
-2.688592076301574707e-01 4.034839197993278503e-02 1.451275311410427094e-03
-3.529939651489257812e-01 8.402762934565544128e-03 -5.911642313003540039e-02
-4.015414714813232422e-01 3.449358046054840088e-03 5.139880627393722534e-02
-3.473756611347198486e-01 6.984190642833709717e-02 4.237037152051925659e-02
-3.059668838977813721e-01 5.041807889938354492e-04 -4.089943319559097290e-02
-3.653808832168579102e-01 -3.112680092453956604e-02 -2.604142576456069946e-02
-3.393186032772064209e-01 9.420978277921676636e-02 1.569992676377296448e-02
-3.937474191188812256e-01 -1.463402807712554932e-02 4.876250028610229492e-02
-3.645001053810119629e-01 -3.782148286700248718e-02 -1.557452138513326645e-03
-3.170202374458312988e-01 4.777323827147483826e-02 4.622889310121536255e-02
-4.227293133735656738e-01 3.403216600418090820e-03 -9.632642380893230438e-03
-3.058375120162963867e-01 -6.920281797647476196e-03 -5.511671304702758789e-03
-3.516032695770263672e-01 6.203120201826095581e-02 -5.568269640207290649e-02
-4.007008969783782959e-01 5.259091779589653015e-02 -2.412752714008092880e-03
-3.498608171939849854e-01 9.384313970804214478e-02 -9.806760586798191071e-03
-3.359223008155822754e-01 -1.660295948386192322e-02 2.620955370366573334e-02
-3.804823756217956543e-01 3.846748545765876770e-02 5.170959979295730591e-02
-4.072441458702087402e-01 1.806585676968097687e-02 -2.863122709095478058e-02
-2.614416480064392090e-01 9.820386767387390137e-02 -1.216823235154151917e-02
-3.227105140686035156e-01 -1.894163712859153748e-02 -1.395478378981351852e-02
-3.557195961475372314e-01 7.258875668048858643e-02 -4.529269039630889893e-02
-4.153586328029632568e-01 -1.053660362958908081e-02 -2.002675645053386688e-02
-2.713679969310760498e-01 8.932358026504516602e-02 9.228579699993133545e-03
-3.880515694618225098e-01 5.450866371393203735e-02 -2.820910885930061340e-02
-2.516972124576568604e-01 7.612901926040649414e-02 -2.344110794365406036e-02
-3.105640709400177002e-01 6.043057143688201904e-02 4.216883331537246704e-02
-3.810309469699859619e-01 -1.506663113832473755e-02 4.861079156398773193e-02
-3.377227783203125000e-01 5.859197676181793213e-02 -6.360704451799392700e-02
-3.837295770645141602e-01 4.876052215695381165e-02 4.429877549409866333e-02
-3.042246103286743164e-01 1.311214454472064972e-02 -5.437679588794708252e-02
-3.744224905967712402e-01 -2.430411428213119507e-02 -3.532849252223968506e-02
-3.250194489955902100e-01 1.031967699527740479e-01 -2.565906941890716553e-02
-3.953245878219604492e-01 -2.515111118555068970e-02 -2.766277827322483063e-02
-2.779613435268402100e-01 1.097369492053985596e-01 -1.832396909594535828e-02
-3.647175133228302002e-01 2.782469615340232849e-02 5.682251602411270142e-02
-3.778150975704193115e-01 2.807144448161125183e-02 -5.155322700738906860e-02
-3.345013260841369629e-01 1.000815778970718384e-01 -2.145545184612274170e-02
-4.063869118690490723e-01 -3.234929218888282776e-02 3.140775114297866821e-02
-3.453319370746612549e-01 7.489137351512908936e-02 -5.101940035820007324e-02
-2.750686705112457275e-01 1.060011982917785645e-01 -3.717820346355438232e-02
-3.957631587982177734e-01 -3.521622344851493835e-02 2.974140085279941559e-02
-3.698247075080871582e-01 8.047454059123992920e-02 -1.063958927989006042e-02
-3.452941179275512695e-01 -2.991727367043495178e-02 -1.499280985444784164e-02
-3.146894574165344238e-01 -1.266145333647727966e-02 8.427673019468784332e-04
-3.343687653541564941e-01 3.675695136189460754e-02 -6.751060485839843750e-02
-3.572058081626892090e-01 1.329340040683746338e-03 5.193842202425003052e-02
-3.183898925781250000e-01 7.041762769222259521e-02 4.130265116691589355e-02
-3.910230398178100586e-01 -3.958430513739585876e-02 1.965554617345333099e-02
-2.855755984783172607e-01 4.281204938888549805e-02 -6.240881234407424927e-02
-4.088882803916931152e-01 3.961483389139175415e-02 -7.880683988332748413e-03
-3.512267172336578369e-01 -1.878116652369499207e-02 -4.086983203887939453e-02
-3.668567836284637451e-01 5.131369456648826599e-02 -5.143766850233078003e-02
-3.587275147438049316e-01 8.870723843574523926e-02 -7.025591563433408737e-03
-4.165917932987213135e-01 9.220167994499206543e-04 -2.005995064973831177e-02
-4.043901264667510986e-01 3.576223179697990417e-02 3.761665523052215576e-02
-3.074784576892852783e-01 1.086492389440536499e-01 -4.146657418459653854e-03
-2.764898836612701416e-01 5.327033251523971558e-02 -6.071844696998596191e-02
-3.021875917911529541e-01 6.949461996555328369e-03 1.851496659219264984e-02
-4.139482080936431885e-01 -2.204756811261177063e-02 3.773288428783416748e-02
-4.070562720298767090e-01 -1.348516717553138733e-02 4.589056223630905151e-02
-4.240840673446655273e-01 -2.612690627574920654e-02 1.740714348852634430e-02
-4.025769829750061035e-01 2.727828361093997955e-02 -3.049862198531627655e-02
-3.323417305946350098e-01 9.430932998657226562e-02 -3.850199282169342041e-02
-3.541177511215209961e-01 -7.127866148948669434e-03 -5.128648877143859863e-02
-3.509911000728607178e-01 8.935621380805969238e-02 -2.611387334764003754e-02
-4.189753532409667969e-01 2.797559276223182678e-02 9.229121729731559753e-03
-2.965890169143676758e-01 4.114482551813125610e-02 -6.631320714950561523e-02
-2.965991795063018799e-01 9.223641455173492432e-02 -5.639554560184478760e-02
-4.045463800430297852e-01 -3.927257284522056580e-02 3.800261765718460083e-03
-3.410214185714721680e-01 -2.198119089007377625e-02 -3.243356943130493164e-02
-3.812808692455291748e-01 -3.448730334639549255e-02 2.916692383587360382e-02
-3.645992279052734375e-01 6.181698292493820190e-02 -4.686178267002105713e-02
-3.429561257362365723e-01 2.730097807943820953e-02 5.416627228260040283e-02
-3.167002201080322266e-01 1.049274355173110962e-01 4.110491834580898285e-03
-3.756480216979980469e-01 7.072101533412933350e-02 -2.424945123493671417e-02
-3.224011659622192383e-01 9.269066900014877319e-02 -4.775220155715942383e-02
-3.042117357254028320e-01 5.114948749542236328e-02 4.028289765119552612e-02
-3.193127512931823730e-01 -9.390946477651596069e-03 -3.786877542734146118e-02
-3.201701641082763672e-01 2.976983971893787384e-02 4.620984196662902832e-02
-3.166537284851074219e-01 2.752089686691761017e-02 -6.636094301939010620e-02
-2.924180924892425537e-01 5.805894732475280762e-02 -6.772986799478530884e-02
-2.602989375591278076e-01 7.813058793544769287e-02 7.662507705390453339e-04
-4.147256016731262207e-01 -2.622970938682556152e-02 -1.101457327604293823e-02
-3.675934672355651855e-01 -1.469609141349792480e-02 4.628507047891616821e-02
-3.200883865356445312e-01 8.305588737130165100e-03 3.733940422534942627e-02
-2.883877456188201904e-01 6.753957271575927734e-02 -6.638734042644500732e-02
-4.278291463851928711e-01 -3.955159336328506470e-03 2.514480985701084137e-02
-3.274526894092559814e-01 1.040896177291870117e-01 -1.485684327781200409e-02
-4.074506163597106934e-01 -9.633954614400863647e-03 -2.834417857229709625e-02
-3.469089865684509277e-01 -2.498056739568710327e-03 4.637958854436874390e-02
-3.389785587787628174e-01 8.136247098445892334e-02 3.426692634820938110e-02
-2.752806544303894043e-01 8.211620897054672241e-02 1.628188975155353546e-02
-2.861682772636413574e-01 9.204729646444320679e-02 -5.657852441072463989e-02
-2.992976903915405273e-01 7.299593091011047363e-02 3.416338562965393066e-02
-3.955281376838684082e-01 -1.054627448320388794e-02 -3.674986958503723145e-02
-2.934088706970214844e-01 3.849120810627937317e-03 -2.437784336507320404e-02
-2.886480391025543213e-01 8.244700729846954346e-03 -9.323198348283767700e-03
-4.173657298088073730e-01 1.963598281145095825e-02 -1.216846518218517303e-02
-3.313653469085693359e-01 8.301852643489837646e-02 -5.260687321424484253e-02
-2.662917077541351318e-01 3.789865598082542419e-02 -9.006766602396965027e-03
-3.353101313114166260e-01 4.270076751708984375e-02 5.217241495847702026e-02
-3.634136617183685303e-01 -2.329567819833755493e-02 -3.705086559057235718e-02
-4.048963189125061035e-01 4.660597071051597595e-03 -3.302726894617080688e-02
-3.702158629894256592e-01 7.636606693267822266e-02 2.124300599098205566e-02
-2.832929491996765137e-01 7.628396153450012207e-02 2.430534176528453827e-02
-3.636575639247894287e-01 5.849774181842803955e-02 4.630447924137115479e-02
-3.668138086795806885e-01 7.502928376197814941e-02 -3.060911968350410461e-02
-3.341277837753295898e-01 -4.812233150005340576e-03 3.762394934892654419e-02
-3.316250443458557129e-01 7.266998291015625000e-02 -5.977506935596466064e-02
-3.936771452426910400e-01 3.249240294098854065e-02 4.856371134519577026e-02
-3.882702887058258057e-01 6.599783897399902344e-02 8.349476382136344910e-03
-4.111306965351104736e-01 2.910542860627174377e-02 -1.657170057296752930e-02
-3.331606090068817139e-01 -2.197098731994628906e-02 1.224151812493801117e-02
-3.706397116184234619e-01 8.031855523586273193e-02 6.235543638467788696e-03
-3.784141838550567627e-01 2.883629128336906433e-02 5.532629042863845825e-02
-4.095140099525451660e-01 4.163330048322677612e-02 1.719235442578792572e-02
-3.236373364925384521e-01 5.937006324529647827e-02 -6.735206395387649536e-02
-3.793086707592010498e-01 -1.381783559918403625e-02 -4.254188388586044312e-02
-3.433248996734619141e-01 1.066155545413494110e-02 5.091148614883422852e-02
-3.500500023365020752e-01 8.946608752012252808e-02 1.650575920939445496e-02
-3.087684214115142822e-01 8.183244615793228149e-02 3.315942734479904175e-02
-2.881168127059936523e-01 1.415249891579151154e-02 5.563407205045223236e-03
-3.146408498287200928e-01 -8.389625698328018188e-03 1.293933391571044922e-02
-3.467040657997131348e-01 8.438009023666381836e-02 -4.011034220457077026e-02
-3.259845077991485596e-01 -1.055370271205902100e-02 2.452492900192737579e-02
-3.244026303291320801e-01 8.343819528818130493e-02 3.394331783056259155e-02
-3.774847984313964844e-01 -2.677733078598976135e-02 3.858061134815216064e-02
-3.177413940429687500e-01 -2.989280968904495239e-03 -4.596761614084243774e-02
-4.117506444454193115e-01 -3.680915758013725281e-02 1.458925567567348480e-02
-3.178454935550689697e-01 4.987684637308120728e-02 -6.943370401859283447e-02
-4.161353707313537598e-01 3.177870810031890869e-02 1.837848685681819916e-02
-4.280797541141510010e-01 4.597553983330726624e-03 1.661652140319347382e-02
-3.761618435382843018e-01 1.326132938265800476e-02 5.683878809213638306e-02
-3.770191371440887451e-01 -3.820939734578132629e-02 1.867598295211791992e-02
-2.736166715621948242e-01 7.798739522695541382e-02 -5.984754860401153564e-02
-3.168681561946868896e-01 1.075585931539535522e-01 -1.604904979467391968e-02
-2.626335918903350830e-01 5.827907845377922058e-02 -4.979395866394042969e-02
-3.460234403610229492e-01 -1.217859238386154175e-02 3.889430314302444458e-02
-3.479051291942596436e-01 9.384131431579589844e-02 5.673348903656005859e-03
-2.533822059631347656e-01 6.338782608509063721e-02 -2.459466829895973206e-02
-2.939257621765136719e-01 9.647436439990997314e-03 -4.098583757877349854e-02
-3.832811713218688965e-01 -4.124487563967704773e-02 5.875866860151290894e-03
-2.559832930564880371e-01 5.921405181288719177e-02 -1.374467089772224426e-02
-2.896257936954498291e-01 1.045658290386199951e-01 -4.311144351959228516e-02
-2.546556890010833740e-01 8.325108885765075684e-02 -3.989584743976593018e-02
-3.358095288276672363e-01 -2.656944096088409424e-02 -5.574145819991827011e-03
-2.987900972366333008e-01 8.222599327564239502e-02 -6.264255940914154053e-02
-4.038583338260650635e-01 2.659305743873119354e-02 4.471453279256820679e-02
-3.722585737705230713e-01 2.788379788398742676e-04 5.441395193338394165e-02
-4.236823916435241699e-01 1.820472255349159241e-02 1.516296528279781342e-02
-2.827198505401611328e-01 1.622522808611392975e-02 -3.999325912445783615e-03
-2.742202877998352051e-01 2.614221349358558655e-02 -7.182965055108070374e-03
-3.575854897499084473e-01 -2.206673473119735718e-02 3.555520623922348022e-02
-4.240266680717468262e-01 -1.007754355669021606e-02 -7.195276208221912384e-03
-3.529337644577026367e-01 3.288759291172027588e-02 5.585020035505294800e-02
-3.610758781433105469e-01 -3.608707711100578308e-02 9.160079993307590485e-03
-3.469080924987792969e-01 5.954943597316741943e-02 4.853682219982147217e-02
-2.777991592884063721e-01 3.010537475347518921e-02 -4.734663665294647217e-02
-2.688925266265869141e-01 3.116752207279205322e-02 -2.551032416522502899e-02
-2.997642755508422852e-01 9.865805506706237793e-02 1.657562144100666046e-02
-2.991339564323425293e-01 1.994412392377853394e-03 5.111126229166984558e-03
-2.586129009723663330e-01 4.876760020852088928e-02 -2.422838471829891205e-02
-3.090099692344665527e-01 1.934358291327953339e-02 -6.100558489561080933e-02
-3.821298778057098389e-01 3.799928724765777588e-02 -4.585607349872589111e-02
-3.432697057723999023e-01 -6.222721189260482788e-03 -5.156201124191284180e-02
-3.726773858070373535e-01 4.179978743195533752e-02 -5.141370743513107300e-02
-2.886234521865844727e-01 1.805189251899719238e-02 -4.646266251802444458e-02
-2.960866987705230713e-01 1.675553619861602783e-02 2.119221538305282593e-02
-4.244292378425598145e-01 -2.028992399573326111e-02 2.696485631167888641e-02
-2.984415888786315918e-01 3.128783032298088074e-02 3.271714597940444946e-02
-2.531390488147735596e-01 6.909099221229553223e-02 -3.500472754240036011e-02
-4.184486865997314453e-01 -1.248622313141822815e-02 3.905280679464340210e-02
-3.929601013660430908e-01 4.070090129971504211e-03 -4.231965541839599609e-02
-2.896930873394012451e-01 1.039144992828369141e-01 6.396942771971225739e-03
-4.013938009738922119e-01 5.199046432971954346e-02 1.450958289206027985e-02
-2.997030615806579590e-01 1.107311695814132690e-01 -1.237506233155727386e-02
-2.681167423725128174e-01 4.983419179916381836e-02 7.421003654599189758e-03
-3.962036073207855225e-01 4.887817800045013428e-02 3.314422070980072021e-02
-2.719063758850097656e-01 6.614372134208679199e-02 -6.006360799074172974e-02
-2.792948782444000244e-01 2.780226059257984161e-02 7.891922257840633392e-03
-3.137264251708984375e-01 9.444606304168701172e-02 2.311127819120883942e-02
-3.595454096794128418e-01 8.181668072938919067e-02 2.288036048412322998e-02
-3.932344019412994385e-01 -3.871494159102439880e-02 -8.562201634049415588e-03
-3.078869581222534180e-01 8.574078977108001709e-02 -5.935084074735641479e-02
-2.782618403434753418e-01 9.973734617233276367e-02 -4.829762130975723267e-02
-4.102816879749298096e-01 -1.971582323312759399e-02 -2.105386927723884583e-02
-3.663875460624694824e-01 7.147120684385299683e-02 3.315648436546325684e-02
-4.170314669609069824e-01 1.659671589732170105e-02 3.653800487518310547e-02
-3.211206793785095215e-01 9.938731789588928223e-02 1.506174169480800629e-02
-2.701095044612884521e-01 1.052198410034179688e-01 -1.160659361630678177e-02
-3.647333681583404541e-01 2.291260287165641785e-02 -5.848298966884613037e-02
-3.541365563869476318e-01 3.198055922985076904e-02 -6.246265769004821777e-02
-3.095996677875518799e-01 -6.291229277849197388e-03 -3.225594758987426758e-02
-3.471235036849975586e-01 4.603333771228790283e-02 -6.342668086290359497e-02
-3.326380550861358643e-01 6.168294697999954224e-03 4.409575462341308594e-02
-3.544643819332122803e-01 1.903535425662994385e-02 5.580247193574905396e-02
-3.900321722030639648e-01 -5.613565444946289062e-04 5.392358452081680298e-02
-2.862028181552886963e-01 5.373099818825721741e-02 2.860521711409091949e-02
-3.847731649875640869e-01 -3.345626220107078552e-02 -2.188510261476039886e-02
-2.760394215583801270e-01 1.039939373731613159e-01 -2.034803852438926697e-03
-2.913019061088562012e-01 2.713103406131267548e-02 2.380045130848884583e-02
-4.194350242614746094e-01 2.172974869608879089e-02 2.732250653207302094e-02
-2.621822953224182129e-01 4.969387501478195190e-02 -4.284569621086120605e-02
-3.256805241107940674e-01 5.963975191116333008e-02 4.677197337150573730e-02
-2.602787613868713379e-01 6.591854244470596313e-02 6.559118628501892090e-04
-3.249679803848266602e-01 8.146246895194053650e-03 -5.864134430885314941e-02
-4.224667847156524658e-01 1.967949047684669495e-02 3.972915001213550568e-03
-5.064917802810668945e-01 -1.570005901157855988e-02 -2.791018411517143250e-02
-4.031623005867004395e-01 -2.662590332329273224e-02 7.892744615674018860e-04
-4.459659457206726074e-01 1.989581622183322906e-02 4.034961760044097900e-02
-4.439858794212341309e-01 -7.069539278745651245e-03 -5.877861008048057556e-02
-4.905630648136138916e-01 1.276739872992038727e-02 1.435874588787555695e-02
-4.758934676647186279e-01 -4.038582369685173035e-02 4.849307239055633545e-02
-3.965893983840942383e-01 -5.510374903678894043e-04 -2.353643625974655151e-02
-4.781592190265655518e-01 1.285895518958568573e-02 5.357002094388008118e-02
-4.698414206504821777e-01 -1.349227875471115112e-02 -5.631205067038536072e-02
-4.838777482509613037e-01 -3.142414614558219910e-03 -3.450013697147369385e-02
-4.502536356449127197e-01 1.632991619408130646e-02 -1.792593672871589661e-02
-4.995671212673187256e-01 -5.304913595318794250e-02 3.251332044601440430e-02
-4.769133329391479492e-01 1.955617219209671021e-03 6.473128497600555420e-02
-4.517239928245544434e-01 -6.381344795227050781e-02 -9.941902011632919312e-03
-4.057674109935760498e-01 -3.503307327628135681e-02 -8.191529661417007446e-03
-4.685785174369812012e-01 -1.859133131802082062e-02 6.311689317226409912e-02
-5.017951726913452148e-01 -2.570332959294319153e-03 -1.348868571221828461e-02
-4.974147379398345947e-01 -4.328515380620956421e-03 -2.261428534984588623e-02
-4.839690327644348145e-01 -1.432466786354780197e-02 -4.834147542715072632e-02
-4.956196844577789307e-01 -6.523147225379943848e-02 -3.960135579109191895e-02
-4.127344489097595215e-01 -3.752084076404571533e-02 -6.291888654232025146e-02
-4.344900250434875488e-01 1.974760927259922028e-02 3.333267197012901306e-02
-4.819162786006927490e-01 9.505672380328178406e-03 -1.181503199040889740e-02
-4.212007224559783936e-01 -4.505391418933868408e-02 -6.515485048294067383e-02
-4.739272892475128174e-01 1.945993117988109589e-02 1.803650893270969391e-02
-4.904026091098785400e-01 -1.108452025800943375e-02 6.601865589618682861e-02
-5.087223649024963379e-01 -4.389815032482147217e-03 -5.741541739553213120e-03
-5.056787133216857910e-01 4.594272002577781677e-03 1.736946217715740204e-02
-4.329640269279479980e-01 2.047506161034107208e-02 -5.736554972827434540e-03
-3.976134061813354492e-01 -2.971387654542922974e-02 -2.777968905866146088e-02
-4.765897095203399658e-01 1.704941131174564362e-02 4.376121237874031067e-02
-4.128488004207611084e-01 1.371661201119422913e-03 -4.420692473649978638e-02
-4.220439791679382324e-01 1.929969899356365204e-02 -2.443723380565643311e-03
-4.674268960952758789e-01 1.379949413239955902e-02 5.480111390352249146e-02
-4.596536457538604736e-01 1.812409795820713043e-02 -7.323369383811950684e-03
-5.127590894699096680e-01 -5.891507863998413086e-02 -2.734336629509925842e-02
-4.024090766906738281e-01 8.654398843646049500e-03 -2.738909795880317688e-03
-3.956191539764404297e-01 -2.261793985962867737e-02 -1.637883298099040985e-02
-3.971028923988342285e-01 -4.306368529796600342e-03 1.357751898467540741e-03
-5.301541090011596680e-01 -2.516415156424045563e-02 1.904539205133914948e-02
-4.032636582851409912e-01 -3.767989575862884521e-02 -4.153892397880554199e-02
-4.433309137821197510e-01 -2.706827968358993530e-02 -7.324869930744171143e-02
-4.133001267910003662e-01 -4.029038548469543457e-02 -2.833679085597395897e-03
-4.397254288196563721e-01 -6.306503713130950928e-02 -3.327114507555961609e-02
-5.052410960197448730e-01 -6.087967753410339355e-02 -3.652746975421905518e-02
-4.422470629215240479e-01 1.956185139715671539e-02 -1.008948031812906265e-02
-4.664797186851501465e-01 8.916230872273445129e-03 -2.660479024052619934e-02
-4.980511665344238281e-01 -1.828760839998722076e-02 6.348155438899993896e-02
-4.154112637042999268e-01 -1.900675520300865173e-02 2.789129316806793213e-02
-4.779047667980194092e-01 3.642285242676734924e-03 -2.828384004533290863e-02
-4.343371093273162842e-01 9.732013568282127380e-03 -3.591393306851387024e-02
-4.745799601078033447e-01 -4.045344889163970947e-03 -4.277219623327255249e-02
-4.224615991115570068e-01 -5.137791484594345093e-02 -5.674080923199653625e-02
-4.036389589309692383e-01 -1.154711190611124039e-02 1.530016213655471802e-02
-5.254494547843933105e-01 -1.665246672928333282e-02 3.422925621271133423e-02
-4.432427883148193359e-01 -5.050113797187805176e-02 1.665827445685863495e-02
-4.562831819057464600e-01 -1.251990441232919693e-02 6.143325194716453552e-02
-5.253665447235107422e-01 -3.079647198319435120e-02 -1.177413295954465866e-02
-4.330013394355773926e-01 -1.678578555583953857e-04 5.029882118105888367e-02
-5.193200707435607910e-01 -6.549756973981857300e-03 3.065732493996620178e-02
-5.232166051864624023e-01 -1.189856696873903275e-02 1.693370938301086426e-02
-4.887133240699768066e-01 -6.393080204725265503e-02 9.730542078614234924e-03
-4.749535620212554932e-01 -6.544117629528045654e-02 -5.310904234647750854e-02
-4.926844835281372070e-01 -3.754359111189842224e-02 -5.704859271645545959e-02
-4.133364260196685791e-01 7.585661485791206360e-03 -3.367745503783226013e-02
-5.154678821563720703e-01 -5.838260054588317871e-02 9.169079363346099854e-03
-4.743656516075134277e-01 -6.962390989065170288e-02 -1.818389631807804108e-02
-4.679132401943206787e-01 -6.682368367910385132e-02 -6.459915079176425934e-03
-5.188351273536682129e-01 -1.958819851279258728e-02 5.010247603058815002e-02
-4.241552352905273438e-01 -5.220614746212959290e-02 -1.342801749706268311e-02
-4.517196416854858398e-01 -5.116016045212745667e-02 -7.222260534763336182e-02
-4.203576147556304932e-01 -1.400540862232446671e-02 -6.361608207225799561e-02
-4.647629857063293457e-01 -4.844680428504943848e-02 3.434508293867111206e-02
-5.000887513160705566e-01 -5.584558844566345215e-02 -4.826588928699493408e-02
-4.455424845218658447e-01 -1.490180473774671555e-02 -6.573407351970672607e-02
-4.322875142097473145e-01 1.356160826981067657e-02 4.258800670504570007e-02
-5.286622047424316406e-01 -4.042290896177291870e-02 2.389197982847690582e-02
-4.633120596408843994e-01 2.141928859055042267e-02 3.419052064418792725e-02
-4.311011135578155518e-01 -3.862986713647842407e-02 -7.375941425561904907e-02
-4.472293853759765625e-01 -5.794892460107803345e-02 -6.527806073427200317e-02
-4.835956692695617676e-01 -4.592733085155487061e-02 -6.406547874212265015e-02
-4.130427837371826172e-01 -3.554837778210639954e-03 3.114968538284301758e-02
-4.519715309143066406e-01 -6.514058262109756470e-02 -5.093368887901306152e-02
-5.150108933448791504e-01 -3.561928868293762207e-03 1.341667398810386658e-02
-4.689260125160217285e-01 1.426301337778568268e-02 -1.197027042508125305e-02
-5.054020881652832031e-01 -3.000630624592304230e-02 5.633637681603431702e-02
-4.951267838478088379e-01 4.049623385071754456e-03 -8.471595123410224915e-03
-4.379392266273498535e-01 -5.924567580223083496e-02 -1.243327744305133820e-02
-4.617405533790588379e-01 -6.162935495376586914e-02 -6.198940053582191467e-02
-4.928891658782958984e-01 -4.528637975454330444e-02 4.459878057241439819e-02
-4.642973840236663818e-01 1.982535608112812042e-02 3.742357250303030014e-03
-4.674383103847503662e-01 -2.873517572879791260e-03 6.554713845252990723e-02
-5.017645955085754395e-01 -6.686716526746749878e-02 -1.901468075811862946e-02
-4.898540079593658447e-01 -5.801719427108764648e-02 -5.517932400107383728e-02
-4.266788363456726074e-01 4.631595686078071594e-03 -4.421793296933174133e-02
-4.296956956386566162e-01 -5.046892911195755005e-02 1.320083159953355789e-03
-4.960445165634155273e-01 -9.684702381491661072e-03 -3.227782994508743286e-02
-4.939807355403900146e-01 -2.721818536520004272e-02 -5.123475566506385803e-02
-4.539869129657745361e-01 -6.737738847732543945e-02 -3.784332051873207092e-02
-4.122865796089172363e-01 -4.735377058386802673e-02 -3.533292934298515320e-02
-4.452448487281799316e-01 2.283310331404209137e-02 7.207936141639947891e-03
-4.150404930114746094e-01 -4.599465429782867432e-02 -1.413578353822231293e-02
-4.090577661991119385e-01 -4.357348382472991943e-02 -2.552341111004352570e-02
-5.158093571662902832e-01 -4.609499499201774597e-02 3.551841154694557190e-02
-4.905975461006164551e-01 9.988894686102867126e-03 1.788155175745487213e-03
-4.247406721115112305e-01 -4.382948577404022217e-02 8.619464933872222900e-03
-4.742528796195983887e-01 1.718907989561557770e-02 4.062176216393709183e-03
-4.814952909946441650e-01 -2.513407729566097260e-02 -5.896877869963645935e-02
-4.545427560806274414e-01 -3.131072968244552612e-02 4.948537796735763550e-02
-5.200312137603759766e-01 -3.010292164981365204e-02 -2.219459973275661469e-02
-4.915078878402709961e-01 1.298355124890804291e-02 3.717689961194992065e-02
-4.134965538978576660e-01 9.063506498932838440e-03 2.656594477593898773e-02
-4.955506622791290283e-01 -5.982937663793563843e-02 1.979473419487476349e-02
-3.982522487640380859e-01 -1.629775762557983398e-02 9.502931497991085052e-04
-4.198000729084014893e-01 -5.235359072685241699e-02 -4.630794748663902283e-02
-4.571289122104644775e-01 -1.836548559367656708e-02 -6.565268337726593018e-02
-4.289633929729461670e-01 -2.030581608414649963e-02 -6.953942030668258667e-02
-4.667924344539642334e-01 -6.952898204326629639e-02 -3.524393215775489807e-02
-5.139252543449401855e-01 -1.893709599971771240e-02 -2.133280783891677856e-02
-5.107209682464599609e-01 -3.158300742506980896e-02 -3.685963898897171021e-02
-4.743225574493408203e-01 -5.922493338584899902e-02 -6.236902251839637756e-02
-4.455826878547668457e-01 2.315391041338443756e-02 2.559492364525794983e-02
-5.147675871849060059e-01 -5.350538715720176697e-02 2.360772527754306793e-02
-4.377316236495971680e-01 -5.841842293739318848e-02 -5.904897674918174744e-02
-4.653344154357910156e-01 4.558376967906951904e-04 -4.196766763925552368e-02
-4.773251712322235107e-01 -6.896498799324035645e-02 -4.130745679140090942e-02
-4.591149091720581055e-01 -9.678084403276443481e-03 -5.733729898929595947e-02
-5.171595811843872070e-01 -4.843370988965034485e-02 -3.053298965096473694e-02
-4.261366128921508789e-01 1.437331177294254303e-02 -2.452860586345195770e-02
-5.250742435455322266e-01 -4.226369410753250122e-02 -1.632594130933284760e-02
-5.200493335723876953e-01 -5.559600889682769775e-02 -1.576090417802333832e-02
-5.074583292007446289e-01 -4.629309847950935364e-02 -4.431310668587684631e-02
-5.169418454170227051e-01 -1.130444277077913284e-02 -3.629899583756923676e-03
-4.840267002582550049e-01 -6.705597043037414551e-02 -1.175031065940856934e-03
-4.327844679355621338e-01 -1.653451472520828247e-04 -5.159588903188705444e-02
-5.249652266502380371e-01 -4.984972625970840454e-02 1.484879106283187866e-02
-5.275806784629821777e-01 -2.399778738617897034e-02 2.633509691804647446e-03
-4.418465197086334229e-01 -2.613653056323528290e-02 4.641527682542800903e-02
-5.087101459503173828e-01 -1.244060602039098740e-02 5.840420350432395935e-02
-4.110760688781738281e-01 -2.475841715931892395e-02 1.710345223546028137e-02
-4.804175794124603271e-01 -5.340503156185150146e-02 3.174245357513427734e-02
-4.042497575283050537e-01 -1.919416524469852448e-02 -5.634688213467597961e-02
-5.020253062248229980e-01 6.864447146654129028e-03 4.010643810033798218e-02
-5.023002028465270996e-01 -2.631848864257335663e-02 -4.291966184973716736e-02
-4.842471480369567871e-01 -7.002843916416168213e-02 -2.320514433085918427e-02
-4.493862390518188477e-01 -3.953323513269424438e-02 3.794530406594276428e-02
-4.659573137760162354e-01 -5.417657271027565002e-02 2.543500810861587524e-02
-4.682886004447937012e-01 -2.964078448712825775e-02 5.639820173382759094e-02
-6.806718111038208008e-01 2.489114925265312195e-02 6.126089766621589661e-02
-5.726279616355895996e-01 5.012795329093933105e-02 -4.941476136445999146e-02
-6.121557354927062988e-01 6.748535484075546265e-02 4.708363115787506104e-02
-4.855338931083679199e-01 6.217754632234573364e-02 -1.315796375274658203e-02
-5.410615205764770508e-01 -2.250239253044128418e-03 3.016437031328678131e-02
-6.729549169540405273e-01 -2.232244424521923065e-02 2.078758738934993744e-02
-5.036574006080627441e-01 1.199483685195446014e-02 -2.844166196882724762e-02
-5.808810591697692871e-01 1.028119958937168121e-02 -5.248396843671798706e-02
-6.609914898872375488e-01 9.187381714582443237e-03 -4.628549143671989441e-02
-5.327773690223693848e-01 3.109364956617355347e-02 5.240504816174507141e-02
-5.337146520614624023e-01 7.033600658178329468e-02 -2.647119201719760895e-02
-5.314230918884277344e-01 4.409985616803169250e-03 3.424113243818283081e-02
-6.594410538673400879e-01 -2.145540155470371246e-02 2.675108425319194794e-02
-6.355978250503540039e-01 9.488081559538841248e-03 -5.082050338387489319e-02
-5.769592523574829102e-01 7.876931130886077881e-02 2.570560574531555176e-02
-6.096863150596618652e-01 5.571493133902549744e-02 -4.272171482443809509e-02
-6.333559155464172363e-01 -1.059606485068798065e-02 4.647491872310638428e-02
-6.008532643318176270e-01 7.533522695302963257e-02 -1.537335477769374847e-02
-5.786896347999572754e-01 3.794280812144279480e-02 -5.442673340439796448e-02
-6.588281989097595215e-01 6.613975763320922852e-02 3.430476412177085876e-02
-7.150484919548034668e-01 4.785405099391937256e-02 8.010352030396461487e-03
-6.591491699218750000e-01 6.985008716583251953e-02 1.244992576539516449e-02
-7.230239510536193848e-01 1.217973046004772186e-02 -2.054590918123722076e-02
-6.482345461845397949e-01 3.325320780277252197e-02 -4.815306514501571655e-02
-5.994454026222229004e-01 6.183278560638427734e-02 5.432060360908508301e-02
-6.282781362533569336e-01 -1.201432384550571442e-02 -3.688296303153038025e-02
-6.029336452484130859e-01 7.846367359161376953e-02 -2.706130500882863998e-03
-4.913757443428039551e-01 1.926293224096298218e-02 -2.605908177793025970e-02
-6.058448553085327148e-01 2.244446240365505219e-02 6.573338806629180908e-02
-6.526075005531311035e-01 -2.534416876733303070e-02 8.048286661505699158e-03
-6.969660520553588867e-01 2.216127887368202209e-02 -3.481791913509368896e-02
-6.312545537948608398e-01 7.487864047288894653e-02 -1.275059767067432404e-04
-6.659777760505676270e-01 1.412978861480951309e-02 6.259203702211380005e-02
-5.814619660377502441e-01 -1.525033824145793915e-02 -2.557392790913581848e-02
-5.045446753501892090e-01 3.027526848018169403e-02 3.921836614608764648e-02
-7.231199741363525391e-01 -1.055419631302356720e-02 3.201086074113845825e-04
-6.404630541801452637e-01 6.566093116998672485e-02 4.387768357992172241e-02
-4.712229371070861816e-01 3.994784504175186157e-02 9.995151311159133911e-03
-5.216684937477111816e-01 7.634456455707550049e-02 -5.082064773887395859e-03
-6.625383496284484863e-01 4.842150583863258362e-02 -3.505854681134223938e-02
-7.275446057319641113e-01 3.976637497544288635e-02 1.075567305088043213e-02
-5.521865487098693848e-01 -1.450069248676300049e-03 3.753113374114036560e-02
-6.964364051818847656e-01 -8.102396503090858459e-03 4.224625974893569946e-02
-6.235665082931518555e-01 1.498543284833431244e-02 6.469327956438064575e-02
-6.401613354682922363e-01 5.763268470764160156e-02 5.425538867712020874e-02
-5.324226021766662598e-01 -3.329670056700706482e-03 2.137285657227039337e-02
-6.124998331069946289e-01 2.736482955515384674e-02 -5.494240298867225647e-02
-5.703732967376708984e-01 7.793614268302917480e-02 -1.325803995132446289e-02
-7.042667865753173828e-01 4.834603890776634216e-02 3.666212037205696106e-02
-4.937311112880706787e-01 6.853975355625152588e-02 -5.112579558044672012e-03
-7.224310040473937988e-01 3.617738559842109680e-02 -8.744368329644203186e-03
-6.898702979087829590e-01 5.858684331178665161e-02 2.679889276623725891e-02
-6.424470543861389160e-01 -2.520370669662952423e-02 1.078177802264690399e-02
-5.191175937652587891e-01 1.136785186827182770e-02 3.489871323108673096e-02
-5.909478068351745605e-01 6.809153407812118530e-02 -3.152031451463699341e-02
-4.711171984672546387e-01 4.903329908847808838e-02 -9.855708107352256775e-03
-5.563120245933532715e-01 -1.193793676793575287e-02 -2.087122574448585510e-02
-5.543037652969360352e-01 3.437862545251846313e-02 5.919864028692245483e-02
-6.486272811889648438e-01 5.046788603067398071e-03 -4.738778620958328247e-02
-6.204208135604858398e-01 3.746962547302246094e-02 -5.186489596962928772e-02
-5.829612612724304199e-01 4.133328050374984741e-02 6.381974369287490845e-02
-5.817995667457580566e-01 -1.055749319493770599e-02 3.611648827791213989e-02
-6.496069431304931641e-01 3.572096303105354309e-02 6.507490575313568115e-02
-5.663137435913085938e-01 -9.543448686599731445e-04 4.397256299853324890e-02
-6.016830801963806152e-01 -1.030621118843555450e-02 4.233847931027412415e-02
-6.293509602546691895e-01 -2.002793364226818085e-02 -2.364548854529857635e-02
-6.941035985946655273e-01 -1.643648929893970490e-02 2.950058318674564362e-02
-5.097314119338989258e-01 6.864212453365325928e-03 2.104393951594829559e-02
-5.067254900932312012e-01 2.655450254678726196e-03 9.290585294365882874e-04
-6.455745100975036621e-01 4.652886092662811279e-02 6.155575811862945557e-02
-6.209569573402404785e-01 1.271821372210979462e-02 -5.318356305360794067e-02
-5.946099758148193359e-01 1.504143327474594116e-02 6.219624727964401245e-02
-4.953184127807617188e-01 4.308988526463508606e-02 -3.621161356568336487e-02
-4.901565909385681152e-01 3.951474279165267944e-02 3.190654143691062927e-02
-5.539448857307434082e-01 6.172958761453628540e-02 -4.004058986902236938e-02
-6.491617560386657715e-01 -2.332169748842716217e-02 2.131593413650989532e-02
-5.115070343017578125e-01 5.088572949171066284e-02 -3.996425494551658630e-02
-6.415801048278808594e-01 1.273262035101652145e-02 6.399046629667282104e-02
-5.030344724655151367e-01 5.435708910226821899e-03 -1.299590989947319031e-02
-5.011656284332275391e-01 6.879910081624984741e-02 -1.441609673202037811e-02
-5.342287421226501465e-01 -8.183097466826438904e-03 5.017510615289211273e-03
-5.919232964515686035e-01 1.145747117698192596e-02 -5.354511365294456482e-02
-6.172091960906982422e-01 -2.023198641836643219e-02 2.680749818682670593e-02
-7.131017446517944336e-01 -4.266405478119850159e-03 -1.981007680296897888e-02
-5.985431671142578125e-01 5.299049243330955505e-02 6.075408309698104858e-02
-7.167503833770751953e-01 1.472922973334789276e-02 4.827352613210678101e-02
-5.534684062004089355e-01 8.035820722579956055e-02 1.353630051016807556e-02
-5.547912716865539551e-01 6.749598309397697449e-03 -4.664281383156776428e-02
-5.878304243087768555e-01 7.973010838031768799e-02 2.012653835117816925e-02
-5.633935928344726562e-01 2.546130865812301636e-02 5.997372046113014221e-02
-6.999449133872985840e-01 2.867548540234565735e-02 5.481671541929244995e-02
-5.178107023239135742e-01 6.631519645452499390e-03 -3.185788542032241821e-02
-6.881955265998840332e-01 3.412084281444549561e-02 -3.444872051477432251e-02
-6.317626833915710449e-01 -2.342287637293338776e-02 -1.364308036863803864e-02
-6.721554994583129883e-01 3.923953324556350708e-02 -3.821927681565284729e-02
-6.203489303588867188e-01 6.937701255083084106e-02 -2.275944873690605164e-02
-7.035203576087951660e-01 -1.851712353527545929e-02 1.357934810221195221e-02
-5.750087499618530273e-01 7.333703339099884033e-02 -2.430782467126846313e-02
-5.258198976516723633e-01 3.512709215283393860e-02 -4.848673939704895020e-02
-4.807235598564147949e-01 2.627900242805480957e-02 -2.114869654178619385e-02
-6.216642856597900391e-01 7.445292919874191284e-02 3.046773560345172882e-02
-6.293252110481262207e-01 6.394926458597183228e-04 5.725252628326416016e-02
-5.607063174247741699e-01 -1.477746851742267609e-02 1.199072040617465973e-02
-5.788143277168273926e-01 1.476885750889778137e-03 5.030309781432151794e-02
-5.506387948989868164e-01 5.057404935359954834e-02 5.586875602602958679e-02
-5.605196952819824219e-01 8.478216826915740967e-03 5.092101171612739563e-02
-6.784943342208862305e-01 6.266333907842636108e-02 2.682299725711345673e-02
-6.183747053146362305e-01 7.425580918788909912e-02 -1.178370602428913116e-02
-6.554380059242248535e-01 2.985263243317604065e-03 5.866185948252677917e-02
-5.501758456230163574e-01 -9.674398228526115417e-03 2.044979296624660492e-02
-5.743094682693481445e-01 -1.641062833368778229e-02 1.832601614296436310e-02
-6.393973231315612793e-01 7.256153970956802368e-02 2.698860503733158112e-02
-6.572756171226501465e-01 4.549208283424377441e-02 6.009856611490249634e-02
-6.843671798706054688e-01 -2.133237384259700775e-02 1.930336840450763702e-02
-6.851643919944763184e-01 -8.259868249297142029e-03 4.527331516146659851e-02
-5.933747887611389160e-01 2.641001716256141663e-02 6.523580104112625122e-02
-4.702498018741607666e-01 4.926051199436187744e-02 3.359705442562699318e-03
-6.098335385322570801e-01 -2.246493659913539886e-02 1.628524251282215118e-02
-5.957029461860656738e-01 7.797747105360031128e-02 2.659832313656806946e-02
-5.154057741165161133e-01 4.083368927240371704e-02 4.641705006361007690e-02
-6.735860705375671387e-01 -7.284888997673988342e-03 4.854325205087661743e-02
-6.791412830352783203e-01 -1.308318227529525757e-03 -3.721572458744049072e-02
-6.853369474411010742e-01 5.662187188863754272e-02 -1.090188510715961456e-02
-6.552485823631286621e-01 5.599801242351531982e-02 5.233073979616165161e-02
-6.434149742126464844e-01 7.343056052923202515e-02 8.962163701653480530e-03
-5.676363706588745117e-01 2.007495239377021790e-02 -5.440248548984527588e-02
-5.717253684997558594e-01 6.717649102210998535e-02 4.762431979179382324e-02
-5.235693454742431641e-01 -3.562634810805320740e-03 -1.429176516830921173e-02
-5.407264232635498047e-01 3.544870764017105103e-02 -5.161915719509124756e-02
-6.362169981002807617e-01 -2.365339361131191254e-02 1.924838311970233917e-02
-5.198239684104919434e-01 -3.299415111541748047e-03 -4.442250821739435196e-03
-5.909382104873657227e-01 7.309429347515106201e-02 3.975057974457740784e-02
-6.226871609687805176e-01 -6.109492853283882141e-03 5.077484250068664551e-02
-5.471368432044982910e-01 6.912673264741897583e-02 -3.061246313154697418e-02
-5.474709272384643555e-01 -1.257064752280712128e-02 1.236114185303449631e-03
-5.111284255981445312e-01 5.342970788478851318e-02 4.149479418992996216e-02
-7.366744279861450195e-01 3.140905871987342834e-02 1.453934051096439362e-02
-6.120211482048034668e-01 -1.779642514884471893e-02 -2.729741297662258148e-02
-5.102796554565429688e-01 1.830251142382621765e-02 3.576978668570518494e-02
-5.281451344490051270e-01 7.116939127445220947e-02 3.188978508114814758e-02
-5.149573087692260742e-01 6.537154316902160645e-02 3.398196026682853699e-02
-5.609188079833984375e-01 -2.083135768771171570e-03 -4.029739275574684143e-02
-5.732827782630920410e-01 2.772510051727294922e-04 -4.533081129193305969e-02
-6.254991888999938965e-01 4.506962746381759644e-02 6.418203562498092651e-02
-5.066803097724914551e-01 7.340227812528610229e-02 -1.636608969420194626e-03
-6.936513185501098633e-01 -1.616834662854671478e-02 -1.522512175142765045e-02
-6.096364259719848633e-01 7.105614989995956421e-02 -2.278845012187957764e-02
-5.822136402130126953e-01 7.022999972105026245e-02 4.444786906242370605e-02
-4.860267937183380127e-01 2.071969583630561829e-02 1.605867594480514526e-02
-7.329128384590148926e-01 2.884075418114662170e-02 -3.935247194021940231e-03
-6.766667366027832031e-01 -2.030400000512599945e-02 -1.421800814568996429e-02
-5.907424092292785645e-01 7.467556744813919067e-02 -1.948534138500690460e-02
-6.820520758628845215e-01 2.680889517068862915e-02 -3.993372991681098938e-02
-4.887270033359527588e-01 2.934602834284305573e-02 -3.119462914764881134e-02
-5.956652760505676270e-01 5.084538459777832031e-02 -4.806487634778022766e-02
-6.769341230392456055e-01 5.409782007336616516e-02 -2.166260033845901489e-02
-5.358276367187500000e-01 6.520280987024307251e-02 4.247384145855903625e-02
-6.606122255325317383e-01 6.844267249107360840e-02 9.202770888805389404e-04
-5.908975601196289062e-01 3.418069705367088318e-02 -5.517188459634780884e-02
-5.855560302734375000e-01 5.976778268814086914e-02 -4.183309525251388550e-02
-5.855050683021545410e-01 -1.972852833569049835e-02 1.305273361504077911e-02
-5.950863957405090332e-01 -1.992725022137165070e-02 1.911779306828975677e-02
-4.959053397178649902e-01 6.923381984233856201e-02 9.981516748666763306e-03
-6.885063052177429199e-01 4.838149249553680420e-02 4.751078411936759949e-02
-7.231190800666809082e-01 -1.095590926706790924e-02 1.781637221574783325e-02
-7.043652534484863281e-01 3.831075876951217651e-02 4.816465452313423157e-02
-7.211350202560424805e-01 2.981765009462833405e-02 4.289669543504714966e-02
-6.502033472061157227e-01 2.274437621235847473e-02 -4.979954287409782410e-02
-4.782258570194244385e-01 2.795670926570892334e-02 1.378942094743251801e-02
-6.135486364364624023e-01 7.746008783578872681e-02 2.174690924584865570e-02
