-6.821028888225555420e-02 -2.189571037888526917e-02 -5.731688737869262695e-01
-1.243288815021514893e-01 -2.165126800537109375e-02 -5.862916111946105957e-01
-5.609525367617607117e-02 -4.922419041395187378e-02 -5.142022371292114258e-01
-1.203659102320671082e-01 -5.321920849382877350e-03 -6.118103861808776855e-01
-1.135344207286834717e-01 -2.059341408312320709e-02 -5.929181575775146484e-01
-1.327385455369949341e-01 -1.758207380771636963e-02 -5.821622014045715332e-01
-1.229848414659500122e-01 -1.667802408337593079e-02 -5.981172323226928711e-01
-9.386849403381347656e-02 -2.739002555608749390e-02 -5.330451130867004395e-01
-6.522946059703826904e-02 -4.714237898588180542e-02 -5.355311036109924316e-01
-1.338601261377334595e-01 -1.052201353013515472e-02 -5.755580663681030273e-01
-1.484050601720809937e-01 2.194643020629882812e-03 -6.130823493003845215e-01
-3.924617171287536621e-02 -3.298270329833030701e-02 -5.342620015144348145e-01
-1.107664182782173157e-01 -3.182249516248703003e-02 -5.590257048606872559e-01
-4.419617354869842529e-02 -2.914087846875190735e-02 -5.204901099205017090e-01
-1.293103098869323730e-01 1.351858116686344147e-02 -6.170806288719177246e-01
-3.480541333556175232e-02 -4.192295670509338379e-02 -5.162568688392639160e-01
-7.394820451736450195e-02 -3.827778995037078857e-02 -5.582021474838256836e-01
-4.731937870383262634e-02 -4.884760081768035889e-02 -5.230675935745239258e-01
-1.027041301131248474e-01 3.136638551950454712e-03 -6.055234074592590332e-01
-7.240750640630722046e-02 -3.150626271963119507e-02 -5.190941691398620605e-01
-7.677347958087921143e-02 -1.711061224341392517e-03 -5.694392919540405273e-01
-7.815447449684143066e-02 -1.463337615132331848e-02 -5.845558643341064453e-01
5.000312328338623047e-01 4.189559817314147949e-02 8.560995012521743774e-02
4.406335949897766113e-01 -9.326427243649959564e-03 5.747615918517112732e-02
4.564498662948608398e-01 -7.254872471094131470e-04 9.567636251449584961e-02
4.384593069553375244e-01 -2.410432696342468262e-02 2.273847348988056183e-02
4.903949797153472900e-01 5.173071846365928650e-02 8.470017462968826294e-02
4.837304055690765381e-01 5.311423540115356445e-02 9.441239386796951294e-02
4.925923645496368408e-01 -2.682439982891082764e-02 -3.964180871844291687e-02
4.820302128791809082e-01 5.853027850389480591e-02 3.267136216163635254e-02
4.653865993022918701e-01 6.224931776523590088e-02 7.194796204566955566e-02
4.465706348419189453e-01 8.304159156978130341e-03 8.692906796932220459e-02
4.896613955497741699e-01 3.440335020422935486e-02 -2.265637740492820740e-02
4.593299329280853271e-01 -4.471711069345474243e-02 -3.960252925753593445e-02
4.704103171825408936e-01 -4.639817029237747192e-02 5.518823862075805664e-03
4.639148712158203125e-01 -3.294060751795768738e-02 -7.603426277637481689e-02
4.737282395362854004e-01 6.335646659135818481e-02 5.046484246850013733e-02
4.925922155380249023e-01 1.388096064329147339e-02 -4.155117273330688477e-02
4.457495510578155518e-01 3.758283704519271851e-02 -6.995464861392974854e-02
4.207170009613037109e-01 1.064779236912727356e-03 -7.725665345788002014e-04
4.794695377349853516e-01 -4.232770204544067383e-02 3.483314067125320435e-02
4.815191030502319336e-01 4.573535919189453125e-02 1.108931452035903931e-01
4.727289974689483643e-01 -3.560201451182365417e-02 5.680633708834648132e-02
4.708521664142608643e-01 5.927418824285268784e-03 -8.336314558982849121e-02
5.069313049316406250e-01 -4.566314630210399628e-03 -5.727049894630908966e-03
4.808630645275115967e-01 -2.943588793277740479e-02 -6.146088242530822754e-02
4.642065763473510742e-01 5.793045833706855774e-02 8.623941242694854736e-02
4.521273076534271240e-01 2.882610261440277100e-02 1.011775508522987366e-01
5.106473565101623535e-01 2.334430441260337830e-02 5.104812234640121460e-02
4.967107176780700684e-01 4.799547791481018066e-02 5.314730480313301086e-02
4.416581690311431885e-01 -3.692774474620819092e-02 -2.970806509256362915e-02
4.186415374279022217e-01 2.554898709058761597e-02 -4.325644671916961670e-02
5.085985064506530762e-01 1.897004619240760803e-02 2.025674469769001007e-02
5.032619237899780273e-01 3.262197133153676987e-03 -1.817106083035469055e-02
4.869873225688934326e-01 -4.349350929260253906e-02 -1.730449497699737549e-03
4.644348025321960449e-01 5.861595273017883301e-04 -9.155867993831634521e-02
4.783579707145690918e-01 5.863507464528083801e-02 1.837502233684062958e-02
4.556927084922790527e-01 6.306446343660354614e-02 3.675451502203941345e-03
5.120416879653930664e-01 1.332536712288856506e-02 8.009687811136245728e-02
4.319747984409332275e-01 3.815240692347288132e-03 -9.202104806900024414e-02
4.187030792236328125e-01 2.974378317594528198e-02 -3.108479827642440796e-02
4.202867150306701660e-01 1.615282893180847168e-02 1.241744030267000198e-02
4.789695739746093750e-01 5.216175317764282227e-02 -6.472573615610599518e-03
5.125246644020080566e-01 1.670298725366592407e-02 6.721906363964080811e-02
4.443348646163940430e-01 2.333092316985130310e-02 -8.750033378601074219e-02
5.003471374511718750e-01 -3.761791624128818512e-03 -2.954175695776939392e-02
4.282569587230682373e-01 -1.147207710891962051e-02 1.458078436553478241e-02
4.415643513202667236e-01 5.420711264014244080e-02 5.796562135219573975e-02
4.326608777046203613e-01 -2.292427048087120056e-02 2.868433482944965363e-03
4.282119870185852051e-01 4.874670878052711487e-02 1.499730069190263748e-02
4.691790342330932617e-01 6.349901109933853149e-02 2.436358481645584106e-02
4.961194097995758057e-01 -1.698853820562362671e-02 -3.882892802357673645e-02
4.291206300258636475e-01 8.922120556235313416e-03 4.534289240837097168e-02
4.178005158901214600e-01 2.866343129426240921e-03 -3.826208785176277161e-02
4.442675113677978516e-01 5.968194082379341125e-02 4.739387333393096924e-02
4.287497699260711670e-01 1.457773335278034210e-02 -8.455397188663482666e-02
4.233462214469909668e-01 2.865740284323692322e-02 2.740996517241001129e-02
4.351000785827636719e-01 -1.834307983517646790e-02 -8.485755324363708496e-02
4.242333769798278809e-01 -1.593921333551406860e-02 -3.931765630841255188e-02
4.339009821414947510e-01 2.337550744414329529e-02 6.491535156965255737e-02
5.060412287712097168e-01 -2.580543980002403259e-02 2.047781087458133698e-02
5.066612362861633301e-01 2.703996002674102783e-02 9.359909594058990479e-02
4.298520684242248535e-01 4.964524880051612854e-02 -2.242496982216835022e-02
4.654844403266906738e-01 6.003187596797943115e-02 -3.245736472308635712e-03
4.232341945171356201e-01 2.460386138409376144e-03 1.587863452732563019e-02
4.515151381492614746e-01 -3.921236470341682434e-02 -6.007683277130126953e-02
4.688493609428405762e-01 -4.422604292631149292e-02 -4.356686025857925415e-02
4.378923773765563965e-01 5.874444171786308289e-02 8.699666708707809448e-03
4.428741633892059326e-01 4.533998295664787292e-02 7.603314518928527832e-02
4.942145943641662598e-01 -1.822528429329395294e-03 -4.587364941835403442e-02
4.697235226631164551e-01 -7.271618582308292389e-03 1.036926433444023132e-01
5.123340487480163574e-01 -7.902451790869235992e-03 6.371591985225677490e-02
4.672356247901916504e-01 4.736797884106636047e-02 -3.887845948338508606e-02
4.772624075412750244e-01 6.081998720765113831e-02 7.079355418682098389e-02
4.307047724723815918e-01 2.111595869064331055e-02 5.564412847161293030e-02
4.718376398086547852e-01 6.363166123628616333e-02 3.607319295406341553e-02
4.685493707656860352e-01 -4.668882489204406738e-02 -2.603715658187866211e-02
4.220143258571624756e-01 -8.049028925597667694e-03 -5.838362872600555420e-02
4.473861455917358398e-01 -3.564913570880889893e-02 -6.729949265718460083e-02
4.630057513713836670e-01 -4.188701510429382324e-02 2.410875633358955383e-02
4.558525383472442627e-01 1.131018903106451035e-02 -9.328749030828475952e-02
5.090288519859313965e-01 2.764135599136352539e-02 7.480411231517791748e-02
5.053337216377258301e-01 -3.593553788959980011e-03 9.825062751770019531e-02
4.439987838268280029e-01 -2.511902526021003723e-02 -8.612218499183654785e-02
4.465056657791137695e-01 -2.378337457776069641e-02 4.578528553247451782e-02
4.895756840705871582e-01 -9.325717575848102570e-03 -5.678047239780426025e-02
4.202527701854705811e-01 1.946211233735084534e-02 -6.073112785816192627e-02
4.687608778476715088e-01 -1.903056725859642029e-02 8.786819875240325928e-02
4.306491613388061523e-01 3.321434929966926575e-02 5.346189066767692566e-02
4.982417225837707520e-01 2.920770272612571716e-02 1.132551655173301697e-01
4.877925217151641846e-01 -2.053403854370117188e-02 -5.654014647006988525e-02
4.226475358009338379e-01 3.930282220244407654e-02 -2.972460165619850159e-02
4.622815251350402832e-01 -2.403854578733444214e-02 7.257317006587982178e-02
4.486482441425323486e-01 5.690954253077507019e-02 -2.505913004279136658e-02
5.034434795379638672e-01 -2.832334861159324646e-02 7.679719012230634689e-03
4.581797122955322266e-01 3.234901651740074158e-02 -7.281862944364547729e-02
4.619903564453125000e-01 -4.526023194193840027e-02 1.176546327769756317e-03
4.814323186874389648e-01 2.729081362485885620e-02 1.240967586636543274e-01
5.047663450241088867e-01 3.664106130599975586e-02 7.474939525127410889e-02
4.543193280696868896e-01 -3.798579424619674683e-02 2.301324531435966492e-02
4.883599281311035156e-01 -3.096120059490203857e-02 7.093927264213562012e-02
4.729727208614349365e-01 1.962642930448055267e-02 -7.177730649709701538e-02
4.247244000434875488e-01 2.572575956583023071e-02 -6.769741326570510864e-02
4.662995636463165283e-01 3.147795796394348145e-02 1.165641248226165771e-01
5.139290094375610352e-01 3.034248016774654388e-03 4.782295599579811096e-02
4.342539608478546143e-01 5.573762953281402588e-02 1.740706153213977814e-02
4.375591576099395752e-01 -3.347736224532127380e-02 -3.885133937001228333e-02
4.476984441280364990e-01 4.667701572179794312e-02 -5.318902432918548584e-02
4.375732243061065674e-01 4.630013182759284973e-02 6.181899458169937134e-02
4.331458210945129395e-01 -3.449026495218276978e-03 4.539301618933677673e-02
4.862492978572845459e-01 -2.859368920326232910e-02 -5.240277945995330811e-02
4.197670221328735352e-01 4.098419565707445145e-03 -6.205904483795166016e-02
4.426339864730834961e-01 6.060818955302238464e-02 1.147960312664508820e-03
4.934014081954956055e-01 -1.445870008319616318e-02 -4.701976478099822998e-02
4.497807621955871582e-01 4.160000011324882507e-02 -6.279806792736053467e-02
4.279010593891143799e-01 2.205414324998855591e-02 4.679898917675018311e-02
4.467031359672546387e-01 -1.496235001832246780e-02 6.250780075788497925e-02
4.622284173965454102e-01 1.903660222887992859e-02 1.131473630666732788e-01
4.525096118450164795e-01 5.052384361624717712e-02 -4.346832633018493652e-02
4.912010729312896729e-01 2.198979631066322327e-02 -3.685766831040382385e-02
4.516523480415344238e-01 -1.627118885517120361e-02 6.981927901506423950e-02
5.124486684799194336e-01 -8.055563084781169891e-03 3.252288699150085449e-02
4.884189069271087646e-01 6.365203764289617538e-03 -5.569210648536682129e-02
4.276617765426635742e-01 4.115935042500495911e-02 -4.617456719279289246e-02
4.183306992053985596e-01 2.265909314155578613e-02 -1.807626336812973022e-03
4.587033390998840332e-01 5.293967947363853455e-02 -3.396071121096611023e-02
5.021418333053588867e-01 3.991484642028808594e-02 4.371480643749237061e-02
4.489484131336212158e-01 2.086678519845008850e-02 9.601943194866180420e-02
5.031108856201171875e-01 2.175517007708549500e-02 -1.334957778453826904e-03
4.488625824451446533e-01 6.335546821355819702e-02 3.875317797064781189e-02
4.871409237384796143e-01 -4.205342009663581848e-02 2.838990464806556702e-02
4.752935171127319336e-01 -4.652545973658561707e-02 -1.838302612304687500e-02
4.370775222778320312e-01 5.732839182019233704e-02 2.732437103986740112e-02
4.621338546276092529e-01 -2.541100606322288513e-02 -8.611701428890228271e-02
4.167654216289520264e-01 1.918515004217624664e-02 -2.664401382207870483e-02
4.342985153198242188e-01 5.559856817126274109e-02 -4.283820278942584991e-03
4.285562038421630859e-01 -2.305892482399940491e-02 -3.361691534519195557e-02
4.179304838180541992e-01 7.532788440585136414e-03 -1.329000014811754227e-02
4.838111698627471924e-01 4.237572476267814636e-02 -2.096852287650108337e-02
5.012655854225158691e-01 1.912888139486312866e-02 -1.169009599834680557e-02
4.470466375350952148e-01 6.020353361964225769e-02 -9.907417930662631989e-03
4.837634563446044922e-01 3.529148641973733902e-03 1.191040873527526855e-01
5.048398971557617188e-01 3.287956863641738892e-02 3.225223347544670105e-02
5.108364820480346680e-01 -1.618524268269538879e-02 3.778764232993125916e-02
5.033075213432312012e-01 -1.762840151786804199e-02 -1.462962757796049118e-02
4.839649498462677002e-01 -3.500074148178100586e-02 6.140046566724777222e-02
4.830859303474426270e-01 -1.039568055421113968e-02 1.067513749003410339e-01
4.316850602626800537e-01 5.270722508430480957e-02 -1.262769009917974472e-02
4.357491731643676758e-01 1.009990740567445755e-02 6.502200663089752197e-02
4.882945418357849121e-01 4.757267236709594727e-02 1.022819355130195618e-01
4.212659895420074463e-01 -6.588493473827838898e-03 -1.629280671477317810e-02
4.188124239444732666e-01 -6.476324051618576050e-05 -2.200631797313690186e-02
4.442226588726043701e-01 9.212357923388481140e-03 -9.704238176345825195e-02
4.518975019454956055e-01 -4.269118234515190125e-02 -1.476674806326627731e-02
4.828574061393737793e-01 2.293122932314872742e-02 -5.318330228328704834e-02
5.089637637138366699e-01 2.414754033088684082e-02 3.466836363077163696e-02
4.349395930767059326e-01 -4.490317776799201965e-03 -9.439224749803543091e-02
4.422348439693450928e-01 -3.288238495588302612e-02 6.417993456125259399e-03
4.972235560417175293e-01 4.274586588144302368e-02 2.379465661942958832e-02
4.306880235671997070e-01 -2.441359311342239380e-02 -1.667365059256553650e-02
4.257787466049194336e-01 -1.800281926989555359e-02 -5.047041177749633789e-02
4.839884638786315918e-01 5.858518928289413452e-02 4.907142743468284607e-02
4.730134308338165283e-01 5.284275859594345093e-02 -1.650597527623176575e-02
5.094159841537475586e-01 1.711730100214481354e-02 9.266243129968643188e-02
4.284051656723022461e-01 -1.678617671132087708e-02 -7.110379636287689209e-02
5.102557539939880371e-01 7.679043337702751160e-04 8.801143616437911987e-02
4.328933060169219971e-01 -1.638557389378547668e-02 2.238981053233146667e-02
4.997540414333343506e-01 3.718871250748634338e-02 1.734060421586036682e-02
4.412308633327484131e-01 -2.973663806915283203e-02 1.490542478859424591e-02
5.062537789344787598e-01 2.003210037946701050e-02 1.022624000906944275e-01
4.190478026866912842e-01 3.129912540316581726e-02 -9.030838496983051300e-03
4.796213507652282715e-01 5.779708176851272583e-02 8.341736346483230591e-02
4.769440889358520508e-01 7.137212902307510376e-03 -7.496988028287887573e-02
4.234519004821777344e-01 1.680593192577362061e-02 2.860685810446739197e-02
4.726882576942443848e-01 2.337004989385604858e-02 1.218024119734764099e-01
5.061442255973815918e-01 -2.594822645187377930e-02 4.102556034922599792e-02
4.172146916389465332e-01 1.598646119236946106e-02 -4.379642382264137268e-02
4.251124560832977295e-01 -1.161225792020559311e-02 -2.292295917868614197e-03
4.652056097984313965e-01 3.198949992656707764e-02 -6.730879843235015869e-02
4.381538927555084229e-01 1.879410073161125183e-02 7.461431622505187988e-02
4.942871928215026855e-01 1.964713446795940399e-03 1.157901734113693237e-01
4.571719765663146973e-01 6.176855787634849548e-02 6.722987443208694458e-02
4.497084319591522217e-01 5.712433904409408569e-02 6.980762630701065063e-02
4.557835161685943604e-01 -3.087748587131500244e-02 4.813142120838165283e-02
4.416300356388092041e-01 5.438965931534767151e-02 -3.006032481789588928e-02
4.590714275836944580e-01 5.969821289181709290e-02 -1.155007351189851761e-02
4.979900717735290527e-01 -3.632651641964912415e-02 1.633989065885543823e-02
4.782333374023437500e-01 -3.617552667856216431e-02 -5.539926886558532715e-02
4.323319494724273682e-01 4.948733001947402954e-02 3.748560324311256409e-02
4.802883267402648926e-01 -1.135498378425836563e-02 -7.336658984422683716e-02
4.539687037467956543e-01 1.504002884030342102e-02 1.020208746194839478e-01
4.748679101467132568e-01 -4.496796056628227234e-02 -3.258797898888587952e-02
4.505290687084197998e-01 1.867062877863645554e-03 -9.885592758655548096e-02
4.214736819267272949e-01 2.090940997004508972e-02 1.997017674148082733e-02
4.735183715820312500e-01 -9.287658147513866425e-03 -8.297209441661834717e-02
5.132703781127929688e-01 4.395861178636550903e-03 3.685519844293594360e-02
4.794047176837921143e-01 3.164857625961303711e-02 -4.847032949328422546e-02
4.378478527069091797e-01 -3.277321904897689819e-02 -5.162407457828521729e-02
4.191419780254364014e-01 -1.765652559697628021e-03 -4.748996347188949585e-02
4.966962933540344238e-01 -2.654504030942916870e-02 -2.792104333639144897e-02
4.585893452167510986e-01 5.678811296820640564e-02 -2.258710935711860657e-02
4.393510520458221436e-01 4.263253509998321533e-02 -5.939468741416931152e-02
4.619526267051696777e-01 -4.100366309285163879e-02 -5.892155319452285767e-02
4.751432836055755615e-01 4.707718640565872192e-02 -2.779605612158775330e-02
5.001598596572875977e-01 -1.586491987109184265e-02 -2.737571299076080322e-02
4.198054373264312744e-01 3.069746866822242737e-02 2.564261667430400848e-03
4.547439217567443848e-01 6.322905421257019043e-02 5.621920898556709290e-02
4.276523590087890625e-01 4.233400151133537292e-02 3.227016702294349670e-02
4.972850978374481201e-01 4.553221538662910461e-02 3.731755167245864868e-02
4.605059623718261719e-01 -3.764759004116058350e-02 -6.845697015523910522e-02
5.066192746162414551e-01 3.390182554721832275e-02 6.462115794420242310e-02
5.059722065925598145e-01 -1.477455627173185349e-02 8.123736083507537842e-02
4.863636493682861328e-01 -3.591663390398025513e-02 -3.993408381938934326e-02
5.113117098808288574e-01 -2.272194251418113708e-04 1.794853992760181427e-02
4.253916740417480469e-01 -1.672091707587242126e-02 -2.114617452025413513e-02
4.717209339141845703e-01 -3.764256834983825684e-04 1.115066632628440857e-01
4.709086120128631592e-01 6.347218900918960571e-02 6.137810647487640381e-02
4.329569935798645020e-01 -2.548094093799591064e-02 -5.997768603265285492e-03
4.785621166229248047e-01 -4.130463302135467529e-02 -4.191798344254493713e-02
4.595634043216705322e-01 -1.646418124437332153e-02 8.160320669412612915e-02
4.428731203079223633e-01 3.782038390636444092e-02 8.223607391119003296e-02
4.761132895946502686e-01 5.641062557697296143e-02 1.844525337219238281e-03
5.087996721267700195e-01 7.239263504743576050e-04 3.605715930461883545e-03
4.382538497447967529e-01 5.577765777707099915e-02 4.195267707109451294e-02
4.324940145015716553e-01 5.335967056453227997e-03 5.279324203729629517e-02
5.044872760772705078e-01 1.156062819063663483e-02 -8.190148510038852692e-03
4.879923164844512939e-01 -2.629567310214042664e-02 8.186665177345275879e-02
4.447587728500366211e-01 1.744928397238254547e-02 8.787807077169418335e-02
4.897353053092956543e-01 -4.227369278669357300e-02 1.104971859604120255e-02
4.298757612705230713e-01 -2.481227740645408630e-02 -4.407855495810508728e-02
4.726555049419403076e-01 -4.533301666378974915e-02 1.638138666749000549e-02
4.947913885116577148e-01 2.377447113394737244e-02 -2.554877102375030518e-02
4.531478285789489746e-01 -4.148524627089500427e-02 2.291670069098472595e-03
5.075671076774597168e-01 1.301410980522632599e-02 6.340234540402889252e-03
4.848468899726867676e-01 -1.609703525900840759e-02 9.967159479856491089e-02
4.891012609004974365e-01 -3.695087134838104248e-02 5.168808624148368835e-02
5.118752121925354004e-01 -1.280126068741083145e-02 4.822319000959396362e-02
4.400511682033538818e-01 -2.168595418334007263e-02 3.377139940857887268e-02
4.878495931625366211e-01 5.496406182646751404e-02 7.612891495227813721e-02
4.515275359153747559e-01 -3.359721228480339050e-02 -7.619632035493850708e-02
4.316506981849670410e-01 3.598181903362274170e-02 -6.465554982423782349e-02
4.627466499805450439e-01 3.987256810069084167e-02 -5.804224312305450439e-02
4.200703203678131104e-01 8.021091111004352570e-03 5.108512938022613525e-03
4.541426301002502441e-01 5.500830337405204773e-02 8.207856118679046631e-02
5.014104843139648438e-01 -2.443173155188560486e-02 7.098676264286041260e-02
5.119338631629943848e-01 6.380267441272735596e-03 2.555880136787891388e-02
4.451785683631896973e-01 -1.825169473886489868e-02 5.372798442840576172e-02
4.204222559928894043e-01 -7.088891230523586273e-03 -3.809338063001632690e-02
5.020589232444763184e-01 -2.739856392145156860e-02 -4.361391998827457428e-03
4.358683526515960693e-01 -2.613928169012069702e-02 -7.200410217046737671e-02
4.972161054611206055e-01 4.717195779085159302e-02 7.328280806541442871e-02
4.577552378177642822e-01 -9.423012845218181610e-03 8.851251751184463501e-02
4.955920875072479248e-01 1.657824590802192688e-02 1.201813519001007080e-01
4.464175105094909668e-01 -3.835932165384292603e-02 -4.898889921605587006e-03
-6.115321069955825806e-02 1.922477036714553833e-03 8.334710448980331421e-02
-2.391260117292404175e-01 -7.034021615982055664e-02 3.446255624294281006e-02
-5.411066114902496338e-03 4.586138948798179626e-02 -6.789750605821609497e-02
-1.072024777531623840e-01 4.017678648233413696e-02 1.277404651045799255e-02
-9.705480188131332397e-02 4.390640184283256531e-02 1.529680192470550537e-02
-2.260937541723251343e-02 5.670860037207603455e-02 4.065588861703872681e-02
-1.856921017169952393e-01 -1.075137257575988770e-01 2.084677107632160187e-02
-4.657727479934692383e-02 -7.653865963220596313e-03 -9.093801677227020264e-02
-1.509033739566802979e-01 -8.059168606996536255e-02 -7.159414142370223999e-02
-6.430382281541824341e-02 -3.598458692431449890e-02 7.620915770530700684e-02
-2.011969685554504395e-02 -4.289796948432922363e-02 -3.380744531750679016e-02
1.299369335174560547e-02 -2.364762872457504272e-02 -7.647914346307516098e-03
-4.771708697080612183e-02 6.211729720234870911e-02 -9.550564922392368317e-03
2.504199743270874023e-03 -1.814004033803939819e-03 -6.876954436302185059e-02
-1.094991266727447510e-01 -6.696127355098724365e-02 -7.469234615564346313e-02
-1.034833267331123352e-01 -2.069547399878501892e-02 -9.690702706575393677e-02
-7.050134241580963135e-02 -1.834945380687713623e-02 8.481802046298980713e-02
-1.589080691337585449e-01 -2.266837470233440399e-02 7.277972996234893799e-02
-2.390563786029815674e-01 -5.231431871652603149e-02 -3.038952872157096863e-02
1.499868929386138916e-03 5.084867402911186218e-02 -6.193913891911506653e-02
-1.761331409215927124e-01 -1.054834481328725815e-02 -6.248079612851142883e-02
-2.222016751766204834e-01 -2.987692877650260925e-02 4.238234367221593857e-03
-1.863981485366821289e-01 -8.561387658119201660e-02 5.920265987515449524e-02
-1.763162612915039062e-01 -1.086695790290832520e-01 6.835221778601408005e-03
-1.761999279260635376e-01 3.855686634778976440e-03 -2.763053774833679199e-02
3.083370625972747803e-02 3.012005984783172607e-02 -5.817769840359687805e-02
-9.666362404823303223e-02 -5.547686293721199036e-02 -8.154598623514175415e-02
-1.936997622251510620e-01 -9.078865870833396912e-03 1.740992069244384766e-02
2.537988126277923584e-03 -2.518428862094879150e-02 -3.832992538809776306e-02
-4.257367178797721863e-02 -3.312520682811737061e-02 -7.526528090238571167e-02
-1.111904755234718323e-01 -5.460831522941589355e-02 7.797639071941375732e-02
-2.011571079492568970e-02 -1.764524355530738831e-02 -7.387700676918029785e-02
-3.478795289993286133e-02 -1.137944776564836502e-02 7.684854418039321899e-02
-8.470820635557174683e-02 -6.532968580722808838e-02 -6.311205029487609863e-02
7.031239569187164307e-03 -1.841577515006065369e-02 -4.497069492936134338e-02
-2.372234314680099487e-02 5.624853447079658508e-02 -5.401272699236869812e-02
-2.090767771005630493e-02 6.484958529472351074e-02 -3.222004324197769165e-02
-7.924625277519226074e-02 1.142755895853042603e-02 -9.038513898849487305e-02
-1.088259965181350708e-01 3.383363038301467896e-02 -4.877174273133277893e-02
4.893189668655395508e-02 6.046098843216896057e-02 9.014029055833816528e-03
-1.884839683771133423e-01 -2.420851960778236389e-03 -3.671454731374979019e-03
-1.082273423671722412e-01 -5.901760607957839966e-02 -8.230078965425491333e-02
-1.772174835205078125e-01 -8.487609028816223145e-02 6.062991544604301453e-02
-6.894066184759140015e-02 -3.008002787828445435e-02 8.101230859756469727e-02
-1.362398266792297363e-03 -1.960938982665538788e-02 -5.463521182537078857e-02
-1.037859171628952026e-02 2.192870154976844788e-02 7.071751356124877930e-02
-7.114225625991821289e-02 5.496898666024208069e-02 -1.597055234014987946e-02
-2.078749388456344604e-01 -1.117860078811645508e-01 -6.279190070927143097e-03
-9.073515236377716064e-02 4.068376123905181885e-02 3.593253716826438904e-02
-1.423842161893844604e-01 1.598014310002326965e-02 -5.279824882745742798e-02
-1.766278743743896484e-01 -9.784574806690216064e-02 4.355565831065177917e-02
5.910322070121765137e-03 4.670051857829093933e-03 6.145324185490608215e-02
-2.729498594999313354e-02 -5.907241255044937134e-03 -8.450461179018020630e-02
-1.947799324989318848e-02 1.698357239365577698e-02 7.422212511301040649e-02
-8.382112532854080200e-02 4.950605705380439758e-02 -2.602596394717693329e-02
-1.384992301464080811e-01 -9.957320988178253174e-02 1.270720548927783966e-02
9.297378361225128174e-03 -2.361053600907325745e-02 -2.693923190236091614e-02
4.564923048019409180e-02 8.887212723493576050e-03 -1.045814901590347290e-02
-5.571817979216575623e-02 5.162853375077247620e-02 -5.052217096090316772e-02
-1.746194809675216675e-01 6.771000102162361145e-03 -7.431706413626670837e-03
-7.038260996341705322e-02 -5.014178901910781860e-02 6.701839715242385864e-02
-2.064614295959472656e-01 -2.842261269688606262e-02 3.862543404102325439e-02
2.978697419166564941e-03 6.439882516860961914e-02 2.756814844906330109e-02
-2.215571999549865723e-01 -3.261067718267440796e-02 -3.175722435116767883e-02
-3.182519227266311646e-02 5.995390936732292175e-02 2.939351089298725128e-02
-2.342382222414016724e-01 -1.082921773195266724e-01 -4.886236507445573807e-03
-1.899728029966354370e-01 -4.671943187713623047e-02 6.733122467994689941e-02
-1.972142606973648071e-01 -6.501045823097229004e-02 6.568554788827896118e-02
-5.693863332271575928e-02 2.446880191564559937e-02 7.328134030103683472e-02
-1.829989254474639893e-01 -7.405313849449157715e-02 6.750047206878662109e-02
-2.984993159770965576e-02 -5.224558711051940918e-02 -1.831526122987270355e-02
3.798852860927581787e-02 2.768617123365402222e-03 1.680992916226387024e-02
-2.162074595689773560e-01 -4.646575078368186951e-02 4.709032550454139709e-02
-1.682563126087188721e-02 6.289459764957427979e-02 2.774496562778949738e-02
4.290860891342163086e-02 4.251610115170478821e-02 3.611677512526512146e-02
-4.540362209081649780e-02 2.398316562175750732e-02 -8.583894371986389160e-02
-2.964898943901062012e-02 6.306523084640502930e-02 -3.351891413331031799e-02
-4.293234646320343018e-02 6.123881414532661438e-02 1.539871655404567719e-02
-2.233624458312988281e-01 -1.010383665561676025e-01 3.164917603135108948e-02
-1.388868838548660278e-01 -7.882151007652282715e-02 6.282807886600494385e-02
-5.452301725745201111e-02 -4.241633415222167969e-02 6.590631604194641113e-02
-1.871019303798675537e-01 -7.673236727714538574e-02 -7.494917511940002441e-02
-6.408641487360000610e-02 -1.212918199598789215e-02 8.453306555747985840e-02
-8.503904193639755249e-02 4.664528742432594299e-02 2.368763461709022522e-02
-2.118888497352600098e-01 -3.850939869880676270e-02 4.456353187561035156e-02
-8.656337857246398926e-02 -8.201771974563598633e-02 -5.111363716423511505e-04
-1.256515085697174072e-02 3.933337330818176270e-02 -7.409551739692687988e-02
-1.018812805414199829e-01 -8.710245788097381592e-02 1.408402621746063232e-02
-8.480630815029144287e-03 3.621255978941917419e-02 6.434946507215499878e-02
1.607608050107955933e-02 -1.918498799204826355e-02 1.550488732755184174e-02
6.166972219944000244e-03 -2.419908903539180756e-02 2.659568376839160919e-02
-2.303138375282287598e-03 -1.068312674760818481e-02 5.806181952357292175e-02
-1.093595474958419800e-02 -3.518450260162353516e-02 -3.836625069379806519e-02
-1.327170431613922119e-01 1.959564164280891418e-02 4.197702556848526001e-02
-2.332048714160919189e-01 -1.076132059097290039e-01 -1.598217524588108063e-02
-1.435913592576980591e-01 -2.238455228507518768e-02 -9.071422368288040161e-02
-1.989395320415496826e-01 -2.201166935265064240e-02 3.901932016015052795e-02
-1.512118875980377197e-01 -4.415179044008255005e-02 8.102878183126449585e-02
-1.634537428617477417e-01 1.356376707553863525e-02 -7.022744044661521912e-03
-1.130883842706680298e-01 -2.104108594357967377e-02 8.561921119689941406e-02
-5.992081016302108765e-02 5.854908749461174011e-02 3.144205547869205475e-04
1.324123144149780273e-02 6.482179462909698486e-02 -3.789222612977027893e-02
2.994567155838012695e-02 7.119478657841682434e-03 3.980545699596405029e-02
-5.530649051070213318e-02 -6.518559157848358154e-02 -2.594191767275333405e-02
-1.280652731657028198e-01 -5.584153905510902405e-02 -8.861467242240905762e-02
-6.702023744583129883e-02 2.925639227032661438e-02 6.719887256622314453e-02
2.345430850982666016e-02 2.503970265388488770e-02 -6.352977454662322998e-02
-5.603079497814178467e-02 5.142901465296745300e-02 3.730749711394309998e-02
-1.840420067310333252e-01 -6.620655208826065063e-02 -8.043008297681808472e-02
-1.157304346561431885e-01 3.627528995275497437e-02 -2.842027693986892700e-02
-6.693107634782791138e-02 -6.250129640102386475e-02 -5.270058289170265198e-02
-2.537368983030319214e-02 6.701175868511199951e-02 -1.121782884001731873e-02
-1.790338903665542603e-01 -4.201794415712356567e-02 7.150305807590484619e-02
-1.468142271041870117e-01 -4.364883899688720703e-02 -9.233671426773071289e-02
-9.220016002655029297e-02 3.437847644090652466e-02 4.861271753907203674e-02
-9.357651323080062866e-02 4.723377153277397156e-02 -1.075922138988971710e-02
-9.498229622840881348e-02 4.603504762053489685e-02 6.110575515776872635e-03
-8.261496573686599731e-02 -7.710611820220947266e-02 2.514196187257766724e-02
-1.647367626428604126e-01 -5.740867555141448975e-02 7.683126628398895264e-02
-1.078467816114425659e-01 -8.913736045360565186e-02 -2.188772894442081451e-02
-2.166473865509033203e-01 -1.102492213249206543e-01 9.871134534478187561e-03
-1.085640192031860352e-01 -7.865992188453674316e-02 4.942456632852554321e-02
-1.494498699903488159e-01 1.678580790758132935e-02 2.574977092444896698e-02
-2.522079348564147949e-01 -7.114310562610626221e-02 -1.968140713870525360e-02
-1.016604676842689514e-01 -3.182096406817436218e-02 -9.559728950262069702e-02
-2.223742604255676270e-01 -9.716592729091644287e-02 -4.707499966025352478e-02
-4.254803434014320374e-02 -6.055893748998641968e-02 -2.814278239384293556e-03
-3.478050231933593750e-03 6.482088565826416016e-02 -3.838748112320899963e-02
-1.291396319866180420e-01 -9.462775290012359619e-02 2.455411292612552643e-02
9.363032877445220947e-03 -8.518032729625701904e-03 -5.635823681950569153e-02
-2.285547405481338501e-01 -3.631913661956787109e-02 5.620467942208051682e-03
-3.465528041124343872e-02 -4.749552533030509949e-02 -4.645129293203353882e-02
-1.182355731725692749e-01 -7.464179396629333496e-02 6.110172346234321594e-02
-7.954764366149902344e-02 -7.846224308013916016e-02 -1.444310508668422699e-02
-2.246661484241485596e-02 2.530823647975921631e-02 7.229512929916381836e-02
-1.016243770718574524e-01 4.179266095161437988e-02 -3.114776872098445892e-02
-1.155776903033256531e-01 -3.451569378376007080e-02 -9.568354487419128418e-02
-9.076432138681411743e-02 8.917897939682006836e-03 -8.987022936344146729e-02
2.007614076137542725e-02 -1.092961523681879044e-02 -3.645300492644309998e-02
-8.524269610643386841e-02 4.247520491480827332e-02 -5.045633763074874878e-02
-1.961348950862884521e-01 -1.018291860818862915e-01 3.751992434263229370e-02
3.461234271526336670e-03 6.681630015373229980e-02 -3.295504674315452576e-02
-1.169585585594177246e-01 -9.046924114227294922e-02 2.539892494678497314e-02
-1.788771152496337891e-02 -4.423898458480834961e-02 -2.191391587257385254e-02
-2.359321862459182739e-01 -5.248693749308586121e-02 2.510919794440269470e-02
-4.650347679853439331e-02 -6.235851347446441650e-02 6.351232063025236130e-03
-5.293415114283561707e-02 -6.477166712284088135e-02 1.512288302183151245e-02
-2.523804903030395508e-01 -8.391034603118896484e-02 -2.524721994996070862e-02
-1.559063792228698730e-02 3.140370920300483704e-02 -7.920709252357482910e-02
-1.969127953052520752e-01 -1.609811745584011078e-02 3.078188188374042511e-02
-2.314006388187408447e-01 -1.004908382892608643e-01 2.731926180422306061e-02
-8.524772524833679199e-02 -4.147447645664215088e-02 7.982088625431060791e-02
2.245983481407165527e-02 4.483820870518684387e-03 4.668939858675003052e-02
-7.314766198396682739e-02 -4.445876181125640869e-02 7.364773750305175781e-02
-1.089294105768203735e-01 3.785202652215957642e-02 -3.528800234198570251e-02
-1.250576376914978027e-01 -7.446867227554321289e-02 -7.167933136224746704e-02
-1.148508265614509583e-01 -9.264619648456573486e-02 -1.344794221222400665e-02
-9.263357520103454590e-02 -8.213922381401062012e-02 -2.784232608973979950e-02
-1.636803001165390015e-01 -2.284192666411399841e-02 -8.274997025728225708e-02
-4.734120890498161316e-02 6.151954457163810730e-02 6.243970710784196854e-03
-9.256813675165176392e-02 2.899406105279922485e-02 5.724778771400451660e-02
1.853140443563461304e-02 -1.038703415542840958e-02 3.344527631998062134e-02
-1.238632500171661377e-01 -8.318524062633514404e-02 -5.771430581808090210e-02
-6.155864894390106201e-02 -6.544063985347747803e-02 3.162703663110733032e-02
-2.377728670835494995e-01 -9.280963242053985596e-02 3.091741539537906647e-02
-1.249203309416770935e-01 -5.133219808340072632e-02 8.140630275011062622e-02
-6.051132827997207642e-02 -3.269411623477935791e-02 -8.510813117027282715e-02
-2.068269252777099609e-01 -1.083022505044937134e-01 -2.916508354246616364e-02
-1.548816263675689697e-01 -9.659151732921600342e-02 3.923572227358818054e-02
-2.323972284793853760e-01 -5.826609581708908081e-02 3.687182068824768066e-02
4.677145183086395264e-02 1.532540097832679749e-02 -2.637281268835067749e-02
-1.428389847278594971e-01 -3.768596798181533813e-04 6.383534520864486694e-02
-3.509384393692016602e-02 3.770253062248229980e-02 -7.645503431558609009e-02
-1.558692753314971924e-01 -9.149649739265441895e-02 4.974117875099182129e-02
-1.895442306995391846e-01 -1.107112020254135132e-01 -9.980820119380950928e-03
-9.729263186454772949e-02 -5.174054950475692749e-02 7.659839093685150146e-02
-1.030582785606384277e-01 -6.011774390935897827e-02 7.154455780982971191e-02
-9.500048309564590454e-02 4.567463323473930359e-02 -2.353022433817386627e-02
-1.842089891433715820e-01 -9.569729864597320557e-02 4.779604822397232056e-02
-9.877145290374755859e-02 -7.982363551855087280e-02 3.843926265835762024e-02
3.158353269100189209e-02 4.269720241427421570e-02 4.531159251928329468e-02
-1.291387081146240234e-01 -1.036667823791503906e-02 7.830470800399780273e-02
-1.093421131372451782e-01 -9.068095684051513672e-02 7.000850979238748550e-03
-1.656259596347808838e-02 1.593846827745437622e-04 7.264553755521774292e-02
-7.618530839681625366e-02 -7.276891171932220459e-02 -3.694215789437294006e-02
-2.119969874620437622e-01 -8.827218413352966309e-02 -6.034862250089645386e-02
-1.112807169556617737e-01 3.998648002743721008e-02 -4.127868451178073883e-03
1.356966793537139893e-02 7.048040628433227539e-03 5.680638551712036133e-02
-1.359701156616210938e-01 1.273116096854209900e-02 -6.529603898525238037e-02
-1.181931495666503906e-01 1.514844223856925964e-02 6.114630773663520813e-02
-1.125496253371238708e-01 -8.756184577941894531e-02 -3.712583705782890320e-02
-8.958096057176589966e-02 -1.966179348528385162e-02 -9.663344174623489380e-02
2.614436298608779907e-02 -1.230201218277215958e-02 1.259630545973777771e-03
-1.910191774368286133e-01 -3.164740651845932007e-02 5.850778892636299133e-02
1.919568330049514771e-02 1.528911665081977844e-02 -6.441693753004074097e-02
-8.736062049865722656e-02 2.503064647316932678e-02 -7.774300873279571533e-02
-1.447869539260864258e-01 1.900618523359298706e-02 -4.120783507823944092e-02
-9.556192904710769653e-02 -8.325463533401489258e-02 2.197568118572235107e-02
1.389021426439285278e-02 -6.748608313500881195e-03 4.553267359733581543e-02
-7.002191245555877686e-02 -3.349027410149574280e-02 -8.827432245016098022e-02
-1.235806345939636230e-01 -1.108109764754772186e-02 -9.220030903816223145e-02
-2.275201976299285889e-01 -1.049148440361022949e-01 -3.090949542820453644e-02
-5.004368349909782410e-02 -6.459252536296844482e-02 -5.332063417881727219e-03
-2.451947182416915894e-01 -1.009706258773803711e-01 9.094603359699249268e-03
-8.613551408052444458e-02 -7.217012345790863037e-02 -5.107409134507179260e-02
-8.269087970256805420e-02 -6.540974974632263184e-02 5.448722094297409058e-02
-9.673532843589782715e-02 -7.307888567447662354e-02 5.147818475961685181e-02
3.651215136051177979e-02 4.537843167781829834e-03 -3.238151967525482178e-02
-1.568003296852111816e-01 -7.597108185291290283e-02 -7.703804224729537964e-02
-2.267158329486846924e-01 -5.538215488195419312e-02 -5.431685224175453186e-02
-1.830645054578781128e-01 -1.031033992767333984e-01 3.367566689848899841e-02
-1.846185922622680664e-01 -4.481928050518035889e-02 -8.122092485427856445e-02
-1.728619635105133057e-01 5.120061337947845459e-03 1.733338274061679840e-02
-1.351233571767807007e-01 -8.891338109970092773e-02 -5.293156206607818604e-02
-3.348544239997863770e-02 -3.779944777488708496e-02 -6.272270530462265015e-02
-1.754903793334960938e-01 -1.197351422160863876e-02 5.159218609333038330e-02
2.800059318542480469e-02 6.795558333396911621e-02 -2.202264592051506042e-02
-1.370899528264999390e-01 -3.349550068378448486e-02 -9.420796483755111694e-02
-1.547945439815521240e-01 -1.095665991306304932e-02 6.660959124565124512e-02
-8.609642833471298218e-02 4.672824963927268982e-02 -3.597658127546310425e-02
-1.435318440198898315e-01 2.459218725562095642e-02 -1.004246249794960022e-02
5.787256360054016113e-02 4.987939074635505676e-02 7.223775144666433334e-03
-2.117033302783966064e-01 -2.977006137371063232e-02 -4.624678194522857666e-02
-3.981853276491165161e-02 -2.038680389523506165e-02 7.506298273801803589e-02
5.377280712127685547e-02 5.139579251408576965e-02 -2.605598233640193939e-02
-2.474444508552551270e-01 -8.625215291976928711e-02 -3.416030108928680420e-02
-8.292090147733688354e-02 5.092630162835121155e-02 -1.622955501079559326e-02
-1.866843402385711670e-01 -1.098692566156387329e-01 8.481238037347793579e-03
-6.774478405714035034e-02 5.450821295380592346e-02 -2.848687395453453064e-02
5.800954997539520264e-02 4.184815660119056702e-02 -2.100164443254470825e-02
1.730070263147354126e-02 6.129582598805427551e-02 3.250214830040931702e-02
4.630059003829956055e-02 1.579632237553596497e-02 2.064529992640018463e-02
-6.978446990251541138e-02 -7.364539802074432373e-02 -1.757682487368583679e-02
-1.240089982748031616e-01 -4.772441089153289795e-02 -9.217850118875503540e-02
-2.497278898954391479e-01 -6.294141709804534912e-02 7.050530984997749329e-05
-2.558892965316772461e-01 -8.618314564228057861e-02 -3.303874749690294266e-03
3.464274108409881592e-03 6.801436841487884521e-02 1.590920239686965942e-02
-1.244828626513481140e-01 -6.950802356004714966e-02 6.908047944307327271e-02
-1.349452584981918335e-01 1.710467040538787842e-05 -8.096920698881149292e-02
-1.456924378871917725e-01 -3.608392551541328430e-03 -7.832608371973037720e-02
7.045939564704895020e-03 -2.823289856314659119e-02 2.939456608146429062e-03
4.434753954410552979e-02 8.795049041509628296e-03 1.092026568949222565e-02
-7.246334105730056763e-02 -7.552498579025268555e-02 4.574538674205541611e-03
-1.147971972823143005e-01 -8.576151728630065918e-02 3.837016597390174866e-02
3.641948103904724121e-02 6.724202632904052734e-02 -1.545637287199497223e-02
-1.170767471194267273e-01 -3.894929215312004089e-02 8.496079593896865845e-02
-3.488156199455261230e-02 -5.613557994365692139e-02 -7.525789551436901093e-03
-2.737674117088317871e-02 4.624582454562187195e-02 -6.827276200056076050e-02
5.259323120117187500e-02 2.154992893338203430e-02 -1.897244527935981750e-02
3.778131306171417236e-02 6.755575537681579590e-02 -4.562261048704385757e-03
-1.742326915264129639e-01 -3.958209604024887085e-02 -8.461345732212066650e-02
-1.657833904027938843e-01 -1.033933162689208984e-01 -3.306368738412857056e-02
-2.444497048854827881e-01 -6.209017708897590637e-02 1.931184530258178711e-02
-1.632186472415924072e-01 -1.059101819992065430e-01 1.047094166278839111e-02
2.705241739749908447e-02 6.397837400436401367e-02 -3.490308299660682678e-02
-9.004408121109008789e-02 -1.140692643821239471e-02 8.595915138721466064e-02
-1.880087405443191528e-01 -5.813802778720855713e-02 6.990977376699447632e-02
-9.470055252313613892e-02 -8.520841598510742188e-02 4.456638824194669724e-03
-1.676240861415863037e-01 -3.536852449178695679e-02 7.454247772693634033e-02
-2.294821590185165405e-01 -8.853442966938018799e-02 -5.121510103344917297e-02
-6.365943700075149536e-02 4.638892784714698792e-02 4.383424296975135803e-02
-4.847571253776550293e-03 -1.867562904953956604e-02 5.244340002536773682e-02
-2.057274281978607178e-01 -4.604316502809524536e-02 5.651249364018440247e-02
-2.141609936952590942e-01 -5.338591337203979492e-02 -6.539606302976608276e-02
3.243175148963928223e-02 4.892796277999877930e-04 2.643997408449649811e-02
-2.561894059181213379e-02 7.888652384281158447e-03 7.682154327630996704e-02
-4.993479698896408081e-02 3.121742606163024902e-02 -8.079761266708374023e-02
-3.342477232217788696e-02 6.473299860954284668e-02 -2.020635642111301422e-02
-2.280499339103698730e-01 -3.482327237725257874e-02 -1.074339821934700012e-02
5.380560457706451416e-02 5.042405053973197937e-02 1.711456663906574249e-02
8.022814989089965820e-03 9.272253140807151794e-03 -7.048401236534118652e-02
-2.105613052845001221e-01 -3.551037609577178955e-02 -5.586505681276321411e-02
-2.440877258777618408e-03 6.002051010727882385e-02 3.711550682783126831e-02
-1.048988625407218933e-01 -1.258131116628646851e-03 8.051893860101699829e-02
-1.647333502769470215e-01 -8.530646562576293945e-02 5.990228429436683655e-02
-1.707200706005096436e-02 5.096771940588951111e-02 5.088977888226509094e-02
-5.209096893668174744e-02 4.874220117926597595e-02 4.532938823103904724e-02
-1.085232943296432495e-01 -8.330090343952178955e-02 -4.569036886096000671e-02
-1.260889023542404175e-01 -9.599626064300537109e-02 1.136821135878562927e-02
-1.904579997062683105e-01 -8.781811594963073730e-02 -6.577847898006439209e-02
-1.540689170360565186e-02 -4.335626959800720215e-02 1.096300221979618073e-02
-1.041097193956375122e-02 -8.526484481990337372e-03 6.563933938741683960e-02
-2.063465714454650879e-01 -5.739153176546096802e-02 6.043684110045433044e-02
-1.484048813581466675e-01 1.303194463253021240e-02 3.784316778182983398e-02
-4.709294065833091736e-02 6.750555709004402161e-03 8.119571208953857422e-02
-5.020420998334884644e-02 -4.824796691536903381e-02 -6.244033947587013245e-02
-1.693349778652191162e-01 -7.505559176206588745e-02 -7.802191376686096191e-02
-8.334800601005554199e-03 -1.155410893261432648e-02 -7.010335475206375122e-02
-7.143887132406234741e-02 8.060306310653686523e-03 8.130858838558197021e-02
3.526724874973297119e-02 6.289741396903991699e-02 2.054158970713615417e-02
3.754234313964843750e-02 2.747868373990058899e-02 4.253136366605758667e-02
-1.968643814325332642e-01 -1.113781630992889404e-01 8.561615832149982452e-04
1.431939005851745605e-02 2.100660651922225952e-02 6.005770340561866760e-02
-1.286878585815429688e-01 2.028787136077880859e-02 -5.868460983037948608e-02
-8.563800901174545288e-02 -6.139314919710159302e-02 6.231007352471351624e-02
-1.751642823219299316e-01 -1.064135879278182983e-01 -2.733583748340606689e-02
-1.672235727310180664e-01 9.959980845451354980e-03 1.028611324727535248e-02
-1.865863502025604248e-01 -3.855241090059280396e-02 6.604193896055221558e-02
-1.379539370536804199e-01 -6.754316389560699463e-02 -8.193176239728927612e-02
-2.394375950098037720e-02 6.382006406784057617e-02 2.118758298456668854e-02
-5.212474986910820007e-02 -4.970966279506683350e-02 5.490344390273094177e-02
-5.664493516087532043e-02 1.228233426809310913e-02 -9.115149080753326416e-02
-1.105005815625190735e-01 1.172810047864913940e-02 -8.181424438953399658e-02
-1.114267632365226746e-01 3.982669487595558167e-02 -1.316411234438419342e-02
-3.668615967035293579e-02 -4.933282732963562012e-02 3.849565610289573669e-02
-2.340151965618133545e-01 -9.588488936424255371e-02 -4.132015630602836609e-02
-2.688726037740707397e-02 -4.053080826997756958e-02 4.422546550631523132e-02
3.569439053535461426e-02 -2.623535692691802979e-03 -1.117972843348979950e-02
4.168087244033813477e-02 4.684975370764732361e-02 -4.519394785165786743e-02
-7.395148277282714844e-02 -5.703797936439514160e-02 6.089061871170997620e-02
4.034721851348876953e-02 1.254643127322196960e-02 2.917220629751682281e-02
2.405976504087448120e-02 5.095699802041053772e-02 -5.455519631505012512e-02
-2.462409436702728271e-01 -5.872297286987304688e-02 -1.985568180680274963e-02
-9.890154004096984863e-03 -3.848980367183685303e-02 -2.411140315234661102e-02
1.406197249889373779e-02 6.788049638271331787e-02 1.637839525938034058e-02
-1.776195764541625977e-01 7.022283971309661865e-04 -3.683736920356750488e-02
-1.988985091447830200e-01 -4.448858276009559631e-02 -7.298181951045989990e-02
-1.869275569915771484e-01 -7.454836741089820862e-03 -4.201526567339897156e-02
-1.236186027526855469e-01 2.048790454864501953e-02 4.912719875574111938e-02
-3.410322964191436768e-02 -1.184815727174282074e-02 -8.517245948314666748e-02
-2.554116547107696533e-01 -7.842783629894256592e-02 -1.122070848941802979e-02
-1.164440810680389404e-02 6.312663853168487549e-02 -4.150982573628425598e-02
-1.708045899868011475e-01 -1.827079802751541138e-03 4.044869542121887207e-02
-4.735752940177917480e-03 3.503478690981864929e-02 -7.503586262464523315e-02
-1.444274932146072388e-01 -2.856069430708885193e-02 8.080340176820755005e-02
-2.188340574502944946e-01 -6.442190706729888916e-02 5.308340117335319519e-02
-2.292383164167404175e-01 -4.302161559462547302e-02 2.356262691318988800e-02
-1.644469052553176880e-01 -1.069907546043395996e-01 -5.836594384163618088e-03
-8.033798635005950928e-02 -7.133352756500244141e-02 4.034172371029853821e-02
-8.011931180953979492e-02 -2.658710069954395294e-02 -9.404350817203521729e-02
-2.016055881977081299e-01 -1.430479716509580612e-02 1.436398550868034363e-02
2.428366988897323608e-02 -1.204295549541711807e-02 -2.160997688770294189e-02
-1.733718514442443848e-01 6.918357685208320618e-03 4.616285208612680435e-03
-8.564543724060058594e-02 -7.543432712554931641e-02 -4.199055954813957214e-02
-1.513280272483825684e-01 -6.993073225021362305e-02 -8.150936663150787354e-02
-8.523555845022201538e-02 1.386635005474090576e-02 7.585003226995468140e-02
-1.136240065097808838e-01 2.686081454157829285e-02 -5.976072698831558228e-02
-4.436564818024635315e-02 -1.083096209913492203e-02 8.031178265810012817e-02
2.549693733453750610e-02 1.157765462994575500e-02 -5.675057321786880493e-02
-9.630505740642547607e-02 -6.713378429412841797e-02 -6.793964654207229614e-02
-1.661688685417175293e-01 -9.511749446392059326e-02 4.630604013800621033e-02
-2.290018349885940552e-01 -4.358765855431556702e-02 -3.830241411924362183e-02
-1.190719604492187500e-01 2.940190955996513367e-02 3.425430506467819214e-02
-7.942184805870056152e-03 6.629911065101623535e-02 1.976048201322555542e-02
-2.109052985906600952e-02 -4.783082008361816406e-02 1.135612837970256805e-03
-1.616245061159133911e-01 1.608965918421745300e-03 4.513034597039222717e-02
-2.070482373237609863e-01 -1.861490495502948761e-02 -2.829653955996036530e-02
-4.701917991042137146e-02 -5.174498260021209717e-02 -5.303686857223510742e-02
2.806875109672546387e-02 6.939572095870971680e-02 -1.237394008785486221e-02
-9.353620558977127075e-02 -3.604538366198539734e-02 -9.316643327474594116e-02
1.158088445663452148e-03 4.355138167738914490e-02 5.734746530652046204e-02
-1.087977960705757141e-01 4.025337845087051392e-02 -2.182683907449245453e-02
5.788789689540863037e-02 3.212692961096763611e-02 6.645986344665288925e-03
