6.381765007972717285e-01 -6.085415184497833252e-02 1.802644133567810059e-01
8.928140401840209961e-01 3.301990032196044922e-02 6.003581732511520386e-02
8.818464279174804688e-01 7.609722204506397247e-03 1.781605631113052368e-01
5.132446289062500000e-01 2.699277922511100769e-02 -2.359456866979598999e-01
9.701845645904541016e-01 -6.098883599042892456e-02 -1.305665075778961182e-01
7.164034247398376465e-01 7.085005193948745728e-02 -2.655639648437500000e-01
7.678972482681274414e-01 -3.190741315484046936e-02 -2.933949232101440430e-01
9.880422353744506836e-01 -8.332096785306930542e-02 7.678838074207305908e-02
7.674821019172668457e-01 1.986933499574661255e-02 -2.971050441265106201e-01
4.407915771007537842e-01 1.161000132560729980e-01 1.035450175404548645e-01
5.825430154800415039e-01 1.376471668481826782e-01 6.983273476362228394e-02
7.557405829429626465e-01 -4.225266724824905396e-02 2.747995853424072266e-01
6.727731227874755859e-01 9.388712048530578613e-02 -2.447232902050018311e-01
8.773020505905151367e-01 1.414079964160919189e-02 -2.046967744827270508e-01
4.907900691032409668e-01 1.656353101134300232e-02 1.599374264478683472e-01
4.969911575317382812e-01 -1.337534282356500626e-02 6.691385805606842041e-02
5.260831713676452637e-01 2.085989713668823242e-02 2.141841799020767212e-01
6.723327636718750000e-01 1.180760413408279419e-01 -1.565414369106292725e-01
8.147898912429809570e-01 -5.461277812719345093e-02 2.612403035163879395e-01
5.530143976211547852e-01 9.936287254095077515e-02 2.007541209459304810e-01
5.522998571395874023e-01 1.227554753422737122e-01 -2.136960178613662720e-01
6.924178600311279297e-01 -2.145114913582801819e-02 -2.958747744560241699e-01
4.635039567947387695e-01 1.026783045381307602e-02 6.698631495237350464e-02
4.629753828048706055e-01 6.769048515707254410e-03 -5.819888040423393250e-02
5.114843845367431641e-01 1.151871904730796814e-01 1.595118939876556396e-01
5.553295016288757324e-01 -4.825852438807487488e-02 3.693432733416557312e-02
6.040225625038146973e-01 -6.346360594034194946e-02 1.046381518244743347e-01
4.204216003417968750e-01 4.152885824441909790e-02 -1.418359577655792236e-02
5.229908227920532227e-01 1.426205486059188843e-01 6.395871937274932861e-02
8.557100892066955566e-01 4.645514115691184998e-02 -1.502457708120346069e-01
5.396870970726013184e-01 1.495506763458251953e-01 -1.684543117880821228e-02
6.483325958251953125e-01 1.079954206943511963e-01 1.578258126974105835e-01
8.919723033905029297e-01 -1.192517653107643127e-01 -1.099983751773834229e-01
6.938356161117553711e-01 5.254465155303478241e-03 2.873709499835968018e-01
6.090499758720397949e-01 1.345980614423751831e-01 6.445740908384323120e-02
7.904486656188964844e-01 3.614506497979164124e-02 -2.670496702194213867e-01
7.113961577415466309e-01 -4.237011075019836426e-02 -2.757012248039245605e-01
4.819381833076477051e-01 2.314721234142780304e-03 9.777556359767913818e-02
7.168304324150085449e-01 -1.042329594492912292e-01 8.268548548221588135e-02
4.103673696517944336e-01 5.935615301132202148e-02 3.442531079053878784e-02
7.528985142707824707e-01 7.065763324499130249e-02 -2.360671460628509521e-01
8.489931821823120117e-01 5.992060899734497070e-02 -8.475590497255325317e-02
8.574346303939819336e-01 -7.931371033191680908e-02 -2.256408929824829102e-01
8.172323703765869141e-01 -1.234533116221427917e-01 -6.495125591754913330e-02
6.826160550117492676e-01 -7.870978116989135742e-02 1.727528870105743408e-01
6.409468054771423340e-01 3.366673365235328674e-02 -3.126488924026489258e-01
6.193040609359741211e-01 1.313543617725372314e-01 7.491028308868408203e-02
6.801355481147766113e-01 1.223705485463142395e-01 3.751818463206291199e-02
7.921507358551025391e-01 -1.134493350982666016e-01 -1.140215098857879639e-01
4.544592499732971191e-01 1.207631230354309082e-01 -1.739038228988647461e-01
4.561362266540527344e-01 7.320527732372283936e-02 -2.066033929586410522e-01
8.509257435798645020e-01 -1.287493854761123657e-01 -3.926388919353485107e-02
5.384428501129150391e-01 -1.188378874212503433e-02 -1.923488229513168335e-01
9.755502939224243164e-01 -1.133094057440757751e-01 7.142680697143077850e-03
6.382418870925903320e-01 -2.721317112445831299e-02 -2.640858590602874756e-01
7.580277323722839355e-01 -1.171479746699333191e-01 3.006381914019584656e-02
9.504300355911254883e-01 -2.647193148732185364e-02 -1.411048322916030884e-01
9.991222620010375977e-01 -7.776869833469390869e-02 5.886719562113285065e-03
6.940349936485290527e-01 9.440468996763229370e-02 1.673988550901412964e-01
7.254532575607299805e-01 -7.129489630460739136e-02 2.281324565410614014e-01
9.771828651428222656e-01 -3.532453998923301697e-02 5.194201320409774780e-02
8.473607897758483887e-01 5.198643356561660767e-02 9.821946918964385986e-02
5.394068360328674316e-01 1.457326263189315796e-01 3.727624937891960144e-02
8.542512655258178711e-01 1.707202568650245667e-02 -2.312701493501663208e-01
5.348418951034545898e-01 -1.296109613031148911e-02 1.682340055704116821e-01
8.085423707962036133e-01 6.941322237253189087e-02 1.028965041041374207e-01
7.691497802734375000e-01 5.315419659018516541e-02 2.116195708513259888e-01
4.683606624603271484e-01 4.465332627296447754e-02 -1.994551122188568115e-01
5.118540525436401367e-01 9.444379247725009918e-03 1.808265149593353271e-01
6.466353535652160645e-01 -3.876291587948799133e-02 2.405084371566772461e-01
6.260496973991394043e-01 1.062206923961639404e-03 2.710061967372894287e-01
7.755012512207031250e-01 -8.626273274421691895e-02 2.164838314056396484e-01
9.932030439376831055e-01 -5.317353457212448120e-02 -1.410206966102123260e-02
6.425504088401794434e-01 1.032214239239692688e-01 -2.388142049312591553e-01
5.741986036300659180e-01 6.795632094144821167e-02 2.443933784961700439e-01
9.145743250846862793e-01 -1.617931574583053589e-02 -1.954943984746932983e-01
7.295933365821838379e-01 -1.108646914362907410e-01 2.261886000633239746e-02
6.157370209693908691e-01 1.399284750223159790e-01 -1.637629233300685883e-02
8.238931298255920410e-01 7.358613610267639160e-02 8.000588975846767426e-03
6.470364928245544434e-01 1.337908506393432617e-01 -2.990048006176948547e-02
7.774058580398559570e-01 -9.230060875415802002e-02 -1.928390860557556152e-01
8.711401820182800293e-01 -3.933511674404144287e-02 -2.521379590034484863e-01
4.474383890628814697e-01 5.127232149243354797e-02 -1.720610558986663818e-01
5.851003527641296387e-01 -1.376001164317131042e-03 -2.656810879707336426e-01
9.679269790649414062e-01 -5.298228561878204346e-02 1.215392500162124634e-01
5.987237691879272461e-01 1.104453951120376587e-01 1.738976836204528809e-01
9.187926650047302246e-01 2.188197150826454163e-02 -1.410018838942050934e-02
6.859213709831237793e-01 -9.850943088531494141e-02 -2.551205269992351532e-02
9.437888860702514648e-01 1.418925821781158447e-03 2.710233256220817566e-02
4.155747890472412109e-01 6.101682782173156738e-02 -1.051318794488906860e-01
6.629386544227600098e-01 1.295782178640365601e-01 -7.797392550855875015e-03
8.459611535072326660e-01 -1.236188039183616638e-01 1.044568642973899841e-01
4.815425872802734375e-01 1.151704788208007812e-01 -2.072094082832336426e-01
8.226234912872314453e-01 5.690437555313110352e-02 -1.804148405790328979e-01
5.380187034606933594e-01 -3.775133937597274780e-02 -6.637602299451828003e-02
6.748461127281188965e-01 -7.030131667852401733e-02 1.926768124103546143e-01
9.759261012077331543e-01 -6.341876834630966187e-02 1.107301265001296997e-01
5.716260671615600586e-01 1.449959576129913330e-01 -9.178300946950912476e-02
8.057315349578857422e-01 5.374008044600486755e-02 1.696355193853378296e-01
4.469800591468811035e-01 1.440308243036270142e-01 -5.347559601068496704e-02
6.850704550743103027e-01 1.220182925462722778e-01 -9.676537662744522095e-02
7.019423246383666992e-01 -8.731960505247116089e-02 1.616951376199722290e-01
4.815162420272827148e-01 1.438103616237640381e-01 4.375049099326133728e-02
8.163745403289794922e-01 -7.319088280200958252e-02 -2.426507472991943359e-01
6.710659265518188477e-01 -7.858617603778839111e-02 1.582743972539901733e-01
7.149579524993896484e-01 -4.158562421798706055e-02 2.693235874176025391e-01
6.013674139976501465e-01 -6.701479107141494751e-02 6.413541734218597412e-02
6.004903316497802734e-01 -5.963958054780960083e-02 1.190329194068908691e-01
8.288499712944030762e-01 2.973666787147521973e-02 -2.401154637336730957e-01
5.278401970863342285e-01 5.239188671112060547e-02 -2.698237597942352295e-01
6.405425071716308594e-01 7.762660086154937744e-02 -2.863376438617706299e-01
7.906091809272766113e-01 -8.216593414545059204e-02 -2.236657738685607910e-01
9.663603305816650391e-01 -8.630372583866119385e-02 -1.251732856035232544e-01
6.509591937065124512e-01 1.132891848683357239e-01 1.360423564910888672e-01
6.614204049110412598e-01 1.268682628870010376e-01 -1.113490313291549683e-01
6.558245420455932617e-01 2.101014554500579834e-02 2.824849784374237061e-01
4.930377006530761719e-01 -3.944571129977703094e-03 -1.226668655872344971e-01
7.417011260986328125e-01 9.190124273300170898e-02 1.199301779270172119e-01
9.018013477325439453e-01 -1.442465651780366898e-02 1.883462071418762207e-01
3.998810946941375732e-01 8.171320706605911255e-02 -7.976716011762619019e-02
7.038938999176025391e-01 1.190015077590942383e-01 -2.639970928430557251e-02
7.463853359222412109e-01 -1.107313949614763260e-02 2.854740917682647705e-01
7.967153787612915039e-01 4.235688596963882446e-02 2.089753150939941406e-01
7.187987565994262695e-01 -2.500136196613311768e-02 -2.976559698581695557e-01
9.183384180068969727e-01 -8.783911168575286865e-02 1.847077459096908569e-01
7.398146390914916992e-01 1.011557318270206451e-02 -3.100091218948364258e-01
5.057783126831054688e-01 -2.095142751932144165e-02 4.707158729434013367e-02
4.595434665679931641e-01 1.436341255903244019e-01 -9.392609447240829468e-02
7.202197909355163574e-01 1.498660072684288025e-03 -3.123451173305511475e-01
5.726726055145263672e-01 -5.050262808799743652e-02 -9.936031699180603027e-02
8.475762009620666504e-01 6.313509494066238403e-02 -3.366373106837272644e-02
8.353188037872314453e-01 3.365412726998329163e-02 -2.249363213777542114e-01
9.385787844657897949e-01 -1.215102598071098328e-01 7.675267755985260010e-02
6.693994402885437012e-01 -9.401021897792816162e-02 -4.847349599003791809e-03
6.851032376289367676e-01 -9.820624440908432007e-02 4.090807214379310608e-02
6.905075311660766602e-01 1.110659539699554443e-01 1.012908145785331726e-01
5.673115849494934082e-01 1.254897713661193848e-01 -2.039029598236083984e-01
9.004973769187927246e-01 3.358963504433631897e-02 -4.369141533970832825e-03
9.457373619079589844e-01 -4.562424123287200928e-02 1.586150825023651123e-01
8.926340341567993164e-01 -9.969141334295272827e-02 1.830213516950607300e-01
7.587361931800842285e-01 4.963479191064834595e-02 2.271662503480911255e-01
6.542856693267822266e-01 1.321390569210052490e-01 -4.283206909894943237e-02
5.321156382560729980e-01 -2.131878584623336792e-02 -1.485071182250976562e-01
4.263583719730377197e-01 8.985754847526550293e-02 -1.631815284490585327e-01
6.791428923606872559e-01 -2.363678067922592163e-02 -2.895011007785797119e-01
7.877138853073120117e-01 -1.217148974537849426e-01 -3.421690687537193298e-02
6.688837409019470215e-01 7.848417013883590698e-02 -2.769919931888580322e-01
8.705456256866455078e-01 -3.222414478659629822e-02 2.368939518928527832e-01
8.544787168502807617e-01 -1.303593516349792480e-01 3.518063947558403015e-02
4.385280311107635498e-01 2.717972546815872192e-02 -6.573292613029479980e-02
8.020443320274353027e-01 -7.842514663934707642e-02 -2.331237047910690308e-01
5.470151901245117188e-01 6.102130562067031860e-02 2.389336526393890381e-01
8.622307777404785156e-01 5.348631739616394043e-02 -7.852511852979660034e-02
7.374823689460754395e-01 -4.844723269343376160e-02 -2.738724648952484131e-01
8.999580144882202148e-01 -5.304638296365737915e-02 -2.265878617763519287e-01
6.676840782165527344e-01 1.271082460880279541e-01 -8.984490483999252319e-02
4.157407283782958984e-01 5.189353600144386292e-02 -7.283592224121093750e-02
8.839954137802124023e-01 -6.477302312850952148e-02 2.271895855665206909e-01
9.763131141662597656e-01 -2.806365489959716797e-02 -2.564436569809913635e-02
6.504729986190795898e-01 1.247300580143928528e-01 7.774909585714340210e-02
7.650743126869201660e-01 9.770636260509490967e-02 8.040913380682468414e-03
8.204530477523803711e-01 -7.176275365054607391e-03 -2.817794084548950195e-01
6.535485386848449707e-01 -1.051309239119291306e-02 -2.943021059036254883e-01
4.663749337196350098e-01 8.824324235320091248e-03 -9.329292178153991699e-02
6.625235080718994141e-01 -9.156313538551330566e-02 2.839979901909828186e-02
4.216478466987609863e-01 4.256993532180786133e-02 2.318039909005165100e-02
8.793111443519592285e-01 -1.257724016904830933e-01 9.509358555078506470e-02
8.842822313308715820e-01 -1.247985139489173889e-01 -8.155268430709838867e-02
4.774087667465209961e-01 1.240670680999755859e-04 6.885067373514175415e-02
7.015933394432067871e-01 3.176566585898399353e-02 2.755687832832336426e-01
7.128629088401794434e-01 -8.789683878421783447e-02 -1.623163819313049316e-01
4.850144982337951660e-01 1.455135047435760498e-01 -1.084537580609321594e-01
6.188510656356811523e-01 6.615945696830749512e-02 -2.992937564849853516e-01
4.942768216133117676e-01 -1.447545085102319717e-02 4.017235711216926575e-02
9.600049257278442383e-01 -1.239334698766469955e-02 2.372387796640396118e-02
5.721867084503173828e-01 1.362555474042892456e-01 8.538858592510223389e-02
8.138591051101684570e-01 -1.084978953003883362e-01 -1.507760584354400635e-01
7.280181050300598145e-01 7.694035023450851440e-02 1.897447109222412109e-01
5.396841168403625488e-01 8.305341936647891998e-03 2.145326286554336548e-01
4.386124908924102783e-01 2.512324228882789612e-02 -4.594042897224426270e-02
7.521072030067443848e-01 4.406162723898887634e-02 2.412716746330261230e-01
6.434750556945800781e-01 -8.514299988746643066e-02 -1.687711291015148163e-02
7.726923823356628418e-01 -5.662360042333602905e-02 2.631149590015411377e-01
4.276860058307647705e-01 3.440616279840469360e-02 -3.234936296939849854e-02
8.270249366760253906e-01 6.272530555725097656e-02 9.370784461498260498e-02
8.992446660995483398e-01 -2.942920848727226257e-02 -2.262309938669204712e-01
9.793781638145446777e-01 -8.927043527364730835e-02 9.670232236385345459e-02
3.936702907085418701e-01 1.042110100388526917e-01 -2.221208438277244568e-02
3.965166509151458740e-01 8.581931143999099731e-02 1.564922183752059937e-02
9.961296319961547852e-01 -6.163493543863296509e-02 1.478488463908433914e-02
9.122910499572753906e-01 -2.651532739400863647e-02 -2.089130580425262451e-01
5.957162976264953613e-01 -6.118923425674438477e-02 -9.375269711017608643e-02
7.505167126655578613e-01 5.868417769670486450e-02 -2.632768750190734863e-01
8.676872253417968750e-01 -1.301990002393722534e-01 -2.891420386731624603e-02
5.713812112808227539e-01 1.166473999619483948e-01 -2.280447334051132202e-01
8.449198007583618164e-01 -1.120631620287895203e-01 -1.444295346736907959e-01
5.438171029090881348e-01 3.632128983736038208e-02 -2.732876241207122803e-01
8.264220952987670898e-01 -1.282319277524948120e-01 2.661779150366783142e-02
7.655963897705078125e-01 -7.592335343360900879e-02 2.348381727933883667e-01
6.206148862838745117e-01 -6.928569078445434570e-02 1.109583601355552673e-01
4.945235550403594971e-01 1.463652104139328003e-01 3.252779692411422729e-02
8.041251897811889648e-01 3.003349900245666504e-02 -2.639217376708984375e-01
8.302875161170959473e-01 7.022801786661148071e-02 -7.021272182464599609e-02
5.940153598785400391e-01 -4.800969734787940979e-02 -1.619962304830551147e-01
7.505381107330322266e-01 4.028651490807533264e-02 -2.888251543045043945e-01
4.982520639896392822e-01 1.169736962765455246e-02 -1.868095546960830688e-01
4.645033478736877441e-01 1.184411048889160156e-01 1.244423240423202515e-01
9.394102096557617188e-01 -1.227416172623634338e-01 -4.984163120388984680e-02
4.224187135696411133e-01 1.355507969856262207e-01 -4.728307202458381653e-02
6.357982158660888672e-01 -7.836835831403732300e-02 -7.849419862031936646e-02
8.537943363189697266e-01 -7.803528755903244019e-02 2.305733859539031982e-01
7.639984488487243652e-01 8.979731053113937378e-02 -1.487164348363876343e-01
9.669694900512695312e-01 -2.227671816945075989e-02 4.646494612097740173e-02
9.048253893852233887e-01 1.570171117782592773e-02 -1.455856412649154663e-01
4.367703199386596680e-01 2.986034750938415527e-02 4.476216435432434082e-02
8.410779237747192383e-01 -8.362942934036254883e-02 -2.218626886606216431e-01
4.977341890335083008e-01 -1.418811175972223282e-02 -7.787299156188964844e-02
5.280769467353820801e-01 -3.545272722840309143e-02 8.698173798620700836e-03
5.088198781013488770e-01 1.068631652742624283e-02 -2.019276767969131470e-01
9.134920835494995117e-01 -1.241785511374473572e-01 8.985505253076553345e-02
4.932357668876647949e-01 -1.544694323092699051e-02 1.001947093755006790e-02
6.075220704078674316e-01 -7.173009216785430908e-02 2.422666177153587341e-02
9.894636869430541992e-01 -7.665637135505676270e-02 -7.632505893707275391e-02
8.967868089675903320e-01 -9.890973567962646484e-02 -1.736125797033309937e-01
6.087895631790161133e-01 -7.120759040117263794e-02 4.784129559993743896e-02
7.259792089462280273e-01 -2.980003133416175842e-02 2.807539403438568115e-01
8.583934307098388672e-01 3.310479596257209778e-02 -1.913765519857406616e-01
6.149941682815551758e-01 1.392746865749359131e-01 3.319841809570789337e-03
6.316711902618408203e-01 -6.172337569296360016e-03 -2.891733944416046143e-01
5.144345760345458984e-01 -7.842029444873332977e-03 1.444564461708068848e-01
7.387098670005798340e-01 -8.680919557809829712e-02 1.969398260116577148e-01
7.292458415031433105e-01 8.486375212669372559e-02 -2.219603806734085083e-01
4.273400902748107910e-01 1.252532303333282471e-01 5.893035978078842163e-02
6.310648322105407715e-01 9.557410329580307007e-02 2.013335376977920532e-01
4.509370326995849609e-01 2.044401690363883972e-02 -9.126242250204086304e-02
4.405683577060699463e-01 1.357430219650268555e-01 4.039310663938522339e-02
6.280500888824462891e-01 1.221642494201660156e-01 -1.862071305513381958e-01
7.470757365226745605e-01 1.350042037665843964e-02 2.769379913806915283e-01
9.085532426834106445e-01 2.587264403700828552e-02 3.707970678806304932e-02
6.362594366073608398e-01 -6.416091322898864746e-02 1.658878475427627563e-01
8.176074624061584473e-01 -3.333489224314689636e-02 2.673660814762115479e-01
7.750791907310485840e-01 -2.772405743598937988e-03 -3.015004098415374756e-01
5.945151448249816895e-01 9.442441165447235107e-02 2.112604230642318726e-01
4.902265071868896484e-01 1.080264225602149963e-01 1.630410850048065186e-01
4.005244970321655273e-01 6.946733593940734863e-02 -3.848620131611824036e-02
7.823778390884399414e-01 9.086316823959350586e-02 1.290686335414648056e-02
7.557998895645141602e-01 -1.159147098660469055e-01 -3.086558729410171509e-02
6.774165630340576172e-01 1.042354181408882141e-01 -2.114741057157516479e-01
6.827483177185058594e-01 -3.759056329727172852e-02 -2.718854248523712158e-01
4.316247999668121338e-01 5.250229313969612122e-02 -1.373887807130813599e-01
6.559966206550598145e-01 5.271889269351959229e-02 2.639448344707489014e-01
7.949591875076293945e-01 6.934311985969543457e-02 1.308045238256454468e-01
4.920398890972137451e-01 6.604672968387603760e-02 -2.446244806051254272e-01
6.181013584136962891e-01 -5.377737432718276978e-02 -1.778629124164581299e-01
7.547054886817932129e-01 8.272611349821090698e-02 1.403267234563827515e-01
8.573839664459228516e-01 -1.092121750116348267e-01 1.692557334899902344e-01
9.253077507019042969e-01 1.607955619692802429e-02 -5.470882356166839600e-02
5.529717206954956055e-01 1.339332759380340576e-01 1.045182719826698303e-01
6.054210066795349121e-01 5.943084508180618286e-02 2.573071718215942383e-01
6.683401465415954590e-01 -6.305998563766479492e-02 2.069341689348220825e-01
8.981638550758361816e-01 -9.045862406492233276e-02 -1.899839043617248535e-01
8.701675534248352051e-01 -1.281621027737855911e-02 -2.467703074216842651e-01
9.305894374847412109e-01 -8.557926863431930542e-02 1.759922057390213013e-01
9.198387861251831055e-01 -1.286684870719909668e-01 -2.069149538874626160e-02
5.051469206809997559e-01 1.212751790881156921e-01 -2.085429877042770386e-01
6.563922166824340820e-01 7.554426789283752441e-02 2.332846522331237793e-01
8.836084604263305664e-01 4.068036004900932312e-02 -8.577097952365875244e-02
6.844516396522521973e-01 -5.451105535030364990e-03 -3.072305321693420410e-01
7.691715955734252930e-01 -1.014465093612670898e-01 -1.553204655647277832e-01
8.169082999229431152e-01 -1.266216486692428589e-01 4.209394752979278564e-02
4.402102530002593994e-01 1.239872351288795471e-01 -1.493507474660873413e-01
5.078951120376586914e-01 9.210111200809478760e-02 -2.500311732292175293e-01
8.671825528144836426e-01 1.788239553570747375e-02 1.773526817560195923e-01
5.038381814956665039e-01 1.362737417221069336e-01 9.334000945091247559e-02
5.090165138244628906e-01 1.497731208801269531e-01 -1.339054666459560394e-03
6.882903575897216797e-01 7.279732823371887207e-02 2.259151786565780640e-01
8.749776482582092285e-01 -9.951756894588470459e-02 1.903586238622665405e-01
4.390338659286499023e-01 1.409979015588760376e-01 -4.231204278767108917e-03
4.797314405441284180e-01 2.531329914927482605e-02 -1.848919838666915894e-01
6.832302212715148926e-01 -9.816167503595352173e-02 2.489553019404411316e-02
5.448945760726928711e-01 8.660693466663360596e-02 2.174447476863861084e-01
4.184817373752593994e-01 5.270919948816299438e-02 -9.152933210134506226e-02
9.900498390197753906e-01 -1.001539900898933411e-01 2.569239959120750427e-02
8.323593139648437500e-01 -6.973381340503692627e-02 -2.458290010690689087e-01
9.467611312866210938e-01 -1.239868178963661194e-01 -1.581557840108871460e-02
7.248851060867309570e-01 -9.810633957386016846e-02 -1.272920966148376465e-01
5.457540750503540039e-01 1.461958289146423340e-01 -1.055637672543525696e-01
7.817210555076599121e-01 -1.193437352776527405e-01 7.322615385055541992e-02
5.903350114822387695e-01 1.941983029246330261e-02 -2.909346818923950195e-01
9.185967445373535156e-01 -5.785071849822998047e-02 2.001377940177917480e-01
4.400279521942138672e-01 1.350873261690139771e-01 -1.122830510139465332e-01
9.084622263908386230e-01 2.250929921865463257e-02 6.432674080133438110e-02
6.193060278892517090e-01 6.594154238700866699e-02 2.520094215869903564e-01
6.623619794845581055e-01 -2.924423292279243469e-02 -2.748870253562927246e-01
9.620217084884643555e-01 -3.227419778704643250e-02 1.025347858667373657e-01
6.506760716438293457e-01 -2.521316707134246826e-02 2.614863514900207520e-01
8.456063270568847656e-01 -3.811188414692878723e-02 2.545688152313232422e-01
9.414681196212768555e-01 -9.495967626571655273e-02 1.529972553253173828e-01
5.046119689941406250e-01 -7.535093463957309723e-03 1.228606104850769043e-01
7.051748037338256836e-01 1.170831397175788879e-01 -8.509784191846847534e-02
6.372880339622497559e-01 -6.086903065443038940e-02 -1.782712191343307495e-01
9.742310047149658203e-01 -8.013284206390380859e-02 1.159839630126953125e-01
5.901509523391723633e-01 -6.395485252141952515e-02 3.955411911010742188e-02
6.679321527481079102e-01 -8.018466085195541382e-02 -1.389358788728713989e-01
5.431787967681884766e-01 -3.831894323229789734e-02 -8.534683287143707275e-02
6.104418635368347168e-01 5.166776478290557861e-02 -3.054123818874359131e-01
7.865235805511474609e-01 -1.198250129818916321e-01 -5.748075619339942932e-02
9.471747875213623047e-01 -5.007346719503402710e-02 -1.709646731615066528e-01
8.575043082237243652e-01 4.988647624850273132e-02 -1.276477277278900146e-01
5.494967103004455566e-01 1.487215161323547363e-01 -6.434103846549987793e-02
4.679518342018127441e-01 2.546368539333343506e-02 1.335809230804443359e-01
6.399242877960205078e-01 -8.311513811349868774e-02 -3.667866438627243042e-02
8.562253713607788086e-01 5.427465215325355530e-02 -1.023977994918823242e-01
7.435500621795654297e-01 6.531891971826553345e-02 2.060134112834930420e-01
4.527594447135925293e-01 1.527011021971702576e-02 -6.560111790895462036e-02
7.006951570510864258e-01 7.820360362529754639e-02 -2.615749537944793701e-01
5.931615233421325684e-01 -5.451155453920364380e-02 -1.297900974750518799e-01
7.895612120628356934e-01 -9.198561310768127441e-02 2.072172313928604126e-01
6.770390272140502930e-01 9.852898865938186646e-02 -2.295690178871154785e-01
6.127640008926391602e-01 -2.957658097147941589e-02 2.290688008069992065e-01
8.394082784652709961e-01 5.284165591001510620e-02 1.137001812458038330e-01
4.950034618377685547e-01 -1.659334823489189148e-02 -2.047316357493400574e-02
9.964156150817871094e-01 -8.492349088191986084e-02 3.337235748767852783e-02
6.742509007453918457e-01 4.525263234972953796e-02 -3.097167611122131348e-01
6.036523580551147461e-01 3.119866922497749329e-02 -3.029943406581878662e-01
6.480785608291625977e-01 1.148511841893196106e-01 -1.990257948637008667e-01
8.277758955955505371e-01 -1.271244734525680542e-01 -3.467477113008499146e-02
9.422422647476196289e-01 -1.843372359871864319e-03 6.143456697463989258e-02
7.147958874702453613e-01 6.397759169340133667e-02 2.288908958435058594e-01
4.499406218528747559e-01 5.131577327847480774e-02 1.394609808921813965e-01
7.161988019943237305e-01 4.140622168779373169e-02 -3.027359247207641602e-01
5.385017395019531250e-01 -2.662832289934158325e-02 1.305201202630996704e-01
7.804908156394958496e-01 6.414702534675598145e-02 1.711261421442031860e-01
7.827777862548828125e-01 9.101955592632293701e-02 -6.811455637216567993e-02
8.573559522628784180e-01 -3.015005961060523987e-03 -2.517224252223968506e-01
8.337104320526123047e-01 -1.029674261808395386e-01 1.870841085910797119e-01
5.195196866989135742e-01 1.483896374702453613e-02 1.996698379516601562e-01
8.097692728042602539e-01 -9.096146374940872192e-02 -2.058443725109100342e-01
7.408566474914550781e-01 -9.015967696905136108e-02 -1.786223500967025757e-01
7.110745310783386230e-01 8.578094840049743652e-02 1.793790608644485474e-01
7.696174383163452148e-01 6.197856739163398743e-02 -2.396167218685150146e-01
8.245316743850708008e-01 -5.374453961849212646e-02 -2.660008072853088379e-01
4.142836928367614746e-01 1.055308654904365540e-01 -1.317867636680603027e-01
8.311047554016113281e-01 2.083293348550796509e-02 2.158306539058685303e-01
7.472158074378967285e-01 -1.103635355830192566e-01 -7.737272232770919800e-02
8.055535554885864258e-01 6.751324981451034546e-02 1.188006401062011719e-01
7.964757084846496582e-01 -1.060117185115814209e-01 -1.531277745962142944e-01
8.066610097885131836e-01 -7.196346670389175415e-02 2.457908391952514648e-01
5.773498415946960449e-01 8.531530946493148804e-02 2.258095145225524902e-01
5.424917936325073242e-01 1.477145552635192871e-01 -9.099289029836654663e-02
6.740954518318176270e-01 8.106203377246856689e-02 2.158820778131484985e-01
5.537682771682739258e-01 1.487512290477752686e-01 -4.869158193469047546e-02
5.288414955139160156e-01 1.227514222264289856e-01 1.450318843126296997e-01
9.387105703353881836e-01 -4.912723228335380554e-02 1.723581403493881226e-01
6.029278039932250977e-01 -9.495803155004978180e-03 2.494477927684783936e-01
7.682436704635620117e-01 -1.154013052582740784e-01 -6.999177485704421997e-02
7.417448163032531738e-01 -9.953415393829345703e-02 1.528812050819396973e-01
6.503261327743530273e-01 1.208190098404884338e-01 1.014629602432250977e-01
5.641336441040039062e-01 1.406673491001129150e-01 -1.375226378440856934e-01
4.790132641792297363e-01 3.373045474290847778e-04 -9.589787572622299194e-02
4.471490979194641113e-01 4.485230520367622375e-02 1.250113546848297119e-01
6.194752454757690430e-01 1.374779939651489258e-01 -9.386352449655532837e-02
7.145822644233703613e-01 -5.252318084239959717e-02 -2.603870630264282227e-01
8.858655095100402832e-01 -8.818955719470977783e-02 2.052908241748809814e-01
4.581147432327270508e-01 2.603096514940261841e-02 1.111040934920310974e-01
9.064790606498718262e-01 3.004505857825279236e-02 -1.802871562540531158e-02
9.031144380569458008e-01 3.186219930648803711e-02 -4.032307863235473633e-02
8.481804132461547852e-01 -1.188761517405509949e-01 -1.141809150576591492e-01
6.532834172248840332e-01 1.296550184488296509e-01 2.946535870432853699e-02
7.966582775115966797e-01 3.463902324438095093e-02 2.240798175334930420e-01
8.198664784431457520e-01 3.919322043657302856e-02 1.906184554100036621e-01
5.089725852012634277e-01 1.484390795230865479e-01 -9.331589192152023315e-02
6.918200850486755371e-01 1.157388836145401001e-01 6.892565637826919556e-02
4.142520725727081299e-01 5.106544122099876404e-02 -5.623942986130714417e-02
5.252311825752258301e-01 -3.343516588211059570e-02 2.492593973875045776e-02
6.904239654541015625e-01 3.547352924942970276e-02 -3.122401833534240723e-01
5.881864428520202637e-01 -6.364242732524871826e-02 -2.409375831484794617e-02
4.792361259460449219e-01 1.492570191621780396e-01 -2.068990655243396759e-02
6.281357407569885254e-01 1.171202138066291809e-01 1.383306235074996948e-01
8.225120306015014648e-01 6.503885984420776367e-02 -1.446733325719833374e-01
7.367126941680908203e-01 -7.178518921136856079e-02 -2.300459742546081543e-01
8.906893134117126465e-01 -1.200470253825187683e-01 1.237387061119079590e-01
7.595264911651611328e-01 9.201531857252120972e-02 8.470448851585388184e-02
5.117845535278320312e-01 1.110919117927551270e-01 -2.302293926477432251e-01
9.410187005996704102e-01 -1.136219222098588943e-02 -1.316535770893096924e-01
9.161640405654907227e-01 -1.128349453210830688e-03 -1.667810976505279541e-01
9.609375000000000000e-01 -1.153490692377090454e-01 6.723822653293609619e-02
4.263074696063995361e-01 8.735231310129165649e-02 1.120878905057907104e-01
4.362393915653228760e-01 5.817026272416114807e-02 1.192815452814102173e-01
8.316217660903930664e-01 6.491620093584060669e-02 -1.177749782800674438e-01
4.748353958129882812e-01 8.082487434148788452e-02 -2.293177545070648193e-01
6.059517860412597656e-01 1.279221475124359131e-01 -1.778278350830078125e-01
8.432546854019165039e-01 4.565435275435447693e-02 1.354924291372299194e-01
8.269535303115844727e-01 7.057595998048782349e-02 3.258286044001579285e-02
8.145560026168823242e-01 -8.050763607025146484e-02 2.334273159503936768e-01
5.889223814010620117e-01 1.429051309823989868e-01 -8.938296139240264893e-02
8.636786937713623047e-01 2.830655127763748169e-02 1.557738035917282104e-01
4.171984493732452393e-01 7.878006994724273682e-02 9.137783199548721313e-02
8.019517064094543457e-01 -1.234164610505104065e-01 6.278525292873382568e-02
8.574498891830444336e-01 -4.055060818791389465e-02 -2.605628967285156250e-01
9.248057603836059570e-01 -1.109161451458930969e-01 -1.230541169643402100e-01
7.057702541351318359e-01 -5.686667561531066895e-02 2.455892264842987061e-01
5.910435318946838379e-01 -6.379370391368865967e-02 -4.590346664190292358e-02
9.488125443458557129e-01 -1.237216964364051819e-01 2.695979177951812744e-02
7.610096335411071777e-01 -1.178965643048286438e-01 -4.479249939322471619e-03
9.079645276069641113e-01 6.843740120530128479e-04 -1.792717427015304565e-01
9.689782857894897461e-01 -3.076181933283805847e-02 -9.319469332695007324e-02
4.463940262794494629e-01 1.035476401448249817e-01 -1.881318688392639160e-01
8.193221688270568848e-01 7.578211277723312378e-02 -6.136719882488250732e-02
6.298170089721679688e-01 1.318466216325759888e-01 5.678667873144149780e-02
4.277858138084411621e-01 1.038022190332412720e-01 1.033625006675720215e-01
4.633655846118927002e-01 5.164682399481534958e-03 -4.090515524148941040e-02
9.598597884178161621e-01 -2.461276575922966003e-02 8.829726278781890869e-02
9.784156084060668945e-01 -8.244597166776657104e-02 -1.046820133924484253e-01
4.135822653770446777e-01 6.347159296274185181e-02 6.219101697206497192e-02
8.417331576347351074e-01 -1.266987025737762451e-01 7.706116139888763428e-02
8.085938692092895508e-01 -1.127345710992813110e-01 -1.293570995330810547e-01
9.658380150794982910e-01 -1.095381006598472595e-01 -7.103241235017776489e-02
6.901045441627502441e-01 -7.717137783765792847e-02 1.863755285739898682e-01
7.769222855567932129e-01 8.745799958705902100e-02 7.123355567455291748e-02
9.451578855514526367e-01 -7.373362034559249878e-02 1.670720428228378296e-01
4.692854881286621094e-01 1.560636237263679504e-02 -1.346050649881362915e-01
7.921990156173706055e-01 6.277299672365188599e-02 -2.104660868644714355e-01
7.144963741302490234e-01 9.879218786954879761e-02 1.283235400915145874e-01
9.511767625808715820e-01 -9.486248344182968140e-02 1.410414129495620728e-01
7.864761352539062500e-01 -1.000402942299842834e-01 -1.711693853139877319e-01
8.684033155441284180e-01 3.848567605018615723e-02 1.091977804899215698e-01
9.158098697662353516e-01 -1.193587556481361389e-01 1.130623519420623779e-01
8.943470716476440430e-01 -1.210637390613555908e-03 1.769927442073822021e-01
7.708416581153869629e-01 9.167578816413879395e-02 5.585622787475585938e-02
5.223634243011474609e-01 1.398822665214538574e-01 -1.528916954994201660e-01
5.238426923751831055e-01 8.173856884241104126e-02 -2.651963233947753906e-01
7.634508013725280762e-01 -6.381493061780929565e-02 -2.549014985561370850e-01
8.363727331161499023e-01 -7.776477374136447906e-03 -2.718024551868438721e-01
6.757783293724060059e-01 -1.010051649063825607e-02 2.822409272193908691e-01
6.359569430351257324e-01 -7.478288561105728149e-02 -1.074732244014739990e-01
7.409912943840026855e-01 1.000655591487884521e-01 7.384995371103286743e-02
9.344620704650878906e-01 -9.759895503520965576e-02 -1.490351706743240356e-01
6.497217416763305664e-01 1.305139362812042236e-01 -1.018420606851577759e-01
7.749190926551818848e-01 -2.898496761918067932e-02 2.796005010604858398e-01
5.524541139602661133e-01 4.779566079378128052e-02 2.453806698322296143e-01
6.004914045333862305e-01 1.199096962809562683e-01 -2.112030237913131714e-01
6.079021692276000977e-01 7.881018519401550293e-02 2.360708564519882202e-01
7.329363822937011719e-01 4.536844417452812195e-02 2.500073313713073730e-01
6.967378854751586914e-01 6.383424252271652222e-02 2.382960915565490723e-01
4.779502749443054199e-01 1.470142006874084473e-01 -8.891212195158004761e-02
7.271817326545715332e-01 -9.267722815275192261e-02 -1.566524356603622437e-01
6.748020648956298828e-01 -8.662770688533782959e-02 -1.142140626907348633e-01
9.617525935173034668e-01 -1.184701547026634216e-01 4.053378477692604065e-02
5.539835095405578613e-01 1.378723978996276855e-01 -1.582205742597579956e-01
8.021394610404968262e-01 -1.183115765452384949e-01 1.103669404983520508e-01
8.745978474617004395e-01 -1.278399080038070679e-01 7.924417406320571899e-02
5.703531503677368164e-01 1.069148629903793335e-01 1.869859695434570312e-01
8.031303286552429199e-01 -9.713952243328094482e-02 1.976915746927261353e-01
8.496857881546020508e-01 -1.303774267435073853e-01 -8.505722507834434509e-04
7.541900873184204102e-01 -8.327969908714294434e-02 2.150943428277969360e-01
7.638075947761535645e-01 9.750844538211822510e-02 -8.277475833892822266e-02
5.559941530227661133e-01 1.734033226966857910e-02 2.386899292469024658e-01
9.247611165046691895e-01 -6.679811328649520874e-02 -1.971312314271926880e-01
7.456483244895935059e-01 -1.133942529559135437e-01 5.528504401445388794e-02
7.673040628433227539e-01 6.847115606069564819e-02 -2.260892391204833984e-01
7.521967291831970215e-01 -9.651292115449905396e-02 -1.629675477743148804e-01
5.903632640838623047e-01 -2.986478433012962341e-02 -2.156069874763488770e-01
5.819661021232604980e-01 6.232469901442527771e-02 -2.958310246467590332e-01
3.958071172237396240e-01 7.933080196380615234e-02 -2.235642448067665100e-02
9.171383976936340332e-01 -1.068375334143638611e-01 1.527660638093948364e-01
5.938559174537658691e-01 -6.215458363294601440e-02 -7.902453094720840454e-02
8.460664153099060059e-01 6.325397640466690063e-02 -5.675267428159713745e-02
6.182785630226135254e-01 1.396510004997253418e-01 -5.052651464939117432e-02
7.698845863342285156e-01 4.090629145503044128e-02 2.345154285430908203e-01
9.476333260536193848e-01 -1.077235639095306396e-01 1.197347790002822876e-01
7.270150184631347656e-01 1.058577075600624084e-01 6.461141258478164673e-02
7.155807018280029297e-01 -9.705882519483566284e-02 1.328198611736297607e-01
9.306264519691467285e-01 8.479164913296699524e-03 5.395635962486267090e-02
6.250915527343750000e-01 1.223238408565521240e-01 1.186451762914657593e-01
7.048613429069519043e-01 -9.487709403038024902e-02 -1.164541020989418030e-01
4.686411321163177490e-01 1.125966683030128479e-01 1.396106928586959839e-01
8.161163330078125000e-01 7.250194996595382690e-02 -1.163535565137863159e-01
9.917489290237426758e-01 -7.475984096527099609e-02 6.488343328237533569e-02
8.621678948402404785e-01 4.634408652782440186e-02 8.671320229768753052e-02
5.919874310493469238e-01 9.660492092370986938e-02 -2.658255696296691895e-01
9.155242443084716797e-01 -1.299556493759155273e-01 3.020965494215488434e-03
7.116023302078247070e-01 1.111777573823928833e-01 6.005853414535522461e-02
4.744855761528015137e-01 1.030062064528465271e-01 1.595139503479003906e-01
6.085631251335144043e-01 -7.129638642072677612e-02 -3.920736163854598999e-02
6.552588939666748047e-01 -6.482287496328353882e-02 -1.865396797657012939e-01
5.864443182945251465e-01 1.442138999700546265e-01 -7.298499345779418945e-02
4.906164407730102539e-01 1.319825798273086548e-01 1.045978590846061707e-01
7.777990102767944336e-01 3.614526614546775818e-02 -2.766022980213165283e-01
5.714825391769409180e-01 -4.215944930911064148e-02 -1.438325494527816772e-01
6.905423998832702637e-01 -5.404808372259140015e-02 -2.456636130809783936e-01
7.547714710235595703e-01 1.017455384135246277e-01 -6.608735024929046631e-02
6.332652568817138672e-01 1.365109533071517944e-01 -1.617333665490150452e-02
6.129632592201232910e-01 9.569370746612548828e-02 2.060588747262954712e-01
5.817917585372924805e-01 -6.129456311464309692e-02 -5.981970578432083130e-03
5.389003157615661621e-01 -1.740535721182823181e-02 -1.764611899852752686e-01
8.830949664115905762e-01 3.203195706009864807e-02 9.961457550525665283e-02
9.292560815811157227e-01 -1.262692064046859741e-01 -3.544541448354721069e-02
8.136301636695861816e-01 -1.267687529325485229e-01 -1.382286660373210907e-03
8.295704126358032227e-01 -1.184115931391716003e-01 1.283035129308700562e-01
7.258117794990539551e-01 -7.963965088129043579e-02 -2.027673572301864624e-01
7.129530310630798340e-01 -1.013415753841400146e-01 9.959278255701065063e-02
4.595982134342193604e-01 1.468374580144882202e-01 -2.600139752030372620e-02
4.995052218437194824e-01 1.504424810409545898e-01 -2.031672000885009766e-02
9.259621500968933105e-01 -7.220147550106048584e-02 1.899311095476150513e-01
7.099454402923583984e-01 5.165215581655502319e-02 2.515334188938140869e-01
5.449464321136474609e-01 1.150272563099861145e-01 1.673197150230407715e-01
6.853080987930297852e-01 -3.495739027857780457e-02 2.666098475456237793e-01
5.499030351638793945e-01 -4.656302928924560547e-02 -1.221526786684989929e-02
9.280349612236022949e-01 -1.273559331893920898e-01 4.263395443558692932e-02
7.725485563278198242e-01 -1.055942475795745850e-01 -1.392106562852859497e-01
6.563279628753662109e-01 -8.918613940477371216e-02 -2.660478092730045319e-02
8.885308504104614258e-01 -1.288362294435501099e-01 -4.753992706537246704e-02
8.900466561317443848e-01 4.341948311775922775e-03 -2.030854672193527222e-01
8.602804541587829590e-01 -1.287495046854019165e-01 6.672596186399459839e-02
7.865423560142517090e-01 -1.138052344322204590e-01 1.240434646606445312e-01
8.437077999114990234e-01 1.485046371817588806e-02 -2.463872134685516357e-01
8.307417035102844238e-01 4.764924943447113037e-02 1.510118693113327026e-01
8.653949499130249023e-01 -1.206705495715141296e-01 -1.070402562618255615e-01
7.972767353057861328e-01 6.599933654069900513e-02 -1.923755258321762085e-01
6.555724143981933594e-01 -8.347001671791076660e-02 1.021380126476287842e-01
5.041519999504089355e-01 -1.338027883321046829e-02 -1.096581816673278809e-01
5.621587038040161133e-01 -3.052453696727752686e-02 1.640681475400924683e-01
4.694111049175262451e-01 9.365543723106384277e-02 -2.200165539979934692e-01
7.007288336753845215e-01 -1.022357419133186340e-01 5.141866207122802734e-02
4.557220935821533203e-01 2.386125922203063965e-02 -1.247203052043914795e-01
4.799445271492004395e-01 -5.237657576799392700e-03 -5.531068891286849976e-02
6.140056252479553223e-01 -6.702935695648193359e-02 -1.046395823359489441e-01
7.531572580337524414e-01 9.915008395910263062e-02 -1.097500175237655640e-01
6.214227080345153809e-01 -7.549334317445755005e-02 5.808454751968383789e-02
7.768111824989318848e-01 1.700167916715145111e-02 2.616930305957794189e-01
4.426288604736328125e-01 1.092492192983627319e-01 1.180177032947540283e-01
8.914855718612670898e-01 -7.369887083768844604e-02 -2.178659886121749878e-01
7.310042381286621094e-01 -5.518668144941329956e-02 2.577919363975524902e-01
8.390715122222900391e-01 -5.648878961801528931e-02 -2.591894865036010742e-01
4.227204620838165283e-01 1.228369399905204773e-01 -1.212984621524810791e-01
5.746959447860717773e-01 -2.522666379809379578e-02 -2.082628756761550903e-01
7.474357485771179199e-01 -1.094394102692604065e-01 1.024090200662612915e-01
8.945361971855163574e-01 2.914931997656822205e-02 -1.185505613684654236e-01
6.328537464141845703e-01 -4.002389684319496155e-02 -2.345463186502456665e-01
8.026124238967895508e-01 7.745624333620071411e-02 6.842243671417236328e-02
6.092115044593811035e-01 -2.282197028398513794e-02 -2.501451075077056885e-01
8.558350205421447754e-01 -1.213654056191444397e-01 1.206441521644592285e-01
7.662116289138793945e-01 8.078835904598236084e-02 1.307475119829177856e-01
5.867562890052795410e-01 -5.576173216104507446e-02 1.059107482433319092e-01
4.750963449478149414e-01 1.480280160903930664e-01 -3.136294893920421600e-03
7.284742593765258789e-01 -8.499243296682834625e-03 2.871952652931213379e-01
5.172308683395385742e-01 -1.423240173608064651e-02 1.288616955280303955e-01
8.952438235282897949e-01 -1.531165558844804764e-02 -2.214329838752746582e-01
5.184950828552246094e-01 1.326762586832046509e-01 1.109909117221832275e-01
7.445112466812133789e-01 1.015086919069290161e-01 5.234799534082412720e-02
4.346692264080047607e-01 2.746398001909255981e-02 -2.060051448643207550e-02
5.357036590576171875e-01 1.478643268346786499e-01 1.712490990757942200e-02
7.997179627418518066e-01 -4.041095077991485596e-02 -2.827151119709014893e-01
4.814873933792114258e-01 -7.394972257316112518e-03 -3.855957090854644775e-02
9.292157888412475586e-01 -1.751811057329177856e-02 -1.719999760389328003e-01
9.866378307342529297e-01 -6.398709118366241455e-02 7.859913259744644165e-02
4.590964317321777344e-01 1.357240527868270874e-01 -1.369191557168960571e-01
6.783652901649475098e-01 1.257437914609909058e-01 -9.688084945082664490e-03
5.138599872589111328e-01 3.825063630938529968e-02 -2.491994053125381470e-01
7.338341474533081055e-01 4.917423054575920105e-02 -2.877573668956756592e-01
8.243514895439147949e-01 -1.035317257046699524e-01 -1.719239801168441772e-01
7.886972427368164062e-01 -2.987343072891235352e-02 -2.915951609611511230e-01
4.388507902622222900e-01 1.127155795693397522e-01 -1.681403964757919312e-01
5.259732604026794434e-01 2.779646590352058411e-02 -2.505072951316833496e-01
5.327211022377014160e-01 -3.555742278695106506e-02 5.414013564586639404e-02
6.405177116394042969e-01 -7.277414947748184204e-02 -1.297524422407150269e-01
6.157917976379394531e-01 1.108159720897674561e-01 1.667831689119338989e-01
9.107462167739868164e-01 -1.120946183800697327e-01 -1.293575465679168701e-01
2.239958345890045166e-01 1.111045479774475098e-03 2.280112951993942261e-01
2.245410382747650146e-01 -1.495817117393016815e-02 2.378939241170883179e-01
3.322867155075073242e-01 1.855683475732803345e-01 1.268531382083892822e-01
3.580814003944396973e-01 1.086339354515075684e-01 -9.908382594585418701e-02
2.743810117244720459e-01 1.013578325510025024e-01 -2.132090330123901367e-01
2.905927002429962158e-01 -8.111465722322463989e-04 -3.330815732479095459e-01
3.500169813632965088e-01 -1.846416108310222626e-02 -1.925045996904373169e-01
3.395571410655975342e-01 2.987913787364959717e-03 1.916682720184326172e-01
3.597049713134765625e-01 7.094216346740722656e-02 -1.311067938804626465e-01
2.828846275806427002e-01 9.484918415546417236e-02 4.061284959316253662e-01
2.464654445648193359e-01 1.341521739959716797e-01 1.730342507362365723e-01
3.094547390937805176e-01 -3.039033524692058563e-02 3.130898177623748779e-01
2.482975274324417114e-01 1.394289731979370117e-01 1.489544510841369629e-01
2.767185568809509277e-01 1.899900734424591064e-01 9.099672734737396240e-02
3.198135197162628174e-01 -1.133207753300666809e-01 -1.648750752210617065e-01
2.704246342182159424e-01 1.825747191905975342e-01 1.401364505290985107e-01
3.230579197406768799e-01 1.944429576396942139e-01 -5.781117826700210571e-02
3.427277803421020508e-01 1.759268939495086670e-01 2.499440312385559082e-02
2.729063034057617188e-01 -5.776614695787429810e-02 -2.832290232181549072e-01
3.260578513145446777e-01 -3.379709273576736450e-02 2.301831841468811035e-01
2.372760474681854248e-01 9.506475925445556641e-02 5.897697061300277710e-02
3.343548178672790527e-01 7.612459361553192139e-02 2.673005163669586182e-01
2.792773842811584473e-01 5.980729311704635620e-02 4.200952351093292236e-01
2.731915712356567383e-01 -8.322379738092422485e-02 3.197252452373504639e-01
2.995759844779968262e-01 -1.477636694908142090e-01 -4.502469301223754883e-02
2.809209823608398438e-01 -2.368621714413166046e-02 3.880772590637207031e-01
2.238846123218536377e-01 2.788241766393184662e-02 1.329626142978668213e-01
2.550757527351379395e-01 9.266885370016098022e-02 -1.296464055776596069e-01
2.313886582851409912e-01 -1.016013845801353455e-01 7.343247532844543457e-02
3.312947154045104980e-01 -2.665963955223560333e-02 -3.057840764522552490e-01
2.225262969732284546e-01 -4.320389032363891602e-02 1.151502504944801331e-01
3.243706226348876953e-01 -8.191847801208496094e-02 1.346106380224227905e-01
2.898986935615539551e-01 1.194160059094429016e-01 -2.344758808612823486e-01
3.314382433891296387e-01 1.053871586918830872e-01 -2.760811150074005127e-01
2.438214123249053955e-01 -1.103674247860908508e-01 -8.716602623462677002e-02
2.782804071903228760e-01 7.149448990821838379e-02 -2.651377618312835693e-01
2.495148926973342896e-01 -1.130778715014457703e-01 -1.228990554809570312e-01
3.370792865753173828e-01 1.092638447880744934e-01 2.419439554214477539e-01
2.818193137645721436e-01 -9.015502780675888062e-02 2.960404753684997559e-01
2.882969379425048828e-01 2.002589553594589233e-01 6.536075472831726074e-02
2.526494860649108887e-01 1.115814521908760071e-01 3.384571075439453125e-01
2.411682009696960449e-01 -5.481916666030883789e-02 -1.405309587717056274e-01
2.859983146190643311e-01 1.899287849664688110e-01 2.261621505022048950e-01
2.255949676036834717e-01 4.429233819246292114e-02 1.590425968170166016e-01
3.169596493244171143e-01 9.712020307779312134e-02 -2.985604107379913330e-01
3.178361654281616211e-01 -3.267349302768707275e-02 2.751216888427734375e-01
3.423098921775817871e-01 1.526015102863311768e-01 -1.512127667665481567e-01
2.561011910438537598e-01 1.561038792133331299e-01 1.907191723585128784e-01
2.696275711059570312e-01 -9.743776917457580566e-02 -2.375194132328033447e-01
2.384259253740310669e-01 2.021475508809089661e-02 3.554025292396545410e-01
2.987469434738159180e-01 2.067645788192749023e-01 8.095222711563110352e-02
3.335685133934020996e-01 7.031280547380447388e-03 -3.175191581249237061e-01
3.387036323547363281e-01 1.761902719736099243e-01 1.062109619379043579e-01
2.974696159362792969e-01 6.798053532838821411e-02 -3.123712241649627686e-01
2.428413033485412598e-01 -1.306342780590057373e-01 1.054201871156692505e-01
3.145073056221008301e-01 2.048017978668212891e-01 7.529126480221748352e-03
2.847623825073242188e-01 1.699877828359603882e-01 3.001272976398468018e-01
2.372179776430130005e-01 5.211409926414489746e-02 -5.700136721134185791e-02
3.453224897384643555e-01 -1.427237130701541901e-02 -2.472775578498840332e-01
3.591810464859008789e-01 8.770659565925598145e-02 1.766605488955974579e-02
2.726429700851440430e-01 1.613142788410186768e-01 2.995608747005462646e-01
3.415797650814056396e-01 1.774511337280273438e-01 4.528695344924926758e-02
