4.005219936370849609e-01 2.273508608341217041e-01 3.105597496032714844e-01
4.924014210700988770e-01 2.414646893739700317e-01 4.244980216026306152e-01
4.392299652099609375e-01 1.914800256490707397e-01 -1.415780484676361084e-01
4.925740361213684082e-01 1.892564147710800171e-01 1.583669483661651611e-01
5.914421081542968750e-01 1.858039647340774536e-01 2.380242645740509033e-01
5.592382550239562988e-01 2.438921630382537842e-01 5.061600804328918457e-01
3.746873438358306885e-01 2.364443540573120117e-01 -2.162906527519226074e-01
5.615772604942321777e-01 2.438227236270904541e-01 -6.425127387046813965e-01
8.881261348724365234e-01 2.069581300020217896e-01 1.816484481096267700e-01
7.980366945266723633e-01 2.363214939832687378e-01 5.683456659317016602e-01
6.314409971237182617e-01 2.540834248065948486e-01 2.862689495086669922e-01
7.894345521926879883e-01 1.930303871631622314e-01 3.102481961250305176e-01
9.047766923904418945e-01 2.249600440263748169e-01 -6.224483251571655273e-02
5.936715006828308105e-01 2.034118473529815674e-01 -7.608554959297180176e-01
8.303977251052856445e-01 2.088331431150436401e-01 -4.475711584091186523e-01
8.261016011238098145e-01 1.963282972574234009e-01 2.730376720428466797e-01
8.660831451416015625e-01 2.011835724115371704e-01 1.698721200227737427e-01
8.855236768722534180e-01 2.298144251108169556e-01 -1.926933974027633667e-01
5.765656232833862305e-01 2.524682283401489258e-01 2.990899980068206787e-01
5.114287137985229492e-01 2.163643389940261841e-01 -8.109921813011169434e-01
8.431571125984191895e-01 2.241710722446441650e-01 5.593298673629760742e-01
6.424607634544372559e-01 1.829411387443542480e-01 1.189611107110977173e-02
4.340934157371520996e-01 2.187215387821197510e-01 -7.072270512580871582e-01
6.573410034179687500e-01 2.571012973785400391e-01 1.305647939443588257e-02
7.720437049865722656e-01 2.523537874221801758e-01 -1.678344234824180603e-02
6.042428016662597656e-01 1.836992055177688599e-01 1.123822778463363647e-01
5.105217695236206055e-01 2.536647319793701172e-01 -1.351309865713119507e-01
7.244135737419128418e-01 1.978385299444198608e-01 -5.724331736564636230e-01
5.400846600532531738e-01 2.533344328403472900e-01 -3.198287487030029297e-01
7.085626125335693359e-01 1.846764832735061646e-01 5.194174870848655701e-02
7.033073306083679199e-01 2.551250755786895752e-01 1.733157634735107422e-01
6.678648591041564941e-01 1.834356784820556641e-01 4.624724015593528748e-02
6.730614304542541504e-01 2.465938478708267212e-01 -5.574222207069396973e-01
6.310104131698608398e-01 1.836868077516555786e-01 -2.207616865634918213e-01
7.672355175018310547e-01 2.527602016925811768e-01 4.538362845778465271e-02
5.670138001441955566e-01 1.836867779493331909e-01 -1.669286042451858521e-01
6.469992399215698242e-01 1.829113513231277466e-01 -5.626178905367851257e-02
7.890770435333251953e-01 2.446192204952239990e-01 4.299680590629577637e-01
7.831500768661499023e-01 2.370069622993469238e-01 5.867368578910827637e-01
6.853116154670715332e-01 2.110144048929214478e-01 -7.655960917472839355e-01
6.096682548522949219e-01 2.504996657371520996e-01 4.062270820140838623e-01
4.525480568408966064e-01 2.245861440896987915e-01 -7.323290705680847168e-01
7.623908519744873047e-01 1.950684636831283569e-01 4.527409672737121582e-01
8.048920631408691406e-01 1.915090680122375488e-01 7.631325721740722656e-02
6.552545428276062012e-01 2.558459341526031494e-01 1.842787861824035645e-01
6.440820693969726562e-01 1.846208870410919189e-01 -2.798050940036773682e-01
4.541323781013488770e-01 2.460538446903228760e-01 1.702110022306442261e-01
5.797618627548217773e-01 1.836782693862915039e-01 6.341776251792907715e-02
7.434796690940856934e-01 2.461414337158203125e-01 -4.539631605148315430e-01
5.431816577911376953e-01 2.151988297700881958e-01 -8.273872733116149902e-01
5.477657914161682129e-01 1.996101438999176025e-01 -7.061474919319152832e-01
5.508878827095031738e-01 1.878974139690399170e-01 -4.296707510948181152e-01
6.792784929275512695e-01 1.975109428167343140e-01 5.860989093780517578e-01
4.967997670173645020e-01 2.350575178861618042e-01 -7.180365920066833496e-01
6.752641797065734863e-01 2.176442742347717285e-01 7.542891502380371094e-01
7.133142352104187012e-01 1.854446232318878174e-01 1.372203081846237183e-01
5.567106008529663086e-01 2.422015368938446045e-01 5.323449969291687012e-01
4.724803864955902100e-01 2.292909622192382812e-01 -7.384936809539794922e-01
4.091925621032714844e-01 2.435048222541809082e-01 -1.513990610837936401e-01
6.802854537963867188e-01 2.495569884777069092e-01 -4.745455980300903320e-01
7.669608592987060547e-01 2.081436514854431152e-01 6.524592041969299316e-01
7.201837301254272461e-01 2.538740932941436768e-01 2.251395285129547119e-01
6.545580625534057617e-01 2.568048834800720215e-01 8.660051226615905762e-02
7.449554800987243652e-01 1.872401386499404907e-01 -1.523476392030715942e-01
7.337771058082580566e-01 2.492398470640182495e-01 4.081210196018218994e-01
8.772388100624084473e-01 2.297969758510589600e-01 -2.516469061374664307e-01
3.600721359252929688e-01 2.294730842113494873e-01 2.001711726188659668e-02
6.408182382583618164e-01 2.479381561279296875e-01 -5.526043176651000977e-01
8.159596920013427734e-01 2.378483712673187256e-01 5.042288303375244141e-01
5.213918685913085938e-01 2.161981463432312012e-01 6.408981680870056152e-01
6.935662031173706055e-01 1.941264867782592773e-01 -5.502604246139526367e-01
6.104918122291564941e-01 2.515467107295989990e-01 3.734439611434936523e-01
8.241091966629028320e-01 2.031840234994888306e-01 -3.930203318595886230e-01
8.350608348846435547e-01 2.443556487560272217e-01 -1.332200318574905396e-01
7.782256007194519043e-01 2.518790364265441895e-01 7.191742956638336182e-02
5.604962110519409180e-01 1.887968629598617554e-01 3.193685114383697510e-01
6.769651770591735840e-01 1.979505866765975952e-01 -6.424996256828308105e-01
4.391363561153411865e-01 1.915012598037719727e-01 -1.080169081687927246e-01
8.331112265586853027e-01 2.246967554092407227e-01 -4.874241054058074951e-01
5.187146067619323730e-01 2.456524074077606201e-01 3.975800871849060059e-01
5.420902371406555176e-01 1.893353313207626343e-01 -4.739272892475128174e-01
3.909604549407958984e-01 1.986700445413589478e-01 -9.000391513109207153e-02
7.015893459320068359e-01 2.521073520183563232e-01 -3.544017374515533447e-01
3.437791764736175537e-01 2.234571427106857300e-01 -1.900248676538467407e-01
4.855008125305175781e-01 2.414482235908508301e-01 -6.061610579490661621e-01
4.771702885627746582e-01 1.920809894800186157e-01 -4.451189339160919189e-01
7.694568634033203125e-01 2.433601319789886475e-01 -4.542832970619201660e-01
6.689065694808959961e-01 1.955595761537551880e-01 5.533764362335205078e-01
8.172628283500671387e-01 2.463898360729217529e-01 -1.614731848239898682e-01
7.043756842613220215e-01 2.010853439569473267e-01 6.301078796386718750e-01
5.122705698013305664e-01 1.969784051179885864e-01 -6.348713040351867676e-01
4.436826407909393311e-01 1.910849958658218384e-01 -1.771569252014160156e-01
8.946946859359741211e-01 2.332337945699691772e-01 8.716730773448944092e-02
8.719671964645385742e-01 2.380498051643371582e-01 -8.802103996276855469e-02
3.743209838867187500e-01 2.294817864894866943e-01 1.467790007591247559e-01
5.935958623886108398e-01 2.348167300224304199e-01 -7.712625861167907715e-01
6.672642230987548828e-01 2.432737052440643311e-01 5.877853035926818848e-01
5.182818174362182617e-01 2.313173562288284302e-01 6.002780795097351074e-01
4.774527549743652344e-01 2.492770105600357056e-01 -3.417909145355224609e-01
6.556141972541809082e-01 1.974830627441406250e-01 5.884186625480651855e-01
7.437084913253784180e-01 2.417480349540710449e-01 5.707849264144897461e-01
6.483240723609924316e-01 1.944679915904998779e-01 5.327361226081848145e-01
5.795481801033020020e-01 1.869317740201950073e-01 -4.127160310745239258e-01
7.004535198211669922e-01 2.532345652580261230e-01 2.986593544483184814e-01
4.545463323593139648e-01 2.487678527832031250e-01 3.022603690624237061e-03
7.473126649856567383e-01 2.072650492191314697e-01 6.669396758079528809e-01
7.209920883178710938e-01 2.550567686557769775e-01 -1.000516340136528015e-01
5.771624445915222168e-01 2.565612494945526123e-01 -8.448816835880279541e-02
4.995524585247039795e-01 1.914900094270706177e-01 2.744247019290924072e-01
6.211187243461608887e-01 2.546817958354949951e-01 2.501385807991027832e-01
4.591182172298431396e-01 1.906548291444778442e-01 5.845914408564567566e-02
6.478808522224426270e-01 2.544225454330444336e-01 2.734552025794982910e-01
5.896236300468444824e-01 2.562972307205200195e-01 -1.882934123277664185e-01
5.163528323173522949e-01 2.538725733757019043e-01 -1.651476174592971802e-01
7.233177423477172852e-01 1.857532709836959839e-01 1.224604994058609009e-01
5.420655608177185059e-01 1.843352019786834717e-01 -1.470720767974853516e-01
9.085046052932739258e-01 2.258323282003402710e-01 1.043817996978759766e-01
7.716464400291442871e-01 1.896967291831970215e-01 2.116027474403381348e-01
6.492598652839660645e-01 1.891562044620513916e-01 -4.738125503063201904e-01
6.345512270927429199e-01 1.895339787006378174e-01 4.083987474441528320e-01
7.356439232826232910e-01 2.504232525825500488e-01 3.634248673915863037e-01
5.039584040641784668e-01 2.532619833946228027e-01 -4.411897063255310059e-02
3.946980834007263184e-01 1.985567510128021240e-01 -2.674456536769866943e-01
6.742036342620849609e-01 2.397301346063613892e-01 -6.758233904838562012e-01
5.258007645606994629e-01 1.934428215026855469e-01 3.930705487728118896e-01
4.488113522529602051e-01 2.426926940679550171e-01 -4.892513453960418701e-01
9.005630016326904297e-01 2.225912809371948242e-01 -1.334223151206970215e-01
3.765972256660461426e-01 2.046981900930404663e-01 -3.684639930725097656e-01
5.392788052558898926e-01 1.847024112939834595e-01 2.283411845564842224e-02
7.979606986045837402e-01 1.917107552289962769e-01 1.897477954626083374e-01
4.243164658546447754e-01 2.365365624427795410e-01 2.952322065830230713e-01
7.509429454803466797e-01 1.868183612823486328e-01 3.291945904493331909e-03
7.188493609428405762e-01 2.541039884090423584e-01 -2.039070427417755127e-01
4.275890886783599854e-01 2.450829744338989258e-01 -2.824519276618957520e-01
4.882890880107879639e-01 2.496246844530105591e-01 -3.671130239963531494e-01
3.491963446140289307e-01 2.163154482841491699e-01 3.274552524089813232e-03
5.490970015525817871e-01 1.933970749378204346e-01 4.326599240303039551e-01
8.504421710968017578e-01 2.015987485647201538e-01 -2.237094044685363770e-01
4.578182101249694824e-01 2.446290403604507446e-01 2.392190694808959961e-01
8.070356845855712891e-01 1.993024498224258423e-01 -3.814311027526855469e-01
7.944055199623107910e-01 1.954841911792755127e-01 3.824242651462554932e-01
6.299497485160827637e-01 1.846204847097396851e-01 -2.929892838001251221e-01
6.943407058715820312e-01 2.479280978441238403e-01 4.848036468029022217e-01
6.270462870597839355e-01 2.567662596702575684e-01 -1.654289960861206055e-01
7.102476358413696289e-01 2.552312612533569336e-01 -1.388330906629562378e-01
6.747799515724182129e-01 1.835585087537765503e-01 -9.607224166393280029e-02
4.165790081024169922e-01 2.446390092372894287e-01 -1.286205798387527466e-01
7.096921801567077637e-01 2.425049096345901489e-01 -5.909109711647033691e-01
4.020491242408752441e-01 2.044649273157119751e-01 -5.099227428436279297e-01
6.731908917427062988e-01 1.912933737039566040e-01 4.554280340671539307e-01
4.121562838554382324e-01 2.403361350297927856e-01 1.408390700817108154e-01
8.839261531829833984e-01 2.223378568887710571e-01 -2.655153274536132812e-01
7.017168998718261719e-01 2.398501336574554443e-01 -6.431461572647094727e-01
6.192148923873901367e-01 1.911137700080871582e-01 4.474621117115020752e-01
5.670893788337707520e-01 1.971885412931442261e-01 5.319083333015441895e-01
6.347810626029968262e-01 2.569949626922607422e-01 -1.295187473297119141e-01
5.352258682250976562e-01 2.422814816236495972e-01 4.980977475643157959e-01
7.048575282096862793e-01 2.314265668392181396e-01 -7.265167236328125000e-01
4.833259880542755127e-01 2.512443959712982178e-01 -2.301496565341949463e-01
8.515808582305908203e-01 2.422904819250106812e-01 2.104975581169128418e-01
5.788937807083129883e-01 2.472633272409439087e-01 -5.766438245773315430e-01
6.243701577186584473e-01 2.560804784297943115e-01 -2.341719418764114380e-01
6.458911895751953125e-01 2.043570131063461304e-01 6.769315600395202637e-01
6.185529828071594238e-01 2.501444220542907715e-01 4.231531322002410889e-01
5.345774292945861816e-01 1.850849986076354980e-01 4.505322501063346863e-02
5.024593472480773926e-01 2.023089975118637085e-01 5.079468488693237305e-01
8.116111755371093750e-01 1.933053582906723022e-01 2.012679874897003174e-01
3.576280176639556885e-01 2.078219652175903320e-01 -7.284174859523773193e-02
5.868400335311889648e-01 1.915206611156463623e-01 4.343543648719787598e-01
6.408975720405578613e-01 2.487817108631134033e-01 4.703883826732635498e-01
6.774012446403503418e-01 2.567493915557861328e-01 3.115457668900489807e-02
3.848320245742797852e-01 2.388398349285125732e-01 -7.855794578790664673e-02
7.586945295333862305e-01 2.485440671443939209e-01 3.842617273330688477e-01
3.766928017139434814e-01 2.034267038106918335e-01 -3.242982327938079834e-01
5.936319828033447266e-01 2.568866014480590820e-01 -6.702512502670288086e-03
7.150336503982543945e-01 2.556523680686950684e-01 -1.326295174658298492e-02
8.487448692321777344e-01 2.430807799100875854e-01 1.877203285694122314e-01
6.279814839363098145e-01 1.870113015174865723e-01 3.184842765331268311e-01
7.869732379913330078e-01 1.974087804555892944e-01 4.563146233558654785e-01
7.191486358642578125e-01 2.390195727348327637e-01 -6.299087405204772949e-01
4.682068526744842529e-01 2.494294494390487671e-01 7.117743790149688721e-02
5.499358773231506348e-01 2.465526312589645386e-01 4.364814162254333496e-01
4.018911123275756836e-01 2.346782982349395752e-01 2.245839536190032959e-01
5.327488183975219727e-01 2.383812963962554932e-01 5.528045296669006348e-01
8.739036321640014648e-01 2.250674515962600708e-01 -3.131883442401885986e-01
8.137944340705871582e-01 2.052362412214279175e-01 5.355145931243896484e-01
6.399071216583251953e-01 2.007090151309967041e-01 -7.132990360260009766e-01
7.355710864067077637e-01 1.858923584222793579e-01 2.261138334870338440e-02
4.486401677131652832e-01 2.486242055892944336e-01 -1.387733519077301025e-01
7.485323548316955566e-01 2.463281601667404175e-01 4.688699543476104736e-01
4.972842931747436523e-01 2.165060937404632568e-01 -7.987570166587829590e-01
7.740479111671447754e-01 2.476811707019805908e-01 -3.217347264289855957e-01
7.528625130653381348e-01 2.445886880159378052e-01 -4.689218997955322266e-01
5.537266731262207031e-01 2.520489990711212158e-01 -4.088648855686187744e-01
6.005719900131225586e-01 1.969818323850631714e-01 -6.748191714286804199e-01
7.753355503082275391e-01 2.458567917346954346e-01 -3.751488327980041504e-01
6.738977432250976562e-01 1.962690651416778564e-01 -6.174692511558532715e-01
7.452720403671264648e-01 1.883219182491302490e-01 -2.313059717416763306e-01
4.799404740333557129e-01 2.499551028013229370e-01 -3.131983280181884766e-01
7.258226871490478516e-01 1.869453638792037964e-01 -2.261965870857238770e-01
4.573706984519958496e-01 1.907283365726470947e-01 -2.927042543888092041e-01
6.567320823669433594e-01 2.544097304344177246e-01 -3.184895515441894531e-01
6.947777271270751953e-01 2.411572188138961792e-01 6.157987117767333984e-01
7.120392918586730957e-01 1.947197020053863525e-01 -5.335908532142639160e-01
5.179298520088195801e-01 2.484884113073348999e-01 3.175238668918609619e-01
7.554610967636108398e-01 1.901141256093978882e-01 3.001428246498107910e-01
7.451537251472473145e-01 2.529020011425018311e-01 2.119907736778259277e-01
6.629709005355834961e-01 2.360526919364929199e-01 6.827292442321777344e-01
3.992138504981994629e-01 2.390306442975997925e-01 9.360665082931518555e-02
5.710141658782958984e-01 1.904911845922470093e-01 -5.319100022315979004e-01
5.196666717529296875e-01 1.896347850561141968e-01 2.641556560993194580e-01
3.950738310813903809e-01 2.411131411790847778e-01 -1.420061737298965454e-01
5.151256918907165527e-01 2.506399154663085938e-01 2.293892800807952881e-01
4.270923137664794922e-01 1.954200267791748047e-01 -3.720046877861022949e-01
6.961860656738281250e-01 2.024641484022140503e-01 6.515753865242004395e-01
4.489166736602783203e-01 1.904396414756774902e-01 -1.262314170598983765e-01
7.574940919876098633e-01 2.501370608806610107e-01 3.256220519542694092e-01
8.325055241584777832e-01 2.039913684129714966e-01 -3.726779222488403320e-01
3.779462277889251709e-01 2.370271980762481689e-01 -2.374055534601211548e-01
5.702852010726928711e-01 2.374090701341629028e-01 6.151724457740783691e-01
6.875096559524536133e-01 2.563908100128173828e-01 6.761437654495239258e-02
5.668864250183105469e-01 1.841592788696289062e-01 7.905565202236175537e-02
3.540956974029541016e-01 2.248602509498596191e-01 -3.562426567077636719e-01
6.089034676551818848e-01 2.505888044834136963e-01 -4.911190271377563477e-01
6.477045416831970215e-01 2.554639875888824463e-01 2.132741808891296387e-01
6.619839668273925781e-01 2.551769316196441650e-01 2.276964783668518066e-01
6.443766355514526367e-01 2.559454739093780518e-01 -2.344493120908737183e-01
3.855140209197998047e-01 2.048005908727645874e-01 -4.340183436870574951e-01
7.668415904045104980e-01 2.062200307846069336e-01 6.340963840484619141e-01
6.391290426254272461e-01 2.061738967895507812e-01 -7.706990838050842285e-01
8.545690178871154785e-01 2.402078062295913696e-01 -1.651133894920349121e-01
5.531640052795410156e-01 2.516215145587921143e-01 2.894952297210693359e-01
5.269127488136291504e-01 2.428059279918670654e-01 4.739387333393096924e-01
5.284310579299926758e-01 1.854861676692962646e-01 -2.386888563632965088e-01
6.133518815040588379e-01 1.838341653347015381e-01 -2.424497902393341064e-01
7.059252262115478516e-01 2.516638040542602539e-01 3.600371479988098145e-01
7.551731467247009277e-01 1.895671784877777100e-01 2.741387784481048584e-01
5.725805163383483887e-01 1.924901902675628662e-01 -5.843612551689147949e-01
3.420222401618957520e-01 2.197918891906738281e-01 -1.396878957748413086e-01
6.018578410148620605e-01 2.443451285362243652e-01 -6.408748626708984375e-01
8.634483814239501953e-01 2.408553808927536011e-01 1.550349891185760498e-01
7.075904011726379395e-01 2.555378973484039307e-01 1.136109977960586548e-01
6.974611878395080566e-01 2.021771818399429321e-01 -6.766897439956665039e-01
5.808850526809692383e-01 1.874926984310150146e-01 -4.363076984882354736e-01
7.859635949134826660e-01 2.363850772380828857e-01 -5.294988155364990234e-01
5.456920862197875977e-01 1.873984932899475098e-01 2.350940704345703125e-01
5.232033729553222656e-01 2.026890665292739868e-01 5.501269102096557617e-01
6.893582940101623535e-01 2.541556954383850098e-01 2.646624445915222168e-01
8.608769178390502930e-01 2.417242377996444702e-01 9.886468946933746338e-02
5.697355270385742188e-01 2.516115307807922363e-01 3.211329877376556396e-01
7.830516695976257324e-01 2.432398200035095215e-01 -4.181165695190429688e-01
5.385223627090454102e-01 2.045870572328567505e-01 -7.610561847686767578e-01
3.966850638389587402e-01 2.046987414360046387e-01 2.008808553218841553e-01
3.898947238922119141e-01 2.024387866258621216e-01 -3.998697102069854736e-01
6.313488483428955078e-01 1.965327262878417969e-01 5.679311156272888184e-01
4.702185392379760742e-01 1.925448924303054810e-01 2.109177112579345703e-01
7.549619078636169434e-01 2.426077425479888916e-01 5.411522388458251953e-01
6.367122530937194824e-01 2.567509710788726807e-01 1.015049815177917480e-01
4.250355958938598633e-01 1.940748393535614014e-01 -2.789747118949890137e-01
5.583523511886596680e-01 1.959241926670074463e-01 -6.510004997253417969e-01
7.444459795951843262e-01 2.324421852827072144e-01 -6.593820452690124512e-01
6.676950454711914062e-01 1.946295499801635742e-01 5.351935029029846191e-01
7.898787856101989746e-01 1.952606290578842163e-01 -3.411341607570648193e-01
6.968070268630981445e-01 2.536396086215972900e-01 -2.937422990798950195e-01
5.313085317611694336e-01 2.503839731216430664e-01 -4.420992434024810791e-01
5.728284716606140137e-01 2.023298889398574829e-01 -7.487036585807800293e-01
4.805616140365600586e-01 2.060980945825576782e-01 5.056087374687194824e-01
8.174305558204650879e-01 2.162609696388244629e-01 6.187728047370910645e-01
5.329783558845520020e-01 2.374804168939590454e-01 -7.235769629478454590e-01
4.374190270900726318e-01 1.934926211833953857e-01 8.020812273025512695e-02
6.915131807327270508e-01 2.552807629108428955e-01 -2.017810344696044922e-01
8.124226927757263184e-01 2.485777586698532104e-01 -1.649856939911842346e-02
8.007360100746154785e-01 1.925419270992279053e-01 -1.714845299720764160e-01
6.852958798408508301e-01 2.503016293048858643e-01 -4.455924332141876221e-01
6.691829562187194824e-01 1.891838014125823975e-01 3.942072987556457520e-01
6.742675304412841797e-01 1.870491504669189453e-01 -3.652948737144470215e-01
6.995923519134521484e-01 1.994882524013519287e-01 6.097373962402343750e-01
5.900564789772033691e-01 1.833171248435974121e-01 -1.720133274793624878e-01
4.880987107753753662e-01 1.879324615001678467e-01 4.658712074160575867e-02
3.980700969696044922e-01 2.410679310560226440e-01 -2.453336119651794434e-01
3.764798045158386230e-01 2.371511608362197876e-01 -1.247260272502899170e-01
6.014139056205749512e-01 2.105387896299362183e-01 7.055205106735229492e-01
4.240294992923736572e-01 2.400961220264434814e-01 -4.688158631324768066e-01
4.295217692852020264e-01 2.414941340684890747e-01 2.043552845716476440e-01
4.681802392005920410e-01 2.338299602270126343e-01 4.740810096263885498e-01
5.081481933593750000e-01 2.430911809206008911e-01 -6.087112426757812500e-01
7.197593450546264648e-01 1.935078501701354980e-01 -4.913405179977416992e-01
5.173977613449096680e-01 1.873612552881240845e-01 1.515962034463882446e-01
4.792245626449584961e-01 2.494583576917648315e-01 1.381907016038894653e-01
7.367853522300720215e-01 2.429617047309875488e-01 -5.367665886878967285e-01
8.009621500968933105e-01 1.929995417594909668e-01 -1.965705007314682007e-01
3.807130753993988037e-01 2.018345445394515991e-01 -9.800460189580917358e-03
6.639627218246459961e-01 2.021501064300537109e-01 6.543869376182556152e-01
7.889337539672851562e-01 1.905520707368850708e-01 -1.173822134733200073e-01
6.189965605735778809e-01 2.009598910808563232e-01 -7.269088029861450195e-01
8.712363243103027344e-01 2.123020291328430176e-01 -3.000012934207916260e-01
3.747534155845642090e-01 2.366897165775299072e-01 -1.810772567987442017e-01
4.008515477180480957e-01 1.969212293624877930e-01 -2.080866694450378418e-01
4.548992812633514404e-01 1.940430253744125366e-01 2.009531706571578979e-01
5.207018852233886719e-01 1.852267384529113770e-01 -4.688925668597221375e-02
3.765186071395874023e-01 2.190731316804885864e-01 -5.283108949661254883e-01
3.731253445148468018e-01 2.348631024360656738e-01 -2.637654542922973633e-03
8.137266039848327637e-01 2.421601861715316772e-01 4.217386245727539062e-01
7.766868472099304199e-01 2.517729997634887695e-01 -6.163714081048965454e-02
5.013104081153869629e-01 2.472365945577621460e-01 3.108991384506225586e-01
5.359371900558471680e-01 1.854927539825439453e-01 9.173828363418579102e-02
7.842378616333007812e-01 2.078302949666976929e-01 -5.763123631477355957e-01
4.984906315803527832e-01 2.506465017795562744e-01 -3.505163490772247314e-01
4.845079183578491211e-01 2.394624203443527222e-01 4.397688806056976318e-01
8.339266777038574219e-01 2.347984760999679565e-01 -3.979460000991821289e-01
4.516356587409973145e-01 2.488842904567718506e-01 -1.587962210178375244e-01
9.017152786254882812e-01 2.298712283372879028e-01 1.399316042661666870e-01
8.813546895980834961e-01 2.089961469173431396e-01 -1.842200309038162231e-01
5.549123287200927734e-01 2.092067748308181763e-01 6.545469760894775391e-01
7.526401281356811523e-01 2.519934475421905518e-01 2.450179755687713623e-01
6.199066638946533203e-01 2.370507717132568359e-01 -7.431895136833190918e-01
6.920543313026428223e-01 2.474308907985687256e-01 -5.152866244316101074e-01
4.963578581809997559e-01 1.901918202638626099e-01 -4.242885410785675049e-01
5.689103603363037109e-01 1.850703954696655273e-01 -3.062076568603515625e-01
4.375303387641906738e-01 1.986920088529586792e-01 2.635478675365447998e-01
6.038753986358642578e-01 2.541688084602355957e-01 -3.518966138362884521e-01
5.449391603469848633e-01 2.480187118053436279e-01 3.907533288002014160e-01
8.377704620361328125e-01 2.442146241664886475e-01 -1.164206266403198242e-01
8.195495009422302246e-01 2.000669389963150024e-01 -3.480751216411590576e-01
8.746819496154785156e-01 2.034240961074829102e-01 -6.647314131259918213e-02
6.123743653297424316e-01 2.557929754257202148e-01 -2.558534145355224609e-01
4.366434514522552490e-01 2.078295797109603882e-01 4.062444865703582764e-01
6.494325399398803711e-01 1.943989694118499756e-01 -6.052044034004211426e-01
5.030893683433532715e-01 2.448753118515014648e-01 3.792201280593872070e-01
5.523317456245422363e-01 2.344025522470474243e-01 -7.681250572204589844e-01
5.563611388206481934e-01 2.548950314521789551e-01 -2.492778450250625610e-01
7.787261605262756348e-01 2.518685460090637207e-01 -7.898546755313873291e-04
8.238425254821777344e-01 2.423303425312042236e-01 3.801932930946350098e-01
8.408651351928710938e-01 1.981592923402786255e-01 -1.645020693540573120e-01
5.500914454460144043e-01 2.281730622053146362e-01 -8.130293488502502441e-01
8.688188791275024414e-01 2.326021790504455566e-01 3.937810659408569336e-01
8.083766698837280273e-01 1.922468692064285278e-01 -7.398436963558197021e-02
9.107302427291870117e-01 2.194369137287139893e-01 4.016257449984550476e-02
5.173012018203735352e-01 2.476606369018554688e-01 3.412104547023773193e-01
6.096121072769165039e-01 2.567287087440490723e-01 7.792469859123229980e-02
6.510141491889953613e-01 2.526174783706665039e-01 -4.038949608802795410e-01
6.862209439277648926e-01 2.360378205776214600e-01 -7.077354192733764648e-01
4.653553366661071777e-01 1.891728490591049194e-01 -2.941373735666275024e-02
8.282449245452880859e-01 1.942797005176544189e-01 7.397486269474029541e-02
6.152881979942321777e-01 2.511452138423919678e-01 -4.728294014930725098e-01
7.616440057754516602e-01 1.931650340557098389e-01 3.999174535274505615e-01
5.974069237709045410e-01 2.004358768463134766e-01 -7.258461117744445801e-01
8.745495080947875977e-01 2.136397659778594971e-01 4.226715266704559326e-01
7.068307995796203613e-01 2.541501820087432861e-01 2.377512753009796143e-01
7.818565368652343750e-01 2.144778966903686523e-01 -6.249364614486694336e-01
8.103426098823547363e-01 2.472570538520812988e-01 2.475782036781311035e-01
5.146725177764892578e-01 1.857320070266723633e-01 -1.875672340393066406e-01
5.265532732009887695e-01 1.996132135391235352e-01 5.138347744941711426e-01
3.673673868179321289e-01 2.289302498102188110e-01 -4.089786410331726074e-01
7.430442571640014648e-01 2.527956962585449219e-01 -1.983302980661392212e-01
7.763382196426391602e-01 1.889382153749465942e-01 -6.277395784854888916e-02
6.175118684768676758e-01 1.839405596256256104e-01 1.450905650854110718e-01
5.925850272178649902e-01 2.406338751316070557e-01 5.961921215057373047e-01
7.748469114303588867e-01 2.434620857238769531e-01 -4.372036159038543701e-01
5.330046415328979492e-01 2.530115842819213867e-01 1.682997643947601318e-01
7.326660156250000000e-01 2.525747418403625488e-01 -2.520995736122131348e-01
5.701100230216979980e-01 1.846715956926345825e-01 1.330608427524566650e-01
6.859980821609497070e-01 1.894011497497558594e-01 3.915652632713317871e-01
4.654555320739746094e-01 2.499864101409912109e-01 -1.051044091582298279e-02
4.524645209312438965e-01 1.914388239383697510e-01 -3.101548850536346436e-01
4.486427307128906250e-01 2.010751366615295410e-01 -5.986572504043579102e-01
5.239070653915405273e-01 1.883853673934936523e-01 2.244250774383544922e-01
4.845413565635681152e-01 1.962188482284545898e-01 -5.788729190826416016e-01
6.890817880630493164e-01 2.050126045942306519e-01 -7.173361778259277344e-01
6.415722370147705078e-01 2.572577893733978271e-01 -4.292095080018043518e-02
4.970389604568481445e-01 1.928365379571914673e-01 3.095894455909729004e-01
5.565082430839538574e-01 1.885019242763519287e-01 3.019499778747558594e-01
5.064330101013183594e-01 2.392382621765136719e-01 4.929547607898712158e-01
3.821451365947723389e-01 2.006224989891052246e-01 -2.287883460521697998e-01
6.026573181152343750e-01 2.568854689598083496e-01 -1.268201172351837158e-01
3.733400702476501465e-01 2.307582050561904907e-01 1.180103421211242676e-01
6.729747653007507324e-01 1.860168874263763428e-01 2.617134153842926025e-01
8.586968183517456055e-01 2.418733388185501099e-01 -1.525414362549781799e-02
8.959289789199829102e-01 2.101908028125762939e-01 -5.239225178956985474e-02
7.221050262451171875e-01 1.872154772281646729e-01 -2.572041153907775879e-01
8.603065609931945801e-01 2.007338255643844604e-01 -1.044343113899230957e-01
5.617697834968566895e-01 2.108846455812454224e-01 6.726052165031433105e-01
5.469836592674255371e-01 2.550135254859924316e-01 6.489387154579162598e-02
6.820398569107055664e-01 2.361606359481811523e-01 6.808383464813232422e-01
4.180375635623931885e-01 2.448113113641738892e-01 -9.862172603607177734e-02
6.392554640769958496e-01 2.070387750864028931e-01 6.996042132377624512e-01
7.558137178421020508e-01 1.913811415433883667e-01 3.523425161838531494e-01
4.741473793983459473e-01 2.497650533914566040e-01 -2.946060299873352051e-01
4.442264437675476074e-01 2.471988350152969360e-01 -2.724014818668365479e-01
6.445583105087280273e-01 1.919134259223937988e-01 4.751294553279876709e-01
6.918659210205078125e-01 2.337430268526077271e-01 7.011879086494445801e-01
6.190475821495056152e-01 2.441847324371337891e-01 5.589698553085327148e-01
6.839309930801391602e-01 2.414006441831588745e-01 -6.417731642723083496e-01
3.839412331581115723e-01 2.054456323385238647e-01 1.383800208568572998e-01
5.324221849441528320e-01 2.525389194488525391e-01 1.933919191360473633e-01
6.688953638076782227e-01 2.488763779401779175e-01 -5.063662528991699219e-01
7.819209694862365723e-01 2.516411542892456055e-01 3.600453212857246399e-02
5.667294859886169434e-01 2.557817399501800537e-01 -1.899923235177993774e-01
4.782444834709167480e-01 2.447490990161895752e-01 3.112926483154296875e-01
7.900727391242980957e-01 1.927525699138641357e-01 -2.473555654287338257e-01
6.037788987159729004e-01 2.299887239933013916e-01 7.071645855903625488e-01
4.371789097785949707e-01 2.337388545274734497e-01 -6.284318566322326660e-01
6.743978857994079590e-01 2.538829743862152100e-01 -3.223226666450500488e-01
6.712368130683898926e-01 1.898473054170608521e-01 -4.710112810134887695e-01
8.758239150047302246e-01 2.331017851829528809e-01 -2.070484161376953125e-01
8.639358282089233398e-01 2.026151567697525024e-01 -1.528530269861221313e-01
5.215147137641906738e-01 2.538273334503173828e-01 -2.117049992084503174e-01
5.739422440528869629e-01 2.556141018867492676e-01 1.111197620630264282e-01
8.260973691940307617e-01 2.052724957466125488e-01 -4.190360903739929199e-01
5.304628610610961914e-01 2.031452208757400513e-01 5.670641064643859863e-01
5.732895731925964355e-01 2.399232387542724609e-01 5.870162844657897949e-01
5.999721288681030273e-01 2.173389643430709839e-01 -8.378295898437500000e-01
5.826165080070495605e-01 1.852554827928543091e-01 1.959191113710403442e-01
5.072890520095825195e-01 1.925932019948959351e-01 3.295181989669799805e-01
6.708643436431884766e-01 1.844424009323120117e-01 1.613843739032745361e-01
8.224468231201171875e-01 2.472364306449890137e-01 -4.060448706150054932e-02
4.030166268348693848e-01 1.964083909988403320e-01 -1.131758242845535278e-01
5.488865375518798828e-01 2.069963067770004272e-01 6.306746602058410645e-01
6.157607436180114746e-01 1.862952709197998047e-01 2.826006710529327393e-01
4.243558347225189209e-01 2.453525066375732422e-01 -2.188552170991897583e-01
8.596314787864685059e-01 2.009961009025573730e-01 -1.254612058401107788e-01
5.274340510368347168e-01 2.348259836435317993e-01 5.849270820617675781e-01
7.348917722702026367e-01 2.447690814733505249e-01 5.232869386672973633e-01
4.817459285259246826e-01 2.447390854358673096e-01 -5.236807465553283691e-01
5.142104029655456543e-01 2.520911395549774170e-01 -3.214958906173706055e-01
7.066376209259033203e-01 1.897544860839843750e-01 3.834759294986724854e-01
7.015564441680908203e-01 2.282695025205612183e-01 -7.497990131378173828e-01
3.531228005886077881e-01 2.287609577178955078e-01 -6.807836145162582397e-02
4.454642534255981445e-01 1.911545842885971069e-01 -3.044988214969635010e-02
5.243276357650756836e-01 1.930733323097229004e-01 -5.639092922210693359e-01
3.467417359352111816e-01 2.256430238485336304e-01 -1.062505245208740234e-01
8.028932213783264160e-01 1.912427544593811035e-01 5.679627135396003723e-02
7.849348783493041992e-01 1.916922628879547119e-01 2.660661339759826660e-01
7.296461462974548340e-01 1.860635131597518921e-01 -1.298470497131347656e-01
7.595838308334350586e-01 2.036051452159881592e-01 -5.880391597747802734e-01
8.513152599334716797e-01 2.402109205722808838e-01 -1.899154186248779297e-01
5.047479271888732910e-01 2.362635731697082520e-01 5.289817452430725098e-01
5.752921104431152344e-01 1.832320094108581543e-01 -6.936121731996536255e-02
5.912060737609863281e-01 1.853061020374298096e-01 -3.387944996356964111e-01
5.496026277542114258e-01 1.882430911064147949e-01 2.791987657546997070e-01
7.243881225585937500e-01 2.003970444202423096e-01 6.067787408828735352e-01
3.819423317909240723e-01 2.347586303949356079e-01 9.317655861377716064e-02
4.096632599830627441e-01 2.389871180057525635e-01 1.675577759742736816e-01
6.937637329101562500e-01 1.858018636703491211e-01 2.209239900112152100e-01
5.008134841918945312e-01 2.486417740583419800e-01 2.625701427459716797e-01
8.567575216293334961e-01 1.988287866115570068e-01 1.082913726568222046e-01
5.335059165954589844e-01 2.298827469348907471e-01 -7.950841784477233887e-01
6.146397590637207031e-01 1.928530633449554443e-01 -5.921291112899780273e-01
6.796271800994873047e-01 1.951766759157180786e-01 -5.904305577278137207e-01
7.077932357788085938e-01 2.064834535121917725e-01 -7.073458433151245117e-01
6.612488031387329102e-01 1.874002665281295776e-01 3.326270282268524170e-01
7.504181861877441406e-01 2.531040310859680176e-01 -1.346592456102371216e-01
7.148768305778503418e-01 2.550753653049468994e-01 1.393093764781951904e-01
8.651095628738403320e-01 2.328622937202453613e-01 -2.802779972553253174e-01
6.231727004051208496e-01 2.553539872169494629e-01 2.124617695808410645e-01
6.916380524635314941e-01 1.870172023773193359e-01 -3.310568630695343018e-01
5.304102301597595215e-01 1.848611533641815186e-01 -1.846620440483093262e-02
4.521106183528900146e-01 2.448753416538238525e-01 2.054800689220428467e-01
6.143967509269714355e-01 2.432425022125244141e-01 -6.586437225341796875e-01
6.654181480407714844e-01 2.454533427953720093e-01 5.479636788368225098e-01
6.670999526977539062e-01 2.563948631286621094e-01 1.233849972486495972e-01
8.655591011047363281e-01 2.139688283205032349e-01 4.657142460346221924e-01
6.786422729492187500e-01 1.873240172863006592e-01 3.188403844833374023e-01
6.409415602684020996e-01 2.533881068229675293e-01 3.206306993961334229e-01
8.843026161193847656e-01 2.082184404134750366e-01 2.746817469596862793e-01
7.632092237472534180e-01 1.886882632970809937e-01 1.822869628667831421e-01
6.616511940956115723e-01 2.360736429691314697e-01 -7.301608920097351074e-01
6.614187955856323242e-01 2.558742165565490723e-01 -2.191834151744842529e-01
7.582162618637084961e-01 2.533814907073974609e-01 2.120848745107650757e-03
8.662478923797607422e-01 2.361196875572204590e-01 3.368765115737915039e-01
4.081618785858154297e-01 2.432737946510314941e-01 -1.753898561000823975e-01
5.529146790504455566e-01 2.541458308696746826e-01 -2.974869906902313232e-01
4.097723960876464844e-01 2.004583179950714111e-01 1.759422123432159424e-01
3.693640530109405518e-01 2.207252681255340576e-01 -4.909835159778594971e-01
4.936601221561431885e-01 1.881824731826782227e-01 9.976446628570556641e-02
8.603444695472717285e-01 2.400188446044921875e-01 -1.214286983013153076e-01
6.118340492248535156e-01 1.890798807144165039e-01 3.849049508571624756e-01
6.079638004302978516e-01 1.842738687992095947e-01 1.636846959590911865e-01
5.280042290687561035e-01 1.852631121873855591e-01 -2.108661979436874390e-01
7.169404625892639160e-01 1.877865046262741089e-01 -3.042827546596527100e-01
7.603449821472167969e-01 1.902821660041809082e-01 -2.713362574577331543e-01
6.659125089645385742e-01 1.851080507040023804e-01 2.157276570796966553e-01
4.969147443771362305e-01 1.866781711578369141e-01 -1.756755858659744263e-01
5.671702623367309570e-01 2.562242150306701660e-01 -1.009303703904151917e-02
3.732449710369110107e-01 2.025168985128402710e-01 -2.054775506258010864e-01
6.794613003730773926e-01 1.926796287298202515e-01 4.883668720722198486e-01
8.004764318466186523e-01 2.040175944566726685e-01 5.492492318153381348e-01
7.279263138771057129e-01 2.436057776212692261e-01 5.537548661231994629e-01
7.091047763824462891e-01 2.511310279369354248e-01 -3.773510158061981201e-01
7.185857892036437988e-01 1.892791390419006348e-01 -3.646624386310577393e-01
4.327394366264343262e-01 1.931757777929306030e-01 2.013400197029113770e-02
5.674602985382080078e-01 2.554370462894439697e-01 -2.294375300407409668e-01
5.293587446212768555e-01 1.862944960594177246e-01 1.277006864547729492e-01
6.907198429107666016e-01 2.421902120113372803e-01 -6.214900612831115723e-01
3.666354417800903320e-01 2.326434701681137085e-01 -3.090479075908660889e-01
6.287992596626281738e-01 1.952707618474960327e-01 5.441072583198547363e-01
4.363931417465209961e-01 1.939984411001205444e-01 9.983876347541809082e-02
9.029437303543090820e-01 2.124113887548446655e-01 1.471408307552337646e-01
5.230053663253784180e-01 2.531273066997528076e-01 -2.825635671615600586e-01
8.261302709579467773e-01 1.990971118211746216e-01 3.735920488834381104e-01
6.464434862136840820e-01 2.424587011337280273e-01 5.989997982978820801e-01
7.356812953948974609e-01 2.546978294849395752e-01 -1.012790575623512268e-02
7.065280675888061523e-01 2.442670911550521851e-01 -5.634206533432006836e-01
7.024168968200683594e-01 2.461565732955932617e-01 5.216168761253356934e-01
4.255694150924682617e-01 1.947199702262878418e-01 5.825767293572425842e-02
6.953524351119995117e-01 1.886778622865676880e-01 3.573563098907470703e-01
8.197773694992065430e-01 2.478478252887725830e-01 1.775662600994110107e-02
7.654204368591308594e-01 1.903093457221984863e-01 -2.503221333026885986e-01
6.334508657455444336e-01 2.562437057495117188e-01 -2.175031900405883789e-01
5.947024822235107422e-01 1.840710043907165527e-01 1.324841976165771484e-01
7.425162196159362793e-01 2.533202767372131348e-01 -1.611364185810089111e-01
5.848505496978759766e-01 1.837633848190307617e-01 8.595196902751922607e-02
7.416566014289855957e-01 2.237351834774017334e-01 -7.094677686691284180e-01
4.205956459045410156e-01 1.979182362556457520e-01 1.612912416458129883e-01
8.782152533531188965e-01 2.033125311136245728e-01 9.955856204032897949e-02
5.527928471565246582e-01 1.914633065462112427e-01 -5.485719442367553711e-01
5.498154759407043457e-01 2.556326389312744141e-01 -1.154084056615829468e-01
5.574451684951782227e-01 2.548428177833557129e-01 1.251603215932846069e-01
8.784465789794921875e-01 2.378293722867965698e-01 1.371529325842857361e-02
4.902508556842803955e-01 2.057425677776336670e-01 5.229117870330810547e-01
7.669423818588256836e-01 2.013611048460006714e-01 5.714665651321411133e-01
6.166617870330810547e-01 2.565617561340332031e-01 -1.882380545139312744e-01
8.153859972953796387e-01 2.455908358097076416e-01 3.026701211929321289e-01
8.952494263648986816e-01 2.330134510993957520e-01 6.012910231947898865e-02
6.355640888214111328e-01 2.039625793695449829e-01 -7.525677680969238281e-01
4.483866989612579346e-01 1.907209903001785278e-01 -2.017882317304611206e-01
7.733731269836425781e-01 2.362921833992004395e-01 -5.615790486335754395e-01
8.448621034622192383e-01 2.405617088079452515e-01 -2.218987494707107544e-01
5.999298691749572754e-01 2.517327070236206055e-01 3.572999536991119385e-01
4.092957675457000732e-01 2.341267019510269165e-01 2.705030441284179688e-01
6.144952774047851562e-01 2.096737325191497803e-01 -8.067769408226013184e-01
5.394302606582641602e-01 2.542989552021026611e-01 -2.477240115404129028e-01
5.327061414718627930e-01 1.875617504119873047e-01 -3.882910609245300293e-01
5.869810581207275391e-01 1.903505772352218628e-01 4.028150439262390137e-01
5.697361826896667480e-01 2.458471059799194336e-01 -6.053341031074523926e-01
4.377079010009765625e-01 2.344046533107757568e-01 3.779492974281311035e-01
4.353817403316497803e-01 2.356960773468017578e-01 3.516435027122497559e-01
4.416912794113159180e-01 2.394609451293945312e-01 3.079499006271362305e-01
5.453152060508728027e-01 1.841806918382644653e-01 -3.165496513247489929e-02
8.125765919685363770e-01 1.967450082302093506e-01 -2.879470586776733398e-01
5.191465616226196289e-01 2.499074786901473999e-01 2.715168893337249756e-01
5.694282650947570801e-01 2.282253056764602661e-01 -8.179045915603637695e-01
5.356040596961975098e-01 2.501603662967681885e-01 3.050267696380615234e-01
7.388033270835876465e-01 1.892406642436981201e-01 3.061718344688415527e-01
7.748535275459289551e-01 1.885929703712463379e-01 5.747336894273757935e-03
4.568743109703063965e-01 2.028286904096603394e-01 4.059981703758239746e-01
7.843106985092163086e-01 1.987239867448806763e-01 -4.469199180603027344e-01
6.287333965301513672e-01 1.866705715656280518e-01 -3.991553783416748047e-01
3.645426034927368164e-01 2.261833995580673218e-01 -4.274994730949401855e-01
8.506016731262207031e-01 2.181595116853713989e-01 5.392017364501953125e-01
4.458205103874206543e-01 1.909551471471786499e-01 -5.512208864092826843e-02
5.361016392707824707e-01 2.415152192115783691e-01 -6.673334240913391113e-01
5.227292180061340332e-01 2.542517483234405518e-01 -3.787893801927566528e-03
8.631014227867126465e-01 2.169967293739318848e-01 4.926439225673675537e-01
8.638967275619506836e-01 2.029072642326354980e-01 2.797829806804656982e-01
7.231767773628234863e-01 1.905283182859420776e-01 3.873871564865112305e-01
6.912087202072143555e-01 1.839217543601989746e-01 9.226560592651367188e-03
6.044486761093139648e-01 2.569876909255981445e-01 1.824761182069778442e-02
7.449783682823181152e-01 2.400463670492172241e-01 -5.704007148742675781e-01
6.353358626365661621e-01 2.477970719337463379e-01 4.926896393299102783e-01
8.500921726226806641e-01 2.017012983560562134e-01 3.325281739234924316e-01
6.908359527587890625e-01 2.552223801612854004e-01 1.930224597454071045e-01
5.644355416297912598e-01 2.488472312688827515e-01 -5.285845994949340820e-01
7.103207707405090332e-01 2.441944181919097900e-01 5.566915869712829590e-01
3.976196944713592529e-01 2.414942532777786255e-01 -9.686204791069030762e-02
6.318798065185546875e-01 1.994037628173828125e-01 6.133961081504821777e-01
7.440297603607177734e-01 2.342575639486312866e-01 6.669959425926208496e-01
7.266422510147094727e-01 1.995421051979064941e-01 -5.964961051940917969e-01
8.259855508804321289e-01 1.971415281295776367e-01 -2.277888506650924683e-01
4.837965369224548340e-01 1.899657547473907471e-01 -3.761221766471862793e-01
7.522254586219787598e-01 1.872045993804931641e-01 -8.835598826408386230e-02
7.211773395538330078e-01 1.991556137800216675e-01 5.902872085571289062e-01
8.259322643280029297e-01 2.415056824684143066e-01 -2.979338765144348145e-01
5.819702744483947754e-01 1.883659213781356812e-01 -4.690633714199066162e-01
6.593425273895263672e-01 2.391215115785598755e-01 -6.967172622680664062e-01
8.946985006332397461e-01 2.203409373760223389e-01 3.398686647415161133e-01
5.166273713111877441e-01 1.855220198631286621e-01 -1.665661334991455078e-01
4.845765233039855957e-01 1.987931728363037109e-01 -6.299548149108886719e-01
5.014678835868835449e-01 1.916797161102294922e-01 -4.896577894687652588e-01
6.228820681571960449e-01 1.967689841985702515e-01 -6.647428870201110840e-01
5.260908603668212891e-01 2.528957724571228027e-01 -3.090610504150390625e-01
7.390741109848022461e-01 1.965097784996032715e-01 -5.185791850090026855e-01
6.257919073104858398e-01 2.572469413280487061e-01 -6.607989221811294556e-02
6.476702094078063965e-01 1.901258528232574463e-01 -5.043889284133911133e-01
7.972534298896789551e-01 2.491789162158966064e-01 2.074642628431320190e-01
3.636970221996307373e-01 2.335325777530670166e-01 -1.935811936855316162e-01
8.123880028724670410e-01 1.976996362209320068e-01 3.872848153114318848e-01
5.097776651382446289e-01 2.526733875274658203e-01 -2.621427178382873535e-01
8.132708072662353516e-01 2.335605323314666748e-01 -4.860468506813049316e-01
6.932719945907592773e-01 1.857440620660781860e-01 -2.569812238216400146e-01
7.599335312843322754e-01 2.516350448131561279e-01 -1.958956569433212280e-01
7.946100234985351562e-01 1.974362134933471680e-01 4.369787871837615967e-01
6.911943554878234863e-01 2.384470850229263306e-01 6.534596681594848633e-01
4.924795031547546387e-01 2.521085739135742188e-01 -2.069902867078781128e-01
4.801357686519622803e-01 2.512600421905517578e-01 -2.295281738042831421e-03
4.000673890113830566e-01 2.403262257575988770e-01 -3.180325627326965332e-01
6.987105607986450195e-01 1.931156218051910400e-01 4.879274070262908936e-01
7.514268755912780762e-01 1.880922913551330566e-01 -1.850729584693908691e-01
8.241276741027832031e-01 2.095576673746109009e-01 -4.767420291900634766e-01
4.854243397712707520e-01 1.878479719161987305e-01 1.713598147034645081e-02
4.660781025886535645e-01 1.897513568401336670e-01 4.128971323370933533e-02
7.802339792251586914e-01 2.511261999607086182e-01 -1.044785976409912109e-01
8.364236354827880859e-01 1.953825950622558594e-01 5.873852595686912537e-02
6.230344176292419434e-01 2.521851360797882080e-01 3.600551187992095947e-01
5.199443697929382324e-01 2.402012944221496582e-01 5.048729181289672852e-01
5.411252975463867188e-01 2.551851272583007812e-01 -2.601228654384613037e-03
5.153898000717163086e-01 2.472463846206665039e-01 -5.191333889961242676e-01
7.731010913848876953e-01 2.508648633956909180e-01 -1.759643107652664185e-01
3.814762234687805176e-01 2.168501168489456177e-01 2.487924695014953613e-01
7.251138091087341309e-01 1.856303215026855469e-01 9.412290155887603760e-02
7.937793135643005371e-01 2.450210452079772949e-01 4.054538905620574951e-01
6.230311393737792969e-01 2.490287870168685913e-01 -5.330463051795959473e-01
8.426479697227478027e-01 2.345756292343139648e-01 4.741756618022918701e-01
4.905685186386108398e-01 2.524008452892303467e-01 -9.952493757009506226e-02
3.881212174892425537e-01 1.990391016006469727e-01 -1.537300646305084229e-01
3.896757662296295166e-01 2.241153568029403687e-01 -5.705613493919372559e-01
6.907391548156738281e-01 2.559455931186676025e-01 1.243153959512710571e-01
4.609133005142211914e-01 2.418866157531738281e-01 3.246017098426818848e-01
5.701601505279541016e-01 2.502504587173461914e-01 -4.903180599212646484e-01
8.496218919754028320e-01 1.974753737449645996e-01 8.073988556861877441e-02
7.647833824157714844e-01 1.897097975015640259e-01 2.453812360763549805e-01
6.206479072570800781e-01 1.847815960645675659e-01 -3.082972168922424316e-01
8.220607042312622070e-01 2.470356523990631104e-01 1.653502732515335083e-01
7.000219821929931641e-01 1.845737397670745850e-01 -1.255095452070236206e-01
4.475132226943969727e-01 1.951352357864379883e-01 -4.546566307544708252e-01
4.910467267036437988e-01 1.914249658584594727e-01 -4.582723975181579590e-01
8.019813299179077148e-01 2.456711828708648682e-01 -2.795978784561157227e-01
5.624001026153564453e-01 2.561481595039367676e-01 -7.608285546302795410e-02
5.259140729904174805e-01 1.872033923864364624e-01 -3.557133674621582031e-01
8.812707662582397461e-01 2.044516354799270630e-01 1.457345187664031982e-01
5.626120567321777344e-01 2.561244964599609375e-01 -9.726755321025848389e-02
4.551982581615447998e-01 2.047254443168640137e-01 -6.654965877532958984e-01
7.961139678955078125e-01 2.485785782337188721e-01 -1.801188290119171143e-01
4.839484095573425293e-01 1.873990297317504883e-01 -1.128207743167877197e-01
8.577634096145629883e-01 2.114656865596771240e-01 -3.610318601131439209e-01
