-7.896050810813903809e-02 -1.748206838965415955e-02 1.825927197933197021e-01
-2.599569782614707947e-02 1.609198562800884247e-02 6.420460343360900879e-01
-4.664449021220207214e-02 1.886171847581863403e-02 8.246324062347412109e-01
-7.877286523580551147e-03 1.147131994366645813e-02 5.722124576568603516e-01
-5.239903181791305542e-02 -1.676914095878601074e-02 5.042142868041992188e-01
-5.932533740997314453e-02 -1.542322337627410889e-02 -2.980822324752807617e-02
-8.521516621112823486e-02 1.240747049450874329e-03 9.317176342010498047e-01
-5.811944231390953064e-02 2.082611992955207825e-02 8.153775930404663086e-01
-5.989777296781539917e-02 -1.762390322983264923e-02 2.735334634780883789e-02
-2.853177487850189209e-03 3.474249970167875290e-03 2.095635533332824707e-01
-2.358043193817138672e-02 7.392753846943378448e-03 1.880804896354675293e-01
-8.992472290992736816e-02 2.204472385346889496e-02 5.393319725990295410e-01
-1.057781800627708435e-01 4.259238950908184052e-03 8.327808976173400879e-02
-1.446340978145599365e-02 -2.015491388738155365e-02 1.519551277160644531e-01
-5.446765944361686707e-02 1.791650988161563873e-02 4.248870909214019775e-01
-1.437316238880157471e-01 -6.947347428649663925e-04 4.608555138111114502e-01
-4.329986870288848877e-02 1.025361195206642151e-02 1.891681253910064697e-01
-8.206555247306823730e-02 1.846949197351932526e-02 3.740230798721313477e-01
-9.215062856674194336e-02 -1.208759285509586334e-02 5.656670331954956055e-01
-9.982572495937347412e-02 -1.226720958948135376e-02 1.088310182094573975e-01
-1.171523928642272949e-01 4.964106716215610504e-03 9.054928421974182129e-01
-8.640049397945404053e-02 -2.081068931147456169e-03 8.736043572425842285e-01
-1.125514805316925049e-01 8.646540343761444092e-03 1.621569395065307617e-01
-9.480789303779602051e-02 1.400822657160460949e-03 2.612602710723876953e-02
-1.513947173953056335e-02 1.316089369356632233e-02 5.285859704017639160e-01
-1.136942803859710693e-01 -9.798260405659675598e-03 4.931713342666625977e-01
1.266738772392272949e-02 -1.235053874552249908e-03 2.396672517061233521e-01
-2.635045722126960754e-02 8.534191176295280457e-03 2.068934738636016846e-01
1.352021098136901855e-02 8.126804023049771786e-04 3.189602494239807129e-01
-8.570434153079986572e-02 -6.673517171293497086e-03 7.729250788688659668e-01
-1.490962207317352295e-01 1.655846834182739258e-02 6.931068301200866699e-01
-9.332275390625000000e-02 1.177254691720008850e-02 1.810266971588134766e-01
-1.233545839786529541e-01 2.245420962572097778e-02 6.543952822685241699e-01
-1.017383038997650146e-01 -1.360517181456089020e-02 3.585140705108642578e-01
-1.076672896742820740e-01 2.214809320867061615e-02 9.053156375885009766e-01
1.486977934837341309e-02 2.004748210310935974e-03 4.390472173690795898e-01
-4.072715342044830322e-02 1.840909756720066071e-02 5.751869082450866699e-01
-3.419216349720954895e-02 5.491790361702442169e-03 1.010723114013671875e-01
-2.703978493809700012e-02 1.527475751936435699e-02 4.941675066947937012e-01
-7.104992121458053589e-02 -1.155519485473632812e-02 6.674847602844238281e-01
-9.741923958063125610e-02 -1.082203350961208344e-02 5.350381135940551758e-02
-1.615810021758079529e-02 -1.929503306746482849e-02 6.953957676887512207e-02
-1.072777062654495239e-02 -6.379759404808282852e-03 7.348594665527343750e-01
1.491725444793701172e-03 -1.112000085413455963e-02 3.192698955535888672e-02
-1.639396324753761292e-02 -1.212045922875404358e-02 6.349445581436157227e-01
-8.071578294038772583e-02 2.318259701132774353e-02 6.787216067314147949e-01
-7.179063558578491211e-02 1.922342553734779358e-02 4.237469434738159180e-01
-9.854201227426528931e-02 8.440259844064712524e-03 1.240839362144470215e-01
-1.112528741359710693e-01 -1.135817542672157288e-02 4.051591157913208008e-01
-2.781591936945915222e-02 8.564320392906665802e-03 9.050898551940917969e-01
-1.328823268413543701e-01 1.051414990797638893e-03 7.380450367927551270e-01
1.731454581022262573e-02 3.475949633866548538e-04 4.724305272102355957e-01
-1.369922161102294922e-01 -2.681790385395288467e-03 5.461100935935974121e-01
-1.476185917854309082e-01 1.728161424398422241e-02 6.405993103981018066e-01
-7.200781255960464478e-03 -1.850533299148082733e-02 8.341309428215026855e-02
-1.183457821607589722e-01 -1.962083624675869942e-03 1.041243076324462891e-01
-1.209646910429000854e-01 1.294571533799171448e-02 2.708027958869934082e-01
-1.197284236550331116e-01 -9.548509493470191956e-03 3.058085441589355469e-01
-3.727135062217712402e-02 -1.667971536517143250e-02 5.194016098976135254e-01
1.552423834800720215e-02 -1.237898878753185272e-02 4.143260717391967773e-01
-1.168952286243438721e-01 -9.258200880140066147e-04 7.956390380859375000e-01
-1.240359991788864136e-01 9.791124612092971802e-03 2.239484637975692749e-01
6.142087280750274658e-03 4.986101761460304260e-03 3.699922859668731689e-01
-1.468895375728607178e-01 1.253939233720302582e-02 7.930229902267456055e-01
-5.879509821534156799e-02 -4.861598368734121323e-03 8.475522398948669434e-01
-9.094870090484619141e-02 2.015927247703075409e-02 9.670787453651428223e-01
1.981944590806961060e-02 -9.290060028433799744e-03 2.250247597694396973e-01
1.355282217264175415e-02 -1.492950133979320526e-02 3.149950504302978516e-01
-5.391748249530792236e-02 -1.837171148508787155e-04 -2.466899156570434570e-02
-3.161980956792831421e-02 -1.802027598023414612e-02 4.555165171623229980e-01
-1.460963934659957886e-01 1.430473849177360535e-02 4.709177911281585693e-01
-5.840856581926345825e-02 -1.707631163299083710e-03 9.013437032699584961e-01
-3.536698967218399048e-02 1.487997174263000488e-02 8.737724423408508301e-01
-2.221081405878067017e-02 -2.591044642031192780e-03 8.294826745986938477e-01
-1.142811775207519531e-02 -1.988105475902557373e-02 2.516001164913177490e-01
-2.332649752497673035e-02 1.415211893618106842e-02 4.628685712814331055e-01
-9.851370751857757568e-02 3.997138701379299164e-03 6.109777092933654785e-02
-1.436676457524299622e-02 1.183426380157470703e-02 4.327018857002258301e-01
-6.253911554813385010e-02 -1.372557505965232849e-02 6.106785535812377930e-01
-1.160315051674842834e-01 -8.421873673796653748e-03 5.453941822052001953e-01
-1.390561163425445557e-01 1.677822438068687916e-03 2.657227516174316406e-01
-2.740226313471794128e-02 1.628614217042922974e-02 6.939713954925537109e-01
-5.946365743875503540e-02 -3.486886154860258102e-03 -5.715072154998779297e-02
-2.555280551314353943e-02 1.168680749833583832e-02 3.180922269821166992e-01
-1.083910390734672546e-01 1.496877521276473999e-02 1.000077247619628906e+00
-7.753714919090270996e-02 -1.758971810340881348e-02 1.673471331596374512e-01
-8.858275413513183594e-02 -1.618988998234272003e-02 2.295193374156951904e-01
-2.177035063505172729e-02 8.429875597357749939e-03 2.277978807687759399e-01
-6.599610298871994019e-02 1.698910258710384369e-02 3.440485596656799316e-01
-8.541360497474670410e-02 -9.788483381271362305e-03 6.837712526321411133e-01
-9.759248793125152588e-02 -1.157147251069545746e-02 7.026776671409606934e-02
-1.269166469573974609e-01 -5.945014301687479019e-03 5.370657444000244141e-01
-2.635762095451354980e-03 9.411340579390525818e-03 4.820429384708404541e-01
-1.042369902133941650e-01 6.604415830224752426e-03 9.660081863403320312e-01
-3.530560433864593506e-02 -8.712867274880409241e-03 7.554565668106079102e-01
-9.670423716306686401e-02 3.095236606895923615e-03 9.390003681182861328e-01
7.419370114803314209e-03 -1.626577042043209076e-02 3.448868393898010254e-01
-1.108804345130920410e-01 1.901929825544357300e-02 4.130266308784484863e-01
-2.214191108942031860e-02 1.480318792164325714e-02 5.390383005142211914e-01
-1.410751044750213623e-01 1.394940540194511414e-02 8.541566133499145508e-01
-5.656492337584495544e-02 7.289510685950517654e-03 9.891982674598693848e-01
-1.358328461647033691e-01 1.909619942307472229e-02 5.404241681098937988e-01
-7.568791508674621582e-02 2.735592424869537354e-03 1.209932565689086914e-02
-1.230636984109878540e-01 -8.362352848052978516e-03 4.250193536281585693e-01
-2.290586009621620178e-02 -2.058541402220726013e-02 2.385985404253005981e-01
-7.149040699005126953e-02 -1.366050355136394501e-02 -2.389141917228698730e-02
-8.702573180198669434e-02 1.463889889419078827e-02 2.475322186946868896e-01
-1.009768247604370117e-01 -1.400581002235412598e-02 2.738585472106933594e-01
-6.668550521135330200e-02 -7.556402590125799179e-03 7.857131958007812500e-01
-5.180556699633598328e-02 -1.840838976204395294e-02 4.169850051403045654e-01
-1.144724711775779724e-01 -1.036201044917106628e-02 2.217124700546264648e-01
-5.345183610916137695e-02 3.040641080588102341e-03 1.940917968750000000e-02
-1.119025498628616333e-01 2.317542210221290588e-02 6.469343900680541992e-01
-1.516579240560531616e-01 5.162413232028484344e-03 5.670936107635498047e-01
-1.457192301750183105e-01 5.133281461894512177e-03 7.052066326141357422e-01
-3.547530621290206909e-02 -1.350832171738147736e-02 6.317373514175415039e-01
-2.076043561100959778e-02 5.658571608364582062e-04 5.089014768600463867e-02
-9.844183921813964844e-02 -1.445711590349674225e-02 3.065424561500549316e-01
6.009273231029510498e-03 -1.277321949601173401e-02 5.063886046409606934e-01
-2.423919737339019775e-02 -4.118399228900671005e-03 8.152588605880737305e-01
-1.053206175565719604e-01 1.120165362954139709e-02 1.885288655757904053e-01
-2.895402163267135620e-02 -1.283321715891361237e-02 6.438809037208557129e-01
-1.182915270328521729e-02 -2.729343716055154800e-03 7.886810302734375000e-01
-8.592963218688964844e-02 9.007411077618598938e-03 1.178315579891204834e-01
-1.413858085870742798e-01 1.907572336494922638e-02 6.139554381370544434e-01
-1.001234650611877441e-01 -1.275405474007129669e-02 4.646372795104980469e-01
-1.836445182561874390e-02 9.028575383126735687e-03 2.685515880584716797e-01
-1.035120040178298950e-01 1.479500345885753632e-02 2.673826515674591064e-01
-1.152683570981025696e-01 1.452610455453395844e-02 2.880885601043701172e-01
-1.197590529918670654e-01 1.953199319541454315e-02 4.603984355926513672e-01
-4.986483976244926453e-02 -1.222619600594043732e-02 6.738395690917968750e-01
-4.552666097879409790e-02 -1.580082252621650696e-02 5.537217259407043457e-01
-5.300988256931304932e-02 -1.624666526913642883e-02 5.269740819931030273e-01
-5.616780743002891541e-02 2.070959098637104034e-02 6.107770204544067383e-01
-8.728610724210739136e-02 -1.492718607187271118e-02 9.410801529884338379e-02
-1.127275824546813965e-01 -1.140503957867622375e-02 3.363268971443176270e-01
-4.169311374425888062e-02 5.497716367244720459e-03 8.152899146080017090e-02
-9.121454507112503052e-02 1.590042747557163239e-02 2.849584817886352539e-01
-1.216481477022171021e-01 2.198759466409683228e-02 5.986695885658264160e-01
-4.823777452111244202e-02 1.560532115399837494e-02 3.493616580963134766e-01
-9.866479784250259399e-03 1.025820896029472351e-02 4.012213349342346191e-01
-9.066718071699142456e-02 -1.586899533867835999e-02 2.430849373340606689e-01
2.195308357477188110e-02 -7.278276141732931137e-03 2.974828481674194336e-01
-2.410846576094627380e-02 -1.971369981765747070e-02 3.422119617462158203e-01
-8.961296826601028442e-02 -1.591974683105945587e-02 2.045229673385620117e-01
-1.716168969869613647e-02 -1.407805643975734711e-02 -3.646975755691528320e-02
-6.831976771354675293e-02 -1.194495148956775665e-02 -5.211174488067626953e-02
-1.543188691139221191e-01 9.461818262934684753e-03 5.795197486877441406e-01
-6.005716696381568909e-02 -1.741863787174224854e-02 4.507991075515747070e-01
-1.124982237815856934e-01 6.036016624420881271e-03 9.365708231925964355e-01
-2.286037057638168335e-02 -1.009049266576766968e-02 7.018906474113464355e-01
-2.037498727440834045e-02 7.299152668565511703e-03 8.710873723030090332e-01
-1.017911732196807861e-02 1.040414720773696899e-02 7.422461509704589844e-01
-5.242900177836418152e-02 -8.887171745300292969e-03 7.621829509735107422e-01
-4.736437276005744934e-02 -3.393612802028656006e-03 -5.333036184310913086e-02
-5.459637567400932312e-02 -2.002765052020549774e-02 1.826232075691223145e-01
-1.341208368539810181e-01 -4.943984095007181168e-03 4.171990454196929932e-01
-4.992088302969932556e-02 -2.028501778841018677e-02 1.677454113960266113e-01
-1.031133830547332764e-01 2.139239758253097534e-02 5.028915405273437500e-01
-7.862935215234756470e-02 -1.281273737549781799e-02 -1.062086224555969238e-02
-1.125542894005775452e-01 2.291332371532917023e-02 6.240962147712707520e-01
-8.832084387540817261e-02 -4.820394795387983322e-03 8.116121292114257812e-01
-2.263813093304634094e-02 -1.384995132684707642e-02 -5.049365758895874023e-02
-3.464449569582939148e-02 -1.689174911007285118e-03 8.734502792358398438e-01
-1.432338804006576538e-01 1.587576419115066528e-02 4.854920208454132080e-01
-1.020586341619491577e-01 -6.473580840975046158e-03 7.199348211288452148e-01
-1.203815639019012451e-01 1.650280877947807312e-02 3.584052622318267822e-01
-5.799142271280288696e-02 2.132900804281234741e-02 6.936770677566528320e-01
-5.427674949169158936e-02 -1.473740674555301666e-02 -4.997646808624267578e-02
-1.079065352678298950e-01 1.343912445008754730e-03 8.806642293930053711e-01
-1.057291775941848755e-01 -4.578466061502695084e-03 7.573165893554687500e-01
-4.469466954469680786e-02 1.559415087103843689e-02 3.658815324306488037e-01
-7.991462945938110352e-03 1.120910607278347015e-02 6.548174619674682617e-01
-1.178745329380035400e-01 2.018402889370918274e-02 9.312822222709655762e-01
-1.146800667047500610e-01 1.517889834940433502e-02 9.850849509239196777e-01
-2.553217113018035889e-02 -1.923007704317569733e-02 3.796649575233459473e-01
-1.260903179645538330e-01 -7.150225806981325150e-03 2.731217443943023682e-01
-1.956705376505851746e-02 -2.056250721216201782e-02 1.880679428577423096e-01
-1.373940706253051758e-01 -3.607838880270719528e-03 4.424206316471099854e-01
-3.086015582084655762e-03 -1.879584603011608124e-02 2.825078666210174561e-01
-3.711071610450744629e-02 1.081805303692817688e-02 2.272704392671585083e-01
-4.744108393788337708e-02 -2.201823750510811806e-03 8.866549730300903320e-01
-9.098652750253677368e-02 2.179099060595035553e-02 5.225405097007751465e-01
-2.713131159543991089e-02 1.617575250566005707e-02 5.907785892486572266e-01
-7.170667499303817749e-02 -1.212200708687305450e-02 6.469388604164123535e-01
-8.587665855884552002e-03 1.159250363707542419e-02 5.466745495796203613e-01
-7.879938930273056030e-02 2.042733505368232727e-02 4.661188423633575439e-01
-2.164730802178382874e-02 -1.937036216259002686e-02 5.408340692520141602e-02
-4.666689783334732056e-02 1.261844858527183533e-02 2.480801641941070557e-01
-1.310414075851440430e-01 2.145484648644924164e-02 8.006299734115600586e-01
-5.014260113239288330e-02 1.642167940735816956e-02 9.292944073677062988e-01
-1.118175834417343140e-01 2.141345478594303131e-02 5.211772322654724121e-01
-1.297996342182159424e-01 -1.581612741574645042e-04 1.817983984947204590e-01
-1.271745264530181885e-01 1.044077612459659576e-02 2.495237737894058228e-01
1.542933285236358643e-03 -1.786878146231174469e-02 1.385492384433746338e-01
-7.483865320682525635e-02 2.145154215395450592e-02 8.958888053894042969e-01
-1.186775267124176025e-01 1.549904420971870422e-02 9.727025628089904785e-01
-3.319781273603439331e-02 1.254259422421455383e-02 3.040021657943725586e-01
-1.072255671024322510e-01 -1.236821711063385010e-02 3.835899233818054199e-01
-6.935043632984161377e-02 2.172856591641902924e-02 8.507229089736938477e-01
-1.415019780397415161e-01 1.090681552886962891e-02 3.508290648460388184e-01
-6.799461692571640015e-02 6.595412269234657288e-03 9.966794252395629883e-01
2.703182399272918701e-03 7.894786074757575989e-03 5.323403477668762207e-01
-1.174024119973182678e-02 -5.401529371738433838e-03 7.540401220321655273e-01
-1.332053542137145996e-01 -4.425995051860809326e-03 5.149990320205688477e-01
-2.524877339601516724e-02 -3.709299489855766296e-04 2.135542035102844238e-02
-1.462894976139068604e-01 1.791789010167121887e-02 6.551352739334106445e-01
-8.363410830497741699e-02 4.667466506361961365e-03 9.772718548774719238e-01
-7.940298318862915039e-02 2.107940241694450378e-02 5.003916025161743164e-01
-1.357632502913475037e-02 -1.501577720046043396e-02 5.394067168235778809e-01
-1.450983583927154541e-01 5.908601917326450348e-03 7.310939431190490723e-01
-5.907455086708068848e-02 -1.490782946348190308e-02 5.722644925117492676e-01
-3.146417811512947083e-02 -1.912958174943923950e-02 3.935552239418029785e-01
-2.113002538681030273e-02 -1.708799600601196289e-02 4.819175899028778076e-01
-3.730886429548263550e-02 1.812321692705154419e-02 6.101705431938171387e-01
-6.772886961698532104e-02 -1.488001458346843719e-02 5.518219470977783203e-01
4.979774355888366699e-03 -1.758735254406929016e-02 2.670815587043762207e-01
-9.773717075586318970e-02 -1.443086192011833191e-02 3.412556052207946777e-01
-9.466129541397094727e-02 -1.461939513683319092e-02 3.828845322132110596e-01
-5.812199413776397705e-02 -1.952947489917278290e-02 1.337611973285675049e-01
6.255656480789184570e-03 5.435128696262836456e-03 3.986808061599731445e-01
-1.135886013507843018e-01 -1.118080876767635345e-02 2.928390502929687500e-01
1.687917113304138184e-02 -1.117588579654693604e-02 1.755556762218475342e-01
-5.212534219026565552e-02 1.867063716053962708e-02 4.799491167068481445e-01
-5.946173891425132751e-02 1.497127115726470947e-02 2.875663042068481445e-01
8.478984236717224121e-04 2.555136103183031082e-03 7.361969947814941406e-01
-7.461902499198913574e-02 -1.704521290957927704e-02 3.967447578907012939e-01
-7.258131355047225952e-02 2.158096432685852051e-02 5.577559471130371094e-01
-1.004381850361824036e-02 -1.562269777059555054e-02 5.044553875923156738e-01
-5.741176009178161621e-02 -1.933719962835311890e-02 3.169511556625366211e-01
-5.517307668924331665e-02 1.887089572846889496e-02 8.934062123298645020e-01
-7.523031532764434814e-02 -1.548631303012371063e-02 3.003334999084472656e-02
-7.514955103397369385e-02 2.214934490621089935e-02 5.915949940681457520e-01
-1.292482018470764160e-01 1.207553967833518982e-02 2.899230718612670898e-01
-1.418002992868423462e-01 -2.020663814619183540e-04 5.821305513381958008e-01
-1.782260462641716003e-02 -1.836144365370273590e-02 4.112486541271209717e-01
-1.298103332519531250e-01 1.757126860320568085e-02 4.353535473346710205e-01
-9.660694003105163574e-02 1.943385601043701172e-02 4.086506962776184082e-01
-1.009698584675788879e-01 2.360377646982669830e-02 6.665658354759216309e-01
-1.284002661705017090e-01 1.583403348922729492e-02 3.741737306118011475e-01
-7.043851166963577271e-02 1.950055174529552460e-02 9.442967176437377930e-01
-6.839639693498611450e-02 2.229166217148303986e-02 6.706578731536865234e-01
-7.892701774835586548e-02 2.314938604831695557e-02 7.837699651718139648e-01
-5.530370399355888367e-02 1.766494289040565491e-02 4.086550474166870117e-01
-2.104371786117553711e-03 -1.273825392127037048e-02 5.601023435592651367e-01
-4.301732033491134644e-02 -1.071288622915744781e-02 7.151606678962707520e-01
-6.529302150011062622e-02 -1.813021115958690643e-02 7.783889770507812500e-02
-1.146809607744216919e-01 -1.087773963809013367e-02 3.575169444084167480e-01
-3.277048096060752869e-02 1.654945872724056244e-02 7.875481843948364258e-01
-2.668761089444160461e-02 -2.153609646484255791e-03 -7.043540477752685547e-03
-1.021082699298858643e-01 1.679340377449989319e-02 3.217740952968597412e-01
-4.942438006401062012e-02 -2.016083709895610809e-02 2.659973502159118652e-01
-2.964301407337188721e-02 1.027126982808113098e-02 2.437627762556076050e-01
-1.089552342891693115e-01 -1.153754629194736481e-02 1.927644908428192139e-01
-4.182489216327667236e-02 -1.717329584062099457e-02 4.972274303436279297e-01
-1.263389140367507935e-01 -2.972657792270183563e-03 6.737962365150451660e-01
-9.488541632890701294e-03 -1.688256300985813141e-02 4.509082436561584473e-01
-5.001868307590484619e-02 -1.266809180378913879e-02 6.604287028312683105e-01
-3.167705237865447998e-02 -2.079796418547630310e-02 1.627583503723144531e-01
-8.362707495689392090e-02 -1.477976515889167786e-02 5.937841534614562988e-02
-1.147316098213195801e-01 1.957047916948795319e-02 4.446809887886047363e-01
4.209555685520172119e-03 -1.725924666970968246e-04 1.758629381656646729e-01
-4.494443163275718689e-02 -2.007891237735748291e-02 9.974399209022521973e-02
-1.001509130001068115e-01 -1.396098919212818146e-02 2.175889313220977783e-01
-8.491508662700653076e-03 1.090041734278202057e-02 4.676940739154815674e-01
-9.336217492818832397e-02 1.660936977714300156e-04 1.266235113143920898e-02
-8.789858222007751465e-02 -1.227193884551525116e-02 5.812820792198181152e-01
-1.023336648941040039e-01 1.621324941515922546e-02 3.047165870666503906e-01
-1.371494829654693604e-01 2.071804925799369812e-02 7.058928012847900391e-01
-5.254829674959182739e-02 9.406913071870803833e-03 1.445856690406799316e-01
-1.196317374706268311e-01 -9.624753147363662720e-03 3.221224546432495117e-01
1.977609097957611084e-02 -9.324433282017707825e-03 4.299798309803009033e-01
3.946572542190551758e-05 -1.627667807042598724e-02 4.215933084487915039e-01
-3.312917798757553101e-02 -2.082943916320800781e-02 1.802771687507629395e-01
-7.430458813905715942e-02 -1.472982019186019897e-02 5.347653627395629883e-01
-8.285117149353027344e-02 -1.639292016625404358e-02 3.721909821033477783e-01
-8.107080310583114624e-02 -9.702881798148155212e-04 9.020385742187500000e-01
-8.462231606245040894e-03 -1.975560560822486877e-02 2.057465910911560059e-01
-8.386033028364181519e-02 -1.675791665911674500e-02 3.088342845439910889e-01
-9.210889786481857300e-02 -2.416206058114767075e-03 8.546596765518188477e-01
-2.351565286517143250e-02 4.860314074903726578e-03 8.885840177536010742e-01
-8.342310786247253418e-02 1.935575716197490692e-02 4.087912142276763916e-01
-1.267452239990234375e-01 1.940078474581241608e-02 4.877488911151885986e-01
-1.011117920279502869e-01 -8.303442969918251038e-03 6.652382016181945801e-01
-6.278861314058303833e-02 3.242711536586284637e-03 9.656584262847900391e-01
-1.372037976980209351e-01 2.066361345350742340e-02 6.890305280685424805e-01
-8.080883324146270752e-02 -6.248309276998043060e-03 7.950170636177062988e-01
-1.547373086214065552e-02 9.330793283879756927e-03 3.010375797748565674e-01
-3.053379058837890625e-02 -1.884886063635349274e-02 2.003416419029235840e-02
-4.368957132101058960e-02 -2.046568132936954498e-02 1.400191485881805420e-01
-5.995446816086769104e-02 1.448014751076698303e-02 2.700981795787811279e-01
4.816643893718719482e-03 6.997588090598583221e-03 5.595660805702209473e-01
-1.266864091157913208e-01 2.091725915670394897e-02 5.626424551010131836e-01
-7.542562484741210938e-02 2.277442440390586853e-02 8.047956228256225586e-01
-4.716982319951057434e-02 1.135119237005710602e-02 2.083619832992553711e-01
-5.003550276160240173e-02 4.570696037262678146e-03 9.634168148040771484e-01
-1.207757443189620972e-01 -6.492883432656526566e-03 5.885297656059265137e-01
-1.042633578181266785e-01 2.375352196395397186e-02 6.963583827018737793e-01
-8.281012624502182007e-02 -1.702762767672538757e-02 2.797813415527343750e-01
-6.476026028394699097e-02 2.195682935416698456e-02 7.758393287658691406e-01
-5.143321305513381958e-02 2.051212079823017120e-02 7.081041336059570312e-01
-1.338009163737297058e-02 -9.235845878720283508e-03 6.925842761993408203e-01
-7.144483923912048340e-02 -1.528949849307537079e-02 6.871789693832397461e-03
-7.691285759210586548e-02 2.258399501442909241e-02 8.380672931671142578e-01
-1.092624813318252563e-01 1.847917214035987854e-02 3.897201418876647949e-01
-8.773225545883178711e-02 1.465784385800361633e-02 1.021144628524780273e+00
-5.253318324685096741e-02 1.258456893265247345e-02 2.295629829168319702e-01
-8.372705429792404175e-02 1.787670329213142395e-02 3.503783643245697021e-01
-8.613762259483337402e-02 -8.329335600137710571e-03 7.262681722640991211e-01
-8.115477859973907471e-02 -1.224706135690212250e-02 6.124989390373229980e-01
5.461104214191436768e-03 -1.462589018046855927e-02 7.860001921653747559e-02
-8.506545424461364746e-02 2.101973444223403931e-02 4.859436750411987305e-01
-4.894539713859558105e-03 2.585434122011065483e-04 1.197128295898437500e-01
-7.805711776018142700e-02 -1.384691335260868073e-02 5.590955018997192383e-01
1.990981400012969971e-03 6.703834049403667450e-03 3.868117928504943848e-01
-6.326137483119964600e-02 -1.930982433259487152e-02 2.473050504922866821e-01
-4.357339441776275635e-02 9.607126936316490173e-03 1.710629165172576904e-01
-8.641023933887481689e-02 -1.376563124358654022e-02 5.197875499725341797e-01
-5.243222415447235107e-02 1.586458180099725723e-03 -9.572207927703857422e-04
-1.692222803831100464e-02 1.107768155634403229e-02 3.621507585048675537e-01
-9.858644753694534302e-02 2.164486795663833618e-02 9.314996600151062012e-01
-1.268587410449981689e-01 2.033950574696063995e-02 8.860092759132385254e-01
-7.095548510551452637e-02 1.966310106217861176e-02 4.473886787891387939e-01
-1.419921517372131348e-01 1.654830202460289001e-02 8.325710892677307129e-01
-3.125224262475967407e-02 1.717456430196762085e-02 6.637971997261047363e-01
-4.287951439619064331e-02 1.494937576353549957e-02 9.190220832824707031e-01
-2.770237997174263000e-02 1.565286517143249512e-02 5.155201554298400879e-01
-3.038895875215530396e-02 -2.071275562047958374e-02 1.426342427730560303e-01
-1.032378003001213074e-01 -7.448791060596704483e-03 6.830767989158630371e-01
5.035936832427978516e-03 3.603747813031077385e-03 2.924746870994567871e-01
-6.022144109010696411e-03 -1.892432756721973419e-02 1.165638267993927002e-01
1.900894194841384888e-02 -1.623450545594096184e-03 4.849154651165008545e-01
-8.229355514049530029e-02 1.657998748123645782e-02 3.064640760421752930e-01
-1.320733278989791870e-01 -5.723780486732721329e-03 3.796658515930175781e-01
-1.107372492551803589e-01 9.252618183381855488e-04 8.626287579536437988e-01
-1.331118196249008179e-01 -5.137346684932708740e-03 3.404797315597534180e-01
-5.747111886739730835e-02 -1.347574032843112946e-02 6.277910470962524414e-01
-9.121876209974288940e-02 2.358934655785560608e-02 8.120303153991699219e-01
6.634503602981567383e-03 -1.001056097447872162e-02 5.724571943283081055e-01
-3.794915974140167236e-02 -2.043517120182514191e-02 2.804295718669891357e-01
-6.194280833005905151e-02 2.092279121279716492e-02 5.721424221992492676e-01
-9.354314208030700684e-02 2.365370653569698334e-02 6.811835765838623047e-01
-6.675370782613754272e-02 -1.731125451624393463e-02 4.725527763366699219e-02
-1.415455043315887451e-01 -3.629879793152213097e-04 3.311296105384826660e-01
8.176416158676147461e-04 -1.832292042672634125e-02 1.658701002597808838e-01
-7.989823818206787109e-03 -1.918321475386619568e-02 3.010720014572143555e-01
-1.023452728986740112e-01 2.382334321737289429e-02 7.920935750007629395e-01
-1.522367447614669800e-01 8.779852651059627533e-03 6.697499155998229980e-01
-1.138595789670944214e-01 -1.007013022899627686e-02 4.715712666511535645e-01
-1.884863898158073425e-02 2.911645453423261642e-03 1.023516952991485596e-01
-2.810370549559593201e-02 -2.000456117093563080e-02 3.259738087654113770e-01
-4.578749835491180420e-02 1.966601051390171051e-02 6.646769642829895020e-01
-6.762436777353286743e-02 5.060860421508550644e-04 9.340640306472778320e-01
-9.179122745990753174e-02 2.381413057446479797e-02 7.556021809577941895e-01
-1.184622794389724731e-01 2.314908429980278015e-02 7.902154922485351562e-01
-1.061625704169273376e-01 2.190036140382289886e-02 5.353967547416687012e-01
-1.285826265811920166e-01 2.222210727632045746e-02 7.293462753295898438e-01
-1.447455435991287231e-01 1.599845476448535919e-02 5.081022381782531738e-01
1.344369351863861084e-02 9.072909015230834484e-04 5.866693258285522461e-01
-1.110037863254547119e-01 2.244428917765617371e-02 5.814568996429443359e-01
-1.325177550315856934e-01 -7.892916910350322723e-04 6.879370212554931641e-01
1.840154826641082764e-02 -9.573132265359163284e-04 3.718217015266418457e-01
-3.736960142850875854e-02 1.683089137077331543e-02 4.832754731178283691e-01
-1.364145427942276001e-01 5.706820171326398849e-03 8.108584880828857422e-01
-1.377292275428771973e-01 1.143839396536350250e-02 8.707517385482788086e-01
-9.906738996505737305e-02 2.027278207242488861e-02 4.454610347747802734e-01
-3.189014270901679993e-02 1.332492567598819733e-02 3.430038094520568848e-01
-6.843725591897964478e-02 -1.876631192862987518e-02 2.657016515731811523e-01
-4.604785516858100891e-02 -1.527037657797336578e-02 5.739505290985107422e-01
-3.682660683989524841e-02 -2.019422873854637146e-02 8.788383007049560547e-02
-1.186687499284744263e-02 -3.612594678997993469e-03 2.327504754066467285e-02
-1.175619438290596008e-01 -8.758585900068283081e-03 5.060789585113525391e-01
-6.926921010017395020e-02 8.357796818017959595e-03 1.023244559764862061e-01
-9.907972812652587891e-02 -1.346958242356777191e-02 4.235289990901947021e-01
-5.216005817055702209e-02 -1.916488073766231537e-02 6.506264209747314453e-02
-2.566043660044670105e-02 -4.711157642304897308e-03 -3.249901533126831055e-02
-7.997332513332366943e-02 -1.616378501057624817e-02 4.201952517032623291e-01
-4.287241399288177490e-02 1.924078166484832764e-02 6.963837742805480957e-01
1.686433702707290649e-02 -2.351538976654410362e-03 2.754181325435638428e-01
-4.949086159467697144e-02 -1.907619647681713104e-02 5.050823092460632324e-02
-8.684361726045608521e-02 -1.555424369871616364e-02 4.017236828804016113e-01
-4.856818541884422302e-02 -2.031032741069793701e-02 1.543863415718078613e-01
-9.484864771366119385e-02 2.263528481125831604e-02 5.753866434097290039e-01
-1.222165375947952271e-01 -3.202087711542844772e-03 7.002359628677368164e-01
-1.781501248478889465e-02 2.541222376748919487e-03 8.558458089828491211e-01
4.016622900962829590e-03 -9.946446865797042847e-03 5.924661159515380859e-01
1.997105032205581665e-02 -1.153969019651412964e-02 2.659595906734466553e-01
-6.537229567766189575e-02 -1.897796615958213806e-02 2.816066741943359375e-01
-1.482312530279159546e-01 1.196349970996379852e-02 4.425051510334014893e-01
-9.104368090629577637e-02 2.199605666100978851e-02 9.161672592163085938e-01
-1.323602348566055298e-02 2.186446217820048332e-04 7.530757784843444824e-02
-5.936936289072036743e-02 1.998450234532356262e-02 5.177605748176574707e-01
-6.352037191390991211e-02 2.015248686075210571e-02 5.046637654304504395e-01
1.017425954341888428e-02 -1.491483300924301147e-02 3.835652172565460205e-01
9.290941059589385986e-03 -1.650637201964855194e-02 2.805935740470886230e-01
-3.940364718437194824e-02 -1.259579323232173920e-02 -7.557350397109985352e-02
-6.575243175029754639e-02 1.993219740688800812e-02 4.806802868843078613e-01
1.299346983432769775e-02 3.064591437578201294e-03 5.169394612312316895e-01
-3.294007107615470886e-02 -1.199945807456970215e-02 6.726456880569458008e-01
-3.094353899359703064e-02 -2.062124758958816528e-02 2.588846683502197266e-01
-4.898666962981224060e-02 -1.156466640532016754e-02 6.931867599487304688e-01
-1.413871720433235168e-02 -5.165147129446268082e-03 7.669520378112792969e-01
-6.014607846736907959e-02 1.868539676070213318e-02 4.374688565731048584e-01
1.890376955270767212e-02 -8.856372907757759094e-03 2.068614959716796875e-01
7.685899734497070312e-03 -1.645587384700775146e-02 3.264618515968322754e-01
-3.983176499605178833e-02 -5.909936968237161636e-03 8.171917200088500977e-01
-9.670586138963699341e-02 -1.274555362761020660e-02 4.991488158702850342e-01
-1.016251444816589355e-01 -1.138131506741046906e-02 5.317894220352172852e-01
-6.699912250041961670e-02 2.070129616186022758e-03 1.206994056701660156e-04
-1.327663660049438477e-01 1.335622929036617279e-02 3.361455798149108887e-01
-5.595638602972030640e-02 -1.294006779789924622e-02 6.474943757057189941e-01
-1.013563871383666992e-01 2.227536216378211975e-02 5.519034266471862793e-01
-6.487970054149627686e-02 7.380086928606033325e-03 8.544409275054931641e-02
-8.493859320878982544e-03 -1.972974836826324463e-02 2.241964638233184814e-01
-1.194809302687644958e-01 -9.298516437411308289e-03 2.610335350036621094e-01
-9.649629890918731689e-02 1.894119568169116974e-02 3.893401622772216797e-01
-9.312733262777328491e-02 2.384445816278457642e-02 7.392348051071166992e-01
-1.743621379137039185e-02 1.073995046317577362e-02 3.420863449573516846e-01
-3.038191795349121094e-02 1.499770022928714752e-02 8.283863067626953125e-01
-8.111345022916793823e-02 2.305291965603828430e-02 8.207080364227294922e-01
-1.185195446014404297e-01 2.199878357350826263e-02 8.759142160415649414e-01
2.191640436649322510e-02 -7.729619275778532028e-03 4.005208015441894531e-01
-1.097536236047744751e-01 -9.265517815947532654e-03 5.665439963340759277e-01
-5.391542240977287292e-02 -9.996674954891204834e-03 7.342622876167297363e-01
-7.942726463079452515e-02 5.242434563115239143e-04 -9.041994810104370117e-03
-3.427042439579963684e-02 -1.138619706034660339e-02 6.905554533004760742e-01
-5.026775971055030823e-02 -1.774236187338829041e-02 2.268284559249877930e-03
-1.301177442073822021e-01 -4.907008260488510132e-03 2.506608366966247559e-01
-2.379354834556579590e-02 -1.490076817572116852e-02 5.707549452781677246e-01
1.092335581779479980e-02 2.714913804084062576e-03 3.502708673477172852e-01
-1.032544001936912537e-01 -1.240460947155952454e-02 4.513068199157714844e-01
-3.257049992680549622e-02 1.731175556778907776e-02 7.108768820762634277e-01
-8.281573653221130371e-02 1.974875805899500847e-03 9.451152086257934570e-01
-3.733173012733459473e-02 -1.763271354138851166e-02 4.767094254493713379e-01
-9.774132072925567627e-02 -1.165645383298397064e-02 5.487078428268432617e-01
-1.303032040596008301e-03 -1.675553806126117706e-02 6.659215688705444336e-02
-7.616024464368820190e-03 1.131471619009971619e-02 6.233578324317932129e-01
-6.654562801122665405e-02 -1.639943011105060577e-02 4.830443859100341797e-01
-5.243871361017227173e-02 7.037969306111335754e-03 9.224244952201843262e-02
-1.688979938626289368e-02 1.336412131786346436e-02 5.068084597587585449e-01
-8.844371140003204346e-02 -9.835328906774520874e-03 6.710642576217651367e-01
-9.831064194440841675e-02 -2.827959135174751282e-03 8.285874128341674805e-01
-4.501396417617797852e-02 -2.047205157577991486e-02 2.409346550703048706e-01
-1.367245018482208252e-01 1.982442662119865417e-02 8.159356713294982910e-01
-2.992184832692146301e-02 -1.612768881022930145e-02 -3.940629959106445312e-02
-1.214771345257759094e-02 -1.233233883976936340e-02 6.153934001922607422e-01
-3.915356844663619995e-02 1.852855272591114044e-02 6.313588619232177734e-01
-5.967108160257339478e-02 1.051950268447399139e-03 -1.218068599700927734e-02
-5.190492048859596252e-02 2.043201401829719543e-02 7.581440806388854980e-01
-4.191727936267852783e-02 1.566115207970142365e-02 3.842393159866333008e-01
-9.518797695636749268e-02 -6.877089384943246841e-03 7.371107339859008789e-01
-1.178337335586547852e-01 7.491227588616311550e-04 8.282194137573242188e-01
-7.201159745454788208e-02 1.818519085645675659e-02 9.751228690147399902e-01
-1.369285285472869873e-01 2.072611264884471893e-02 7.395964860916137695e-01
1.917019486427307129e-03 -3.184357192367315292e-03 7.078781127929687500e-01
-5.998986214399337769e-02 -1.845097541809082031e-02 3.827717006206512451e-01
-9.881473332643508911e-02 2.390384301543235779e-02 7.692990303039550781e-01
-1.371672004461288452e-02 1.135858707129955292e-02 7.591272592544555664e-01
-5.104177445173263550e-02 1.941292360424995422e-02 8.382205367088317871e-01
-1.065737307071685791e-01 -1.083286944776773453e-03 8.379758596420288086e-01
-1.750435307621955872e-02 8.221514523029327393e-03 2.471890598535537720e-01
-8.589296042919158936e-02 -1.515617035329341888e-02 4.415205717086791992e-01
-9.921834617853164673e-02 -1.357286237180233002e-02 1.626818180084228516e-01
-1.385936290025711060e-01 1.050178334116935730e-02 3.205107450485229492e-01
8.706688880920410156e-03 -5.410987418144941330e-03 6.326063871383666992e-01
-1.124633699655532837e-01 2.362888120114803314e-02 7.330879569053649902e-01
-8.179250359535217285e-02 -1.487356610596179962e-02 4.891497790813446045e-01
-8.652473241090774536e-02 5.105160642415285110e-03 5.409318208694458008e-02
-1.110799461603164673e-01 -1.147629320621490479e-02 2.341681718826293945e-01
-5.066505447030067444e-02 1.125064562074840069e-03 9.329644441604614258e-01
-1.036599576473236084e-01 3.593219444155693054e-04 4.333752393722534180e-02
-4.377906024456024170e-02 -1.889288052916526794e-02 4.032460153102874756e-01
-9.507776051759719849e-02 8.009203709661960602e-03 9.960122108459472656e-01
-2.577830106019973755e-02 1.353314146399497986e-02 3.996303677558898926e-01
-3.993277624249458313e-02 5.510255694389343262e-03 9.472689628601074219e-01
-2.843885496258735657e-02 5.488172639161348343e-03 1.200676560401916504e-01
-9.391945600509643555e-02 1.038368791341781616e-03 9.136611223220825195e-01
-1.307180672883987427e-01 1.624457351863384247e-02 3.984202146530151367e-01
-3.927596658468246460e-02 1.814147457480430603e-02 7.750566005706787109e-01
-1.388378739356994629e-01 -2.739287447184324265e-03 4.874182939529418945e-01
-4.125537723302841187e-02 -4.604966379702091217e-03 8.418530821800231934e-01
-1.934131234884262085e-02 1.411623880267143250e-02 7.124314904212951660e-01
-1.057736724615097046e-01 -1.295072399079799652e-02 2.594878077507019043e-01
-2.366575971245765686e-02 1.429842412471771240e-02 7.780044078826904297e-01
-5.729977041482925415e-02 -9.315514937043190002e-03 7.501590251922607422e-01
1.052555441856384277e-02 -1.448122411966323853e-02 3.998106718063354492e-01
-1.387936621904373169e-02 1.248653046786785126e-02 4.895258545875549316e-01
-3.448497876524925232e-02 -1.702547073364257812e-03 -1.896259188652038574e-02
-1.233011037111282349e-01 -8.464088663458824158e-03 3.992601037025451660e-01
-6.622978299856185913e-02 1.823261938989162445e-02 3.943029940128326416e-01
-7.785264402627944946e-03 1.010296866297721863e-02 7.163935899734497070e-01
-7.701407372951507568e-02 -1.316906884312629700e-02 5.918067097663879395e-01
-5.947499722242355347e-02 1.909872516989707947e-02 9.102159738540649414e-01
1.686961948871612549e-02 6.159706390462815762e-04 4.163990318775177002e-01
-1.172709912061691284e-01 2.306230738759040833e-02 8.146509528160095215e-01
-9.797856211662292480e-02 -1.061219349503517151e-02 5.945887565612792969e-01
-1.392677426338195801e-01 5.189778283238410950e-03 7.775840163230895996e-01
-6.854561716318130493e-02 9.391972795128822327e-03 1.241244971752166748e-01
-1.291707456111907959e-01 1.314841397106647491e-02 3.117295205593109131e-01
1.282750815153121948e-02 3.272598609328269958e-03 4.964883029460906982e-01
-1.460351347923278809e-01 4.393074661493301392e-03 6.811174154281616211e-01
-1.270997673273086548e-01 -1.300327712669968605e-03 1.638251841068267822e-01
-1.069795638322830200e-01 -7.081352639943361282e-03 6.259816884994506836e-02
-6.401287019252777100e-02 -1.101730577647686005e-02 6.971458196640014648e-01
-6.477188318967819214e-02 -1.750611513853073120e-02 4.257671236991882324e-01
1.276902854442596436e-02 -2.678719814866781235e-03 6.128011345863342285e-01
-4.918499290943145752e-02 -1.937815733253955841e-02 3.552105426788330078e-01
-4.923728853464126587e-02 -1.954471506178379059e-02 3.405265808105468750e-01
-8.094004541635513306e-02 -1.682135090231895447e-02 3.521311283111572266e-01
-1.338011026382446289e-01 1.628435030579566956e-02 4.183874726295471191e-01
-5.713326483964920044e-02 -1.318566733971238136e-03 -3.828197717666625977e-02
-3.720945864915847778e-02 1.748695224523544312e-02 5.360828042030334473e-01
-2.050325274467468262e-02 -1.987109705805778503e-02 8.466798067092895508e-02
4.744492471218109131e-03 -1.483004167675971985e-02 4.458881318569183350e-01
-5.399983376264572144e-03 -3.817368997260928154e-04 1.044005155563354492e-01
-7.392873615026473999e-02 2.286077290773391724e-02 7.625224590301513672e-01
-3.926704078912734985e-02 -1.403764635324478149e-02 6.173588633537292480e-01
-8.717220276594161987e-03 3.684024792164564133e-03 1.732231378555297852e-01
-1.265562176704406738e-01 -7.582636084407567978e-03 3.517265915870666504e-01
-2.467345818877220154e-02 1.361965388059616089e-02 4.148743450641632080e-01
-3.877249732613563538e-02 1.679427176713943481e-02 4.674781560897827148e-01
-7.417581230401992798e-02 -1.779288053512573242e-02 3.291009068489074707e-01
1.006744801998138428e-03 5.682901944965124130e-03 3.224239349365234375e-01
-6.681585311889648438e-02 -1.899761520326137543e-02 1.920951306819915771e-01
-9.159006178379058838e-02 7.496103644371032715e-03 9.718734025955200195e-02
-7.706165313720703125e-02 1.551263593137264252e-02 2.760052680969238281e-01
-1.961070671677589417e-02 -1.784907840192317963e-02 4.430802464485168457e-01
-2.852522581815719604e-02 -2.029279060661792755e-02 2.986491322517395020e-01
-6.183762103319168091e-02 2.142228931188583374e-02 6.266296505928039551e-01
-1.030685007572174072e-01 -9.273564442992210388e-03 6.173518300056457520e-01
-1.269171833992004395e-01 -4.986197687685489655e-03 2.056306600570678711e-01
-6.536315381526947021e-02 -1.051720790565013885e-02 7.098151445388793945e-01
-6.047291681170463562e-02 2.162805758416652679e-02 7.280068993568420410e-01
-1.511880755424499512e-02 -1.091706007719039917e-02 6.610768437385559082e-01
-1.069496795535087585e-01 -5.261501297354698181e-03 7.321953773498535156e-01
-2.447017654776573181e-02 -5.375293549150228500e-03 7.967752218246459961e-01
-8.999112248420715332e-02 2.050222642719745636e-02 4.550281167030334473e-01
4.253767430782318115e-03 -1.775697432458400726e-02 1.866106092929840088e-01
-1.313278079032897949e-01 2.644622698426246643e-03 7.884300351142883301e-01
-1.421951353549957275e-01 1.935677789151668549e-02 6.706083416938781738e-01
-1.264367625117301941e-02 2.825303003191947937e-03 1.301081180572509766e-01
-1.447362303733825684e-01 1.306757330894470215e-03 3.599248528480529785e-01
-1.104973256587982178e-02 -1.968522928655147552e-02 1.289364397525787354e-01
-5.910748243331909180e-02 1.052648015320301056e-02 1.602776646614074707e-01
-1.509196162223815918e-01 5.922522861510515213e-03 6.302702426910400391e-01
-5.740440636873245239e-02 1.715953089296817780e-02 9.473526477813720703e-01
-1.239807456731796265e-01 2.222245000302791595e-02 6.366183757781982422e-01
-5.531654506921768188e-02 -1.853031292557716370e-02 3.975463807582855225e-01
-6.752889603376388550e-02 2.103776484727859497e-02 5.435616970062255859e-01
-3.047101199626922607e-02 -7.095476146787405014e-03 7.803865075111389160e-01
-6.218339875340461731e-02 2.117032185196876526e-02 5.935975313186645508e-01
-8.428242057561874390e-02 2.344088628888130188e-02 6.966835260391235352e-01
-2.286933362483978271e-03 7.315186783671379089e-03 3.517714142799377441e-01
-1.026370972394943237e-01 -1.076732389628887177e-02 9.062132239341735840e-02
-6.344609707593917847e-02 1.273078471422195435e-02 2.110202610492706299e-01
-1.008800044655799866e-02 -9.234424680471420288e-03 6.802833080291748047e-01
-2.946462482213973999e-02 -1.760581322014331818e-02 -1.302215456962585449e-02
-1.002876907587051392e-01 1.233276911079883575e-02 2.027612626552581787e-01
-1.252358853816986084e-01 2.052946761250495911e-02 5.319325923919677734e-01
-1.188404858112335205e-03 -2.895449753850698471e-03 8.630457520484924316e-02
-1.188873425126075745e-01 3.427709918469190598e-03 8.740392923355102539e-01
-2.980003505945205688e-02 -1.931255124509334564e-02 3.799664974212646484e-02
-1.150631159543991089e-01 -1.074030250310897827e-02 2.798986434936523438e-01
-9.865510463714599609e-02 1.402860134840011597e-02 2.403901815414428711e-01
-1.070694923400878906e-01 -2.089855959638953209e-03 8.138234019279479980e-01
-1.558147370815277100e-03 9.261278435587882996e-03 5.052665472030639648e-01
2.114870399236679077e-02 -1.047432608902454376e-02 3.329915106296539307e-01
-1.272704154253005981e-01 1.973793096840381622e-02 5.056509971618652344e-01
-8.036416769027709961e-02 4.382864572107791901e-03 3.755679726600646973e-02
-1.052373275160789490e-01 1.962369680404663086e-02 4.253055453300476074e-01
-9.801923483610153198e-02 -4.375345539301633835e-03 7.933832406997680664e-01
-1.311381459236145020e-01 -3.625933080911636353e-03 5.957180857658386230e-01
-1.643268391489982605e-02 -1.698710024356842041e-02 -4.136264324188232422e-04
-5.028143525123596191e-02 1.983810961246490479e-02 7.997117042541503906e-01
-6.991603225469589233e-02 -1.843289844691753387e-02 3.014192283153533936e-01
-1.130274832248687744e-01 -6.761802826076745987e-03 6.459066867828369141e-01
-4.687827453017234802e-02 -3.213562304154038429e-04 9.113119244575500488e-01
-1.121127009391784668e-01 1.301993802189826965e-02 2.435652762651443481e-01
-8.195032924413681030e-02 -1.563534513115882874e-02 7.903227210044860840e-02
-7.720610499382019043e-02 1.626897417008876801e-02 1.006805062294006348e+00
-1.533336341381072998e-01 1.319000497460365295e-02 6.169775128364562988e-01
-2.953560277819633484e-02 1.389023475348949432e-02 8.522897362709045410e-01
-6.632693111896514893e-02 -1.906018331646919250e-02 2.339860498905181885e-01
1.001796200871467590e-01 -1.567997224628925323e-02 5.628682971000671387e-01
-1.140791401267051697e-01 -6.241890601813793182e-03 -5.681396722793579102e-01
1.968460381031036377e-01 -3.869254142045974731e-02 -5.758175253868103027e-02
2.393699064850807190e-02 1.407190877944231033e-02 -7.669636607170104980e-01
-6.820933520793914795e-02 -1.335915643721818924e-02 -6.711302995681762695e-01
1.131282895803451538e-01 -2.119322540238499641e-03 -4.011728763580322266e-01
-9.862142056226730347e-02 3.960182890295982361e-02 -1.190587207674980164e-01
2.698569558560848236e-03 6.438905373215675354e-03 5.099864602088928223e-01
7.977136224508285522e-02 -4.534228146076202393e-02 2.409973740577697754e-02
1.865014731884002686e-01 -3.490281105041503906e-02 3.043257594108581543e-01
1.731746494770050049e-01 -4.892566427588462830e-02 -1.815892755985260010e-02
3.211967647075653076e-02 -3.904510289430618286e-02 -4.660382866859436035e-02
1.015221551060676575e-01 -9.594311937689781189e-03 -6.832957863807678223e-01
1.837274432182312012e-02 -2.886137366294860840e-02 4.693561196327209473e-01
1.266905367374420166e-01 -1.059415470808744431e-02 -5.107662081718444824e-01
-7.154794037342071533e-02 3.087090700864791870e-02 1.452833265066146851e-01
4.016898944973945618e-02 -2.338460087776184082e-02 -7.636899352073669434e-01
4.149803519248962402e-02 9.073110297322273254e-03 3.299677371978759766e-01
-1.165339350700378418e-01 3.830984979867935181e-02 -8.481537699699401855e-01
-7.054543122649192810e-03 1.869591511785984039e-02 2.819665670394897461e-01
2.872992679476737976e-02 1.142707280814647675e-02 3.281422257423400879e-01
1.290409713983535767e-01 -4.445884004235267639e-02 -3.113226294517517090e-01
4.645429924130439758e-02 1.545960083603858948e-02 -4.824051260948181152e-01
-1.758445501327514648e-01 4.494185373187065125e-02 -7.532600760459899902e-01
3.467705100774765015e-04 -2.918348275125026703e-02 3.547902703285217285e-01
-1.535959094762802124e-01 4.484915733337402344e-02 -7.263779640197753906e-01
-2.039626687765121460e-01 2.067401818931102753e-02 -2.255122214555740356e-01
1.400793045759201050e-01 -4.972066730260848999e-02 -7.110565900802612305e-03
-1.305174231529235840e-01 -1.914079533889889717e-03 8.658279478549957275e-02
1.042021438479423523e-03 2.439736947417259216e-02 -2.450877428054809570e-02
-1.864165663719177246e-01 4.778500273823738098e-02 -5.828832983970642090e-01
-5.963440239429473877e-02 -1.286554336547851562e-02 -7.343382835388183594e-01
8.200764656066894531e-02 -4.539059009402990341e-04 -6.785206198692321777e-01
-2.080570310354232788e-01 3.068399801850318909e-02 -1.068432331085205078e-01
8.159321732819080353e-03 -3.444848582148551941e-02 -2.251348644495010376e-01
-6.826753169298171997e-02 -2.045299671590328217e-02 -5.759601294994354248e-02
1.506291329860687256e-01 -1.959399506449699402e-02 3.627750873565673828e-01
6.275233626365661621e-02 -4.143929854035377502e-02 -2.485671043395996094e-01
1.504191160202026367e-01 -2.927970699965953827e-02 5.007106661796569824e-01
7.232061587274074554e-03 -3.513272106647491455e-02 -4.822419583797454834e-02
3.879177942872047424e-02 -2.443628944456577301e-02 -7.443655729293823242e-01
-1.259669959545135498e-01 -4.747077357023954391e-03 -4.887413382530212402e-01
1.067476123571395874e-01 -1.220855303108692169e-02 4.903599023818969727e-01
5.406659096479415894e-02 1.270088460296392441e-02 7.909046113491058350e-02
