-3.920547291636466980e-02 2.085693776607513428e-01 -2.050600647926330566e-01
1.965424045920372009e-02 3.013541400432586670e-01 4.051690101623535156e-01
-4.341851547360420227e-02 1.826279461383819580e-01 9.539429843425750732e-02
-5.565926805138587952e-02 2.846794426441192627e-01 3.832358121871948242e-01
7.138168066740036011e-02 3.234081268310546875e-01 7.200177013874053955e-02
5.985677614808082581e-02 3.359590768814086914e-01 -2.960226535797119141e-01
-5.702241510152816772e-02 3.262425959110260010e-01 2.694520168006420135e-02
8.364947885274887085e-02 2.483370602130889893e-01 -8.752009272575378418e-02
4.592228680849075317e-03 1.906431913375854492e-01 -4.304352030158042908e-02
6.892310827970504761e-02 3.346250653266906738e-01 -1.377223283052444458e-01
8.874297142028808594e-02 2.739752829074859619e-01 1.976660639047622681e-01
-5.518888682126998901e-02 1.833869218826293945e-01 2.817536592483520508e-01
-6.413459777832031250e-02 1.875553131103515625e-01 1.897042542695999146e-01
3.552381694316864014e-02 1.995542198419570923e-01 -2.809682488441467285e-02
7.874112576246261597e-02 3.149149119853973389e-01 -2.583133280277252197e-01
-1.655999571084976196e-02 3.107984066009521484e-01 3.425190448760986328e-01
-4.744958505034446716e-02 2.274773865938186646e-01 5.463544130325317383e-01
-7.098576426506042480e-02 2.045212388038635254e-01 -4.813587293028831482e-02
5.444901436567306519e-02 2.323305904865264893e-01 -2.229055762290954590e-01
2.960246801376342773e-02 3.481744527816772461e-01 -3.350946605205535889e-01
3.931694105267524719e-02 1.942823529243469238e-01 9.322723746299743652e-02
-9.666098654270172119e-02 2.253124862909317017e-01 8.590874075889587402e-02
-1.983990147709846497e-02 1.935266703367233276e-01 -9.764546155929565430e-02
-4.151342436671257019e-02 2.217579185962677002e-01 -2.854482531547546387e-01
5.439866706728935242e-02 2.062316238880157471e-01 3.998365625739097595e-02
-5.454947054386138916e-02 2.029831856489181519e-01 -1.189129799604415894e-01
-4.275060445070266724e-02 3.056617081165313721e-01 3.116868734359741211e-01
4.358163475990295410e-02 2.633639574050903320e-01 4.936682283878326416e-01
-4.748399183154106140e-02 2.211005687713623047e-01 -2.684880793094635010e-01
-1.002540439367294312e-01 2.540273964405059814e-01 1.295618712902069092e-01
-1.402958761900663376e-02 2.329819053411483765e-01 -3.716065287590026855e-01
-8.751437067985534668e-03 1.808316409587860107e-01 4.117695093154907227e-01
9.159938246011734009e-02 2.731129527091979980e-01 1.505701988935470581e-01
6.163203343749046326e-02 3.010259866714477539e-01 -4.080537855625152588e-01
-3.041888121515512466e-04 3.495485484600067139e-01 -3.392822742462158203e-01
8.057671785354614258e-02 2.905834317207336426e-01 2.316993027925491333e-01
-7.825223356485366821e-02 1.976636052131652832e-01 2.059631049633026123e-01
1.092324778437614441e-02 1.864789873361587524e-01 3.540305793285369873e-02
7.585328072309494019e-02 3.262509107589721680e-01 -1.953370869159698486e-01
4.199411720037460327e-02 1.981329023838043213e-01 4.391144961118698120e-02
-9.776510298252105713e-02 2.278417348861694336e-01 1.011334210634231567e-01
-8.966731280088424683e-02 2.720407545566558838e-01 2.227841615676879883e-01
5.232318118214607239e-02 3.303565979003906250e-01 -3.891101777553558350e-01
1.858150959014892578e-02 3.460457324981689453e-01 3.750829398632049561e-02
-3.361817821860313416e-02 2.092128247022628784e-01 -2.188997715711593628e-01
9.398587048053741455e-02 2.813393473625183105e-01 6.700149923563003540e-02
-8.922550827264785767e-02 2.954291999340057373e-01 -2.083100005984306335e-02
-3.541327640414237976e-02 2.443646639585494995e-01 -4.009431898593902588e-01
5.926976725459098816e-02 2.378749400377273560e-01 -2.316862940788269043e-01
7.157260924577713013e-02 3.293261826038360596e-01 -1.804428920149803162e-02
-4.062840715050697327e-02 1.789259314537048340e-01 1.853957176208496094e-01
-4.425700753927230835e-02 3.097824752330780029e-01 -4.551518261432647705e-01
5.707353353500366211e-03 3.422880768775939941e-01 9.175999462604522705e-02
1.364168617874383926e-02 1.834497153759002686e-01 3.745086789131164551e-01
8.771511912345886230e-02 3.075046241283416748e-01 1.392048783600330353e-02
5.244807153940200806e-02 2.056574076414108276e-01 3.533346056938171387e-01
5.453702434897422791e-02 2.046141922473907471e-01 7.448130846023559570e-02
5.347860045731067657e-03 2.067845016717910767e-01 -1.994861066341400146e-01
9.048911929130554199e-02 2.522999942302703857e-01 4.940772801637649536e-02
-8.240432292222976685e-02 2.032842934131622314e-01 2.526752054691314697e-01
-6.655430793762207031e-02 3.085226118564605713e-01 -3.393651247024536133e-01
1.485126931220293045e-02 3.442411124706268311e-01 6.640882790088653564e-02
-3.866875544190406799e-02 2.321314811706542969e-01 5.656404495239257812e-01
-1.353504508733749390e-02 3.141736984252929688e-01 3.247617185115814209e-01
-6.882161647081375122e-02 2.099198102951049805e-01 -1.118797808885574341e-01
-3.388672694563865662e-02 3.381955921649932861e-01 2.803108096122741699e-02
4.223052784800529480e-02 2.265685945749282837e-01 5.114626288414001465e-01
-5.405056290328502655e-03 3.523112535476684570e-01 -1.361230015754699707e-01
1.020675059407949448e-02 3.494405746459960938e-01 -1.709530875086784363e-02
7.610058039426803589e-02 3.187390863895416260e-01 7.446926832199096680e-02
-4.226014483720064163e-03 1.860275268554687500e-01 6.431639194488525391e-04
3.268082439899444580e-02 3.489627540111541748e-01 -3.091169893741607666e-01
7.298817485570907593e-02 2.200315296649932861e-01 1.548601388931274414e-01
-1.222020667046308517e-02 1.771998405456542969e-01 1.671647429466247559e-01
-1.328177098184823990e-02 1.858797669410705566e-01 -6.928168237209320068e-03
-9.366663545370101929e-02 2.836119830608367920e-01 6.136691570281982422e-02
-7.577196508646011353e-02 1.991840898990631104e-01 6.840661168098449707e-02
8.596771955490112305e-02 2.904602885246276855e-01 1.775012910366058350e-01
5.274743586778640747e-02 3.309210538864135742e-01 1.215956509113311768e-01
5.722218751907348633e-02 2.266668379306793213e-01 4.385227859020233154e-01
4.318428039550781250e-02 3.432692289352416992e-01 8.619390428066253662e-03
-2.224407717585563660e-02 1.789358854293823242e-01 3.839242160320281982e-01
-8.013135194778442383e-02 2.000686526298522949e-01 1.383281201124191284e-01
3.289788588881492615e-02 2.013124823570251465e-01 -6.471511721611022949e-02
-3.598481789231300354e-02 2.045170217752456665e-01 -1.799918115139007568e-01
-8.703310787677764893e-02 2.191286236047744751e-01 3.194205760955810547e-01
9.416601806879043579e-02 2.772892415523529053e-01 -4.919056221842765808e-02
-9.864629805088043213e-02 2.592242956161499023e-01 1.511474251747131348e-01
-7.103887200355529785e-02 3.106640279293060303e-01 9.634375572204589844e-02
4.366944730281829834e-02 2.184862345457077026e-01 -1.762250959873199463e-01
3.202985599637031555e-02 2.045210748910903931e-01 -1.038286089897155762e-01
5.545151978731155396e-02 2.379466891288757324e-01 -2.528978586196899414e-01
-6.064851954579353333e-02 1.913065910339355469e-01 4.601450264453887939e-02
-1.900162920355796814e-02 2.975896298885345459e-01 4.146344959735870361e-01
4.166687279939651489e-02 2.428780198097229004e-01 -3.366868197917938232e-01
7.914868742227554321e-02 2.320300042629241943e-01 1.962815970182418823e-02
-2.758507803082466125e-02 1.786339432001113892e-01 1.295465379953384399e-01
-1.014583650976419449e-02 3.473604023456573486e-01 -3.467210233211517334e-01
-6.655654311180114746e-02 3.210277259349822998e-01 -2.317115664482116699e-01
-8.585602790117263794e-02 2.228862643241882324e-01 3.440518975257873535e-01
-8.661200292408466339e-03 1.783178001642227173e-01 1.390754282474517822e-01
7.241495698690414429e-02 2.409420311450958252e-01 3.618724644184112549e-01
5.460089817643165588e-02 2.301705926656723022e-01 -2.073715776205062866e-01
-6.551510095596313477e-02 3.026784658432006836e-01 -3.682801723480224609e-01
5.382087081670761108e-02 2.052267491817474365e-01 3.308650553226470947e-01
-8.240485191345214844e-02 2.957823872566223145e-01 -2.432128190994262695e-01
7.989292591810226440e-02 2.700696587562561035e-01 -2.444218397140502930e-01
-5.852655693888664246e-02 3.195445537567138672e-01 -3.398147225379943848e-01
3.739720582962036133e-02 3.450438678264617920e-01 -3.449005186557769775e-01
-4.169136658310890198e-02 2.478845119476318359e-01 -4.022473692893981934e-01
-5.953507497906684875e-02 2.119693458080291748e-01 4.914335012435913086e-01
1.364638563245534897e-02 3.513764142990112305e-01 -3.165983259677886963e-01
6.572155654430389404e-02 2.662882804870605469e-01 -3.293747603893280029e-01
7.047034054994583130e-02 2.360052019357681274e-01 -1.387063115835189819e-01
9.189980477094650269e-02 2.922814488410949707e-01 6.704010069370269775e-02
-3.286897391080856323e-02 3.263713419437408447e-01 1.803639382123947144e-01
-1.378931663930416107e-02 2.967420816421508789e-01 -5.288645625114440918e-01
-3.008643910288810730e-02 1.770773828029632568e-01 1.916840970516204834e-01
-6.024419888854026794e-02 1.919101476669311523e-01 3.886122107505798340e-01
-9.400876611471176147e-02 2.755235433578491211e-01 -1.531288772821426392e-01
-8.592803962528705597e-03 3.421550989151000977e-01 -4.087003171443939209e-01
-2.786135999485850334e-03 3.509081602096557617e-01 -3.072057664394378662e-01
-7.922933995723724365e-02 2.759625911712646484e-01 -3.104534149169921875e-01
-2.399105206131935120e-02 2.563750445842742920e-01 -4.553487598896026611e-01
-5.606112256646156311e-02 1.879658550024032593e-01 3.740326464176177979e-01
3.639017045497894287e-02 2.046456485986709595e-01 -8.373248577117919922e-02
-3.993292152881622314e-02 1.916616857051849365e-01 -5.108158662915229797e-02
-4.259087517857551575e-02 2.430184036493301392e-01 5.475251674652099609e-01
1.688506826758384705e-02 2.028776556253433228e-01 -1.420211493968963623e-01
7.658359408378601074e-02 2.964869439601898193e-01 2.358857691287994385e-01
4.119843617081642151e-02 3.377281427383422852e-01 9.502775967121124268e-02
4.422938451170921326e-02 3.272856473922729492e-01 -4.363037645816802979e-01
-6.427939236164093018e-02 2.083429098129272461e-01 -1.228509843349456787e-01
-9.843406081199645996e-02 2.301519513130187988e-01 1.296698749065399170e-01
-1.594918780028820038e-02 2.484983503818511963e-01 -4.352658987045288086e-01
-1.520823407918214798e-02 3.345405757427215576e-01 -4.480845034122467041e-01
2.492181956768035889e-03 2.850322723388671875e-01 4.852202534675598145e-01
2.518673986196517944e-02 3.326994478702545166e-01 1.855426728725433350e-01
3.756845369935035706e-02 3.504022359848022461e-01 -2.278979122638702393e-01
-2.272102609276771545e-02 3.402294814586639404e-01 5.571991950273513794e-02
-2.921232953667640686e-04 3.477803468704223633e-01 3.199568018317222595e-03
6.860017031431198120e-02 3.225879371166229248e-01 -3.219637274742126465e-01
-4.605958983302116394e-02 2.376214265823364258e-01 -3.537302613258361816e-01
5.441180616617202759e-02 2.024396061897277832e-01 2.613370120525360107e-01
-6.964021362364292145e-03 3.058761954307556152e-01 3.830203711986541748e-01
6.116096302866935730e-02 2.076863795518875122e-01 1.483149528503417969e-01
-3.362020850181579590e-02 3.140511214733123779e-01 2.825393676757812500e-01
-6.806121766567230225e-02 2.903566658496856689e-01 -3.757481276988983154e-01
7.581781595945358276e-02 2.488808035850524902e-01 3.442053496837615967e-01
4.447055235505104065e-02 3.303534984588623047e-01 -4.232404530048370361e-01
-7.338205724954605103e-02 2.689264416694641113e-01 3.666913509368896484e-01
-1.186818256974220276e-02 3.457014560699462891e-01 -3.636345863342285156e-01
-1.321694720536470413e-02 2.000207304954528809e-01 -1.593142300844192505e-01
3.578059375286102295e-02 3.512199819087982178e-01 -1.752140223979949951e-01
5.390549823641777039e-02 2.272053211927413940e-01 -1.899374574422836304e-01
2.855211868882179260e-02 2.954601645469665527e-01 4.224061369895935059e-01
-4.991329833865165710e-02 1.817632317543029785e-01 3.054757714271545410e-01
5.153520777821540833e-02 3.454831242561340332e-01 -1.979523450136184692e-01
8.256186544895172119e-02 2.572308480739593506e-01 2.843310832977294922e-01
5.483487993478775024e-02 3.090254664421081543e-01 -4.347425699234008789e-01
9.513531811535358429e-03 3.517149686813354492e-01 -3.104700148105621338e-01
4.423085600137710571e-02 3.482200503349304199e-01 -1.279827505350112915e-01
-3.456986322999000549e-02 1.784172952175140381e-01 1.607317328453063965e-01
5.512505024671554565e-02 2.038384228944778442e-01 1.053884774446487427e-01
-2.265061438083648682e-02 3.138942122459411621e-01 3.111622333526611328e-01
-5.537660792469978333e-03 2.001571208238601685e-01 -1.566045433282852173e-01
-9.007135778665542603e-02 2.812709510326385498e-01 -1.990233957767486572e-01
-6.245338916778564453e-02 2.632792890071868896e-01 4.402768313884735107e-01
-3.433636575937271118e-02 3.223672807216644287e-01 -4.524097740650177002e-01
-4.657382518053054810e-02 2.661162316799163818e-01 4.863212108612060547e-01
-9.611171483993530273e-02 2.243348062038421631e-01 1.694379001855850220e-01
-8.401427417993545532e-02 2.044269889593124390e-01 2.304426282644271851e-01
8.082464337348937988e-02 2.495598793029785156e-01 -1.339275240898132324e-01
-5.608975887298583984e-02 2.444503903388977051e-01 -3.533113598823547363e-01
-8.042865246534347534e-02 2.025347054004669189e-01 2.832248210906982422e-01
-9.327670186758041382e-02 2.449022084474563599e-01 2.745647132396697998e-01
3.990149870514869690e-02 2.090488076210021973e-01 -1.108436733484268188e-01
-9.400011599063873291e-02 2.654197216033935547e-01 2.028164714574813843e-01
-2.761112526059150696e-02 1.761924028396606445e-01 2.630528807640075684e-01
-5.717905610799789429e-02 2.325793504714965820e-01 5.152820944786071777e-01
4.882830381393432617e-02 2.224561274051666260e-01 -1.816720813512802124e-01
4.799992591142654419e-02 2.857513129711151123e-01 4.184476137161254883e-01
1.888399198651313782e-02 1.844562292098999023e-01 1.235534250736236572e-01
-7.697491347789764404e-02 2.839817702770233154e-01 2.703179717063903809e-01
1.547092478722333908e-02 1.817493736743927002e-01 3.122098743915557861e-01
-7.869230583310127258e-03 3.498958945274353027e-01 -6.382952630519866943e-02
8.043181151151657104e-03 1.834229826927185059e-01 4.034850299358367920e-01
-6.814274191856384277e-02 2.995198667049407959e-01 -3.594524860382080078e-01
-3.264181688427925110e-02 1.824109554290771484e-01 6.067694723606109619e-02
-8.026447147130966187e-02 2.333365678787231445e-01 -1.950912028551101685e-01
4.815515503287315369e-02 3.351399302482604980e-01 9.688308835029602051e-02
7.231289148330688477e-02 2.271910011768341064e-01 3.067796528339385986e-01
7.075275480747222900e-02 3.283975422382354736e-01 1.099547743797302246e-02
6.664694100618362427e-02 3.109592199325561523e-01 2.158486247062683105e-01
-2.721671015024185181e-02 3.425934910774230957e-01 -7.812418043613433838e-03
8.578024059534072876e-02 3.033241331577301025e-01 -2.108591645956039429e-01
1.957232877612113953e-02 2.901746034622192383e-01 4.563195705413818359e-01
3.281996771693229675e-02 2.819991111755371094e-01 4.684675335884094238e-01
2.182079106569290161e-02 1.834644824266433716e-01 2.039384543895721436e-01
4.275314882397651672e-02 2.857231497764587402e-01 4.332330226898193359e-01
7.073462009429931641e-03 3.157417774200439453e-01 3.282925784587860107e-01
8.671399950981140137e-02 2.441879361867904663e-01 1.627157032489776611e-01
-9.067169576883316040e-02 2.126069962978363037e-01 1.543969213962554932e-01
-1.941233500838279724e-02 3.183931410312652588e-01 -5.010876059532165527e-01
-3.359973058104515076e-02 3.387642502784729004e-01 -3.438986539840698242e-01
-7.072348892688751221e-02 3.104420006275177002e-01 -2.902439534664154053e-01
-3.199559077620506287e-02 2.117383182048797607e-01 -2.386811971664428711e-01
7.116094231605529785e-02 2.505238652229309082e-01 -2.277933657169342041e-01
-1.821828261017799377e-02 3.363145887851715088e-01 1.227561980485916138e-01
1.526565570384263992e-02 3.540444672107696533e-01 -2.155259847640991211e-01
3.260019421577453613e-02 1.906650662422180176e-01 1.007802486419677734e-01
3.175313025712966919e-02 2.718608379364013672e-01 -4.665091335773468018e-01
6.930695474147796631e-02 3.342836499214172363e-01 -1.462678462266921997e-01
-8.443754166364669800e-02 2.133955657482147217e-01 -1.740501448512077332e-02
-1.662389189004898071e-02 3.021579980850219727e-01 -5.256047844886779785e-01
8.349091559648513794e-02 2.754733264446258545e-01 -2.272379696369171143e-01
-8.710854500532150269e-02 2.548809349536895752e-01 -2.239346206188201904e-01
8.594249375164508820e-03 2.354949414730072021e-01 -3.731148540973663330e-01
8.393611013889312744e-02 2.595762312412261963e-01 -1.588700264692306519e-01
-5.031012743711471558e-02 3.297018706798553467e-01 -3.196389079093933105e-01
-4.886870086193084717e-02 1.812050342559814453e-01 1.812240481376647949e-01
9.295421838760375977e-02 2.787334918975830078e-01 1.085855066776275635e-01
2.360306680202484131e-02 3.128980398178100586e-01 -5.139809250831604004e-01
9.196539409458637238e-03 1.792806684970855713e-01 2.666504681110382080e-01
5.951915308833122253e-02 2.697519063949584961e-01 4.239321351051330566e-01
-5.231907963752746582e-02 2.913135588169097900e-01 3.625026941299438477e-01
-7.240010797977447510e-02 2.171412408351898193e-01 -1.467992514371871948e-01
-5.026473104953765869e-02 3.295110166072845459e-01 4.184240847826004028e-02
2.231204137206077576e-02 2.460247874259948730e-01 -4.001008570194244385e-01
-7.464528828859329224e-02 3.019557893276214600e-01 1.539961993694305420e-01
1.779620721936225891e-02 1.833630502223968506e-01 3.392620682716369629e-01
-2.138588950037956238e-02 3.459145724773406982e-01 -3.168210089206695557e-01
-1.742508076131343842e-02 2.137685120105743408e-01 5.838634371757507324e-01
5.065414309501647949e-02 3.385815322399139404e-01 3.904681280255317688e-02
6.520736031234264374e-03 2.726665437221527100e-01 5.268701314926147461e-01
1.303580123931169510e-03 3.427149951457977295e-01 8.266577869653701782e-02
-6.291978061199188232e-02 2.023338377475738525e-01 4.438039958477020264e-01
8.405198156833648682e-02 2.383306026458740234e-01 4.583760350942611694e-02
6.659389287233352661e-02 3.095915913581848145e-01 -3.750481009483337402e-01
6.762382388114929199e-02 2.153477966785430908e-01 8.688177913427352905e-02
3.633124753832817078e-02 2.322171479463577271e-01 5.372462272644042969e-01
-4.011797159910202026e-02 2.536688446998596191e-01 5.346879363059997559e-01
-7.437069714069366455e-02 1.947360336780548096e-01 2.454101145267486572e-01
1.528753805905580521e-02 1.886701434850692749e-01 1.868467405438423157e-02
8.067703247070312500e-02 2.585071325302124023e-01 3.041064739227294922e-01
-1.354899723082780838e-04 3.454868197441101074e-01 4.149130731821060181e-02
-5.063462629914283752e-02 3.033419251441955566e-01 2.966924309730529785e-01
6.698383018374443054e-03 3.496873378753662109e-01 -2.389633283019065857e-02
4.899279214441776276e-03 1.811170727014541626e-01 1.156080514192581177e-01
-8.583007752895355225e-02 2.266891598701477051e-01 -1.137185543775558472e-01
9.284530580043792725e-02 2.819435000419616699e-01 -1.025768369436264038e-01
-3.017091378569602966e-02 1.951273381710052490e-01 -1.057022809982299805e-01
-1.368910307064652443e-03 3.466791510581970215e-01 2.038727328181266785e-02
-9.474781900644302368e-02 2.455252259969711304e-01 -1.156337112188339233e-01
-5.357459932565689087e-02 1.899615079164505005e-01 2.141055464744567871e-02
2.770297974348068237e-02 3.495004475116729736e-01 -4.298176243901252747e-02
-2.019880339503288269e-02 2.621180117130279541e-01 5.468985438346862793e-01
1.340689603239297867e-02 3.536256551742553711e-01 -1.373516768217086792e-01
-9.519664198160171509e-02 2.575957477092742920e-01 2.192575782537460327e-01
7.438532263040542603e-02 2.253140658140182495e-01 2.962782233953475952e-02
4.691493138670921326e-02 2.942588925361633301e-01 3.875474035739898682e-01
-9.639489650726318359e-02 2.250022590160369873e-01 7.749402523040771484e-02
1.336033735424280167e-02 3.428477942943572998e-01 -4.186653196811676025e-01
8.521596342325210571e-02 2.424576729536056519e-01 7.463861256837844849e-03
-4.491844028234481812e-02 1.943183094263076782e-01 -6.690785288810729980e-02
-4.573018476366996765e-02 3.256561756134033203e-01 -3.860752284526824951e-01
7.958084344863891602e-03 1.797801852226257324e-01 3.217400908470153809e-01
3.397086635231971741e-02 3.457878828048706055e-01 7.332986220717430115e-03
4.572357237339019775e-02 2.760301530361175537e-01 -4.397937953472137451e-01
-4.387404024600982666e-02 2.006653845310211182e-01 -1.315429061651229858e-01
-9.196663275361061096e-03 3.368345797061920166e-01 1.381203979253768921e-01
-4.493233934044837952e-02 1.854510754346847534e-01 4.959102720022201538e-02
-8.772493898868560791e-02 2.164107263088226318e-01 -7.272083312273025513e-03
8.911733329296112061e-02 3.008075058460235596e-01 5.996093899011611938e-02
-6.070892885327339172e-02 1.885199248790740967e-01 9.866748750209808350e-02
-6.718260794878005981e-02 2.701303660869598389e-01 3.951884210109710693e-01
-8.518558740615844727e-02 2.359476536512374878e-01 3.620879054069519043e-01
-1.929747313261032104e-02 2.076975703239440918e-01 -2.203843295574188232e-01
-8.122391998767852783e-02 2.615681290626525879e-01 -2.827444970607757568e-01
-1.673476397991180420e-02 3.435757160186767578e-01 -3.722114861011505127e-01
4.227613657712936401e-02 1.931817531585693359e-01 2.164490669965744019e-01
6.912885606288909912e-02 3.137238919734954834e-01 1.802116483449935913e-01
-2.635920885950326920e-03 2.406501471996307373e-01 -4.048838615417480469e-01
-1.381704211235046387e-02 3.495894074440002441e-01 -8.871042728424072266e-02
-1.007682755589485168e-01 2.615462541580200195e-01 5.528685823082923889e-02
-5.996245890855789185e-03 1.836748272180557251e-01 4.441705048084259033e-01
-9.803430736064910889e-02 2.747882008552551270e-01 -3.371038660407066345e-02
-6.864519417285919189e-02 2.948890030384063721e-01 2.586416900157928467e-01
-3.101120516657829285e-02 2.053095996379852295e-01 -1.933446675539016724e-01
7.838973402976989746e-02 2.616465687751770020e-01 3.235780596733093262e-01
6.092116236686706543e-03 3.328253030776977539e-01 1.946671158075332642e-01
4.005190357565879822e-02 2.946917712688446045e-01 4.036901593208312988e-01
-1.979073509573936462e-02 3.434903323650360107e-01 1.653250679373741150e-02
-6.328501552343368530e-02 2.000961899757385254e-01 -5.077558383345603943e-02
5.799795687198638916e-02 2.051816880702972412e-01 1.379847973585128784e-01
-7.048314809799194336e-02 2.195022702217102051e-01 -1.735877841711044312e-01
-1.002354770898818970e-01 2.385108917951583862e-01 5.265856534242630005e-02
-1.276574190706014633e-02 3.483352661132812500e-01 -3.199115395545959473e-01
8.987363427877426147e-02 2.603118419647216797e-01 -7.196871936321258545e-02
-5.282664671540260315e-02 3.313596844673156738e-01 -2.687460780143737793e-01
-9.058311581611633301e-03 2.556192278861999512e-01 -4.609697759151458740e-01
7.883066684007644653e-02 3.082901835441589355e-01 -2.824869453907012939e-01
-3.886936977505683899e-02 1.794850528240203857e-01 3.409315049648284912e-01
-8.214031904935836792e-02 2.837276458740234375e-01 -2.825089693069458008e-01
-6.160611286759376526e-02 2.634463608264923096e-01 -3.879089355468750000e-01
5.806594341993331909e-02 3.115093410015106201e-01 2.561357915401458740e-01
1.458906661719083786e-02 1.978411227464675903e-01 -9.885095059871673584e-02
-8.203168958425521851e-02 2.014150321483612061e-01 1.966602951288223267e-01
9.105611592531204224e-02 2.549908161163330078e-01 1.133761405944824219e-01
-7.456755638122558594e-02 2.312376797199249268e-01 4.366614520549774170e-01
9.194796532392501831e-02 2.839851677417755127e-01 1.139386147260665894e-01
-1.102529279887676239e-02 3.515829443931579590e-01 -1.539823859930038452e-01
-5.717900395393371582e-02 2.190706431865692139e-01 -2.280083894729614258e-01
-6.474759429693222046e-02 2.158460170030593872e-01 4.756416380405426025e-01
-1.002082303166389465e-01 2.648203670978546143e-01 -1.556568220257759094e-02
-9.642994031310081482e-03 2.580742537975311279e-01 5.639645457267761230e-01
-7.240019738674163818e-02 3.141276836395263672e-01 2.634537220001220703e-02
-6.519050151109695435e-02 3.249382674694061279e-01 -1.305590122938156128e-01
-9.752202779054641724e-02 2.769207656383514404e-01 -3.002788871526718140e-03
-9.879831969738006592e-02 2.328395992517471313e-01 1.501731276512145996e-01
-2.197958528995513916e-03 2.731787860393524170e-01 5.262646079063415527e-01
-3.932514786720275879e-02 1.868079155683517456e-01 8.861493319272994995e-03
-1.799412257969379425e-02 3.424272537231445312e-01 -3.801435232162475586e-01
4.126682505011558533e-02 1.945120990276336670e-01 3.188702464103698730e-01
-4.701699316501617432e-02 3.192398846149444580e-01 -4.134152829647064209e-01
-3.838859871029853821e-02 2.111927568912506104e-01 -2.251723110675811768e-01
7.320063561201095581e-02 2.686354815959930420e-01 -2.913094758987426758e-01
-1.015351489186286926e-01 2.522804737091064453e-01 5.478985607624053955e-02
5.226579681038856506e-02 3.319883048534393311e-01 1.125797331333160400e-01
8.931718021631240845e-02 3.007114231586456299e-01 -1.550201475620269775e-01
5.193766206502914429e-02 3.089652657508850098e-01 2.962309718132019043e-01
1.380659360438585281e-02 3.529453873634338379e-01 -2.773249149322509766e-01
6.553491950035095215e-02 2.273193001747131348e-01 -1.085183024406433105e-01
-3.859427571296691895e-02 2.867659926414489746e-01 4.285849332809448242e-01
6.033447757363319397e-02 2.139334231615066528e-01 -9.596567600965499878e-03
-3.240495920181274414e-02 3.359129726886749268e-01 7.161177694797515869e-02
-6.669256091117858887e-02 1.945978403091430664e-01 4.346698522567749023e-02
-7.316541671752929688e-02 2.063649743795394897e-01 3.960206806659698486e-01
5.966684594750404358e-02 2.208671420812606812e-01 -9.693104028701782227e-02
-1.927125826478004456e-02 3.314996361732482910e-01 1.723032295703887939e-01
-6.617430597543716431e-02 2.112187445163726807e-01 -1.365339308977127075e-01
-8.218435198068618774e-02 3.059666454792022705e-01 -3.331561014056205750e-02
4.661069437861442566e-02 3.267155587673187256e-01 1.873425543308258057e-01
-1.819701306521892548e-02 2.086107134819030762e-01 -2.273879945278167725e-01
-1.690294966101646423e-02 2.916215062141418457e-01 4.463129937648773193e-01
2.400686591863632202e-02 2.275792956352233887e-01 -3.051375150680541992e-01
4.690827801823616028e-02 3.462785482406616211e-01 -8.684387803077697754e-02
-9.473325312137603760e-02 2.783491015434265137e-01 -1.270404458045959473e-01
-9.890621155500411987e-02 2.336125969886779785e-01 4.660143330693244934e-02
-8.481098711490631104e-02 3.000741004943847656e-01 2.890150435268878937e-02
6.718339771032333374e-02 2.192375361919403076e-01 3.109036982059478760e-01
-1.929139345884323120e-02 3.480689525604248047e-01 -8.294676244258880615e-02
-9.605472534894943237e-02 2.254644036293029785e-01 1.879024058580398560e-01
-8.507113158702850342e-02 2.809955179691314697e-01 -2.585989832878112793e-01
-2.053292840719223022e-02 1.779996454715728760e-01 1.370063871145248413e-01
-3.552422672510147095e-02 3.300323188304901123e-01 1.304247826337814331e-01
-3.717197477817535400e-02 1.780575066804885864e-01 1.943512856960296631e-01
8.316506445407867432e-02 2.351915240287780762e-01 1.147982925176620483e-01
8.712637424468994141e-02 2.994163930416107178e-01 1.083062589168548584e-01
-8.634401112794876099e-02 2.955373823642730713e-01 6.800147891044616699e-02
2.607131749391555786e-02 2.248548120260238647e-01 5.582169294357299805e-01
8.130970597267150879e-02 3.151357769966125488e-01 4.600884392857551575e-02
3.625744581222534180e-02 3.117023110389709473e-01 3.236777186393737793e-01
-5.123928189277648926e-02 3.349330723285675049e-01 -1.072435081005096436e-01
-2.313267067074775696e-02 1.797764301300048828e-01 9.578001499176025391e-02
-4.792020097374916077e-02 2.557936012744903564e-01 5.105790495872497559e-01
5.830420553684234619e-02 3.273691236972808838e-01 -3.711916506290435791e-01
4.985409975051879883e-02 2.260901182889938354e-01 -2.036719024181365967e-01
5.317538231611251831e-02 2.008724510669708252e-01 2.345459312200546265e-01
-4.868791252374649048e-02 1.896225214004516602e-01 4.338411986827850342e-01
-8.409177884459495544e-03 1.791476011276245117e-01 3.826803267002105713e-01
-3.133923187851905823e-02 3.158708512783050537e-01 -4.814461469650268555e-01
-3.100465238094329834e-02 1.875060200691223145e-01 -1.888554543256759644e-02
8.447993546724319458e-02 2.803632616996765137e-01 2.332229167222976685e-01
-6.196887046098709106e-02 1.986273229122161865e-01 4.295732080936431885e-01
-1.236435957252979279e-03 2.043281793594360352e-01 -1.880953162908554077e-01
-7.373458147048950195e-02 2.647050023078918457e-01 -3.342412412166595459e-01
-3.170758485794067383e-02 1.776968389749526978e-01 3.292431235313415527e-01
7.415220886468887329e-02 2.863740622997283936e-01 2.975876629352569580e-01
1.880710199475288391e-02 1.825988292694091797e-01 1.913985610008239746e-01
-7.597624510526657104e-02 2.244202643632888794e-01 -1.732825338840484619e-01
-3.256982192397117615e-02 1.783910095691680908e-01 1.521280407905578613e-01
5.555149540305137634e-02 2.397242933511734009e-01 -2.627420723438262939e-01
6.335986405611038208e-02 2.114559262990951538e-01 2.698540091514587402e-01
7.902428507804870605e-02 3.019062280654907227e-01 1.851167231798171997e-01
-9.179535508155822754e-02 2.180254757404327393e-01 2.349955737590789795e-01
-1.358905714005231857e-02 3.504625558853149414e-01 -2.585261762142181396e-01
6.215406581759452820e-02 3.282266557216644287e-01 9.486682713031768799e-02
-4.093886911869049072e-02 2.605309784412384033e-01 5.166159868240356445e-01
-5.010533705353736877e-02 2.904166579246520996e-01 3.755604326725006104e-01
6.677681207656860352e-02 3.344782888889312744e-01 -4.967063292860984802e-02
-3.804354742169380188e-02 3.306421935558319092e-01 1.106990575790405273e-01
-6.512112915515899658e-02 2.471022009849548340e-01 4.683604240417480469e-01
2.930652350187301636e-02 3.373682498931884766e-01 1.317479163408279419e-01
-4.345511272549629211e-02 3.322212696075439453e-01 -3.483530282974243164e-01
-8.524375408887863159e-02 3.022727668285369873e-01 -8.874018490314483643e-02
7.827986031770706177e-02 2.295924872159957886e-01 2.201833724975585938e-01
-7.501307129859924316e-02 3.062905967235565186e-01 -2.707832157611846924e-01
-2.659086510539054871e-02 1.901993900537490845e-01 4.964799880981445312e-01
-2.635874599218368530e-02 1.889388263225555420e-01 4.883916676044464111e-01
9.416417777538299561e-02 2.841810882091522217e-01 -5.696433410048484802e-02
-2.707279101014137268e-02 1.896337419748306274e-01 -5.024795606732368469e-02
2.788564935326576233e-02 2.094100415706634521e-01 -1.660410463809967041e-01
-4.649461805820465088e-02 3.134324252605438232e-01 2.399493604898452759e-01
3.725177794694900513e-02 3.384047150611877441e-01 -4.047315716743469238e-01
-7.081099599599838257e-02 2.273453176021575928e-01 -2.188765108585357666e-01
3.472482413053512573e-02 3.364230096340179443e-01 -4.247153103351593018e-01
1.584620028734207153e-02 2.732408344745635986e-01 5.194316506385803223e-01
-2.628972381353378296e-02 1.801104843616485596e-01 3.983814120292663574e-01
8.353111892938613892e-02 2.658010423183441162e-01 -1.931509375572204590e-01
7.337217777967453003e-02 2.794928252696990967e-01 3.258124887943267822e-01
-7.429021596908569336e-02 3.023178279399871826e-01 -3.008487820625305176e-01
-2.725708531215786934e-03 1.938030868768692017e-01 5.186696648597717285e-01
3.049930930137634277e-02 3.453340530395507812e-01 -3.676986098289489746e-01
1.879260409623384476e-03 3.512233793735504150e-01 -3.123790621757507324e-01
4.742470569908618927e-03 1.938353180885314941e-01 -8.002322912216186523e-02
4.344220086932182312e-02 2.950415611267089844e-01 3.937158882617950439e-01
5.889131873846054077e-02 2.053683251142501831e-01 1.816974878311157227e-01
-1.896278746426105499e-02 1.759627014398574829e-01 2.222734838724136353e-01
-7.999274879693984985e-02 2.087651342153549194e-01 3.472217619419097900e-01
-7.240601629018783569e-02 2.129810750484466553e-01 4.267284870147705078e-01
9.185584634542465210e-02 2.672539949417114258e-01 -7.307872176170349121e-02
-2.628179732710123062e-03 3.519982993602752686e-01 -2.788060009479522705e-01
-6.924460083246231079e-02 1.906687915325164795e-01 2.396511882543563843e-01
9.225232899188995361e-02 2.599062323570251465e-01 5.596412345767021179e-03
-1.241291966289281845e-02 1.784789264202117920e-01 3.750693500041961670e-01
-9.318391233682632446e-02 2.785078585147857666e-01 1.287089288234710693e-01
-5.330822616815567017e-02 1.844145953655242920e-01 3.388229310512542725e-01
2.827421203255653381e-02 2.606707513332366943e-01 5.339581370353698730e-01
-7.094585895538330078e-02 3.180635869503021240e-01 -3.118883445858955383e-02
-2.281218394637107849e-02 3.322844505310058594e-01 1.541742831468582153e-01
7.395991124212741852e-04 3.464087247848510742e-01 2.824762836098670959e-02
-8.882462978363037109e-02 2.244901359081268311e-01 -6.728586554527282715e-02
-9.710944443941116333e-02 2.528414428234100342e-01 2.044462859630584717e-01
-9.553729742765426636e-02 2.347522228956222534e-01 -4.880191758275032043e-02
7.059534080326557159e-03 3.526644706726074219e-01 -1.000111103057861328e-01
-9.581677615642547607e-03 2.131440490484237671e-01 5.846830606460571289e-01
-9.404466301202774048e-02 2.530850470066070557e-01 -1.483990252017974854e-01
-9.093734622001647949e-02 2.911242544651031494e-01 1.954973116517066956e-02
7.924260199069976807e-02 3.095332682132720947e-01 -2.745915949344635010e-01
-8.059562742710113525e-02 2.111722677946090698e-01 3.544019460678100586e-01
-1.354239694774150848e-02 3.084149956703186035e-01 3.614914417266845703e-01
-1.996350660920143127e-02 3.337422907352447510e-01 1.468554884195327759e-01
-6.189597025513648987e-02 2.508096694946289062e-01 4.746892452239990234e-01
-4.320546984672546387e-02 2.948473095893859863e-01 3.752401173114776611e-01
-8.097528666257858276e-02 3.082577288150787354e-01 -9.604185819625854492e-02
-7.264842838048934937e-02 3.173808455467224121e-01 -6.511680781841278076e-02
-8.573041111230850220e-02 2.748741209506988525e-01 2.483847886323928833e-01
4.341210797429084778e-02 2.022130787372589111e-01 4.029747247695922852e-01
-8.857147395610809326e-02 2.320881783962249756e-01 -1.208517998456954956e-01
-3.596989437937736511e-02 3.259757161140441895e-01 -4.306917786598205566e-01
5.664666369557380676e-02 2.221839725971221924e-01 4.277009665966033936e-01
-3.470332175493240356e-02 3.423106968402862549e-01 -6.689994037151336670e-02
2.836146857589483261e-03 2.014273703098297119e-01 -1.582454442977905273e-01
-9.299305826425552368e-02 2.649370729923248291e-01 2.188121229410171509e-01
-6.536867469549179077e-02 2.116544991731643677e-01 -1.438930779695510864e-01
6.478003412485122681e-02 2.474616765975952148e-01 -2.541333734989166260e-01
8.790890872478485107e-02 3.090449571609497070e-01 -1.191725730895996094e-01
-9.839060157537460327e-02 2.429537028074264526e-01 1.949596703052520752e-01
8.585321903228759766e-02 2.732240259647369385e-01 2.360670417547225952e-01
-2.535380423069000244e-02 1.843615323305130005e-01 4.520664811134338379e-01
-5.680168047547340393e-03 3.407393395900726318e-01 -4.251767098903656006e-01
1.770379021763801575e-02 2.049882560968399048e-01 -1.589100658893585205e-01
-5.277701467275619507e-02 1.950569003820419312e-01 4.550200700759887695e-01
2.868193201720714569e-03 2.244751304388046265e-01 -3.213436901569366455e-01
8.970013260841369629e-02 2.496951073408126831e-01 7.036167383193969727e-02
-2.860890701413154602e-02 2.596384882926940918e-01 -4.594198465347290039e-01
-1.000945083796977997e-02 3.296921849250793457e-01 2.086907923221588135e-01
-9.718781709671020508e-02 2.685073912143707275e-01 -1.076456755399703979e-01
6.342064589262008667e-02 2.423624843358993530e-01 4.279088973999023438e-01
-2.413594722747802734e-02 2.760100662708282471e-01 -4.999860525131225586e-01
-6.343704648315906525e-03 1.886323690414428711e-01 4.892434477806091309e-01
-7.596237212419509888e-02 2.587012052536010742e-01 -3.102250099182128906e-01
8.224761486053466797e-02 3.166663050651550293e-01 -1.885914802551269531e-01
-4.691766574978828430e-02 3.303693234920501709e-01 -3.409776091575622559e-01
7.987513393163681030e-02 2.296871393918991089e-01 1.200235337018966675e-01
2.872607484459877014e-02 2.644285857677459717e-01 5.253472328186035156e-01
-3.484321385622024536e-02 1.798790097236633301e-01 1.196113675832748413e-01
4.126937128603458405e-03 3.521189093589782715e-01 -2.955927252769470215e-01
6.629012525081634521e-02 3.274948894977569580e-01 -3.124916255474090576e-01
-3.308775275945663452e-02 3.448566496372222900e-01 -1.602432280778884888e-01
-4.276596382260322571e-02 2.182445228099822998e-01 -2.623193264007568359e-01
9.140881896018981934e-02 2.715601623058319092e-01 -1.048983186483383179e-01
-5.623034015297889709e-02 2.773736119270324707e-01 4.138872325420379639e-01
-4.904187098145484924e-02 1.962666213512420654e-01 -7.430800795555114746e-02
-6.444831937551498413e-02 2.778754234313964844e-01 -3.956273794174194336e-01
-2.871779352426528931e-02 3.428096771240234375e-01 -2.276637777686119080e-02
-5.208045244216918945e-02 2.317485511302947998e-01 -3.122228384017944336e-01
-5.317837372422218323e-02 2.342395186424255371e-01 5.276610851287841797e-01
1.204858999699354172e-04 2.011787295341491699e-01 5.492123961448669434e-01
-3.466223552823066711e-02 2.111537903547286987e-01 -2.309984266757965088e-01
6.764338910579681396e-02 3.005622327327728271e-01 -3.760521709918975830e-01
-6.268429756164550781e-02 3.085353076457977295e-01 1.914894133806228638e-01
-4.049140214920043945e-02 3.381109237670898438e-01 -2.973777055740356445e-01
-2.855741232633590698e-02 3.458948731422424316e-01 -1.100140959024429321e-01
-5.277493596076965332e-02 2.728972434997558594e-01 -4.349693059921264648e-01
3.918642923235893250e-02 2.530824840068817139e-01 -3.889360129833221436e-01
8.669498562812805176e-02 2.713986635208129883e-01 2.292058020830154419e-01
3.452974185347557068e-02 3.501678705215454102e-01 -9.509070217609405518e-02
7.300365716218948364e-02 2.207247018814086914e-01 2.042338550090789795e-01
-7.682295143604278564e-02 2.572812438011169434e-01 -3.020295500755310059e-01
-9.561504423618316650e-02 2.222816646099090576e-01 1.085338145494461060e-01
-9.777434170246124268e-03 3.360360860824584961e-01 1.458478122949600220e-01
1.820318773388862610e-02 2.344187647104263306e-01 -3.540406823158264160e-01
1.436186674982309341e-02 3.231710791587829590e-01 2.745765149593353271e-01
9.280638769268989563e-03 2.371972203254699707e-01 -3.803964853286743164e-01
4.820010811090469360e-02 2.953149676322937012e-01 3.790434002876281738e-01
5.079643428325653076e-02 2.459167838096618652e-01 4.897469878196716309e-01
-6.740784645080566406e-02 2.622228264808654785e-01 -3.611941933631896973e-01
-7.181864976882934570e-02 2.950613200664520264e-01 2.354195266962051392e-01
5.902232602238655090e-02 3.396734595298767090e-01 -5.653348937630653381e-02
-1.044478826224803925e-02 2.292434722185134888e-01 -3.534798324108123779e-01
8.389939367771148682e-02 3.101400732994079590e-01 -2.105495631694793701e-01
1.730230078101158142e-02 2.346417009830474854e-01 5.789287090301513672e-01
8.151263929903507233e-03 3.448027372360229492e-01 5.899418890476226807e-02
2.960992231965065002e-02 3.523669242858886719e-01 -1.543499976396560669e-01
-2.001145482063293457e-02 1.762607395648956299e-01 3.100580573081970215e-01
8.148608356714248657e-02 2.394374907016754150e-01 2.489551752805709839e-01
6.928779184818267822e-02 2.695985436439514160e-01 -3.195098936557769775e-01
9.484353661537170410e-02 2.784169316291809082e-01 7.692480459809303284e-03
-9.547933191061019897e-02 2.542369961738586426e-01 -1.318424493074417114e-01
-2.810482401400804520e-03 3.530579209327697754e-01 -1.631800979375839233e-01
-6.909112632274627686e-02 1.933379173278808594e-01 3.202041387557983398e-01
-1.513223536312580109e-02 1.769901216030120850e-01 3.392046689987182617e-01
6.125753745436668396e-02 2.160605639219284058e-01 -2.795394882559776306e-02
-7.808378338813781738e-02 2.127714753150939941e-01 3.843959867954254150e-01
-4.373493790626525879e-02 2.659223079681396484e-01 -4.474920332431793213e-01
9.458092600107192993e-02 2.797445654869079590e-01 -3.213812783360481262e-02
5.354331061244010925e-02 3.409043550491333008e-01 -2.918504476547241211e-01
-9.137084335088729858e-02 2.187450677156448364e-01 2.620403841137886047e-02
-3.919535875320434570e-02 3.394918143749237061e-01 -4.319875314831733704e-02
-5.184018611907958984e-02 3.225158452987670898e-01 1.237844675779342651e-01
-9.292993694543838501e-02 2.631321847438812256e-01 2.277898788452148438e-01
9.287828207015991211e-02 2.609732747077941895e-01 7.164347171783447266e-02
-7.018389552831649780e-02 1.930525898933410645e-01 2.982735037803649902e-01
7.853975147008895874e-02 2.731229960918426514e-01 -2.654828429222106934e-01
3.645002841949462891e-03 3.440812230110168457e-01 6.640918552875518799e-02
-6.003029644489288330e-02 2.137071788311004639e-01 -1.823035180568695068e-01
7.473257929086685181e-02 2.338840216398239136e-01 -7.559546828269958496e-02
8.483427017927169800e-02 2.387067824602127075e-01 7.765725255012512207e-02
5.542831495404243469e-02 2.025547623634338379e-01 2.218572348356246948e-01
6.695845723152160645e-02 3.187885880470275879e-01 -3.507108390331268311e-01
6.587747484445571899e-02 2.124645859003067017e-01 1.280473917722702026e-01
-5.700306594371795654e-02 3.257625102996826172e-01 -2.981132864952087402e-01
5.523147806525230408e-02 3.432681858539581299e-01 -2.140066474676132202e-01
5.179701372981071472e-02 2.570721507072448730e-01 -3.613117337226867676e-01
-7.975832372903823853e-02 2.873879373073577881e-01 2.258582562208175659e-01
-5.369544029235839844e-02 1.841640174388885498e-01 1.342252194881439209e-01
-5.262158811092376709e-02 3.344470262527465820e-01 -1.487751603126525879e-01
-1.035009138286113739e-02 3.519105017185211182e-01 -2.097154855728149414e-01
2.757681161165237427e-02 2.811661064624786377e-01 4.802309274673461914e-01
6.585038453340530396e-02 2.364093214273452759e-01 -1.792358011007308960e-01
2.192706614732742310e-02 2.157815545797348022e-01 5.537723898887634277e-01
5.746360868215560913e-02 3.194942474365234375e-01 -4.048118591308593750e-01
1.853867247700691223e-02 2.061241120100021362e-01 -1.665999591350555420e-01
4.099221527576446533e-02 3.200583457946777344e-01 2.572291493415832520e-01
4.009301587939262390e-02 1.942568421363830566e-01 1.042063087224960327e-01
6.902597099542617798e-02 3.169297873973846436e-01 1.553082913160324097e-01
-3.324316069483757019e-02 1.803808510303497314e-01 1.023899763822555542e-01
3.472231701016426086e-02 3.514109253883361816e-01 -1.637009829282760620e-01
-5.520146340131759644e-02 2.612432837486267090e-01 4.739208519458770752e-01
-1.178824715316295624e-02 1.767475605010986328e-01 3.250479996204376221e-01
4.205556958913803101e-02 2.083913981914520264e-01 -9.215517342090606689e-02
4.356971010565757751e-02 2.932842075824737549e-01 -4.728481173515319824e-01
-9.694939106702804565e-02 2.640605866909027100e-01 1.617270410060882568e-01
-2.135547995567321777e-02 3.487173318862915039e-01 -2.378638088703155518e-01
-8.618664741516113281e-02 2.894785702228546143e-01 1.393009871244430542e-01
-4.458066076040267944e-02 2.392750233411788940e-01 -3.639059066772460938e-01
2.292576804757118225e-02 3.519088029861450195e-01 -2.864299416542053223e-01
-8.397965133190155029e-02 2.385662496089935303e-01 3.705842792987823486e-01
2.340422570705413818e-02 2.765560448169708252e-01 -4.921856522560119629e-01
-7.931297272443771362e-02 2.020455598831176758e-01 2.959754168987274170e-01
-2.285446226596832275e-02 3.445308804512023926e-01 -3.312332034111022949e-01
-1.003431528806686401e-01 2.594577074050903320e-01 9.940463304519653320e-02
7.789935171604156494e-02 2.670232653617858887e-01 -2.505661547183990479e-01
-9.856591373682022095e-02 2.398291826248168945e-01 -2.147694304585456848e-02
1.399099547415971756e-02 3.541338145732879639e-01 -2.059312611818313599e-01
-1.337824761867523193e-02 1.955248564481735229e-01 -1.177749931812286377e-01
-4.623029381036758423e-02 3.219276666641235352e-01 1.641800254583358765e-01
-5.716781318187713623e-02 2.708556056022644043e-01 -4.172845482826232910e-01
-3.322557359933853149e-02 2.011062949895858765e-01 -1.563108414411544800e-01
8.459415286779403687e-02 2.706466317176818848e-01 -2.003830522298812866e-01
7.454096525907516479e-02 2.581323385238647461e-01 -2.403741180896759033e-01
2.453439682722091675e-02 3.305884599685668945e-01 -4.731846451759338379e-01
4.524033516645431519e-02 3.440284729003906250e-01 -1.746575161814689636e-02
9.105427563190460205e-02 2.860889136791229248e-01 1.227785497903823853e-01
4.581594467163085938e-02 3.052316904067993164e-01 3.370702266693115234e-01
1.750740408897399902e-02 2.808072865009307861e-01 4.937372207641601562e-01
-1.025437656790018082e-02 3.481990993022918701e-01 -3.330922722816467285e-01
-3.438567742705345154e-02 1.828675717115402222e-01 4.178572595119476318e-01
7.986117154359817505e-02 2.396554946899414062e-01 2.761717140674591064e-01
7.418623566627502441e-02 2.231547832489013672e-01 2.243040949106216431e-01
-9.281337261199951172e-02 2.889284789562225342e-01 -5.292557552456855774e-02
1.791994646191596985e-02 3.492310643196105957e-01 -1.644372567534446716e-02
-1.865707710385322571e-02 3.480297625064849854e-01 -2.909353077411651611e-01
8.393217809498310089e-03 2.331449687480926514e-01 -3.618404865264892578e-01
4.201531782746315002e-02 3.481010794639587402e-01 -2.608134746551513672e-01
-7.581645250320434570e-02 2.174916714429855347e-01 -1.280128955841064453e-01
-6.011676788330078125e-02 2.077356427907943726e-01 -1.369371712207794189e-01
-8.677072077989578247e-02 2.263838499784469604e-01 -1.027671098709106445e-01
-4.335571452975273132e-02 3.369084596633911133e-01 -2.869395166635513306e-02
3.077927231788635254e-02 3.271538913249969482e-01 -4.736589193344116211e-01
4.911322146654129028e-02 3.444719314575195312e-01 -5.906307324767112732e-02
-1.815114170312881470e-02 3.470336496829986572e-01 -4.638048633933067322e-02
-8.809451013803482056e-02 2.095552235841751099e-01 2.121064811944961548e-01
7.879152894020080566e-02 2.290885597467422485e-01 7.229012250900268555e-02
-5.190203711390495300e-02 3.116897344589233398e-01 2.284785062074661255e-01
-9.324494749307632446e-02 2.186575829982757568e-01 1.995977610349655151e-01
4.936807975172996521e-02 2.076675146818161011e-01 -3.310360386967658997e-02
3.224552795290946960e-02 1.880064606666564941e-01 1.904854774475097656e-01
-9.145765006542205811e-02 2.884617149829864502e-01 -1.320714652538299561e-01
6.397241353988647461e-02 2.134921252727508545e-01 4.921794682741165161e-02
1.621111109852790833e-02 1.970575451850891113e-01 -8.562356233596801758e-02
-9.197797626256942749e-02 2.903956174850463867e-01 -1.634058728814125061e-02
9.036656469106674194e-02 2.592499256134033203e-01 -5.228260532021522522e-02
9.340985678136348724e-03 3.509801924228668213e-01 -3.252031505107879639e-01
7.560914754867553711e-02 2.319702506065368652e-01 2.936418354511260986e-01
-3.310648724436759949e-02 2.950622737407684326e-01 4.014976024627685547e-01
-8.956243097782135010e-02 2.445923984050750732e-01 -1.705237030982971191e-01
-9.359034895896911621e-02 2.818388342857360840e-01 -1.332246363162994385e-01
-7.495634257793426514e-02 3.132120966911315918e-01 -1.968159526586532593e-01
-3.960932046175003052e-02 2.015699446201324463e-01 -1.491091400384902954e-01
7.570125162601470947e-02 3.037348687648773193e-01 -3.190082013607025146e-01
-6.683783978223800659e-02 2.795984447002410889e-01 3.565143048763275146e-01
-5.121585726737976074e-02 2.746984362602233887e-01 4.425146877765655518e-01
8.586922287940979004e-02 2.413135468959808350e-01 5.553209036588668823e-02
-3.690202161669731140e-02 2.819750905036926270e-01 -4.871176481246948242e-01
3.310052677989006042e-02 1.890325546264648438e-01 3.016399741172790527e-01
-9.314941614866256714e-02 2.763379216194152832e-01 -1.656834930181503296e-01
1.350833754986524582e-02 2.316936403512954712e-01 5.840902924537658691e-01
-5.413221567869186401e-02 3.318548202514648438e-01 -2.370762526988983154e-01
