-2.947280406951904297e-01 -6.530632078647613525e-02 5.338174477219581604e-02
-2.961932122707366943e-01 4.663477465510368347e-02 -6.194382160902023315e-02
-2.351811826229095459e-01 -5.273520946502685547e-04 4.750386252999305725e-02
-3.017085194587707520e-01 7.194899767637252808e-02 1.977405510842800140e-03
-2.994533181190490723e-01 -4.681025445461273193e-02 9.319996088743209839e-02
-2.838151454925537109e-01 7.492003589868545532e-02 -5.163823813199996948e-02
-3.299835920333862305e-01 -6.653156876564025879e-02 1.162833161652088165e-02
-2.716949880123138428e-01 -3.684829920530319214e-02 -5.621410906314849854e-02
-2.674170434474945068e-01 -4.278624057769775391e-02 -3.978204727172851562e-02
-2.913022041320800781e-01 6.605001538991928101e-02 -4.955825954675674438e-02
-3.329661190509796143e-01 2.086984924972057343e-02 3.567313030362129211e-02
-2.835262715816497803e-01 9.050702303647994995e-02 -1.325471326708793640e-02
-2.162570953369140625e-01 1.872507669031620026e-02 -4.587076604366302490e-03
-3.336993157863616943e-01 -2.131974138319492340e-02 -1.929073408246040344e-02
-3.256862759590148926e-01 -1.459547691047191620e-02 1.027849167585372925e-01
-3.108474016189575195e-01 3.429422900080680847e-02 -4.437626525759696960e-02
-3.272893428802490234e-01 3.301204368472099304e-02 2.534702233970165253e-02
-2.405589222908020020e-01 -6.457153707742691040e-03 -6.293086707592010498e-02
-2.941277921199798584e-01 7.272072136402130127e-02 6.451745331287384033e-02
-3.365811705589294434e-01 3.507977351546287537e-03 6.921870633959770203e-03
-2.064449042081832886e-01 4.435459151864051819e-02 -2.192221581935882568e-02
-2.498897612094879150e-01 1.368956640362739563e-03 8.185697346925735474e-02
-2.651532292366027832e-01 1.009399443864822388e-01 -3.666329756379127502e-02
-2.285669595003128052e-01 9.291923046112060547e-02 5.346731841564178467e-02
-2.681048512458801270e-01 1.043944284319877625e-01 2.200310677289962769e-02
-3.369574248790740967e-01 -5.443684011697769165e-02 6.637630052864551544e-03
-3.422571420669555664e-01 -5.054156482219696045e-02 2.542097680270671844e-02
-2.486296296119689941e-01 -2.832168154418468475e-02 3.303609788417816162e-02
-2.025729268789291382e-01 8.810713142156600952e-02 -9.357636794447898865e-03
-3.162480890750885010e-01 4.418341070413589478e-02 6.889054924249649048e-02
-2.972536981105804443e-01 7.312376797199249268e-02 -1.814316771924495697e-02
-2.354336380958557129e-01 1.146606579422950745e-01 2.162891998887062073e-02
-3.120300173759460449e-01 1.867212541401386261e-02 1.053883135318756104e-01
-2.807179391384124756e-01 -6.206312030553817749e-02 1.809359714388847351e-02
-3.062525391578674316e-01 -7.007775455713272095e-02 5.336042121052742004e-02
-2.657392919063568115e-01 4.711788892745971680e-02 -9.341056644916534424e-02
-2.752106189727783203e-01 8.030686527490615845e-02 7.635501027107238770e-02
-3.176366090774536133e-01 -4.951987415552139282e-02 -3.420675173401832581e-02
-3.260626196861267090e-01 -3.984734416007995605e-02 -3.037236630916595459e-02
-2.797422707080841064e-01 -4.478812962770462036e-02 7.599543035030364990e-02
-2.240500450134277344e-01 6.605831906199455261e-03 -3.943115100264549255e-02
-2.320458590984344482e-01 1.192395240068435669e-01 -8.543986827135086060e-03
-2.590959668159484863e-01 1.101706996560096741e-01 1.644655503332614899e-02
-2.613606452941894531e-01 1.093599796295166016e-01 -8.829537779092788696e-03
-3.422255516052246094e-01 -2.145791240036487579e-02 6.747317314147949219e-02
-2.556449770927429199e-01 9.270982444286346436e-02 -6.707385182380676270e-02
-2.194699645042419434e-01 1.135561466217041016e-01 -3.942873328924179077e-02
-2.046980559825897217e-01 6.591263413429260254e-02 -5.068518966436386108e-02
-2.551684677600860596e-01 1.118364483118057251e-01 -1.888909935951232910e-02
-2.314734309911727905e-01 1.023852527141571045e-01 4.527807235717773438e-02
-3.186979293823242188e-01 -6.143237650394439697e-02 -1.758029125630855560e-02
-3.142210245132446289e-01 5.139807239174842834e-03 -5.479203909635543823e-02
-2.546587884426116943e-01 -3.965785354375839233e-02 -2.371149137616157532e-03
-3.404601514339447021e-01 -3.863801807165145874e-02 7.481534779071807861e-02
-3.153495788574218750e-01 4.996485263109207153e-02 -3.371836617588996887e-03
-3.327397704124450684e-01 2.048434130847454071e-02 2.331945858895778656e-02
-2.407476902008056641e-01 1.137292012572288513e-03 -7.338242232799530029e-02
-2.378530353307723999e-01 9.274783730506896973e-02 -7.751612365245819092e-02
-2.346968948841094971e-01 4.920454695820808411e-02 7.796742022037506104e-02
-2.562194466590881348e-01 2.831668592989444733e-02 -9.729215502738952637e-02
-3.044387102127075195e-01 2.916306257247924805e-02 1.057179793715476990e-01
-2.756039202213287354e-01 -1.138267107307910919e-02 -8.255065977573394775e-02
-2.485286444425582886e-01 1.152286902070045471e-01 9.905574843287467957e-03
-2.051028162240982056e-01 1.007699146866798401e-01 -2.279334142804145813e-02
-2.928758859634399414e-01 -2.902584709227085114e-02 -6.768869608640670776e-02
-3.275900185108184814e-01 2.066611684858798981e-02 -1.016707532107830048e-02
-3.439371585845947266e-01 -1.640173234045505524e-02 3.820286318659782410e-02
-3.451987504959106445e-01 -3.524082154035568237e-02 4.831154644489288330e-02
-2.466327697038650513e-01 -3.038569726049900055e-02 -9.043321013450622559e-03
-2.075792849063873291e-01 9.089788794517517090e-02 -5.623688548803329468e-02
-2.986546754837036133e-01 5.164420604705810547e-02 9.159297496080398560e-02
-3.199037611484527588e-01 9.227203205227851868e-03 1.019178330898284912e-01
-2.751666605472564697e-01 -5.081687867641448975e-02 -3.160474076867103577e-02
-2.379021644592285156e-01 -1.389479450881481171e-02 -4.003001749515533447e-02
-2.145481109619140625e-01 6.780999898910522461e-02 -7.669179886579513550e-02
-2.423990070819854736e-01 -1.427720673382282257e-02 4.578920081257820129e-02
-2.964500784873962402e-01 -6.123101338744163513e-03 1.156156063079833984e-01
-3.275247216224670410e-01 -6.148538738489151001e-02 7.440587878227233887e-02
-2.863559722900390625e-01 8.960319310426712036e-02 -1.931674778461456299e-04
-2.423615306615829468e-01 4.025343060493469238e-02 8.725215494632720947e-02
-2.180540263652801514e-01 1.155638173222541809e-01 -8.534738793969154358e-03
-2.166298031806945801e-01 3.224302828311920166e-02 -6.136578321456909180e-02
-2.153192758560180664e-01 5.049530789256095886e-02 -7.354959100484848022e-02
-2.080999165773391724e-01 5.946104973554611206e-02 -6.020193547010421753e-02
-2.996401786804199219e-01 -3.180022537708282471e-02 1.062569916248321533e-01
-3.258307874202728271e-01 -9.878786280751228333e-03 -3.648762032389640808e-02
-3.398633599281311035e-01 -1.930439285933971405e-02 1.798535697162151337e-03
-3.124572336673736572e-01 -1.561445556581020355e-02 1.121969670057296753e-01
-2.850803732872009277e-01 8.898483961820602417e-02 3.832561522722244263e-02
-2.889374196529388428e-01 2.123521082103252411e-02 -8.283154666423797607e-02
-2.380849123001098633e-01 6.913919001817703247e-02 7.831815630197525024e-02
-2.377837449312210083e-01 1.130241528153419495e-01 -4.401014000177383423e-02
-2.413859516382217407e-01 -1.825513876974582672e-02 3.228258341550827026e-02
-3.328466415405273438e-01 -3.722316771745681763e-02 -1.845625601708889008e-02
-3.213494718074798584e-01 4.435834661126136780e-02 2.542346902191638947e-02
-3.193684518337249756e-01 -4.994548857212066650e-02 9.337574988603591919e-02
-2.743443548679351807e-01 -2.484655193984508514e-02 9.339056164026260376e-02
-2.854272425174713135e-01 8.574885129928588867e-02 -2.400673553347587585e-02
-2.041088640689849854e-01 5.675493180751800537e-02 -3.664254769682884216e-02
-2.265023738145828247e-01 3.316741064190864563e-02 5.905739217996597290e-02
-2.307472527027130127e-01 -6.472876295447349548e-03 -3.043060749769210815e-02
-2.256909608840942383e-01 5.193257331848144531e-02 -8.843518793582916260e-02
-2.884266972541809082e-01 -2.482948824763298035e-03 -8.220225572586059570e-02
-2.419368773698806763e-01 1.781766489148139954e-02 7.977284491062164307e-02
-2.063319534063339233e-01 9.353748708963394165e-02 6.800219416618347168e-03
-2.659024000167846680e-01 -4.231752455234527588e-02 5.294208228588104248e-02
-2.454413473606109619e-01 1.082637384533882141e-01 3.986285254359245300e-02
-3.256993591785430908e-01 -2.184052020311355591e-03 9.960775077342987061e-02
-3.283743262290954590e-01 -5.371933430433273315e-02 8.437626808881759644e-02
-2.096471339464187622e-01 1.051363870501518250e-01 -4.109058901667594910e-02
-3.222995400428771973e-01 1.242619007825851440e-03 -4.092473909258842468e-02
-2.144360989332199097e-01 4.554324597120285034e-02 3.453928977251052856e-02
-3.237815499305725098e-01 -6.883011013269424438e-02 6.082608923316001892e-02
-2.826283276081085205e-01 4.703629761934280396e-02 -8.004739135503768921e-02
-2.652117311954498291e-01 2.442094311118125916e-02 1.069647073745727539e-01
-3.017044365406036377e-01 -7.165954262018203735e-02 3.613787889480590820e-02
-2.812225818634033203e-01 -4.062410444021224976e-03 1.112712696194648743e-01
-2.271525561809539795e-01 -2.717623487114906311e-03 -4.986121319234371185e-03
-3.167678713798522949e-01 3.758420050144195557e-02 7.970271259546279907e-02
-2.546727061271667480e-01 -1.343499682843685150e-02 -7.269738614559173584e-02
-3.412413895130157471e-01 -4.794930666685104370e-02 6.528162211179733276e-02
-2.710708975791931152e-01 -5.371510237455368042e-02 2.859782241284847260e-02
-2.648299932479858398e-01 1.076745241880416870e-01 2.269203774631023407e-03
-2.897019088268280029e-01 7.589576393365859985e-02 -3.627668321132659912e-02
-2.554346621036529541e-01 1.025217399001121521e-01 4.951719939708709717e-02
-3.058548569679260254e-01 5.298475921154022217e-02 -3.363066539168357849e-02
-2.632954716682434082e-01 -4.751434177160263062e-02 2.092878520488739014e-02
-2.701958417892456055e-01 3.575000166893005371e-02 -9.366121888160705566e-02
-2.059179395437240601e-01 4.933371767401695251e-02 -4.170011729001998901e-03
-2.552614212036132812e-01 2.779700793325901031e-02 9.948916733264923096e-02
-3.072655797004699707e-01 5.152639001607894897e-03 -6.512764841318130493e-02
-2.206409722566604614e-01 3.408199176192283630e-02 4.492503404617309570e-02
-2.169311940670013428e-01 3.105179965496063232e-02 2.956602722406387329e-02
-2.670899629592895508e-01 6.451336294412612915e-02 9.523978084325790405e-02
-2.774017155170440674e-01 8.590402454137802124e-02 -4.554139450192451477e-02
-3.318422436714172363e-01 2.053882926702499390e-02 5.565191805362701416e-02
-2.696709632873535156e-01 7.512655854225158691e-02 8.561775088310241699e-02
-3.096638619899749756e-01 6.267791986465454102e-02 1.850675791501998901e-02
-2.936846911907196045e-01 8.263806253671646118e-02 2.148328162729740143e-02
-2.016780227422714233e-01 6.991989165544509888e-02 -1.694290712475776672e-02
-2.499886900186538696e-01 7.103534042835235596e-02 -9.039340913295745850e-02
-2.232400774955749512e-01 5.345502495765686035e-02 5.955441296100616455e-02
-2.784681618213653564e-01 1.319052558392286301e-02 1.132822781801223755e-01
-2.904471158981323242e-01 5.836945772171020508e-02 -6.060813367366790771e-02
-2.158640027046203613e-01 6.343657523393630981e-02 4.486017674207687378e-02
-2.032400369644165039e-01 8.884447067975997925e-02 -4.096640646457672119e-02
-3.078918159008026123e-01 -2.792870439589023590e-02 -5.901801586151123047e-02
-2.034367322921752930e-01 7.990763336420059204e-02 2.291273791342973709e-03
-2.177121639251708984e-01 9.593209624290466309e-02 3.506413102149963379e-02
-3.006018698215484619e-01 5.536311864852905273e-02 -4.376341775059700012e-02
-2.599940598011016846e-01 9.684964269399642944e-02 -5.530902743339538574e-02
-2.305419892072677612e-01 1.105686724185943604e-01 -5.285808816552162170e-02
-2.244658023118972778e-01 1.524881273508071899e-02 -6.000550836324691772e-02
-3.385004401206970215e-01 -2.696309424936771393e-02 8.212798833847045898e-02
-3.130177259445190430e-01 -3.785550594329833984e-03 1.120668277144432068e-01
-2.837077379226684570e-01 9.489831514656543732e-03 -8.699875324964523315e-02
-2.415828257799148560e-01 -1.403120718896389008e-02 -5.130840837955474854e-02
-2.996066808700561523e-01 -1.995749957859516144e-02 1.122805401682853699e-01
-2.351221144199371338e-01 1.179850995540618896e-01 -2.551741898059844971e-02
-2.801193296909332275e-01 5.219310149550437927e-02 1.025970876216888428e-01
-2.863133549690246582e-01 8.317114412784576416e-02 5.556877702474594116e-02
-2.652882039546966553e-01 -5.013104528188705444e-02 9.442174807190895081e-03
-2.777754068374633789e-01 5.888780951499938965e-02 -7.781944423913955688e-02
-2.801451385021209717e-01 4.185277223587036133e-02 1.082903221249580383e-01
-3.163416385650634766e-01 -2.763772569596767426e-02 1.079861894249916077e-01
-2.845829129219055176e-01 -2.209692262113094330e-02 1.047578155994415283e-01
-2.328804433345794678e-01 1.438277866691350937e-02 5.956266820430755615e-02
-2.763448953628540039e-01 -5.717927962541580200e-02 -1.013254188001155853e-02
-2.143679261207580566e-01 1.032693535089492798e-01 -5.555664002895355225e-02
-2.945549190044403076e-01 -5.269864201545715332e-02 8.166662603616714478e-02
-2.778570652008056641e-01 -5.253563076257705688e-02 5.649688094854354858e-02
-3.227685987949371338e-01 -7.261846214532852173e-02 2.081195637583732605e-02
-3.115828037261962891e-01 -1.141579262912273407e-02 -5.989112704992294312e-02
-2.073150426149368286e-01 4.723896086215972900e-02 -4.388732090592384338e-02
-2.034712880849838257e-01 5.662401020526885986e-02 -2.396322041749954224e-02
-2.210524380207061768e-01 8.390592038631439209e-02 4.995840415358543396e-02
-2.095645219087600708e-01 8.249804377555847168e-02 -6.561332195997238159e-02
-3.017891645431518555e-01 7.325933873653411865e-02 2.001531608402729034e-02
-2.513303160667419434e-01 1.713387668132781982e-02 -9.334249049425125122e-02
-2.183866053819656372e-01 1.135683879256248474e-01 3.993480931967496872e-03
-3.411262631416320801e-01 -1.159780658781528473e-02 1.407962106168270111e-02
-2.249208986759185791e-01 9.828144311904907227e-02 -7.084155827760696411e-02
-2.088330388069152832e-01 6.568412482738494873e-02 2.511509321630001068e-02
-3.031908869743347168e-01 4.407930374145507812e-02 -5.133723095059394836e-02
-3.062437176704406738e-01 -6.743597239255905151e-02 -1.135128177702426910e-02
-2.631146013736724854e-01 9.592089056968688965e-02 5.851635336875915527e-02
-2.908249497413635254e-01 3.623853623867034912e-02 1.090952008962631226e-01
-2.885518670082092285e-01 -5.089829117059707642e-02 -4.323308169841766357e-02
-3.103232681751251221e-01 -4.298584908246994019e-02 -4.701097682118415833e-02
-2.212734818458557129e-01 8.128277026116847992e-03 -4.347654059529304504e-03
-2.350411266088485718e-01 1.413028500974178314e-02 -7.893986999988555908e-02
-3.386212885379791260e-01 -3.827588260173797607e-02 -2.224668860435485840e-03
-3.174775242805480957e-01 2.856811136007308960e-02 9.010194242000579834e-02
-3.195668458938598633e-01 4.377540946006774902e-02 5.583694577217102051e-02
-3.153967261314392090e-01 4.012344405055046082e-02 -2.490332722663879395e-02
-2.115139067173004150e-01 3.735475987195968628e-02 -4.958634451031684875e-02
-2.693026959896087646e-01 -4.959188401699066162e-02 4.109776765108108521e-02
-2.998828291893005371e-01 -7.053332030773162842e-02 5.639345385134220123e-03
-2.379000037908554077e-01 -1.877268217504024506e-02 5.650948733091354370e-03
-3.332452774047851562e-01 -1.225837506353855133e-02 9.072113037109375000e-02
-2.198920398950576782e-01 7.807950675487518311e-02 -8.143798261880874634e-02
-2.908462285995483398e-01 -6.628892570734024048e-02 3.932994604110717773e-02
-2.769167721271514893e-01 9.796740859746932983e-02 -5.782526917755603790e-03
-3.335251808166503906e-01 7.052724249660968781e-03 7.498651742935180664e-02
-2.503195703029632568e-01 -2.890249900519847870e-02 -3.785411641001701355e-02
-3.063452243804931641e-01 5.978854745626449585e-02 -1.834958046674728394e-02
-2.334412634372711182e-01 -8.384441956877708435e-03 2.328823879361152649e-02
-2.571728229522705078e-01 -3.414648771286010742e-02 4.808727279305458069e-02
-2.935010790824890137e-01 3.150763735175132751e-02 -7.510565221309661865e-02
-2.478983700275421143e-01 8.799760788679122925e-02 7.168938219547271729e-02
-3.087156116962432861e-01 3.531908616423606873e-02 9.659196436405181885e-02
-2.629625499248504639e-01 -1.462185569107532501e-02 8.825910091400146484e-02
-2.750089168548583984e-01 7.163795828819274902e-02 -6.994230300188064575e-02
-3.275175988674163818e-01 -3.337429463863372803e-02 9.882000088691711426e-02
-2.542625665664672852e-01 -3.811809420585632324e-02 1.961340941488742828e-02
-2.984936237335205078e-01 -5.985466390848159790e-02 7.287942618131637573e-02
-3.214418590068817139e-01 -7.252912968397140503e-02 4.714762046933174133e-02
-2.781656384468078613e-01 9.041223675012588501e-02 -3.319584950804710388e-02
-2.034578621387481689e-01 6.370813399553298950e-02 -2.690038643777370453e-03
-3.364060819149017334e-01 -1.153405942022800446e-02 -8.270191028714179993e-03
-2.337009906768798828e-01 -3.433149307966232300e-03 -5.228341370820999146e-02
-2.469779700040817261e-01 5.813010782003402710e-02 -9.618442505598068237e-02
-2.554134428501129150e-01 2.989407628774642944e-03 -8.747968822717666626e-02
-3.015614748001098633e-01 -9.781589731574058533e-03 -7.092507183551788330e-02
-2.842622995376586914e-01 6.876914203166961670e-02 8.505100011825561523e-02
-2.501462101936340332e-01 6.860537081956863403e-02 8.766744285821914673e-02
-8.803384900093078613e-01 1.323178783059120178e-02 5.879402905702590942e-02
-7.330840826034545898e-01 2.836893126368522644e-02 3.052223287522792816e-02
-7.952511906623840332e-01 9.276380762457847595e-03 -1.191537156701087952e-01
-8.222786188125610352e-01 4.922413080930709839e-02 2.571592628955841064e-01
-7.555545568466186523e-01 3.012733906507492065e-02 2.362162619829177856e-01
-8.891248703002929688e-01 3.079843893647193909e-02 -1.617904156446456909e-01
-7.947274446487426758e-01 6.646388024091720581e-02 -2.228396385908126831e-01
-7.460840940475463867e-01 2.251883782446384430e-02 -5.013500154018402100e-02
-7.871751785278320312e-01 7.295012474060058594e-02 4.265614598989486694e-02
-8.495612144470214844e-01 4.121155664324760437e-02 -3.093338012695312500e-01
-8.541545867919921875e-01 4.479058086872100830e-03 -8.258046954870223999e-02
-7.334809303283691406e-01 6.885640323162078857e-02 -4.881784692406654358e-02
-7.729402780532836914e-01 4.638860374689102173e-02 2.942970097064971924e-01
-7.250518798828125000e-01 3.828843310475349426e-02 1.265814155340194702e-01
-7.583924531936645508e-01 5.702580884099006653e-02 -2.606348097324371338e-01
-8.581505417823791504e-01 4.445713013410568237e-02 -2.737192809581756592e-01
-7.990705370903015137e-01 6.288934499025344849e-03 1.354250498116016388e-02
-7.228338122367858887e-01 4.642534255981445312e-02 -1.189505159854888916e-01
-7.279853820800781250e-01 6.206960231065750122e-02 1.301440894603729248e-01
-8.402364253997802734e-01 6.228518486022949219e-02 -1.499495655298233032e-01
-7.689356207847595215e-01 1.414718106389045715e-02 8.661805838346481323e-02
-7.572737336158752441e-01 1.786665804684162140e-02 -5.317818373441696167e-02
-8.175789117813110352e-01 4.262015223503112793e-03 -5.340407788753509521e-02
-8.396906852722167969e-01 4.251034557819366455e-02 -3.239824771881103516e-01
-8.387482166290283203e-01 8.732303977012634277e-03 1.527372300624847412e-01
-8.138229846954345703e-01 7.040217518806457520e-02 -3.727144002914428711e-02
-7.955485582351684570e-01 5.735592171549797058e-02 -2.988295853137969971e-01
-7.787867784500122070e-01 1.213883049786090851e-02 -9.297443926334381104e-02
-7.508078813552856445e-01 3.777015954256057739e-02 2.550022602081298828e-01
-8.155410289764404297e-01 7.688939571380615234e-03 -1.541738659143447876e-01
-8.567664623260498047e-01 7.756516337394714355e-03 -1.605283319950103760e-01
-7.479423880577087402e-01 6.133415549993515015e-02 -2.129786759614944458e-01
-7.887883782386779785e-01 5.901686102151870728e-02 2.436792701482772827e-01
-8.658023476600646973e-01 5.958389490842819214e-03 9.983556345105171204e-03
-7.826216816902160645e-01 1.500049233436584473e-02 -1.717202216386795044e-01
-7.701945304870605469e-01 2.067365497350692749e-02 -1.938855051994323730e-01
-7.643022537231445312e-01 2.379233017563819885e-02 2.180541455745697021e-01
-8.109782934188842773e-01 2.125877700746059418e-02 -2.937204539775848389e-01
-7.974785566329956055e-01 2.137768641114234924e-02 -2.762731015682220459e-01
-8.251847624778747559e-01 9.001420810818672180e-03 -1.916128993034362793e-01
-8.741952776908874512e-01 3.696889802813529968e-02 -2.420883178710937500e-01
-7.346252799034118652e-01 6.434726715087890625e-02 1.401361823081970215e-01
-7.467269897460937500e-01 7.027429342269897461e-02 9.524351358413696289e-02
-8.863822817802429199e-01 2.654707431793212891e-02 8.285366743803024292e-02
-8.751553297042846680e-01 8.103633299469947815e-03 -1.325177960097789764e-02
-7.470445632934570312e-01 2.994831465184688568e-02 2.024102210998535156e-01
-8.279139399528503418e-01 7.892690598964691162e-03 1.471183598041534424e-01
-8.467494845390319824e-01 6.086854636669158936e-02 -1.307251155376434326e-01
-8.343506455421447754e-01 3.482885658740997314e-03 3.376442193984985352e-02
-8.667789101600646973e-01 4.115023463964462280e-02 1.553203910589218140e-01
-7.569127082824707031e-01 2.903474122285842896e-02 -2.158274352550506592e-01
-7.320330142974853516e-01 2.947382628917694092e-02 -2.127346396446228027e-02
-7.562182545661926270e-01 5.131086707115173340e-02 -2.707873880863189697e-01
-8.221369981765747070e-01 5.918174982070922852e-03 1.072698310017585754e-01
-8.708178997039794922e-01 4.587520286440849304e-02 9.231591224670410156e-02
-7.715650796890258789e-01 7.385880500078201294e-02 3.218530863523483276e-02
-7.593356370925903320e-01 7.208515703678131104e-02 -1.139343827962875366e-01
-8.407759070396423340e-01 1.501664519309997559e-02 2.104720175266265869e-01
-7.423928976058959961e-01 2.654374018311500549e-02 -1.009735688567161560e-01
-7.684204578399658203e-01 6.380102783441543579e-02 2.099388837814331055e-01
-8.879406452178955078e-01 2.600535936653614044e-02 -1.769227832555770874e-01
-7.257214188575744629e-01 6.077043712139129639e-02 -1.126384884119033813e-01
-8.159329891204833984e-01 4.921060800552368164e-02 -3.289943337440490723e-01
-8.240146040916442871e-01 3.677502274513244629e-03 2.646508999168872833e-02
-8.886609673500061035e-01 3.783458471298217773e-02 -1.037169843912124634e-01
-8.515800833702087402e-01 3.835070878267288208e-03 8.885897696018218994e-03
-7.410112619400024414e-01 6.944202631711959839e-02 -9.764060378074645996e-02
-7.714623212814331055e-01 1.789749041199684143e-02 -1.639749258756637573e-01
-8.442132472991943359e-01 2.464251592755317688e-02 -3.105563223361968994e-01
-8.614897727966308594e-01 9.487843140959739685e-03 -1.765273660421371460e-01
-7.335433363914489746e-01 6.751111894845962524e-02 8.650686591863632202e-02
-7.920314669609069824e-01 6.265027821063995361e-02 2.113394290208816528e-01
-8.826054930686950684e-01 3.133451193571090698e-02 -2.118458747863769531e-01
-7.653589248657226562e-01 1.683413051068782806e-02 1.300172507762908936e-01
-7.554705142974853516e-01 7.247956097126007080e-02 -9.048424661159515381e-02
-7.639909982681274414e-01 7.168804854154586792e-02 -1.332421749830245972e-01
-8.472021222114562988e-01 4.718085005879402161e-02 2.024827748537063599e-01
-8.803806304931640625e-01 9.978149086236953735e-03 -5.972798913717269897e-02
-8.032502532005310059e-01 6.608147174119949341e-03 7.659436017274856567e-02
-7.925947308540344238e-01 2.506238594651222229e-02 -2.909146547317504883e-01
-8.303508758544921875e-01 5.658808350563049316e-02 1.865493804216384888e-01
-8.029736876487731934e-01 6.803140044212341309e-02 -1.896483749151229858e-01
-8.642888665199279785e-01 1.504353806376457214e-02 1.561415791511535645e-01
-7.284416556358337402e-01 3.237444534897804260e-02 -3.602290898561477661e-02
-8.534698486328125000e-01 3.096044622361660004e-02 2.323985248804092407e-01
-7.872792482376098633e-01 8.563138544559478760e-03 2.773215062916278839e-02
-8.074074387550354004e-01 7.145892828702926636e-02 -4.993883520364761353e-02
-8.031345009803771973e-01 6.158887222409248352e-02 2.058038264513015747e-01
-8.044707179069519043e-01 8.785359561443328857e-03 -1.455387622117996216e-01
-7.801533937454223633e-01 3.906027600169181824e-02 3.030754625797271729e-01
-7.897529602050781250e-01 6.450858712196350098e-02 -2.462549805641174316e-01
-8.715067505836486816e-01 1.142055168747901917e-02 9.316051751375198364e-02
-7.915618419647216797e-01 6.216995790600776672e-02 -2.667008340358734131e-01
-7.282516360282897949e-01 3.884225711226463318e-02 1.590773165225982666e-01
-8.342211842536926270e-01 6.510679423809051514e-02 -1.121794134378433228e-01
-7.839974164962768555e-01 9.707922115921974182e-03 -4.999718815088272095e-02
-8.590311408042907715e-01 5.326392501592636108e-02 -1.917918324470520020e-01
-8.657088875770568848e-01 4.383121430873870850e-02 1.436283737421035767e-01
-8.468784093856811523e-01 2.029616571962833405e-02 2.286256104707717896e-01
-8.868380188941955566e-01 1.552358642220497131e-02 2.427822165191173553e-02
-7.621369957923889160e-01 7.226890325546264648e-02 8.392259478569030762e-02
-8.701190948486328125e-01 1.288154534995555878e-02 -1.921053528785705566e-01
-8.255305290222167969e-01 3.833577036857604980e-03 4.181508719921112061e-02
-8.088306188583374023e-01 3.398079052567481995e-02 -3.401086926460266113e-01
-7.861337065696716309e-01 6.862369179725646973e-02 1.465525776147842407e-01
-8.753160238265991211e-01 9.009936824440956116e-03 2.345266006886959076e-02
-7.509798407554626465e-01 1.951346173882484436e-02 -2.324450761079788208e-03
-8.163287639617919922e-01 3.220481798052787781e-02 2.958090305328369141e-01
-8.475140929222106934e-01 5.901249498128890991e-02 6.933227181434631348e-02
-8.192623257637023926e-01 4.580883681774139404e-02 2.761855423450469971e-01
-8.710795640945434570e-01 5.158225446939468384e-02 -7.131765037775039673e-02
-7.508760094642639160e-01 2.455693855881690979e-02 1.672240942716598511e-01
-7.409509420394897461e-01 7.143856585025787354e-02 -1.281501445919275284e-02
-7.407938838005065918e-01 5.411966890096664429e-02 2.260054945945739746e-01
-8.597664833068847656e-01 3.369968011975288391e-02 -2.982286810874938965e-01
-8.654026389122009277e-01 3.893614932894706726e-02 1.730446219444274902e-01
-7.423050403594970703e-01 7.064919173717498779e-02 6.445403397083282471e-02
-7.645169496536254883e-01 1.523008383810520172e-02 7.581461220979690552e-02
-8.546473979949951172e-01 5.822481960058212280e-02 1.502309925854206085e-02
-8.683635592460632324e-01 2.567279338836669922e-02 1.815519779920578003e-01
-7.719967365264892578e-01 7.203580439090728760e-02 9.391188621520996094e-02
-7.972081899642944336e-01 7.824754342436790466e-03 -8.771808445453643799e-02
-8.656895756721496582e-01 5.088962242007255554e-02 -1.782850176095962524e-01
-7.915773987770080566e-01 2.097845077514648438e-02 2.542340159416198730e-01
-7.344033718109130859e-01 3.319798782467842102e-02 -1.221034750342369080e-01
-7.987761497497558594e-01 7.197903841733932495e-02 3.172470629215240479e-02
-8.245123624801635742e-01 5.707253515720367432e-02 1.996145248413085938e-01
-7.278332114219665527e-01 6.610801815986633301e-02 -5.955774337053298950e-02
-8.269708156585693359e-01 6.052456051111221313e-02 1.551093310117721558e-01
-7.588474750518798828e-01 7.391142845153808594e-02 -1.947147771716117859e-02
-8.917319774627685547e-01 3.054491057991981506e-02 1.395712979137897491e-02
-7.288754582405090332e-01 6.684458255767822266e-02 5.985794961452484131e-02
-7.862163186073303223e-01 6.083510443568229675e-02 2.318741530179977417e-01
-7.873991727828979492e-01 7.370354235172271729e-02 -4.870472103357315063e-02
-7.882298827171325684e-01 5.210016295313835144e-02 2.814474999904632568e-01
-8.229340314865112305e-01 8.299447596073150635e-03 -1.780470758676528931e-01
-7.632341384887695312e-01 3.575552254915237427e-02 2.779760062694549561e-01
-8.091888427734375000e-01 6.988858431577682495e-02 5.212885886430740356e-02
-7.639764547348022461e-01 6.940617412328720093e-02 -1.732494384050369263e-01
-8.456023931503295898e-01 9.518072009086608887e-03 -2.018622756004333496e-01
-8.898873925209045410e-01 2.523551881313323975e-02 4.989982396364212036e-02
-8.040277957916259766e-01 5.667239427566528320e-03 -3.456440567970275879e-02
-8.025175929069519043e-01 5.727816373109817505e-03 -8.211557753384113312e-03
-7.275360822677612305e-01 6.716607511043548584e-02 -9.545468725264072418e-03
-8.129621744155883789e-01 6.360596418380737305e-02 -2.341819405555725098e-01
-8.025631308555603027e-01 1.598404720425605774e-02 2.274545878171920776e-01
-7.843457460403442383e-01 1.329157873988151550e-02 -1.513185054063796997e-01
-8.621150255203247070e-01 5.590648949146270752e-02 -3.132601082324981689e-02
-8.042719960212707520e-01 5.353052169084548950e-02 2.629417479038238525e-01
-7.229856252670288086e-01 4.977100715041160583e-02 1.566855162382125854e-01
-8.655518889427185059e-01 3.220148384571075439e-02 1.914204806089401245e-01
-8.534460067749023438e-01 5.764732509851455688e-02 4.703669995069503784e-02
-8.852053284645080566e-01 2.411255985498428345e-02 -1.932182610034942627e-01
-7.405968904495239258e-01 2.441872842609882355e-02 -1.378627680242061615e-02
-7.311781644821166992e-01 6.834194064140319824e-02 -3.425952792167663574e-02
-8.078976869583129883e-01 5.801406502723693848e-02 2.286086231470108032e-01
-8.481321334838867188e-01 4.913023486733436584e-02 1.859708577394485474e-01
-8.728435635566711426e-01 4.953676834702491760e-02 -1.250265985727310181e-01
-7.931790351867675781e-01 1.931681483983993530e-02 -2.519258856773376465e-01
-8.695690035820007324e-01 5.052021890878677368e-02 -1.468296200037002563e-01
-8.078092932701110840e-01 5.567184835672378540e-02 2.454679459333419800e-01
-8.571075201034545898e-01 3.521237522363662720e-02 2.166648209095001221e-01
-7.845519185066223145e-01 7.355022430419921875e-02 -7.740803062915802002e-02
-7.751971483230590820e-01 7.322850078344345093e-02 5.715234577655792236e-02
-8.576022982597351074e-01 5.292718112468719482e-02 -2.055115103721618652e-01
-7.257541418075561523e-01 5.780960619449615479e-02 -1.315626651048660278e-01
-7.172191143035888672e-01 6.002740561962127686e-02 1.229787245392799377e-03
-8.382965326309204102e-01 1.356704533100128174e-02 -2.487458735704421997e-01
-8.673971891403198242e-01 7.827777415513992310e-03 -1.257945746183395386e-01
-8.276063203811645508e-01 6.718643754720687866e-02 -8.940004557371139526e-02
-8.513750433921813965e-01 3.638062626123428345e-03 -1.227615214884281158e-02
-7.472530007362365723e-01 6.528314203023910522e-02 -1.807057112455368042e-01
-7.894837856292724609e-01 7.324735075235366821e-02 1.710270531475543976e-02
-7.950793504714965820e-01 6.062488257884979248e-02 -2.781230509281158447e-01
-8.469317555427551270e-01 1.099593564867973328e-02 -2.186289876699447632e-01
-7.631729245185852051e-01 6.991626322269439697e-02 1.336020082235336304e-01
-8.645003437995910645e-01 5.326982587575912476e-03 -3.856477141380310059e-02
-7.447325587272644043e-01 2.270977012813091278e-02 -3.226021304726600647e-02
-8.108652234077453613e-01 7.028450071811676025e-02 2.414061687886714935e-02
-7.614266872406005859e-01 3.294268250465393066e-02 2.654682397842407227e-01
-8.323838710784912109e-01 4.556057974696159363e-02 2.525331676006317139e-01
-8.892991542816162109e-01 3.782850503921508789e-02 -7.858597487211227417e-02
-8.929173350334167480e-01 2.009148150682449341e-02 -2.420840412378311157e-02
-7.573267221450805664e-01 4.712715372443199158e-02 2.756744027137756348e-01
-8.512710332870483398e-01 5.409482866525650024e-02 -2.245148271322250366e-01
-8.513051271438598633e-01 4.505822435021400452e-02 -2.914638817310333252e-01
-8.647505640983581543e-01 5.226722359657287598e-02 5.076348036527633667e-02
-7.618194818496704102e-01 1.549603417515754700e-02 -9.189064614474773407e-03
-7.535519599914550781e-01 6.525461375713348389e-02 1.826964467763900757e-01
-8.553296923637390137e-01 4.877002164721488953e-02 1.578329503536224365e-01
-7.433416843414306641e-01 3.522523492574691772e-02 2.203633487224578857e-01
-7.474475502967834473e-01 2.276374027132987976e-02 1.097860410809516907e-01
-7.532346248626708984e-01 2.342469990253448486e-02 -1.386381685733795166e-01
-8.024220466613769531e-01 7.212314754724502563e-02 -1.307107135653495789e-02
-7.823472619056701660e-01 2.121281623840332031e-02 -2.410671263933181763e-01
-7.437636256217956543e-01 2.293748781085014343e-02 5.699765682220458984e-02
-7.589479088783264160e-01 2.314068377017974854e-02 1.913445442914962769e-01
-7.755138874053955078e-01 1.275357604026794434e-02 1.008822768926620483e-01
-7.546166181564331055e-01 2.552510984241962433e-02 -1.733429282903671265e-01
-8.109412789344787598e-01 6.687895953655242920e-02 1.171912327408790588e-01
-7.357251644134521484e-01 3.636141121387481689e-02 -1.596629023551940918e-01
-8.564350008964538574e-01 5.840907245874404907e-02 -6.889610737562179565e-02
-7.575275897979736328e-01 7.372920960187911987e-02 7.018854841589927673e-03
-8.583181500434875488e-01 8.655618876218795776e-03 1.114514991641044617e-01
-7.871832251548767090e-01 6.766495108604431152e-02 1.594282835721969604e-01
-8.179950714111328125e-01 5.902254208922386169e-02 -2.719719409942626953e-01
-7.721940875053405762e-01 5.230574682354927063e-02 -3.003362417221069336e-01
-7.409822344779968262e-01 6.666314601898193359e-02 -1.421345472335815430e-01
-7.159054875373840332e-01 4.997772723436355591e-02 8.583146333694458008e-02
-7.356696724891662598e-01 2.802088111639022827e-02 -4.938256740570068359e-02
-7.805047035217285156e-01 7.028104364871978760e-02 -1.730022281408309937e-01
-8.160033822059631348e-01 5.988273769617080688e-03 -1.159430816769599915e-01
-7.726762890815734863e-01 3.285997360944747925e-02 2.854929566383361816e-01
-8.183171153068542480e-01 6.950175017118453979e-02 -2.533418126404285431e-02
-8.286144137382507324e-01 6.506304442882537842e-02 6.865745037794113159e-02
-7.290377616882324219e-01 6.752698123455047607e-02 3.666349500417709351e-02
-7.738286256790161133e-01 3.062190860509872437e-02 -2.800775766372680664e-01
-7.250730395317077637e-01 3.412178531289100647e-02 -1.469321548938751221e-03
-8.088014125823974609e-01 5.374196916818618774e-03 5.251038074493408203e-02
-7.987229228019714355e-01 2.202445827424526215e-02 2.669365108013153076e-01
-8.843376040458679199e-01 3.902776539325714111e-02 4.001215100288391113e-02
-8.340587615966796875e-01 1.200298406183719635e-02 -2.337162196636199951e-01
-8.910049796104431152e-01 3.583093360066413879e-02 -6.479670107364654541e-02
-8.351613879203796387e-01 6.546734273433685303e-02 -7.126738131046295166e-02
-7.849960923194885254e-01 7.288064807653427124e-02 -1.072312146425247192e-01
-7.268819212913513184e-01 3.299291431903839111e-02 6.020364910364151001e-02
-7.310472726821899414e-01 5.572570860385894775e-02 1.866651624441146851e-01
-8.630965352058410645e-01 5.312699824571609497e-03 -6.513082236051559448e-02
-7.926372289657592773e-01 8.637711405754089355e-03 8.928964287042617798e-02
-8.770824670791625977e-01 4.225322604179382324e-02 -1.933176517486572266e-01
-7.776658535003662109e-01 1.073019206523895264e-02 3.422178328037261963e-03
-7.263278365135192871e-01 3.418850526213645935e-02 8.304794877767562866e-02
-7.325458526611328125e-01 3.312284499406814575e-02 -1.045137345790863037e-01
-7.545480132102966309e-01 4.163035750389099121e-02 -2.638570964336395264e-01
-8.562105894088745117e-01 7.085669785737991333e-03 9.271469712257385254e-02
-8.450450897216796875e-01 1.337798126041889191e-02 1.916940063238143921e-01
-7.694017291069030762e-01 2.247949317097663879e-02 -2.097517997026443481e-01
-8.527755737304687500e-01 4.933271929621696472e-02 -2.621456980705261230e-01
-7.781897187232971191e-01 6.736897677183151245e-02 1.711915880441665649e-01
-8.750017285346984863e-01 1.424342952668666840e-02 1.042233780026435852e-01
-8.918122053146362305e-01 1.919227838516235352e-02 -7.128564640879631042e-03
-8.598555922508239746e-01 5.081258714199066162e-03 2.181880362331867218e-02
-7.966923713684082031e-01 1.084288395941257477e-02 -1.580713391304016113e-01
-7.679090499877929688e-01 7.113302499055862427e-02 -1.503120362758636475e-01
-7.772525548934936523e-01 4.077120870351791382e-02 -3.156839311122894287e-01
-8.232429027557373047e-01 3.512911498546600342e-03 -1.944722235202789307e-02
-8.726958632469177246e-01 7.799666374921798706e-03 -8.603002876043319702e-02
-8.392485976219177246e-01 3.886885941028594971e-03 -8.711212873458862305e-02
-7.903888821601867676e-01 7.228714227676391602e-02 5.729427188634872437e-02
-8.697497248649597168e-01 5.118707939982414246e-02 1.186981610953807831e-02
-8.207057714462280273e-01 6.886069476604461670e-02 -8.107216097414493561e-03
-8.426954150199890137e-01 4.774663597345352173e-03 -1.159933358430862427e-01
-7.991477847099304199e-01 6.934426724910736084e-02 -1.728277355432510376e-01
-7.735789418220520020e-01 6.517328321933746338e-02 1.975786238908767700e-01
-7.898660898208618164e-01 8.136620745062828064e-03 -3.117522597312927246e-02
-7.684025168418884277e-01 1.564517803490161896e-02 -1.039790511131286621e-01
-7.926070094108581543e-01 8.069090545177459717e-03 6.654523313045501709e-02
-8.060814142227172852e-01 7.898310199379920959e-03 -1.317006945610046387e-01
-7.629716396331787109e-01 6.325681507587432861e-02 -2.351787388324737549e-01
-8.352641463279724121e-01 5.153767392039299011e-02 -2.948961257934570312e-01
-8.358886837959289551e-01 9.942179545760154724e-03 -2.102182507514953613e-01
-8.378530144691467285e-01 1.727540791034698486e-02 -2.779386937618255615e-01
-7.196472883224487305e-01 3.903868794441223145e-02 2.156359516084194183e-02
-7.860062718391418457e-01 1.641939580440521240e-02 -2.032346427440643311e-01
-7.839727997779846191e-01 6.820231676101684570e-02 -2.046483308076858521e-01
-7.939911484718322754e-01 4.154423624277114868e-02 3.058083355426788330e-01
-8.261131644248962402e-01 5.420926958322525024e-03 -1.239244937896728516e-01
-7.879986763000488281e-01 8.328491821885108948e-03 8.772669360041618347e-03
-8.932800889015197754e-01 2.972548082470893860e-02 -1.220096554607152939e-02
-8.239294290542602539e-01 3.598727285861968994e-03 -4.024948179721832275e-02
-8.650125861167907715e-01 5.406695231795310974e-02 -1.112163886427879333e-01
-7.611174583435058594e-01 7.373537123203277588e-02 -5.861915647983551025e-02
-8.516035676002502441e-01 5.274012684822082520e-03 6.751646846532821655e-02
-8.390309810638427734e-01 4.232801496982574463e-03 -1.002633497118949890e-01
-7.639840245246887207e-01 5.562696233391761780e-02 2.604013979434967041e-01
-7.443911433219909668e-01 3.946034237742424011e-02 -2.208507657051086426e-01
-8.082642555236816406e-01 6.975062191486358643e-02 -1.364955157041549683e-01
-7.160449624061584473e-01 4.404482245445251465e-02 1.151933334767818451e-02
-7.691265344619750977e-01 1.353204995393753052e-02 6.186205148696899414e-02
-7.372676134109497070e-01 6.336915493011474609e-02 -1.591688692569732666e-01
-7.890873551368713379e-01 7.363629341125488281e-02 -3.162824362516403198e-02
-8.424181938171386719e-01 5.143124610185623169e-02 -2.790962159633636475e-01
-7.538124918937683105e-01 6.331761181354522705e-02 2.010284811258316040e-01
-8.246827721595764160e-01 1.038661971688270569e-02 1.810447424650192261e-01
-7.369483113288879395e-01 3.345141187310218811e-02 -1.442657560110092163e-01
-7.978217601776123047e-01 1.968557946383953094e-02 -2.643651366233825684e-01
-8.667231798171997070e-01 3.955920785665512085e-02 -2.647102773189544678e-01
-7.727205753326416016e-01 2.341528981924057007e-02 -2.303085327148437500e-01
-8.719329833984375000e-01 1.762518845498561859e-02 1.424190402030944824e-01
-8.132874965667724609e-01 6.868010014295578003e-02 6.618321686983108521e-02
-7.173324227333068848e-01 5.974429100751876831e-02 -1.622233167290687561e-02
-8.111485838890075684e-01 4.594633355736732483e-02 -3.392941057682037354e-01
-8.230687975883483887e-01 6.727639585733413696e-02 4.443895071744918823e-02
-8.151723742485046387e-01 6.717160344123840332e-02 -1.730094403028488159e-01
-8.149955272674560547e-01 6.783168762922286987e-02 -1.590014100074768066e-01
-7.418583631515502930e-01 7.013623416423797607e-02 7.672680914402008057e-02
-8.094962239265441895e-01 7.250100374221801758e-03 1.170290336012840271e-01
-8.059177398681640625e-01 6.695199757814407349e-02 -2.016901671886444092e-01
-8.928220272064208984e-01 2.608390897512435913e-02 -1.229600310325622559e-01
-8.931527733802795410e-01 2.442949637770652771e-02 3.342803567647933960e-03
-7.330151796340942383e-01 5.760356783866882324e-02 -1.743696928024291992e-01
-7.300295233726501465e-01 4.580676555633544922e-02 1.952482312917709351e-01
-7.656050920486450195e-01 2.687336131930351257e-02 2.449456006288528442e-01
-7.202143669128417969e-01 4.503725841641426086e-02 -8.735601603984832764e-02
-8.690050244331359863e-01 7.723588496446609497e-03 -1.141301319003105164e-01
-8.576278686523437500e-01 5.300011485815048218e-02 9.865693002939224243e-02
-8.759375810623168945e-01 3.021002933382987976e-02 1.470783054828643799e-01
-8.392879366874694824e-01 3.436151891946792603e-03 -6.451947242021560669e-02
-7.968310117721557617e-01 6.939167529344558716e-02 1.129049435257911682e-01
-8.547713160514831543e-01 2.132178843021392822e-02 -2.848184704780578613e-01
-7.787445187568664551e-01 1.589159108698368073e-02 1.786442995071411133e-01
-7.463066577911376953e-01 5.985885486006736755e-02 2.126465588808059692e-01
-8.912620544433593750e-01 2.972737327218055725e-02 2.557676471769809723e-02
-7.774018645286560059e-01 5.824324488639831543e-02 -2.849324047565460205e-01
-8.752726912498474121e-01 4.667994379997253418e-02 3.816794604063034058e-02
-8.392698764801025391e-01 1.093561016023159027e-02 1.778181344270706177e-01
-7.954092025756835938e-01 6.759113073348999023e-02 -2.072777003049850464e-01
-7.852539420127868652e-01 5.500077456235885620e-02 -3.060381710529327393e-01
-8.880070447921752930e-01 1.452748477458953857e-02 -7.664667814970016479e-02
-7.816142439842224121e-01 1.061586849391460419e-02 7.855343818664550781e-02
-7.475520968437194824e-01 3.242791071534156799e-02 -1.980919539928436279e-01
-8.291535973548889160e-01 5.160629004240036011e-02 2.288925349712371826e-01
-7.867649793624877930e-01 1.113697886466979980e-02 1.267899572849273682e-01
-7.847253680229187012e-01 2.463308908045291901e-02 -2.726084291934967041e-01
-7.702100276947021484e-01 6.641325354576110840e-02 1.840776503086090088e-01
-8.078948259353637695e-01 5.894181132316589355e-02 -2.842685580253601074e-01
-7.736562490463256836e-01 1.263737119734287262e-02 -6.121585518121719360e-02
-8.595551252365112305e-01 5.303305014967918396e-02 8.397658169269561768e-02
-8.418680429458618164e-01 4.986502230167388916e-03 8.190294355154037476e-02
-8.027648925781250000e-01 9.655822068452835083e-03 1.500759422779083252e-01
-7.465571165084838867e-01 6.926254183053970337e-02 1.147793456912040710e-01
-8.644259572029113770e-01 3.014531359076499939e-02 -2.863626480102539062e-01
-7.305364012718200684e-01 3.272063285112380981e-02 1.167112961411476135e-01
-8.440992236137390137e-01 3.501909971237182617e-02 2.533327341079711914e-01
-8.222062587738037109e-01 6.609200686216354370e-02 8.301836252212524414e-02
-7.275549769401550293e-01 4.481396451592445374e-02 1.801059842109680176e-01
-8.434413075447082520e-01 6.041593849658966064e-02 -1.705276966094970703e-01
-8.834640383720397949e-01 4.095019400119781494e-02 2.569286338984966278e-02
-8.000808954238891602e-01 7.148654758930206299e-02 -1.138961762189865112e-01
-7.373973131179809570e-01 6.907200813293457031e-02 -8.144705742597579956e-02
-8.585506081581115723e-01 5.278162658214569092e-03 3.840055316686630249e-02
-7.186382412910461426e-01 4.188337549567222595e-02 7.689107209444046021e-02
-7.973837852478027344e-01 2.941541373729705811e-02 2.959812581539154053e-01
-7.471668124198913574e-01 2.447294443845748901e-02 1.409278064966201782e-01
-7.671359777450561523e-01 7.355775684118270874e-02 -8.412457257509231567e-02
-7.709171175956726074e-01 1.274619810283184052e-02 4.355412721633911133e-02
-8.920158147811889648e-01 2.029569819569587708e-02 -1.071643009781837463e-01
-7.571596503257751465e-01 6.916382908821105957e-02 -1.631952375173568726e-01
-8.010792136192321777e-01 7.198099046945571899e-02 1.514845155179500580e-02
-8.076215982437133789e-01 2.320363558828830719e-02 2.758101224899291992e-01
-7.698823809623718262e-01 1.491962559521198273e-02 1.177094951272010803e-01
-7.934655547142028809e-01 1.286751963198184967e-02 -1.801380962133407593e-01
-8.054029345512390137e-01 1.372221112251281738e-02 2.085386216640472412e-01
-8.790943026542663574e-01 3.841810673475265503e-02 9.582255035638809204e-02
-8.637937903404235840e-01 1.833157800137996674e-02 -2.526097893714904785e-01
-8.496900200843811035e-01 3.698877990245819092e-03 -5.761545896530151367e-02
-7.391329407691955566e-01 2.777871303260326385e-02 1.265868991613388062e-01
-7.425155043601989746e-01 2.548588067293167114e-02 -8.191403746604919434e-02
-7.389146685600280762e-01 4.995044320821762085e-02 -2.160708755254745483e-01
-8.615728616714477539e-01 6.331428885459899902e-03 5.422665923833847046e-02
-8.304656744003295898e-01 6.679461151361465454e-02 -4.212918132543563843e-02
-8.714368343353271484e-01 4.673836007714271545e-02 7.679350674152374268e-02
-7.614050507545471191e-01 1.904831267893314362e-02 1.472824066877365112e-01
-7.918837070465087891e-01 7.059253752231597900e-02 -1.593231409788131714e-01
-7.937374711036682129e-01 6.547890603542327881e-02 -2.349852919578552246e-01
-7.960629463195800781e-01 7.044132053852081299e-02 9.213345497846603394e-02
-8.923813104629516602e-01 3.307520970702171326e-02 -8.989807218313217163e-02
-8.658599853515625000e-01 1.480496488511562347e-02 -2.230894714593887329e-01
-8.219024538993835449e-01 5.227350443601608276e-02 -3.113742768764495850e-01
-7.744781374931335449e-01 6.645105779170989990e-02 -2.217052131891250610e-01
-7.987389564514160156e-01 3.047403134405612946e-02 -3.234013617038726807e-01
-8.229035139083862305e-01 4.545737057924270630e-03 6.823573261499404907e-02
-8.856675624847412109e-01 1.374545507133007050e-02 9.145690128207206726e-03
-7.563661932945251465e-01 1.765518449246883392e-02 -2.603919431567192078e-02
-7.726740837097167969e-01 5.921120941638946533e-02 2.459013313055038452e-01
-7.658965587615966797e-01 1.525457575917243958e-02 -6.963853538036346436e-02
-8.572054505348205566e-01 5.527845770120620728e-02 6.383372843265533447e-02
-7.615197300910949707e-01 1.556132733821868896e-02 3.152687102556228638e-02
-8.491257429122924805e-01 6.268847733736038208e-03 -1.458026468753814697e-01
-7.316015362739562988e-01 3.265142068266868591e-02 -8.822143822908401489e-02
-7.798796892166137695e-01 1.659987494349479675e-02 -1.833037734031677246e-01
-8.237926959991455078e-01 4.106926545500755310e-02 -3.423816561698913574e-01
-8.358305692672729492e-01 5.194760859012603760e-02 2.079850584268569946e-01
-8.587575554847717285e-01 1.883279345929622650e-02 -2.658304870128631592e-01
-7.432358264923095703e-01 6.355766206979751587e-02 1.775154769420623779e-01
-8.125819563865661621e-01 1.124886050820350647e-02 1.871000677347183228e-01
-8.896872401237487793e-01 3.271768242120742798e-02 -1.465681940317153931e-01
-7.759052515029907227e-01 6.386388838291168213e-02 -2.469552457332611084e-01
-8.635986447334289551e-01 5.333684384822845459e-03 -1.792451366782188416e-03
-8.232151865959167480e-01 5.956605821847915649e-02 -2.576655149459838867e-01
-8.384352326393127441e-01 5.556306988000869751e-02 -2.573499679565429688e-01
-7.438281178474426270e-01 3.140728548169136047e-02 -1.702426820993423462e-01
-8.324972987174987793e-01 6.544107198715209961e-02 2.319640852510929108e-02
-8.081599473953247070e-01 1.614476554095745087e-02 -2.518334984779357910e-01
-7.270533442497253418e-01 4.118604958057403564e-02 -1.293836534023284912e-01
-8.586764335632324219e-01 5.624517798423767090e-02 -1.345082670450210571e-01
-7.897206544876098633e-01 9.022776037454605103e-03 -7.703381776809692383e-02
-7.958618998527526855e-01 1.461391523480415344e-02 -2.106787860393524170e-01
-8.840075135231018066e-01 3.951149061322212219e-02 -1.559478640556335449e-01
-8.378613591194152832e-01 5.886661261320114136e-02 -2.234408408403396606e-01
