-3.077391162514686584e-02 8.084025233983993530e-02 1.452976614236831665e-01
-1.636868417263031006e-01 3.302675858139991760e-02 2.930542230606079102e-01
-4.898265004158020020e-03 7.927339524030685425e-02 1.559059917926788330e-01
-1.716138720512390137e-01 3.153400868177413940e-02 2.592883408069610596e-01
-4.450784996151924133e-02 4.329796880483627319e-02 -5.814282596111297607e-02
-4.165627434849739075e-02 8.528336137533187866e-02 3.066832125186920166e-01
-1.750484704971313477e-01 2.634823881089687347e-02 1.176227852702140808e-01
-2.841819822788238525e-02 4.180915653705596924e-02 3.337174057960510254e-01
7.924176752567291260e-03 6.019768863916397095e-02 4.471117854118347168e-01
2.382478863000869751e-02 6.016115099191665649e-02 3.925609290599822998e-01
-1.606896817684173584e-01 2.708778530359268188e-02 1.791820973157882690e-01
-7.526133954524993896e-02 8.113694190979003906e-02 1.522727161645889282e-01
-5.401873216032981873e-02 6.400071084499359131e-02 5.329669117927551270e-01
-1.707491874694824219e-01 2.629859931766986847e-02 8.295714855194091797e-03
-2.027094364166259766e-02 7.765182107686996460e-02 4.903231263160705566e-01
-1.236012279987335205e-01 7.799389213323593140e-02 3.577357530593872070e-01
-6.771549582481384277e-02 3.593613952398300171e-02 -5.072763562202453613e-02
1.865328103303909302e-02 5.272515863180160522e-02 3.230041563510894775e-01
-1.215419322252273560e-01 6.298383325338363647e-02 -6.883917748928070068e-02
-9.292048215866088867e-02 3.055325523018836975e-02 -3.062981367111206055e-02
-1.414363533258438110e-01 2.674365788698196411e-02 -2.217361330986022949e-02
-2.086434960365295410e-01 3.054011985659599304e-02 5.654309689998626709e-02
-6.916659325361251831e-02 5.078390613198280334e-02 4.866060018539428711e-01
-3.743170201778411865e-02 7.945117354393005371e-02 4.822798371315002441e-01
3.503315895795822144e-02 5.967462435364723206e-02 3.085808157920837402e-01
-2.148239016532897949e-01 3.424855321645736694e-02 1.595130860805511475e-01
2.945214509963989258e-03 8.325032889842987061e-02 3.107725083827972412e-01
-1.541237235069274902e-01 7.381344586610794067e-02 1.948112547397613525e-01
-7.128570973873138428e-02 7.779002934694290161e-02 4.836136698722839355e-01
-5.182575061917304993e-02 8.436417579650878906e-02 2.394870817661285400e-01
-1.028973832726478577e-01 2.701325900852680206e-02 1.211272105574607849e-01
-5.351001024246215820e-02 3.280057013034820557e-02 1.723811030387878418e-01
1.599179208278656006e-02 8.135923743247985840e-02 3.264298141002655029e-01
-3.807830810546875000e-02 7.251831889152526855e-02 5.234761238098144531e-01
-5.586909502744674683e-02 8.097700774669647217e-02 4.584207534790039062e-01
-8.608649671077728271e-02 4.630562663078308105e-02 4.598640203475952148e-01
-7.732089608907699585e-02 3.974903374910354614e-02 3.903014659881591797e-01
-5.056622996926307678e-02 8.275501430034637451e-02 1.810054332017898560e-01
-6.534046679735183716e-02 7.976210117340087891e-02 1.146628335118293762e-01
-2.160359919071197510e-02 7.615477591753005981e-02 8.227162808179855347e-02
-1.982042938470840454e-02 5.317845940589904785e-02 4.550773501396179199e-01
-8.824330568313598633e-02 8.225456625223159790e-02 2.149232625961303711e-01
7.714249193668365479e-03 8.104818314313888550e-02 4.043682813644409180e-01
-1.269363611936569214e-01 2.646925114095211029e-02 2.583324909210205078e-03
-5.374653637409210205e-02 8.481630682945251465e-02 2.700087726116180420e-01
2.145085483789443970e-02 6.346682459115982056e-02 9.452448785305023193e-02
-1.535128653049468994e-01 6.120137870311737061e-02 -5.001002550125122070e-02
-1.001766324043273926e-02 4.471553862094879150e-02 4.580383002758026123e-02
-1.006123200058937073e-01 7.611760497093200684e-02 4.605490565299987793e-01
-1.039930731058120728e-01 3.270363435149192810e-02 3.059668540954589844e-01
-1.317173838615417480e-01 6.440386921167373657e-02 -4.724819958209991455e-02
1.716945320367813110e-02 8.106732368469238281e-02 3.033724427223205566e-01
-4.777101799845695496e-02 6.555223464965820312e-02 -4.121546447277069092e-02
-6.909400224685668945e-02 8.091485500335693359e-02 4.462661743164062500e-01
-8.382971584796905518e-02 4.074418917298316956e-02 4.067601859569549561e-01
-3.846221044659614563e-02 7.584311068058013916e-02 6.066270172595977783e-02
-2.542217075824737549e-02 8.040429651737213135e-02 4.683153629302978516e-01
-1.312318295240402222e-01 2.942393533885478973e-02 -6.817762553691864014e-02
-2.189482748508453369e-01 3.383937105536460876e-02 6.947797536849975586e-02
-3.363528102636337280e-02 8.381466567516326904e-02 2.187296897172927856e-01
-1.823261380195617676e-02 8.132173866033554077e-02 1.704698801040649414e-01
-2.123980969190597534e-02 7.795070111751556396e-02 1.070808544754981995e-01
-1.546512693166732788e-01 2.973930351436138153e-02 -7.677020132541656494e-02
-7.821334898471832275e-02 8.099776506423950195e-02 4.307584762573242188e-01
-1.664861440658569336e-01 6.858184933662414551e-02 3.507184386253356934e-01
-1.058748587965965271e-01 2.668055519461631775e-02 9.481679648160934448e-02
-8.413261175155639648e-02 2.859961427748203278e-02 9.448835998773574829e-02
2.140663564205169678e-02 5.266180634498596191e-02 2.991900146007537842e-01
-1.250524073839187622e-01 2.698780782520771027e-02 1.827010959386825562e-01
-1.450737267732620239e-01 3.046218864619731903e-02 2.696060538291931152e-01
-6.619592756032943726e-02 3.166761249303817749e-02 2.015731632709503174e-01
-1.475888043642044067e-01 3.484243899583816528e-02 3.333838582038879395e-01
-8.050998300313949585e-02 4.027266055345535278e-02 -1.067730039358139038e-01
-6.388200074434280396e-02 8.286389708518981934e-02 4.137130975723266602e-01
-1.298411041498184204e-01 3.495938330888748169e-02 3.445531427860260010e-01
-3.005051612854003906e-02 4.322498291730880737e-02 3.625383377075195312e-01
-9.679184108972549438e-02 8.047265559434890747e-02 1.700316369533538818e-01
-6.595747917890548706e-02 5.786074697971343994e-02 5.205621123313903809e-01
-7.479283958673477173e-02 2.965080365538597107e-02 1.230249255895614624e-01
-6.243310868740081787e-03 4.809249565005302429e-02 3.656800985336303711e-01
-9.695912897586822510e-02 5.336640402674674988e-02 -1.256764084100723267e-01
-5.984557047486305237e-02 7.146064937114715576e-02 -9.443461894989013672e-04
-2.675785124301910400e-02 4.330477118492126465e-02 -8.147880434989929199e-03
-1.878665983676910400e-01 2.706365846097469330e-02 8.317030966281890869e-02
-5.957566946744918823e-02 3.176467120647430420e-02 1.547158062458038330e-01
-4.086292162537574768e-02 5.097866430878639221e-02 4.671583771705627441e-01
-1.937595605850219727e-01 6.432428210973739624e-02 1.807200610637664795e-01
-6.734415888786315918e-02 8.379580080509185791e-02 3.759596645832061768e-01
2.935720235109329224e-02 5.487403273582458496e-02 2.060081362724304199e-01
-1.647489666938781738e-01 3.489365056157112122e-02 -1.129706650972366333e-01
-1.618087589740753174e-01 6.780482828617095947e-02 5.566138029098510742e-02
-2.161861807107925415e-01 5.517806112766265869e-02 1.789515018463134766e-01
-1.040218770503997803e-01 3.023388795554637909e-02 2.547973394393920898e-01
3.256129473447799683e-02 7.391657680273056030e-02 3.809137940406799316e-01
-8.039572834968566895e-02 8.325444161891937256e-02 2.410789877176284790e-01
-1.398997306823730469e-01 2.567652612924575806e-02 1.344420015811920166e-01
-1.700011193752288818e-01 6.440424174070358276e-02 2.450987696647644043e-02
-4.966572672128677368e-02 8.483595401048660278e-02 3.621255159378051758e-01
-4.999139532446861267e-02 3.718818724155426025e-02 -1.613165438175201416e-02
-3.164903447031974792e-02 8.515045791864395142e-02 2.919985353946685791e-01
-1.365027576684951782e-01 3.941698744893074036e-02 3.907092809677124023e-01
-1.987371742725372314e-01 6.012462824583053589e-02 7.684365659952163696e-02
2.743174880743026733e-02 7.862457633018493652e-02 3.157008290290832520e-01
-4.817403107881546021e-02 3.597595542669296265e-02 1.105587184429168701e-02
3.969808667898178101e-02 6.278311461210250854e-02 2.929754257202148438e-01
-1.237737759947776794e-01 6.888331472873687744e-02 4.754093289375305176e-01
-1.558170020580291748e-01 7.384259998798370361e-02 2.436464726924896240e-01
-1.434282958507537842e-01 3.759239986538887024e-02 3.677798211574554443e-01
-1.794136166572570801e-01 3.603203594684600830e-02 3.047294020652770996e-01
-2.222933471202850342e-01 5.082466453313827515e-02 1.040479913353919983e-01
-1.979255974292755127e-01 3.869894891977310181e-02 2.858750820159912109e-01
-1.918988823890686035e-01 2.748773805797100067e-02 6.415256857872009277e-02
-1.362649500370025635e-01 7.673920691013336182e-02 1.959607005119323730e-01
-1.420716494321823120e-01 5.639575421810150146e-02 -1.007137447595596313e-01
-4.305627197027206421e-02 8.173198997974395752e-02 1.562231034040451050e-01
-8.171858638525009155e-02 2.982679009437561035e-02 1.918216049671173096e-01
-1.896754205226898193e-01 2.838361822068691254e-02 1.460336446762084961e-01
-1.011599451303482056e-01 3.571466356515884399e-02 -1.049744635820388794e-01
-1.995428651571273804e-02 6.950151175260543823e-02 5.175799131393432617e-01
-1.107478514313697815e-01 4.090105369687080383e-02 4.145220518112182617e-01
-4.982073605060577393e-02 8.452880382537841797e-02 3.786646127700805664e-01
-2.575778961181640625e-02 3.869037330150604248e-02 7.158008217811584473e-02
-1.430138647556304932e-01 2.921193838119506836e-02 2.460480183362960815e-01
-1.291219294071197510e-01 3.108911961317062378e-02 -8.794866502285003662e-02
-8.169329166412353516e-02 3.476068750023841858e-02 -6.783996522426605225e-02
3.383056074380874634e-02 7.487571984529495239e-02 2.481638193130493164e-01
-4.714591801166534424e-02 3.900418430566787720e-02 3.337187469005584717e-01
-1.958956420421600342e-01 3.293436020612716675e-02 2.250713407993316650e-01
-6.031659618020057678e-02 3.152615949511528015e-02 1.323499977588653564e-01
-1.775399595499038696e-01 2.753779664635658264e-02 1.601229757070541382e-01
-1.417823731899261475e-01 2.745505049824714661e-02 2.035260200500488281e-01
-2.077189385890960693e-01 5.803050473332405090e-02 1.018266379833221436e-01
-3.786958754062652588e-02 3.628569841384887695e-02 2.312833368778228760e-01
-1.543399244546890259e-01 6.988960504531860352e-02 3.860331177711486816e-01
-1.745642125606536865e-01 2.755825035274028778e-02 -2.371409535408020020e-02
-1.293128281831741333e-01 7.438712567090988159e-02 9.246172755956649780e-02
-2.051880359649658203e-01 -5.562605857849121094e-01 1.401636302471160889e-01
2.803442180156707764e-01 -6.129657030105590820e-01 5.947964191436767578e-01
-2.601770162582397461e-01 -5.634111762046813965e-01 -1.367689520120620728e-01
2.581216990947723389e-01 -6.640862226486206055e-01 -5.578980445861816406e-01
-1.734125018119812012e-01 -6.701121926307678223e-01 6.253051757812500000e-02
-2.170804440975189209e-01 -6.675473451614379883e-01 -3.148446232080459595e-02
3.582280278205871582e-01 -5.721611976623535156e-01 1.902141422033309937e-02
2.935259938240051270e-01 -5.810871124267578125e-01 4.948623180389404297e-01
4.206132292747497559e-01 -6.451833248138427734e-01 -8.428532630205154419e-02
-2.403194606304168701e-01 -6.555488705635070801e-01 -5.516660213470458984e-01
8.481213450431823730e-02 -6.785784959793090820e-01 -5.481193065643310547e-01
-2.659393250942230225e-01 -5.639995336532592773e-01 -1.150046437978744507e-01
-5.814201012253761292e-02 -5.534590482711791992e-01 -3.552106618881225586e-01
1.105305552482604980e-01 -6.497882008552551270e-01 5.450168251991271973e-01
-1.667415946722030640e-01 -5.512210726737976074e-01 7.233570516109466553e-02
-3.052675127983093262e-01 -6.535403132438659668e-01 -1.720315515995025635e-01
3.272020220756530762e-01 -5.664942264556884766e-01 1.176781356334686279e-01
8.557941764593124390e-02 -6.858371496200561523e-01 -2.843044996261596680e-01
1.785735338926315308e-01 -5.936633348464965820e-01 -7.259584069252014160e-01
2.743225097656250000e-01 -6.712926030158996582e-01 7.961164414882659912e-02
3.015304803848266602e-01 -6.602848172187805176e-01 2.442847341299057007e-01
-2.305288612842559814e-02 -6.561135649681091309e-01 -7.999882102012634277e-01
-6.168924272060394287e-03 -5.444537997245788574e-01 1.676174998283386230e-01
-2.241459488868713379e-01 -6.560122966766357422e-01 -5.870611071586608887e-01
-5.863770842552185059e-03 -5.451920032501220703e-01 -1.239862442016601562e-01
-8.617125451564788818e-02 -6.136677861213684082e-01 6.648364663124084473e-01
-2.085166275501251221e-01 -6.236767768859863281e-01 -7.612359523773193359e-01
1.657735854387283325e-01 -6.793060302734375000e-01 8.377969264984130859e-02
-1.180215328931808472e-01 -6.800762414932250977e-01 -1.791736483573913574e-01
2.753853499889373779e-01 -5.585551857948303223e-01 -3.574863076210021973e-03
1.212349385023117065e-01 -6.611118316650390625e-01 4.331609010696411133e-01
2.614695131778717041e-01 -6.122190952301025391e-01 6.179375648498535156e-01
1.040721237659454346e-01 -6.024001836776733398e-01 -8.180730938911437988e-01
-1.525444835424423218e-01 -6.592894196510314941e-01 -6.804919242858886719e-01
9.697994589805603027e-02 -6.666336059570312500e-01 -7.090764641761779785e-01
2.760169506072998047e-01 -6.487053632736206055e-01 -6.549642086029052734e-01
-6.586834788322448730e-04 -5.518831610679626465e-01 4.029431939125061035e-01
-9.330502152442932129e-02 -6.810867190361022949e-01 -1.044215559959411621e-01
-5.005300045013427734e-04 -5.437506437301635742e-01 -1.479547470808029175e-02
1.943164616823196411e-01 -6.818788051605224609e-01 -2.487805038690567017e-01
-1.326790452003479004e-02 -5.441145300865173340e-01 -4.445833712816238403e-02
-1.625051349401473999e-02 -5.891292691230773926e-01 -7.746323943138122559e-01
-1.864341497421264648e-01 -5.867459177970886230e-01 -6.607537865638732910e-01
2.864882349967956543e-03 -5.440791845321655273e-01 1.458428949117660522e-01
3.107651174068450928e-01 -5.740353465080261230e-01 3.869943618774414062e-01
2.144082635641098022e-01 -5.523268580436706543e-01 1.513541191816329956e-01
1.508649289608001709e-01 -5.510170459747314453e-01 3.035712838172912598e-01
3.250541687011718750e-01 -5.678253173828125000e-01 -1.186175122857093811e-01
-8.173005282878875732e-02 -6.625019311904907227e-01 3.544304966926574707e-01
1.561588644981384277e-01 -5.640127658843994141e-01 5.240619182586669922e-01
-1.557948142290115356e-01 -6.763797998428344727e-01 -3.151748776435852051e-01
2.634772956371307373e-01 -6.763551831245422363e-01 -1.375464200973510742e-01
2.079822123050689697e-03 -5.852826237678527832e-01 -7.504931092262268066e-01
2.197423875331878662e-01 -6.799975633621215820e-01 -2.530115246772766113e-01
3.903119266033172607e-01 -6.061230897903442383e-01 -4.163173437118530273e-01
-2.714303508400917053e-02 -6.848352551460266113e-01 -1.562361717224121094e-01
2.805593013763427734e-01 -6.725689768791198730e-01 -3.221704959869384766e-01
9.749849140644073486e-02 -5.453141331672668457e-01 -3.879925236105918884e-02
3.761865496635437012e-01 -5.847766399383544922e-01 -2.596263289451599121e-01
-1.401643455028533936e-01 -6.757132411003112793e-01 -1.129897683858871460e-02
-2.135768979787826538e-01 -5.879573225975036621e-01 -6.348065137863159180e-01
-2.437734007835388184e-01 -6.618932485580444336e-01 -4.286984205245971680e-01
-7.854193449020385742e-02 -6.682102084159851074e-01 2.754909992218017578e-01
6.106244772672653198e-02 -6.310769319534301758e-01 6.641910076141357422e-01
1.144697964191436768e-01 -5.684553980827331543e-01 5.927239060401916504e-01
2.258856296539306641e-01 -6.484197378158569336e-01 4.905039668083190918e-01
-4.907703772187232971e-02 -6.836816072463989258e-01 -1.227839887142181396e-01
2.661167979240417480e-01 -5.807912945747375488e-01 -5.155899524688720703e-01
-1.519274860620498657e-01 -6.406880021095275879e-01 4.888370633125305176e-01
-3.387501537799835205e-01 -5.915572047233581543e-01 1.803299635648727417e-01
-1.052917093038558960e-01 -6.742303967475891113e-01 -5.380164980888366699e-01
8.816136047244071960e-03 -6.650748252868652344e-01 3.829780817031860352e-01
4.827182739973068237e-02 -5.814731717109680176e-01 -7.171943187713623047e-01
-2.175197377800941467e-02 -5.556827783584594727e-01 -4.146195054054260254e-01
-4.731211438775062561e-02 -6.791391968727111816e-01 8.237212896347045898e-02
3.098191916942596436e-01 -5.657977461814880371e-01 -1.380822062492370605e-01
3.746908009052276611e-01 -6.571846604347229004e-01 1.844881474971771240e-02
2.572869658470153809e-01 -6.741065382957458496e-01 -3.693218231201171875e-01
8.587900549173355103e-02 -6.749442219734191895e-01 2.396892160177230835e-01
-2.269166409969329834e-01 -5.575572252273559570e-01 -4.159954562783241272e-02
3.472744226455688477e-01 -5.931071639060974121e-01 -4.541260600090026855e-01
3.251990377902984619e-01 -6.629043221473693848e-01 -3.908134698867797852e-01
-2.754124701023101807e-01 -5.930770039558410645e-01 -5.626116394996643066e-01
2.219385504722595215e-01 -6.784514784812927246e-01 -1.097453385591506958e-02
-1.161718070507049561e-01 -6.693522334098815918e-01 -6.080412864685058594e-01
-5.788457766175270081e-02 -5.679059624671936035e-01 5.713688135147094727e-01
1.939742267131805420e-01 -6.699054837226867676e-01 -5.884888768196105957e-01
-1.864507645368576050e-01 -6.536607146263122559e-01 3.189401626586914062e-01
-4.052479937672615051e-02 -6.691531538963317871e-01 -6.792323589324951172e-01
-1.343428343534469604e-01 -6.705510616302490234e-01 -5.605024099349975586e-01
-3.788771033287048340e-01 -6.054815053939819336e-01 -1.754034161567687988e-01
2.869689464569091797e-01 -6.737545728683471680e-01 -1.627473831176757812e-01
-7.128323614597320557e-02 -6.696798205375671387e-01 2.592333555221557617e-01
-2.510125339031219482e-01 -6.585360169410705566e-01 -4.713057279586791992e-01
8.285616338253021240e-02 -6.853823661804199219e-01 -3.265717029571533203e-01
-3.402549624443054199e-01 -6.038243174552917480e-01 -4.405540227890014648e-01
1.685999184846878052e-01 -5.482698678970336914e-01 5.232945084571838379e-02
-3.179013729095458984e-01 -5.796508789062500000e-01 -2.754620909690856934e-01
-6.831900775432586670e-02 -6.823501586914062500e-01 -3.474794626235961914e-01
1.667464822530746460e-01 -6.758552789688110352e-01 1.739462465047836304e-01
3.044317364692687988e-01 -6.678447723388671875e-01 7.328258454799652100e-02
2.928775548934936523e-01 -6.636316776275634766e-01 -4.840425848960876465e-01
1.742909662425518036e-02 -5.462410449981689453e-01 2.629666328430175781e-01
2.023789733648300171e-01 -6.044332385063171387e-01 6.751201152801513672e-01
3.243108987808227539e-01 -6.667532324790954590e-01 1.084822416305541992e-02
3.379197418689727783e-01 -6.517039537429809570e-01 2.782957553863525391e-01
2.159367948770523071e-01 -6.392957568168640137e-01 5.648300647735595703e-01
3.771235942840576172e-01 -5.772737860679626465e-01 -5.358012020587921143e-02
-5.146184191107749939e-02 -5.483538508415222168e-01 -2.241218388080596924e-01
2.883678078651428223e-01 -6.725984811782836914e-01 -3.863717243075370789e-02
2.105077356100082397e-01 -6.351059675216674805e-01 -7.850468754768371582e-01
3.795537352561950684e-01 -6.549386978149414062e-01 5.550841987133026123e-02
7.538126409053802490e-02 -6.458125114440917969e-01 -8.461655378341674805e-01
-2.538864314556121826e-01 -5.685061812400817871e-01 2.590850591659545898e-01
3.349356725811958313e-02 -5.777357220649719238e-01 -6.895567774772644043e-01
2.374657839536666870e-01 -6.788684129714965820e-01 -1.525600701570510864e-01
4.189686849713325500e-03 -6.797026395797729492e-01 -5.280559659004211426e-01
4.324035942554473877e-01 -6.188690662384033203e-01 2.055646032094955444e-01
-3.291970193386077881e-01 -5.931276679039001465e-01 2.346265465021133423e-01
-4.392093047499656677e-02 -5.680037736892700195e-01 5.804210901260375977e-01
-2.017555981874465942e-01 -5.780824422836303711e-01 -5.663183927536010742e-01
8.106980472803115845e-02 -6.602068543434143066e-01 4.512963891029357910e-01
3.427266180515289307e-01 -5.722354650497436523e-01 2.321108430624008179e-01
1.736497282981872559e-01 -5.550687909126281738e-01 3.678268790245056152e-01
8.653567731380462646e-02 -6.765558719635009766e-01 2.072964757680892944e-01
1.846816986799240112e-01 -6.426246166229248047e-01 5.661549568176269531e-01
5.989323928952217102e-02 -6.861330866813659668e-01 -1.427035778760910034e-01
2.973713874816894531e-01 -6.315456628799438477e-01 -6.739568710327148438e-01
-2.616202533245086670e-01 -5.783962607383728027e-01 3.548050522804260254e-01
1.612894237041473389e-03 -6.689248681068420410e-01 -6.974577307701110840e-01
2.725984156131744385e-01 -6.731317043304443359e-01 2.200818806886672974e-02
3.222429156303405762e-01 -5.753258466720581055e-01 3.706817030906677246e-01
9.588522836565971375e-03 -6.585564017295837402e-01 -7.898292541503906250e-01
-2.354366481304168701e-01 -5.697983503341674805e-01 -3.984977006912231445e-01
2.153158187866210938e-02 -6.669665575027465820e-01 3.621380329132080078e-01
-3.129320144653320312e-01 -6.480914950370788574e-01 -6.252489984035491943e-03
-1.717524826526641846e-01 -6.342098116874694824e-01 -7.918999195098876953e-01
5.897936969995498657e-02 -6.776427030563354492e-01 -5.746654272079467773e-01
-2.560667395591735840e-01 -6.449812650680541992e-01 -6.144184470176696777e-01
9.296651184558868408e-02 -6.265214085578918457e-01 6.808791160583496094e-01
-2.891506552696228027e-01 -6.541420817375183105e-01 -9.584046900272369385e-03
-3.046757280826568604e-01 -5.716178417205810547e-01 -1.187205612659454346e-01
3.370367586612701416e-01 -6.097931265830993652e-01 5.089209079742431641e-01
-1.325487792491912842e-01 -5.495160222053527832e-01 1.565196067094802856e-01
4.735928773880004883e-02 -6.535221338272094727e-01 5.167613029479980469e-01
2.653999924659729004e-01 -5.584363937377929688e-01 1.935309916734695435e-01
-1.262021958827972412e-01 -5.667555928230285645e-01 5.001367926597595215e-01
3.773997128009796143e-01 -6.574715375900268555e-01 -2.100818604230880737e-01
-3.254722952842712402e-01 -5.765641331672668457e-01 -8.761815726757049561e-02
1.908063143491744995e-01 -5.518935918807983398e-01 -1.263388395309448242e-01
-1.504442989826202393e-01 -6.735543012619018555e-01 3.132179379463195801e-02
-1.318063884973526001e-01 -6.092663407325744629e-01 -8.170850872993469238e-01
-1.713335886597633362e-02 -5.442830920219421387e-01 1.428010314702987671e-01
1.706460565328598022e-01 -5.748424530029296875e-01 -5.849745273590087891e-01
2.161834016442298889e-02 -6.691475510597229004e-01 -6.977074146270751953e-01
7.263803482055664062e-02 -5.509151220321655273e-01 -2.950391173362731934e-01
6.545642018318176270e-02 -6.266174316406250000e-01 6.822507381439208984e-01
2.410096675157546997e-01 -6.715112328529357910e-01 -4.796903729438781738e-01
3.710428774356842041e-01 -6.562246084213256836e-01 -3.046758770942687988e-01
7.821133732795715332e-02 -5.508943796157836914e-01 3.770459294319152832e-01
-2.614679634571075439e-01 -6.540584564208984375e-01 1.241992861032485962e-01
-1.878040134906768799e-01 -5.555878281593322754e-01 -1.949914097785949707e-01
-3.367742523550987244e-02 -5.720871686935424805e-01 -6.355773210525512695e-01
1.706161499023437500e-01 -5.490385890007019043e-01 -4.451322928071022034e-02
3.552693426609039307e-01 -6.574772596359252930e-01 1.260660588741302490e-01
-2.753008008003234863e-01 -6.448608040809631348e-01 -5.659462213516235352e-01
-6.746694445610046387e-03 -6.829478740692138672e-01 3.169745206832885742e-03
-4.895438626408576965e-02 -5.505967140197753906e-01 3.477903604507446289e-01
2.257457524538040161e-01 -6.644933223724365234e-01 -6.093593835830688477e-01
-2.248245477676391602e-01 -6.513898968696594238e-01 -6.318866610527038574e-01
-6.493680179119110107e-02 -5.621831417083740234e-01 5.131216049194335938e-01
2.172108888626098633e-01 -5.601351857185363770e-01 3.911229372024536133e-01
1.443608999252319336e-01 -5.522900223731994629e-01 -2.496845573186874390e-01
1.466328799724578857e-01 -6.652651429176330566e-01 3.709782958030700684e-01
-1.234719604253768921e-01 -5.634794235229492188e-01 4.696873426437377930e-01
3.859156742691993713e-02 -6.577007174491882324e-01 4.755852818489074707e-01
1.780937761068344116e-01 -6.806009411811828613e-01 1.637603342533111572e-02
-3.075089752674102783e-01 -6.361120343208312988e-01 -5.308662652969360352e-01
-1.124945133924484253e-01 -6.418179869651794434e-01 5.238162875175476074e-01
-7.486440241336822510e-02 -5.560723543167114258e-01 -3.975284099578857422e-01
5.961484462022781372e-02 -6.462240815162658691e-01 5.767241120338439941e-01
-1.153960973024368286e-01 -5.567923188209533691e-01 3.893761634826660156e-01
4.292593896389007568e-01 -6.397556066513061523e-01 1.841431111097335815e-02
1.413155645132064819e-01 -6.804429888725280762e-01 -4.567397832870483398e-01
-1.008818447589874268e-01 -6.324470043182373047e-01 5.902047753334045410e-01
3.284913301467895508e-02 -5.436186194419860840e-01 9.259189665317535400e-02
1.208165474236011505e-02 -6.840037107467651367e-01 -4.004744291305541992e-01
-2.150238454341888428e-01 -6.688756942749023438e-01 -7.877203822135925293e-02
3.913422524929046631e-01 -6.427231431007385254e-01 -3.922021389007568359e-01
3.092436119914054871e-02 -5.437075495719909668e-01 1.097365021705627441e-01
-2.873144149780273438e-01 -5.726428627967834473e-01 -2.806695699691772461e-01
3.386121094226837158e-01 -5.776649117469787598e-01 3.493103384971618652e-01
7.689031958580017090e-02 -5.449138879776000977e-01 1.658377945423126221e-01
-1.648792624473571777e-01 -6.723374724388122559e-01 -4.498921632766723633e-01
-3.113040328025817871e-01 -5.794972777366638184e-01 -3.069390654563903809e-01
2.276763916015625000e-01 -6.556825637817382812e-01 -6.842446923255920410e-01
3.630411028861999512e-01 -5.764130353927612305e-01 -1.519244760274887085e-01
-2.040152847766876221e-01 -6.407535672187805176e-01 4.133008718490600586e-01
-3.225739896297454834e-01 -5.972357392311096191e-01 -4.652339220046997070e-01
3.764688968658447266e-01 -5.867552757263183594e-01 3.183568716049194336e-01
1.428719460964202881e-01 -5.534982681274414062e-01 -2.840327620506286621e-01
1.478042006492614746e-01 -5.554356575012207031e-01 4.101884961128234863e-01
3.611323833465576172e-01 -6.615009307861328125e-01 -1.963717043399810791e-01
-3.529035449028015137e-01 -5.897658467292785645e-01 6.653979420661926270e-02
6.327421963214874268e-02 -6.739463806152343750e-01 2.599121928215026855e-01
3.353268802165985107e-01 -5.733318328857421875e-01 -2.239057272672653198e-01
-1.884789764881134033e-02 -6.849902868270874023e-01 -1.418794244527816772e-01
1.630083024501800537e-01 -6.777216196060180664e-01 -4.948980212211608887e-01
-8.186106383800506592e-02 -5.479655861854553223e-01 -1.722541153430938721e-01
2.295292317867279053e-01 -6.787467002868652344e-01 -6.151475757360458374e-02
-1.971526071429252625e-02 -6.615689992904663086e-01 -7.621736526489257812e-01
-3.479802608489990234e-01 -5.897932648658752441e-01 -2.738611698150634766e-01
1.180387884378433228e-01 -5.660133957862854004e-01 -5.290351510047912598e-01
-2.318288385868072510e-01 -6.472212672233581543e-01 3.004413843154907227e-01
3.425839841365814209e-01 -6.635862588882446289e-01 1.826580613851547241e-02
1.964180916547775269e-01 -5.874445438385009766e-01 -6.683156490325927734e-01
2.041624486446380615e-02 -6.856004595756530762e-01 -1.136930882930755615e-01
-3.153725564479827881e-01 -6.399309635162353516e-01 -4.725202322006225586e-01
-3.749683499336242676e-01 -6.216662526130676270e-01 -5.451110377907752991e-02
3.565258681774139404e-01 -5.852997899055480957e-01 -3.452597856521606445e-01
2.237914949655532837e-01 -6.715691089630126953e-01 1.906117945909500122e-01
-8.669561147689819336e-02 -6.709798574447631836e-01 2.177565544843673706e-01
2.015713900327682495e-01 -6.758237481117248535e-01 1.274905353784561157e-01
-1.473450511693954468e-01 -5.662178993225097656e-01 -4.952976703643798828e-01
2.360507994890213013e-01 -6.789388060569763184e-01 -2.097781449556350708e-01
-3.666139841079711914e-01 -6.199983954429626465e-01 -3.333486914634704590e-01
2.636534869670867920e-01 -6.557922363281250000e-01 -6.293554902076721191e-01
3.953749537467956543e-01 -6.292921304702758789e-01 3.175691962242126465e-01
4.358724355697631836e-01 -6.143473982810974121e-01 -2.471366375684738159e-01
-2.537869289517402649e-02 -6.845539808273315430e-01 -3.169479966163635254e-01
-3.135685995221138000e-02 -6.773807406425476074e-01 1.469369530677795410e-01
6.246268004179000854e-02 -5.457608699798583984e-01 2.311045080423355103e-01
-1.987854689359664917e-01 -5.546414852142333984e-01 8.864906430244445801e-02
-6.205945089459419250e-02 -6.753654479980468750e-01 1.595004647970199585e-01
-2.833611667156219482e-01 -6.580774784088134766e-01 -2.794983983039855957e-01
2.288939505815505981e-01 -5.574167966842651367e-01 3.050186634063720703e-01
2.164547294378280640e-01 -5.812511444091796875e-01 6.041417717933654785e-01
-1.788933724164962769e-01 -5.863109827041625977e-01 5.556347966194152832e-01
2.908792197704315186e-01 -5.656986236572265625e-01 -2.224266529083251953e-01
1.551509350538253784e-01 -6.703358888626098633e-01 -6.275660395622253418e-01
3.331497013568878174e-01 -6.499641537666320801e-01 -5.272757411003112793e-01
3.228271603584289551e-01 -5.753081440925598145e-01 -3.102015256881713867e-01
3.423045575618743896e-01 -6.579232215881347656e-01 -4.116107225418090820e-01
-8.758608251810073853e-03 -6.855958104133605957e-01 -2.283059507608413696e-01
3.254906535148620605e-01 -6.430831551551818848e-01 3.953694105148315430e-01
-5.487530305981636047e-02 -6.826983690261840820e-01 -7.110334187746047974e-02
2.988958954811096191e-01 -6.702122688293457031e-01 1.510137319564819336e-02
-1.689024418592453003e-01 -5.749004483222961426e-01 5.106504559516906738e-01
-5.663833394646644592e-02 -5.457324385643005371e-01 -1.024707928299903870e-01
-1.970370411872863770e-01 -6.671118736267089844e-01 6.668099761009216309e-02
3.079030513763427734e-01 -6.285678148269653320e-01 -6.582441329956054688e-01
-1.437074095010757446e-01 -6.767951846122741699e-01 -3.611311316490173340e-01
2.736335694789886475e-01 -6.696455478668212891e-01 -4.315555095672607422e-01
-4.841491952538490295e-02 -5.457892417907714844e-01 -1.190866976976394653e-01
-3.740397691726684570e-01 -6.251221895217895508e-01 -1.882341802120208740e-01
3.331478536128997803e-01 -6.608506441116333008e-01 1.418149769306182861e-01
1.002921462059020996e-01 -6.799537539482116699e-01 -5.095341801643371582e-01
2.172385752201080322e-01 -6.712300777435302734e-01 2.080123275518417358e-01
-2.896115779876708984e-01 -5.701410174369812012e-01 -1.991001367568969727e-01
2.299611568450927734e-01 -5.532384514808654785e-01 7.158397138118743896e-02
-8.984935283660888672e-02 -5.542064905166625977e-01 -3.464784026145935059e-01
1.512721925973892212e-01 -5.592695474624633789e-01 4.687957763671875000e-01
-1.541110724210739136e-01 -5.634888410568237305e-01 -4.460510611534118652e-01
7.725134491920471191e-02 -5.496672391891479492e-01 3.489345312118530273e-01
2.460664361715316772e-01 -5.586929321289062500e-01 -1.869064569473266602e-01
3.977354764938354492e-01 -5.824275016784667969e-01 -1.274450868368148804e-02
5.227701738476753235e-02 -5.473798513412475586e-01 -2.040795385837554932e-01
-4.058873280882835388e-02 -5.800683498382568359e-01 -7.067108750343322754e-01
-1.004243195056915283e-01 -5.481294393539428711e-01 -1.421198844909667969e-01
-3.093075156211853027e-01 -6.525065302848815918e-01 -2.199652343988418579e-01
-1.836309283971786499e-01 -5.570785999298095703e-01 -2.575004994869232178e-01
2.002842277288436890e-01 -5.929753184318542480e-01 6.625847220420837402e-01
2.119385749101638794e-01 -5.546358227729797363e-01 2.724744081497192383e-01
2.214474529027938843e-01 -5.742911100387573242e-01 -5.167888402938842773e-01
-2.383512556552886963e-01 -5.856574773788452148e-01 4.548485279083251953e-01
6.384053826332092285e-02 -6.537423133850097656e-01 5.159527063369750977e-01
2.948322892189025879e-01 -5.649884939193725586e-01 -1.868580877780914307e-01
4.431371390819549561e-01 -6.038447022438049316e-01 -6.639970093965530396e-02
4.220481216907501221e-01 -5.931441783905029297e-01 1.248999089002609253e-01
7.922432571649551392e-02 -5.798513293266296387e-01 -6.942456364631652832e-01
-7.300104945898056030e-03 -6.364018917083740234e-01 -8.775494098663330078e-01
-7.558350265026092529e-02 -5.497746467590332031e-01 -2.459104508161544800e-01
6.265612691640853882e-02 -6.685723662376403809e-01 3.466252684593200684e-01
-1.959276199340820312e-01 -6.725774407386779785e-01 -2.439004629850387573e-01
2.966287732124328613e-01 -6.717286705970764160e-01 -2.582384049892425537e-01
2.429059594869613647e-01 -5.546693205833435059e-01 1.013658493757247925e-01
-3.169897198677062988e-01 -6.505113244056701660e-01 -1.947011947631835938e-01
-1.163128167390823364e-01 -5.596768260002136230e-01 4.316035509109497070e-01
-2.941678762435913086e-01 -5.687674283981323242e-01 -5.923962593078613281e-02
-1.951737254858016968e-01 -5.830752253532409668e-01 -6.213605403900146484e-01
2.019003331661224365e-01 -5.799423456192016602e-01 -6.007382869720458984e-01
-9.168367087841033936e-02 -5.918526649475097656e-01 -7.689640522003173828e-01
-1.356180310249328613e-01 -5.522583127021789551e-01 -2.274329215288162231e-01
2.556309998035430908e-01 -6.009500622749328613e-01 -6.780452728271484375e-01
1.646054536104202271e-01 -6.553241014480590820e-01 4.746876955032348633e-01
3.115950226783752441e-01 -6.697921156883239746e-01 -2.433985620737075806e-01
-2.301484644412994385e-01 -5.631449818611145020e-01 2.417905479669570923e-01
2.389794290065765381e-01 -6.775619983673095703e-01 -3.582124412059783936e-02
-2.049881815910339355e-01 -6.681869029998779297e-01 -4.257307648658752441e-01
-7.280062139034271240e-02 -6.531113386154174805e-01 4.664329290390014648e-01
5.446573346853256226e-02 -5.852538943290710449e-01 6.965395212173461914e-01
2.972433567047119141e-01 -5.734552741050720215e-01 -3.560450077056884766e-01
1.781383156776428223e-01 -6.780757308006286621e-01 1.026748120784759521e-01
-1.697704493999481201e-01 -6.129536032676696777e-01 -7.943366169929504395e-01
7.251378893852233887e-02 -6.845577359199523926e-01 -3.805623054504394531e-01
3.550304174423217773e-01 -6.584115028381347656e-01 -3.473230600357055664e-01
3.722982406616210938e-01 -5.758933424949645996e-01 1.098759621381759644e-01
1.165676265954971313e-01 -6.822844147682189941e-01 3.999094665050506592e-02
-1.486840248107910156e-01 -6.362088918685913086e-01 5.220754146575927734e-01
-1.409300714731216431e-01 -6.723011136054992676e-01 9.304483234882354736e-02
-2.904167771339416504e-01 -5.864848494529724121e-01 -4.719850420951843262e-01
2.860636115074157715e-01 -6.738275289535522461e-01 -1.816596686840057373e-01
-2.571451067924499512e-01 -6.519424319267272949e-01 1.738773137331008911e-01
9.588306397199630737e-02 -5.669281482696533203e-01 -5.554581284523010254e-01
1.103857010602951050e-01 -6.418712735176086426e-01 -8.448227047920227051e-01
3.171610236167907715e-01 -5.925952792167663574e-01 -5.218155384063720703e-01
-1.483212411403656006e-02 -6.156319975852966309e-01 6.988973617553710938e-01
-3.537449538707733154e-01 -5.886198282241821289e-01 -1.994023323059082031e-01
-1.754514575004577637e-01 -5.783524513244628906e-01 -6.032979488372802734e-01
-1.514142751693725586e-02 -6.480332016944885254e-01 5.453495383262634277e-01
6.307548284530639648e-02 -5.449284911155700684e-01 -8.150915801525115967e-02
3.752445280551910400e-01 -5.760712623596191406e-01 4.288321733474731445e-02
6.636879593133926392e-02 -6.826961040496826172e-01 -4.535423517227172852e-01
4.192073941230773926e-01 -6.395385861396789551e-01 1.175714880228042603e-01
2.389926090836524963e-02 -6.826859116554260254e-01 3.826425969600677490e-02
2.213824093341827393e-01 -6.735993027687072754e-01 1.487921923398971558e-01
3.243117406964302063e-02 -6.815786361694335938e-01 7.891431450843811035e-02
2.212565690279006958e-01 -6.760954260826110840e-01 8.070200681686401367e-02
1.410962790250778198e-01 -6.409999132156372070e-01 5.984349846839904785e-01
-1.220092773437500000e-01 -6.687888503074645996e-01 2.063547521829605103e-01
4.062924683094024658e-01 -5.870515704154968262e-01 -1.078062728047370911e-01
1.891253590583801270e-01 -5.969665050506591797e-01 6.783534288406372070e-01
2.478554695844650269e-01 -5.599697828292846680e-01 3.152645230293273926e-01
5.835987627506256104e-02 -6.634089946746826172e-01 4.146457314491271973e-01
-9.927642345428466797e-02 -6.734317541122436523e-01 1.492224037647247314e-01
3.249084353446960449e-01 -6.672878265380859375e-01 -2.638899683952331543e-01
-7.737393677234649658e-02 -5.764361023902893066e-01 -6.630054712295532227e-01
-6.531050801277160645e-02 -6.726117730140686035e-01 -6.147595643997192383e-01
2.927550375461578369e-01 -5.607362389564514160e-01 8.479760587215423584e-02
-1.825932860374450684e-01 -5.596777796745300293e-01 3.135575652122497559e-01
1.380227059125900269e-01 -6.539407968521118164e-01 5.006901621818542480e-01
3.471837341785430908e-01 -6.646025180816650391e-01 -1.639119237661361694e-01
-1.787954866886138916e-01 -6.556839942932128906e-01 -6.760375499725341797e-01
3.905272781848907471e-01 -6.535811424255371094e-01 7.133424282073974609e-03
-1.042558997869491577e-01 -6.672009229660034180e-01 2.603195309638977051e-01
-2.274267077445983887e-01 -6.636808514595031738e-01 4.422111809253692627e-02
-2.832409143447875977e-01 -6.189238429069519043e-01 -6.362017393112182617e-01
-3.641214594244956970e-02 -5.566802620887756348e-01 -4.286336302757263184e-01
-5.010964348912239075e-02 -5.912013053894042969e-01 -7.808372378349304199e-01
4.449580609798431396e-01 -6.314119100570678711e-01 -4.104454442858695984e-02
2.062533348798751831e-01 -5.582563281059265137e-01 3.764678239822387695e-01
-2.214152738451957703e-02 -6.756824851036071777e-01 -5.952767729759216309e-01
-1.706128120422363281e-01 -5.658081769943237305e-01 -4.590902328491210938e-01
-2.965109944343566895e-01 -6.520013213157653809e-01 -3.867875933647155762e-01
-2.724939957261085510e-02 -5.661967992782592773e-01 -5.708959698677062988e-01
-6.335556507110595703e-02 -5.990331172943115234e-01 -8.163516521453857422e-01
2.531080543994903564e-01 -6.216133832931518555e-01 6.088817119598388672e-01
-3.681866526603698730e-01 -6.087034344673156738e-01 7.615801692008972168e-02
3.191026747226715088e-01 -6.218224167823791504e-01 5.216826796531677246e-01
5.621964484453201294e-02 -5.441399812698364258e-01 1.323568820953369141e-01
-1.830440759658813477e-01 -6.137268543243408203e-01 -7.825809717178344727e-01
2.815097272396087646e-01 -6.645026206970214844e-01 2.175295799970626831e-01
-1.531955599784851074e-01 -6.611222624778747559e-01 2.794699072837829590e-01
-1.490829288959503174e-01 -5.532488226890563965e-01 2.489180117845535278e-01
1.325208991765975952e-01 -5.616080760955810547e-01 5.147783160209655762e-01
3.290756642818450928e-01 -5.866478085517883301e-01 4.593586921691894531e-01
2.469092309474945068e-01 -6.498554348945617676e-01 4.559665322303771973e-01
-2.312514483928680420e-01 -5.589660406112670898e-01 -1.220997124910354614e-01
2.945323288440704346e-01 -6.515111327171325684e-01 3.723880648612976074e-01
3.414320945739746094e-01 -5.694485902786254883e-01 1.370437443256378174e-01
1.448383629322052002e-01 -6.775395870208740234e-01 -5.218702554702758789e-01
2.130291052162647247e-02 -6.788204312324523926e-01 -5.522682070732116699e-01
-9.149435162544250488e-02 -6.771568655967712402e-01 6.755118072032928467e-02
-1.381158530712127686e-01 -5.551331639289855957e-01 -3.048698902130126953e-01
8.453230559825897217e-02 -6.710687279701232910e-01 3.076437115669250488e-01
1.936776787042617798e-01 -6.821669340133666992e-01 -1.918525993824005127e-01
2.189674824476242065e-01 -6.705343723297119141e-01 -5.407207012176513672e-01
8.519578725099563599e-02 -5.508800745010375977e-01 -2.843701243400573730e-01
1.458749733865261078e-02 -5.539355874061584473e-01 4.428080320358276367e-01
-6.638298928737640381e-02 -5.669458508491516113e-01 -5.675726532936096191e-01
-2.257186770439147949e-01 -5.595740675926208496e-01 1.627390682697296143e-01
2.222474291920661926e-02 -5.724669694900512695e-01 -6.420207619667053223e-01
2.980256080627441406e-01 -5.707859992980957031e-01 3.772576451301574707e-01
2.916638851165771484e-01 -5.613666176795959473e-01 -5.783946067094802856e-02
4.258565604686737061e-02 -6.850233078002929688e-01 -5.651962757110595703e-02
2.096994966268539429e-01 -5.527040362358093262e-01 2.024006396532058716e-01
-3.367620706558227539e-01 -6.159060597419738770e-01 -4.861776828765869141e-01
2.700103521347045898e-01 -6.729864478111267090e-01 3.828673809766769409e-02
-1.243464797735214233e-01 -6.339266300201416016e-01 5.611740350723266602e-01
-1.128232777118682861e-01 -6.738449931144714355e-01 1.151926368474960327e-01
2.180334776639938354e-01 -5.706981420516967773e-01 5.265451073646545410e-01
1.130129992961883545e-01 -5.558316111564636230e-01 -3.711433410644531250e-01
4.464688897132873535e-02 -5.634647607803344727e-01 -5.331247448921203613e-01
3.013845384120941162e-01 -5.625317692756652832e-01 1.414918899536132812e-01
-1.732325553894042969e-01 -6.483786106109619141e-01 3.966997861862182617e-01
2.671671509742736816e-01 -5.787345170974731445e-01 -4.917605519294738770e-01
-5.232471600174903870e-02 -5.576686263084411621e-01 -4.396528601646423340e-01
-4.654710367321968079e-02 -6.842654347419738770e-01 -1.865047514438629150e-01
1.602246612310409546e-02 -6.008282899856567383e-01 -8.345722556114196777e-01
-3.298807442188262939e-01 -5.801286101341247559e-01 7.673843204975128174e-02
4.296725094318389893e-01 -6.144384145736694336e-01 2.264301925897598267e-01
3.698777556419372559e-01 -6.516621112823486328e-01 -3.892408013343811035e-01
1.166528314352035522e-01 -6.833349466323852539e-01 -3.925669193267822266e-01
-2.324238121509552002e-01 -5.787672400474548340e-01 -5.231997966766357422e-01
8.401795476675033569e-02 -6.847171187400817871e-01 -4.361570999026298523e-02
-2.043429762125015259e-01 -6.499050855636596680e-01 3.282247185707092285e-01
-1.657051891088485718e-01 -6.339945793151855469e-01 5.144946575164794922e-01
2.578116655349731445e-01 -5.579908490180969238e-01 2.158547192811965942e-01
1.087164133787155151e-01 -5.472195744514465332e-01 2.401724010705947876e-01
1.315527260303497314e-01 -6.177865266799926758e-01 6.977208852767944336e-01
2.132139056921005249e-01 -5.620807409286499023e-01 4.305255413055419922e-01
2.480828016996383667e-01 -6.762128472328186035e-01 -7.054105401039123535e-03
1.705200076103210449e-01 -6.449247598648071289e-01 -7.974740266799926758e-01
1.246700584888458252e-01 -6.824697256088256836e-01 -4.150757789611816406e-01
4.034784138202667236e-01 -5.946674346923828125e-01 -2.683840095996856689e-01
8.076767623424530029e-02 -5.696752071380615234e-01 -5.956630706787109375e-01
1.425511389970779419e-01 -5.956164598464965820e-01 -7.650087475776672363e-01
7.123669981956481934e-02 -5.472632050514221191e-01 2.834160923957824707e-01
8.939049392938613892e-02 -5.445542931556701660e-01 7.224021852016448975e-02
-1.789176166057586670e-01 -5.524066090583801270e-01 -6.136157363653182983e-02
3.046746850013732910e-01 -6.632831096649169922e-01 -4.556131362915039062e-01
5.979538708925247192e-02 -6.832418441772460938e-01 -4.375167489051818848e-01
3.031405210494995117e-01 -5.927502512931823730e-01 5.402571558952331543e-01
3.509215414524078369e-01 -5.975135564804077148e-01 -4.785900712013244629e-01
2.088127583265304565e-01 -5.573540925979614258e-01 -2.565124332904815674e-01
-1.239377409219741821e-01 -5.479800701141357422e-01 8.157989382743835449e-02
1.498297303915023804e-01 -5.670369267463684082e-01 -5.148074626922607422e-01
2.993628680706024170e-01 -6.705613136291503906e-01 -2.939961850643157959e-03
4.389521852135658264e-02 -6.601771712303161621e-01 -7.780769467353820801e-01
4.002220034599304199e-01 -6.462300419807434082e-01 1.244593560695648193e-01
2.941379249095916748e-01 -5.620204806327819824e-01 -7.594951987266540527e-02
9.474688023328781128e-02 -5.456845760345458984e-01 1.853654533624649048e-01
2.445116788148880005e-01 -5.683248639106750488e-01 -3.977308273315429688e-01
2.281498014926910400e-01 -6.765017509460449219e-01 4.966492950916290283e-02
1.072610020637512207e-01 -6.855931878089904785e-01 -1.432304233312606812e-01
-8.804655075073242188e-02 -6.730437278747558594e-01 -5.842311382293701172e-01
1.373129189014434814e-01 -5.724114179611206055e-01 6.114671230316162109e-01
-1.246345788240432739e-01 -6.005758047103881836e-01 6.431920528411865234e-01
2.739853560924530029e-01 -6.407034993171691895e-01 -6.920929551124572754e-01
2.851453721523284912e-01 -5.963832139968872070e-01 -6.083664298057556152e-01
-1.023657023906707764e-01 -5.572741627693176270e-01 -3.974394798278808594e-01
2.641312777996063232e-01 -5.598287582397460938e-01 2.546941637992858887e-01
-2.469841241836547852e-01 -5.736224651336669922e-01 3.483401536941528320e-01
-2.491424381732940674e-01 -6.351866126060485840e-01 3.693007230758666992e-01
-6.532056629657745361e-02 -5.450187921524047852e-01 8.051282167434692383e-02
2.827541828155517578e-01 -6.660547852516174316e-01 1.847099214792251587e-01
1.241773366928100586e-01 -5.589121580123901367e-01 4.862392544746398926e-01
2.437770515680313110e-01 -5.823957920074462891e-01 5.795345902442932129e-01
-7.558168470859527588e-02 -6.641808152198791504e-01 3.381866216659545898e-01
5.359870940446853638e-02 -6.584419608116149902e-01 4.699133038520812988e-01
-4.464798048138618469e-02 -5.477731227874755859e-01 -2.097076624631881714e-01
5.231384187936782837e-02 -6.710251569747924805e-01 -6.745973825454711914e-01
2.643359303474426270e-01 -5.656901001930236816e-01 -3.058610558509826660e-01
-3.780544996261596680e-01 -6.056135296821594238e-01 -1.948955506086349487e-01
3.018905520439147949e-01 -6.058965325355529785e-01 -6.282176971435546875e-01
2.565224468708038330e-01 -5.584535598754882812e-01 2.401347011327743530e-01
-7.328201830387115479e-02 -5.874643325805664062e-01 -7.503255605697631836e-01
1.184948533773422241e-01 -6.836070418357849121e-01 -1.731213927268981934e-02
5.017069354653358459e-02 -5.543907880783081055e-01 4.508864283561706543e-01
2.051213234663009644e-01 -6.489729285240173340e-01 -7.491513490676879883e-01
2.928650677204132080e-01 -6.693607568740844727e-01 -3.708534836769104004e-01
4.437969028949737549e-01 -6.231709718704223633e-01 1.065600514411926270e-01
2.474621683359146118e-02 -5.638450384140014648e-01 -5.423411130905151367e-01
-1.760797202587127686e-01 -6.070886254310607910e-01 5.869151353836059570e-01
-1.123699843883514404e-01 -5.470810532569885254e-01 1.284226030111312866e-02
3.183527290821075439e-01 -5.733425617218017578e-01 -2.902657389640808105e-01
2.315221875905990601e-01 -5.570539832115173340e-01 2.870717048645019531e-01
-2.407051622867584229e-01 -6.589719057083129883e-01 1.042440682649612427e-01
9.455958008766174316e-02 -5.865829586982727051e-01 -7.381513714790344238e-01
-9.702897071838378906e-02 -6.713657379150390625e-01 1.960725635290145874e-01
-7.146851718425750732e-02 -6.753873825073242188e-01 -5.603211522102355957e-01
3.252694606781005859e-01 -5.667387843132019043e-01 1.568609327077865601e-01
3.755155801773071289e-01 -6.518080234527587891e-01 1.495622247457504272e-01
3.209375739097595215e-01 -6.610859036445617676e-01 1.782640367746353149e-01
2.603009939193725586e-01 -6.378127932548522949e-01 -7.200745344161987305e-01
1.189267039299011230e-01 -6.854717731475830078e-01 -1.765660047531127930e-01
1.591843068599700928e-01 -5.598261356353759766e-01 -3.946859240531921387e-01
-1.844883114099502563e-01 -5.771558880805969238e-01 -5.804969072341918945e-01
3.120983839035034180e-01 -6.317245960235595703e-01 4.939042329788208008e-01
2.149325311183929443e-01 -6.554639935493469238e-01 -7.018364667892456055e-01
9.627158939838409424e-02 -5.454787611961364746e-01 1.677555739879608154e-01
3.516296744346618652e-01 -5.810640454292297363e-01 -3.028528392314910889e-01
7.833606004714965820e-02 -5.477634668350219727e-01 -1.964879631996154785e-01
4.624750092625617981e-02 -5.438948869705200195e-01 1.188044697046279907e-01
3.077867925167083740e-01 -5.646994709968566895e-01 -1.072186753153800964e-01
-5.231503769755363464e-02 -5.490158796310424805e-01 3.051337599754333496e-01
-1.913815140724182129e-01 -6.714251637458801270e-01 -5.525892972946166992e-02
-1.230017840862274170e-01 -6.740558743476867676e-01 -5.104697346687316895e-01
-3.103715777397155762e-01 -5.927867889404296875e-01 3.027291893959045410e-01
