1.468118093907833099e-02 2.122313678264617920e-01 -6.664157658815383911e-02
-3.402295336127281189e-02 5.728464573621749878e-02 -2.521205693483352661e-02
-2.587390132248401642e-03 2.012992799282073975e-01 1.483142822980880737e-01
2.708328887820243835e-02 3.544360399246215820e-03 -3.442539274692535400e-02
-5.859029293060302734e-02 1.421999335289001465e-01 1.611862890422344208e-02
-4.383829981088638306e-02 5.617479979991912842e-02 6.240148097276687622e-02
1.564811542630195618e-02 1.220402792096138000e-01 1.622847020626068115e-01
4.554514959454536438e-02 4.547730088233947754e-02 1.290126591920852661e-01
4.248807951807975769e-02 1.446612626314163208e-01 1.516565233469009399e-01
-4.125092551112174988e-02 1.813046783208847046e-01 -3.692312538623809814e-02
3.366871736943721771e-03 7.783078402280807495e-02 1.516869068145751953e-01
2.914534881711006165e-02 2.255921810865402222e-02 1.219829469919204712e-01
-1.660743728280067444e-02 2.737230658531188965e-01 2.121720649302005768e-02
-4.208138212561607361e-02 1.643135845661163330e-01 1.203086152672767639e-01
5.930657312273979187e-02 2.023287713527679443e-01 -3.678417205810546875e-02
3.623395040631294250e-02 2.678495049476623535e-01 6.006138399243354797e-02
-2.700798213481903076e-04 1.928191632032394409e-01 -7.373217493295669556e-02
6.543328054249286652e-03 2.714992165565490723e-01 8.829143643379211426e-02
-3.890952467918395996e-02 2.243651747703552246e-01 -1.551229879260063171e-02
4.907822608947753906e-02 1.679750829935073853e-01 -6.808319687843322754e-02
-4.323844239115715027e-02 5.072238296270370483e-02 2.760482020676136017e-02
5.089676380157470703e-02 1.242536902427673340e-01 1.455655246973037720e-01
8.292488753795623779e-02 9.652279317378997803e-02 8.415014296770095825e-02
8.393774926662445068e-02 1.070688143372535706e-01 -1.400455832481384277e-02
-1.664311438798904419e-02 1.300105750560760498e-01 1.521460115909576416e-01
-3.052345663309097290e-02 2.572841048240661621e-01 7.091943919658660889e-02
-4.218744486570358276e-02 5.106012523174285889e-02 1.508665084838867188e-02
8.243882656097412109e-02 7.758148759603500366e-02 7.848618924617767334e-02
-4.386017471551895142e-02 2.396175414323806763e-01 4.245847463607788086e-02
-4.048670828342437744e-02 2.394202351570129395e-01 7.320094108581542969e-02
-5.300951004028320312e-02 2.025915086269378662e-01 1.349928602576255798e-02
5.260454490780830383e-04 7.165953516960144043e-02 -7.485745102167129517e-02
4.938222095370292664e-02 1.247862949967384338e-01 -7.540746033191680908e-02
-1.954355463385581970e-02 2.734635174274444580e-01 3.418295085430145264e-02
-5.996462702751159668e-02 1.403840929269790649e-01 4.123939946293830872e-02
5.648602917790412903e-02 7.433804869651794434e-02 -6.253724545240402222e-02
-4.906222969293594360e-02 9.027536213397979736e-02 8.477205038070678711e-02
-4.134719260036945343e-03 1.440255492925643921e-01 1.594464629888534546e-01
-4.872498661279678345e-02 2.044973373413085938e-01 -4.777856171131134033e-03
-5.465897172689437866e-02 1.374434232711791992e-01 8.633106201887130737e-02
5.837810039520263672e-02 2.118011713027954102e-01 1.046034693717956543e-01
5.842067673802375793e-02 1.123875007033348083e-01 -6.658668071031570435e-02
-1.838799566030502319e-02 1.514514386653900146e-01 1.510069370269775391e-01
5.847274884581565857e-02 1.294558495283126831e-02 -1.741830632090568542e-02
2.318827435374259949e-02 2.479880750179290771e-01 -3.623866289854049683e-02
3.210685029625892639e-02 6.247691810131072998e-02 1.451795548200607300e-01
8.806940913200378418e-02 1.173236817121505737e-01 5.986380577087402344e-02
1.874948292970657349e-02 2.289547026157379150e-02 -5.350489914417266846e-02
7.911252975463867188e-02 3.809937089681625366e-02 4.485201463103294373e-02
8.642421662807464600e-02 9.139890968799591064e-02 6.600389629602432251e-02
-3.615534678101539612e-02 5.323819071054458618e-02 -1.528600603342056274e-02
-1.422636490315198898e-02 3.321648389101028442e-02 -3.958529978990554810e-02
-2.612955123186111450e-02 3.822504729032516479e-02 -2.407405525445938110e-02
-5.157200247049331665e-02 1.166656836867332458e-01 9.189489483833312988e-02
2.442006208002567291e-02 1.950645595788955688e-01 1.494978964328765869e-01
-4.963339865207672119e-02 1.243576854467391968e-01 -2.130148932337760925e-02
6.601436436176300049e-02 2.223943024873733521e-01 8.374938741326332092e-03
-4.675760492682456970e-02 2.279177308082580566e-01 6.469625234603881836e-02
8.514542877674102783e-02 9.172461926937103271e-02 7.314094901084899902e-02
-1.722814142704010010e-02 2.640786767005920410e-01 8.657802641391754150e-02
6.408935040235519409e-02 1.584105491638183594e-01 -5.244966596364974976e-02
7.032813876867294312e-02 8.449093252420425415e-02 -4.572804272174835205e-02
6.811942160129547119e-02 9.276316314935684204e-02 1.201352924108505249e-01
7.617092132568359375e-02 1.863572150468826294e-01 -4.963219165802001953e-03
4.977471008896827698e-02 2.157211303710937500e-01 1.164538115262985229e-01
-4.579669609665870667e-02 1.565102338790893555e-01 -3.291472792625427246e-02
8.606620132923126221e-02 1.252459734678268433e-01 7.151460647583007812e-02
5.331587791442871094e-02 1.089349389076232910e-03 7.439052313566207886e-02
3.682326897978782654e-02 -3.390133380889892578e-03 -2.113170921802520752e-02
4.943430423736572266e-02 1.465291976928710938e-01 1.455004811286926270e-01
2.961579523980617523e-02 2.382014244794845581e-01 -4.228578507900238037e-02
5.601873993873596191e-02 9.292528033256530762e-02 -6.734443455934524536e-02
5.241236090660095215e-02 2.458298951387405396e-02 -3.948053717613220215e-02
7.514260709285736084e-02 1.927476525306701660e-01 7.345034927129745483e-02
3.123378008604049683e-02 8.926742523908615112e-02 -8.254722505807876587e-02
-4.511748999357223511e-02 2.236458510160446167e-01 8.041516691446304321e-02
7.448909431695938110e-02 2.008680701255798340e-01 6.318961083889007568e-02
-4.949487745761871338e-02 1.216929107904434204e-01 1.005446389317512512e-01
5.780496820807456970e-02 8.800794184207916260e-02 1.339644193649291992e-01
3.746575489640235901e-02 1.737114340066909790e-01 1.496848911046981812e-01
8.689100295305252075e-02 1.384793668985366821e-01 6.086540222167968750e-02
2.793805673718452454e-02 9.201796352863311768e-02 1.559273302555084229e-01
-3.809259086847305298e-02 5.902407318353652954e-02 9.187124669551849365e-02
6.611917167901992798e-03 2.678470015525817871e-01 9.493261575698852539e-02
6.345544755458831787e-02 1.607529520988464355e-01 1.245282441377639771e-01
-3.358158841729164124e-02 2.335869967937469482e-01 1.006150916218757629e-01
2.602946572005748749e-02 2.697238326072692871e-01 7.345080375671386719e-04
2.600231394171714783e-02 2.746306657791137695e-01 1.647057943046092987e-02
-5.234899371862411499e-02 9.930376708507537842e-02 7.777955383062362671e-02
-3.514184430241584778e-02 2.340358197689056396e-01 -1.410240307450294495e-02
5.543513223528862000e-02 1.640901714563369751e-02 9.396713227033615112e-02
-5.229724943637847900e-02 2.057690918445587158e-01 6.967942416667938232e-02
7.129764184355735779e-03 1.169413104653358459e-01 1.613917052745819092e-01
-3.851796314120292664e-02 8.855509757995605469e-02 1.136183738708496094e-01
-2.916964143514633179e-02 2.457002103328704834e-01 9.511105716228485107e-02
-4.281071946024894714e-02 9.157564491033554077e-02 1.054539158940315247e-01
4.562672227621078491e-03 4.263648390769958496e-02 1.348477900028228760e-01
4.036127775907516479e-02 2.553301155567169189e-01 -6.565406918525695801e-03
4.533101618289947510e-02 -1.054956018924713135e-02 3.923159092664718628e-03
1.315880194306373596e-02 5.091913789510726929e-02 -7.046704739332199097e-02
4.408267140388488770e-02 1.329625695943832397e-01 -7.895500212907791138e-02
6.287905573844909668e-02 2.248102575540542603e-01 -9.739659726619720459e-04
7.134860754013061523e-02 4.803799837827682495e-02 -2.631289511919021606e-02
-3.510465100407600403e-02 2.182158529758453369e-01 -2.885120362043380737e-02
3.095890209078788757e-02 1.421934217214584351e-01 -8.485555648803710938e-02
-6.136062555015087128e-03 -8.507817983627319336e-03 2.416139841079711914e-02
9.482700377702713013e-03 1.269384771585464478e-01 1.624464690685272217e-01
-7.102194242179393768e-03 -8.084952831268310547e-03 4.218547418713569641e-02
-2.248251810669898987e-02 9.895575046539306641e-02 1.414305269718170166e-01
-4.874001257121562958e-03 2.128303050994873047e-01 -6.292451173067092896e-02
7.997088879346847534e-02 1.876203864812850952e-01 2.565826103091239929e-02
5.400875955820083618e-02 1.321067363023757935e-01 -7.067032903432846069e-02
1.969080604612827301e-02 8.443376421928405762e-02 1.556156277656555176e-01
-4.125031456351280212e-02 4.915639758110046387e-02 6.259213387966156006e-02
7.385764271020889282e-02 1.656998693943023682e-01 -2.940281480550765991e-02
-5.048012733459472656e-02 8.999516069889068604e-02 1.359656453132629395e-04
-5.710114538669586182e-02 1.674908548593521118e-01 7.260474562644958496e-02
5.612765997648239136e-02 3.388125449419021606e-02 -4.256881028413772583e-02
7.647000998258590698e-02 9.727799147367477417e-02 1.038148254156112671e-01
5.380690470337867737e-02 -7.763892412185668945e-03 2.290739864110946655e-02
1.868322677910327911e-02 3.056342154741287231e-02 -5.928036570549011230e-02
7.971089333295822144e-02 1.116030588746070862e-01 9.687118232250213623e-02
7.971402257680892944e-02 3.866899758577346802e-02 3.404171019792556763e-02
-5.813216418027877808e-02 1.189962849020957947e-01 2.629223093390464783e-02
8.868193626403808594e-02 1.268230676651000977e-01 1.756874285638332367e-02
7.129459083080291748e-02 1.554024815559387207e-01 -4.017521440982818604e-02
8.277120441198348999e-02 5.977228283882141113e-02 6.153465807437896729e-02
8.651345968246459961e-02 1.561179012060165405e-01 3.612428158521652222e-02
3.801816701889038086e-02 1.468169242143630981e-01 -8.110504597425460815e-02
5.529484152793884277e-02 1.182630956172943115e-01 -7.005254179239273071e-02
-4.690941423177719116e-02 1.938476562500000000e-01 1.002498641610145569e-01
7.523146457970142365e-03 1.981813013553619385e-01 1.512239277362823486e-01
-3.072417527437210083e-02 1.524587422609329224e-01 1.388007551431655884e-01
8.492311090230941772e-02 6.242084503173828125e-02 1.889002509415149689e-02
6.164874881505966187e-02 1.321129500865936279e-02 -1.067123934626579285e-02
2.230958268046379089e-02 2.789179682731628418e-01 4.703235626220703125e-02
1.062512397766113281e-03 2.189844846725463867e-03 -2.133069559931755066e-02
5.288524180650711060e-02 7.849767804145812988e-02 -6.733673810958862305e-02
7.616812735795974731e-02 3.807896375656127930e-02 6.613436341285705566e-02
-2.772541344165802002e-02 1.712936908006668091e-02 3.324642404913902283e-02
6.307119876146316528e-02 2.299766540527343750e-01 6.233727931976318359e-02
-4.991962015628814697e-02 1.049427315592765808e-01 -1.310344785451889038e-02
-4.533090442419052124e-02 8.542160689830780029e-02 -1.652595773339271545e-02
5.652793683111667633e-03 2.790075540542602539e-01 6.925848126411437988e-02
-4.542373120784759521e-02 1.043930202722549438e-01 1.053230464458465576e-01
-4.369992017745971680e-02 2.372339814901351929e-01 2.303673326969146729e-02
-4.226244986057281494e-02 1.224201321601867676e-01 -3.953242301940917969e-02
8.523803949356079102e-02 9.314523637294769287e-02 -5.797605961561203003e-03
2.764437347650527954e-02 2.215269207954406738e-01 -5.712658911943435669e-02
6.982516497373580933e-02 2.191571891307830811e-01 3.340558707714080811e-02
7.944057881832122803e-02 1.252777427434921265e-01 9.729763865470886230e-02
9.905104525387287140e-03 2.161490172147750854e-02 1.206909045577049255e-01
-1.720526814460754395e-02 2.269908785820007324e-03 4.085918515920639038e-02
7.498342543840408325e-02 5.291899293661117554e-02 8.714186400175094604e-02
-1.384042296558618546e-02 1.675605177879333496e-01 1.524288058280944824e-01
-3.798235580325126648e-02 1.937534809112548828e-01 1.195723712444305420e-01
-4.963013529777526855e-02 2.206624746322631836e-01 6.083357334136962891e-02
-3.930370509624481201e-02 1.002729907631874084e-01 1.174960583448410034e-01
-2.262214198708534241e-02 1.155028045177459717e-01 -6.813142448663711548e-02
3.984478116035461426e-02 -6.635248661041259766e-03 -1.304358243942260742e-02
2.944813109934329987e-02 2.536478638648986816e-01 -2.466828003525733948e-02
3.458726406097412109e-02 -2.000930905342102051e-02 2.771938219666481018e-02
-2.509713172912597656e-02 1.857239902019500732e-01 1.393922567367553711e-01
3.283548355102539062e-02 2.725093364715576172e-01 3.180032223463058472e-02
2.549182996153831482e-02 5.317550897598266602e-02 1.428324431180953979e-01
-2.304520457983016968e-02 9.878672659397125244e-03 3.435703366994857788e-02
-2.333670482039451599e-02 1.098145544528961182e-02 4.771605506539344788e-02
5.576092749834060669e-02 1.493652760982513428e-01 1.381861716508865356e-01
6.631103157997131348e-02 2.701049298048019409e-02 -1.832361891865730286e-02
4.103820025920867920e-02 4.307533055543899536e-02 -6.187415122985839844e-02
8.487793058156967163e-02 1.607941985130310059e-01 1.551335677504539490e-02
-5.745998583734035492e-03 5.963689088821411133e-02 1.393811404705047607e-01
-3.615913540124893188e-02 2.478825598955154419e-01 1.055503822863101959e-02
-4.421537742018699646e-02 2.091906070709228516e-01 -1.520976424217224121e-02
-5.406232178211212158e-02 2.034775167703628540e-01 2.328152395784854889e-02
-5.595302581787109375e-02 1.750913262367248535e-01 7.594107836484909058e-02
-2.903866767883300781e-02 2.413293719291687012e-01 -1.808819547295570374e-02
8.345391601324081421e-02 1.678133457899093628e-01 5.684472620487213135e-02
-3.967540338635444641e-02 2.482916712760925293e-01 4.058817401528358459e-02
5.409748852252960205e-02 1.160829812288284302e-01 1.421101540327072144e-01
4.511644691228866577e-02 2.527283728122711182e-01 7.799001038074493408e-02
4.661229997873306274e-02 1.391977816820144653e-01 1.488665938377380371e-01
-1.886714622378349304e-02 3.012891858816146851e-02 -2.930103242397308350e-02
7.604373246431350708e-02 9.213046729564666748e-02 -3.560706973075866699e-02
-4.830612987279891968e-02 1.152084916830062866e-01 -2.271493151783943176e-02
7.292591035366058350e-02 7.467265427112579346e-02 -3.751033544540405273e-02
8.635634183883666992e-02 7.002881169319152832e-02 4.513666778802871704e-02
2.182726562023162842e-02 5.431637167930603027e-02 -7.292253524065017700e-02
-1.573938503861427307e-02 2.126889526844024658e-01 1.366954296827316284e-01
7.821880280971527100e-02 1.874066293239593506e-01 6.415581703186035156e-02
-5.510269850492477417e-02 1.118128597736358643e-01 7.303331792354583740e-02
-1.037476863712072372e-02 2.173424214124679565e-01 -5.747641623020172119e-02
3.223619237542152405e-02 1.081980764865875244e-01 1.571772396564483643e-01
5.494695156812667847e-02 3.265395760536193848e-03 -8.820373564958572388e-03
-2.105332911014556885e-02 2.487517148256301880e-01 1.039817407727241516e-01
-1.557003986090421677e-02 9.944340586662292480e-02 -7.203627377748489380e-02
-1.690409332513809204e-02 2.663649916648864746e-01 7.173791527748107910e-05
1.308106631040573120e-02 9.508366137742996216e-02 1.584100425243377686e-01
7.674919068813323975e-02 3.144569694995880127e-02 4.634708166122436523e-02
5.392541736364364624e-02 -4.404246807098388672e-03 5.886597931385040283e-02
-5.952133238315582275e-02 1.410459727048873901e-01 5.450542271137237549e-02
1.905057020485401154e-02 2.537942230701446533e-01 1.106921732425689697e-01
-5.086097121238708496e-02 1.296764910221099854e-01 9.848684072494506836e-02
5.766698718070983887e-02 2.342184185981750488e-01 -1.861669123172760010e-03
7.856515794992446899e-02 9.401812404394149780e-02 9.760630130767822266e-02
4.004460573196411133e-02 -1.239815354347229004e-02 6.651106476783752441e-02
-4.016524553298950195e-02 1.442125737667083740e-01 -4.536781460046768188e-02
7.169862836599349976e-02 1.978597193956375122e-01 -9.079426527023315430e-03
6.119399517774581909e-02 1.169895157217979431e-01 1.335952281951904297e-01
5.118904262781143188e-02 2.340272367000579834e-01 9.520450234413146973e-02
1.599272526800632477e-02 9.867735207080841064e-03 -4.082074761390686035e-02
8.525193482637405396e-02 1.240002140402793884e-01 -7.288202643394470215e-03
-4.163793288171291351e-03 2.742307186126708984e-01 2.567980438470840454e-03
-5.590035766363143921e-02 1.975798010826110840e-01 4.996467754244804382e-02
8.427231758832931519e-02 1.694254279136657715e-01 3.210101276636123657e-02
-5.636914074420928955e-02 1.388794034719467163e-01 2.121005207300186157e-03
-3.390777856111526489e-02 2.407962679862976074e-01 -8.562933653593063354e-03
8.893202245235443115e-02 1.302845627069473267e-01 4.393688589334487915e-02
-4.360170103609561920e-03 1.845053136348724365e-01 1.533629149198532104e-01
4.012059047818183899e-02 -1.572363078594207764e-02 5.467255413532257080e-02
7.770870625972747803e-02 1.879545748233795166e-01 5.256511270999908447e-03
5.072662234306335449e-02 9.882454574108123779e-02 -7.318301498889923096e-02
-5.091200023889541626e-02 1.160068809986114502e-01 -1.457457989454269409e-02
5.852301046252250671e-02 2.179075777530670166e-01 -2.362561970949172974e-02
5.263754725456237793e-02 2.436257004737854004e-01 7.504826784133911133e-02
8.189055323600769043e-02 1.371274739503860474e-01 8.698747307062149048e-02
4.343529045581817627e-02 2.627339959144592285e-01 3.081794083118438721e-02
-2.670150622725486755e-02 2.182070612907409668e-01 1.233134567737579346e-01
1.192726753652095795e-02 2.157171219587326050e-01 1.430703401565551758e-01
-5.225794017314910889e-02 8.487400412559509277e-02 5.918858945369720459e-02
-2.576754614710807800e-02 1.289314925670623779e-01 1.438479423522949219e-01
-5.758403241634368896e-02 1.104392260313034058e-01 3.623019903898239136e-02
8.737417310476303101e-02 1.325293481349945068e-01 8.255768567323684692e-03
4.180720075964927673e-02 2.233503311872482300e-01 1.208723112940788269e-01
7.145015150308609009e-02 1.728003174066543579e-01 -3.146376460790634155e-02
-3.290779888629913330e-02 2.584730684757232666e-01 5.370349436998367310e-02
-5.888986587524414062e-02 1.706400215625762939e-01 2.702149376273155212e-02
7.514805346727371216e-02 1.825042665004730225e-01 -1.322786137461662292e-02
-5.903293192386627197e-02 1.665527671575546265e-01 5.675739794969558716e-02
4.892762377858161926e-02 2.312394976615905762e-01 1.030803918838500977e-01
-2.775993198156356812e-02 2.104152441024780273e-01 1.265238523483276367e-01
2.762646786868572235e-02 2.499863654375076294e-01 -3.099381178617477417e-02
-5.056235194206237793e-02 2.133879959583282471e-01 6.896241754293441772e-02
-1.901715993881225586e-02 5.961344391107559204e-02 1.275490224361419678e-01
1.485377643257379532e-02 1.563469320535659790e-02 -4.633510857820510864e-02
6.584145873785018921e-02 1.179079562425613403e-01 1.267695426940917969e-01
6.565072387456893921e-02 4.532451927661895752e-02 1.033665537834167480e-01
1.132402196526527405e-02 3.362730145454406738e-02 -5.981311947107315063e-02
8.485258370637893677e-02 1.654484421014785767e-01 4.356073588132858276e-02
-6.303758360445499420e-03 3.247740864753723145e-02 1.204422563314437866e-01
2.586997486650943756e-02 1.178157478570938110e-01 1.603334546089172363e-01
5.199979245662689209e-02 1.859389543533325195e-01 1.315617561340332031e-01
-7.639930583536624908e-03 1.798214167356491089e-01 -7.486610859632492065e-02
-1.799950376152992249e-02 1.855082660913467407e-01 1.456536650657653809e-01
-3.531532734632492065e-02 1.277269572019577026e-01 -5.298204720020294189e-02
-3.383665345609188080e-03 2.619197964668273926e-01 -2.069497853517532349e-02
6.694892793893814087e-02 1.299599260091781616e-01 1.245969235897064209e-01
3.960393741726875305e-02 1.299450248479843140e-01 1.545113027095794678e-01
6.047490984201431274e-02 2.259251475334167480e-02 9.230345487594604492e-02
7.313995063304901123e-02 1.900181770324707031e-01 -1.285740733146667480e-02
-4.944889247417449951e-02 7.116490602493286133e-02 5.272602289915084839e-02
-1.961804553866386414e-02 4.726538062095642090e-02 1.180281266570091248e-01
6.866054236888885498e-02 2.197389900684356689e-01 1.882078498601913452e-02
7.223113626241683960e-02 2.065131962299346924e-01 7.312344387173652649e-03
1.858932711184024811e-02 2.806122004985809326e-01 3.650728985667228699e-02
-4.672487825155258179e-02 9.920384734869003296e-02 9.907457232475280762e-02
-5.093125253915786743e-02 7.630319893360137939e-02 2.718641981482505798e-02
-2.646621689200401306e-02 2.002278566360473633e-01 -5.209895223379135132e-02
-1.143424119800329208e-02 -3.223225474357604980e-03 4.977984726428985596e-02
2.801583707332611084e-02 2.557637393474578857e-01 1.015377789735794067e-01
-3.806732594966888428e-02 3.992491960525512695e-02 5.812504142522811890e-02
8.091167360544204712e-02 7.737063616514205933e-02 -1.707439124584197998e-02
-2.872423082590103149e-02 1.308094710111618042e-01 -6.255529075860977173e-02
2.767978608608245850e-02 5.203336477279663086e-03 1.049120277166366577e-01
7.062670588493347168e-02 2.285213023424148560e-02 6.398495286703109741e-02
-2.447086945176124573e-02 8.105725049972534180e-02 1.325489282608032227e-01
8.705361932516098022e-02 1.505524218082427979e-01 4.425650089979171753e-02
-1.637615635991096497e-02 1.195203214883804321e-01 -7.454176992177963257e-02
1.245054509490728378e-02 2.636253237724304199e-01 -2.038944885134696960e-02
-3.119606897234916687e-02 1.868249028921127319e-01 -5.154215544462203979e-02
-5.933880060911178589e-02 1.303114145994186401e-01 3.214856609702110291e-02
-1.783026754856109619e-02 2.513028979301452637e-01 -2.266591414809226990e-02
6.709961220622062683e-03 2.204563021659851074e-01 1.406273245811462402e-01
6.114007532596588135e-02 1.971021294593811035e-03 1.534885540604591370e-02
7.677213288843631744e-03 7.039978355169296265e-02 1.500997543334960938e-01
-4.206112399697303772e-02 6.692890077829360962e-02 -1.116904243826866150e-02
3.049413114786148071e-02 2.397496998310089111e-01 1.177968457341194153e-01
7.093874365091323853e-02 6.700916588306427002e-02 1.060060858726501465e-01
5.167809873819351196e-02 5.006283521652221680e-03 -1.779512688517570496e-02
7.444822788238525391e-02 1.870093494653701782e-01 8.328598737716674805e-02
8.719623833894729614e-02 1.054140925407409668e-01 6.563728302717208862e-02
-3.592002764344215393e-02 1.434885114431381226e-01 -5.263844877481460571e-02
-2.400909364223480225e-02 1.724753081798553467e-01 1.436370015144348145e-01
8.944205194711685181e-02 1.062613204121589661e-01 4.359578341245651245e-02
1.215167343616485596e-02 -1.970036327838897705e-02 3.186784684658050537e-02
-3.127883002161979675e-02 2.615271210670471191e-01 4.489912092685699463e-02
-5.754557996988296509e-02 1.475188285112380981e-01 8.094547316431999207e-03
4.766265302896499634e-02 1.770112514495849609e-01 1.400318145751953125e-01
-3.832103312015533447e-02 3.948241472244262695e-02 2.120327018201351166e-02
-5.147895216941833496e-02 8.098223805427551270e-02 1.992076635360717773e-02
-3.089078702032566071e-03 2.119541913270950317e-02 1.125364154577255249e-01
5.896791443228721619e-02 3.130536526441574097e-02 1.036645770072937012e-01
7.486043125391006470e-02 5.107621848583221436e-02 -1.937764883041381836e-02
-5.154759623110294342e-03 5.112685263156890869e-02 -6.183377653360366821e-02
2.953635528683662415e-02 8.122518658638000488e-02 1.526786088943481445e-01
-9.850291535258293152e-04 2.138479053974151611e-02 -4.289717227220535278e-02
-7.221071980893611908e-03 2.803518474102020264e-01 5.020659789443016052e-02
-5.905262194573879242e-03 -6.787329912185668945e-03 5.789025872945785522e-02
-4.858639091253280640e-02 2.268775701522827148e-01 3.443241119384765625e-02
2.473099157214164734e-02 2.657967805862426758e-01 -9.476136416196823120e-03
-4.354183748364448547e-02 7.761964946985244751e-02 9.350463747978210449e-02
2.849002368748188019e-02 1.830841004848480225e-01 -7.641927897930145264e-02
7.365240901708602905e-02 1.588701456785202026e-01 -3.333617746829986572e-02
-5.465777963399887085e-02 1.973962485790252686e-01 6.491719186305999756e-02
-2.150797843933105469e-02 1.490720659494400024e-01 -7.025022059679031372e-02
6.199236586689949036e-02 1.735893636941909790e-01 1.223084777593612671e-01
4.471236839890480042e-02 -1.508887112140655518e-02 2.380158193409442902e-02
-5.560049414634704590e-02 1.894103884696960449e-01 6.759389489889144897e-02
4.226461425423622131e-02 2.406497299671173096e-01 1.031447872519493103e-01
7.087743841111660004e-03 -1.281736791133880615e-02 6.640202552080154419e-02
7.491919212043285370e-03 1.650875806808471680e-01 -8.353123813867568970e-02
-1.192062254995107651e-02 -1.454144716262817383e-03 5.679449439048767090e-02
6.479078531265258789e-02 5.242225527763366699e-02 -4.222643375396728516e-02
-3.299524262547492981e-02 2.115301787853240967e-01 -3.707941621541976929e-02
-2.719786763191223145e-02 4.545896500349044800e-02 1.040384545922279358e-01
-3.847789950668811798e-03 4.534040391445159912e-02 1.321031898260116577e-01
4.871977865695953369e-02 6.440049409866333008e-02 -6.644492596387863159e-02
6.304933875799179077e-02 2.033607214689254761e-01 -2.825501561164855957e-02
7.257158309221267700e-02 2.114486098289489746e-01 2.663133852183818817e-02
3.641878440976142883e-02 1.365805268287658691e-01 -8.312166482210159302e-02
4.334994032979011536e-02 2.586546242237091064e-01 6.787985563278198242e-02
8.082424849271774292e-02 1.424547135829925537e-01 -1.943185552954673767e-02
8.949654549360275269e-02 1.003076285123825073e-01 3.146507218480110168e-02
-5.598944425582885742e-02 1.662057042121887207e-01 2.545535564422607422e-03
-2.855141833424568176e-02 8.617479354143142700e-02 1.294733881950378418e-01
8.130068331956863403e-02 1.198629140853881836e-01 9.191883355379104614e-02
-5.922160297632217407e-02 1.715832650661468506e-01 3.518733754754066467e-02
8.153320848941802979e-02 8.504442870616912842e-02 -1.811206713318824768e-02
7.765836268663406372e-02 5.524609982967376709e-02 8.044864237308502197e-02
7.366821169853210449e-02 6.491058319807052612e-02 -3.151580691337585449e-02
1.471045892685651779e-02 1.317927837371826172e-01 -8.803819864988327026e-02
-3.188668936491012573e-02 2.453064918518066406e-02 3.163077309727668762e-02
-3.021023049950599670e-02 1.021871566772460938e-01 1.331587433815002441e-01
6.561703979969024658e-03 2.564148306846618652e-01 -3.065124899148941040e-02
7.008852809667587280e-02 4.043854773044586182e-02 8.958688378334045410e-02
-1.544790621846914291e-02 2.494933009147644043e-01 1.091795340180397034e-01
3.601241484284400940e-02 2.689372301101684570e-01 2.307575941085815430e-02
2.751472406089305878e-03 6.526170670986175537e-02 1.464468538761138916e-01
-3.489051014184951782e-02 2.413503527641296387e-01 8.834841847419738770e-02
-5.739247053861618042e-02 1.248362883925437927e-01 1.337539218366146088e-02
-4.762843996286392212e-02 1.153490915894508362e-01 1.038143858313560486e-01
-9.776427410542964935e-03 1.112687736749649048e-01 -7.858555018901824951e-02
-4.547992721199989319e-02 2.335965782403945923e-01 5.806119740009307861e-02
5.350348725914955139e-02 2.354194670915603638e-01 8.770758658647537231e-02
6.516638398170471191e-02 2.275939434766769409e-01 5.531273037195205688e-02
8.301191031932830811e-02 1.540419012308120728e-01 -4.315081983804702759e-03
-1.897101290524005890e-03 2.537946403026580811e-01 1.126686260104179382e-01
6.117982044816017151e-02 6.178679317235946655e-02 1.204098835587501526e-01
-5.348730832338333130e-02 9.846131503582000732e-02 7.048556208610534668e-02
3.460042551159858704e-02 3.125715255737304688e-02 1.267126351594924927e-01
-5.442936718463897705e-02 1.752174198627471924e-01 8.337301760911941528e-02
5.182831361889839172e-02 1.541189104318618774e-02 -3.111110627651214600e-02
-4.082337021827697754e-02 9.935314953327178955e-02 -3.607692569494247437e-02
4.352535679936408997e-02 2.048258036375045776e-01 -5.641692876815795898e-02
-4.116335138678550720e-02 1.075231209397315979e-01 -3.822810202836990356e-02
5.421127378940582275e-02 6.467648595571517944e-02 -6.160332262516021729e-02
4.463110864162445068e-02 2.550358772277832031e-01 3.251489251852035522e-03
6.867345422506332397e-02 1.138711348176002502e-01 -5.230195820331573486e-02
3.008019179105758667e-02 2.746409773826599121e-01 4.458240792155265808e-02
-4.096003994345664978e-02 1.344012618064880371e-01 1.229200959205627441e-01
4.506712406873703003e-02 -5.529522895812988281e-04 8.506457507610321045e-02
-5.358064174652099609e-02 9.242275357246398926e-02 1.721992716193199158e-02
-4.361947253346443176e-02 1.154889166355133057e-01 -3.502890467643737793e-02
4.264228790998458862e-02 5.842596292495727539e-04 -2.247167751193046570e-02
-1.303413230925798416e-02 5.196467041969299316e-03 7.417091727256774902e-02
4.515480995178222656e-02 2.341892868280410767e-01 -2.987081557512283325e-02
-3.431117907166481018e-02 4.610225558280944824e-02 -1.217220723628997803e-02
5.246444605290889740e-03 2.013109624385833740e-02 -4.625675827264785767e-02
6.620211154222488403e-02 2.167493104934692383e-01 7.635520398616790771e-02
-2.961228787899017334e-02 1.777223348617553711e-01 1.365640163421630859e-01
3.741390258073806763e-02 2.107828557491302490e-01 1.339800506830215454e-01
8.161772042512893677e-02 7.147231698036193848e-02 -1.121534779667854309e-02
-1.644682511687278748e-02 3.276288509368896484e-03 1.651128008961677551e-02
5.814749374985694885e-02 1.931618750095367432e-01 1.188781633973121643e-01
6.733523309230804443e-02 1.003196984529495239e-01 1.228538528084754944e-01
8.456168323755264282e-02 1.440080553293228149e-01 -2.989336848258972168e-03
6.824877113103866577e-02 1.470903307199478149e-02 1.015657372772693634e-02
8.756689727306365967e-02 7.647942006587982178e-02 3.728016465902328491e-02
-2.475640177726745605e-02 6.631439179182052612e-02 1.243878453969955444e-01
4.467556998133659363e-02 3.092242032289505005e-02 -5.179696530103683472e-02
7.003881782293319702e-02 1.532430201768875122e-01 1.145791262388229370e-01
-5.847555398941040039e-02 1.279615461826324463e-01 2.116324938833713531e-02
-1.477583404630422592e-02 1.042698770761489868e-01 1.496895253658294678e-01
-5.964595824480056763e-02 1.627530604600906372e-01 3.230352327227592468e-02
-3.143612667918205261e-02 2.562750875949859619e-02 5.562210455536842346e-02
7.739376276731491089e-02 1.967521607875823975e-01 4.694355279207229614e-02
1.101070642471313477e-02 6.215503066778182983e-02 -7.506653666496276855e-02
-2.775791659951210022e-02 8.650316298007965088e-02 -5.438024550676345825e-02
8.458931744098663330e-02 6.344363838434219360e-02 5.308021605014801025e-02
-5.386745929718017578e-02 2.056126594543457031e-01 5.706506967544555664e-02
2.584620192646980286e-02 -1.043814420700073242e-02 -1.308460533618927002e-02
7.595805078744888306e-02 2.023956179618835449e-01 3.539049997925758362e-02
7.577743381261825562e-02 1.722393035888671875e-01 9.100803732872009277e-02
-1.244675088673830032e-02 1.374952644109725952e-01 -7.823570817708969116e-02
-3.559439443051815033e-03 1.260611414909362793e-02 -3.071209788322448730e-02
-3.373425826430320740e-02 9.878887236118316650e-02 1.268196254968643188e-01
-3.135795891284942627e-02 1.957842856645584106e-01 1.287530213594436646e-01
5.049902573227882385e-02 1.832126080989837646e-02 1.030420660972595215e-01
8.368256688117980957e-02 8.717823028564453125e-02 -1.071446761488914490e-02
1.057470124214887619e-02 2.493770718574523926e-01 -3.858475387096405029e-02
-4.061027243733406067e-02 8.297391235828399658e-02 1.056231781840324402e-01
-5.279648303985595703e-02 8.293394744396209717e-02 3.501782193779945374e-02
7.961679250001907349e-03 1.507876813411712646e-02 1.135178878903388977e-01
1.962042413651943207e-02 1.954647600650787354e-01 -7.409616559743881226e-02
4.359665885567665100e-02 3.854463994503021240e-02 1.262543201446533203e-01
3.001374751329421997e-02 2.595181465148925781e-01 -1.509108021855354309e-02
4.680180922150611877e-02 2.571644186973571777e-01 1.903814077377319336e-02
4.263698309659957886e-02 1.565481722354888916e-01 1.498442888259887695e-01
-4.686048254370689392e-02 6.397390365600585938e-02 5.842773616313934326e-02
6.546594947576522827e-02 2.104227542877197266e-01 -1.438562572002410889e-02
6.506473571062088013e-02 1.916905343532562256e-01 -3.347784280776977539e-02
5.371143296360969543e-02 2.188681960105895996e-01 1.071822419762611389e-01
2.308601327240467072e-02 -2.616927027702331543e-03 -2.642962336540222168e-02
8.894674479961395264e-02 1.165299639105796814e-01 5.153913423418998718e-02
-1.832385733723640442e-02 2.066839486360549927e-02 9.121015667915344238e-02
-3.915224596858024597e-02 2.313141524791717529e-01 -7.178027182817459106e-03
-5.565185844898223877e-02 1.879654675722122192e-01 1.393197663128376007e-02
4.902695491909980774e-02 7.887417078018188477e-02 1.405516415834426880e-01
6.628815829753875732e-02 1.232045143842697144e-01 -5.588593333959579468e-02
-2.009472995996475220e-02 1.080376058816909790e-01 -6.953974813222885132e-02
2.950338646769523621e-02 -2.130159735679626465e-02 3.495093062520027161e-02
2.122385799884796143e-02 1.501998305320739746e-01 -8.623919636011123657e-02
-4.224797338247299194e-02 4.892956465482711792e-02 5.306016653776168823e-02
2.679882012307643890e-02 6.657879054546356201e-02 -7.738503068685531616e-02
-1.909040287137031555e-02 2.574146986007690430e-01 9.510078281164169312e-02
6.435222923755645752e-02 6.822812557220458984e-02 1.185393780469894409e-01
-2.634054049849510193e-02 1.164641082286834717e-01 1.414564847946166992e-01
7.646468281745910645e-02 1.797863990068435669e-01 8.246725797653198242e-02
6.786748021841049194e-02 2.164838910102844238e-01 6.918786466121673584e-02
-5.157261341810226440e-02 1.944587230682373047e-01 -1.926742494106292725e-03
3.990165516734123230e-02 7.909698784351348877e-02 -7.676668465137481689e-02
1.349003054201602936e-02 1.752610057592391968e-01 1.581164598464965820e-01
2.823848463594913483e-02 -1.627242565155029297e-02 1.508526504039764404e-03
-4.600420594215393066e-02 2.331133782863616943e-01 2.914544939994812012e-02
4.112937673926353455e-02 5.276744067668914795e-02 1.361490190029144287e-01
-1.110108569264411926e-04 2.116614282131195068e-01 1.443948745727539062e-01
-5.212198942899703979e-02 1.819788068532943726e-01 -7.589414715766906738e-03
-5.350941419601440430e-02 1.620411872863769531e-01 -9.424511343240737915e-03
-5.814052373170852661e-02 1.195525825023651123e-01 5.449109524488449097e-02
-2.743347734212875366e-02 2.320839464664459229e-01 -3.015383332967758179e-02
8.176403492689132690e-02 1.681511104106903076e-01 6.872485578060150146e-02
-5.121919512748718262e-02 2.130974680185317993e-01 1.822076551616191864e-02
-3.032813593745231628e-02 2.293299138545989990e-01 1.102945953607559204e-01
-3.919248655438423157e-02 1.709571480751037598e-01 -4.376934468746185303e-02
2.909273281693458557e-02 2.360619604587554932e-02 -5.365914106369018555e-02
4.720644652843475342e-02 1.430221796035766602e-01 -7.550352811813354492e-02
3.658727556467056274e-02 2.233607769012451172e-01 1.263101398944854736e-01
2.118298783898353577e-03 -1.418310403823852539e-02 2.135780826210975647e-02
2.545044943690299988e-02 8.874885737895965576e-03 -4.069393873214721680e-02
5.483736097812652588e-02 -4.158169031143188477e-03 9.624192491173744202e-03
-2.994437143206596375e-02 2.379642426967620850e-02 1.490418240427970886e-02
8.606361597776412964e-02 7.024598121643066406e-02 1.685498841106891632e-02
-4.183422401547431946e-02 1.184702068567276001e-01 1.184035539627075195e-01
8.789286017417907715e-02 1.452119946479797363e-01 3.411601856350898743e-02
-2.070672810077667236e-02 1.654941588640213013e-02 -5.376473069190979004e-03
7.848853617906570435e-02 1.686988472938537598e-01 -1.283676177263259888e-02
8.357566595077514648e-02 7.242768257856369019e-02 6.986120343208312988e-02
4.527170211076736450e-02 1.594706177711486816e-01 -7.380715012550354004e-02
-3.034886345267295837e-02 1.123609244823455811e-01 -5.816048383712768555e-02
6.255027651786804199e-02 1.363574862480163574e-01 1.309616267681121826e-01
2.177683264017105103e-02 2.158480882644653320e-02 1.224026158452033997e-01
-5.299808830022811890e-02 2.119271159172058105e-01 4.676362127065658569e-02
2.558352611958980560e-02 2.354985475540161133e-01 1.251726299524307251e-01
2.021316438913345337e-02 2.758698463439941406e-01 1.069792732596397400e-02
1.350283343344926834e-02 2.401637583971023560e-01 -4.716177284717559814e-02
-1.022382639348506927e-03 2.718588709831237793e-01 -4.808332771062850952e-03
8.754596114158630371e-02 8.250957727432250977e-02 1.622640527784824371e-02
7.420221716165542603e-02 2.502278983592987061e-02 1.858143135905265808e-02
-3.969472832977771759e-03 1.310025900602340698e-02 1.023378521203994751e-01
-2.868752181529998779e-02 2.591682374477386475e-01 1.103007793426513672e-02
-1.356172282248735428e-02 3.241837769746780396e-02 1.127574071288108826e-01
-2.119049429893493652e-02 2.220294177532196045e-01 1.268622279167175293e-01
4.311025515198707581e-02 1.256314963102340698e-01 -8.000865578651428223e-02
-2.816794812679290771e-02 2.136550992727279663e-01 -4.282354563474655151e-02
8.124485611915588379e-02 1.010915711522102356e-01 -2.293932810425758362e-02
1.430955342948436737e-02 1.489634215831756592e-01 1.621638536453247070e-01
2.943472936749458313e-02 2.458422780036926270e-01 1.124540120363235474e-01
-5.811141431331634521e-02 1.160115301609039307e-01 4.819074273109436035e-02
-1.340532582253217697e-02 1.976695209741592407e-01 1.448092758655548096e-01
4.805807024240493774e-03 2.425022423267364502e-01 1.249296218156814575e-01
8.918645977973937988e-02 9.392976015806198120e-02 3.581249713897705078e-02
6.448891013860702515e-02 7.961146533489227295e-02 -5.398780852556228638e-02
2.387062087655067444e-02 2.180133610963821411e-01 1.384791135787963867e-01
-4.313110932707786560e-02 5.776540189981460571e-02 6.095677614212036133e-03
4.568903893232345581e-02 1.573953032493591309e-02 -3.808458894491195679e-02
-2.325070090591907501e-03 -6.843477487564086914e-03 6.770877540111541748e-02
5.340995639562606812e-02 -7.970139384269714355e-03 4.453916475176811218e-02
7.115283608436584473e-02 2.140079438686370850e-01 5.281082168221473694e-02
5.279150232672691345e-02 2.406251132488250732e-01 -4.846449941396713257e-03
6.016726791858673096e-02 1.453310251235961914e-03 5.372615531086921692e-02
8.331209421157836914e-02 8.985798805952072144e-02 8.061106503009796143e-02
8.393510431051254272e-02 1.679696142673492432e-01 1.915255002677440643e-02
-5.944658070802688599e-02 1.572442203760147095e-01 5.622358620166778564e-02
-2.523839846253395081e-02 1.580316126346588135e-01 -6.552311033010482788e-02
3.768146038055419922e-02 9.807279706001281738e-02 1.530457586050033569e-01
-1.106978673487901688e-02 2.354571521282196045e-01 -4.447359591722488403e-02
5.475595965981483459e-02 1.792408078908920288e-01 -5.755010992288589478e-02
3.176784887909889221e-02 2.639161944389343262e-01 -4.254810512065887451e-03
-5.620114505290985107e-02 1.532345712184906006e-01 8.043386787176132202e-02
-2.614282444119453430e-02 2.643251419067382812e-01 1.760406419634819031e-02
9.732786566019058228e-05 -1.145029067993164062e-02 1.321975700557231903e-02
-5.770832300186157227e-02 1.780761331319808960e-01 6.157316267490386963e-02
8.569729514420032501e-03 2.785384058952331543e-01 1.066532544791698456e-02
3.922993317246437073e-03 2.512333989143371582e-01 -3.629047423601150513e-02
-3.433484956622123718e-02 2.278024852275848389e-01 -2.224966511130332947e-02
3.861457481980323792e-02 2.399006485939025879e-01 -3.210145235061645508e-02
6.992132216691970825e-02 1.358096599578857422e-01 1.185897439718246460e-01
1.123000588268041611e-02 2.756711244583129883e-01 7.776343077421188354e-02
7.130075246095657349e-02 1.806981861591339111e-02 2.071742527186870575e-02
-4.422511905431747437e-02 2.239679396152496338e-01 -2.200044691562652588e-04
6.496581435203552246e-02 1.486612409353256226e-01 1.251918822526931763e-01
5.503233522176742554e-02 1.769155859947204590e-01 1.314205825328826904e-01
5.512322857975959778e-02 2.182413935661315918e-01 -3.026422113180160522e-02
3.687314689159393311e-02 2.608731389045715332e-01 7.979397475719451904e-02
5.493976548314094543e-02 1.476771533489227295e-01 -6.740921735763549805e-02
-2.252449467778205872e-02 1.925305724143981934e-01 1.397112011909484863e-01
-2.292208373546600342e-02 9.850886464118957520e-02 -6.442582607269287109e-02
-5.017574876546859741e-02 2.126235067844390869e-01 1.076156646013259888e-02
-5.664155632257461548e-02 1.282820552587509155e-01 6.551003083586692810e-03
3.151568397879600525e-02 -1.666386425495147705e-02 6.297570466995239258e-02
7.779698073863983154e-02 1.272201985120773315e-01 -3.236594051122665405e-02
-3.839190676808357239e-02 1.993470638990402222e-01 -3.467851877212524414e-02
-4.873613826930522919e-03 -2.938359975814819336e-04 -8.271556347608566284e-03
-5.080791562795639038e-02 2.203314006328582764e-01 4.205759242177009583e-02
-4.530353471636772156e-02 1.375918239355087280e-01 1.143956407904624939e-01
7.413031533360481262e-03 9.797626733779907227e-02 -8.446548134088516235e-02
5.354177206754684448e-02 2.063412517309188843e-01 -4.327319562435150146e-02
7.057477720081806183e-03 1.450096070766448975e-01 1.621965467929840088e-01
-2.125285938382148743e-02 2.156669497489929199e-01 1.305972337722778320e-01
6.395681202411651611e-02 1.898376941680908203e-01 1.100919991731643677e-01
-5.349536240100860596e-02 1.106794327497482300e-01 8.081524074077606201e-02
-1.071814354509115219e-02 2.477140426635742188e-01 1.147579699754714966e-01
1.980794593691825867e-03 9.835822880268096924e-02 1.571449935436248779e-01
8.737952262163162231e-02 1.109790876507759094e-01 2.902913838624954224e-03
-5.287886410951614380e-02 9.065506607294082642e-02 6.442161649465560913e-02
-1.403438765555620193e-02 2.659511566162109375e-02 -3.323111683130264282e-02
8.938147127628326416e-02 1.254781037569046021e-01 3.101165778934955597e-02
1.099765114486217499e-02 2.823765277862548828e-01 3.355846554040908813e-02
3.009333647787570953e-02 -9.362265467643737793e-03 8.204500377178192139e-02
6.987238675355911255e-02 4.977394640445709229e-02 9.789599478244781494e-02
-5.875956267118453979e-02 1.520930975675582886e-01 6.430587917566299438e-02
8.310429751873016357e-02 1.743561029434204102e-01 2.612968906760215759e-02
5.930330604314804077e-02 -2.279132604598999023e-03 3.220499306917190552e-02
7.409555464982986450e-02 1.270026862621307373e-01 1.108795776963233948e-01
4.918267205357551575e-02 2.344848960638046265e-02 1.095569804310798645e-01
-8.550507016479969025e-03 2.461077272891998291e-01 -3.655048459768295288e-02
1.381813175976276398e-02 4.380422085523605347e-02 -6.682831048965454102e-02
7.083733379840850830e-02 3.775890171527862549e-02 -1.850269362330436707e-02
6.409556418657302856e-02 6.035692989826202393e-03 4.939939826726913452e-02
3.316567838191986084e-02 7.158544659614562988e-02 -7.747773081064224243e-02
-6.992626003921031952e-03 2.696216106414794922e-02 1.147352084517478943e-01
2.429226227104663849e-02 3.621371090412139893e-02 -6.313809007406234741e-02
8.670368790626525879e-02 9.681110084056854248e-02 9.505823254585266113e-04
7.883045077323913574e-02 3.616043180227279663e-02 2.721676044166088104e-02
-3.939893841743469238e-02 7.678210735321044922e-02 -2.742113173007965088e-02
4.699774086475372314e-02 2.587956488132476807e-01 4.413054138422012329e-02
-5.498561263084411621e-02 1.833152025938034058e-01 7.640544325113296509e-02
6.957277655601501465e-04 2.811967730522155762e-01 5.847907811403274536e-02
1.158201135694980621e-03 2.823338508605957031e-01 3.133360669016838074e-02
-1.269667502492666245e-02 -2.932727336883544922e-03 3.706662729382514954e-02
-5.497320741415023804e-02 9.778694808483123779e-02 2.170876041054725647e-02
-3.170052170753479004e-02 2.505502104759216309e-01 1.177035272121429443e-03
-4.232261702418327332e-02 2.421279102563858032e-01 5.270431935787200928e-02
-2.879888564348220825e-02 1.919691264629364014e-02 4.450304061174392700e-02
-4.784014075994491577e-02 1.760559082031250000e-01 1.050327494740486145e-01
-2.557012438774108887e-02 2.297698557376861572e-01 1.165963113307952881e-01
8.608635514974594116e-02 1.160628050565719604e-01 7.258476316928863525e-02
2.534567192196846008e-02 2.588222026824951172e-01 -2.083555981516838074e-02
-8.708524517714977264e-03 1.303696632385253906e-02 -2.455888316035270691e-02
-4.145874828100204468e-02 1.445205211639404297e-01 1.226520836353302002e-01
6.348960846662521362e-02 2.084722518920898438e-01 9.589602053165435791e-02
-3.901207819581031799e-02 5.993888527154922485e-02 -1.389520242810249329e-02
-3.051657602190971375e-02 5.573584139347076416e-02 -3.177826106548309326e-02
1.473231147974729538e-02 -4.327297210693359375e-04 -2.768869698047637939e-02
4.069942235946655273e-02 1.780269891023635864e-01 -7.160561531782150269e-02
4.691516980528831482e-03 2.405518889427185059e-01 -4.676600545644760132e-02
-1.410706620663404465e-02 1.942804008722305298e-01 -6.609050184488296509e-02
4.426944255828857422e-02 1.510958075523376465e-01 -7.640040665864944458e-02
-2.250171080231666565e-02 2.066978514194488525e-01 1.340210437774658203e-01
-5.290655791759490967e-02 1.191032379865646362e-01 -8.192170411348342896e-03
7.466407120227813721e-02 1.991842985153198242e-01 6.983976811170578003e-03
8.459398895502090454e-02 1.374964565038681030e-01 -6.135530769824981689e-03
6.725099869072437286e-03 2.781130373477935791e-02 -5.365300178527832031e-02
8.864285051822662354e-02 8.638063073158264160e-02 3.202711418271064758e-02
-5.711629986763000488e-02 1.121495738625526428e-01 5.710339546203613281e-02
3.495908901095390320e-02 2.773508429527282715e-03 -3.097609430551528931e-02
-5.734843015670776367e-02 1.880180537700653076e-01 3.177338466048240662e-02
1.672254875302314758e-02 7.703632116317749023e-02 1.535033434629440308e-01
-8.072982542216777802e-03 2.756343781948089600e-01 1.053025387227535248e-02
6.192150712013244629e-02 2.346649765968322754e-01 2.182724885642528534e-02
2.256705984473228455e-02 2.638098895549774170e-01 9.433411806821823120e-02
-3.049215301871299744e-02 2.190694510936737061e-01 -3.595902025699615479e-02
2.624889463186264038e-02 1.407827436923980713e-02 1.149351224303245544e-01
-7.176759652793407440e-03 6.931968033313751221e-03 -1.772949844598770142e-02
7.018092274665832520e-02 1.020430773496627808e-01 -4.908417910337448120e-02
7.854311168193817139e-02 3.685890138149261475e-02 1.866997405886650085e-02
-5.885248631238937378e-02 1.358430087566375732e-01 2.051137387752532959e-02
-5.434131622314453125e-02 1.649434715509414673e-01 8.701980113983154297e-02
6.972448527812957764e-02 1.854418963193893433e-01 -2.721945196390151978e-02
7.132082246243953705e-03 1.804272234439849854e-01 1.568615585565567017e-01
8.437460660934448242e-02 1.574189066886901855e-01 6.333971023559570312e-02
-1.416890788823366165e-02 2.487516403198242188e-01 -2.943531423807144165e-02
3.240530937910079956e-02 3.214167058467864990e-02 -5.900138616561889648e-02
8.296388387680053711e-02 1.580856889486312866e-01 7.152368128299713135e-02
3.403885662555694580e-02 2.236635684967041016e-01 -5.157034844160079956e-02
1.353009417653083801e-02 -1.988677680492401123e-02 4.185556247830390930e-02
-3.731665760278701782e-02 1.043078526854515076e-01 -4.493851959705352783e-02
3.310440480709075928e-02 -1.785722374916076660e-02 1.027149707078933716e-02
1.958069205284118652e-02 1.049937903881072998e-01 -8.686169236898422241e-02
8.049423992633819580e-02 1.834497451782226562e-01 5.325432866811752319e-02
7.252582907676696777e-02 2.754242718219757080e-02 1.144129782915115356e-03
8.354049175977706909e-02 1.196211799979209900e-01 8.387392014265060425e-02
2.881071716547012329e-02 2.290222793817520142e-01 1.282740384340286255e-01
-4.093873128294944763e-02 1.748376190662384033e-01 1.204399690032005310e-01
-2.624482661485671997e-02 1.749341785907745361e-01 -6.120435893535614014e-02
-5.355934053659439087e-02 1.172889620065689087e-01 8.427619934082031250e-02
-1.129032112658023834e-03 2.547218203544616699e-01 -3.101468831300735474e-02
1.232142932713031769e-02 -6.919845938682556152e-03 -1.592370867729187012e-02
3.268173336982727051e-02 5.628922581672668457e-02 -7.199504226446151733e-02
-2.524239942431449890e-02 2.495753467082977295e-01 -1.436265185475349426e-02
8.613812178373336792e-02 6.710758805274963379e-02 2.608620747923851013e-02
6.627210229635238647e-02 1.792664527893066406e-01 1.115567758679389954e-01
3.818415477871894836e-02 2.654359340667724609e-01 1.526075042784214020e-02
