-2.213507443666458130e-01 8.413829654455184937e-02 -5.717138051986694336e-01
1.033512502908706665e-02 7.101865112781524658e-02 -4.502826333045959473e-01
-1.228903383016586304e-01 7.419323176145553589e-02 -4.042150676250457764e-01
1.292429715394973755e-01 9.764529764652252197e-02 6.180614233016967773e-02
-9.562802314758300781e-02 9.340577572584152222e-02 -1.626989543437957764e-01
-9.803251922130584717e-02 9.030326455831527710e-02 -9.576351642608642578e-01
1.455822438001632690e-01 7.196060568094253540e-02 -1.736980676651000977e-01
2.637848854064941406e-01 9.365009516477584839e-02 3.211528360843658447e-01
-1.230757087469100952e-01 8.320148289203643799e-02 2.304020524024963379e-02
7.857104390859603882e-02 7.592398673295974731e-02 1.337651908397674561e-01
9.107673913240432739e-02 9.684300422668457031e-02 -7.525954246520996094e-01
1.892871260643005371e-01 9.288408607244491577e-02 3.521304428577423096e-01
-1.614621132612228394e-01 9.060122072696685791e-02 -6.921048164367675781e-01
4.546574354171752930e-01 8.898296952247619629e-02 -4.764012098312377930e-01
3.180660605430603027e-01 8.418224751949310303e-02 -9.717557430267333984e-01
3.479031920433044434e-01 9.479981660842895508e-02 -6.222200989723205566e-01
-2.361801266670227051e-02 9.471683949232101440e-02 -8.129975795745849609e-01
-1.199163943529129028e-01 7.427553087472915649e-02 -8.142569065093994141e-01
-7.402835786342620850e-02 9.359035640954971313e-02 -7.940024733543395996e-01
4.191216826438903809e-01 9.299566596746444702e-02 -4.727440476417541504e-01
6.028409302234649658e-02 7.530875504016876221e-02 8.720234036445617676e-02
-1.297964304685592651e-01 8.358208090066909790e-02 -1.076085805892944336e+00
5.661714076995849609e-02 9.806521981954574585e-02 -1.379550993442535400e-01
-9.790402650833129883e-02 9.457024186849594116e-02 -4.751333892345428467e-01
4.608370065689086914e-01 9.109467267990112305e-02 -8.777800202369689941e-02
2.725875377655029297e-01 9.769792109727859497e-02 6.227138638496398926e-02
4.225489497184753418e-02 9.494572132825851440e-02 -8.789646625518798828e-01
-5.335249006748199463e-02 7.201360166072845459e-02 -7.184076905250549316e-01
-3.709760308265686035e-02 7.190270721912384033e-02 -7.531274557113647461e-01
9.051074087619781494e-02 9.894021600484848022e-02 -2.708462476730346680e-01
9.863284230232238770e-02 9.779255092144012451e-02 -6.505054831504821777e-01
1.689132153987884521e-01 9.617130458354949951e-02 -8.052350282669067383e-01
4.177925586700439453e-01 9.474409371614456177e-02 -1.619770824909210205e-01
3.544479012489318848e-01 7.593321800231933594e-02 -1.686127334833145142e-01
2.043826133012771606e-01 7.374754548072814941e-02 -1.650473475456237793e-02
2.149836719036102295e-02 7.131100445985794067e-02 -3.393312692642211914e-01
3.766347765922546387e-01 7.652641087770462036e-02 -2.485781461000442505e-01
1.611609607934951782e-01 8.130869269371032715e-02 -1.171318292617797852e+00
2.612167894840240479e-01 9.487748891115188599e-02 -7.993019819259643555e-01
1.652836501598358154e-01 7.544859498739242554e-02 1.299262940883636475e-01
4.353471100330352783e-03 7.334487885236740112e-02 -9.666697978973388672e-01
4.317767620086669922e-01 7.968544214963912964e-02 -3.161765336990356445e-01
-1.500592082738876343e-01 9.151113033294677734e-02 -3.198798298835754395e-01
2.999402284622192383e-01 8.266378939151763916e-02 3.421938717365264893e-01
-6.382240355014801025e-02 9.497689455747604370e-02 -6.697819232940673828e-01
3.793537020683288574e-01 7.671152800321578979e-02 -2.276145368814468384e-01
-4.071991145610809326e-02 8.410766720771789551e-02 -1.187297344207763672e+00
3.105434775352478027e-01 9.367868304252624512e-02 -7.805739641189575195e-01
-1.751257628202438354e-01 9.036648273468017578e-02 -4.769136905670166016e-01
1.362294405698776245e-01 9.884578734636306763e-02 -9.448897838592529297e-02
9.912098199129104614e-02 9.831695258617401123e-02 -6.699386239051818848e-02
2.015793621540069580e-01 7.192704826593399048e-02 -2.607242465019226074e-01
-4.614093899726867676e-02 9.432824701070785522e-02 -7.998607754707336426e-01
1.283315569162368774e-01 9.207238256931304932e-02 3.458845913410186768e-01
-1.148819029331207275e-01 8.669807016849517822e-02 4.310247302055358887e-02
4.814181476831436157e-02 7.351135462522506714e-02 -4.436326026916503906e-02
1.838243454694747925e-01 9.710215777158737183e-02 -7.194879055023193359e-01
2.576850056648254395e-01 9.370499849319458008e-02 -8.678240180015563965e-01
3.057421743869781494e-02 9.305644035339355469e-02 2.065690457820892334e-01
5.059242248535156250e-02 8.223885297775268555e-02 -1.223060846328735352e+00
2.864581346511840820e-01 7.686451077461242676e-02 -8.745709657669067383e-01
1.848940998315811157e-01 9.443669766187667847e-02 -9.057981967926025391e-01
9.542278200387954712e-02 9.887105226516723633e-02 -2.042490541934967041e-01
3.410590887069702148e-01 7.642547041177749634e-02 -6.658955812454223633e-01
2.041785418987274170e-01 9.816587716341018677e-02 4.976058006286621094e-02
-6.561292707920074463e-02 9.575803577899932861e-02 -4.232721328735351562e-01
1.039440780878067017e-01 7.403951883316040039e-02 -1.001554489135742188e+00
4.726834595203399658e-03 9.439312666654586792e-02 -8.819423913955688477e-01
2.581690549850463867e-01 7.586228847503662109e-02 9.557178616523742676e-02
4.625168442726135254e-01 9.124293923377990723e-02 -1.556092649698257446e-01
1.262467503547668457e-01 9.911201149225234985e-02 -1.862182468175888062e-01
2.492694258689880371e-01 9.848441928625106812e-02 -4.698989987373352051e-01
2.184788286685943604e-01 9.711596369743347168e-02 1.500978767871856689e-01
2.272712290287017822e-01 7.589293271303176880e-02 1.287724077701568604e-01
1.940406262874603271e-01 9.740126132965087891e-02 1.254678070545196533e-01
1.917843222618103027e-01 7.710939645767211914e-02 -1.054474472999572754e+00
2.513400018215179443e-01 7.284724712371826172e-02 -2.263272553682327271e-01
-3.385348618030548096e-02 7.300364971160888672e-02 -2.169570773839950562e-01
-1.510491818189620972e-01 9.090309590101242065e-02 -7.307073473930358887e-01
1.808095127344131470e-01 7.248672842979431152e-02 -7.839319705963134766e-01
-5.053918063640594482e-02 7.551477849483489990e-02 -5.299237370491027832e-02
3.323094248771667480e-01 8.087488263845443726e-02 -9.014531373977661133e-01
2.335250079631805420e-01 9.772405028343200684e-02 -6.058921813964843750e-01
7.502436637878417969e-02 9.480196237564086914e-02 1.948926746845245361e-01
7.140445709228515625e-02 9.874501824378967285e-02 -3.493247926235198975e-01
2.775801420211791992e-01 7.412778586149215698e-02 -1.022915840148925781e-01
3.075544238090515137e-01 9.380148351192474365e-02 2.848078310489654541e-01
4.368818402290344238e-01 9.220488369464874268e-02 3.543230891227722168e-02
9.636490792036056519e-02 9.624612331390380859e-02 -8.081301450729370117e-01
2.696869373321533203e-01 7.280291616916656494e-02 -4.194679260253906250e-01
-1.221940368413925171e-01 7.498260587453842163e-02 -8.783912062644958496e-01
1.933757066726684570e-01 7.701001316308975220e-02 2.084471881389617920e-01
1.485669016838073730e-01 7.359347492456436157e-02 -9.328291416168212891e-01
-9.230439364910125732e-02 8.239226788282394409e-02 9.243065118789672852e-02
2.329174578189849854e-01 7.424063980579376221e-02 -8.369628787040710449e-01
-9.845209121704101562e-02 8.935640007257461548e-02 -9.996756315231323242e-01
7.073870301246643066e-02 7.064601033926010132e-02 -5.786837935447692871e-01
1.982667446136474609e-01 8.238924294710159302e-02 -1.144786477088928223e+00
1.854977905750274658e-01 7.880156487226486206e-02 2.857289016246795654e-01
-8.248558640480041504e-02 9.357009828090667725e-02 -7.691447138786315918e-01
2.896434813737869263e-02 9.751967340707778931e-02 -1.379379332065582275e-01
-8.988775312900543213e-02 7.406567037105560303e-02 -2.677334547042846680e-01
1.610043644905090332e-01 7.653233408927917480e-02 1.899686753749847412e-01
1.118211969733238220e-01 7.671952992677688599e-02 1.898877322673797607e-01
-1.353102922439575195e-02 7.194706052541732788e-02 -8.106683492660522461e-01
2.298997491598129272e-01 9.904716163873672485e-02 -1.167403459548950195e-01
-1.840144395828247070e-02 7.153476029634475708e-02 -7.265284061431884766e-01
3.385015428066253662e-01 9.730614721775054932e-02 -5.050137639045715332e-02
-6.468971073627471924e-02 7.214082777500152588e-02 -4.703587293624877930e-01
2.596533596515655518e-01 7.328800857067108154e-02 -6.538968086242675781e-01
-3.664985299110412598e-03 7.131467759609222412e-02 -7.102904915809631348e-01
8.705124258995056152e-03 7.205227017402648926e-02 -8.495655655860900879e-01
2.052122354507446289e-01 9.434738010168075562e-02 -8.944231867790222168e-01
1.540015786886215210e-01 9.810779243707656860e-02 -6.237881183624267578e-01
8.503206819295883179e-02 9.890844672918319702e-02 -3.286477327346801758e-01
1.476296484470367432e-01 9.861626476049423218e-02 -3.854271769523620605e-02
4.715928435325622559e-02 9.748618304729461670e-02 -6.298880577087402344e-01
1.982367783784866333e-02 7.493251562118530273e-02 -1.065734744071960449e+00
4.203055500984191895e-01 8.183495700359344482e-02 7.200804352760314941e-02
1.395570486783981323e-02 7.266953587532043457e-02 -1.614633649587631226e-01
-8.141562342643737793e-03 7.400161772966384888e-02 -7.781994342803955078e-02
1.438765525817871094e-01 7.091576606035232544e-02 -4.196119010448455811e-01
1.007021367549896240e-01 7.171341031789779663e-02 -1.992224007844924927e-01
2.087780237197875977e-01 7.212722301483154297e-02 -2.368518859148025513e-01
-8.071258664131164551e-03 9.707263112068176270e-02 -5.318889617919921875e-01
3.136189281940460205e-01 7.985547184944152832e-02 -9.218004941940307617e-01
2.368308603763580322e-02 7.897506654262542725e-02 -1.190150856971740723e+00
3.669077754020690918e-01 8.636442571878433228e-02 -8.549802899360656738e-01
3.275581300258636475e-01 9.790533781051635742e-02 -1.839508116245269775e-01
1.493672728538513184e-01 7.105950266122817993e-02 -3.675554394721984863e-01
4.481712728738784790e-02 9.707541763782501221e-02 -2.713882923126220703e-02
3.825023770332336426e-02 9.822181612253189087e-02 -2.887809574604034424e-01
2.284764647483825684e-01 9.615702927112579346e-02 2.156238853931427002e-01
3.842833638191223145e-01 9.569081664085388184e-02 -3.802769482135772705e-01
1.632328331470489502e-01 9.325622022151947021e-02 -9.779620170593261719e-01
3.500709235668182373e-01 9.571313858032226562e-02 -5.383270382881164551e-01
1.530671119689941406e-02 9.517095983028411865e-02 -8.351230621337890625e-01
2.345344424247741699e-01 9.629162400960922241e-02 -7.390650510787963867e-01
1.210958436131477356e-01 7.110954821109771729e-02 -3.113279640674591064e-01
-7.870192825794219971e-02 9.197463095188140869e-02 2.742677927017211914e-03
2.350613474845886230e-01 8.363083004951477051e-02 3.986804783344268799e-01
4.416214674711227417e-02 7.072399556636810303e-02 -4.756281077861785889e-01
3.635013848543167114e-02 9.639214724302291870e-02 2.140936255455017090e-02
4.375851750373840332e-01 9.339009225368499756e-02 -2.663264274597167969e-01
3.555383682250976562e-01 9.720484167337417603e-02 -2.013375908136367798e-01
9.271679073572158813e-02 7.377284020185470581e-02 6.972581148147583008e-03
1.100804880261421204e-01 9.643113613128662109e-02 1.414013803005218506e-01
2.078070491552352905e-01 9.934476017951965332e-02 -3.018337488174438477e-01
-4.557779431343078613e-02 9.619295597076416016e-02 -5.252471566200256348e-01
2.628384232521057129e-01 7.844377309083938599e-02 -9.875373840332031250e-01
1.017473042011260986e-01 9.809682518243789673e-02 -6.102247834205627441e-01
4.440180063247680664e-01 9.170423448085784912e-02 -4.119331538677215576e-01
-4.697938263416290283e-02 9.020636230707168579e-02 -1.045996785163879395e+00
-1.390635222196578979e-01 8.137405663728713989e-02 -5.038452148437500000e-02
-1.639123708009719849e-01 9.086772054433822632e-02 -6.264376044273376465e-01
-5.861485004425048828e-02 7.258707284927368164e-02 -8.082210421562194824e-01
-3.514759242534637451e-02 9.376231580972671509e-02 -8.691666126251220703e-01
4.113613963127136230e-01 7.943294942378997803e-02 -5.638226866722106934e-02
-1.673315614461898804e-01 9.040712565183639526e-02 -3.462864458560943604e-01
3.639851212501525879e-01 9.518450498580932617e-02 1.175224483013153076e-01
3.746860921382904053e-01 7.940568029880523682e-02 -7.220511436462402344e-01
4.666473865509033203e-01 8.951805531978607178e-02 -3.531622886657714844e-01
3.729104995727539062e-01 8.326734602451324463e-02 2.555543482303619385e-01
-7.342527806758880615e-02 7.235118746757507324e-02 -7.011731266975402832e-01
3.662627935409545898e-01 7.852561026811599731e-02 6.140497326850891113e-02
1.167633533477783203e-01 7.069923728704452515e-02 -5.071567296981811523e-01
1.567386537790298462e-01 7.250712066888809204e-02 -8.293998241424560547e-01
-1.867436319589614868e-01 7.982458174228668213e-02 -8.867622613906860352e-01
2.953684926033020020e-01 7.418167591094970703e-02 -1.553023755550384521e-01
1.405234783887863159e-01 7.409170269966125488e-02 4.113423824310302734e-02
-4.011954367160797119e-02 9.153635054826736450e-02 -9.959443807601928711e-01
-5.187623202800750732e-02 9.607531130313873291e-02 -3.158456087112426758e-01
-5.284859240055084229e-02 9.188864380121231079e-02 8.072286844253540039e-02
-7.509547472000122070e-02 7.352208346128463745e-02 -8.787025213241577148e-01
2.434134483337402344e-01 9.913523495197296143e-02 -2.845098972320556641e-01
-3.101366758346557617e-02 7.434942573308944702e-02 -1.007477879524230957e+00
2.092308551073074341e-02 9.614196419715881348e-02 -7.534211874008178711e-01
-1.413682103157043457e-02 7.197663187980651855e-02 -3.016077876091003418e-01
8.165242522954940796e-02 9.766794741153717041e-02 -1.294651627540588379e-02
2.289690226316452026e-01 7.936631143093109131e-02 -1.067035436630249023e+00
3.452306985855102539e-01 8.834915608167648315e-02 -8.835690021514892578e-01
5.884567648172378540e-02 9.716425836086273193e-02 -6.912354230880737305e-01
2.130385041236877441e-01 9.755356609821319580e-02 -6.501046419143676758e-01
-1.768699735403060913e-01 9.025580435991287231e-02 -5.208474993705749512e-01
2.292762696743011475e-02 7.181335985660552979e-02 -2.514745593070983887e-01
-3.054015338420867920e-02 9.663079679012298584e-02 -5.095435380935668945e-01
-9.125547111034393311e-02 9.180360287427902222e-02 -8.872550725936889648e-01
3.579464554786682129e-02 9.761398285627365112e-02 -5.828989744186401367e-01
1.687168329954147339e-01 7.109607756137847900e-02 -4.550421535968780518e-01
1.658432483673095703e-01 9.792957454919815063e-02 6.413137912750244141e-02
-6.066864728927612305e-02 7.345903664827346802e-02 -2.380607277154922485e-01
-4.283615946769714355e-02 7.326719164848327637e-02 -9.154119491577148438e-01
3.013941049575805664e-01 7.370186597108840942e-02 -4.608655869960784912e-01
3.417851328849792480e-01 9.673692286014556885e-02 2.916526794433593750e-02
2.348313927650451660e-01 9.749267995357513428e-02 1.135396063327789307e-01
1.519066840410232544e-02 9.744149446487426758e-02 -1.832198649644851685e-01
2.007910460233688354e-01 7.257984578609466553e-02 -7.496091127395629883e-01
2.171735614538192749e-01 9.677077829837799072e-02 -7.200732231140136719e-01
1.093947514891624451e-01 9.258532524108886719e-02 3.175654113292694092e-01
-1.542779803276062012e-02 7.331368327140808105e-02 -9.505822658538818359e-01
8.290910720825195312e-02 9.887305647134780884e-02 -2.906296253204345703e-01
6.200721859931945801e-02 7.130721956491470337e-02 -7.665921449661254883e-01
2.061225771903991699e-01 8.784761279821395874e-02 -1.106561064720153809e+00
1.135528087615966797e-03 9.668214619159698486e-02 -6.450357437133789062e-01
9.220039099454879761e-02 7.080864161252975464e-02 -6.416972279548645020e-01
2.150794118642807007e-02 8.370513468980789185e-02 -1.219225406646728516e+00
2.190171182155609131e-02 9.196060895919799805e-02 2.304640114307403564e-01
1.333371400833129883e-01 7.176809012889862061e-02 -7.770293951034545898e-01
4.273255467414855957e-01 9.148123115301132202e-02 1.184500753879547119e-01
5.941048264503479004e-02 9.211412817239761353e-02 2.788825929164886475e-01
4.226529598236083984e-01 8.928290009498596191e-02 -6.318826675415039062e-01
4.521055221557617188e-01 8.285239338874816895e-02 -4.563869237899780273e-01
2.093324363231658936e-01 9.804857522249221802e-02 -5.968952775001525879e-01
3.718979954719543457e-01 7.687322795391082764e-02 -1.274796426296234131e-01
2.625952363014221191e-01 7.383960485458374023e-02 -7.160434722900390625e-01
3.862839341163635254e-01 7.913815230131149292e-02 3.763625025749206543e-02
1.685603857040405273e-01 9.930789470672607422e-02 -1.818470656871795654e-01
-1.677465438842773438e-02 7.284534722566604614e-02 -9.095088243484497070e-01
3.358791470527648926e-01 7.585306465625762939e-02 -8.226147294044494629e-02
3.360473215579986572e-01 9.653769433498382568e-02 -4.988002479076385498e-01
-2.110525965690612793e-03 9.451071172952651978e-02 7.250022888183593750e-02
3.210230767726898193e-01 9.138447046279907227e-02 3.416159451007843018e-01
2.722044587135314941e-01 9.736640751361846924e-02 9.844639897346496582e-02
1.258826255798339844e-01 9.840676188468933105e-02 -3.397059440612792969e-02
2.402624785900115967e-01 7.237967103719711304e-02 -2.946318984031677246e-01
3.501243293285369873e-01 7.714879512786865234e-02 2.586603164672851562e-03
-3.321664035320281982e-02 7.154697179794311523e-02 -6.746791005134582520e-01
3.057252764701843262e-01 9.599180519580841064e-02 1.725027263164520264e-01
5.630385875701904297e-02 7.299526035785675049e-02 -9.507863521575927734e-01
4.960778355598449707e-02 7.141674309968948364e-02 -2.764882743358612061e-01
-1.081176996231079102e-01 9.394656121730804443e-02 -3.338085114955902100e-01
-1.972126215696334839e-01 8.708240836858749390e-02 -3.460567593574523926e-01
1.809652894735336304e-01 7.250472903251647949e-02 -1.294656097888946533e-01
3.926264494657516479e-02 7.928241789340972900e-02 2.347464859485626221e-01
1.736471951007843018e-01 9.215509146451950073e-02 -1.017587780952453613e+00
-1.180632412433624268e-01 9.370955079793930054e-02 -4.842101633548736572e-01
6.995218992233276367e-02 7.493373751640319824e-02 -1.063955187797546387e+00
4.109006524085998535e-01 8.349789679050445557e-02 -7.056735754013061523e-01
3.188737481832504272e-02 7.778972387313842773e-02 1.767137348651885986e-01
1.121807843446731567e-02 7.175129652023315430e-02 -2.810722887516021729e-01
3.310524821281433105e-01 7.458549737930297852e-02 -3.921381235122680664e-01
1.948523819446563721e-01 9.299544245004653931e-02 -9.680860042572021484e-01
-7.342748343944549561e-02 7.938460260629653931e-02 6.853860616683959961e-02
4.559572935104370117e-01 9.137313067913055420e-02 -3.289241790771484375e-01
-1.210550963878631592e-01 7.967238873243331909e-02 -3.906100988388061523e-02
-4.388128221035003662e-02 9.642642736434936523e-02 -4.034031927585601807e-01
3.096505999565124512e-01 9.769665449857711792e-02 -4.285571873188018799e-01
-1.214542537927627563e-01 7.362722605466842651e-02 -6.761180162429809570e-01
3.117343783378601074e-01 9.536992013454437256e-02 -6.742541790008544922e-01
2.185790836811065674e-01 7.750527560710906982e-02 2.224019467830657959e-01
1.674916595220565796e-02 7.797086983919143677e-02 -1.168692231178283691e+00
2.928219139575958252e-01 9.767518192529678345e-02 -4.892968237400054932e-01
8.617401123046875000e-02 9.135793149471282959e-02 3.278528749942779541e-01
-6.780603528022766113e-02 7.284080982208251953e-02 -3.386838138103485107e-01
2.046118378639221191e-01 9.878454357385635376e-02 -4.892727732658386230e-01
-1.156140565872192383e-01 8.059589564800262451e-02 1.051157712936401367e-03
2.360084354877471924e-01 9.542588889598846436e-02 -7.988215684890747070e-01
1.867403984069824219e-01 7.139744609594345093e-02 -3.711292445659637451e-01
1.194509193301200867e-01 9.494626522064208984e-02 -9.028760194778442383e-01
-1.276095956563949585e-01 7.398687303066253662e-02 -4.821753799915313721e-01
-1.138666272163391113e-02 9.497243165969848633e-02 1.780238747596740723e-02
2.249535322189331055e-01 7.253241539001464844e-02 -6.696286797523498535e-01
3.458876609802246094e-01 7.536754012107849121e-02 -4.879442453384399414e-01
1.979318857192993164e-01 7.783124595880508423e-02 2.449083626270294189e-01
1.697575300931930542e-01 9.511917829513549805e-02 -8.759582042694091797e-01
9.626631438732147217e-02 7.094448804855346680e-02 -6.768307685852050781e-01
1.465639472007751465e-01 9.421475231647491455e-02 -9.384427070617675781e-01
2.284105867147445679e-01 7.329466938972473145e-02 -9.649109840393066406e-02
2.985488176345825195e-01 8.019811660051345825e-02 2.713817656040191650e-01
4.156767129898071289e-01 7.861992716789245605e-02 -2.351305931806564331e-01
2.648962140083312988e-01 9.236273169517517090e-02 -9.165228605270385742e-01
6.283824145793914795e-02 9.418978542089462280e-02 -9.398539066314697266e-01
2.185549587011337280e-01 9.396284818649291992e-02 3.204789459705352783e-01
-2.342626452445983887e-03 7.777340710163116455e-02 1.348820626735687256e-01
2.051003873348236084e-01 8.197363466024398804e-02 3.743652999401092529e-01
2.440851628780364990e-01 9.811266511678695679e-02 -5.396729707717895508e-01
-1.855419427156448364e-01 7.692572474479675293e-02 -6.799483299255371094e-01
3.450340330600738525e-01 9.688919782638549805e-02 -4.462718963623046875e-03
-7.482643425464630127e-02 7.220433652400970459e-02 -5.617650151252746582e-01
-3.397341072559356689e-02 7.159035652875900269e-02 -4.545575976371765137e-01
2.639180421829223633e-01 7.452259957790374756e-02 -7.799116373062133789e-01
3.758398294448852539e-01 9.635200351476669312e-02 -8.103966712951660156e-02
2.769039571285247803e-02 7.265886664390563965e-02 -1.435514092445373535e-01
1.733162552118301392e-01 9.904551506042480469e-02 -9.734818339347839355e-02
1.713137924671173096e-01 7.807410508394241333e-02 -1.106592416763305664e+00
1.695105731487274170e-01 9.885536134243011475e-02 -6.034281849861145020e-02
-1.652698367834091187e-01 8.891534805297851562e-02 -2.119763344526290894e-01
2.783448100090026855e-01 9.649650007486343384e-02 -6.538699269294738770e-01
2.012601792812347412e-01 9.491324424743652344e-02 -8.661571145057678223e-01
6.836280226707458496e-02 7.096630334854125977e-02 -3.491785824298858643e-01
3.132960796356201172e-01 9.668890386819839478e-02 -5.541858673095703125e-01
1.957062780857086182e-01 9.577804803848266602e-02 -8.157806992530822754e-01
4.752438068389892578e-01 8.775494992733001709e-02 -3.143726587295532227e-01
3.201216161251068115e-01 7.787048071622848511e-02 -8.334814310073852539e-01
5.343211442232131958e-02 9.819405525922775269e-02 -1.793060004711151123e-01
3.921151757240295410e-01 9.482920169830322266e-02 -4.482935070991516113e-01
2.639257609844207764e-01 9.598682820796966553e-02 2.122692167758941650e-01
3.426827788352966309e-01 9.703747183084487915e-02 -3.968868851661682129e-01
-1.775197833776473999e-01 8.151123672723770142e-02 -9.525604248046875000e-01
9.147924184799194336e-02 9.559885412454605103e-02 1.726091802120208740e-01
1.673628538846969604e-01 9.755205363035202026e-02 1.021065711975097656e-01
-7.157577574253082275e-02 9.522004425525665283e-02 -5.823196768760681152e-01
8.629035204648971558e-02 9.832645207643508911e-02 -9.811213612556457520e-02
-1.044179350137710571e-01 8.711191266775131226e-02 -1.063451409339904785e+00
1.041522622108459473e-01 7.065982371568679810e-02 -5.368465185165405273e-01
5.711483955383300781e-02 7.119098305702209473e-02 -7.462887763977050781e-01
-8.392427861690521240e-02 7.429804652929306030e-02 -9.273214340209960938e-01
2.691808938980102539e-01 9.882008284330368042e-02 -1.531384736299514771e-01
4.769879579544067383e-01 8.743948489427566528e-02 -2.880682349205017090e-01
1.271765232086181641e-01 7.271774858236312866e-02 -7.794553041458129883e-02
-3.597527742385864258e-03 8.535026758909225464e-02 2.777101099491119385e-01
8.103765547275543213e-02 7.235052436590194702e-02 -8.887495994567871094e-01
-2.031489163637161255e-01 7.840999960899353027e-02 -5.834139585494995117e-01
-1.245638877153396606e-01 7.446762919425964355e-02 -3.739745914936065674e-01
2.233258485794067383e-01 9.916000068187713623e-02 -1.447184383869171143e-01
2.881054878234863281e-01 9.587816894054412842e-02 -6.859454512596130371e-01
-9.196077287197113037e-02 7.262471318244934082e-02 -6.040733456611633301e-01
-8.457508683204650879e-02 9.440246224403381348e-02 -2.184611707925796509e-01
-1.650299131870269775e-02 9.700119495391845703e-02 -2.756482958793640137e-01
5.561314523220062256e-02 9.463384002447128296e-02 -9.088838100433349609e-01
-3.172279894351959229e-02 9.336477518081665039e-02 -9.029841423034667969e-01
1.545402258634567261e-01 7.120219618082046509e-02 -6.279729008674621582e-01
-1.207928508520126343e-01 9.354409575462341309e-02 -5.168796777725219727e-01
1.729060262441635132e-01 9.927380084991455078e-02 -3.889524340629577637e-01
1.453283280134201050e-01 9.873954206705093384e-02 -5.257678031921386719e-01
3.186754286289215088e-01 7.640479505062103271e-02 2.829766273498535156e-02
-2.154889851808547974e-01 8.281260728836059570e-02 -7.417815327644348145e-01
-2.655190229415893555e-02 7.594675570726394653e-02 1.582074165344238281e-02
-2.122704535722732544e-01 8.252111077308654785e-02 -3.928918838500976562e-01
1.468081325292587280e-01 8.873273432254791260e-02 4.095030725002288818e-01
1.788974553346633911e-02 9.763637930154800415e-02 -2.156773954629898071e-01
1.663739085197448730e-01 7.368265092372894287e-02 3.017574548721313477e-03
-5.032356083393096924e-02 9.580421447753906250e-02 -2.298128306865692139e-01
3.942036628723144531e-01 9.328647702932357788e-02 -5.684459805488586426e-01
3.356168568134307861e-01 7.539069652557373047e-02 -1.472115218639373779e-01
3.429096341133117676e-01 9.753997623920440674e-02 -2.275388389825820923e-01
-5.637590587139129639e-02 7.181341201066970825e-02 -6.018165349960327148e-01
1.282234042882919312e-01 7.099815458059310913e-02 -6.399212479591369629e-01
8.376507461071014404e-02 7.123386114835739136e-02 -7.468888759613037109e-01
-1.666916906833648682e-02 9.021168947219848633e-02 2.109192907810211182e-01
3.629076480865478516e-01 9.693128615617752075e-02 -1.384750306606292725e-01
4.103915691375732422e-01 7.863451540470123291e-02 -4.500761628150939941e-01
2.908875644207000732e-01 8.319231867790222168e-02 3.611544668674468994e-01
-6.654709577560424805e-03 9.592097997665405273e-02 -5.066350102424621582e-02
2.366411387920379639e-01 7.224982231855392456e-02 -5.463476777076721191e-01
-1.449100226163864136e-01 9.139508008956909180e-02 -2.622467279434204102e-01
3.951969146728515625e-01 7.753359526395797729e-02 -2.116666436195373535e-01
7.100646197795867920e-02 7.443708926439285278e-02 -1.038970112800598145e+00
1.334137916564941406e-01 7.090093195438385010e-02 -5.913156270980834961e-01
2.424560487270355225e-01 9.371563792228698730e-02 3.261961042881011963e-01
2.963638305664062500e-01 9.837302565574645996e-02 -1.171860992908477783e-01
-3.373624384403228760e-02 7.663816213607788086e-02 -1.108996868133544922e+00
1.161236166954040527e-01 7.295614480972290039e-02 -5.500271916389465332e-02
-1.104154288768768311e-01 9.143961966037750244e-02 -8.588549494743347168e-01
3.883902430534362793e-01 9.608960151672363281e-02 -2.182806283235549927e-01
1.597922593355178833e-01 7.186446338891983032e-02 -1.994359046220779419e-01
-4.219675064086914062e-02 7.251900434494018555e-02 -2.982282936573028564e-01
3.327324092388153076e-01 9.590960294008255005e-02 1.344369351863861084e-01
-8.100518584251403809e-02 7.297471910715103149e-02 -3.737375736236572266e-01
5.107863247394561768e-02 9.771399199962615967e-02 -6.008677482604980469e-01
-1.264136880636215210e-01 7.706501334905624390e-02 -1.644371896982192993e-01
1.689243018627166748e-01 9.694124013185501099e-02 1.534305512905120850e-01
-1.689360290765762329e-01 8.929434418678283691e-02 -7.720109224319458008e-01
1.159191057085990906e-01 9.737984836101531982e-02 -7.072690725326538086e-01
7.037260383367538452e-02 7.318421453237533569e-02 -5.342012643814086914e-02
3.358864039182662964e-02 7.377493381500244141e-02 -1.004877090454101562e+00
-9.908387064933776855e-02 8.149737864732742310e-02 -1.130166411399841309e+00
2.246468216180801392e-01 7.425551861524581909e-02 -8.564488887786865234e-01
1.213396266102790833e-01 7.085784524679183960e-02 -6.089193820953369141e-01
-3.219747543334960938e-02 7.139361649751663208e-02 -5.721392631530761719e-01
1.492326557636260986e-01 7.449804991483688354e-02 7.006582617759704590e-02
1.539801806211471558e-01 9.889861941337585449e-02 -4.947615861892700195e-01
4.014115333557128906e-01 7.883784919977188110e-02 -5.509425997734069824e-01
2.232844829559326172e-01 7.340233027935028076e-02 -7.855563163757324219e-01
2.687611281871795654e-01 9.807015210390090942e-02 1.956617832183837891e-02
3.379330784082412720e-02 7.072974741458892822e-02 -5.396432280540466309e-01
6.308912485837936401e-02 9.856802970170974731e-02 -2.558917999267578125e-01
3.431028425693511963e-01 9.452407807111740112e-02 -6.551777124404907227e-01
3.757501244544982910e-01 9.591051936149597168e-02 -3.999751806259155273e-01
1.672089099884033203e-03 9.738169610500335693e-02 -4.985343217849731445e-01
1.884631067514419556e-01 7.387734204530715942e-02 8.067011833190917969e-03
-1.349163800477981567e-01 7.537564635276794434e-02 -3.230698704719543457e-01
1.093231365084648132e-01 7.749120891094207764e-02 -1.139685630798339844e+00
1.807509362697601318e-02 7.700984925031661987e-02 1.296644508838653564e-01
3.159795701503753662e-01 7.442155480384826660e-02 -2.175618410110473633e-01
2.839275002479553223e-01 7.625170052051544189e-02 8.645445108413696289e-02
-1.429982930421829224e-01 9.008985757827758789e-02 -1.541768461465835571e-01
2.253446578979492188e-01 9.800815582275390625e-02 6.419381499290466309e-02
2.546254396438598633e-01 9.772048890590667725e-02 7.859048247337341309e-02
6.915289908647537231e-02 7.701046764850616455e-02 -1.142160773277282715e+00
2.255115509033203125e-01 9.915977716445922852e-02 -3.537079691886901855e-01
-1.865185946226119995e-01 8.916579186916351318e-02 -4.177242815494537354e-01
3.964852690696716309e-01 8.677715063095092773e-02 -7.666176557540893555e-01
1.256535053253173828e-01 9.925521910190582275e-02 -2.956109642982482910e-01
4.410590529441833496e-01 8.060169219970703125e-02 -1.861226707696914673e-01
3.805549144744873047e-01 9.205541014671325684e-02 -6.826700568199157715e-01
3.048731386661529541e-01 9.755422174930572510e-02 -4.696357846260070801e-01
-1.336338371038436890e-01 9.282444417476654053e-02 -3.824108839035034180e-01
9.978967905044555664e-02 7.177418470382690430e-02 -8.147951364517211914e-01
1.059124767780303955e-01 9.788513183593750000e-02 4.571795463562011719e-03
1.029252335429191589e-01 8.392034471035003662e-02 3.778575956821441650e-01
3.005670011043548584e-01 9.180183708667755127e-02 -8.808803558349609375e-01
2.837737798690795898e-01 9.463973343372344971e-02 -7.774242758750915527e-01
1.360891312360763550e-01 9.331016242504119873e-02 3.154466450214385986e-01
-1.587164252996444702e-01 9.147006273269653320e-02 -4.393263459205627441e-01
3.012567162513732910e-01 9.620417654514312744e-02 -6.314488053321838379e-01
-1.062500327825546265e-01 9.191422164440155029e-02 -9.406775236129760742e-02
4.674060940742492676e-01 8.549683541059494019e-02 -4.176437854766845703e-02
-2.410575747489929199e-02 9.120032936334609985e-02 1.706489622592926025e-01
1.244663447141647339e-01 9.907045215368270874e-02 -4.275588989257812500e-01
-3.020863234996795654e-02 9.584449231624603271e-02 -1.291429996490478516e-01
-1.754823774099349976e-01 9.022915363311767578e-02 -5.888867974281311035e-01
-7.595656812191009521e-02 9.440704435110092163e-02 -6.973760724067687988e-01
3.635747432708740234e-01 7.717788964509963989e-02 -4.548385739326477051e-02
3.908110260963439941e-01 9.510013461112976074e-02 -4.236473739147186279e-01
-1.781132668256759644e-01 8.962366729974746704e-02 -3.668844699859619141e-01
1.021222770214080811e-02 9.762995690107345581e-02 -2.692149877548217773e-01
1.481515914201736450e-02 7.451955229043960571e-02 -7.974535226821899414e-03
1.209631934762001038e-01 7.349817454814910889e-02 -9.543032646179199219e-01
-1.068939268589019775e-01 9.348368644714355469e-02 -6.714209318161010742e-01
3.932223320007324219e-01 7.884737104177474976e-02 -1.484385132789611816e-02
2.700145542621612549e-01 7.439912855625152588e-02 -7.500160932540893555e-01
2.576950192451477051e-01 9.898618608713150024e-02 -1.805940568447113037e-01
-4.366795718669891357e-02 7.260417938232421875e-02 -8.453570008277893066e-01
1.764358878135681152e-01 9.365539252758026123e-02 -9.514437913894653320e-01
3.440768420696258545e-01 9.535834193229675293e-02 1.523118317127227783e-01
4.292536973953247070e-01 8.314650505781173706e-02 9.433132410049438477e-02
-2.604886889457702637e-03 7.590648531913757324e-02 5.053859949111938477e-02
-1.314431577920913696e-01 9.168830513954162598e-02 -2.013090103864669800e-01
3.007647693157196045e-01 7.846251130104064941e-02 1.942150294780731201e-01
-1.455875784158706665e-01 9.202428162097930908e-02 -6.112689971923828125e-01
2.010999023914337158e-01 9.920315444469451904e-02 -1.363585591316223145e-01
2.743493318557739258e-01 7.300948351621627808e-02 -3.202351927757263184e-01
3.060302734375000000e-01 8.943492174148559570e-02 -9.407176971435546875e-01
3.062184453010559082e-01 7.426945865154266357e-02 -1.907064765691757202e-01
2.891880869865417480e-01 7.437609881162643433e-02 -6.779071688652038574e-01
4.179030060768127441e-01 9.448375552892684937e-02 -3.033041954040527344e-01
3.287004828453063965e-01 7.564658671617507935e-02 -6.461177468299865723e-01
2.699753046035766602e-01 9.733947366476058960e-02 -5.870438814163208008e-01
-2.857998013496398926e-02 7.390769571065902710e-02 -9.816917181015014648e-01
1.296444535255432129e-01 9.692326188087463379e-02 -7.540704011917114258e-01
1.079218015074729919e-01 9.905596822500228882e-02 -3.901961445808410645e-01
7.402072101831436157e-02 7.165496051311492920e-02 -8.146168589591979980e-01
2.554363906383514404e-01 7.673052698373794556e-02 1.544558703899383545e-01
3.764084577560424805e-01 9.518258273601531982e-02 -4.873810708522796631e-01
9.123350679874420166e-02 9.343000501394271851e-02 -9.875447750091552734e-01
-3.578935563564300537e-02 9.524493664503097534e-02 -7.320909500122070312e-01
2.126029580831527710e-01 8.337213844060897827e-02 3.993714153766632080e-01
-1.089993715286254883e-01 7.406190037727355957e-02 -3.465167880058288574e-01
-4.419271647930145264e-02 7.219424098730087280e-02 -3.560362458229064941e-01
3.210675120353698730e-01 7.427018880844116211e-02 -3.301302790641784668e-01
1.064908504486083984e-02 7.586878538131713867e-02 -1.103548526763916016e+00
1.849275082349777222e-01 9.780168533325195312e-02 8.603188395500183105e-02
2.386672198772430420e-01 9.882753342390060425e-02 -4.222380518913269043e-01
2.627779245376586914e-01 9.818649291992187500e-02 -4.901769161224365234e-01
1.479226797819137573e-01 7.270987331867218018e-02 -8.295637369155883789e-02
3.527133911848068237e-02 9.798395633697509766e-02 -4.943339228630065918e-01
2.740679383277893066e-01 9.775345027446746826e-02 -5.275262594223022461e-01
2.237491309642791748e-01 8.521632105112075806e-02 4.199504554271697998e-01
2.972412705421447754e-01 7.354565709829330444e-02 -4.395060539245605469e-01
4.491031169891357422e-01 9.138886630535125732e-02 7.037788629531860352e-03
3.737375885248184204e-02 9.610003232955932617e-02 4.867336153984069824e-02
3.260352462530136108e-02 9.816626459360122681e-02 -3.365601897239685059e-01
1.191568970680236816e-01 7.098358869552612305e-02 -3.429926335811614990e-01
1.261257082223892212e-01 9.033751487731933594e-02 -1.102313280105590820e+00
-3.440502285957336426e-02 7.218754291534423828e-02 -8.082939386367797852e-01
1.399935632944107056e-01 9.844520688056945801e-02 -5.757904052734375000e-01
6.981308013200759888e-02 9.862852841615676880e-02 -4.259667992591857910e-01
1.020857542753219604e-01 7.075649499893188477e-02 -4.089523851871490479e-01
2.228365689516067505e-01 9.929745644330978394e-02 -2.556527554988861084e-01
2.746242880821228027e-01 7.363058626651763916e-02 -1.665497720241546631e-01
-1.429230719804763794e-01 8.704216033220291138e-02 -9.819105863571166992e-01
-1.448673456907272339e-01 9.223887324333190918e-02 -5.639625787734985352e-01
1.439366638660430908e-01 9.436987340450286865e-02 2.815616428852081299e-01
2.336828559637069702e-01 7.615175843238830566e-02 -9.522835016250610352e-01
-6.659087538719177246e-02 8.362577855587005615e-02 1.611035764217376709e-01
1.756080985069274902e-02 7.129879295825958252e-02 -7.434328794479370117e-01
-5.689574778079986572e-02 8.665817975997924805e-02 -1.138650298118591309e+00
3.105067014694213867e-01 9.700435400009155273e-02 -5.263191461563110352e-01
3.332826495170593262e-01 9.081047773361206055e-02 -8.504290580749511719e-01
1.648368835449218750e-01 9.175790101289749146e-02 3.729200065135955811e-01
1.254644840955734253e-01 7.409457117319107056e-02 -9.887100458145141602e-01
4.001965522766113281e-01 7.772237807512283325e-02 -3.907320797443389893e-01
-6.924480199813842773e-03 9.233843535184860229e-02 -9.936604499816894531e-01
3.473678827285766602e-01 7.794363796710968018e-02 7.412588596343994141e-02
2.689774930477142334e-01 9.641592949628829956e-02 -6.779330968856811523e-01
-5.969727039337158203e-02 9.351397305727005005e-02 -8.382708430290222168e-01
1.408752948045730591e-01 9.914891421794891357e-02 -1.642552614212036133e-01
-1.465432345867156982e-02 9.680819511413574219e-02 -5.630716085433959961e-01
-4.570256173610687256e-02 9.184142947196960449e-02 -9.727060794830322266e-01
1.716101020574569702e-01 7.147191464900970459e-02 -6.442372202873229980e-01
3.565757274627685547e-01 7.628311216831207275e-02 -5.656014680862426758e-01
1.739949285984039307e-01 7.136285305023193359e-02 -3.319545686244964600e-01
2.083614468574523926e-03 8.028739690780639648e-02 2.189883887767791748e-01
4.358176887035369873e-02 9.622830897569656372e-02 -7.744066715240478516e-01
1.932306736707687378e-01 9.901010245084762573e-02 -8.303785324096679688e-02
3.662371039390563965e-01 9.550377726554870605e-02 8.411902189254760742e-02
-4.629354178905487061e-02 9.022773057222366333e-02 1.509490907192230225e-01
-4.637017846107482910e-03 7.105447351932525635e-02 -5.946264266967773438e-01
2.113612890243530273e-01 9.859909117221832275e-02 -9.583979845046997070e-03
-1.911833882331848145e-03 9.728501737117767334e-02 -2.468622773885726929e-01
-9.569898247718811035e-03 9.654187411069869995e-02 -1.369560062885284424e-01
3.841128945350646973e-01 9.626507759094238281e-02 -1.914657801389694214e-01
-9.411633014678955078e-03 9.684439003467559814e-02 -1.874694824218750000e-01
1.880944967269897461e-01 9.796305000782012939e-02 -6.263509392738342285e-01
4.183285832405090332e-01 9.371306002140045166e-02 -4.120432138442993164e-01
2.800607681274414062e-02 9.766329079866409302e-02 -5.488223433494567871e-01
-1.517272144556045532e-01 7.520181685686111450e-02 -4.544579386711120605e-01
3.061436414718627930e-01 9.812474250793457031e-02 -3.480597436428070068e-01
3.142828345298767090e-01 9.712037444114685059e-02 -5.000947117805480957e-01
3.554417788982391357e-01 7.593872398138046265e-02 -5.201686620712280273e-01
-1.534332334995269775e-02 7.170951366424560547e-02 -7.693073749542236328e-01
2.300037443637847900e-01 7.322688400745391846e-02 -7.487367391586303711e-01
7.603788375854492188e-02 8.015941828489303589e-02 2.912474572658538818e-01
-2.097636461257934570e-02 7.126473635435104370e-02 -6.150040626525878906e-01
1.699814200401306152e-01 9.867896884679794312e-02 -5.344317555427551270e-01
3.892646431922912598e-01 7.703759521245956421e-02 -3.436917066574096680e-01
1.396771073341369629e-01 8.720735460519790649e-02 -1.165957808494567871e+00
-2.821460366249084473e-02 9.428434818983078003e-02 -8.410691022872924805e-01
-1.325450986623764038e-01 7.454109936952590942e-02 -7.844165563583374023e-01
8.800567686557769775e-02 9.607500582933425903e-02 1.380992233753204346e-01
3.650314360857009888e-02 7.545966655015945435e-02 7.393792271614074707e-02
2.131773829460144043e-01 7.216966152191162109e-02 -6.477536559104919434e-01
2.380723357200622559e-01 7.212316244840621948e-02 -4.404711723327636719e-01
1.816395521163940430e-01 9.927891194820404053e-02 -1.613950133323669434e-01
2.682710289955139160e-01 9.654247760772705078e-02 1.720336973667144775e-01
-1.228042989969253540e-01 9.300169348716735840e-02 -2.922098934650421143e-01
-3.457815945148468018e-02 9.639649838209152222e-02 -2.482534646987915039e-01
-1.587987989187240601e-01 9.137364476919174194e-02 -4.076213836669921875e-01
2.488523870706558228e-01 7.240480929613113403e-02 -3.499321937561035156e-01
3.309010863304138184e-01 7.463804632425308228e-02 -2.996966838836669922e-01
3.495848774909973145e-01 7.538097351789474487e-02 -4.457355737686157227e-01
8.101703226566314697e-02 7.480961084365844727e-02 7.212129235267639160e-02
1.912927031517028809e-01 9.933337569236755371e-02 -1.856267005205154419e-01
-1.365741938352584839e-01 8.254525065422058105e-02 -2.378800511360168457e-02
8.566538244485855103e-02 8.766062557697296143e-02 -1.176249027252197266e+00
-2.034596353769302368e-01 7.883566617965698242e-02 -4.972425103187561035e-01
3.284915685653686523e-01 9.771535545587539673e-02 -9.630119800567626953e-02
1.582454890012741089e-01 9.769740700721740723e-02 -6.719808578491210938e-01
2.130113840103149414e-01 9.930843859910964966e-02 -1.995437741279602051e-01
4.188293218612670898e-01 8.283063024282455444e-02 -6.587358713150024414e-01
-1.236624866724014282e-01 9.279866516590118408e-02 -2.688353657722473145e-01
-8.971771597862243652e-02 9.395936131477355957e-02 -1.910484284162521362e-01
3.811430335044860840e-01 7.697499543428421021e-02 -4.731961488723754883e-01
1.072728633880615234e-01 9.856924414634704590e-02 -5.340409874916076660e-01
6.504700332880020142e-02 9.853954613208770752e-02 -2.292532473802566528e-01
-1.857692003250122070e-02 7.300324738025665283e-02 -1.838717460632324219e-01
-2.235060930252075195e-02 7.507498562335968018e-02 -2.737534046173095703e-02
3.686014413833618164e-01 7.609179615974426270e-02 -3.929652571678161621e-01
2.064490914344787598e-01 7.157829403877258301e-02 -4.558426439762115479e-01
2.669731378555297852e-01 9.471057355403900146e-02 2.776636779308319092e-01
2.363532781600952148e-03 9.640422463417053223e-02 -7.388436794281005859e-02
7.126109302043914795e-02 7.075819373130798340e-02 -6.369783282279968262e-01
4.853643476963043213e-02 9.303992986679077148e-02 -9.966533184051513672e-01
3.301993012428283691e-01 7.466379553079605103e-02 -2.771783173084259033e-01
-1.127996593713760376e-01 7.324178516864776611e-02 -5.871443748474121094e-01
2.349187135696411133e-01 9.683097153902053833e-02 -6.939044594764709473e-01
9.916901588439941406e-02 9.760178625583648682e-02 2.586230635643005371e-02
9.026527404785156250e-02 9.063224494457244873e-02 -1.100836157798767090e+00
1.717974543571472168e-01 9.898766130208969116e-02 -4.726477265357971191e-01
-4.504209756851196289e-02 7.386349141597747803e-02 -1.598793566226959229e-01
3.780434429645538330e-01 9.637445956468582153e-02 -2.785693407058715820e-01
8.106127381324768066e-02 8.991862833499908447e-02 -1.123181104660034180e+00
1.926161348819732666e-01 7.417753338813781738e-02 3.059029579162597656e-02
2.392244338989257812e-01 9.465641528367996216e-02 -8.417208194732666016e-01
3.640275001525878906e-01 7.585793733596801758e-02 -3.203772604465484619e-01
1.549690961837768555e-01 8.926291018724441528e-02 -1.117495536804199219e+00
2.270098924636840820e-01 7.237287610769271851e-02 -6.319436430931091309e-01
-1.587553322315216064e-02 7.321177423000335693e-02 -1.581586748361587524e-01
1.800768375396728516e-01 9.647191315889358521e-02 -7.757258415222167969e-01
-4.598172008991241455e-02 9.300683438777923584e-02 4.689306020736694336e-02
8.698098361492156982e-02 7.064065337181091309e-02 -4.692668914794921875e-01
-8.302666246891021729e-02 8.855861425399780273e-02 -1.055999517440795898e+00
2.772218585014343262e-01 7.414591312408447266e-02 -6.982797384262084961e-01
3.748686611652374268e-01 8.502323925495147705e-02 2.870703637599945068e-01
2.000343054533004761e-01 8.734607696533203125e-02 4.291383326053619385e-01
6.727751344442367554e-02 9.197383373975753784e-02 -1.050751209259033203e+00
2.371021807193756104e-01 9.666988998651504517e-02 1.796287000179290771e-01
2.434584498405456543e-01 9.691976755857467651e-02 -6.742465496063232422e-01
-7.402710616588592529e-02 7.222053408622741699e-02 -5.299042463302612305e-01
-9.295214712619781494e-02 7.757867872714996338e-02 -4.199999570846557617e-02
-1.064571291208267212e-01 7.787983119487762451e-02 -6.407314538955688477e-02
-4.965406656265258789e-02 9.553407132625579834e-02 -6.452863812446594238e-01
3.631705045700073242e-02 9.823215752840042114e-02 -3.611898720264434814e-01
2.285663038492202759e-02 9.557431191205978394e-02 -8.102536201477050781e-01
1.628807485103607178e-01 9.626827389001846313e-02 1.963787376880645752e-01
2.565479278564453125e-01 7.291605323553085327e-02 -6.015793681144714355e-01
2.071888744831085205e-01 7.531502097845077515e-02 1.053691208362579346e-01
5.604179948568344116e-02 7.224843651056289673e-02 -8.857377767562866211e-01
1.446695029735565186e-01 7.087127119302749634e-02 -4.837158322334289551e-01
3.557373881340026855e-01 9.673647582530975342e-02 -2.786412835121154785e-02
-1.266921311616897583e-01 9.100657701492309570e-02 -8.355917334556579590e-01
2.761140465736389160e-02 7.080158591270446777e-02 -6.004776954650878906e-01
2.097997963428497314e-01 7.164986431598663330e-02 -4.911644458770751953e-01
-1.827240735292434692e-01 8.739330619573593140e-02 -8.196103572845458984e-01
1.411861330270767212e-01 7.111290842294692993e-02 -3.327099382877349854e-01
3.767272233963012695e-01 7.725957781076431274e-02 -5.535826086997985840e-01
-1.761063188314437866e-01 8.576043695211410522e-02 -1.715537905693054199e-01
1.175785064697265625e-01 7.230277359485626221e-02 -1.226747035980224609e-01
3.347524404525756836e-01 7.715789228677749634e-02 -7.473426461219787598e-01
-1.466057747602462769e-01 9.052633494138717651e-02 -7.900962829589843750e-01
-1.257076710462570190e-01 9.315553307533264160e-02 -5.780145525932312012e-01
-5.762591958045959473e-03 9.489416331052780151e-02 -8.286581039428710938e-01
1.462324559688568115e-01 7.297141849994659424e-02 -5.556505918502807617e-02
4.038742780685424805e-01 7.806310057640075684e-02 -4.232340753078460693e-01
-1.511233896017074585e-01 8.080932497978210449e-02 -1.031228601932525635e-01
3.085628151893615723e-03 9.102410078048706055e-02 -1.061213493347167969e+00
1.305266022682189941e-01 9.926734119653701782e-02 -2.587533593177795410e-01
6.203784793615341187e-02 9.558368474245071411e-02 -8.452404737472534180e-01
2.143139243125915527e-01 7.196994125843048096e-02 -5.967228412628173828e-01
-8.183865249156951904e-02 9.507669508457183838e-02 -3.384096324443817139e-01
8.526356518268585205e-02 7.551709562540054321e-02 -1.084395766258239746e+00
1.832534968852996826e-01 9.941393136978149414e-02 -2.876369953155517578e-01
2.350878715515136719e-02 9.079327434301376343e-02 -1.082187175750732422e+00
2.581844925880432129e-01 9.880416840314865112e-02 -3.705506026744842529e-01
3.650647699832916260e-01 8.172026276588439941e-02 2.246350347995758057e-01
-2.094307094812393188e-01 7.935222238302230835e-02 -6.696549654006958008e-01
-1.454238444566726685e-01 9.228456020355224609e-02 -5.308448672294616699e-01
-1.253424733877182007e-01 8.972442895174026489e-02 -9.192041158676147461e-01
2.922903895378112793e-01 9.848062694072723389e-02 -3.103188574314117432e-01
1.954177021980285645e-01 9.377752244472503662e-02 -9.317779541015625000e-01
3.202689886093139648e-01 9.737580269575119019e-02 8.165389299392700195e-03
5.890498310327529907e-02 7.413127273321151733e-02 1.164305210113525391e-02
1.612061411142349243e-01 9.705146402120590210e-02 -7.359852790832519531e-01
2.586772441864013672e-01 7.345809787511825562e-02 -1.424159407615661621e-01
3.929055929183959961e-01 8.301823586225509644e-02 2.047813236713409424e-01
1.106332466006278992e-01 7.429011911153793335e-02 5.137848854064941406e-02
1.230611726641654968e-01 9.914089739322662354e-02 -2.084667682647705078e-01
6.445474177598953247e-02 7.147642970085144043e-02 -2.521462738513946533e-01
2.288237512111663818e-01 9.858445823192596436e-02 -4.916829466819763184e-01
