1.255070865154266357e-01 -4.624672606587409973e-02 -3.021211028099060059e-01
3.193169459700584412e-02 -5.403427779674530029e-02 -8.491317182779312134e-02
-1.643567532300949097e-02 -5.073873698711395264e-02 -1.973723992705345154e-04
-2.922828495502471924e-02 -4.761417955160140991e-02 2.128500640392303467e-01
6.762130558490753174e-02 -9.776892140507698059e-03 2.296039313077926636e-01
1.211898773908615112e-01 -4.511742293834686279e-02 2.044312804937362671e-01
1.000176370143890381e-02 -4.590947926044464111e-02 4.524859488010406494e-01
3.896564245223999023e-02 -2.278907597064971924e-02 5.445242524147033691e-01
8.896310627460479736e-02 -5.188143253326416016e-02 -1.515625510364770889e-02
7.972615957260131836e-02 -1.851513423025608063e-02 5.206786990165710449e-01
1.017850786447525024e-01 -4.519256576895713806e-02 3.172794878482818604e-01
3.121467307209968567e-02 -5.413386225700378418e-02 9.960842132568359375e-02
1.242457330226898193e-01 -1.190170831978321075e-02 -4.147909283638000488e-01
6.715795397758483887e-02 -4.388695582747459412e-02 4.632180929183959961e-01
3.600204735994338989e-02 -1.390651613473892212e-02 -9.882350265979766846e-02
-1.372471451759338379e-03 -4.617960378527641296e-02 -2.726332545280456543e-01
1.809892058372497559e-02 -4.684846848249435425e-02 -3.439340889453887939e-01
6.213485449552536011e-02 -5.231443792581558228e-02 -2.257429063320159912e-01
2.762074023485183716e-02 -2.697771042585372925e-02 5.671958327293395996e-01
1.316297054290771484e-01 -1.053398475050926208e-02 -3.786842525005340576e-01
-4.393711686134338379e-03 -4.976721853017807007e-02 -1.679974496364593506e-01
1.470672786235809326e-01 -3.995398432016372681e-02 -4.269212782382965088e-01
9.139437973499298096e-02 -5.144599825143814087e-02 3.095456585288047791e-02
3.872365131974220276e-02 -5.369632691144943237e-02 -1.322964727878570557e-01
4.528397694230079651e-02 -4.864769056439399719e-02 3.842021524906158447e-01
1.745727360248565674e-01 -1.653015986084938049e-02 -4.529523849487304688e-01
1.456592679023742676e-01 -3.201959282159805298e-02 3.712982237339019775e-01
-7.372632622718811035e-03 -3.268655389547348022e-02 -2.791737318038940430e-01
1.247586831450462341e-01 -3.466564044356346130e-02 -5.813898444175720215e-01
6.203658878803253174e-03 -4.955904930830001831e-02 -2.332951277494430542e-01
1.373174190521240234e-01 -4.245348274707794189e-02 1.872081160545349121e-01
7.095362991094589233e-02 -1.651761680841445923e-02 -4.097402691841125488e-01
4.909732937812805176e-02 -3.974913060665130615e-02 5.512643456459045410e-01
8.763878047466278076e-02 -5.205701291561126709e-02 -6.487078964710235596e-02
1.374859660863876343e-01 -5.896026268601417542e-03 -9.949737042188644409e-02
-9.385988116264343262e-03 -2.388855814933776855e-02 -7.158380001783370972e-02
1.246505826711654663e-01 -2.184177562594413757e-02 -5.797073245048522949e-01
1.855257451534271240e-01 -3.401217237114906311e-02 -6.948965042829513550e-02
7.884947210550308228e-02 -1.121903583407402039e-02 -2.735352218151092529e-01
1.813724637031555176e-01 -1.148113049566745758e-02 9.264437109231948853e-02
1.763168126344680786e-01 -3.411966934800148010e-02 -3.821554183959960938e-01
6.203974783420562744e-02 -9.484814479947090149e-03 1.355617046356201172e-01
1.140666082501411438e-01 -5.884019657969474792e-03 1.901562511920928955e-02
4.750681295990943909e-02 -1.713006570935249329e-02 4.600165486335754395e-01
6.575818359851837158e-02 -5.051017925143241882e-02 2.672648727893829346e-01
9.493117779493331909e-02 -1.572598516941070557e-02 4.730021953582763672e-01
9.918203949928283691e-02 -1.584741473197937012e-02 -4.718373715877532959e-01
6.660807132720947266e-02 -1.962115615606307983e-02 -4.587726294994354248e-01
3.696747124195098877e-02 -2.056795358657836914e-02 5.063325762748718262e-01
9.214989840984344482e-03 -1.778161898255348206e-02 2.295538187026977539e-01
3.459509834647178650e-02 -4.744596034288406372e-02 -3.785251677036285400e-01
9.872741997241973877e-02 -4.756804928183555603e-02 -3.737513124942779541e-01
1.513697355985641479e-01 -3.722704201936721802e-02 2.436982691287994385e-01
1.006834805011749268e-01 -1.976567506790161133e-02 -5.395605564117431641e-01
-1.627296209335327148e-03 -2.045191638171672821e-02 1.281413249671459198e-03
1.669157296419143677e-01 -1.460428629070520401e-02 2.637594044208526611e-01
3.823356702923774719e-02 -5.253371596336364746e-02 -2.150414884090423584e-01
-2.213267236948013306e-02 -2.580698765814304352e-02 1.982960700988769531e-01
1.024970635771751404e-01 -7.886879146099090576e-03 2.266852557659149170e-01
3.047311305999755859e-02 -1.818800345063209534e-02 4.303791522979736328e-01
4.258054494857788086e-02 -1.337621547281742096e-02 -1.351239830255508423e-01
3.603440150618553162e-02 -3.911145031452178955e-02 5.622759461402893066e-01
1.451824903488159180e-01 -4.149482771754264832e-02 1.557917296886444092e-01
1.151103973388671875e-01 -7.144864648580551147e-03 -1.958882808685302734e-01
-3.148410469293594360e-02 -4.614330083131790161e-02 -1.433292683213949203e-02
-7.606722414493560791e-03 -4.795826226472854614e-02 3.631813526153564453e-01
-2.967634797096252441e-02 -3.545543551445007324e-02 3.797851502895355225e-01
4.742800816893577576e-02 -2.953976392745971680e-02 -5.120766758918762207e-01
4.759300872683525085e-02 -4.446991905570030212e-02 4.821839630603790283e-01
5.784109234809875488e-04 -4.811680316925048828e-02 -2.437776923179626465e-01
6.135407835245132446e-02 -4.998117685317993164e-02 -3.391958773136138916e-01
3.220521286129951477e-02 -1.327531412243843079e-02 1.534013748168945312e-01
9.853069484233856201e-02 -2.817536704242229462e-02 5.544070601463317871e-01
1.779665201902389526e-01 -2.529016509652137756e-02 -4.892076551914215088e-01
8.360685408115386963e-02 -7.857844233512878418e-03 -7.956902682781219482e-02
1.001757383346557617e-01 -1.373890042304992676e-02 -4.257766902446746826e-01
1.723305583000183105e-01 -3.694297745823860168e-02 -3.196598887443542480e-01
1.895345747470855713e-01 -1.491292938590049744e-02 -3.457869589328765869e-01
1.788998544216156006e-01 -9.163312613964080811e-03 -6.335453130304813385e-03
4.990551248192787170e-02 -4.505964368581771851e-02 -4.513008892536163330e-01
1.928251683712005615e-01 -2.999097108840942383e-02 -1.690162159502506256e-02
1.644648909568786621e-01 -7.186854258179664612e-03 -1.305994689464569092e-01
1.284793466329574585e-01 -3.908309713006019592e-02 -5.185747146606445312e-01
8.640474826097488403e-02 -1.630929112434387207e-02 -4.524125158786773682e-01
1.468244343996047974e-01 -6.641345098614692688e-03 -1.769317090511322021e-01
2.204812690615653992e-02 -1.543192565441131592e-02 -1.766356453299522400e-02
2.028946876525878906e-01 -2.105151861906051636e-02 -2.744326293468475342e-01
1.011640802025794983e-01 -4.023343324661254883e-02 4.386206567287445068e-01
-2.680969983339309692e-02 -4.347045719623565674e-02 3.629279732704162598e-01
1.105732768774032593e-01 -1.842422410845756531e-02 -5.333250761032104492e-01
1.195641010999679565e-01 -4.323452711105346680e-02 2.843946516513824463e-01
1.904604285955429077e-01 -1.294072344899177551e-02 -2.783195674419403076e-01
1.429002583026885986e-01 -6.306791678071022034e-03 6.925944983959197998e-02
6.950721144676208496e-02 -3.707519173622131348e-02 5.567282438278198242e-01
1.302812844514846802e-01 -7.852716371417045593e-03 2.141869366168975830e-01
8.956598490476608276e-02 -5.188527703285217285e-02 -7.594995200634002686e-02
1.530534625053405762e-01 -4.020207375288009644e-02 1.312212049961090088e-01
1.719170808792114258e-01 -2.863344177603721619e-02 2.491019070148468018e-01
2.118942886590957642e-02 -1.539016328752040863e-02 2.105980217456817627e-01
1.114081814885139465e-01 -4.876159504055976868e-02 7.481177151203155518e-02
-2.472240477800369263e-02 -3.344618901610374451e-02 4.073297679424285889e-01
1.392671316862106323e-01 -3.401691839098930359e-02 -5.618237853050231934e-01
8.632045239210128784e-02 -1.089559309184551239e-02 -2.924551963806152344e-01
1.177331283688545227e-01 -4.404276236891746521e-02 2.688667178153991699e-01
9.814492613077163696e-02 -3.201123699545860291e-02 5.415032505989074707e-01
8.328080177307128906e-03 -1.753130182623863220e-02 1.603747755289077759e-01
1.283025145530700684e-01 -1.006093621253967285e-02 3.043911457061767578e-01
1.926480531692504883e-01 -1.950259506702423096e-02 1.184020265936851501e-01
1.362646371126174927e-01 -4.124250262975692749e-02 -4.440602660179138184e-01
4.358886554837226868e-02 -2.440514042973518372e-02 5.688579082489013672e-01
-1.074939966201782227e-02 -2.542909048497676849e-02 3.768221735954284668e-01
1.930238306522369385e-01 -1.199786365032196045e-02 -6.252590566873550415e-02
3.079659119248390198e-02 -5.202201008796691895e-02 2.686227262020111084e-01
7.487287372350692749e-02 -5.296597629785537720e-02 -8.039996773004531860e-02
1.871387362480163574e-01 -3.386532515287399292e-02 -1.744043827056884766e-01
-3.466179966926574707e-02 -4.568061977624893188e-02 3.336044773459434509e-02
1.132785081863403320e-01 -4.321934282779693604e-02 3.194809854030609131e-01
1.216001212596893311e-01 -1.758961752057075500e-02 4.616901278495788574e-01
1.280646622180938721e-01 -5.987457931041717529e-03 7.532463967800140381e-02
9.619560837745666504e-02 -4.969709739089012146e-02 -2.794475257396697998e-01
1.335261762142181396e-01 -8.254690095782279968e-03 2.262388914823532104e-01
9.444705396890640259e-02 -3.974979370832443237e-02 -5.526712536811828613e-01
9.071917086839675903e-02 -1.428136974573135376e-02 -4.165306389331817627e-01
7.724948972463607788e-02 -1.601180061697959900e-02 4.790177941322326660e-01
5.457828193902969360e-02 -4.050593823194503784e-02 5.373947620391845703e-01
1.493712067604064941e-01 -3.581093624234199524e-02 2.899072170257568359e-01
6.968042999505996704e-02 -2.057829499244689941e-02 -4.841681718826293945e-01
8.878322690725326538e-02 -4.689218476414680481e-02 -4.178601503372192383e-01
1.779973804950714111e-01 -2.975641749799251556e-02 -4.560231268405914307e-01
1.292195320129394531e-01 -3.515650704503059387e-02 4.092956185340881348e-01
1.024588942527770996e-02 -2.218867093324661255e-02 4.395936429500579834e-01
-5.019545555114746094e-03 -2.894737757742404938e-02 4.829575717449188232e-01
1.491847038269042969e-01 -2.311262860894203186e-02 4.042999446392059326e-01
2.007412910461425781e-01 -2.679260261356830597e-02 -2.244923561811447144e-01
-4.130280017852783203e-02 -3.714872896671295166e-02 1.822376996278762817e-01
7.946456223726272583e-02 -5.236716195940971375e-02 -1.470313370227813721e-01
1.020582020282745361e-01 -5.003393068909645081e-02 6.552439182996749878e-02
-3.385888040065765381e-02 -4.547039419412612915e-02 5.992190912365913391e-03
1.051963418722152710e-01 -4.826728999614715576e-02 -3.173082172870635986e-01
8.737117797136306763e-02 -5.191369727253913879e-02 -1.282431930303573608e-01
8.620212227106094360e-02 -1.767064072191715240e-02 -4.788967370986938477e-01
-3.631107509136199951e-03 -3.216335922479629517e-02 5.159751176834106445e-01
2.489370480179786682e-02 -3.911117836833000183e-02 5.585719347000122070e-01
2.520743757486343384e-02 -4.898852854967117310e-02 3.873744904994964600e-01
1.929093450307846069e-01 -1.236707158386707306e-02 -2.140361517667770386e-01
1.970856264233589172e-02 -2.029474824666976929e-02 -2.390699088573455811e-01
7.176816463470458984e-03 -2.767883613705635071e-02 -3.151187300682067871e-01
1.530602574348449707e-02 -5.295275151729583740e-02 2.041274905204772949e-01
1.474436968564987183e-01 -3.974627703428268433e-02 2.012215554714202881e-01
1.844204962253570557e-01 -3.413426876068115234e-02 -4.533823952078819275e-02
2.085283026099205017e-02 -2.217618189752101898e-02 -2.975050806999206543e-01
6.215423345565795898e-04 -5.133386701345443726e-02 2.623115181922912598e-01
-1.751923561096191406e-02 -5.023501813411712646e-02 2.054607570171356201e-01
-1.288391649723052979e-02 -2.972352690994739532e-02 4.488265216350555420e-01
1.549617350101470947e-01 -8.923271670937538147e-03 1.794607192277908325e-01
9.325575083494186401e-02 -5.088531225919723511e-02 7.874779403209686279e-02
1.005166620016098022e-01 -5.053585767745971680e-02 -1.692278385162353516e-01
7.106179744005203247e-02 -5.322217196226119995e-02 -6.769963540136814117e-03
7.041133195161819458e-02 -2.851494960486888885e-02 -5.644746422767639160e-01
1.101181358098983765e-01 -1.959117129445075989e-02 -5.486633181571960449e-01
7.205899804830551147e-02 -1.495274808257818222e-02 4.521531462669372559e-01
1.104230582714080811e-01 -4.817878454923629761e-02 1.302431672811508179e-01
1.060282066464424133e-01 -4.847325384616851807e-02 -3.014138638973236084e-01
7.520356774330139160e-02 -4.774070531129837036e-02 -4.067132174968719482e-01
1.378799825906753540e-01 -4.206919670104980469e-02 -4.104877412319183350e-01
1.117967665195465088e-01 -6.251007318496704102e-03 9.830608963966369629e-02
-2.089723944664001465e-03 -2.195018902420997620e-02 3.379076421260833740e-01
7.767396420240402222e-02 -1.012244075536727905e-02 -2.139875888824462891e-01
1.629738658666610718e-01 -4.056700319051742554e-02 -5.417217686772346497e-02
9.680081158876419067e-02 -4.348715022206306458e-02 -4.917540848255157471e-01
1.111333891749382019e-01 -8.286023512482643127e-03 -2.557449340820312500e-01
2.979769185185432434e-02 -1.369709149003028870e-02 3.438704460859298706e-02
1.136769056320190430e-01 -4.353987053036689758e-02 -4.604263901710510254e-01
7.639431953430175781e-02 -1.675419881939888000e-02 4.925214648246765137e-01
6.640905886888504028e-02 -5.041706562042236328e-02 -3.198820650577545166e-01
1.029501855373382568e-02 -2.062193118035793304e-02 3.946892619132995605e-01
1.481191217899322510e-01 -1.429085247218608856e-02 -4.709364473819732666e-01
8.289647102355957031e-02 -5.010385811328887939e-02 2.119410634040832520e-01
1.186421215534210205e-01 -4.855556041002273560e-02 -2.456519380211830139e-02
3.880613297224044800e-02 -1.331278868019580841e-02 2.653408348560333252e-01
3.684749081730842590e-02 -4.411114007234573364e-02 -4.401683807373046875e-01
7.110255956649780273e-02 -5.290041118860244751e-02 -1.393088847398757935e-01
1.263241022825241089e-01 -5.690833553671836853e-03 -3.898302093148231506e-02
3.342055901885032654e-02 -4.304822161793708801e-02 5.147145986557006836e-01
4.380780830979347229e-02 -4.042319208383560181e-02 -4.944172501564025879e-01
1.523735970258712769e-01 -4.117307439446449280e-02 -3.417275249958038330e-01
1.269185543060302734e-01 -4.693907499313354492e-02 3.065251186490058899e-02
4.126824438571929932e-03 -2.511774562299251556e-02 -2.468872964382171631e-01
5.261456221342086792e-02 -5.321247875690460205e-02 1.480648815631866455e-01
1.901134997606277466e-01 -3.012867644429206848e-02 -3.374597728252410889e-01
1.601624488830566406e-02 -1.673486456274986267e-02 -2.896941080689430237e-02
5.735076963901519775e-03 -5.305623263120651245e-02 -5.410354956984519958e-02
4.970455169677734375e-02 -1.173597015440464020e-02 -9.346812963485717773e-02
-3.840162605047225952e-02 -3.672116249799728394e-02 1.968091353774070740e-02
9.771932661533355713e-02 -1.449286472052335739e-02 -4.389210939407348633e-01
2.576826885342597961e-02 -4.988951981067657471e-02 3.584947288036346436e-01
6.795143336057662964e-02 -1.297191530466079712e-02 -2.916019558906555176e-01
6.613408774137496948e-02 -5.106317996978759766e-02 2.385553717613220215e-01
1.762822270393371582e-01 -3.659244626760482788e-02 -2.243041992187500000e-02
3.032153472304344177e-02 -5.058377236127853394e-02 3.323754072189331055e-01
-2.725154161453247070e-02 -4.671631753444671631e-02 2.805532217025756836e-01
4.885725677013397217e-03 -4.895041882991790771e-02 3.686496615409851074e-01
1.307430863380432129e-01 -8.404450491070747375e-03 2.388531565666198730e-01
1.673929393291473389e-01 -3.809231519699096680e-02 4.988939315080642700e-02
7.342183589935302734e-02 -5.279349535703659058e-02 5.741141363978385925e-02
-7.324442267417907715e-03 -4.975245147943496704e-02 -1.484228223562240601e-01
8.999857306480407715e-02 -4.131118208169937134e-02 4.549629092216491699e-01
1.732913851737976074e-01 -2.873655222356319427e-02 2.374199926853179932e-01
1.482753455638885498e-01 -3.440659493207931519e-02 -5.330579876899719238e-01
1.084000617265701294e-01 -4.636372998356819153e-02 -3.885401785373687744e-01
8.344690501689910889e-02 -5.234847590327262878e-02 -9.171517938375473022e-02
1.933435648679733276e-01 -1.927039399743080139e-02 -3.822977840900421143e-01
6.763432174921035767e-02 -5.273087695240974426e-02 -1.776816397905349731e-01
4.659597203135490417e-02 -5.196983367204666138e-02 -2.524387240409851074e-01
1.060807108879089355e-01 -8.288102224469184875e-03 -2.407054156064987183e-01
1.221110671758651733e-02 -1.696320809423923492e-02 2.017754614353179932e-01
1.912052184343338013e-01 -2.735871821641921997e-02 8.175037801265716553e-02
9.114451706409454346e-02 -7.171075791120529175e-03 -6.289357692003250122e-02
1.433178782463073730e-02 -5.330401659011840820e-02 -9.146916866302490234e-02
1.341200470924377441e-01 -6.969284266233444214e-03 1.550987809896469116e-01
1.580459773540496826e-01 -1.622232235968112946e-02 3.285556137561798096e-01
1.808344125747680664e-01 -3.552984818816184998e-02 -2.475694864988327026e-01
1.036997884511947632e-02 -1.715852320194244385e-02 1.718218028545379639e-01
2.745617553591728210e-02 -4.314463585615158081e-02 -4.269239008426666260e-01
1.602506339550018311e-01 -9.094068780541419983e-03 1.589282900094985962e-01
1.648936867713928223e-01 -3.979081287980079651e-02 -2.100298181176185608e-02
1.004886925220489502e-01 -4.675408452749252319e-02 -3.986786603927612305e-01
3.737548738718032837e-02 -1.937492191791534424e-02 4.840131402015686035e-01
5.729304254055023193e-02 -9.929552674293518066e-03 1.243446692824363708e-01
7.447946071624755859e-02 -3.957426920533180237e-02 5.199996829032897949e-01
1.152950823307037354e-01 -3.506604582071304321e-02 -5.879443287849426270e-01
4.141199588775634766e-02 -1.457406021654605865e-02 3.541542291641235352e-01
1.193190962076187134e-01 -8.903281763195991516e-03 2.770020961761474609e-01
2.018280327320098877e-01 -2.429126948118209839e-02 -4.404789209365844727e-02
-4.187394678592681885e-02 -3.865049406886100769e-02 1.192820295691490173e-01
1.765247434377670288e-02 -2.805112674832344055e-02 5.544940233230590820e-01
1.110746860504150391e-01 -1.215241476893424988e-02 3.871533572673797607e-01
5.606625974178314209e-02 -3.190296888351440430e-02 5.980075001716613770e-01
-2.719357609748840332e-02 -4.164777696132659912e-02 -1.422909647226333618e-01
1.546240895986557007e-01 -1.216012611985206604e-02 2.779849469661712646e-01
1.609902381896972656e-01 -4.125753417611122131e-02 -9.489888697862625122e-02
-5.692809820175170898e-03 -5.081714689731597900e-02 -1.158246099948883057e-01
1.027915999293327332e-01 -4.738458991050720215e-02 2.299454957246780396e-01
1.807773858308792114e-01 -3.589372336864471436e-02 -2.073461562395095825e-01
1.087518632411956787e-01 -3.251901641488075256e-02 5.107989311218261719e-01
8.036545664072036743e-02 -1.312285475432872772e-02 -3.504709899425506592e-01
1.670049130916595459e-01 -3.897643089294433594e-02 -2.811380922794342041e-01
1.849495619535446167e-02 -1.674765348434448242e-02 2.882119119167327881e-01
3.435763344168663025e-02 -1.312831230461597443e-02 1.853733062744140625e-01
4.223310947418212891e-02 -5.304925143718719482e-02 -1.871627718210220337e-01
1.402029395103454590e-01 -8.855596184730529785e-03 -3.174124658107757568e-01
6.407761573791503906e-02 -2.810524962842464447e-02 -5.484456419944763184e-01
1.938424110412597656e-01 -2.271962165832519531e-02 1.027488633990287781e-01
2.498285844922065735e-02 -4.696248471736907959e-02 -3.635693490505218506e-01
1.196615695953369141e-01 -4.499159753322601318e-02 2.208444327116012573e-01
1.812043786048889160e-01 -2.343276888132095337e-02 2.193319797515869141e-01
1.760120689868927002e-01 -8.462315425276756287e-03 -3.600009903311729431e-02
3.435484319925308228e-02 -1.855513826012611389e-02 4.555009901523590088e-01
8.497448265552520752e-02 -4.435169696807861328e-02 -4.833621382713317871e-01
1.464748382568359375e-01 -9.196259081363677979e-03 -3.281393349170684814e-01
4.037603735923767090e-03 -4.997483640909194946e-02 3.322131633758544922e-01
1.040565222501754761e-01 -4.753359407186508179e-02 -3.573582470417022705e-01
1.383209824562072754e-01 -4.431096464395523071e-02 8.304681628942489624e-02
-2.002950012683868408e-02 -5.044847726821899414e-02 5.317370221018791199e-02
1.762807518243789673e-01 -1.811738312244415283e-02 2.461507320404052734e-01
9.361442923545837402e-02 -6.767034530639648438e-03 -8.335644379258155823e-04
3.440866991877555847e-02 -1.321782357990741730e-02 1.988687813282012939e-01
-4.291385412216186523e-04 -2.185342088341712952e-02 3.511215746402740479e-01
2.682167291641235352e-02 -1.569544896483421326e-02 3.085240125656127930e-01
9.249526262283325195e-02 -7.306402549147605896e-03 1.487172096967697144e-01
6.533244252204895020e-02 -4.592321440577507019e-02 -4.511026442050933838e-01
7.283105701208114624e-02 -5.313806235790252686e-02 -5.421225726604461670e-02
1.132459491491317749e-01 -4.489257186651229858e-02 -4.229346215724945068e-01
3.504163771867752075e-02 -3.872615471482276917e-02 -4.824239611625671387e-01
3.790937364101409912e-02 -1.484117470681667328e-02 -1.734272390604019165e-01
-1.084354519844055176e-02 -2.574047446250915527e-02 -1.226810440421104431e-01
1.895660012960433960e-01 -3.143097087740898132e-02 -3.012893795967102051e-01
6.681402772665023804e-02 -1.906191185116767883e-02 5.253807902336120605e-01
1.249613016843795776e-01 -1.033496111631393433e-02 -3.670243918895721436e-01
8.527288585901260376e-02 -7.357982918620109558e-03 8.543577790260314941e-02
3.680561110377311707e-02 -5.244287848472595215e-02 2.404615432024002075e-01
1.383618712425231934e-01 -7.554434239864349365e-03 -2.527630329132080078e-01
1.593191027641296387e-01 -4.162544384598731995e-02 -1.787927597761154175e-01
7.703907787799835205e-02 -4.897162318229675293e-02 2.914878427982330322e-01
9.671950340270996094e-02 -7.295640185475349426e-03 1.676548719406127930e-01
-3.953104466199874878e-02 -4.255532473325729370e-02 5.663287267088890076e-02
4.315679892897605896e-02 -1.490014046430587769e-02 -2.181917279958724976e-01
1.888642311096191406e-01 -2.599261514842510223e-02 1.299631595611572266e-01
1.294115483760833740e-01 -6.222419440746307373e-03 -1.458867937326431274e-01
-4.083156585693359375e-03 -2.528167888522148132e-02 -1.806145459413528442e-01
1.389782428741455078e-01 -4.344742000102996826e-02 -3.477447926998138428e-01
6.152968853712081909e-02 -5.373819172382354736e-02 -4.837897047400474548e-02
2.334464341402053833e-02 -5.413504689931869507e-02 -3.701199591159820557e-02
4.977250844240188599e-02 -1.416613720357418060e-02 3.764507770538330078e-01
1.317202448844909668e-01 -1.969553343951702118e-02 -5.589671730995178223e-01
-1.280691474676132202e-02 -3.380374610424041748e-02 -2.493866831064224243e-01
5.015248805284500122e-02 -4.654210805892944336e-02 4.344854652881622314e-01
3.764949738979339600e-02 -5.018851906061172485e-02 -3.126311898231506348e-01
-2.784834802150726318e-02 -2.784869819879531860e-02 1.528709232807159424e-01
3.867846727371215820e-02 -1.237190701067447662e-02 2.025428041815757751e-02
1.387381702661514282e-01 -6.924202665686607361e-03 1.392356753349304199e-01
1.425536870956420898e-01 -2.490422129631042480e-02 4.307889938354492188e-01
1.925822198390960693e-01 -1.529863383620977402e-02 7.489887624979019165e-02
1.971661299467086792e-02 -1.978871226310729980e-02 4.255835711956024170e-01
8.337356895208358765e-02 -4.574353992938995361e-02 -4.539164304733276367e-01
1.387074589729309082e-01 -1.690230146050453186e-02 -5.216134190559387207e-01
1.167895644903182983e-02 -4.843691736459732056e-02 -2.868323624134063721e-01
1.791814118623733521e-01 -8.863579481840133667e-03 -1.360256373882293701e-01
7.474296540021896362e-02 -9.078066796064376831e-03 2.175361365079879761e-01
1.591109782457351685e-01 -2.963737025856971741e-02 3.233304619789123535e-01
1.037229225039482117e-01 -6.233526393771171570e-03 5.780799314379692078e-03
1.397464424371719360e-01 -1.129039004445075989e-02 3.106752932071685791e-01
1.619375646114349365e-01 -4.071506112813949585e-02 -2.324332594871520996e-01
5.565093830227851868e-02 -4.939949512481689453e-02 3.409062325954437256e-01
1.213524341583251953e-01 -4.052083194255828857e-02 3.480553627014160156e-01
1.948770582675933838e-01 -1.476295478641986847e-02 -2.908056974411010742e-01
-3.298899531364440918e-02 -4.302847757935523987e-02 3.152005672454833984e-01
1.767122000455856323e-02 -5.345255881547927856e-02 1.666513085365295410e-01
9.456862509250640869e-02 -1.261797361075878143e-02 4.070131480693817139e-01
1.198540627956390381e-02 -1.958612538874149323e-02 3.696816861629486084e-01
-1.707893610000610352e-02 -3.141410648822784424e-02 -1.862450540065765381e-01
1.748754382133483887e-01 -3.744716569781303406e-02 -6.157715618610382080e-02
1.148651987314224243e-01 -4.920530691742897034e-02 -8.265749365091323853e-02
9.565389901399612427e-02 -7.396001368761062622e-03 -1.286704093217849731e-01
1.766457855701446533e-01 -1.034186594188213348e-02 -2.829405963420867920e-01
6.991405785083770752e-02 -5.322262272238731384e-02 -9.027306735515594482e-02
1.523651927709579468e-01 -6.364790722727775574e-03 8.255333639681339264e-03
-2.892920374870300293e-02 -2.858416922390460968e-02 8.975303173065185547e-02
7.202662527561187744e-02 -3.977619856595993042e-02 -5.445483326911926270e-01
6.940030306577682495e-02 -4.706340655684471130e-02 -4.264078736305236816e-01
1.195090636610984802e-01 -1.332260854542255402e-02 4.017050862312316895e-01
-6.703630089759826660e-03 -5.226407572627067566e-02 6.394435651600360870e-03
7.032576948404312134e-02 -8.695669472217559814e-03 -2.302420511841773987e-02
1.036518886685371399e-01 -7.233476266264915466e-03 -1.591366529464721680e-01
1.697413623332977295e-01 -9.314535185694694519e-03 -2.722118496894836426e-01
1.339091211557388306e-01 -4.323083907365798950e-02 -3.907552063465118408e-01
3.184900805354118347e-02 -1.424090750515460968e-02 -7.049689441919326782e-02
1.071968823671340942e-01 -4.995911568403244019e-02 -1.505718380212783813e-01
1.231941729784011841e-01 -6.049366667866706848e-03 8.680711686611175537e-02
1.753831058740615845e-01 -9.323734790086746216e-03 5.362658947706222534e-02
4.336347803473472595e-02 -1.184345036745071411e-02 1.770489215850830078e-01
-1.397539675235748291e-02 -2.322084642946720123e-02 7.565610110759735107e-02
9.450145065784454346e-03 -1.835089549422264099e-02 -4.479214549064636230e-02
1.648252010345458984e-01 -4.038710892200469971e-02 -1.063176691532135010e-01
6.389252841472625732e-03 -2.218806184828281403e-02 4.166100025177001953e-01
1.405322402715682983e-01 -4.392282664775848389e-02 -3.081141114234924316e-01
1.983891725540161133e-01 -2.576870843768119812e-02 -3.132757246494293213e-01
8.677934110164642334e-02 -5.210746079683303833e-02 -3.030846267938613892e-02
1.235327720642089844e-01 -1.100104488432407379e-02 3.406068384647369385e-01
1.055578142404556274e-01 -4.976272955536842346e-02 -2.045753896236419678e-01
4.442403092980384827e-02 -3.789851814508438110e-02 5.716996192932128906e-01
1.036303639411926270e-01 -5.047156289219856262e-02 -3.800712898373603821e-02
-2.332999557256698608e-02 -2.667931839823722839e-02 2.435181438922882080e-01
5.093689262866973877e-02 -5.344499647617340088e-02 1.326209753751754761e-01
9.840202331542968750e-02 -4.447495564818382263e-02 -4.679914712905883789e-01
1.971316337585449219e-02 -2.441716939210891724e-02 -3.369826972484588623e-01
-2.048005908727645874e-02 -4.340168088674545288e-02 4.036545753479003906e-01
4.359687864780426025e-02 -2.075352892279624939e-02 5.236796736717224121e-01
3.565059229731559753e-02 -5.110294744372367859e-02 -2.767036557197570801e-01
-2.253635227680206299e-02 -2.815377712249755859e-02 3.291433155536651611e-01
2.043536603450775146e-01 -2.354444935917854309e-02 -2.007659375667572021e-01
1.523287892341613770e-01 -1.355742290616035461e-02 3.148981630802154541e-01
8.057022094726562500e-02 -4.930713027715682983e-02 -3.474568426609039307e-01
4.228161647915840149e-02 -3.499649465084075928e-02 5.904855728149414062e-01
1.983475387096405029e-01 -2.827806584537029266e-02 -8.917866647243499756e-02
2.694449201226234436e-02 -4.550847411155700684e-02 4.722129702568054199e-01
7.031808793544769287e-02 -4.851608723402023315e-02 3.323365449905395508e-01
-2.616512775421142578e-02 -3.133157640695571899e-02 3.651201128959655762e-01
8.738080412149429321e-02 -5.002215504646301270e-02 1.906210780143737793e-01
1.029850542545318604e-01 -4.603485763072967529e-02 -4.160964190959930420e-01
1.717711687088012695e-01 -1.445505395531654358e-02 2.335658967494964600e-01
1.303916871547698975e-01 -1.472455076873302460e-02 -4.846759140491485596e-01
1.246897280216217041e-01 -3.213192522525787354e-02 4.619047641754150391e-01
1.124422177672386169e-01 -1.391425356268882751e-02 -4.521443843841552734e-01
7.271392643451690674e-02 -1.038852706551551819e-02 2.941969633102416992e-01
-3.263381868600845337e-02 -4.687224328517913818e-02 4.833818599581718445e-02
1.345357000827789307e-01 -4.198367148637771606e-02 2.267572581768035889e-01
1.155490130186080933e-01 -6.442032754421234131e-03 1.290914863348007202e-01
8.338496834039688110e-02 -5.209335684776306152e-02 4.463612660765647888e-02
5.305317789316177368e-02 -1.621105894446372986e-02 -3.250581920146942139e-01
1.092368811368942261e-01 -4.690231382846832275e-02 2.099886834621429443e-01
1.248362064361572266e-01 -4.782312363386154175e-02 -1.355616748332977295e-01
1.930637955665588379e-01 -3.143959119915962219e-02 -1.368761062622070312e-01
4.454053938388824463e-02 -2.319966815412044525e-02 5.578189492225646973e-01
1.292247474193572998e-01 -3.916376084089279175e-02 3.379192650318145752e-01
1.737805008888244629e-01 -3.802350908517837524e-02 -1.941230446100234985e-01
6.060808897018432617e-03 -4.811765998601913452e-02 3.949542045593261719e-01
-9.627141058444976807e-03 -2.209679409861564636e-02 5.429661646485328674e-02
4.580879211425781250e-02 -1.310076378285884857e-02 -1.492232978343963623e-01
4.556827992200851440e-02 -5.425244942307472229e-02 2.518553286790847778e-02
1.396890878677368164e-01 -9.928381070494651794e-03 2.725819349288940430e-01
-1.710478216409683228e-02 -3.329233452677726746e-02 -2.099583297967910767e-01
1.417319774627685547e-01 -3.691573441028594971e-02 -5.174992680549621582e-01
4.924402013421058655e-02 -5.419772863388061523e-02 -9.681629948318004608e-03
1.054875627160072327e-01 -2.500582672655582428e-02 -5.942490696907043457e-01
-3.132645785808563232e-02 -2.949448488652706146e-02 1.834060549736022949e-01
1.573647260665893555e-01 -6.497358903288841248e-03 -6.288982182741165161e-02
1.745315641164779663e-02 -5.392625182867050171e-02 1.054957807064056396e-01
6.735876202583312988e-03 -2.571802586317062378e-02 -2.785983085632324219e-01
1.228203177452087402e-01 -4.598332941532135010e-02 -3.363910019397735596e-01
5.521774291992187500e-02 -4.669447615742683411e-02 4.227322638034820557e-01
9.555590897798538208e-02 -6.662651896476745605e-03 5.400003865361213684e-02
-3.047809749841690063e-02 -4.656981676816940308e-02 2.469500303268432617e-01
-1.949083805084228516e-02 -4.921388626098632812e-02 2.486464977264404297e-01
4.653900861740112305e-03 -3.398750349879264832e-02 -3.614186942577362061e-01
-1.262220740318298340e-02 -5.019112303853034973e-02 -8.563631772994995117e-02
1.903144717216491699e-01 -2.340700849890708923e-02 -4.185857176780700684e-01
1.568150520324707031e-01 -7.969023659825325012e-03 -2.495505213737487793e-01
1.484802365303039551e-02 -1.717926561832427979e-02 2.722866535186767578e-01
1.521385312080383301e-01 -4.143212735652923584e-02 8.141645044088363647e-02
1.210113167762756348e-01 -6.148610264062881470e-03 -1.195762753486633301e-01
1.602276116609573364e-01 -6.713597103953361511e-03 -4.357168450951576233e-02
1.146823763847351074e-01 -9.006096050143241882e-03 -2.994478344917297363e-01
2.303363382816314697e-02 -1.471319701522588730e-02 7.174601405858993530e-02
7.265500724315643311e-02 -8.354263380169868469e-03 6.155008450150489807e-03
4.953096061944961548e-02 -2.698741480708122253e-02 -5.000333786010742188e-01
3.935290873050689697e-02 -1.871572062373161316e-02 -3.222014307975769043e-01
6.538192927837371826e-02 -2.485147863626480103e-02 -5.261963605880737305e-01
1.262761652469635010e-03 -4.734236001968383789e-02 4.052601158618927002e-01
1.709249913692474365e-01 -1.465250831097364426e-02 -4.336342215538024902e-01
2.565712854266166687e-02 -1.953141763806343079e-02 4.466630816459655762e-01
9.458357095718383789e-02 -1.978307776153087616e-02 5.270712375640869141e-01
1.468723118305206299e-01 -7.930474355816841125e-03 -2.681493163108825684e-01
9.129770845174789429e-02 -2.260721661150455475e-02 -5.585072040557861328e-01
3.779284656047821045e-03 -5.324948579072952271e-02 -5.391320213675498962e-03
1.286426633596420288e-01 -8.987247943878173828e-03 -3.192790746688842773e-01
-2.635288238525390625e-02 -4.647197574377059937e-02 -7.719767093658447266e-02
1.640056520700454712e-01 -3.292070329189300537e-02 -4.908317029476165771e-01
1.271645277738571167e-01 -4.747891426086425781e-02 -6.514523178339004517e-02
-1.403495669364929199e-03 -2.039853855967521667e-02 2.572171092033386230e-01
1.676009595394134521e-01 -7.892843335866928101e-03 3.279951587319374084e-02
-3.088511526584625244e-02 -4.779763519763946533e-02 1.490288376808166504e-01
1.039764210581779480e-01 -1.010369509458541870e-02 -3.198148012161254883e-01
1.502029299736022949e-01 -6.119392812252044678e-03 -3.299467265605926514e-02
-1.274476200342178345e-02 -3.123009577393531799e-02 -2.218848764896392822e-01
6.834623962640762329e-02 -1.430496759712696075e-02 -3.393154442310333252e-01
1.106552481651306152e-01 -6.631961092352867126e-03 1.416810899972915649e-01
1.113540828227996826e-01 -1.289138197898864746e-02 -4.252009689807891846e-01
1.451595574617385864e-01 -4.418166726827621460e-02 -2.200463563203811646e-01
1.143056005239486694e-01 -3.391082584857940674e-02 4.815262258052825928e-01
1.265061646699905396e-01 -4.569181427359580994e-02 1.301769167184829712e-01
-9.583294391632080078e-03 -4.628069698810577393e-02 3.985262811183929443e-01
-3.064379096031188965e-03 -4.997264966368675232e-02 3.113666176795959473e-01
3.476841747760772705e-02 -1.727277226746082306e-02 -2.498945891857147217e-01
1.257830113172531128e-02 -1.802781596779823303e-02 -7.090966403484344482e-02
-3.112412989139556885e-02 -4.719588533043861389e-02 2.019581198692321777e-01
1.364799737930297852e-01 -4.074934124946594238e-02 2.528395950794219971e-01
-4.137018322944641113e-02 -3.817486763000488281e-02 9.296057373285293579e-02
6.616330146789550781e-02 -9.189248085021972656e-03 1.530095636844635010e-01
8.643876016139984131e-02 -7.890867069363594055e-03 1.776806712150573730e-01
4.361799359321594238e-02 -5.023268982768058777e-02 3.329477608203887939e-01
-1.473146677017211914e-02 -2.535028010606765747e-02 -5.595992878079414368e-02
1.093210056424140930e-01 -8.835332468152046204e-03 -2.787706553936004639e-01
-2.781873196363449097e-02 -2.898143045604228973e-02 2.413232252001762390e-02
1.940711438655853271e-01 -1.209760643541812897e-02 -1.448931097984313965e-01
3.466878831386566162e-02 -2.015663683414459229e-02 -3.324580788612365723e-01
8.229374140501022339e-02 -1.630234718322753906e-02 -4.410430192947387695e-01
1.281608343124389648e-01 -1.075100339949131012e-02 3.250916004180908203e-01
9.801904112100601196e-02 -5.019763857126235962e-02 -2.317105084657669067e-01
7.883480936288833618e-02 -5.106685683131217957e-02 -2.649136185646057129e-01
8.652780950069427490e-02 -9.741516783833503723e-03 -2.399832904338836670e-01
3.566635400056838989e-02 -1.427836529910564423e-02 -1.200527697801589966e-01
1.338512450456619263e-01 -2.500023692846298218e-02 4.630074799060821533e-01
5.269274115562438965e-02 -1.044806465506553650e-02 2.471554279327392578e-02
2.636401355266571045e-02 -2.335314266383647919e-02 -3.547326028347015381e-01
1.145787239074707031e-01 -6.639955565333366394e-03 -1.520368754863739014e-01
1.493139714002609253e-01 -6.960891187191009521e-03 9.819362312555313110e-02
3.825605288147926331e-02 -4.608274251222610474e-02 -4.128368496894836426e-01
5.230753123760223389e-02 -5.129840597510337830e-02 -2.861023545265197754e-01
1.747013032436370850e-01 -3.717020526528358459e-02 -2.643707096576690674e-01
-8.207365870475769043e-03 -4.237035289406776428e-02 4.683631360530853271e-01
1.157595217227935791e-01 -1.423437520861625671e-02 -4.637327194213867188e-01
1.617214828729629517e-01 -4.096470028162002563e-02 -2.049429714679718018e-01
6.374540925025939941e-02 -5.290462076663970947e-02 1.217017397284507751e-01
8.923761546611785889e-03 -1.734984479844570160e-02 1.104134023189544678e-01
9.115511924028396606e-02 -6.938405334949493408e-03 6.755687296390533447e-02
1.275679618120193481e-01 -3.247705474495887756e-02 -5.932555794715881348e-01
1.551517993211746216e-01 -4.249314218759536743e-02 -7.912863790988922119e-02
1.144338548183441162e-01 -4.691822826862335205e-02 1.704885959625244141e-01
1.624215245246887207e-01 -7.020715624094009399e-03 -8.439665660262107849e-03
1.728443056344985962e-02 -1.785895228385925293e-02 3.382509350776672363e-01
1.949364840984344482e-01 -1.234223693609237671e-02 -1.307012587785720825e-01
5.310982465744018555e-02 -1.420765742659568787e-02 -2.567861974239349365e-01
1.662324368953704834e-01 -8.328214287757873535e-03 -2.325058579444885254e-01
-3.854586929082870483e-02 -3.562704473733901978e-02 2.536458373069763184e-01
-2.795407921075820923e-02 -4.229869320988655090e-02 -1.296584010124206543e-01
-2.654884755611419678e-02 -2.943999506533145905e-02 3.131884038448333740e-01
1.131647229194641113e-01 -1.505905482918024063e-02 -4.781077802181243896e-01
3.054117783904075623e-02 -1.342506334185600281e-02 9.127099066972732544e-02
5.333445966243743896e-02 -4.220848530530929565e-02 5.147539377212524414e-01
1.418650746345520020e-01 -1.370442844927310944e-02 3.548030555248260498e-01
2.140184864401817322e-02 -5.338227376341819763e-02 1.794881373643875122e-01
1.870552450418472290e-01 -3.380937129259109497e-02 -1.163309365510940552e-01
9.377926588058471680e-02 -9.963389486074447632e-03 3.203680217266082764e-01
-1.189140975475311279e-02 -2.673066966235637665e-02 4.014619588851928711e-01
6.327061355113983154e-02 -4.237005114555358887e-02 4.982632696628570557e-01
4.017388075590133667e-02 -5.417384579777717590e-02 -7.094179838895797729e-02
-8.082479238510131836e-03 -4.718217253684997559e-02 3.824448287487030029e-01
6.498502194881439209e-02 -2.025558985769748688e-02 5.407883524894714355e-01
-2.282708883285522461e-03 -3.335579112172126770e-02 -3.178609609603881836e-01
-3.044209629297256470e-02 -4.768488183617591858e-02 1.800084859132766724e-01
-2.921862900257110596e-02 -4.825566709041595459e-02 6.545960903167724609e-02
5.654796212911605835e-02 -4.959425330162048340e-02 -3.519404232501983643e-01
5.245134234428405762e-04 -1.919768750667572021e-02 1.200212314724922180e-01
1.342175304889678955e-01 -5.847683176398277283e-03 3.877112269401550293e-02
9.934045374393463135e-03 -1.737522706389427185e-02 4.314107075333595276e-02
7.173893600702285767e-02 -1.320762187242507935e-02 4.045249223709106445e-01
-2.383833378553390503e-02 -2.674058638513088226e-02 6.090748310089111328e-02
1.980366408824920654e-01 -2.804609015583992004e-02 -2.565077543258666992e-01
1.669297218322753906e-01 -3.660491108894348145e-02 1.210328862071037292e-01
5.297409743070602417e-02 -1.388178393244743347e-02 -2.426808774471282959e-01
1.630108654499053955e-01 -3.886297717690467834e-02 7.331623136997222900e-02
1.414882391691207886e-01 -1.517115719616413116e-02 3.789243698120117188e-01
1.482834815979003906e-01 -1.406203396618366241e-02 3.388912081718444824e-01
1.131249219179153442e-02 -4.623415321111679077e-02 -3.297010362148284912e-01
5.201454833149909973e-02 -2.183898352086544037e-02 -4.452092647552490234e-01
1.424760669469833374e-01 -3.859213739633560181e-02 2.719020843505859375e-01
1.662078052759170532e-01 -3.863980993628501892e-02 3.771045431494712830e-02
4.715374857187271118e-02 -1.871897280216217041e-02 -3.628255724906921387e-01
1.205805912613868713e-01 -1.128649339079856873e-02 3.530631065368652344e-01
6.775965541601181030e-02 -5.253352969884872437e-02 1.323645561933517456e-01
1.260949671268463135e-01 -1.996073685586452484e-02 4.715146124362945557e-01
1.153300404548645020e-01 -4.762236773967742920e-02 -2.941035628318786621e-01
6.142961606383323669e-02 -5.210233479738235474e-02 1.966224461793899536e-01
1.452006697654724121e-01 -4.335630685091018677e-02 -2.931630015373229980e-01
1.361017078161239624e-01 -1.125718094408512115e-02 -4.024119675159454346e-01
1.257937997579574585e-01 -4.695016890764236450e-02 4.740838706493377686e-02
6.299760192632675171e-02 -5.248284339904785156e-02 -2.122641950845718384e-01
9.239415824413299561e-02 -1.888348162174224854e-02 -5.129314661026000977e-01
8.864142000675201416e-03 -5.365556478500366211e-02 8.985845744609832764e-02
3.054310008883476257e-02 -3.570874780416488647e-02 5.836647748947143555e-01
6.208232790231704712e-02 -9.920462965965270996e-03 1.975418776273727417e-01
1.766633838415145874e-01 -8.475134149193763733e-03 -5.360240116715431213e-02
-3.225447982549667358e-02 -3.022356703877449036e-02 2.154634147882461548e-01
1.378201395273208618e-01 -4.284610599279403687e-02 1.663088947534561157e-01
4.109342023730278015e-02 -5.435482412576675415e-02 6.726190447807312012e-03
1.241856217384338379e-01 -6.318116560578346252e-03 1.181466653943061829e-01
5.422168970108032227e-02 -5.393896251916885376e-02 4.081330820918083191e-02
1.787674129009246826e-01 -3.266325220465660095e-02 1.112918928265571594e-01
1.952345669269561768e-01 -3.046234510838985443e-02 -1.558502465486526489e-01
6.435853242874145508e-02 -1.467666029930114746e-02 4.338652789592742920e-01
8.510584384202957153e-02 -1.205843873322010040e-02 -3.322437107563018799e-01
-3.392378240823745728e-02 -4.680570214986801147e-02 1.133655235171318054e-01
1.155818551778793335e-01 -4.709024727344512939e-02 -3.234282732009887695e-01
1.367332339286804199e-01 -3.893002122640609741e-02 3.003257811069488525e-01
2.312825247645378113e-02 -5.361959338188171387e-02 -1.041538044810295105e-01
-2.121800184249877930e-02 -2.672607079148292542e-02 -6.047122646123170853e-03
1.992965936660766602e-01 -2.128089219331741333e-02 -3.324945867061614990e-01
5.148723721504211426e-03 -4.290097206830978394e-02 4.946907162666320801e-01
4.044060409069061279e-02 -2.705774269998073578e-02 -4.693416059017181396e-01
1.533253192901611328e-01 -1.227879524230957031e-02 -4.198614656925201416e-01
7.768564671277999878e-02 -2.210496366024017334e-02 5.601180791854858398e-01
8.446148782968521118e-02 -1.120042428374290466e-02 3.570984303951263428e-01
4.526147991418838501e-02 -1.800158433616161346e-02 4.748712778091430664e-01
2.809504792094230652e-02 -4.481093585491180420e-02 4.855218827724456787e-01
5.270653963088989258e-02 -4.811420291662216187e-02 -3.919911980628967285e-01
1.272381097078323364e-01 -4.723500832915306091e-02 -1.914714723825454712e-01
2.531193196773529053e-03 -1.893510110676288605e-02 5.811859667301177979e-02
6.539080291986465454e-02 -5.338355898857116699e-02 -1.044126003980636597e-01
4.376290366053581238e-02 -5.382090061902999878e-02 -1.200305819511413574e-01
1.292085796594619751e-01 -3.233295679092407227e-02 4.426912963390350342e-01
1.244986802339553833e-02 -5.299204587936401367e-02 -1.069051250815391541e-01
1.624196767807006836e-03 -5.209638923406600952e-02 2.203522920608520508e-01
1.469562351703643799e-01 -7.488545030355453491e-03 -2.420108467340469360e-01
3.218900039792060852e-02 -5.093929916620254517e-02 3.173044621944427490e-01
4.075437784194946289e-03 -5.240993946790695190e-02 2.089021950960159302e-01
3.689895570278167725e-02 -5.436160415410995483e-02 -2.236943691968917847e-02
9.538306295871734619e-02 -4.564206302165985107e-02 3.324030041694641113e-01
-2.847471088171005249e-02 -3.871985897421836853e-02 3.949101269245147705e-01
-3.399765491485595703e-02 -4.660139232873916626e-02 7.677427679300308228e-02
1.324959844350814819e-01 -1.563609763979911804e-02 4.116910696029663086e-01
1.296385228633880615e-01 -4.697424545884132385e-02 -3.334055095911026001e-02
1.049510762095451355e-01 -4.649189114570617676e-02 2.546736896038055420e-01
2.028540372848510742e-01 -2.434400096535682678e-02 -2.426348030567169189e-01
5.156458541750907898e-02 -4.788293689489364624e-02 3.971072435379028320e-01
4.822067916393280029e-03 -5.320121347904205322e-02 -2.712617442011833191e-02
6.636807322502136230e-02 -1.088746637105941772e-02 -1.851883679628372192e-01
1.950068399310112000e-02 -2.182629704475402832e-02 4.749377965927124023e-01
1.705406606197357178e-01 -2.879735641181468964e-02 -5.058573484420776367e-01
1.105022504925727844e-01 -1.629551872611045837e-02 4.660185575485229492e-01
-2.938916534185409546e-02 -4.814982414245605469e-02 1.633384227752685547e-01
-7.976673543453216553e-03 -2.177917025983333588e-02 3.735985979437828064e-02
3.696841597557067871e-01 8.546808362007141113e-02 -5.194929242134094238e-02
3.405407071113586426e-01 -4.608692228794097900e-02 -8.653116226196289062e-02
2.994982898235321045e-01 9.521390311419963837e-04 1.071190610527992249e-01
4.140246212482452393e-01 -2.588556893169879913e-02 1.004338338971138000e-01
3.976706862449645996e-01 7.988528907299041748e-02 -5.827928707003593445e-02
3.301613330841064453e-01 8.404361456632614136e-02 2.873280271887779236e-02
3.550727069377899170e-01 -1.590428128838539124e-02 1.078156307339668274e-01
2.553280293941497803e-01 2.163735590875148773e-02 -9.673807024955749512e-02
3.235808908939361572e-01 6.882784515619277954e-02 5.713033676147460938e-02
3.980688750743865967e-01 5.190104246139526367e-02 6.668300926685333252e-02
2.196202129125595093e-01 6.885538995265960693e-02 -6.498608738183975220e-02
1.008808612823486328e-01 3.997115790843963623e-02 3.082192316651344299e-02
2.250717282295227051e-01 -9.216666966676712036e-02 4.727768525481224060e-02
4.585273861885070801e-01 -8.415909856557846069e-02 -3.450343012809753418e-02
3.959378600120544434e-01 -3.911763429641723633e-02 -9.031604975461959839e-02
5.071463584899902344e-01 -1.843436807394027710e-02 -7.932922244071960449e-02
1.297629177570343018e-01 -1.895002834498882294e-02 -4.958359524607658386e-02
3.761180937290191650e-01 -9.027580171823501587e-02 7.325694710016250610e-02
3.664948642253875732e-01 4.591193795204162598e-02 7.802980393171310425e-02
1.568170785903930664e-01 6.225946545600891113e-02 -4.379669949412345886e-02
4.300473034381866455e-01 -6.409727036952972412e-02 -6.823330372571945190e-02
3.571867346763610840e-01 -7.574410736560821533e-02 -6.025375425815582275e-02
4.582945108413696289e-01 6.010359525680541992e-02 -6.994955241680145264e-02
1.646550744771957397e-01 3.209309279918670654e-02 -7.044675946235656738e-02
2.693002223968505859e-01 8.019868284463882446e-03 -9.906062483787536621e-02
5.582711696624755859e-01 -4.692758899182081223e-03 3.909666091203689575e-02
2.570237517356872559e-01 7.731535285711288452e-02 4.226727038621902466e-02
4.703169167041778564e-01 6.930270045995712280e-02 -4.521634802222251892e-02
5.159766674041748047e-01 -7.493555545806884766e-02 3.637905418872833252e-02
3.139581680297851562e-01 9.099041670560836792e-02 -4.030962660908699036e-02
4.338276684284210205e-01 -2.210822515189647675e-02 -9.450656920671463013e-02
3.650818169116973877e-01 9.082352370023727417e-02 -2.905248850584030151e-02
4.180164337158203125e-01 -1.021297052502632141e-01 2.670320868492126465e-02
1.797577291727066040e-01 6.502769142389297485e-02 4.428695514798164368e-02
4.144470095634460449e-01 -1.676926389336585999e-02 -9.838616102933883667e-02
4.759337306022644043e-01 4.679768532514572144e-02 4.675738885998725891e-02
3.234893083572387695e-01 3.632643818855285645e-02 8.963263034820556641e-02
3.596494197845458984e-01 -9.036020189523696899e-02 7.503339648246765137e-02
3.462267518043518066e-01 -6.040656566619873047e-02 -7.582242786884307861e-02
3.964691460132598877e-01 6.488107144832611084e-02 -8.097705245018005371e-02
2.371931970119476318e-01 6.053774803876876831e-02 6.499183177947998047e-02
5.613853335380554199e-01 -1.409698277711868286e-03 -5.370266735553741455e-02
4.792979955673217773e-01 -8.852519094944000244e-02 -1.191525906324386597e-02
3.509452641010284424e-01 2.721815742552280426e-02 9.344144910573959351e-02
