2.251992821693420410e-01 -1.303986310958862305e-01 -5.261677876114845276e-02
1.949095875024795532e-01 -1.424902081489562988e-01 1.959192156791687012e-01
2.065897285938262939e-01 -1.292368471622467041e-01 -1.306221038103103638e-01
3.640512824058532715e-01 -1.430117636919021606e-01 1.112716570496559143e-01
4.309976100921630859e-02 -1.353343427181243896e-01 8.692014962434768677e-02
-1.171649992465972900e-02 -1.332356333732604980e-01 -1.800189912319183350e-01
3.282996118068695068e-01 -1.432473659515380859e-01 1.439671218395233154e-01
2.287620604038238525e-01 -1.413858979940414429e-01 -4.127235710620880127e-01
4.639235436916351318e-01 -1.781440228223800659e-01 1.302457451820373535e-01
5.172857046127319336e-01 -1.640148460865020752e-01 -3.168444335460662842e-01
8.806865662336349487e-02 -1.297474652528762817e-01 -1.839772015810012817e-01
3.872289061546325684e-01 -1.364755332469940186e-01 -2.371591627597808838e-01
2.441594004631042480e-01 -1.316282600164413452e-01 -1.808297261595726013e-02
4.081055521965026855e-01 -1.793617159128189087e-01 -3.088403940200805664e-01
3.209575414657592773e-01 -1.833718866109848022e-01 1.986994147300720215e-01
9.525729715824127197e-02 -1.382352411746978760e-01 1.496169567108154297e-01
4.320704638957977295e-01 -1.790433228015899658e-01 -2.971524298191070557e-01
1.518269628286361694e-01 -1.340320110321044922e-01 -3.293905258178710938e-01
3.804857730865478516e-01 -1.804166138172149658e-01 1.923454105854034424e-01
3.016337454319000244e-01 -1.872225552797317505e-01 -2.194589376449584961e-01
-7.755401730537414551e-02 -1.377774626016616821e-01 -1.585391908884048462e-01
-5.505788326263427734e-02 -1.390681564807891846e-01 -2.372373938560485840e-01
3.789748251438140869e-02 -1.326754540205001831e-01 -2.411603927612304688e-01
3.394921123981475830e-01 -1.770071983337402344e-01 -3.591789007186889648e-01
3.361133635044097900e-01 -1.638718545436859131e-01 -4.372904002666473389e-01
2.802399992942810059e-01 -1.884411722421646118e-01 -1.911350786685943604e-01
3.499200344085693359e-01 -1.865936219692230225e-01 -2.211374342441558838e-01
2.758306264877319336e-01 -1.396317183971405029e-01 1.309115588665008545e-01
1.225603818893432617e-01 -1.358564645051956177e-01 1.163069382309913635e-01
1.479116529226303101e-01 -1.885004490613937378e-01 1.072769090533256531e-01
4.239509999752044678e-02 -1.854113787412643433e-01 5.281396955251693726e-02
2.149305194616317749e-01 -1.354694217443466187e-01 9.373127669095993042e-02
7.316870987415313721e-02 -1.296305954456329346e-01 -1.006246656179428101e-01
4.948318004608154297e-01 -1.456491947174072266e-01 -2.254333198070526123e-01
3.174543976783752441e-01 -1.362122446298599243e-01 -3.242109417915344238e-01
3.148270249366760254e-01 -1.350057870149612427e-01 1.236201077699661255e-02
1.434656381607055664e-01 -1.498928070068359375e-01 -4.393121004104614258e-01
3.526495099067687988e-01 -1.337460875511169434e-01 -1.799576580524444580e-01
3.847250342369079590e-01 -1.527303159236907959e-01 -4.235248565673828125e-01
-1.091724038124084473e-01 -1.444557607173919678e-01 -1.964433193206787109e-01
2.094457149505615234e-01 -1.387448161840438843e-01 -3.912504017353057861e-01
3.859249949455261230e-01 -1.374567449092864990e-01 -2.634770795702934265e-02
1.460728198289871216e-01 -1.870249509811401367e-01 -1.702094823122024536e-01
1.450492441654205322e-02 -1.437382102012634277e-01 1.871199309825897217e-01
2.452258169651031494e-01 -1.327134966850280762e-01 -2.950186431407928467e-01
5.086687207221984863e-02 -1.307924240827560425e-01 -1.916531920433044434e-01
6.215076148509979248e-02 -1.864484548568725586e-01 5.279078334569931030e-02
4.643242955207824707e-01 -1.851518303155899048e-01 1.277558505535125732e-02
9.738811850547790527e-02 -1.861037611961364746e-01 1.303263902664184570e-01
2.340585291385650635e-01 -1.914267390966415405e-01 1.631412655115127563e-02
3.775330185890197754e-01 -1.718253642320632935e-01 2.365455627441406250e-01
1.666665673255920410e-01 -1.298210024833679199e-01 -2.255920767784118652e-01
-8.086150884628295898e-02 -1.409758180379867554e-01 -2.167781889438629150e-01
-2.622532844543457031e-02 -1.791739165782928467e-01 -1.173104196786880493e-01
5.740064382553100586e-01 -1.665731817483901978e-01 -6.906475871801376343e-02
1.647085398435592651e-01 -1.310269236564636230e-01 4.646800458431243896e-03
3.605814576148986816e-01 -1.790021359920501709e-01 -3.334758579730987549e-01
1.953217834234237671e-01 -1.729150712490081787e-01 -3.885611891746520996e-01
1.534266173839569092e-01 -1.860996186733245850e-01 -1.992635726928710938e-01
1.050852462649345398e-01 -1.854094415903091431e-01 -1.724010109901428223e-01
2.473004162311553955e-02 -1.309180855751037598e-01 -9.396138042211532593e-02
2.963342964649200439e-01 -1.347365677356719971e-01 2.530387043952941895e-02
4.441036581993103027e-01 -1.428850740194320679e-01 -1.937001943588256836e-04
3.315207362174987793e-01 -1.338422894477844238e-01 -5.117725580930709839e-02
3.611082136631011963e-01 -1.887212395668029785e-01 -1.579761207103729248e-01
1.284741908311843872e-01 -1.375795751810073853e-01 1.431455314159393311e-01
3.943389058113098145e-01 -1.891452372074127197e-01 1.106189191341400146e-02
4.120534658432006836e-02 -1.304271966218948364e-01 -9.087121486663818359e-02
1.957235783338546753e-01 -1.397058218717575073e-01 1.637818217277526855e-01
4.709968864917755127e-01 -1.520597040653228760e-01 9.028201550245285034e-02
1.144993901252746582e-01 -1.832194626331329346e-01 1.986972391605377197e-01
3.922833204269409180e-01 -1.835341006517410278e-01 1.511869132518768311e-01
-2.173507213592529297e-02 -1.330790221691131592e-01 -6.504832953214645386e-02
4.631111323833465576e-01 -1.806900054216384888e-01 1.060862317681312561e-01
-8.090442419052124023e-02 -1.756175607442855835e-01 2.060871571302413940e-02
5.169056653976440430e-01 -1.530630737543106079e-01 -2.882858812808990479e-01
1.104092672467231750e-01 -1.808196604251861572e-01 -2.656852006912231445e-01
4.313331842422485352e-01 -1.418305188417434692e-01 -2.954103946685791016e-01
2.067616581916809082e-02 -1.827022880315780640e-01 -1.184332519769668579e-01
3.244915604591369629e-01 -1.326543837785720825e-01 -1.031270548701286316e-01
6.241242587566375732e-02 -1.361857652664184570e-01 1.104617938399314880e-01
4.359508454799652100e-01 -1.389803886413574219e-01 -1.763259768486022949e-01
3.589789271354675293e-01 -1.351934224367141724e-01 -2.497718334197998047e-01
5.052376985549926758e-01 -1.808360815048217773e-01 1.985593140125274658e-02
-8.840450644493103027e-02 -1.476509124040603638e-01 -2.584542334079742432e-01
4.165359437465667725e-01 -1.847905218601226807e-01 1.080515161156654358e-01
1.579215973615646362e-01 -1.414280235767364502e-01 -4.080672264099121094e-01
3.701083362102508545e-02 -1.304787546396255493e-01 -1.107545644044876099e-01
2.235078364610671997e-01 -1.914360225200653076e-01 -2.133137360215187073e-02
1.565538197755813599e-01 -1.750038862228393555e-01 2.820729911327362061e-01
4.001885354518890381e-01 -1.364196985960006714e-01 -1.777120530605316162e-01
4.635574221611022949e-01 -1.688475459814071655e-01 -3.574815094470977783e-01
1.917787790298461914e-01 -1.657925993204116821e-01 -4.299258887767791748e-01
2.506308555603027344e-01 -1.330022215843200684e-01 1.970844715833663940e-02
2.826170325279235840e-01 -1.835168302059173584e-01 -2.874693572521209717e-01
6.251533329486846924e-02 -1.387640535831451416e-01 -3.514228463172912598e-01
3.984026312828063965e-01 -1.518221646547317505e-01 1.706587672233581543e-01
4.386447072029113770e-01 -1.435507386922836304e-01 -3.127861022949218750e-01
-5.000194907188415527e-02 -1.476963758468627930e-01 1.779601275920867920e-01
2.762344479560852051e-01 -1.366773396730422974e-01 8.315638452768325806e-02
5.035892724990844727e-01 -1.751538217067718506e-01 -2.683368027210235596e-01
8.679544180631637573e-02 -1.867338269948959351e-01 9.621604532003402710e-02
1.582868248224258423e-01 -1.289782822132110596e-01 -1.025436669588088989e-01
-1.272102296352386475e-01 -1.447990089654922485e-01 -1.462539732456207275e-01
2.219300419092178345e-01 -1.337299048900604248e-01 -3.238195776939392090e-01
-9.473022818565368652e-02 -1.399523764848709106e-01 -1.629657447338104248e-01
-9.870868921279907227e-02 -1.392694264650344849e-01 -3.233755379915237427e-02
-3.009365499019622803e-02 -1.653332710266113281e-01 -3.002649545669555664e-01
3.993753790855407715e-01 -1.778996139764785767e-01 -3.297693133354187012e-01
3.674850165843963623e-01 -1.348818987607955933e-01 -9.129307419061660767e-02
1.396873295307159424e-01 -1.357879340648651123e-01 1.151775047183036804e-01
-9.344065189361572266e-02 -1.669742912054061890e-01 1.534835994243621826e-01
1.154189407825469971e-01 -1.622064709663391113e-01 -4.195090234279632568e-01
-9.286811947822570801e-02 -1.697392165660858154e-01 1.295650899410247803e-01
4.797347486019134521e-01 -1.789996922016143799e-01 -2.515283524990081787e-01
4.324389994144439697e-01 -1.798485815525054932e-01 1.522210240364074707e-01
1.356517225503921509e-01 -1.886854320764541626e-01 8.732400089502334595e-02
4.766597449779510498e-01 -1.851129382848739624e-01 -6.490720063447952271e-02
2.128351181745529175e-01 -1.896192431449890137e-01 -1.379516124725341797e-01
-5.311223864555358887e-02 -1.745804697275161743e-01 1.450689435005187988e-01
2.070622295141220093e-01 -1.906436532735824585e-01 6.112363189458847046e-02
2.350325882434844971e-02 -1.466695219278335571e-01 -3.740301728248596191e-01
8.202546834945678711e-02 -1.345428973436355591e-01 -3.119076490402221680e-01
1.163856089115142822e-01 -1.825856566429138184e-01 -2.416160106658935547e-01
-1.323593854904174805e-01 -1.458480805158615112e-01 2.530005574226379395e-02
3.356124162673950195e-01 -1.388446688652038574e-01 7.365911453962326050e-02
2.134363502264022827e-01 -1.853737086057662964e-01 1.959905624389648438e-01
5.240970849990844727e-01 -1.776737719774246216e-01 2.487177401781082153e-02
4.194862842559814453e-01 -1.417645961046218872e-01 2.167122811079025269e-02
3.822832703590393066e-01 -1.807668358087539673e-01 -3.044819235801696777e-01
5.370299816131591797e-01 -1.779080033302307129e-01 -1.429838389158248901e-01
1.225234791636466980e-01 -1.889052689075469971e-01 -6.150041148066520691e-02
-7.223400473594665527e-02 -1.413004398345947266e-01 -2.371394932270050049e-01
2.331721037626266479e-01 -1.785990893840789795e-01 2.619658112525939941e-01
3.157973587512969971e-01 -1.828491538763046265e-01 -2.951923906803131104e-01
7.800216972827911377e-02 -1.867249757051467896e-01 -8.511988073587417603e-02
2.202021628618240356e-01 -1.529366821050643921e-01 -4.565684199333190918e-01
1.703280359506607056e-01 -1.316107511520385742e-01 2.124089747667312622e-02
2.304644584655761719e-01 -1.308403313159942627e-01 -2.461484670639038086e-01
4.107031226158142090e-02 -1.836391240358352661e-01 -1.297944784164428711e-01
3.775324821472167969e-01 -1.371144801378250122e-01 -2.776971757411956787e-01
4.099898338317871094e-01 -1.888567805290222168e-01 -6.503465026617050171e-02
3.542027473449707031e-01 -1.849012970924377441e-01 -2.530321776866912842e-01
1.500615179538726807e-01 -1.690670102834701538e-01 -4.007971882820129395e-01
3.939955830574035645e-01 -1.612830609083175659e-01 2.219619750976562500e-01
-1.116597652435302734e-02 -1.795626282691955566e-01 -1.417623460292816162e-01
1.054417043924331665e-01 -1.663481295108795166e-01 -3.972085118293762207e-01
8.178487420082092285e-02 -1.294203549623489380e-01 -1.209772676229476929e-01
5.764618515968322754e-01 -1.649552434682846069e-01 -9.513176977634429932e-02
2.442385852336883545e-01 -1.805683672428131104e-01 -3.243271708488464355e-01
6.973563134670257568e-02 -1.468063741922378540e-01 2.323903441429138184e-01
4.942853748798370361e-01 -1.506651490926742554e-01 -3.094362020492553711e-01
2.935789823532104492e-01 -1.319331079721450806e-01 -2.261733412742614746e-01
1.607713997364044189e-01 -1.324269622564315796e-01 -3.016493320465087891e-01
1.876622736454010010e-01 -1.748628467321395874e-01 2.846831083297729492e-01
3.054762184619903564e-01 -1.329055428504943848e-01 -4.423180595040321350e-02
1.591470837593078613e-01 -1.903222501277923584e-01 5.872897803783416748e-03
-3.118394315242767334e-02 -1.805958449840545654e-01 2.571666240692138672e-02
2.220480144023895264e-01 -1.310433596372604370e-01 -2.163184806704521179e-02
5.138732194900512695e-01 -1.682550311088562012e-01 1.010173931717872620e-01
-4.730135202407836914e-02 -1.735499054193496704e-01 1.679229438304901123e-01
1.236623078584671021e-01 -1.818672716617584229e-01 2.204812169075012207e-01
4.851720631122589111e-01 -1.449267715215682983e-01 -2.395350933074951172e-01
3.805531859397888184e-01 -1.351908147335052490e-01 -1.347620189189910889e-01
-3.670796751976013184e-02 -1.766983866691589355e-01 -1.555587947368621826e-01
5.471980571746826172e-02 -1.853940784931182861e-01 -9.301073849201202393e-02
2.093280255794525146e-01 -1.909949630498886108e-01 -6.288041919469833374e-02
3.218141198158264160e-01 -1.674144715070724487e-01 -4.270356297492980957e-01
-1.054348945617675781e-01 -1.403793096542358398e-01 -1.321774721145629883e-01
3.483419120311737061e-01 -1.360131055116653442e-01 -4.309840500354766846e-03
1.625311374664306641e-01 -1.900454610586166382e-01 5.032447725534439087e-02
2.060109823942184448e-01 -1.791437417268753052e-01 -3.330753743648529053e-01
1.252716779708862305e-01 -1.851242035627365112e-01 1.738761961460113525e-01
1.005149483680725098e-01 -1.728691160678863525e-01 -3.501014411449432373e-01
4.091487824916839600e-01 -1.706429868936538696e-01 -3.829515874385833740e-01
1.001924350857734680e-01 -1.314626932144165039e-01 -2.602694332599639893e-01
1.402408182621002197e-01 -1.789393573999404907e-01 2.541626095771789551e-01
2.856710851192474365e-01 -1.319577097892761230e-01 -5.465164035558700562e-02
3.729074299335479736e-01 -1.378350257873535156e-01 7.233321666717529297e-03
4.061813652515411377e-01 -1.857486069202423096e-01 -2.049472630023956299e-01
1.291216015815734863e-01 -1.809433400630950928e-01 -2.764475047588348389e-01
-2.380998432636260986e-02 -1.365643441677093506e-01 5.883476883172988892e-02
1.428551971912384033e-01 -1.299572736024856567e-01 -3.289867192506790161e-02
9.592751413583755493e-02 -1.850503832101821899e-01 1.541536748409271240e-01
2.103264033794403076e-01 -1.890155673027038574e-01 -1.572395265102386475e-01
2.374637871980667114e-01 -1.304475963115692139e-01 -2.229083776473999023e-01
2.397423386573791504e-01 -1.683180928230285645e-01 -4.253232181072235107e-01
3.767595589160919189e-01 -1.787507236003875732e-01 -3.306048810482025146e-01
1.569136381149291992e-01 -1.291177123785018921e-01 -8.645800501108169556e-02
2.357427924871444702e-01 -1.900189518928527832e-01 9.785937517881393433e-02
2.642696201801300049e-01 -1.902852505445480347e-01 8.777800947427749634e-02
-2.764293551445007324e-02 -1.408537030220031738e-01 -2.950547039508819580e-01
3.655668795108795166e-01 -1.419178545475006104e-01 9.423547238111495972e-02
1.286817491054534912e-01 -1.345030367374420166e-01 -3.310674130916595459e-01
5.142571032047271729e-02 -1.304968446493148804e-01 -1.756217777729034424e-01
3.051602542400360107e-01 -1.819076240062713623e-01 -3.093819916248321533e-01
2.784844934940338135e-01 -1.785047352313995361e-01 -3.503356873989105225e-01
3.452596068382263184e-01 -1.587028205394744873e-01 2.456614673137664795e-01
3.762179017066955566e-01 -1.356299966573715210e-01 -7.596930861473083496e-02
2.898056507110595703e-01 -1.315301805734634399e-01 -8.772134035825729370e-02
1.462745666503906250e-01 -1.859111189842224121e-01 1.705093979835510254e-01
4.799205660820007324e-01 -1.570554971694946289e-01 1.174443587660789490e-01
5.334575772285461426e-01 -1.632271856069564819e-01 5.941314250230789185e-02
1.409937590360641479e-01 -1.289635598659515381e-01 -1.024446189403533936e-01
-3.904229402542114258e-02 -1.569759547710418701e-01 -3.265867233276367188e-01
2.474599331617355347e-01 -1.896429508924484253e-01 1.104357913136482239e-01
2.901386916637420654e-01 -1.354250609874725342e-01 -3.279909789562225342e-01
3.641262650489807129e-01 -1.343832314014434814e-01 -1.188772022724151611e-01
3.244028687477111816e-01 -1.330422461032867432e-01 -7.539449632167816162e-02
3.757047057151794434e-01 -1.443180739879608154e-01 -3.848308026790618896e-01
4.391625523567199707e-03 -1.421508640050888062e-01 1.654548943042755127e-01
1.065655574202537537e-01 -1.296862959861755371e-01 -5.396856367588043213e-02
2.550932765007019043e-01 -1.317175030708312988e-01 -2.609915137290954590e-01
5.293963849544525146e-02 -1.862883269786834717e-01 1.840355247259140015e-02
4.306140542030334473e-01 -1.388867050409317017e-01 -2.062016725540161133e-01
1.792971938848495483e-01 -1.302581876516342163e-01 -2.427565455436706543e-01
3.765946626663208008e-01 -1.776431351900100708e-01 2.143482565879821777e-01
-5.567392706871032715e-02 -1.352846473455429077e-01 -4.978972673416137695e-02
3.799979388713836670e-02 -1.312991827726364136e-01 -3.118743374943733215e-02
1.487671136856079102e-01 -1.289039850234985352e-01 -1.557233929634094238e-01
1.179814338684082031e-03 -1.824130117893218994e-01 -7.610404491424560547e-02
3.270178139209747314e-01 -1.338027417659759521e-01 -2.537107467651367188e-01
3.605515956878662109e-01 -1.892946958541870117e-01 -1.368734538555145264e-01
2.023653686046600342e-01 -1.899096965789794922e-01 9.274556487798690796e-02
5.299932956695556641e-01 -1.581745892763137817e-01 3.949124366044998169e-02
2.236749529838562012e-01 -1.819287538528442383e-01 2.363395392894744873e-01
4.568582773208618164e-02 -1.533740758895874023e-01 -3.992682993412017822e-01
2.043144255876541138e-01 -1.304235905408859253e-01 -3.437130153179168701e-02
4.257846474647521973e-01 -1.402396559715270996e-01 -2.796404436230659485e-02
4.522228240966796875e-02 -1.357126533985137939e-01 -3.050318360328674316e-01
1.423086374998092651e-01 -1.897826641798019409e-01 2.602504193782806396e-02
1.658147275447845459e-01 -1.674522012472152710e-01 -4.151873588562011719e-01
4.953780174255371094e-01 -1.515499055385589600e-01 4.402653127908706665e-02
1.135672330856323242e-01 -1.335014402866363525e-01 7.116418331861495972e-02
3.124786615371704102e-01 -1.839959770441055298e-01 -2.783246934413909912e-01
4.606249034404754639e-01 -1.861692816019058228e-01 -3.594765812158584595e-02
-1.479470729827880859e-01 -1.633800864219665527e-01 -5.057817697525024414e-02
2.410942316055297852e-02 -1.328375339508056641e-01 -2.290438115596771240e-01
7.116059958934783936e-02 -1.853527873754501343e-01 1.190484091639518738e-01
1.931694597005844116e-01 -1.529885530471801758e-01 -4.537326097488403320e-01
1.749553829431533813e-01 -1.336998343467712402e-01 -3.266952633857727051e-01
-1.222487688064575195e-01 -1.504925042390823364e-01 1.046265885233879089e-01
1.255804300308227539e-01 -1.725568622350692749e-01 -3.659454882144927979e-01
1.792382597923278809e-01 -1.907241046428680420e-01 -3.198350593447685242e-02
5.162587165832519531e-01 -1.746110320091247559e-01 7.463269680738449097e-02
-1.254626214504241943e-01 -1.688161492347717285e-01 2.409271150827407837e-02
-8.544856309890747070e-02 -1.743104904890060425e-01 -7.321813702583312988e-02
1.314976513385772705e-01 -1.436025202274322510e-01 2.131421267986297607e-01
1.207265630364418030e-01 -1.786597073078155518e-01 -3.019583225250244141e-01
5.516482591629028320e-01 -1.752407848834991455e-01 -1.485117673873901367e-01
3.770299553871154785e-01 -1.355037838220596313e-01 -2.191827595233917236e-01
2.219990938901901245e-01 -1.297423690557479858e-01 -9.155208617448806763e-02
1.363836526870727539e-01 -1.322493851184844971e-01 4.291525483131408691e-02
2.436168491840362549e-01 -1.298642009496688843e-01 -1.435818523168563843e-01
4.788679778575897217e-01 -1.843286305665969849e-01 -1.254681944847106934e-01
2.683530151844024658e-01 -1.368245631456375122e-01 -3.595911264419555664e-01
-1.212554275989532471e-01 -1.420057266950607300e-01 -3.850698843598365784e-02
-5.374225974082946777e-02 -1.785389930009841919e-01 -2.631132677197456360e-02
-5.247047543525695801e-02 -1.350647211074829102e-01 -1.350826174020767212e-01
4.601443111896514893e-01 -1.416387259960174561e-01 -8.561656624078750610e-02
-1.351092159748077393e-01 -1.643169373273849487e-01 -1.106066256761550903e-01
-3.433474898338317871e-02 -1.720169633626937866e-01 1.993780136108398438e-01
1.116078719496726990e-01 -1.422882378101348877e-01 -4.005992710590362549e-01
5.555700659751892090e-01 -1.558875888586044312e-01 -1.991791576147079468e-01
6.112001836299896240e-02 -1.748308688402175903e-01 2.543284595012664795e-01
1.092185825109481812e-01 -1.880497336387634277e-01 -8.524679392576217651e-02
7.671497762203216553e-02 -1.872947067022323608e-01 3.904717415571212769e-02
-1.039132177829742432e-01 -1.394891440868377686e-01 -8.621449768543243408e-02
-1.190361082553863525e-01 -1.439709216356277466e-01 3.382549434900283813e-02
4.412523508071899414e-01 -1.861998736858367920e-01 -1.459209322929382324e-01
-5.903083086013793945e-02 -1.374747157096862793e-01 2.817665785551071167e-02
-9.379106760025024414e-02 -1.406025141477584839e-01 3.024192154407501221e-02
1.244133040308952332e-01 -1.874175965785980225e-01 -1.356861889362335205e-01
-1.572828590869903564e-01 -1.558398008346557617e-01 -8.944348990917205811e-02
4.142712950706481934e-01 -1.887276619672775269e-01 -4.715819656848907471e-02
9.268984198570251465e-03 -1.837394684553146362e-01 2.722755074501037598e-03
-1.035749912261962891e-01 -1.648960709571838379e-01 -1.932153552770614624e-01
-1.191177964210510254e-02 -1.822156012058258057e-01 -1.040239632129669189e-02
2.113550901412963867e-01 -1.819200962781906128e-01 -2.997140586376190186e-01
4.046857357025146484e-02 -1.387491375207901001e-01 1.412490904331207275e-01
2.739644050598144531e-02 -1.743509322404861450e-01 2.373070418834686279e-01
8.328504115343093872e-02 -1.606782078742980957e-01 -4.092797636985778809e-01
1.098022833466529846e-01 -1.365174651145935059e-01 1.261529326438903809e-01
1.566179096698760986e-01 -1.291215717792510986e-01 -1.832477748394012451e-01
3.087145388126373291e-01 -1.783640086650848389e-01 -3.505621850490570068e-01
4.175706803798675537e-01 -1.383483707904815674e-01 -7.471515238285064697e-02
-7.238453626632690430e-02 -1.730804890394210815e-01 -1.489541530609130859e-01
2.468147128820419312e-01 -1.357251703739166260e-01 8.351536840200424194e-02
1.398330032825469971e-01 -1.308392286300659180e-01 -2.589285075664520264e-01
3.353900313377380371e-01 -1.348011195659637451e-01 -2.744587957859039307e-01
-4.108086228370666504e-02 -1.368523985147476196e-01 4.278859496116638184e-02
-1.505461931228637695e-01 -1.584925651550292969e-01 5.298703163862228394e-02
2.973190546035766602e-01 -1.316796094179153442e-01 -2.021004855632781982e-01
-1.167562305927276611e-01 -1.587653458118438721e-01 -2.085655927658081055e-01
5.418878197669982910e-01 -1.554610729217529297e-01 -2.481907904148101807e-01
3.803760409355163574e-01 -1.354021728038787842e-01 -1.071913465857505798e-01
2.603738009929656982e-01 -1.819746345281600952e-01 2.315598726272583008e-01
2.073060125112533569e-01 -1.366199254989624023e-01 -3.684832751750946045e-01
2.259018570184707642e-01 -1.530458033084869385e-01 2.685687243938446045e-01
4.047464430332183838e-01 -1.437944620847702026e-01 7.819802314043045044e-02
5.433012247085571289e-01 -1.777158528566360474e-01 -8.530403673648834229e-02
2.350070625543594360e-01 -1.298589706420898438e-01 -1.049133092164993286e-01
2.810129821300506592e-01 -1.809697896242141724e-01 -3.223024606704711914e-01
2.737306654453277588e-01 -1.905380040407180786e-01 -1.205678060650825500e-01
-9.905359148979187012e-02 -1.451703757047653198e-01 -2.250703275203704834e-01
4.104651212692260742e-01 -1.876630485057830811e-01 -1.427955925464630127e-01
1.637160032987594604e-01 -1.299691349267959595e-01 -3.562409430742263794e-02
1.748975217342376709e-01 -1.868005394935607910e-01 -1.972872018814086914e-01
5.236374139785766602e-01 -1.738987565040588379e-01 -2.499891221523284912e-01
2.689043283462524414e-01 -1.304833590984344482e-01 -1.448217630386352539e-01
2.819133996963500977e-01 -1.914747506380081177e-01 1.467108726501464844e-02
1.734350323677062988e-01 -1.832745671272277832e-01 -2.651532888412475586e-01
2.438524216413497925e-01 -1.859675645828247070e-01 1.867898106575012207e-01
3.094099164009094238e-01 -1.318869143724441528e-01 -1.791704595088958740e-01
5.472577810287475586e-01 -1.553017050027847290e-01 -4.184184595942497253e-02
3.700489997863769531e-01 -1.418966501951217651e-01 -3.654889166355133057e-01
1.610441207885742188e-01 -1.884239017963409424e-01 -1.411243826150894165e-01
4.604846835136413574e-01 -1.490930765867233276e-01 -3.450273275375366211e-01
3.016765713691711426e-01 -1.388432234525680542e-01 -3.719052374362945557e-01
3.849576115608215332e-01 -1.880295425653457642e-01 -1.608752012252807617e-01
-9.424737095832824707e-02 -1.735437363386154175e-01 -5.635069310665130615e-02
3.616602718830108643e-01 -1.358145624399185181e-01 -3.323172405362129211e-02
-9.856396913528442383e-02 -1.702915132045745850e-01 -1.323627829551696777e-01
1.840895563364028931e-01 -1.361849009990692139e-01 1.157180890440940857e-01
2.015153169631958008e-01 -1.326905339956283569e-01 3.986836224794387817e-02
1.106973886489868164e-01 -1.308320015668869019e-01 -2.477369308471679688e-01
-1.491888165473937988e-01 -1.581341624259948730e-01 -1.202058196067810059e-01
4.279353618621826172e-01 -1.505172848701477051e-01 -3.869085907936096191e-01
2.289808392524719238e-01 -1.909123212099075317e-01 -8.717142790555953979e-02
4.136499166488647461e-01 -1.885726451873779297e-01 -8.312625437974929810e-02
1.603785157203674316e-02 -1.338787078857421875e-01 -2.450176179409027100e-01
2.476903200149536133e-01 -1.877652257680892944e-01 1.555989086627960205e-01
2.274562418460845947e-01 -1.911286562681198120e-01 4.169773310422897339e-02
1.049145683646202087e-01 -1.373867094516754150e-01 -3.587247431278228760e-01
6.587184965610504150e-02 -1.505863517522811890e-01 2.557895779609680176e-01
1.704852581024169922e-01 -1.881733834743499756e-01 -1.573631763458251953e-01
1.250215321779251099e-01 -1.385463327169418335e-01 -3.771721422672271729e-01
1.762320101261138916e-02 -1.834426373243331909e-01 7.934347540140151978e-02
2.819364070892333984e-01 -1.864564567804336548e-01 -2.364949584007263184e-01
4.091742634773254395e-01 -1.416698694229125977e-01 3.628337383270263672e-02
2.850454151630401611e-01 -1.823799312114715576e-01 -3.038804829120635986e-01
4.178241491317749023e-01 -1.389216631650924683e-01 -2.509397268295288086e-01
3.925325572490692139e-01 -1.367873698472976685e-01 -6.768844276666641235e-02
8.507212996482849121e-02 -1.877220273017883301e-01 -3.501336649060249329e-02
5.022279024124145508e-01 -1.642196476459503174e-01 -3.360088169574737549e-01
2.891683578491210938e-01 -1.903418153524398804e-01 -1.285782903432846069e-01
2.413119971752166748e-01 -1.393549740314483643e-01 -3.945049345493316650e-01
3.541016876697540283e-01 -1.340884417295455933e-01 -2.066954672336578369e-01
3.917176723480224609e-01 -1.895409822463989258e-01 -1.861827820539474487e-02
2.685013413429260254e-01 -1.798238456249237061e-01 2.475194334983825684e-01
-1.355208754539489746e-01 -1.458890438079833984e-01 -1.289167404174804688e-01
-1.572218537330627441e-01 -1.586775034666061401e-01 1.156463474035263062e-02
9.550204128026962280e-02 -1.882537603378295898e-01 -1.909780502319335938e-02
4.114811420440673828e-01 -1.460974514484405518e-01 1.015101298689842224e-01
4.676461219787597656e-02 -1.815725117921829224e-01 -1.908805668354034424e-01
2.902565002441406250e-01 -1.323997378349304199e-01 -2.516194581985473633e-01
-7.851463556289672852e-02 -1.439353823661804199e-01 1.117836907505989075e-01
1.019412800669670105e-01 -1.303482949733734131e-01 -2.263573557138442993e-02
4.834637045860290527e-02 -1.415581405162811279e-01 1.787981688976287842e-01
-1.158064603805541992e-02 -1.329678148031234741e-01 -3.761905804276466370e-02
2.171941399574279785e-01 -1.866323500871658325e-01 1.764421164989471436e-01
5.138814449310302734e-01 -1.489505767822265625e-01 -2.407511770725250244e-01
2.616495788097381592e-01 -1.911662220954895020e-01 -8.475495874881744385e-02
2.465011775493621826e-01 -1.353983730077743530e-01 -3.458212614059448242e-01
-1.457141339778900146e-02 -1.367930918931961060e-01 7.343833893537521362e-02
-2.127079665660858154e-02 -1.488763093948364258e-01 2.078697383403778076e-01
2.607030570507049561e-01 -1.765992045402526855e-01 2.689580023288726807e-01
4.051173329353332520e-01 -1.408388614654541016e-01 -3.164925575256347656e-01
1.707782447338104248e-01 -1.906089931726455688e-01 -8.081756532192230225e-03
-1.190385520458221436e-01 -1.462514400482177734e-01 7.002425938844680786e-02
3.450303077697753906e-01 -1.853420138359069824e-01 1.615463197231292725e-01
2.312284559011459351e-01 -1.878142505884170532e-01 -1.989693641662597656e-01
5.739602446556091309e-01 -1.610399186611175537e-01 -1.297849416732788086e-01
1.229162216186523438e-01 -1.397160142660140991e-01 1.713443398475646973e-01
1.209265366196632385e-01 -1.892274767160415649e-01 -3.286957740783691406e-03
7.006643712520599365e-02 -1.296632289886474609e-01 -1.352712661027908325e-01
8.052095770835876465e-02 -1.324677914381027222e-01 -2.727411091327667236e-01
2.744275629520416260e-01 -1.907483190298080444e-01 6.664099544286727905e-02
1.185262873768806458e-01 -1.318706870079040527e-01 3.212618827819824219e-02
9.300051629543304443e-02 -1.855174154043197632e-01 -1.550547331571578979e-01
1.030704304575920105e-01 -1.813757270574569702e-01 2.169456183910369873e-01
3.955503106117248535e-01 -1.377019733190536499e-01 -3.895096480846405029e-02
3.775025010108947754e-01 -1.826160401105880737e-01 1.737087965011596680e-01
4.497107863426208496e-01 -1.818547695875167847e-01 -2.411403357982635498e-01
2.930871248245239258e-01 -1.912168860435485840e-01 3.155522048473358154e-02
4.787951707839965820e-03 -1.325096338987350464e-01 -2.554611861705780029e-02
2.990480363368988037e-01 -1.336718499660491943e-01 -2.830579876899719238e-01
2.787713110446929932e-01 -1.352015733718872070e-01 5.173454433679580688e-02
1.406117826700210571e-01 -1.304010450839996338e-01 -1.421314477920532227e-02
4.619503617286682129e-01 -1.742414236068725586e-01 -3.228418231010437012e-01
1.196797266602516174e-01 -1.309454292058944702e-01 4.205495119094848633e-03
-1.394225955009460449e-01 -1.457863748073577881e-01 -1.148937642574310303e-02
4.580112397670745850e-01 -1.862782239913940430e-01 -8.714423328638076782e-02
4.020877480506896973e-01 -1.464309692382812500e-01 -3.822627961635589600e-01
-3.935937583446502686e-02 -1.783408373594284058e-01 -1.064405590295791626e-01
4.303742945194244385e-01 -1.869265437126159668e-01 3.406269848346710205e-02
-8.512869477272033691e-03 -1.401182711124420166e-01 -3.086780011653900146e-01
2.811569571495056152e-01 -1.753731518983840942e-01 2.694733440876007080e-01
-1.037034392356872559e-02 -1.821712255477905273e-01 3.640744090080261230e-02
3.806152343750000000e-01 -1.835428476333618164e-01 -2.649506330490112305e-01
3.470208048820495605e-01 -1.524865031242370605e-01 -4.391805231571197510e-01
5.571258068084716797e-01 -1.596532911062240601e-01 -2.312100231647491455e-01
3.090929985046386719e-01 -1.897930055856704712e-01 8.868325501680374146e-02
2.985464930534362793e-01 -1.346665918827056885e-01 -3.075510561466217041e-01
1.845844984054565430e-01 -1.436997652053833008e-01 2.099164724349975586e-01
4.346019327640533447e-01 -1.765024065971374512e-01 -3.232010900974273682e-01
2.878554761409759521e-01 -1.887681633234024048e-01 1.261747181415557861e-01
7.943716645240783691e-02 -1.371617466211318970e-01 1.310480833053588867e-01
2.491031736135482788e-01 -1.915194988250732422e-01 -4.664057865738868713e-02
1.891483366489410400e-02 -1.641387939453125000e-01 -3.535665571689605713e-01
4.946055114269256592e-01 -1.461763679981231689e-01 -5.220666527748107910e-02
3.865280151367187500e-01 -1.687610596418380737e-01 -4.030873775482177734e-01
2.853784859180450439e-01 -1.386016458272933960e-01 -3.757433593273162842e-01
5.716067552566528320e-01 -7.126820683479309082e-01 -5.995279550552368164e-02
-1.374090909957885742e-01 -7.313826680183410645e-01 5.128368139266967773e-01
-5.880516767501831055e-02 -7.774366140365600586e-01 3.289601206779479980e-01
6.087075471878051758e-01 -7.552477121353149414e-01 1.153833568096160889e-01
3.230828344821929932e-01 -6.084511280059814453e-01 4.053578376770019531e-01
4.247893691062927246e-01 -7.513549327850341797e-01 -2.193035185337066650e-02
-5.988350510597229004e-02 -5.340560078620910645e-01 8.203005045652389526e-02
4.996743202209472656e-01 -7.863122820854187012e-01 1.331682205200195312e-01
2.778761982917785645e-01 -7.972804903984069824e-01 5.107330083847045898e-01
6.205978393554687500e-01 -7.487897276878356934e-01 2.383247613906860352e-01
4.109637141227722168e-01 -6.473028659820556641e-01 4.252968430519104004e-01
1.868927627801895142e-01 -5.219851136207580566e-01 -8.499374985694885254e-02
1.321982145309448242e-01 -5.122803449630737305e-01 7.960782200098037720e-02
-1.081787049770355225e-02 -6.124384403228759766e-01 4.827157258987426758e-01
4.236188530921936035e-01 -6.259349584579467773e-01 -1.978961527347564697e-01
2.618104219436645508e-03 -5.625166296958923340e-01 3.576062917709350586e-01
2.070186585187911987e-01 -8.074477910995483398e-01 4.968547523021697998e-01
1.701789647340774536e-01 -7.448043227195739746e-01 4.121407866477966309e-03
1.899968832731246948e-01 -5.769646167755126953e-01 3.842099606990814209e-01
3.392224013805389404e-01 -6.500799059867858887e-01 4.709696173667907715e-01
-1.038020849227905273e-01 -7.429197430610656738e-01 5.296413302421569824e-01
1.431910246610641479e-01 -8.125286102294921875e-01 4.594646394252777100e-01
6.031839847564697266e-01 -6.036494374275207520e-01 9.264416247606277466e-02
3.965176343917846680e-01 -8.036929368972778320e-01 4.221292734146118164e-01
5.021346807479858398e-01 -6.731437444686889648e-01 -1.486622989177703857e-01
-2.346640229225158691e-01 -6.775388121604919434e-01 3.937942385673522949e-01
-5.735448002815246582e-02 -7.409358024597167969e-01 1.515344530344009399e-01
2.786040306091308594e-01 -5.424345731735229492e-01 -1.550271809101104736e-01
3.659429252147674561e-01 -5.268211364746093750e-01 -4.556223750114440918e-02
3.412043452262878418e-01 -5.305123925209045410e-01 -1.026539504528045654e-01
-2.180665731430053711e-02 -5.254941582679748535e-01 1.155779436230659485e-01
-7.916796207427978516e-02 -5.637468695640563965e-01 -3.885105252265930176e-03
2.305012196302413940e-01 -5.339553952217102051e-01 -1.327270269393920898e-01
5.027303099632263184e-01 -5.898992419242858887e-01 2.159913778305053711e-01
6.030970811843872070e-01 -6.812736392021179199e-01 2.893086969852447510e-01
4.514728486537933350e-01 -7.921585440635681152e-01 1.322194039821624756e-01
5.647059679031372070e-01 -5.861203074455261230e-01 -8.572357892990112305e-02
1.346623897552490234e-01 -5.195273756980895996e-01 1.624568849802017212e-01
1.130867823958396912e-01 -8.084304332733154297e-01 2.978590726852416992e-01
3.407013416290283203e-01 -5.234040021896362305e-01 4.207313060760498047e-02
2.302524447441101074e-02 -7.728172540664672852e-01 1.844237744808197021e-01
1.438116580247879028e-01 -6.292908787727355957e-01 -1.572111845016479492e-01
4.871726334095001221e-01 -6.093128919601440430e-01 -1.820087730884552002e-01
2.484597116708755493e-01 -7.229667305946350098e-01 -7.062414288520812988e-02
1.306175738573074341e-01 -5.374390482902526855e-01 2.640056014060974121e-01
3.063857555389404297e-02 -7.948154807090759277e-01 2.957513928413391113e-01
2.132129222154617310e-01 -6.364200711250305176e-01 5.010025501251220703e-01
4.732671380043029785e-02 -6.829517483711242676e-01 -5.480876564979553223e-02
4.402807354927062988e-02 -7.952470779418945312e-01 2.795445919036865234e-01
3.313117623329162598e-01 -5.820221900939941406e-01 -2.013856768608093262e-01
-1.928527951240539551e-01 -6.235453486442565918e-01 1.143192872405052185e-01
2.920416295528411865e-01 -8.214585781097412109e-01 3.510069251060485840e-01
-4.677921533584594727e-02 -6.965492963790893555e-01 5.756132006645202637e-01
2.261809408664703369e-01 -6.394901871681213379e-01 -1.767141222953796387e-01
-1.043617725372314453e-01 -5.480506420135498047e-01 2.249558269977569580e-01
3.132023513317108154e-01 -7.790290713310241699e-01 6.227864325046539307e-02
-1.806649565696716309e-02 -5.514522194862365723e-01 3.117390573024749756e-01
3.203814029693603516e-01 -8.175655603408813477e-01 2.699631750583648682e-01
4.444032907485961914e-01 -5.402897596359252930e-01 -1.610481739044189453e-02
3.706067800521850586e-01 -5.304057598114013672e-01 -7.777562737464904785e-02
-9.548822045326232910e-02 -5.506913661956787109e-01 5.147384107112884521e-02
6.238148212432861328e-01 -6.203369498252868652e-01 -6.167235970497131348e-02
4.081049561500549316e-01 -7.640029191970825195e-01 1.205191016197204590e-02
1.448059380054473877e-01 -7.943087816238403320e-01 1.826391965150833130e-01
2.137887775897979736e-01 -8.165391683578491211e-01 2.843372821807861328e-01
1.088704988360404968e-01 -6.061072349548339844e-01 4.693652093410491943e-01
5.515399575233459473e-01 -7.290560007095336914e-01 3.778383135795593262e-01
8.033832907676696777e-02 -6.733598709106445312e-01 -8.643966913223266602e-02
2.684539556503295898e-01 -5.682561993598937988e-01 3.297714591026306152e-01
3.657724857330322266e-01 -7.219617962837219238e-01 -9.041717648506164551e-02
4.034184217453002930e-01 -6.566023230552673340e-01 4.437997043132781982e-01
2.144590467214584351e-01 -8.184483647346496582e-01 3.061463534832000732e-01
2.534916102886199951e-01 -5.940128564834594727e-01 4.049880504608154297e-01
4.407879412174224854e-01 -6.195019483566284180e-01 -1.963394582271575928e-01
4.259613454341888428e-01 -6.806218028068542480e-01 4.581414461135864258e-01
-1.835381090641021729e-01 -5.760509967803955078e-01 2.488886117935180664e-01
5.923737287521362305e-01 -5.995783209800720215e-01 -7.601454854011535645e-02
-2.095322906970977783e-01 -6.863781213760375977e-01 4.538476467132568359e-01
-4.483604431152343750e-02 -7.851371169090270996e-01 4.188895821571350098e-01
6.562085151672363281e-01 -7.036845684051513672e-01 2.057529985904693604e-02
6.207340955734252930e-01 -7.014914751052856445e-01 -3.928092122077941895e-02
3.344003558158874512e-01 -5.994918346405029297e-01 -2.064009904861450195e-01
3.704228997230529785e-01 -5.551971197128295898e-01 2.202643007040023804e-01
5.341234803199768066e-01 -7.888557314872741699e-01 2.668129801750183105e-01
6.855113804340362549e-02 -8.078125715255737305e-01 4.109007716178894043e-01
-1.909749805927276611e-01 -5.938642024993896484e-01 3.328158855438232422e-01
2.742768824100494385e-01 -7.893240451812744141e-01 5.280160903930664062e-01
1.505228877067565918e-01 -6.528822779655456543e-01 -1.412315964698791504e-01
5.286259651184082031e-01 -5.669559240341186523e-01 5.343912541866302490e-02
5.589026212692260742e-02 -5.323397517204284668e-01 2.406039685010910034e-01
8.927841484546661377e-02 -6.363231539726257324e-01 5.249756574630737305e-01
3.092400729656219482e-02 -7.803630232810974121e-01 5.446397066116333008e-01
1.939343810081481934e-01 -5.603194832801818848e-01 3.341121375560760498e-01
4.203449487686157227e-01 -5.868869423866271973e-01 -1.931796669960021973e-01
8.552543818950653076e-02 -6.836231350898742676e-01 -7.495975494384765625e-02
7.381720840930938721e-02 -5.154666900634765625e-01 1.064332351088523865e-01
5.427475273609161377e-02 -5.985434055328369141e-01 4.575040042400360107e-01
-2.253116071224212646e-01 -6.221653819084167480e-01 1.873584091663360596e-01
-6.169626116752624512e-02 -6.865965723991394043e-01 5.664067268371582031e-01
2.958320081233978271e-02 -5.792703032493591309e-01 4.104698896408081055e-01
2.772578597068786621e-02 -6.474623680114746094e-01 -8.582884073257446289e-02
3.130307793617248535e-01 -6.145681738853454590e-01 4.230818748474121094e-01
3.005660772323608398e-01 -5.650383234024047852e-01 3.033115863800048828e-01
3.690366446971893311e-01 -8.008571863174438477e-01 1.528505831956863403e-01
3.293942511081695557e-01 -5.888332128524780273e-01 3.559173941612243652e-01
4.486031830310821533e-01 -7.058706283569335938e-01 4.629473686218261719e-01
-1.501350104808807373e-01 -6.132390499114990234e-01 4.324277341365814209e-01
4.805867671966552734e-01 -6.473096013069152832e-01 -1.765111684799194336e-01
2.337971478700637817e-01 -6.106772422790527344e-01 -1.928149759769439697e-01
6.217118501663208008e-01 -6.302660107612609863e-01 1.587108075618743896e-01
3.011025488376617432e-01 -5.856701135635375977e-01 -2.021016478538513184e-01
2.538069486618041992e-01 -7.110145688056945801e-01 -9.445986151695251465e-02
-1.904501318931579590e-01 -7.023193240165710449e-01 4.762342572212219238e-01
-1.220147907733917236e-01 -6.975717544555664062e-01 1.114111840724945068e-01
-9.129428863525390625e-02 -6.856644153594970703e-01 5.558967590332031250e-02
4.325621128082275391e-01 -5.625951886177062988e-01 -1.585762798786163330e-01
-1.784158647060394287e-01 -7.324252724647521973e-01 3.450340926647186279e-01
4.645541310310363770e-01 -7.628778219223022461e-01 4.476968348026275635e-01
-1.381528973579406738e-01 -7.533535361289978027e-01 4.222383797168731689e-01
4.206117391586303711e-01 -7.808279991149902344e-01 7.107724249362945557e-02
-2.046447098255157471e-01 -6.449526548385620117e-01 4.368638992309570312e-01
5.772627592086791992e-01 -7.704366445541381836e-01 1.437298059463500977e-01
4.869827628135681152e-01 -6.513800621032714844e-01 3.747009634971618652e-01
6.012264490127563477e-01 -5.957401990890502930e-01 3.286172449588775635e-02
-1.622186601161956787e-02 -5.364836454391479492e-01 -7.764413952827453613e-03
-1.972518265247344971e-01 -7.138670086860656738e-01 2.924686670303344727e-01
5.764849185943603516e-01 -6.967475414276123047e-01 3.382447957992553711e-01
3.617946207523345947e-01 -5.650578737258911133e-01 2.642874121665954590e-01
1.067063212394714355e-02 -6.909563541412353516e-01 5.835120081901550293e-01
-7.473209500312805176e-02 -5.986429452896118164e-01 -3.357443213462829590e-02
-1.426237225532531738e-01 -6.567482948303222656e-01 5.064640641212463379e-01
3.078834116458892822e-01 -5.183231830596923828e-01 2.802073955535888672e-03
-4.906252026557922363e-03 -5.234131813049316406e-01 1.265660226345062256e-01
6.172605752944946289e-01 -6.751280426979064941e-01 -7.897418737411499023e-02
2.045896351337432861e-01 -5.143132209777832031e-01 -3.670853376388549805e-02
6.118767261505126953e-01 -6.136621236801147461e-01 1.192989125847816467e-01
4.785571098327636719e-01 -5.954658985137939453e-01 2.603490054607391357e-01
-1.384558975696563721e-01 -5.763194561004638672e-01 5.613012611865997314e-02
2.415962219238281250e-01 -5.842228531837463379e-01 3.856978118419647217e-01
5.400666594505310059e-01 -7.309659719467163086e-01 3.904294371604919434e-01
1.407065391540527344e-01 -7.971355915069580078e-01 1.993111670017242432e-01
-8.292827010154724121e-02 -5.763531327247619629e-01 -1.524449884891510010e-02
4.319559335708618164e-01 -5.523868203163146973e-01 1.434639692306518555e-01
-1.669941842555999756e-02 -6.618320941925048828e-01 5.556715726852416992e-01
3.202403187751770020e-01 -6.716409921646118164e-01 -1.638313829898834229e-01
3.564884662628173828e-01 -8.088036179542541504e-01 4.330800771713256836e-01
5.756458044052124023e-01 -7.460137009620666504e-01 3.382843136787414551e-01
1.421786546707153320e-01 -5.140317678451538086e-01 1.090871393680572510e-01
-4.755240678787231445e-02 -7.832534313201904297e-01 4.440337717533111572e-01
6.490349769592285156e-02 -5.777778625488281250e-01 4.069156646728515625e-01
6.579241156578063965e-02 -5.646834373474121094e-01 -1.211392879486083984e-01
9.763351827859878540e-02 -7.825454473495483398e-01 1.623290479183197021e-01
5.048213005065917969e-01 -6.924603581428527832e-01 -1.237854957580566406e-01
4.438708126544952393e-01 -8.070967793464660645e-01 2.437450587749481201e-01
2.927643060684204102e-01 -7.767721414566040039e-01 5.782634019851684570e-02
-1.497505307197570801e-01 -6.012796163558959961e-01 4.978597164154052734e-02
-1.983307301998138428e-02 -7.810861468315124512e-01 2.776703238487243652e-01
-2.234110236167907715e-01 -7.007821202278137207e-01 3.534212112426757812e-01
4.717535376548767090e-01 -6.413739323616027832e-01 3.708869516849517822e-01
-3.258994221687316895e-02 -6.050323247909545898e-01 4.642289876937866211e-01
1.311513781547546387e-01 -8.151919245719909668e-01 4.089934229850769043e-01
1.340688765048980713e-01 -7.397289276123046875e-01 5.958904027938842773e-01
-1.237018406391143799e-01 -6.334821581840515137e-01 4.861947596073150635e-01
-5.437055230140686035e-02 -5.616765618324279785e-01 3.376852571964263916e-01
-2.245064079761505127e-02 -5.311897993087768555e-01 1.971995383501052856e-01
2.117866277694702148e-02 -7.996021509170532227e-01 4.262947440147399902e-01
3.289056420326232910e-01 -8.157013058662414551e-01 2.510825991630554199e-01
2.138343900442123413e-01 -5.439367890357971191e-01 2.685189545154571533e-01
3.411716222763061523e-01 -5.560492277145385742e-01 -1.752097010612487793e-01
5.440171957015991211e-01 -7.744238376617431641e-01 1.128019466996192932e-01
5.599339008331298828e-01 -6.576429009437561035e-01 -1.374559402465820312e-01
1.776094883680343628e-01 -7.217458486557006836e-01 -5.042736232280731201e-02
1.739351004362106323e-01 -6.647778749465942383e-01 5.494223833084106445e-01
-1.571077108383178711e-02 -7.620494961738586426e-01 1.804792881011962891e-01
2.382979840040206909e-01 -7.005252838134765625e-01 -1.083501279354095459e-01
4.184179902076721191e-01 -6.678535342216491699e-01 -1.698566675186157227e-01
1.931697130203247070e-01 -5.129606127738952637e-01 -2.049393951892852783e-02
3.732896447181701660e-01 -7.297474145889282227e-01 -7.493400573730468750e-02
2.415249049663543701e-01 -7.145004868507385254e-01 -8.501762151718139648e-02
3.998901844024658203e-01 -5.650004148483276367e-01 2.335200309753417969e-01
3.381842374801635742e-01 -7.630310058593750000e-01 5.305492281913757324e-01
6.007685661315917969e-01 -7.634844183921813965e-01 2.320473492145538330e-01
3.310379683971405029e-01 -5.235297083854675293e-01 -6.027975678443908691e-02
4.665319621562957764e-01 -8.032677173614501953e-01 2.335184514522552490e-01
3.926994204521179199e-01 -5.314276814460754395e-01 -5.206975340843200684e-02
1.067809462547302246e-01 -7.873369455337524414e-01 1.762989461421966553e-01
3.799073100090026855e-01 -5.278528332710266113e-01 -1.152470707893371582e-02
6.443337202072143555e-01 -6.701835393905639648e-01 2.032989561557769775e-01
-4.674375057220458984e-02 -6.023074388504028320e-01 4.552725851535797119e-01
-1.168704032897949219e-02 -7.165196537971496582e-01 4.603245854377746582e-02
6.246197223663330078e-01 -7.512012720108032227e-01 2.042972445487976074e-01
1.131289601325988770e-01 -5.363184213638305664e-01 2.611640691757202148e-01
4.240130484104156494e-01 -7.286853194236755371e-01 4.884988069534301758e-01
-1.058883070945739746e-01 -6.593737006187438965e-01 3.154991567134857178e-02
5.421979427337646484e-01 -7.690877914428710938e-01 8.444743603467941284e-02
2.116490006446838379e-01 -5.375769138336181641e-01 2.423496842384338379e-01
4.614236950874328613e-01 -7.049087882041931152e-01 4.529776871204376221e-01
5.248433351516723633e-02 -5.449970364570617676e-01 2.992977499961853027e-01
-1.269590854644775391e-01 -5.636813044548034668e-01 2.918567657470703125e-01
-1.878723800182342529e-01 -7.278741598129272461e-01 3.575777411460876465e-01
-1.804597377777099609e-01 -6.025353670120239258e-01 9.705166518688201904e-02
2.020875513553619385e-01 -7.905888557434082031e-01 1.361483037471771240e-01
-1.110360622406005859e-01 -5.676618218421936035e-01 3.259563148021697998e-01
7.284736633300781250e-02 -7.768499851226806641e-01 1.577632427215576172e-01
3.140206634998321533e-02 -5.993266701698303223e-01 -1.131219863891601562e-01
1.137430965900421143e-02 -5.245051383972167969e-01 2.109980583190917969e-02
5.561569929122924805e-01 -5.770745277404785156e-01 5.386303365230560303e-02
4.807012975215911865e-01 -8.013807535171508789e-01 2.413718998432159424e-01
6.355922222137451172e-01 -7.342411875724792480e-01 7.152737677097320557e-02
5.287364721298217773e-01 -5.638931393623352051e-01 -1.683224737644195557e-02
2.406203895807266235e-01 -6.033071279525756836e-01 4.307761490345001221e-01
4.821829199790954590e-01 -5.528775453567504883e-01 -7.183972001075744629e-02
