1.424010694026947021e-01 3.101812675595283508e-02 1.279228478670120239e-01
2.754156887531280518e-01 5.041313543915748596e-02 -1.200366094708442688e-01
2.590059041976928711e-01 -1.883047074079513550e-02 4.244728982448577881e-01
2.521921694278717041e-01 1.710803806781768799e-02 3.290509879589080811e-01
-2.574753761291503906e-02 -9.221887588500976562e-02 -1.165427938103675842e-01
2.242019027471542358e-01 -1.167193949222564697e-01 -8.560009300708770752e-02
1.477668583393096924e-01 3.555161133408546448e-02 7.781571894884109497e-02
2.088823169469833374e-01 3.743312880396842957e-02 -2.064551711082458496e-01
1.883620023727416992e-02 -6.275610625743865967e-02 3.061372339725494385e-01
1.785547882318496704e-01 -9.126844257116317749e-02 -2.679689228534698486e-01
9.063069522380828857e-02 2.223891019821166992e-02 7.095571607351303101e-02
2.728380262851715088e-01 -5.792620778083801270e-02 -3.200641870498657227e-01
-1.268307864665985107e-02 -1.658427156507968903e-02 -2.949314564466476440e-02
3.660405278205871582e-01 2.428949251770973206e-02 2.837551236152648926e-01
-3.339877724647521973e-02 -4.837770015001296997e-02 1.530486196279525757e-01
2.797110676765441895e-01 -1.089144349098205566e-01 2.537305355072021484e-01
1.761069744825363159e-01 -7.457961887121200562e-02 -3.194023966789245605e-01
9.147431701421737671e-02 -1.280729323625564575e-01 -2.382336929440498352e-02
3.207922875881195068e-01 -1.072959750890731812e-01 7.210634648799896240e-02
6.886592507362365723e-02 -1.054562181234359741e-01 -1.946694254875183105e-01
1.387473642826080322e-01 -1.075344234704971313e-01 -2.023969888687133789e-01
2.178950607776641846e-01 -7.169749587774276733e-03 -3.614148795604705811e-01
5.355367064476013184e-02 -9.738188236951828003e-03 2.357804775238037109e-01
1.940065920352935791e-01 -1.180341541767120361e-01 -1.065979078412055969e-01
1.772437095642089844e-01 3.798997774720191956e-02 -1.595056354999542236e-01
1.042786464095115662e-01 1.546531170606613159e-02 1.878185868263244629e-01
3.098614215850830078e-01 -1.062487363815307617e-01 2.092002630233764648e-01
-4.197308421134948730e-02 -9.801916778087615967e-02 7.071457803249359131e-02
3.937441706657409668e-01 -8.341243863105773926e-02 1.556157469749450684e-01
1.520390510559082031e-01 -1.231026649475097656e-01 2.500414252281188965e-01
1.365171074867248535e-01 -9.819437563419342041e-02 3.738841414451599121e-01
3.739745020866394043e-01 -8.661826699972152710e-02 2.171403467655181885e-01
2.692733407020568848e-01 7.645796984434127808e-03 -3.363632559776306152e-01
-7.666170597076416016e-03 -1.378109306097030640e-02 1.167513988912105560e-02
1.023381948471069336e-02 -1.199615448713302612e-01 2.060307934880256653e-02
7.784448564052581787e-02 -3.957033157348632812e-03 2.546825408935546875e-01
4.473100602626800537e-01 -2.200505137443542480e-02 -1.532506346702575684e-01
-1.545633375644683838e-02 -7.348936051130294800e-02 2.413204908370971680e-01
4.351540803909301758e-01 -6.122160702943801880e-02 -1.885927841067314148e-02
-4.548844695091247559e-02 -4.895133525133132935e-02 9.087672829627990723e-02
4.073172807693481445e-01 -6.104574725031852722e-02 -1.256417334079742432e-01
2.667113244533538818e-01 -1.155406981706619263e-01 2.032537460327148438e-01
8.398815989494323730e-02 -1.215625554323196411e-01 2.397532761096954346e-01
5.729258060455322266e-02 -1.208424568176269531e-03 -2.175298929214477539e-01
3.890345096588134766e-01 -8.225616812705993652e-02 -2.071073278784751892e-02
1.966687738895416260e-01 -5.561136454343795776e-02 -3.532126545906066895e-01
3.712199926376342773e-01 -9.238106012344360352e-02 1.357919871807098389e-01
1.702107638120651245e-01 -1.144230216741561890e-01 3.100053369998931885e-01
2.131758630275726318e-01 4.126616939902305603e-02 1.467669308185577393e-01
2.284236550331115723e-01 -7.230354100465774536e-02 -3.101545572280883789e-01
1.696217358112335205e-01 -5.917184054851531982e-03 -3.492433726787567139e-01
4.460834264755249023e-01 9.142793715000152588e-04 -1.677383184432983398e-01
1.393429934978485107e-02 -2.830054610967636108e-02 -2.256838679313659668e-01
2.191547751426696777e-01 4.922439530491828918e-02 -2.901969850063323975e-02
6.765653192996978760e-02 -1.226805746555328369e-01 2.134010195732116699e-01
1.206720247864723206e-01 -1.249815821647644043e-01 -7.311242073774337769e-02
3.502585291862487793e-01 1.109644025564193726e-02 3.401838243007659912e-01
1.922990381717681885e-01 1.386817917227745056e-02 -3.126629889011383057e-01
4.034767746925354004e-01 -3.983547165989875793e-02 -2.112759947776794434e-01
1.999536156654357910e-01 1.240281760692596436e-02 3.234503567218780518e-01
3.263584673404693604e-01 3.847568854689598083e-02 2.241445183753967285e-01
5.589163303375244141e-02 -1.283027380704879761e-01 5.582172051072120667e-02
1.305172741413116455e-01 -1.060290336608886719e-01 3.464260697364807129e-01
1.760363429784774780e-01 4.189527407288551331e-02 -9.412809461355209351e-02
7.374137639999389648e-02 -1.215377151966094971e-01 -9.092506021261215210e-02
2.012233436107635498e-01 -1.274835020303726196e-01 5.750419199466705322e-02
2.130437195301055908e-01 -9.282819926738739014e-02 -2.479448914527893066e-01
4.415517449378967285e-01 -5.972494930028915405e-02 7.069448009133338928e-03
2.693346142768859863e-02 -7.852628827095031738e-03 -1.757083237171173096e-01
1.538549512624740601e-01 3.914988413453102112e-02 -5.592239648103713989e-02
4.588787257671356201e-01 1.514055579900741577e-02 -1.090965792536735535e-01
9.994258731603622437e-02 -1.712702214717864990e-04 2.730683088302612305e-01
4.485122561454772949e-01 2.527604624629020691e-02 1.601684689521789551e-01
4.062041938304901123e-01 3.329856321215629578e-02 1.967658698558807373e-01
1.943770200014114380e-01 -1.068059951066970825e-01 3.439680337905883789e-01
3.706578314304351807e-01 4.497195407748222351e-02 1.448938548564910889e-01
2.289022356271743774e-01 -1.230296939611434937e-01 1.629347167909145355e-02
6.057466566562652588e-02 -1.746650598943233490e-02 -2.804077863693237305e-01
3.334607481956481934e-01 -8.489176630973815918e-02 3.236833810806274414e-01
3.285774886608123779e-01 5.399698391556739807e-02 1.919522695243358612e-02
7.503932714462280273e-02 2.003620192408561707e-02 -4.789011180400848389e-02
3.161337971687316895e-01 -1.539147458970546722e-02 4.097368121147155762e-01
-5.475449562072753906e-02 -6.929959356784820557e-02 8.859091252088546753e-02
4.466276168823242188e-01 -4.634579643607139587e-02 2.276780009269714355e-01
2.956058979034423828e-01 5.429509654641151428e-02 -2.040867879986763000e-02
2.180165797472000122e-01 -5.601947009563446045e-02 4.452207982540130615e-01
3.106497228145599365e-02 -2.342083305120468140e-02 -2.474641799926757812e-01
8.223013579845428467e-02 -2.808269113302230835e-03 -2.683917284011840820e-01
1.145254597067832947e-01 1.123522222042083740e-02 -2.561163008213043213e-01
1.854991912841796875e-01 3.884765878319740295e-02 1.291507035493850708e-01
1.108058020472526550e-01 2.337452024221420288e-02 1.308787018060684204e-01
4.307197332382202148e-01 -3.509669378399848938e-02 -1.665012538433074951e-01
1.004272326827049255e-01 -9.945935010910034180e-02 3.542624413967132568e-01
2.176421880722045898e-02 -2.318430691957473755e-03 7.638084888458251953e-02
2.181841731071472168e-01 -1.259515732526779175e-01 8.665454387664794922e-02
1.234517693519592285e-01 2.883120253682136536e-02 1.010840088129043579e-01
7.580071687698364258e-03 -1.167800873517990112e-01 1.432041972875595093e-01
2.926877737045288086e-01 5.285255983471870422e-02 -8.172175288200378418e-02
2.364305555820465088e-01 -3.281407430768013000e-02 4.397292137145996094e-01
1.995101869106292725e-01 -6.388440728187561035e-02 4.405025839805603027e-01
3.543495535850524902e-01 -4.883032292127609253e-02 3.919641077518463135e-01
1.828065812587738037e-01 4.367529973387718201e-02 -7.371085137128829956e-02
1.347314119338989258e-01 -7.266546785831451416e-02 4.169257283210754395e-01
3.581829667091369629e-01 -5.296510457992553711e-02 -2.489503920078277588e-01
4.489326775074005127e-01 2.671108767390251160e-02 -9.106712788343429565e-02
-4.198718070983886719e-02 -7.066514343023300171e-02 -1.203249022364616394e-01
3.931861519813537598e-01 4.063301905989646912e-02 -1.355620324611663818e-01
2.831234931945800781e-01 5.367674306035041809e-02 -4.604054242372512817e-02
1.655978709459304810e-01 1.066283881664276123e-02 3.034825921058654785e-01
3.943812251091003418e-01 4.782907292246818542e-02 -3.655028343200683594e-02
1.964781284332275391e-01 4.640186950564384460e-02 -2.886713296175003052e-02
2.418588101863861084e-02 -1.207048445940017700e-01 -2.539211139082908630e-02
5.887567996978759766e-03 -5.551860481500625610e-02 2.763388752937316895e-01
3.857035636901855469e-01 -1.659971103072166443e-02 -2.706481516361236572e-01
1.460866630077362061e-01 -1.304055005311965942e-01 1.469574868679046631e-01
3.133580684661865234e-01 -6.128933280706405640e-02 -2.789058685302734375e-01
4.823939502239227295e-01 -2.408312447369098663e-02 1.304181516170501709e-01
4.233576655387878418e-01 -6.111068278551101685e-02 -7.444030046463012695e-02
3.474420309066772461e-01 2.063963934779167175e-02 3.090213537216186523e-01
-8.986130356788635254e-03 -1.140371412038803101e-01 6.091440096497535706e-03
3.774908185005187988e-01 1.363272219896316528e-02 -2.614142000675201416e-01
2.363220900297164917e-01 5.099068954586982727e-02 -1.393708586692810059e-02
4.623317122459411621e-01 2.775064483284950256e-02 6.531461328268051147e-02
4.560933113098144531e-01 -2.957248687744140625e-02 2.428550720214843750e-01
1.209686100482940674e-01 2.469449862837791443e-02 -1.799248456954956055e-01
1.276574134826660156e-01 -1.115024685859680176e-01 -1.804180145263671875e-01
1.648132652044296265e-01 -1.304616034030914307e-01 1.126366555690765381e-01
2.408534288406372070e-03 -7.811211794614791870e-02 -2.148151695728302002e-01
4.146928191184997559e-01 -7.431662827730178833e-02 1.570186764001846313e-01
1.332518756389617920e-01 -1.313290446996688843e-01 1.230735480785369873e-01
2.502259910106658936e-01 4.846862331032752991e-02 -1.301659345626831055e-01
1.025633588433265686e-01 2.060417458415031433e-02 -1.731990873813629150e-01
2.739490568637847900e-02 -2.212468534708023071e-03 -1.340861916542053223e-01
3.683340549468994141e-02 -2.026083320379257202e-02 2.474202811717987061e-01
4.789409041404724121e-02 -1.041176356375217438e-02 -2.386800646781921387e-01
1.576156020164489746e-01 2.186496555805206299e-02 -2.553180754184722900e-01
2.440239191055297852e-01 4.913259670138359070e-02 8.082196116447448730e-02
2.064088732004165649e-01 2.820614352822303772e-02 2.472499012947082520e-01
2.763839066028594971e-01 -7.822453975677490234e-02 -2.599264085292816162e-01
3.798220157623291016e-01 3.486672416329383850e-02 2.179349064826965332e-01
2.178050428628921509e-01 -5.351237580180168152e-02 -3.521870672702789307e-01
4.229505956172943115e-01 1.586567983031272888e-02 2.573912441730499268e-01
1.662126183509826660e-01 3.389682620763778687e-03 -3.288624286651611328e-01
9.028057754039764404e-02 2.221172675490379333e-02 -1.111493632197380066e-01
3.291188478469848633e-01 4.256368055939674377e-02 1.927439868450164795e-01
3.883908987045288086e-01 -3.074124827980995178e-02 -2.532440721988677979e-01
3.215015530586242676e-01 -5.655715242028236389e-02 4.109493196010589600e-01
-2.604678273200988770e-02 -3.673814609646797180e-02 1.341990530490875244e-01
-1.653853058815002441e-02 -2.339142933487892151e-02 -1.009159609675407410e-01
3.534488081932067871e-01 5.170800909399986267e-02 6.319320201873779297e-02
3.540890812873840332e-01 4.911055788397789001e-02 -1.097360327839851379e-01
-5.833211541175842285e-02 -7.676273584365844727e-02 2.419486269354820251e-02
1.994960010051727295e-01 4.471883550286293030e-02 6.901583075523376465e-02
4.643673300743103027e-01 -4.709431901574134827e-02 5.956351384520530701e-02
2.431012392044067383e-01 -8.264271914958953857e-02 -2.697091996669769287e-01
4.577400386333465576e-01 2.904156222939491272e-02 -2.694419026374816895e-02
4.624682664871215820e-02 -1.251897662878036499e-01 1.443801522254943848e-01
-5.687281489372253418e-03 -5.355615541338920593e-02 2.488307356834411621e-01
2.571835517883300781e-01 -1.160255074501037598e-01 -3.361652046442031860e-02
3.418800830841064453e-01 5.291789397597312927e-02 4.650075361132621765e-02
4.279032349586486816e-01 2.791931107640266418e-02 1.935420930385589600e-01
2.633881866931915283e-01 -1.031903028488159180e-01 -1.473968625068664551e-01
2.938972115516662598e-01 -1.122329533100128174e-01 2.584097906947135925e-02
2.985444068908691406e-01 3.167868033051490784e-02 2.682823836803436279e-01
4.345863163471221924e-01 -6.639173626899719238e-02 9.050221741199493408e-02
2.965344488620758057e-01 -1.106213182210922241e-01 1.878032088279724121e-01
1.608921587467193604e-01 3.312717005610466003e-02 1.461603343486785889e-01
4.097822010517120361e-01 -1.896097697317600250e-02 3.392300009727478027e-01
3.549664020538330078e-01 -9.791890531778335571e-02 7.092218101024627686e-02
4.063403606414794922e-01 -7.476854324340820312e-02 -2.576801180839538574e-02
8.559113740921020508e-02 -1.114861071109771729e-01 3.012794256210327148e-01
2.957533001899719238e-01 -1.130466759204864502e-01 7.197849452495574951e-02
2.931624948978424072e-01 4.359650984406471252e-02 -1.944580376148223877e-01
9.416416287422180176e-02 -1.198619008064270020e-01 -1.169155165553092957e-01
3.986084461212158203e-01 -4.949684813618659973e-02 -1.932595372200012207e-01
6.419982016086578369e-02 -6.399729102849960327e-02 -3.048303127288818359e-01
2.232544720172882080e-01 -1.113292127847671509e-01 -1.348623335361480713e-01
4.020870923995971680e-01 7.037680596113204956e-03 3.106110095977783203e-01
2.937249243259429932e-01 4.835493490099906921e-02 -1.512027382850646973e-01
4.497872889041900635e-01 1.718306541442871094e-02 -1.303429305553436279e-01
6.358796358108520508e-02 -1.190880089998245239e-01 2.378454506397247314e-01
2.213116735219955444e-01 -1.131492108106613159e-01 2.939106225967407227e-01
3.736529946327209473e-01 3.579771891236305237e-02 -1.936090588569641113e-01
2.397418171167373657e-01 -1.127909421920776367e-01 -1.023698076605796814e-01
1.620186567306518555e-01 -1.220590025186538696e-01 -9.137699753046035767e-02
-2.612078189849853516e-02 -1.080670356750488281e-01 6.243120878934860229e-02
4.500844478607177734e-01 -4.197108000516891479e-02 -8.519269526004791260e-02
3.537327349185943604e-01 -9.747360646724700928e-02 1.519653201103210449e-01
2.614073455333709717e-01 2.668350562453269958e-02 2.881520390510559082e-01
4.081135988235473633e-02 -9.374881535768508911e-02 3.144772946834564209e-01
3.407527208328247070e-01 5.364770069718360901e-02 -2.151709794998168945e-02
6.389525532722473145e-02 1.352350413799285889e-02 7.997335493564605713e-02
4.383539557456970215e-01 3.684984520077705383e-02 7.876700162887573242e-02
2.517370283603668213e-01 5.202026292681694031e-02 -4.677024483680725098e-02
8.837984502315521240e-02 -9.716614335775375366e-02 -2.403016388416290283e-01
1.051635742187500000e-01 -1.026579886674880981e-01 -2.232580482959747314e-01
-1.968613266944885254e-02 -5.574881285429000854e-02 2.170907557010650635e-01
2.949143648147583008e-01 -2.326130308210849762e-02 4.253419041633605957e-01
3.476443886756896973e-01 -2.119040489196777344e-02 -3.103148341178894043e-01
4.542008638381958008e-01 -5.288922041654586792e-02 2.336416393518447876e-02
3.213854432106018066e-01 -1.044943332672119141e-01 1.929313540458679199e-01
8.748124539852142334e-02 1.696671172976493835e-02 1.305251717567443848e-01
2.320425063371658325e-01 3.909271582961082458e-02 -2.113922536373138428e-01
1.756569892168045044e-01 -1.005491092801094055e-01 -2.297859191894531250e-01
2.927468419075012207e-01 -1.032070219516754150e-01 -9.951276332139968872e-02
4.042211771011352539e-01 1.042477041482925415e-02 -2.336012423038482666e-01
2.145035564899444580e-01 -9.290099889039993286e-02 3.903532326221466064e-01
2.247400581836700439e-01 -1.242643445730209351e-01 1.514105945825576782e-01
2.844692170619964600e-01 5.394163355231285095e-02 4.655398428440093994e-03
1.709198951721191406e-02 -7.820202410221099854e-02 -2.357888519763946533e-01
4.274408221244812012e-01 -4.979133978486061096e-02 2.743447124958038330e-01
4.778594374656677246e-01 1.467833667993545532e-02 1.000286415219306946e-01
2.286496460437774658e-01 7.802288979291915894e-03 -3.381261527538299561e-01
3.367241322994232178e-01 2.656481787562370300e-02 2.881994843482971191e-01
1.784435510635375977e-01 2.923904731869697571e-02 2.097168862819671631e-01
4.550104141235351562e-01 2.945769950747489929e-02 9.630319476127624512e-02
2.045599371194839478e-01 2.629442885518074036e-02 -2.708106040954589844e-01
2.458503842353820801e-01 -1.038488894701004028e-01 3.309724330902099609e-01
3.756324648857116699e-01 4.191891476511955261e-02 -1.528289914131164551e-01
-1.076248288154602051e-02 -1.143603473901748657e-01 3.909597545862197876e-02
2.582572400569915771e-02 -1.027815043926239014e-01 -1.678351163864135742e-01
1.211410090327262878e-01 -1.317533552646636963e-01 9.936633706092834473e-02
7.961295545101165771e-02 -6.497569382190704346e-02 3.824288845062255859e-01
3.414852619171142578e-01 -1.012430936098098755e-01 4.472956806421279907e-02
1.603937149047851562e-01 -9.030404686927795410e-02 -2.749396860599517822e-01
1.226747035980224609e-02 -8.747713267803192139e-02 2.845351397991180420e-01
1.755681782960891724e-01 3.582532331347465515e-02 -1.796605288982391357e-01
1.799162924289703369e-01 4.393431916832923889e-02 -9.735997766256332397e-03
3.418681621551513672e-01 3.106350824236869812e-02 2.640334069728851318e-01
-4.089936614036560059e-02 -8.660594373941421509e-02 1.480125486850738525e-01
-4.962366819381713867e-02 -8.389806002378463745e-02 -5.369488149881362915e-02
7.900193333625793457e-02 -1.303803920745849609e-01 6.225850805640220642e-02
3.804775476455688477e-01 4.800004884600639343e-02 -7.979937642812728882e-02
2.620849013328552246e-01 -1.189360469579696655e-01 4.451071843504905701e-02
3.800539970397949219e-01 -8.817289769649505615e-02 2.120908349752426147e-02
2.392521798610687256e-01 -7.398985326290130615e-03 4.014454185962677002e-01
4.102715253829956055e-01 -7.425842434167861938e-02 1.874446272850036621e-01
3.791702985763549805e-01 -6.876519322395324707e-02 -1.538316607475280762e-01
1.906873732805252075e-01 -1.187094673514366150e-02 -3.632475137710571289e-01
-3.830033540725708008e-02 -3.508002310991287231e-02 -2.696006745100021362e-02
1.341155171394348145e-01 -1.312020719051361084e-01 4.141381755471229553e-02
1.909642219543457031e-01 -9.565593302249908447e-02 -2.462655901908874512e-01
7.997146248817443848e-02 -7.606574892997741699e-02 -2.963352203369140625e-01
2.187627255916595459e-01 4.823609068989753723e-02 -7.887518405914306641e-02
2.836028337478637695e-01 5.296066775918006897e-02 4.881139844655990601e-02
5.726358294486999512e-02 -9.728652983903884888e-02 3.250305354595184326e-01
3.864263892173767090e-01 4.963393881916999817e-02 1.507600210607051849e-02
6.473203003406524658e-02 -2.123050391674041748e-03 2.193739712238311768e-01
4.939937591552734375e-02 1.169134676456451416e-02 -3.561127185821533203e-02
4.271320998668670654e-02 -1.129615604877471924e-01 -1.300750076770782471e-01
4.568706452846527100e-02 1.289904117584228516e-03 1.447142958641052246e-01
3.969429135322570801e-01 -8.359578996896743774e-02 8.793942630290985107e-02
7.950097322463989258e-02 1.124561950564384460e-02 1.619296371936798096e-01
5.239471793174743652e-03 -1.165846586227416992e-01 -2.347983419895172119e-02
8.914348483085632324e-02 1.980103924870491028e-02 1.022642105817794800e-01
-3.705224394798278809e-02 -5.368388071656227112e-02 -1.349425017833709717e-01
2.343519032001495361e-02 -1.080418676137924194e-01 -1.366289556026458740e-01
1.225545406341552734e-01 -1.122549325227737427e-01 3.173935413360595703e-01
1.049921438097953796e-01 -1.187640726566314697e-01 2.738246917724609375e-01
3.819811344146728516e-01 -6.087022274732589722e-02 3.352231085300445557e-01
1.805225014686584473e-01 4.358485341072082520e-03 3.413665294647216797e-01
4.720830619335174561e-01 -3.568192198872566223e-02 1.515906006097793579e-01
1.948941349983215332e-01 4.505990073084831238e-02 4.481674358248710632e-02
4.022195637226104736e-01 -7.185242325067520142e-02 2.422418892383575439e-01
2.222200632095336914e-01 4.703986272215843201e-02 -1.144509837031364441e-01
-2.030050754547119141e-02 -4.566567763686180115e-02 -1.780079603195190430e-01
2.476964741945266724e-01 -1.210356801748275757e-01 1.534590423107147217e-01
4.765686690807342529e-01 3.276746720075607300e-03 -6.770623475313186646e-02
2.863151133060455322e-01 -1.151545643806457520e-01 9.101711213588714600e-02
2.392967939376831055e-01 -4.139802977442741394e-02 -3.606473803520202637e-01
1.055845171213150024e-01 -1.303598582744598389e-01 1.459084451198577881e-01
3.489804267883300781e-01 -8.627280592918395996e-02 2.887898385524749756e-01
2.552354633808135986e-01 -6.674760580062866211e-02 -3.105327188968658447e-01
1.009533479809761047e-01 2.653364464640617371e-02 -8.172944188117980957e-02
2.119061350822448730e-02 -4.332635924220085144e-02 2.853397428989410400e-01
4.006761908531188965e-01 -3.306211531162261963e-02 -2.303858101367950439e-01
2.975021004676818848e-01 3.716914728283882141e-02 2.347498834133148193e-01
1.812067627906799316e-02 -3.288644552230834961e-02 2.525700628757476807e-01
8.179877698421478271e-02 -3.396355360746383667e-02 3.553573191165924072e-01
4.338981509208679199e-01 -5.911985784769058228e-02 -4.517779499292373657e-02
1.028925180435180664e-01 1.601539552211761475e-02 -2.102230191230773926e-01
2.812286615371704102e-01 -8.300420641899108887e-02 3.868342638015747070e-01
3.058170974254608154e-01 -1.100705564022064209e-01 1.537477970123291016e-01
1.876842081546783447e-01 -7.534345611929893494e-03 3.828538954257965088e-01
3.876945078372955322e-01 4.438873007893562317e-02 -1.114592328667640686e-01
2.989380657672882080e-01 2.678215131163597107e-02 2.936182618141174316e-01
2.191522270441055298e-01 -9.732174873352050781e-02 -2.238378226757049561e-01
1.201354563236236572e-01 1.909282431006431580e-02 -2.212208807468414307e-01
3.965359926223754883e-01 -8.335945010185241699e-02 5.850546061992645264e-02
-3.207823634147644043e-02 -3.807104006409645081e-02 1.112740412354469299e-01
5.729702115058898926e-02 -5.638901144266128540e-02 3.560943007469177246e-01
1.883999854326248169e-01 -1.248096078634262085e-01 -3.456214070320129395e-02
1.959464251995086670e-01 -1.280109286308288574e-01 1.250912249088287354e-01
3.324240446090698242e-02 -1.159131228923797607e-01 -9.568258374929428101e-02
2.998707890510559082e-01 2.034414559602737427e-03 -3.350178003311157227e-01
4.291270375251770020e-01 -6.200116872787475586e-02 2.096242606639862061e-01
2.372724860906600952e-01 -8.037266135215759277e-02 4.152913987636566162e-01
1.952111721038818359e-03 -8.644679188728332520e-02 -1.945639848709106445e-01
3.557249605655670166e-01 3.783492371439933777e-02 2.167375683784484863e-01
1.535647809505462646e-01 3.926380351185798645e-02 4.568696022033691406e-05
4.043684899806976318e-02 -8.939073979854583740e-02 -2.342763543128967285e-01
3.214118182659149170e-01 7.914640009403228760e-04 3.788892924785614014e-01
3.320781588554382324e-01 -2.353368327021598816e-02 -3.227575719356536865e-01
4.811137914657592773e-02 -5.290646106004714966e-02 -2.984552085399627686e-01
2.487198710441589355e-01 2.945048734545707703e-02 2.681623995304107666e-01
2.509647011756896973e-01 -1.154764890670776367e-01 -5.485689640045166016e-02
1.795169115066528320e-01 1.773083955049514771e-02 -2.921752035617828369e-01
4.227824211120605469e-01 -1.833062618970870972e-02 3.200292885303497314e-01
-5.059078335762023926e-03 -8.021898567676544189e-02 2.609319984912872314e-01
3.945839107036590576e-01 -6.982313096523284912e-02 2.761240899562835693e-01
1.319828480482101440e-01 -1.156468093395233154e-01 -1.535478234291076660e-01
1.659749150276184082e-01 3.641971573233604431e-02 1.179854273796081543e-01
1.135392859578132629e-01 -1.802906394004821777e-02 -3.360095322132110596e-01
2.502720355987548828e-01 -1.091806441545486450e-01 -1.193024590611457825e-01
4.257391393184661865e-01 1.496485248208045959e-02 -1.902767419815063477e-01
1.409361362457275391e-01 2.629018947482109070e-02 1.734199821949005127e-01
4.560174643993377686e-01 -4.693979769945144653e-02 -2.739767730236053467e-02
4.773357212543487549e-01 -2.476700395345687866e-02 -3.289308398962020874e-02
2.612775564193725586e-01 -1.195226162672042847e-01 6.494006514549255371e-02
2.674413025379180908e-01 -9.927301108837127686e-02 -1.683180928230285645e-01
4.614631831645965576e-01 2.138280496001243591e-02 1.413466334342956543e-01
2.222434431314468384e-01 4.632714763283729553e-02 9.247471392154693604e-02
4.796926677227020264e-01 -1.400434784591197968e-02 -5.038273334503173828e-02
-2.966693043708801270e-02 -2.912930399179458618e-02 4.431980848312377930e-02
3.930481374263763428e-01 -5.914778262376785278e-02 -1.687701046466827393e-01
4.152179956436157227e-01 -5.433319881558418274e-02 2.898711860179901123e-01
2.188690453767776489e-01 2.210170030593872070e-03 3.699370324611663818e-01
4.626940488815307617e-01 -4.306825250387191772e-02 1.680258512496948242e-01
3.321331143379211426e-01 2.472982183098793030e-02 -2.719919979572296143e-01
2.164455354213714600e-01 -1.019879579544067383e-01 -2.015530467033386230e-01
9.235452115535736084e-02 -1.280958056449890137e-01 1.773000061511993408e-01
2.900365293025970459e-01 1.524883881211280823e-02 3.416757583618164062e-01
2.112738937139511108e-01 -8.602654933929443359e-02 4.090574383735656738e-01
3.004114329814910889e-01 3.432008996605873108e-02 -2.487310767173767090e-01
3.740061521530151367e-01 3.874562680721282959e-04 3.517625927925109863e-01
4.162193536758422852e-01 -7.486554235219955444e-02 5.131313577294349670e-02
2.679732441902160645e-01 4.059292003512382507e-02 2.014770209789276123e-01
1.618947088718414307e-02 -1.889470964670181274e-03 -4.514314979314804077e-02
2.975408136844635010e-01 -1.124550104141235352e-01 1.333588510751724243e-01
-3.710940480232238770e-02 -9.956739097833633423e-02 -2.179869636893272400e-02
2.131546139717102051e-01 -1.138920709490776062e-02 4.032778143882751465e-01
1.880325973033905029e-01 -1.289954781532287598e-01 8.532668650150299072e-02
6.690530478954315186e-02 -2.676638215780258179e-02 3.201334774494171143e-01
2.766164839267730713e-01 9.846303611993789673e-03 3.596681952476501465e-01
2.352095693349838257e-01 4.402673617005348206e-02 -1.706679761409759521e-01
1.341182887554168701e-01 3.194543346762657166e-02 -1.318157315254211426e-01
4.401862621307373047e-01 3.775701299309730530e-02 3.040177375078201294e-02
1.548974215984344482e-01 2.599059417843818665e-02 2.005862295627593994e-01
6.040658056735992432e-02 -7.677093148231506348e-02 -2.820653617382049561e-01
2.709172368049621582e-01 -1.081888973712921143e-01 2.750006914138793945e-01
3.866803646087646484e-01 -8.316330611705780029e-02 2.018756568431854248e-01
-2.599920332431793213e-02 -8.336226642131805420e-02 2.068187892436981201e-01
4.590658545494079590e-01 -3.926777467131614685e-02 2.067434191703796387e-01
2.521378397941589355e-01 1.816111057996749878e-02 -3.136281073093414307e-01
1.620759069919586182e-02 -1.146832704544067383e-01 -7.584410160779953003e-02
1.832235753536224365e-01 3.304484859108924866e-02 1.852784454822540283e-01
-1.961882412433624268e-02 -1.094657629728317261e-01 1.037752926349639893e-01
-3.565123677253723145e-02 -7.227289676666259766e-02 -1.404106020927429199e-01
1.908543109893798828e-01 2.539690583944320679e-03 -3.412854671478271484e-01
3.264684379100799561e-01 -6.560201197862625122e-02 3.925583064556121826e-01
1.812151521444320679e-01 -1.226654648780822754e-01 -7.060570269823074341e-02
3.814054727554321289e-01 4.773119464516639709e-02 9.261462092399597168e-02
1.820598393678665161e-01 -1.245256513357162476e-01 2.212447524070739746e-01
3.555419445037841797e-01 -9.437307715415954590e-02 -1.255670934915542603e-02
1.655967533588409424e-02 -1.166287958621978760e-01 1.735613942146301270e-01
3.056521415710449219e-01 5.329825356602668762e-02 5.402629449963569641e-02
2.843729853630065918e-01 -6.208864599466323853e-02 -3.023930490016937256e-01
3.508062958717346191e-01 4.999827966094017029e-02 1.002046316862106323e-01
2.901295125484466553e-01 -6.529449671506881714e-02 4.193114042282104492e-01
2.442485690116882324e-01 5.016385391354560852e-02 5.868024379014968872e-02
1.454687118530273438e-01 -5.192599073052406311e-02 4.260425269603729248e-01
1.878313720226287842e-02 -5.270135402679443359e-02 -2.623561322689056396e-01
6.757935881614685059e-02 1.670991256833076477e-02 -8.208902925252914429e-02
-1.759253442287445068e-02 -5.537643283605575562e-02 -1.950281560420989990e-01
3.597472012042999268e-01 -4.057393595576286316e-02 -2.750234007835388184e-01
4.321057200431823730e-01 1.911569386720657349e-02 2.297521829605102539e-01
5.359441041946411133e-02 -1.281006038188934326e-01 7.843487709760665894e-02
1.645540893077850342e-01 -4.023673385381698608e-02 4.278648495674133301e-01
2.513727843761444092e-01 -1.004161536693572998e-01 -1.797913312911987305e-01
2.282781600952148438e-01 2.942937240004539490e-02 2.566435933113098145e-01
3.462427258491516113e-01 -9.631303697824478149e-02 2.115281820297241211e-01
1.396882086992263794e-01 1.169262826442718506e-02 -2.833940982818603516e-01
1.155424863100051880e-01 -1.212018877267837524e-01 -1.103672459721565247e-01
4.283485114574432373e-01 -3.535955026745796204e-02 3.031299114227294922e-01
9.221917390823364258e-02 -1.819927245378494263e-02 3.297069072723388672e-01
5.222879350185394287e-02 1.093011721968650818e-02 -9.312478452920913696e-02
3.553994894027709961e-01 3.497396782040596008e-02 -2.158358097076416016e-01
1.231519281864166260e-01 3.195321187376976013e-02 -8.393912762403488159e-02
3.286496996879577637e-01 -1.046628057956695557e-01 1.487852036952972412e-01
3.688049316406250000e-01 4.988859966397285461e-02 7.727202028036117554e-02
2.299437671899795532e-01 -8.072762191295623779e-02 -2.842699885368347168e-01
9.108738601207733154e-02 -8.580541610717773438e-02 -2.785840332508087158e-01
2.412714064121246338e-01 -5.568552017211914062e-02 -3.409592807292938232e-01
2.607353925704956055e-01 3.460828587412834167e-02 2.419571578502655029e-01
2.632670998573303223e-01 -9.017808735370635986e-02 3.766155242919921875e-01
3.513098955154418945e-01 -9.140872955322265625e-02 -6.445562094449996948e-02
2.658110260963439941e-01 4.428577795624732971e-02 -1.856864988803863525e-01
4.362997114658355713e-01 -4.859964177012443542e-02 2.535065114498138428e-01
2.134936600923538208e-01 3.218075260519981384e-02 2.269503474235534668e-01
1.772960722446441650e-01 2.538440749049186707e-02 -2.557579874992370605e-01
7.325378060340881348e-02 -1.285279691219329834e-01 1.429959833621978760e-01
3.100031316280364990e-01 4.677606746554374695e-02 -1.649678647518157959e-01
3.429495096206665039e-01 1.049270108342170715e-02 -2.979277372360229492e-01
2.285627424716949463e-01 -1.188336908817291260e-01 2.359366714954376221e-01
1.917133480310440063e-01 -1.278983056545257568e-01 3.677726909518241882e-02
2.272307872772216797e-01 -1.884102635085582733e-02 4.212959408760070801e-01
3.429353833198547363e-01 4.497503116726875305e-02 1.662607491016387939e-01
2.440548539161682129e-01 -1.141085624694824219e-01 -8.290400356054306030e-02
3.483654856681823730e-01 3.546738252043724060e-02 2.360382676124572754e-01
4.892976880073547363e-01 -1.487742364406585693e-02 7.908372581005096436e-02
7.259549200534820557e-02 -5.129212886095046997e-02 3.693816959857940674e-01
1.014960482716560364e-01 -5.912005901336669922e-03 2.997764647006988525e-01
2.454717904329299927e-01 -8.983362466096878052e-02 3.880005180835723877e-01
2.688142359256744385e-01 -6.966803222894668579e-03 4.035823345184326172e-01
2.561419606208801270e-01 5.174658074975013733e-02 -7.106496393680572510e-02
3.018088042736053467e-01 -8.976285904645919800e-02 -1.788740456104278564e-01
1.202953681349754333e-01 4.230108112096786499e-03 2.815279066562652588e-01
1.591594815254211426e-01 -6.851404905319213867e-03 3.624419867992401123e-01
1.307395100593566895e-01 2.091867476701736450e-02 1.985297799110412598e-01
4.800219833850860596e-02 -1.265920400619506836e-01 1.188371330499649048e-01
4.618023037910461426e-01 1.329860836267471313e-02 1.833859980106353760e-01
1.489788144826889038e-01 3.401799127459526062e-02 -1.460225880146026611e-01
1.002020165324211121e-01 -1.260667890310287476e-01 -5.691396445035934448e-02
9.974186122417449951e-02 1.129534095525741577e-02 2.086021006107330322e-01
1.507113575935363770e-01 -6.599700450897216797e-02 -3.376704156398773193e-01
3.316863775253295898e-01 1.943428069353103638e-03 -3.173311948776245117e-01
3.159818649291992188e-01 -7.741059362888336182e-02 -2.202356457710266113e-01
3.841072618961334229e-01 4.579239711165428162e-02 1.166753694415092468e-01
1.077099367976188660e-01 -6.981078535318374634e-02 4.035274088382720947e-01
4.905694425106048584e-01 -8.948357775807380676e-03 5.533630028367042542e-02
2.686808705329895020e-01 -7.131984084844589233e-02 4.205090701580047607e-01
3.900638222694396973e-02 -3.702431917190551758e-02 3.028278946876525879e-01
1.480346471071243286e-01 -1.186625212430953979e-01 -1.279697120189666748e-01
9.904978424310684204e-02 -1.170216053724288940e-01 -1.404573917388916016e-01
1.168679967522621155e-01 -8.743962645530700684e-02 3.901107311248779297e-01
3.016497492790222168e-01 -8.540979027748107910e-02 -2.020837068557739258e-01
4.298605918884277344e-01 3.103171661496162415e-02 -1.225182339549064636e-01
7.096950709819793701e-02 4.946067929267883301e-05 -2.387369573116302490e-01
4.448190331459045410e-01 3.277538344264030457e-02 -5.828082561492919922e-02
6.771680712699890137e-02 -3.362861648201942444e-02 -3.134489655494689941e-01
1.214048266410827637e-02 -1.632064208388328552e-02 1.627254784107208252e-01
2.093557119369506836e-01 -7.794962078332901001e-02 -3.022627234458923340e-01
1.903362572193145752e-01 4.322283342480659485e-02 -1.122424229979515076e-01
3.875803947448730469e-01 -8.020715415477752686e-02 -5.028743296861648560e-02
4.107689857482910156e-01 -7.775670289993286133e-02 7.352516800165176392e-02
3.559236228466033936e-02 -1.057115010917186737e-02 1.980559825897216797e-01
4.304349422454833984e-01 3.552770242094993591e-02 -8.802653104066848755e-02
2.103911489248275757e-01 4.235715791583061218e-02 -1.619828045368194580e-01
1.106252744793891907e-01 -1.280409991741180420e-01 -3.253725916147232056e-02
1.721540838479995728e-01 -1.235144138336181641e-01 2.392901182174682617e-01
3.228695094585418701e-01 3.235186263918876648e-02 -2.492169141769409180e-01
1.226882338523864746e-01 -1.302100569009780884e-01 7.272928953170776367e-03
2.988354861736297607e-01 4.899205639958381653e-02 1.288241147994995117e-01
3.453779518604278564e-01 -1.009242683649063110e-01 9.299449622631072998e-02
5.527538061141967773e-02 -1.049119979143142700e-01 3.000923693180084229e-01
2.219889014959335327e-01 2.141229435801506042e-02 2.965173125267028809e-01
2.270546853542327881e-01 -1.213133335113525391e-01 -2.226185426115989685e-02
1.239389181137084961e-01 -1.181832849979400635e-01 -1.353982985019683838e-01
1.342011094093322754e-01 3.498005494475364685e-02 -6.534019857645034790e-02
3.470706939697265625e-02 -1.211568564176559448e-01 -4.490446299314498901e-02
3.680389523506164551e-01 -7.805243134498596191e-02 -1.258298158645629883e-01
6.230436265468597412e-02 -1.551251299679279327e-02 2.771489322185516357e-01
1.596891880035400391e-01 3.772654756903648376e-02 -1.213996186852455139e-01
2.553070187568664551e-01 -8.568290621042251587e-02 -2.490668892860412598e-01
4.057858884334564209e-02 -1.249294579029083252e-01 2.260014414787292480e-03
3.099992275238037109e-01 5.435211583971977234e-02 9.172271937131881714e-03
1.683099269866943359e-01 4.204406961798667908e-02 -3.077344596385955811e-02
3.685534000396728516e-01 -8.621376752853393555e-02 2.398526072502136230e-01
1.593791842460632324e-01 -1.065230816602706909e-01 3.494250178337097168e-01
3.560443222522735596e-02 -6.727367639541625977e-02 -2.747057974338531494e-01
2.755136489868164062e-01 5.037275329232215881e-02 9.701286256313323975e-02
4.391273856163024902e-01 -6.286623328924179077e-02 1.328184008598327637e-01
2.831541299819946289e-01 -1.117815971374511719e-01 2.132329344749450684e-01
1.048335433006286621e-02 -9.931853413581848145e-02 2.543452680110931396e-01
3.449349105358123779e-01 -9.369269013404846191e-02 2.436326146125793457e-01
1.527575105428695679e-01 -1.242919564247131348e-01 -7.243300974369049072e-02
2.483427226543426514e-01 -1.172180324792861938e-01 2.221649289131164551e-01
3.135980367660522461e-01 -8.789499104022979736e-02 3.378275930881500244e-01
3.564166128635406494e-01 5.275220051407814026e-02 9.482063353061676025e-03
2.554192245006561279e-01 4.401582106947898865e-02 1.625978648662567139e-01
4.410126209259033203e-01 -4.285586252808570862e-02 -1.128821298480033875e-01
1.388926804065704346e-02 -4.180658608675003052e-03 4.792155697941780090e-02
-3.464028239250183105e-02 -1.028900146484375000e-01 6.260698661208152771e-03
2.254962027072906494e-01 -1.225792318582534790e-01 -3.323435783386230469e-03
1.543313264846801758e-02 -1.202688515186309814e-01 -1.579608768224716187e-03
7.692636549472808838e-02 -9.389356523752212524e-02 3.512274920940399170e-01
2.578033804893493652e-01 -1.203601211309432983e-01 9.458862245082855225e-02
1.158775612711906433e-01 -1.317726820707321167e-01 7.242910563945770264e-02
1.011437103152275085e-01 1.786518096923828125e-02 1.604006141424179077e-01
9.889484941959381104e-02 2.681428566575050354e-02 -5.049958080053329468e-02
1.246692985296249390e-01 3.283404931426048279e-02 2.152107097208499908e-02
4.109302759170532227e-01 3.645067289471626282e-02 1.658630967140197754e-01
1.719283163547515869e-01 4.177773371338844299e-02 3.606319800019264221e-02
1.516602337360382080e-01 7.298052310943603516e-03 -3.089121282100677490e-01
3.282147645950317383e-01 -9.483987092971801758e-02 -9.555240720510482788e-02
3.849750161170959473e-01 3.822961822152137756e-02 1.893901824951171875e-01
2.095856517553329468e-01 -1.001118421554565430e-01 3.674289882183074951e-01
4.756639599800109863e-01 -3.169805556535720825e-02 -7.280502468347549438e-03
3.273418545722961426e-01 -1.020584106445312500e-01 -1.795782893896102905e-02
4.103078246116638184e-01 -6.459505110979080200e-02 2.604089081287384033e-01
-3.476056456565856934e-02 -6.527774780988693237e-02 1.836549937725067139e-01
2.518568933010101318e-01 5.201876163482666016e-03 3.708804249763488770e-01
4.089400172233581543e-01 -4.690671339631080627e-02 3.216525614261627197e-01
1.559564471244812012e-01 -9.833198785781860352e-02 3.778032064437866211e-01
-2.130286395549774170e-02 -1.062201559543609619e-01 -4.084820300340652466e-02
2.126604318618774414e-02 -1.113249361515045166e-01 2.228815555572509766e-01
3.602362871170043945e-01 5.200323089957237244e-02 3.895375877618789673e-02
5.508363246917724609e-03 -1.141920238733291626e-01 -5.427637696266174316e-02
3.003377020359039307e-01 4.153462871909141541e-02 2.031755745410919189e-01
1.307151168584823608e-01 -1.187916696071624756e-01 2.827771008014678955e-01
1.011104658246040344e-01 -1.217584908008575439e-01 2.504018843173980713e-01
1.963438242673873901e-01 3.796750679612159729e-02 -1.886269450187683105e-01
-2.261325716972351074e-02 -8.006418496370315552e-02 -1.623782813549041748e-01
2.383842915296554565e-01 -6.543524563312530518e-02 4.376480281352996826e-01
3.124013543128967285e-03 -1.183224283158779144e-02 -1.076210066676139832e-01
1.921888887882232666e-01 2.380981296300888062e-02 2.610720694065093994e-01
2.458214610815048218e-01 -1.198436021804809570e-01 -2.756565809249877930e-04
8.848166465759277344e-02 -1.049762070178985596e-01 -2.070786058902740479e-01
7.078598439693450928e-02 1.535112038254737854e-02 -1.247038915753364563e-01
1.133615151047706604e-01 2.523352578282356262e-02 -1.551553308963775635e-01
1.241586059331893921e-01 -7.143561542034149170e-02 -3.231685161590576172e-01
8.573785424232482910e-03 -1.085315942764282227e-01 -1.086815819144248962e-01
4.401966929435729980e-01 4.052165895700454712e-03 2.627209126949310303e-01
1.154227182269096375e-01 -1.251528114080429077e-01 2.272166907787322998e-01
3.895094990730285645e-02 7.543407380580902100e-03 1.336402446031570435e-02
1.732090711593627930e-01 -1.270655542612075806e-01 -1.741151511669158936e-02
1.140144914388656616e-01 3.087679669260978699e-02 -1.832057908177375793e-02
4.781933128833770752e-02 -1.130640059709548950e-01 2.556919455528259277e-01
2.632863521575927734e-01 -4.991891235113143921e-02 -3.402384519577026367e-01
4.933632910251617432e-02 -1.206979304552078247e-01 -7.430557906627655029e-02
4.160904884338378906e-01 4.441328719258308411e-02 1.055545546114444733e-02
1.496452093124389648e-02 -6.862197071313858032e-03 9.499861299991607666e-02
2.578409910202026367e-01 -1.199250817298889160e-01 1.353752315044403076e-01
1.342925429344177246e-02 -3.034234046936035156e-03 7.547305896878242493e-03
1.561951041221618652e-01 -1.258641779422760010e-01 2.201391458511352539e-01
1.717037558555603027e-01 -1.201449185609817505e-01 2.703089416027069092e-01
-2.571097016334533691e-02 -3.468862920999526978e-02 -1.259498000144958496e-01
3.312917649745941162e-01 -7.470212131738662720e-02 3.650848865509033203e-01
-6.579875946044921875e-03 -3.436382859945297241e-02 -1.917463541030883789e-01
2.089159488677978516e-01 4.796343669295310974e-02 -2.522472292184829712e-03
6.278647482395172119e-02 -1.120144873857498169e-01 -1.547824442386627197e-01
3.932678699493408203e-01 -8.244831860065460205e-02 1.763588786125183105e-01
1.002339944243431091e-01 -1.130973361432552338e-02 -3.131682276725769043e-01
4.717005193233489990e-01 -1.632010191679000854e-02 -8.405453711748123169e-02
3.764974474906921387e-01 -9.042581915855407715e-02 4.714241251349449158e-02
2.752445340156555176e-01 -1.140229105949401855e-01 -1.417312026023864746e-02
3.951814770698547363e-02 -1.213800460100173950e-01 1.806075572967529297e-01
3.349719345569610596e-01 -8.637295663356781006e-02 -1.437043845653533936e-01
-1.817695796489715576e-02 -1.040114611387252808e-01 1.624614894390106201e-01
1.814097464084625244e-01 3.560835495591163635e-02 1.582365781068801880e-01
2.541446983814239502e-01 -5.321674048900604248e-03 -3.570834994316101074e-01
-1.943612098693847656e-02 -3.443931788206100464e-02 -1.510794460773468018e-01
1.627368479967117310e-01 2.774199470877647400e-02 -2.264901101589202881e-01
4.604876041412353516e-01 2.916165068745613098e-02 6.224850192666053772e-03
2.005609422922134399e-01 1.883574947714805603e-02 2.947698831558227539e-01
4.088099300861358643e-02 -5.620454624295234680e-02 3.348645269870758057e-01
4.170845746994018555e-01 -7.461953163146972656e-02 1.224848702549934387e-01
6.492562592029571533e-02 -1.176178902387619019e-01 -1.177370175719261169e-01
3.175399303436279297e-01 5.369197949767112732e-02 -5.755151808261871338e-02
2.882197797298431396e-01 -1.016157567501068115e-01 -1.213018223643302917e-01
2.219198793172836304e-01 -1.233792304992675781e-01 1.814243793487548828e-01
4.196161031723022461e-01 4.342591390013694763e-02 3.486538678407669067e-02
1.917594522237777710e-01 -1.130838394165039062e-01 3.117655813694000244e-01
2.020701020956039429e-01 -1.209423989057540894e-01 -6.811012327671051025e-02
1.503124833106994629e-01 3.009795024991035461e-02 -1.902324259281158447e-01
1.667334735393524170e-01 3.955948725342750549e-02 6.937132030725479126e-02
4.066448807716369629e-01 4.385263845324516296e-02 -7.006464153528213501e-02
2.448157072067260742e-01 5.122872814536094666e-02 2.633301727473735809e-02
4.207446873188018799e-01 -5.042180418968200684e-05 -2.189064621925354004e-01
4.444200992584228516e-01 -1.260098814964294434e-02 2.783353626728057861e-01
2.006271630525588989e-01 -1.148068159818649292e-01 -1.287375390529632568e-01
-1.168416440486907959e-02 -1.811837591230869293e-02 -7.822293043136596680e-02
3.349046111106872559e-01 8.892837911844253540e-03 3.534277081489562988e-01
1.709759980440139771e-01 4.213107749819755554e-02 1.591044478118419647e-02
2.221558392047882080e-01 -1.072737276554107666e-01 3.294102847576141357e-01
4.678826928138732910e-01 -4.316159337759017944e-02 3.329791501164436340e-02
4.814306497573852539e-01 -2.703184634447097778e-02 1.294264756143093109e-02
4.223901629447937012e-01 2.886943146586418152e-02 -1.512018442153930664e-01
1.350705325603485107e-01 -1.028648912906646729e-01 -2.258718311786651611e-01
-3.401085734367370605e-01 4.571374952793121338e-01 -2.713928371667861938e-02
-1.446884870529174805e-01 4.179368615150451660e-01 1.191150546073913574e-01
-2.001419514417648315e-01 4.953035712242126465e-02 2.669508755207061768e-02
-1.626068502664566040e-01 5.911779403686523438e-02 -6.150701269507408142e-02
-2.057710587978363037e-01 4.883274734020233154e-01 -7.918184995651245117e-02
-1.772466897964477539e-01 3.768392503261566162e-01 3.661472499370574951e-01
-1.824817806482315063e-01 2.661452293395996094e-01 -4.058042764663696289e-01
-3.548374474048614502e-01 2.209310382604598999e-01 -8.168946951627731323e-02
-1.208943426609039307e-01 3.354502618312835693e-01 1.262599527835845947e-01
-1.096257418394088745e-01 2.743833661079406738e-01 4.294115304946899414e-02
-3.484952747821807861e-01 2.160320281982421875e-01 5.698871985077857971e-02
-1.295644342899322510e-01 3.785742521286010742e-01 9.138440340757369995e-02
-3.353076577186584473e-01 2.619262933731079102e-01 2.250774651765823364e-01
-2.505676448345184326e-01 3.383927345275878906e-01 -4.141972959041595459e-01
-2.964470088481903076e-01 4.208763837814331055e-01 -2.849870920181274414e-01
-2.930050194263458252e-01 4.975742697715759277e-01 -9.806860983371734619e-02
-3.286549746990203857e-01 1.691901236772537231e-01 8.737491071224212646e-02
-3.231062889099121094e-01 1.862305104732513428e-01 -3.114119172096252441e-01
-1.775401532649993896e-01 2.525054812431335449e-01 3.699615895748138428e-01
-1.870901584625244141e-01 4.086131453514099121e-01 3.606230616569519043e-01
-1.893714964389801025e-01 4.914627373218536377e-01 8.636999130249023438e-02
-3.253661394119262695e-01 2.168329656124114990e-01 -3.304051756858825684e-01
-1.827819943428039551e-01 4.808086156845092773e-01 1.524685770273208618e-01
-3.357193171977996826e-01 1.724480986595153809e-01 3.789521008729934692e-02
-3.240397870540618896e-01 2.931222319602966309e-01 -3.466466963291168213e-01
-1.672272235155105591e-01 3.912926316261291504e-01 -2.297179996967315674e-01
-1.845629662275314331e-01 4.677281379699707031e-01 2.380985468626022339e-01
-2.632569372653961182e-01 1.340575665235519409e-01 2.356085330247879028e-01
-3.081420361995697021e-01 1.354720294475555420e-01 -2.938050031661987305e-01
-1.630801260471343994e-01 1.811770796775817871e-01 2.846544682979583740e-01
-1.914369165897369385e-01 4.490208923816680908e-01 3.124619424343109131e-01
-2.872806787490844727e-01 5.114265680313110352e-01 2.034219652414321899e-01
-3.347959518432617188e-01 1.600539535284042358e-01 -1.664094999432563782e-02
-2.068632841110229492e-01 2.404124140739440918e-01 -4.471567571163177490e-01
-2.035700678825378418e-01 5.050578117370605469e-01 9.606590867042541504e-02
-1.747245788574218750e-01 4.529528319835662842e-01 -8.888085931539535522e-02
-2.507359683513641357e-01 3.609270453453063965e-01 4.306050539016723633e-01
-1.345081329345703125e-01 3.574651479721069336e-01 -1.374332606792449951e-01
-1.452481150627136230e-01 1.008751839399337769e-01 -2.265465259552001953e-01
-1.613832563161849976e-01 1.154798865318298340e-01 -3.224146068096160889e-01
-2.121303379535675049e-01 1.332754343748092651e-01 2.692761421203613281e-01
-3.592466115951538086e-01 2.955230176448822021e-01 -1.658203750848770142e-01
-3.004674315452575684e-01 9.160766005516052246e-02 -1.452450305223464966e-01
-1.305188238620758057e-01 1.782096475362777710e-01 -2.557528614997863770e-01
-1.799896359443664551e-01 3.502301573753356934e-01 3.851566314697265625e-01
-2.736610770225524902e-01 7.283279299736022949e-02 1.770877093076705933e-02
-2.795082628726959229e-01 1.120878756046295166e-01 -3.463820219039916992e-01
-2.066597491502761841e-01 5.697090923786163330e-02 6.763917207717895508e-02
-3.421658873558044434e-01 1.935082077980041504e-01 5.103708431124687195e-02
-1.338489353656768799e-01 3.409851789474487305e-01 -1.689080744981765747e-01
-3.560553491115570068e-01 2.445704340934753418e-01 -1.549332588911056519e-01
