1.397676914930343628e-01 -1.574584282934665680e-02 -2.100153267383575439e-02
3.489432930946350098e-01 -9.643268585205078125e-02 -5.208302289247512817e-02
3.917573988437652588e-01 -3.584726527333259583e-02 5.503844469785690308e-02
2.391109168529510498e-01 1.005137637257575989e-01 -8.153992146253585815e-02
2.254672348499298096e-01 6.640702486038208008e-02 -9.261892735958099365e-02
3.713243603706359863e-01 -5.184732750058174133e-02 7.071553170680999756e-02
2.941660284996032715e-01 -6.306830793619155884e-03 1.192971095442771912e-01
3.239775300025939941e-01 -1.217276826500892639e-01 3.850389644503593445e-02
3.027891516685485840e-01 -5.327517166733741760e-02 -9.909205138683319092e-02
3.170270919799804688e-01 -5.268901959061622620e-02 -9.824376553297042847e-02
2.173804342746734619e-01 -8.333463966846466064e-02 -6.020665913820266724e-02
2.286995798349380493e-01 1.254080832004547119e-01 -5.064303427934646606e-02
2.229641973972320557e-01 -8.373490720987319946e-02 1.011885330080986023e-01
2.722944617271423340e-01 -1.270890533924102783e-01 -2.470531314611434937e-02
4.216934144496917725e-01 3.597637265920639038e-02 -2.372971177101135254e-02
3.524172306060791016e-01 5.181116051971912384e-03 9.464457631111145020e-02
3.472562432289123535e-01 1.040342152118682861e-01 5.238995701074600220e-02
1.726674139499664307e-01 1.057574599981307983e-01 2.525582723319530487e-02
1.615546047687530518e-01 5.628090351819992065e-02 -4.639543965458869934e-02
1.594077646732330322e-01 6.672561168670654297e-02 -3.706560283899307251e-02
4.060414433479309082e-01 -2.843901515007019043e-02 3.607045859098434448e-02
3.584986031055450439e-01 1.929831504821777344e-02 8.918370306491851807e-02
3.439399600028991699e-01 8.938304334878921509e-02 6.817200034856796265e-02
2.960971593856811523e-01 3.387618064880371094e-02 1.138974428176879883e-01
1.998662054538726807e-01 -1.144469603896141052e-01 4.849477857351303101e-02
2.145134806632995605e-01 1.108008995652198792e-01 6.693670898675918579e-02
2.024923712015151978e-01 1.019350290298461914e-01 -5.750592052936553955e-02
3.371606469154357910e-01 -6.003630161285400391e-02 9.254786372184753418e-02
1.305762529373168945e-01 2.488415502011775970e-02 1.967591233551502228e-03
2.158647179603576660e-01 1.016861870884895325e-01 -6.800030171871185303e-02
2.023030221462249756e-01 3.622840344905853271e-02 1.115801855921745300e-01
4.206157922744750977e-01 3.905771300196647644e-02 -8.299484848976135254e-03
1.443114280700683594e-01 5.013918504118919373e-02 5.972366407513618469e-02
3.304264247417449951e-01 -1.025407016277313232e-01 6.600262969732284546e-02
1.782814711332321167e-01 -1.417686603963375092e-02 1.077597290277481079e-01
1.822816729545593262e-01 -2.679421752691268921e-02 -6.826616078615188599e-02
1.760255992412567139e-01 -6.080909818410873413e-02 9.315096586942672729e-02
2.409749180078506470e-01 -1.038321405649185181e-01 8.836254477500915527e-02
1.764626801013946533e-01 6.788448244333267212e-02 8.384642750024795532e-02
1.339431703090667725e-01 3.468566387891769409e-02 -4.590440075844526291e-03
2.865845263004302979e-01 1.344223916530609131e-01 4.375712200999259949e-02
3.788199126720428467e-01 -5.577669292688369751e-02 6.082049012184143066e-02
1.918332278728485107e-01 5.627127364277839661e-03 -8.156982064247131348e-02
2.918048202991485596e-01 -1.259188652038574219e-01 5.312348529696464539e-02
3.129323124885559082e-01 -5.310198292136192322e-03 -1.135891452431678772e-01
1.492038816213607788e-01 -3.013253211975097656e-02 8.108706772327423096e-02
2.351089864969253540e-01 -1.136808246374130249e-01 -3.586685657501220703e-02
2.276878207921981812e-01 5.304243415594100952e-02 -9.740760922431945801e-02
1.279453784227371216e-01 1.866415888071060181e-02 3.489128872752189636e-02
2.713259756565093994e-01 1.338350772857666016e-01 4.699208959937095642e-02
3.133855164051055908e-01 1.438027620315551758e-01 3.143990412354469299e-03
1.382652372121810913e-01 -3.642594069242477417e-02 5.918941274285316467e-02
2.706415951251983643e-01 1.217152923345565796e-01 -7.361949980258941650e-02
3.821740746498107910e-01 1.045749336481094360e-01 3.573883790522813797e-03
1.898483633995056152e-01 1.175431460142135620e-01 3.095478937029838562e-02
1.823606640100479126e-01 1.146812513470649719e-01 -3.460992593318223953e-03
3.145608901977539062e-01 -6.810955703258514404e-03 1.131821125745773315e-01
1.629035472869873047e-01 5.300661176443099976e-02 8.205486088991165161e-02
3.656458854675292969e-01 -9.045690298080444336e-02 -4.558207467198371887e-02
3.252903223037719727e-01 -1.111514121294021606e-01 5.847683921456336975e-02
4.169241189956665039e-01 5.304512381553649902e-02 -1.083162426948547363e-02
3.356412649154663086e-01 3.255169093608856201e-02 9.973920881748199463e-02
2.640889585018157959e-01 7.539866119623184204e-02 1.030079275369644165e-01
2.942411303520202637e-01 1.259132921695709229e-01 5.496448650956153870e-02
2.114069014787673950e-01 -4.251321777701377869e-02 1.162843182682991028e-01
2.464857548475265503e-01 1.838224008679389954e-02 1.226823255419731140e-01
3.875813484191894531e-01 -1.757314056158065796e-02 -8.370400965213775635e-02
1.415722966194152832e-01 1.783651486039161682e-02 -2.835555374622344971e-02
3.523912131786346436e-01 -8.613872528076171875e-02 -6.247887760400772095e-02
3.259080648422241211e-01 -3.306539356708526611e-02 -1.051334440708160400e-01
3.587833940982818604e-01 7.750697433948516846e-02 6.611688435077667236e-02
2.107595503330230713e-01 8.692540228366851807e-02 8.858808875083923340e-02
1.434855163097381592e-01 -6.252286583185195923e-02 3.054702840745449066e-02
1.424584686756134033e-01 3.585285320878028870e-02 6.652765721082687378e-02
2.177815288305282593e-01 5.806516483426094055e-02 1.077518016099929810e-01
2.365597337484359741e-01 8.515601605176925659e-02 -8.963378518819808960e-02
3.562245666980743408e-01 -1.105942204594612122e-01 -6.143193226307630539e-03
4.151506423950195312e-01 -3.700813651084899902e-02 1.070718979462981224e-03
1.473952084779739380e-01 2.214769273996353149e-02 7.932664453983306885e-02
3.305125832557678223e-01 1.400551497936248779e-01 -1.576037332415580750e-02
2.170636951923370361e-01 7.065413892269134521e-02 1.012564152479171753e-01
2.759660482406616211e-01 -1.270557641983032227e-01 5.576759949326515198e-02
3.883764147758483887e-01 -8.211646229028701782e-03 6.529972702264785767e-02
3.484413325786590576e-01 1.236021518707275391e-01 -5.332408100366592407e-02
2.261743396520614624e-01 -9.478341042995452881e-02 -5.451760068535804749e-02
1.511260569095611572e-01 -1.449326984584331512e-03 8.729442209005355835e-02
2.588500976562500000e-01 -2.554971724748611450e-02 1.235578730702400208e-01
3.689611554145812988e-01 -8.628603070974349976e-02 4.604622721672058105e-02
1.527891010046005249e-01 -7.449873536825180054e-02 4.489065334200859070e-02
2.670015990734100342e-01 2.772839926183223724e-02 -1.126795858144760132e-01
3.013046681880950928e-01 1.427110135555267334e-01 1.906457543373107910e-02
2.724698185920715332e-01 9.881018847227096558e-02 8.692093193531036377e-02
3.951131701469421387e-01 5.157681554555892944e-02 4.475173726677894592e-02
2.528694272041320801e-01 3.310300037264823914e-02 -1.091427952051162720e-01
3.685612380504608154e-01 3.558942675590515137e-02 7.825380563735961914e-02
2.965214252471923828e-01 9.437545388936996460e-02 8.580464869737625122e-02
4.073815643787384033e-01 1.731399446725845337e-03 -6.798292696475982666e-02
2.183271944522857666e-01 1.130437627434730530e-01 -5.888396501541137695e-02
1.347579658031463623e-01 4.837087914347648621e-02 9.459416382014751434e-03
3.451422154903411865e-01 -6.562625616788864136e-02 8.494318276643753052e-02
3.813065290451049805e-01 1.498751807957887650e-03 -9.274763613939285278e-02
1.502233296632766724e-01 -1.271164976060390472e-02 -3.908328339457511902e-02
4.043517410755157471e-01 8.068922907114028931e-02 -2.281290665268898010e-02
1.573128253221511841e-01 -8.249592781066894531e-02 3.495882824063301086e-02
4.088588058948516846e-01 -1.653810776770114899e-02 -6.006248295307159424e-02
1.638177782297134399e-01 3.809750452637672424e-02 9.022705256938934326e-02
3.535428345203399658e-01 6.523521989583969116e-02 7.727992534637451172e-02
3.497494459152221680e-01 -5.150812119245529175e-02 8.814431726932525635e-02
2.599991559982299805e-01 1.246786937117576599e-01 6.100876256823539734e-02
4.215155243873596191e-01 -1.752322353422641754e-02 -1.159051433205604553e-02
2.080364376306533813e-01 2.041847631335258484e-02 -9.184107184410095215e-02
2.511880993843078613e-01 -1.300738751888275146e-01 4.758676141500473022e-02
2.749842405319213867e-01 1.264566779136657715e-01 5.809243023395538330e-02
2.982311844825744629e-01 8.458731323480606079e-02 -1.025764644145965576e-01
2.015760093927383423e-01 -5.973129719495773315e-02 -6.721855700016021729e-02
2.377395778894424438e-01 8.461863547563552856e-02 9.671892970800399780e-02
2.222955077886581421e-01 -2.569209784269332886e-02 1.216028630733489990e-01
3.891310691833496094e-01 -8.030515164136886597e-02 1.283858343958854675e-02
2.906044423580169678e-01 1.082598231732845306e-02 -1.154413521289825439e-01
2.455939054489135742e-01 -2.669328078627586365e-02 1.236406937241554260e-01
3.140767216682434082e-01 7.142259925603866577e-02 9.443538635969161987e-02
3.132524788379669189e-01 1.267788112163543701e-01 4.601484909653663635e-02
2.571686506271362305e-01 -9.900019317865371704e-02 9.374947100877761841e-02
3.428847789764404297e-01 1.339875757694244385e-01 -2.299015410244464874e-03
3.024517893791198730e-01 1.107666343450546265e-01 -8.606605976819992065e-02
2.628904581069946289e-01 -1.300739049911499023e-01 -1.481332257390022278e-02
1.760558485984802246e-01 9.364553540945053101e-02 5.842589214444160461e-02
2.743858397006988525e-01 -1.335943639278411865e-01 3.639823198318481445e-02
2.571072578430175781e-01 -1.167475581169128418e-01 7.472387701272964478e-02
2.966317534446716309e-01 -1.086859852075576782e-01 -5.561273917555809021e-02
1.399138718843460083e-01 5.900165811181068420e-02 3.595778346061706543e-02
3.166434764862060547e-01 -8.196786791086196899e-02 -7.980078458786010742e-02
2.591026425361633301e-01 -1.342813968658447266e-01 3.178720548748970032e-02
1.437511891126632690e-01 -3.330383077263832092e-02 -1.996870711445808411e-02
3.380348086357116699e-01 9.675020724534988403e-02 -8.960953354835510254e-02
3.344032168388366699e-01 -1.061382517218589783e-01 -4.738605767488479614e-02
2.317360490560531616e-01 -1.252995431423187256e-01 -9.448857977986335754e-03
2.250306159257888794e-01 -1.189318373799324036e-01 6.292413175106048584e-02
3.562345206737518311e-01 1.268719285726547241e-01 -3.031741082668304443e-02
2.859819531440734863e-01 -1.254302859306335449e-01 -2.893247082829475403e-02
3.133696019649505615e-01 -1.289876103401184082e-01 -4.439390730112791061e-03
2.860047221183776855e-01 9.236232936382293701e-02 -9.813299775123596191e-02
1.940211951732635498e-01 -5.610317736864089966e-02 1.058716848492622375e-01
1.611113846302032471e-01 -4.461421072483062744e-02 -3.953679651021957397e-02
1.568616330623626709e-01 -2.918662503361701965e-02 -4.214411973953247070e-02
2.118913531303405762e-01 2.286748401820659637e-02 1.175772920250892639e-01
1.614459753036499023e-01 8.496894687414169312e-02 -2.181247249245643616e-02
2.725024521350860596e-01 1.457466781139373779e-01 -3.107784315943717957e-02
1.680192649364471436e-01 -9.336058050394058228e-02 4.006270319223403931e-02
2.971641421318054199e-01 -1.189164146780967712e-01 6.368677318096160889e-02
3.745785653591156006e-01 4.594918340444564819e-02 -9.523344784975051880e-02
3.365850448608398438e-01 6.229063123464584351e-02 8.889107406139373779e-02
3.788050115108489990e-01 -9.269124269485473633e-02 -1.221528835594654083e-02
2.728213965892791748e-01 1.080651059746742249e-01 -8.631087839603424072e-02
2.717521488666534424e-01 -4.223651066422462463e-02 -1.019137054681777954e-01
1.802804023027420044e-01 -9.355541318655014038e-02 -1.470442116260528564e-02
2.735119163990020752e-01 4.332459345459938049e-02 1.155350655317306519e-01
3.765560686588287354e-01 1.465420238673686981e-03 7.700962573289871216e-02
1.381202191114425659e-01 -1.244908757507801056e-02 6.899111717939376831e-02
2.323831915855407715e-01 7.403296977281570435e-02 1.024632379412651062e-01
3.251725733280181885e-01 1.396686434745788574e-01 6.439450662583112717e-03
3.261416554450988770e-01 1.041392460465431213e-01 -8.772550523281097412e-02
2.027850449085235596e-01 1.258056461811065674e-01 2.853314019739627838e-02
2.528950870037078857e-01 -1.345877647399902344e-01 1.998823694884777069e-02
1.395401209592819214e-01 -5.346683040261268616e-02 3.901369497179985046e-02
2.901201844215393066e-01 4.988906159996986389e-02 1.105798631906509399e-01
3.273866474628448486e-01 1.127237230539321899e-01 5.654747411608695984e-02
2.877401113510131836e-01 1.935341581702232361e-02 1.186797767877578735e-01
2.310382723808288574e-01 1.243056654930114746e-01 5.556756630539894104e-02
2.870503365993499756e-01 7.761541754007339478e-02 9.879856556653976440e-02
3.731970489025115967e-01 5.340461805462837219e-02 6.776995956897735596e-02
2.838879525661468506e-01 9.185085445642471313e-02 9.046341478824615479e-02
1.680813133716583252e-01 -2.244420349597930908e-03 -6.159545481204986572e-02
2.720314860343933105e-01 -1.095279380679130554e-01 8.262527734041213989e-02
3.184375464916229248e-01 -7.779132574796676636e-02 9.330539405345916748e-02
3.031390011310577393e-01 -1.083320006728172302e-01 7.518874853849411011e-02
2.936988174915313721e-01 6.083559989929199219e-02 1.055568009614944458e-01
1.584034860134124756e-01 3.087613545358181000e-02 -5.085309967398643494e-02
4.057315587997436523e-01 -5.072404071688652039e-02 1.846806518733501434e-02
4.141490757465362549e-01 1.826628856360912323e-02 2.632993459701538086e-02
2.575626969337463379e-01 5.720356106758117676e-02 -1.065651178359985352e-01
3.506094813346862793e-01 1.268831193447113037e-01 1.052853651344776154e-02
2.889578342437744141e-01 1.093885302543640137e-01 -8.717825263738632202e-02
1.271752715110778809e-01 1.365352608263492584e-02 1.634859666228294373e-02
1.527236104011535645e-01 3.875845670700073242e-02 -4.151053354144096375e-02
3.019929528236389160e-01 4.405684769153594971e-03 -1.152433007955551147e-01
3.118522763252258301e-01 1.252602338790893555e-01 -7.005985826253890991e-02
2.839537262916564941e-01 -1.303659975528717041e-01 -1.623687893152236938e-02
3.964405059814453125e-01 -6.464930251240730286e-03 -7.897251844406127930e-02
1.716027110815048218e-01 1.580451056361198425e-02 -6.600139290094375610e-02
4.054389894008636475e-01 -5.883511900901794434e-02 1.193461008369922638e-03
3.370721936225891113e-01 5.601223185658454895e-02 -1.080883145332336426e-01
1.540793925523757935e-01 7.928796857595443726e-02 -1.252291537821292877e-02
1.867276728153228760e-01 -8.133551478385925293e-02 -3.859845176339149475e-02
3.557065725326538086e-01 -3.911163657903671265e-02 8.809839189052581787e-02
1.311148554086685181e-01 -3.010517358779907227e-02 1.765409111976623535e-02
3.818430900573730469e-01 -1.892630197107791901e-02 7.077927887439727783e-02
1.746048331260681152e-01 -4.823990538716316223e-02 9.812793880701065063e-02
2.193801701068878174e-01 1.370814740657806396e-01 -2.750115934759378433e-03
3.475965857505798340e-01 -3.340695798397064209e-02 -9.967336058616638184e-02
3.139384984970092773e-01 1.073839962482452393e-01 6.891486793756484985e-02
3.835261464118957520e-01 2.899981848895549774e-02 6.683125346899032593e-02
3.090087771415710449e-01 -3.150396049022674561e-02 -1.075246781110763550e-01
2.008299976587295532e-01 -1.031830236315727234e-01 7.286113500595092773e-02
2.047221362590789795e-01 1.302396953105926514e-01 5.393648520112037659e-03
1.320919841527938843e-01 8.563990704715251923e-04 5.702138319611549377e-02
1.512091755867004395e-01 6.914345175027847290e-02 -1.963014155626296997e-02
2.619408369064331055e-01 2.437478490173816681e-02 1.212891563773155212e-01
2.711076736450195312e-01 -1.355896890163421631e-01 2.220040559768676758e-02
1.752082258462905884e-01 -8.097300678491592407e-02 -2.568254992365837097e-02
3.610049486160278320e-01 1.165959313511848450e-01 1.934998109936714172e-02
1.774249672889709473e-01 1.113555431365966797e-01 1.482144556939601898e-02
2.285521179437637329e-01 -1.292900741100311279e-01 2.925862371921539307e-02
3.597808480262756348e-01 5.166730284690856934e-02 7.923765480518341064e-02
2.905908823013305664e-01 -1.065884456038475037e-01 8.165981620550155640e-02
1.837761700153350830e-01 5.835190787911415100e-02 9.448592364788055420e-02
2.223574817180633545e-01 9.311736375093460083e-02 -7.823430001735687256e-02
3.389177322387695312e-01 -1.200195327401161194e-01 1.652270741760730743e-02
2.957444190979003906e-01 8.408130705356597900e-02 9.299198538064956665e-02
3.690253496170043945e-01 -1.695100218057632446e-02 8.245361596345901489e-02
2.923302948474884033e-01 -2.860333397984504700e-02 -1.085493937134742737e-01
2.198866605758666992e-01 1.334620416164398193e-01 2.811015769839286804e-02
1.411185711622238159e-01 6.290763616561889648e-02 4.781866911798715591e-03
3.680399954319000244e-01 -1.025607436895370483e-01 5.080465227365493774e-03
3.252278864383697510e-01 2.771191671490669250e-02 1.055763065814971924e-01
3.797416388988494873e-01 -8.599290251731872559e-02 -3.236621245741844177e-02
2.471735775470733643e-01 1.305953264236450195e-01 -5.429879575967788696e-02
4.137831926345825195e-01 9.417878463864326477e-04 -5.754602700471878052e-02
2.165867835283279419e-01 1.232479959726333618e-01 4.962072521448135376e-02
2.829273045063018799e-01 -6.768552958965301514e-02 -9.093613177537918091e-02
1.343077570199966431e-01 -2.865127101540565491e-02 -7.415050640702247620e-05
4.097456336021423340e-01 -3.690674528479576111e-02 2.239060774445533752e-02
2.608807981014251709e-01 1.478562057018280029e-01 -7.970165461301803589e-03
1.877327859401702881e-01 -1.048121005296707153e-01 5.534811317920684814e-02
2.036555707454681396e-01 -1.119454652070999146e-01 -1.189689151942729950e-02
3.000892996788024902e-01 1.018469408154487610e-02 1.169129237532615662e-01
2.756689488887786865e-01 1.487723886966705322e-01 -2.263954374939203262e-03
1.485026329755783081e-01 -6.587880104780197144e-02 5.804167594760656357e-03
2.202826887369155884e-01 -1.005767360329627991e-01 8.649650961160659790e-02
3.260635435581207275e-01 -5.595788359642028809e-02 9.998270869255065918e-02
1.395577341318130493e-01 -2.455997280776500702e-03 -2.412763237953186035e-02
3.016539514064788818e-01 5.998251214623451233e-02 -1.112949401140213013e-01
2.471767365932464600e-01 1.312286853790283203e-01 4.930508136749267578e-02
3.698164224624633789e-01 1.131551116704940796e-01 1.127261854708194733e-02
3.177821040153503418e-01 9.166446514427661896e-03 -1.148756146430969238e-01
4.217645525932312012e-01 1.301015727221965790e-02 5.117995664477348328e-03
2.014885842800140381e-01 -9.714563935995101929e-02 -3.452679887413978577e-02
4.082957506179809570e-01 3.170926123857498169e-02 -6.633444130420684814e-02
4.205136597156524658e-01 -1.645807176828384399e-02 -2.917230129241943359e-02
2.581752240657806396e-01 1.401230990886688232e-01 -4.176522791385650635e-02
3.319609165191650391e-01 -7.463391870260238647e-02 8.817094564437866211e-02
1.648603975772857666e-01 8.998373895883560181e-02 4.728739708662033081e-02
2.378634810447692871e-01 -2.005784772336483002e-03 -1.036921143531799316e-01
3.578489124774932861e-01 -1.026676595211029053e-01 3.591096773743629456e-02
2.943509221076965332e-01 -1.409425400197505951e-02 -1.122910007834434509e-01
3.045935928821563721e-01 -3.507156297564506531e-02 1.139353588223457336e-01
3.584457933902740479e-01 5.376907996833324432e-03 -1.050546467304229736e-01
1.364293992519378662e-01 2.750794962048530579e-02 -1.550015062093734741e-02
2.439019680023193359e-01 -1.083604246377944946e-01 -4.755064100027084351e-02
1.714937984943389893e-01 -4.390877857804298401e-02 -5.151772499084472656e-02
2.521953880786895752e-01 -3.142508864402770996e-02 -1.015909910202026367e-01
1.974609196186065674e-01 -8.512122929096221924e-02 -4.466129839420318604e-02
1.327069699764251709e-01 3.709107264876365662e-02 4.090531170368194580e-02
3.463064134120941162e-01 3.810640051960945129e-02 9.258461743593215942e-02
1.608185172080993652e-01 1.717717759311199188e-02 -5.512776598334312439e-02
2.687260508537292480e-01 6.975239608436822891e-03 1.231005862355232239e-01
2.745673358440399170e-01 -1.042153462767601013e-01 -6.042595207691192627e-02
3.190088868141174316e-01 9.620524942874908447e-03 1.107928454875946045e-01
1.747215688228607178e-01 -9.954668581485748291e-02 1.481141149997711182e-02
3.527830541133880615e-01 1.090809479355812073e-01 4.156268760561943054e-02
3.685637116432189941e-01 8.852153271436691284e-02 4.858251661062240601e-02
4.165967702865600586e-01 -1.101342029869556427e-02 -4.728173464536666870e-02
2.279409319162368774e-01 3.241126611828804016e-02 -1.007408127188682556e-01
4.224849045276641846e-01 -6.159767508506774902e-03 -2.193300984799861908e-03
1.738356947898864746e-01 9.268953651189804077e-02 -3.414228931069374084e-02
2.625737190246582031e-01 -5.956864356994628906e-02 1.156766340136528015e-01
2.241172492504119873e-01 1.027141362428665161e-01 7.949345558881759644e-02
1.486922204494476318e-01 7.762471586465835571e-02 2.587004937231540680e-02
1.435365825891494751e-01 8.003566414117813110e-03 7.743313908576965332e-02
2.478485703468322754e-01 -1.314996778964996338e-01 -1.737162005156278610e-03
4.099792242050170898e-01 7.016844302415847778e-02 -1.319887861609458923e-02
2.389047145843505859e-01 1.426172554492950439e-01 1.272507943212985992e-02
3.302048742771148682e-01 -1.231137439608573914e-01 -8.222421631217002869e-03
2.889102101325988770e-01 -9.836284816265106201e-02 -6.753554195165634155e-02
3.568603992462158203e-01 -9.611506015062332153e-02 4.874013364315032959e-02
1.311474591493606567e-01 3.884543105959892273e-02 2.261067368090152740e-02
3.999985456466674805e-01 4.736677929759025574e-02 -7.291594147682189941e-02
4.151718616485595703e-01 -3.211735188961029053e-02 -3.330546617507934570e-02
2.010620236396789551e-01 1.024507135152816772e-01 6.936290115118026733e-02
3.958851099014282227e-01 -6.593927741050720215e-02 -3.672675043344497681e-02
3.197168409824371338e-01 1.433067917823791504e-01 -7.556773256510496140e-03
2.689549326896667480e-01 -4.614331200718879700e-02 1.190998628735542297e-01
3.773421049118041992e-01 -5.602861940860748291e-02 -7.178945094347000122e-02
3.168708980083465576e-01 -1.221102401614189148e-01 -2.665733546018600464e-02
3.080990314483642578e-01 2.016850374639034271e-02 -1.159460097551345825e-01
3.236172795295715332e-01 1.385659575462341309e-01 -3.954138606786727905e-02
2.510534226894378662e-01 -4.356735944747924805e-02 1.207671090960502625e-01
3.784762620925903320e-01 8.235149830579757690e-02 4.328400269150733948e-02
1.611288636922836304e-01 -1.845720224082469940e-03 9.654840081930160522e-02
4.068511128425598145e-01 -5.612695217132568359e-02 -1.921180263161659241e-02
3.771455585956573486e-01 -8.644258975982666016e-02 3.203289583325386047e-02
2.115449011325836182e-01 4.466597363352775574e-02 -9.130532294511795044e-02
3.613654077053070068e-01 6.021333858370780945e-02 -9.839428216218948364e-02
3.816639780998229980e-01 -4.141107201576232910e-02 6.476830691099166870e-02
2.551964819431304932e-01 6.225123256444931030e-02 1.098017096519470215e-01
3.566476702690124512e-01 -2.063065022230148315e-02 -1.006458252668380737e-01
2.265696525573730469e-01 3.291716426610946655e-02 1.181069388985633850e-01
2.822246551513671875e-01 1.255576759576797485e-01 -7.114303857088088989e-02
3.758268058300018311e-01 8.314620703458786011e-02 -7.766555249691009521e-02
2.645817101001739502e-01 1.467907726764678955e-01 1.128372829407453537e-02
4.019665718078613281e-01 2.090755105018615723e-02 -7.599312812089920044e-02
4.205343425273895264e-01 2.982975356280803680e-02 -3.863601386547088623e-02
2.327824980020523071e-01 -1.789374835789203644e-02 1.236718967556953430e-01
2.343448847532272339e-01 -6.558093428611755371e-02 1.128542125225067139e-01
2.446219027042388916e-01 -2.082488313317298889e-02 -1.023794040083885193e-01
3.712907731533050537e-01 -7.123718410730361938e-02 5.858087912201881409e-02
1.847847551107406616e-01 -3.460458666086196899e-02 1.082533523440361023e-01
2.566941082477569580e-01 1.098123714327812195e-01 7.791203260421752930e-02
1.264194399118423462e-01 2.913615899160504341e-03 2.587281167507171631e-02
3.393056988716125488e-01 1.308056339621543884e-02 1.013625562191009521e-01
1.913157403469085693e-01 -7.646264880895614624e-02 9.338171035051345825e-02
1.284297406673431396e-01 2.651859633624553680e-02 2.263262495398521423e-02
3.669528663158416748e-01 -1.019640192389488220e-01 -1.504913344979286194e-02
3.818030059337615967e-01 3.467296063899993896e-02 -9.260921180248260498e-02
2.015477865934371948e-01 7.622892409563064575e-02 9.259165823459625244e-02
1.390213519334793091e-01 -5.170337855815887451e-02 1.542148366570472717e-02
4.001192748546600342e-01 -6.684786826372146606e-02 -1.957112736999988556e-02
2.250211834907531738e-01 3.793397918343544006e-04 1.228424236178398132e-01
4.178685545921325684e-01 1.621665433049201965e-04 1.844717562198638916e-02
2.763746380805969238e-01 -2.717350050806999207e-02 1.215915828943252563e-01
2.122291624546051025e-01 8.565695025026798248e-03 -9.380315989255905151e-02
3.350524902343750000e-01 -5.416835844516754150e-02 -9.400743246078491211e-02
3.742106556892395020e-01 1.033335402607917786e-01 2.329317107796669006e-02
1.605012863874435425e-01 9.426698833703994751e-02 1.908179372549057007e-02
2.634448707103729248e-01 -1.333799958229064941e-01 -2.794842235743999481e-03
2.978536486625671387e-01 -1.291431188583374023e-01 -1.659156754612922668e-02
2.137836813926696777e-01 -1.240121051669120789e-01 1.560358330607414246e-02
3.878067731857299805e-01 -8.417332917451858521e-02 -2.574226818978786469e-03
3.515761792659759521e-01 8.955151587724685669e-02 -8.893930166959762573e-02
2.610872983932495117e-01 1.344949901103973389e-01 -5.410695448517799377e-02
3.869622945785522461e-01 9.274163097143173218e-02 1.782554201781749725e-02
2.158459275960922241e-01 -9.238541126251220703e-03 1.214441880583763123e-01
2.603004276752471924e-01 1.455710828304290771e-01 -2.587363868951797485e-02
3.342898786067962646e-01 -2.111458219587802887e-02 1.040511503815650940e-01
1.303517222404479980e-01 -2.666069194674491882e-02 3.782403841614723206e-02
3.257601857185363770e-01 4.267011955380439758e-02 1.015167310833930969e-01
3.339139521121978760e-01 1.329639256000518799e-01 1.778613775968551636e-02
2.426867485046386719e-01 3.657231479883193970e-02 1.186830103397369385e-01
2.398800700902938843e-01 5.724777281284332275e-02 1.114595308899879456e-01
2.857974469661712646e-01 -4.977419972419738770e-02 -1.003782004117965698e-01
2.474904656410217285e-01 9.674482792615890503e-02 8.892241120338439941e-02
2.115753591060638428e-01 -1.561205275356769562e-02 -9.011369943618774414e-02
2.776258587837219238e-01 6.343449652194976807e-02 1.075024306774139404e-01
2.069593071937561035e-01 -1.189154163002967834e-01 3.684329334646463394e-03
3.033911585807800293e-01 -6.901101768016815186e-02 -9.043309092521667480e-02
2.986260354518890381e-01 -9.333612769842147827e-02 9.084445238113403320e-02
2.926000058650970459e-01 1.092554926872253418e-01 7.436869293451309204e-02
3.310696482658386230e-01 1.276943981647491455e-01 -5.932112783193588257e-02
2.153428494930267334e-01 -1.196142956614494324e-01 5.391600728034973145e-02
1.593682467937469482e-01 -7.936117053031921387e-02 5.424765497446060181e-02
3.723918199539184570e-01 9.699273854494094849e-02 3.504031151533126831e-02
1.638737618923187256e-01 -6.771843880414962769e-02 -2.473948709666728973e-02
2.395732104778289795e-01 6.895714253187179565e-02 -9.763062000274658203e-02
3.107123970985412598e-01 -1.119201853871345520e-01 -4.867378249764442444e-02
3.129066824913024902e-01 3.757955878973007202e-02 1.079544499516487122e-01
2.564381957054138184e-01 4.724568501114845276e-02 1.155879646539688110e-01
3.549472689628601074e-01 -1.048474237322807312e-01 -3.117718547582626343e-02
3.657084107398986816e-01 1.117115318775177002e-01 -5.573036521673202515e-02
4.215532839298248291e-01 1.181733980774879456e-02 -3.921311721205711365e-02
2.462826222181320190e-01 8.011467009782791138e-02 -9.565716236829757690e-02
1.609112024307250977e-01 -5.527752637863159180e-02 8.277236670255661011e-02
3.023634254932403564e-01 1.470100283622741699e-01 -5.482851993292570114e-03
3.518986403942108154e-01 1.776327192783355713e-02 -1.081858500838279724e-01
1.745149642229080200e-01 -9.488015621900558472e-02 -1.086109317839145660e-03
2.420437037944793701e-01 -8.218073099851608276e-02 -7.253295928239822388e-02
1.863244175910949707e-01 1.046251803636550903e-01 -3.669471293687820435e-02
2.783702611923217773e-01 1.420493423938751221e-01 2.901918999850749969e-02
1.887790262699127197e-01 -1.101844459772109985e-01 3.860568627715110779e-02
2.679600119590759277e-01 -5.330252647399902344e-02 -9.659010171890258789e-02
3.330022692680358887e-01 -1.888740807771682739e-03 1.054863259196281433e-01
3.986344933509826660e-01 -6.101378053426742554e-02 2.402138896286487579e-02
1.338340491056442261e-01 2.317614667117595673e-02 5.562958121299743652e-02
3.385121524333953857e-01 6.987019442021846771e-03 -1.113581061363220215e-01
2.334329336881637573e-01 -3.815754503011703491e-02 -9.331914037466049194e-02
3.945452570915222168e-01 2.447323501110076904e-02 5.590346083045005798e-02
2.806259095668792725e-01 -8.662226796150207520e-02 -7.764565944671630859e-02
3.808080852031707764e-01 1.702782139182090759e-02 -9.432737529277801514e-02
2.386573553085327148e-01 1.225571706891059875e-01 -6.088271737098693848e-02
3.668453991413116455e-01 -1.004904955625534058e-01 2.226222120225429535e-02
3.025384247303009033e-01 1.437974572181701660e-01 -3.598063439130783081e-02
3.617423176765441895e-01 1.214081496000289917e-01 4.980011843144893646e-03
3.402467966079711914e-01 -1.030569225549697876e-01 5.714865401387214661e-02
1.587660610675811768e-01 -3.363769501447677612e-04 -5.211045965552330017e-02
3.251254558563232422e-01 -1.260988116264343262e-01 1.575920172035694122e-02
2.161415517330169678e-01 -1.061868518590927124e-01 -3.449376672506332397e-02
3.345373868942260742e-01 -8.983739465475082397e-02 -6.772454082965850830e-02
2.762303650379180908e-01 -1.208651587367057800e-01 6.716690957546234131e-02
1.447588652372360229e-01 -5.056301876902580261e-02 -7.330226246267557144e-03
3.275623321533203125e-01 -9.481345862150192261e-02 7.595481723546981812e-02
1.772978603839874268e-01 4.789598286151885986e-02 -6.647849082946777344e-02
4.004795253276824951e-01 -4.983307048678398132e-02 3.259353339672088623e-02
4.082065522670745850e-01 3.444494307041168213e-02 3.279868140816688538e-02
3.869400918483734131e-01 6.152055412530899048e-02 -8.079782873392105103e-02
1.902816295623779297e-01 -6.937140226364135742e-02 -5.239799618721008301e-02
2.059063315391540527e-01 3.977451939135789871e-03 1.186208948493003845e-01
3.887653350830078125e-01 8.046653866767883301e-02 -6.621919572353363037e-02
1.485661864280700684e-01 5.045107379555702209e-02 -2.980494126677513123e-02
3.819402158260345459e-01 1.078293696045875549e-01 -9.397141635417938232e-03
1.965224444866180420e-01 2.965473942458629608e-02 -8.448013663291931152e-02
2.073008567094802856e-01 8.666624873876571655e-02 -7.294283807277679443e-02
2.644860744476318359e-01 -8.326800912618637085e-02 1.045200675725936890e-01
3.238734900951385498e-01 9.453719109296798706e-02 7.553330808877944946e-02
2.839500308036804199e-01 -1.150732487440109253e-01 -4.734326153993606567e-02
1.804810464382171631e-01 2.386434935033321381e-02 1.056718155741691589e-01
4.158362746238708496e-01 3.450843319296836853e-02 -5.114831775426864624e-02
3.422425687313079834e-01 1.222661286592483521e-01 3.195508569478988647e-02
4.088400900363922119e-01 6.690385937690734863e-02 -4.153948649764060974e-02
1.501235514879226685e-01 -5.867545306682586670e-02 6.466373056173324585e-02
4.039221405982971191e-01 7.828719913959503174e-02 -1.960912253707647324e-03
1.938818395137786865e-01 -1.030603125691413879e-01 -1.725131273269653320e-02
2.374654263257980347e-01 1.425606012344360352e-01 -1.373404636979103088e-02
1.896792650222778320e-01 1.339163631200790405e-03 1.132068410515785217e-01
3.427387475967407227e-01 1.311878114938735962e-01 -4.118064045906066895e-02
3.300972878932952881e-01 -4.400167986750602722e-02 1.018365621566772461e-01
3.400438725948333740e-01 3.359745815396308899e-02 -1.110697612166404724e-01
1.319131106138229370e-01 7.701543159782886505e-03 -7.239458616822957993e-03
3.671938776969909668e-01 3.552304208278656006e-02 -1.010723561048507690e-01
3.055121004581451416e-01 5.346968397498130798e-02 1.052784994244575500e-01
1.644958853721618652e-01 -6.875683367252349854e-02 7.667557895183563232e-02
1.982685178518295288e-01 -3.763730078935623169e-02 1.133668050169944763e-01
2.097787111997604370e-01 1.282089948654174805e-01 -2.481980249285697937e-02
3.904534578323364258e-01 6.668817996978759766e-02 4.115274921059608459e-02
1.753715872764587402e-01 -6.472241133451461792e-02 -4.190228134393692017e-02
2.486584782600402832e-01 -8.922551572322845459e-02 1.010742112994194031e-01
2.256518900394439697e-01 8.372805081307888031e-03 -1.000319346785545349e-01
3.176676034927368164e-01 -3.792021051049232483e-02 1.087648719549179077e-01
2.326807081699371338e-01 9.654507040977478027e-02 8.710077404975891113e-02
2.123969048261642456e-01 1.204906478524208069e-01 -4.407193511724472046e-02
2.791004776954650879e-01 1.064932569861412048e-01 7.962158322334289551e-02
2.752035260200500488e-01 3.709708154201507568e-02 -1.133773028850555420e-01
3.753666281700134277e-01 -3.948294743895530701e-02 -8.353416621685028076e-02
2.936936616897583008e-01 -8.610107004642486572e-02 -7.858365774154663086e-02
3.133606612682342529e-01 1.348654329776763916e-01 3.157282248139381409e-02
4.032364785671234131e-01 2.607939019799232483e-02 4.385291412472724915e-02
3.802776336669921875e-01 1.008020341396331787e-01 -5.309649929404258728e-02
4.233914017677307129e-01 -5.138288252055644989e-03 -2.000517584383487701e-02
3.596342504024505615e-01 -4.464865848422050476e-02 -8.992488682270050049e-02
3.036549687385559082e-01 -6.683403998613357544e-02 1.046655029058456421e-01
2.370563894510269165e-01 2.025249786674976349e-02 -1.047900468111038208e-01
2.160872220993041992e-01 -5.257061868906021118e-02 -7.952271401882171631e-02
1.873164474964141846e-01 4.677035287022590637e-02 1.018189191818237305e-01
1.387921571731567383e-01 5.114642903208732605e-02 -5.810422357171773911e-03
3.504981994628906250e-01 1.312061250209808350e-01 -1.752527803182601929e-02
3.160063624382019043e-01 -6.709555536508560181e-02 9.991375356912612915e-02
3.158337473869323730e-01 -9.991505742073059082e-02 -6.292578577995300293e-02
1.911710500717163086e-01 7.883293926715850830e-02 8.557484298944473267e-02
2.881483137607574463e-01 1.181258857250213623e-01 6.624138355255126953e-02
3.939839005470275879e-01 3.892948478460311890e-02 5.214624106884002686e-02
1.842587292194366455e-01 8.095812797546386719e-02 -5.756351351737976074e-02
2.918211519718170166e-01 -6.418836116790771484e-02 1.092225760221481323e-01
3.697711825370788574e-01 1.186242923140525818e-01 -2.406280674040317535e-02
2.332401573657989502e-01 -7.254087179899215698e-02 -7.599326968193054199e-02
2.472332566976547241e-01 1.422969996929168701e-01 2.245977520942687988e-02
1.954780071973800659e-01 -1.430733501911163330e-02 -8.106816560029983521e-02
4.242707490921020508e-01 8.863196708261966705e-03 -1.284754090011119843e-02
3.556717038154602051e-01 7.226295024156570435e-02 -9.640563279390335083e-02
2.001488357782363892e-01 1.255379319190979004e-01 -1.394406892359256744e-02
2.160631716251373291e-01 -5.572669208049774170e-02 1.134660840034484863e-01
1.882264614105224609e-01 1.134014278650283813e-01 -2.418330311775207520e-02
2.396822124719619751e-01 5.312417820096015930e-02 -1.021062061190605164e-01
4.018662571907043457e-01 -3.935698792338371277e-02 -5.689888820052146912e-02
1.960534602403640747e-01 2.143519744277000427e-02 1.130971312522888184e-01
1.313240975141525269e-01 3.597693145275115967e-02 9.111769497394561768e-03
1.414643526077270508e-01 3.910928592085838318e-02 -2.204576507210731506e-02
2.809500098228454590e-01 -5.528302490711212158e-02 1.147690862417221069e-01
3.862633109092712402e-01 -6.081815809011459351e-02 -5.890092253684997559e-02
2.236118912696838379e-01 8.263079822063446045e-02 9.551611542701721191e-02
1.508901119232177734e-01 -4.460568726062774658e-02 -2.493747696280479431e-02
3.226536512374877930e-01 5.573664233088493347e-02 9.823253750801086426e-02
1.408854871988296509e-01 -4.872163757681846619e-02 5.410209298133850098e-02
2.046855092048645020e-01 -6.473333388566970825e-02 1.063835918903350830e-01
2.553836703300476074e-01 -2.527119591832160950e-03 1.245781183242797852e-01
3.447427451610565186e-01 -1.174210757017135620e-01 -2.632713411003351212e-03
2.946270108222961426e-01 -1.329795122146606445e-01 2.770791947841644287e-02
3.047799468040466309e-01 -1.207419708371162415e-01 -3.521607443690299988e-02
2.947569191455841064e-01 2.891009487211704254e-02 -1.157601848244667053e-01
3.146471083164215088e-01 -9.501314908266067505e-02 8.293443918228149414e-02
1.284223645925521851e-01 1.573304180055856705e-03 6.052292417734861374e-03
4.099137783050537109e-01 4.853156954050064087e-02 2.121146023273468018e-02
3.197015821933746338e-01 3.481449186801910400e-02 -1.145256236195564270e-01
2.907614409923553467e-01 1.480199694633483887e-01 -1.908392459154129028e-02
4.099754095077514648e-01 -1.480080187320709229e-02 3.362192586064338684e-02
2.856911420822143555e-01 1.397329866886138916e-01 -4.946321994066238403e-02
3.772033452987670898e-01 -6.931944191455841064e-02 -6.024213880300521851e-02
3.378799855709075928e-01 8.275873959064483643e-02 -9.802272170782089233e-02
2.797843217849731445e-01 7.218586653470993042e-02 -1.063631698489189148e-01
3.015239834785461426e-01 3.909930214285850525e-02 -1.150800064206123352e-01
2.024003863334655762e-01 -7.688175141811370850e-02 -5.588515102863311768e-02
-9.748170524835586548e-02 -4.349431395530700684e-02 3.050037100911140442e-02
-9.076490998268127441e-03 9.581709653139114380e-02 -8.956718444824218750e-02
8.987951278686523438e-02 1.180071532726287842e-01 5.641732830554246902e-03
-1.464435309171676636e-01 -4.600536823272705078e-02 8.136305212974548340e-02
-1.728244125843048096e-01 -2.352021634578704834e-02 1.097702682018280029e-01
-1.584863066673278809e-01 -4.444865882396697998e-02 8.948662877082824707e-02
-6.016413494944572449e-02 6.666928529739379883e-04 -9.109291434288024902e-02
-3.236927092075347900e-03 3.855703771114349365e-02 8.348679542541503906e-02
-3.454127162694931030e-02 1.007951945066452026e-01 9.642438590526580811e-02
3.433008491992950439e-02 1.447121500968933105e-01 2.177948132157325745e-03
4.521726071834564209e-02 5.571268126368522644e-02 -4.379392415285110474e-02
-1.624098271131515503e-01 6.212807819247245789e-02 5.003993958234786987e-02
-1.633499264717102051e-01 5.420067906379699707e-02 7.317294180393218994e-02
-1.022611781954765320e-01 -4.891321063041687012e-02 -5.287826061248779297e-03
-1.933588087558746338e-01 -5.512210726737976074e-02 -7.735278457403182983e-02
4.924543201923370361e-02 5.739255249500274658e-02 2.885449118912220001e-02
-1.226465776562690735e-01 5.748834460973739624e-03 -1.093903779983520508e-01
-2.719700932502746582e-01 -6.738232076168060303e-02 -2.414830774068832397e-02
-2.235603481531143188e-01 1.849110424518585205e-02 -8.148577064275741577e-03
-2.644845247268676758e-01 -3.457399457693099976e-02 -2.664127387106418610e-02
-9.432145208120346069e-02 9.401569515466690063e-02 7.074563205242156982e-02
-6.557343155145645142e-02 7.188774645328521729e-02 1.140084564685821533e-01
-1.283482909202575684e-01 4.698328301310539246e-02 1.122135668992996216e-01
-3.830270469188690186e-02 9.511964768171310425e-02 -8.460903912782669067e-02
-1.055789366364479065e-01 -1.261005550622940063e-02 1.029371991753578186e-01
1.878757774829864502e-02 2.699495851993560791e-02 1.507773064076900482e-02
-2.089407444000244141e-01 2.382662706077098846e-02 -3.394035249948501587e-02
-1.486704796552658081e-01 4.529251158237457275e-02 1.022280976176261902e-01
-2.182391285896301270e-02 -3.570362925529479980e-03 3.542080987244844437e-03
-2.097509354352951050e-01 2.719324640929698944e-02 5.235026776790618896e-02
3.387378156185150146e-02 5.262203514575958252e-02 -6.050432473421096802e-02
-1.994885355234146118e-01 -8.158357441425323486e-02 -2.270196378231048584e-02
3.160578012466430664e-02 1.277844011783599854e-01 6.753887981176376343e-02
-1.292491853237152100e-01 8.533179014921188354e-02 2.357822284102439880e-02
-5.381321161985397339e-02 1.162849590182304382e-01 5.428096652030944824e-02
-5.261651054024696350e-02 1.118602901697158813e-01 -4.597020149230957031e-02
-2.644051611423492432e-02 1.207888126373291016e-01 6.767798960208892822e-02
-1.679760813713073730e-01 2.847524546086788177e-02 -8.069301396608352661e-02
-9.017596393823623657e-02 -3.250842168927192688e-02 5.749324709177017212e-02
-4.761466011404991150e-02 1.226004138588905334e-01 -7.954053580760955811e-03
-1.208567619323730469e-01 7.032527029514312744e-02 9.161900728940963745e-02
-3.985190019011497498e-02 -5.210746079683303833e-03 -6.067819148302078247e-02
3.353299200534820557e-02 1.396006494760513306e-01 -2.864182181656360626e-02
-1.018585041165351868e-01 8.182552456855773926e-02 -6.395992636680603027e-02
-6.702598929405212402e-02 4.606013000011444092e-02 1.201692074537277222e-01
-2.354796826839447021e-01 -1.291713491082191467e-02 7.809017598628997803e-02
-2.704607248306274414e-01 -7.304739952087402344e-02 3.909107297658920288e-02
-2.503715157508850098e-01 -7.739438116550445557e-02 4.962912946939468384e-02
-1.857098042964935303e-01 2.456014789640903473e-02 -6.811301410198211670e-02
-2.253442853689193726e-01 -8.513980358839035034e-02 -2.233360894024372101e-02
-5.428269132971763611e-02 1.796626113355159760e-02 -1.025891602039337158e-01
-1.110234335064888000e-01 9.459573030471801758e-02 -1.496206969022750854e-03
-5.752959847450256348e-02 5.543800443410873413e-02 -1.082012802362442017e-01
-2.738742530345916748e-01 -4.636917263269424438e-02 -1.631428860127925873e-02
-5.095103383064270020e-02 6.812904775142669678e-02 -1.035548970103263855e-01
-4.125252738595008850e-02 1.189866885542869568e-01 -3.729932755231857300e-02
-1.103173941373825073e-01 -1.228326186537742615e-02 -1.017747819423675537e-01
-1.330945789813995361e-01 7.040940225124359131e-02 7.891533523797988892e-02
-7.562552392482757568e-02 -2.777329459786415100e-02 -5.512575060129165649e-02
-1.795859485864639282e-01 5.351758748292922974e-02 3.234083950519561768e-02
-3.489932045340538025e-02 2.034844644367694855e-02 -9.400181472301483154e-02
-2.499035000801086426e-02 1.155898943543434143e-01 7.904443144798278809e-02
-1.977747678756713867e-01 -2.385443076491355896e-03 -8.238212019205093384e-02
-8.900916576385498047e-02 6.140020117163658142e-02 -9.823199361562728882e-02
1.349709182977676392e-02 2.147622965276241302e-02 -9.366489946842193604e-03
-1.294925659894943237e-01 -5.978192389011383057e-02 1.824969798326492310e-02
-3.861885517835617065e-02 1.270031034946441650e-01 1.785590127110481262e-02
-1.121784299612045288e-01 -5.251781642436981201e-02 -2.168579772114753723e-02
-1.961334943771362305e-01 2.952609397470951080e-02 -4.543872177600860596e-02
-2.422894686460494995e-01 -8.693867921829223633e-02 2.253154292702674866e-02
6.214998662471771240e-02 1.421512663364410400e-01 -1.570262201130390167e-02
-1.128759458661079407e-01 -5.375120043754577637e-02 1.496182288974523544e-03
-1.732835620641708374e-01 -2.710757032036781311e-02 -9.662052243947982788e-02
-9.205792844295501709e-02 9.273917227983474731e-02 -5.073996633291244507e-02
-3.051798045635223389e-02 5.652418360114097595e-03 -7.104678452014923096e-02
-4.487052559852600098e-03 2.871733158826828003e-02 -7.711978256702423096e-02
-4.354592785239219666e-02 8.945951238274574280e-03 8.539662510156631470e-02
1.117990165948867798e-02 2.254166826605796814e-02 -3.402927517890930176e-02
4.044820368289947510e-02 6.678198277950286865e-02 6.414920091629028320e-02
-1.162525713443756104e-01 6.644704192876815796e-02 -7.665693759918212891e-02
-1.749784797430038452e-01 -7.524632662534713745e-02 -2.517675980925559998e-02
7.833273708820343018e-02 9.263441711664199829e-02 2.305722422897815704e-02
-8.654256910085678101e-02 -2.729461342096328735e-02 -7.013963907957077026e-02
4.404217004776000977e-02 1.445284485816955566e-01 -7.801197469234466553e-03
2.535647898912429810e-02 6.108677387237548828e-02 -7.981793582439422607e-02
-2.444285154342651367e-01 -3.283489122986793518e-02 -5.685629695653915405e-02
-7.397635281085968018e-02 -3.451310098171234131e-02 4.681986756622791290e-03
-1.058744341135025024e-01 -4.549095779657363892e-02 3.992664813995361328e-02
-9.103152900934219360e-02 -4.309538751840591431e-02 8.421637117862701416e-03
7.550773024559020996e-02 1.405699849128723145e-01 5.729285068809986115e-03
-7.566288113594055176e-03 1.027535870671272278e-01 9.669154882431030273e-02
1.105432957410812378e-02 1.400144398212432861e-01 2.878382429480552673e-02
-2.190670669078826904e-01 -5.109907686710357666e-02 8.855456858873367310e-02
-2.540688514709472656e-01 -7.245153188705444336e-02 -4.079212993383407593e-02
-4.715926945209503174e-02 1.231998503208160400e-01 2.894232608377933502e-02
-5.894877016544342041e-03 1.202962622046470642e-01 -6.035003066062927246e-02
-1.569226533174514771e-01 6.263823062181472778e-02 6.148952245712280273e-02
1.325639337301254272e-02 3.284137323498725891e-02 -5.957957357168197632e-02
2.114813774824142456e-02 2.847521007061004639e-02 -2.180592156946659088e-02
-1.863166242837905884e-01 -7.447705417871475220e-02 -4.130913317203521729e-02
-4.180667921900749207e-02 -1.621036976575851440e-02 3.842089325189590454e-03
-7.923883944749832153e-02 4.233775287866592407e-02 1.215405911207199097e-01
-2.218320816755294800e-01 -3.115183487534523010e-02 -7.634006440639495850e-02
-1.818406134843826294e-01 -6.296744942665100098e-02 -6.583083420991897583e-02
2.074849605560302734e-02 1.388622820377349854e-01 -2.567369118332862854e-02
-4.042078554630279541e-02 7.932913303375244141e-02 1.115522459149360657e-01
-2.570767700672149658e-01 -1.262547075748443604e-02 1.750368624925613403e-02
-9.497197717428207397e-02 2.705600857734680176e-02 1.218774467706680298e-01
-3.592621535062789917e-02 1.211215853691101074e-01 5.904980003833770752e-02
-6.451231241226196289e-02 1.170752421021461487e-01 1.256635505706071854e-02
1.536101102828979492e-03 1.380632519721984863e-01 -8.545615710318088531e-03
2.815224230289459229e-03 1.357418112456798553e-02 3.157475031912326813e-03
5.514472723007202148e-03 3.536942228674888611e-02 6.904909014701843262e-02
-6.033032387495040894e-02 -2.138629555702209473e-02 4.122864454984664917e-02
-2.351697534322738647e-02 9.583191573619842529e-02 -8.781833946704864502e-02
-8.182373642921447754e-02 -3.850769996643066406e-02 -1.489987783133983612e-02
2.494449913501739502e-02 1.367963850498199463e-01 5.026582628488540649e-02
-1.427223384380340576e-01 7.602591812610626221e-02 4.025963693857192993e-02
-2.419794946908950806e-01 3.666883334517478943e-03 1.530393119901418686e-02
-1.600318551063537598e-01 5.886360257863998413e-02 -3.712985664606094360e-02
-9.387250244617462158e-02 5.189041048288345337e-02 1.194018498063087463e-01
2.083945274353027344e-02 1.026021242141723633e-01 -8.270924538373947144e-02
-2.190358340740203857e-01 2.213330753147602081e-02 4.097838699817657471e-02
-2.451845258474349976e-01 -5.500413477420806885e-03 -2.008071355521678925e-02
6.335027515888214111e-03 7.099427282810211182e-02 9.832160174846649170e-02
-2.144562453031539917e-02 8.382797241210937500e-04 3.316491097211837769e-02
3.510288894176483154e-02 1.016193404793739319e-01 8.408638834953308105e-02
-2.788414955139160156e-01 -5.510243028402328491e-02 3.101514466106891632e-02
3.167267143726348877e-02 3.631685674190521240e-02 -8.858875371515750885e-03
-2.567694187164306641e-01 -2.464931085705757141e-02 -3.019509278237819672e-02
-4.651295766234397888e-02 1.039345040917396545e-01 8.855774998664855957e-02
-8.776015788316726685e-02 8.700092881917953491e-02 -6.743767857551574707e-02
-5.691635608673095703e-02 -2.447845041751861572e-02 1.283572334796190262e-02
