-3.107626438140869141e-01 4.276550412178039551e-01 2.685573101043701172e-01
-2.843327820301055908e-01 8.969461917877197266e-02 -3.768809884786605835e-02
-3.564199805259704590e-01 2.094227671623229980e-01 -1.062927916646003723e-01
-3.224281966686248779e-01 4.038492739200592041e-01 -2.292383313179016113e-01
-3.200436830520629883e-01 4.469926357269287109e-01 -1.400735080242156982e-01
-4.072395861148834229e-01 7.644655704498291016e-01 3.962187469005584717e-01
-3.285334110260009766e-01 4.895111918449401855e-01 -1.266421973705291748e-01
-4.031162261962890625e-01 5.259214639663696289e-01 6.875355541706085205e-02
-3.569825589656829834e-01 5.337184071540832520e-01 -1.785782575607299805e-01
-3.878809511661529541e-01 4.670822322368621826e-01 -1.131591424345970154e-01
-4.140065014362335205e-01 7.104257345199584961e-01 2.515452206134796143e-01
-3.052821755409240723e-01 3.983087241649627686e-01 2.214330434799194336e-01
-3.318626284599304199e-01 5.738965272903442383e-01 8.638226985931396484e-02
-2.825802564620971680e-01 9.317433834075927734e-02 -6.750159710645675659e-02
-3.638641536235809326e-01 2.718973159790039062e-01 1.735593974590301514e-01
-4.074970483779907227e-01 5.695756673812866211e-01 1.152800917625427246e-01
-3.444470763206481934e-01 1.533018648624420166e-01 -8.917256444692611694e-02
-3.068992495536804199e-01 3.261806964874267578e-01 -2.343844473361968994e-01
-3.863357603549957275e-01 6.651248931884765625e-01 -1.585295051336288452e-02
-2.896901965141296387e-01 8.319446444511413574e-02 -2.636703550815582275e-01
-3.481186628341674805e-01 6.503704190254211426e-01 3.490726947784423828e-01
-4.018913805484771729e-01 5.139849781990051270e-01 2.589545845985412598e-01
-2.809484601020812988e-01 1.483053863048553467e-01 -8.052142709493637085e-02
-3.541651368141174316e-01 6.174251437187194824e-01 4.788266718387603760e-01
-3.729068040847778320e-01 3.873296082019805908e-01 -2.065007686614990234e-01
-3.835722804069519043e-01 7.465773820877075195e-01 4.589382708072662354e-01
-3.380977511405944824e-01 3.884703814983367920e-01 -2.947568893432617188e-01
-3.474771082401275635e-01 6.468976736068725586e-01 1.335553526878356934e-01
-4.085761904716491699e-01 6.601644158363342285e-01 4.072353541851043701e-01
-3.180164098739624023e-01 4.419422149658203125e-01 3.449375033378601074e-01
-3.766101300716400146e-01 3.135977089405059814e-01 4.711161181330680847e-02
-3.551232218742370605e-01 4.045274257659912109e-01 4.506342411041259766e-01
-2.999940812587738037e-01 3.645104169845581055e-01 -6.382279843091964722e-02
-3.319188356399536133e-01 1.903182417154312134e-01 -3.309763371944427490e-01
-2.927336990833282471e-01 3.131927251815795898e-01 -4.670422524213790894e-02
-3.944932520389556885e-01 4.455209076404571533e-01 2.047632634639739990e-01
-3.830882608890533447e-01 3.577842712402343750e-01 -5.717799067497253418e-03
-3.784592449665069580e-01 4.216900467872619629e-01 -1.777653098106384277e-01
-3.797172904014587402e-01 4.037039279937744141e-01 3.292534351348876953e-01
-3.995590209960937500e-01 6.056280732154846191e-01 -1.289871335029602051e-02
-3.840928673744201660e-01 5.955790877342224121e-01 5.204615592956542969e-01
-3.086211383342742920e-01 4.429012238979339600e-01 1.687927842140197754e-01
-3.434426188468933105e-01 2.469793856143951416e-01 -3.155189454555511475e-01
-3.563884496688842773e-01 2.059521824121475220e-01 -2.251688390970230103e-02
-2.903700172901153564e-01 2.695732116699218750e-01 -1.268455684185028076e-01
-3.087238669395446777e-01 4.240654110908508301e-01 2.380588948726654053e-01
-3.019535541534423828e-01 1.547183096408843994e-01 -3.350254297256469727e-01
-3.767898976802825928e-01 7.522809505462646484e-01 3.803649246692657471e-01
-3.286570906639099121e-01 1.078906655311584473e-01 -2.204106152057647705e-01
-3.249034285545349121e-01 8.594805002212524414e-02 -1.567310094833374023e-01
-3.495378196239471436e-01 2.071552127599716187e-01 -2.292135655879974365e-01
-3.737768828868865967e-01 3.063688874244689941e-01 -7.783172279596328735e-02
-3.127019405364990234e-01 4.333826601505279541e-01 2.897916138172149658e-01
-4.013376832008361816e-01 5.715410113334655762e-01 -3.158450126647949219e-04
-3.207113444805145264e-01 5.209518671035766602e-01 1.063777506351470947e-01
-2.912290990352630615e-01 3.030679523944854736e-01 5.652822181582450867e-02
-2.818718552589416504e-01 9.012451767921447754e-02 -1.336112618446350098e-01
-3.586751222610473633e-01 7.015002965927124023e-01 2.747115790843963623e-01
-3.917149305343627930e-01 5.228703618049621582e-01 4.199512302875518799e-01
-3.989284038543701172e-01 6.874467134475708008e-01 4.939623177051544189e-01
-3.074726760387420654e-01 3.005862534046173096e-01 2.992027401924133301e-01
-3.664213120937347412e-01 6.093327999114990234e-01 5.291271209716796875e-01
-3.875800669193267822e-01 4.218151271343231201e-01 -7.776177674531936646e-02
-3.542865514755249023e-01 6.631582975387573242e-01 4.067329168319702148e-01
-3.979027867317199707e-01 5.357096195220947266e-01 -3.233579546213150024e-02
-2.979867458343505859e-01 6.992188096046447754e-02 1.219710707664489746e-02
-4.086971879005432129e-01 6.578351259231567383e-01 1.025013849139213562e-01
-3.282955884933471680e-01 5.280555486679077148e-01 3.578357696533203125e-01
-3.710519075393676758e-01 3.144897520542144775e-01 2.088118195533752441e-01
-3.241175711154937744e-01 9.886988997459411621e-02 1.278953254222869873e-02
-3.349262177944183350e-01 1.276534199714660645e-01 -2.031172215938568115e-01
-3.854817748069763184e-01 5.328640937805175781e-01 4.718465209007263184e-01
-3.070700168609619141e-01 4.812216758728027344e-02 -9.981708973646163940e-02
-2.869648635387420654e-01 2.570975422859191895e-01 -4.709067195653915405e-02
-3.893042206764221191e-01 3.961921334266662598e-01 7.933999598026275635e-02
-3.894163370132446289e-01 4.028296768665313721e-01 1.480095088481903076e-02
-4.089709818363189697e-01 5.737960338592529297e-01 2.011659890413284302e-01
-3.787172138690948486e-01 3.330176472663879395e-01 1.230322420597076416e-01
-3.670170307159423828e-01 2.589420974254608154e-01 -3.759026527404785156e-03
-3.086050748825073242e-01 4.393358230590820312e-01 2.160421758890151978e-02
-4.050809741020202637e-01 5.516743063926696777e-01 7.544948905706405640e-02
-3.731953501701354980e-01 2.931597828865051270e-01 1.467466354370117188e-02
-3.265276551246643066e-01 9.730648994445800781e-02 -2.726350724697113037e-02
-3.405049741268157959e-01 4.506905078887939453e-01 4.699597656726837158e-01
-4.115982055664062500e-01 7.455439567565917969e-01 3.622907698154449463e-01
-2.840191423892974854e-01 7.835662364959716797e-02 -1.907723546028137207e-01
-3.814094960689544678e-01 5.501826405525207520e-01 5.030612945556640625e-01
-2.969495356082916260e-01 3.582989275455474854e-01 6.184981018304824829e-02
-2.835579514503479004e-01 2.076513618230819702e-01 -1.159473508596420288e-02
-3.909925520420074463e-01 4.653744399547576904e-01 -7.700734585523605347e-02
-3.646809160709381104e-01 5.722178816795349121e-01 5.296685695648193359e-01
-3.921475410461425781e-01 4.181018769741058350e-01 6.610163301229476929e-02
-3.241210877895355225e-01 4.238949418067932129e-01 4.014216959476470947e-01
-3.654550611972808838e-01 2.681910991668701172e-01 1.326565742492675781e-01
-3.415119051933288574e-01 2.487290352582931519e-01 2.898297905921936035e-01
-3.511340022087097168e-01 1.822371631860733032e-01 -3.182826936244964600e-02
-3.691350519657135010e-01 7.287340760231018066e-01 2.089408785104751587e-01
-3.519373834133148193e-01 6.731354594230651855e-01 3.151143789291381836e-01
-3.628410696983337402e-01 2.373653203248977661e-01 -7.714837789535522461e-03
-2.817959785461425781e-01 1.250205636024475098e-01 -3.757388144731521606e-02
-2.817912399768829346e-01 9.146589040756225586e-02 -1.135293319821357727e-01
-3.640145361423492432e-01 2.962732911109924316e-01 2.426145970821380615e-01
-3.009359538555145264e-01 3.898582756519317627e-01 1.011202335357666016e-01
-3.837835490703582764e-01 3.855287730693817139e-01 2.300294041633605957e-01
-4.000495672225952148e-01 5.192356109619140625e-01 3.152050077915191650e-01
-3.140541017055511475e-01 3.092491030693054199e-01 3.374226987361907959e-01
-2.859178185462951660e-01 2.032056003808975220e-01 -1.705124676227569580e-01
-3.605827689170837402e-01 2.768713235855102539e-01 -2.227460145950317383e-01
-3.835799694061279297e-01 3.785576820373535156e-01 2.096504420042037964e-01
-3.760415315628051758e-01 4.649930596351623535e-01 -1.960399448871612549e-01
-3.857118785381317139e-01 4.681572914123535156e-01 3.900507688522338867e-01
-3.337749540805816650e-01 1.405963003635406494e-01 -2.572204470634460449e-01
-3.457881510257720947e-01 2.134110778570175171e-01 1.945400238037109375e-01
-3.491647541522979736e-01 6.276096105575561523e-01 4.263740181922912598e-01
-3.751883804798126221e-01 3.275219500064849854e-01 -1.130222156643867493e-01
-3.822647333145141602e-01 4.631051421165466309e-01 -1.592810750007629395e-01
-2.885751128196716309e-01 1.872038245201110840e-01 1.103069558739662170e-01
-2.960272431373596191e-01 3.020549416542053223e-01 -1.570421457290649414e-01
-2.869569957256317139e-01 1.734734922647476196e-01 8.481429517269134521e-02
-3.412798047065734863e-01 5.278891324996948242e-01 4.661951959133148193e-01
-3.652012050151824951e-01 3.431996405124664307e-01 3.323708772659301758e-01
-3.809354603290557861e-01 7.224211096763610840e-01 4.898448884487152100e-01
-2.856267094612121582e-01 1.429904699325561523e-01 -2.287101149559020996e-01
-4.124586284160614014e-01 6.633856296539306641e-01 1.726381480693817139e-01
-3.902767598628997803e-01 5.344156026840209961e-01 4.449647665023803711e-01
-3.488411009311676025e-01 4.579166173934936523e-01 4.870101511478424072e-01
-3.955972790718078613e-01 4.890477657318115234e-01 3.184415102005004883e-01
-3.719516992568969727e-01 7.433336973190307617e-01 2.767084836959838867e-01
-3.173285722732543945e-01 4.880786538124084473e-01 2.589951455593109131e-01
-3.214815855026245117e-01 5.269796252250671387e-01 1.961718201637268066e-01
-3.063021898269653320e-01 1.057537496089935303e-01 1.019856855273246765e-01
-3.318130970001220703e-01 4.012986421585083008e-01 -2.708428800106048584e-01
-3.516850769519805908e-01 1.886853277683258057e-01 1.687101274728775024e-02
-2.825471758842468262e-01 1.843942403793334961e-01 -1.599139720201492310e-02
-3.605160713195800781e-01 6.949049234390258789e-01 1.549919843673706055e-01
-3.785422742366790771e-01 4.097052514553070068e-01 3.515022695064544678e-01
-3.639367520809173584e-01 5.452904701232910156e-01 5.253936648368835449e-01
-3.019858598709106445e-01 3.947213590145111084e-01 1.588964462280273438e-02
-4.060948789119720459e-01 5.753679871559143066e-01 7.100097090005874634e-02
-3.670799732208251953e-01 2.639187574386596680e-01 6.498647481203079224e-02
-3.886658251285552979e-01 7.610777616500854492e-01 4.454830288887023926e-01
-3.520655632019042969e-01 1.856847554445266724e-01 -5.857292562723159790e-02
-3.398658037185668945e-01 1.389891207218170166e-01 -2.392961084842681885e-02
-4.033496081829071045e-01 5.894088149070739746e-01 3.943392634391784668e-01
-3.218030631542205811e-01 4.943116009235382080e-01 -4.377499967813491821e-02
-2.941350936889648438e-01 2.878325283527374268e-01 1.672978103160858154e-01
-4.115767478942871094e-01 6.276206970214843750e-01 1.636668294668197632e-01
-4.065698087215423584e-01 5.504704713821411133e-01 1.315505951642990112e-01
-3.231891989707946777e-01 5.336422920227050781e-01 2.332277894020080566e-01
-3.123224973678588867e-01 2.625797390937805176e-01 3.065997958183288574e-01
-3.917235136032104492e-01 4.245044589042663574e-01 6.536245346069335938e-03
-3.012003898620605469e-01 4.539793729782104492e-02 -8.072955161333084106e-02
-2.997150421142578125e-01 1.236924231052398682e-01 1.238267868757247925e-01
-2.885394096374511719e-01 6.942284107208251953e-02 -3.446873277425765991e-02
-3.608496487140655518e-01 2.435459941625595093e-01 -1.519085764884948730e-01
-3.450294137001037598e-01 5.635178089141845703e-01 4.675828516483306885e-01
-3.716902732849121094e-01 3.848595619201660156e-01 3.607679605484008789e-01
-4.087899029254913330e-01 6.231709122657775879e-01 9.839991480112075806e-02
-3.121934831142425537e-01 3.828975856304168701e-01 -1.899761259555816650e-01
-3.004649281501770020e-01 2.543644309043884277e-01 2.405766248703002930e-01
-3.408493399620056152e-01 1.401500999927520752e-01 -1.239408478140830994e-01
-3.730594217777252197e-01 3.478797376155853271e-01 -1.764613687992095947e-01
-4.141205847263336182e-01 6.748627424240112305e-01 2.371710538864135742e-01
-3.349928259849548340e-01 4.576821625232696533e-01 4.523559212684631348e-01
-3.385920226573944092e-01 6.026859283447265625e-01 3.406158685684204102e-01
-4.124228656291961670e-01 7.120514512062072754e-01 3.718835413455963135e-01
-2.852577269077301025e-01 1.107739806175231934e-01 -2.320444583892822266e-01
-3.840672671794891357e-01 7.627125382423400879e-01 4.149975776672363281e-01
-3.891263902187347412e-01 3.957199156284332275e-01 5.471593141555786133e-02
-3.962671756744384766e-01 7.374309301376342773e-01 4.846866428852081299e-01
-3.329464495182037354e-01 3.270910978317260742e-01 3.952840268611907959e-01
-3.690460324287414551e-01 3.899605274200439453e-01 3.853734135627746582e-01
-3.817971944808959961e-01 5.234675407409667969e-01 -1.524791717529296875e-01
-2.908340096473693848e-01 2.215802073478698730e-01 -2.200634181499481201e-01
-3.217012882232666016e-01 8.941963315010070801e-02 -5.602598190307617188e-03
-3.050523996353149414e-01 3.391920328140258789e-01 -1.981539130210876465e-01
-3.299283087253570557e-01 1.238219738006591797e-01 5.688303709030151367e-02
-3.154118657112121582e-01 4.819692969322204590e-01 2.292530536651611328e-01
-2.955246567726135254e-01 3.140166401863098145e-01 -1.204562410712242126e-01
-3.473425805568695068e-01 5.708879828453063965e-01 -9.071113914251327515e-02
-3.505170345306396484e-01 5.121554732322692871e-01 -1.933175027370452881e-01
-3.159509301185607910e-01 4.720622897148132324e-01 2.732633650302886963e-01
-2.961547076702117920e-01 1.883832514286041260e-01 1.784708797931671143e-01
-3.446529805660247803e-01 4.543627798557281494e-01 -2.464364767074584961e-01
-3.054205179214477539e-01 2.539854645729064941e-01 -3.036576509475708008e-01
-4.010829925537109375e-01 7.069498300552368164e-01 8.626931160688400269e-02
-2.864305675029754639e-01 2.177746146917343140e-01 -1.552583277225494385e-01
-3.644555211067199707e-01 2.462338358163833618e-01 1.213442534208297729e-02
-2.926476001739501953e-01 2.966099381446838379e-01 -1.061610206961631775e-01
-3.826822042465209961e-01 5.911505222320556641e-01 -1.059926077723503113e-01
-3.044952154159545898e-01 3.995528221130371094e-01 -4.407236725091934204e-02
-4.131200015544891357e-01 7.323331236839294434e-01 3.387156426906585693e-01
-3.542498052120208740e-01 2.939501106739044189e-01 -2.843647897243499756e-01
-3.709694743156433105e-01 2.813798487186431885e-01 -2.405963093042373657e-02
-3.972956538200378418e-01 5.751396417617797852e-01 -4.057026654481887817e-02
-3.244014680385589600e-01 5.348981022834777832e-01 2.685915231704711914e-01
-3.964902162551879883e-01 4.638247191905975342e-01 2.237485051155090332e-01
-3.633541464805603027e-01 2.482651323080062866e-01 -1.119129285216331482e-01
-3.590687215328216553e-01 4.040868878364562988e-01 -2.722685039043426514e-01
-3.705123066902160645e-01 7.385145425796508789e-01 3.439171910285949707e-01
-3.499184250831604004e-01 5.674331188201904297e-01 -1.097665950655937195e-01
-2.869364619255065918e-01 2.358077466487884521e-01 -1.277486681938171387e-01
-3.671748638153076172e-01 3.088467121124267578e-01 -1.945123970508575439e-01
-2.936264574527740479e-01 2.757681012153625488e-01 -1.729021072387695312e-01
-3.055447041988372803e-01 3.595901727676391602e-01 2.714859545230865479e-01
-3.772280514240264893e-01 3.591856956481933594e-01 2.537205517292022705e-01
-3.776697516441345215e-01 3.635057210922241211e-01 -1.400559842586517334e-01
-3.378300666809082031e-01 5.871168375015258789e-01 3.715047240257263184e-01
-3.330265581607818604e-01 5.834875106811523438e-01 1.124791279435157776e-01
-4.050206243991851807e-01 5.831993818283081055e-01 4.696429520845413208e-02
-4.077856540679931641e-01 5.851054191589355469e-01 3.116598427295684814e-01
-3.837662339210510254e-01 3.592812120914459229e-01 8.981944620609283447e-02
-4.087525904178619385e-01 7.701930999755859375e-01 3.351522386074066162e-01
-2.995190322399139404e-01 3.403526842594146729e-01 2.050256133079528809e-01
-3.115973174571990967e-01 5.292066931724548340e-02 -1.567018330097198486e-01
-2.907709777355194092e-01 2.172844409942626953e-01 1.428945958614349365e-01
-2.921604812145233154e-01 2.911209464073181152e-01 1.248192340135574341e-01
-4.049154818058013916e-01 5.284265875816345215e-01 1.477330625057220459e-01
-3.503824174404144287e-01 2.773658335208892822e-01 -2.970221638679504395e-01
-3.861766159534454346e-01 3.872375786304473877e-01 1.831334829330444336e-01
-3.216990232467651367e-01 3.328996300697326660e-01 -3.043455183506011963e-01
-2.934579253196716309e-01 2.444133013486862183e-01 -2.210242450237274170e-01
-3.548823595046997070e-01 2.943481206893920898e-01 -2.365449666976928711e-01
-2.813099622726440430e-01 2.751090526580810547e-01 -4.571288824081420898e-01
-2.279100418090820312e-01 2.472350895404815674e-01 3.295688927173614502e-01
-2.722235023975372314e-01 2.769083976745605469e-01 -4.277668297290802002e-01
-2.552797198295593262e-01 2.439169734716415405e-01 -3.990621566772460938e-01
-2.514844536781311035e-01 9.151451289653778076e-02 -2.221121490001678467e-01
-2.623594403266906738e-01 3.748771548271179199e-01 -7.382805645465850830e-02
-3.267196416854858398e-01 2.192700803279876709e-01 5.546305179595947266e-01
-3.094234466552734375e-01 4.094192087650299072e-01 4.368878901004791260e-01
-3.662230372428894043e-01 2.035524100065231323e-01 1.662463098764419556e-01
-3.503904342651367188e-01 1.012711524963378906e-01 -7.833145558834075928e-02
-3.204275071620941162e-01 7.260148227214813232e-02 -3.866066932678222656e-01
-3.374140560626983643e-01 9.752166271209716797e-02 1.464193761348724365e-01
-2.268216907978057861e-01 1.890706717967987061e-01 1.924150288105010986e-01
-3.026775717735290527e-01 4.246025085449218750e-01 2.313449531793594360e-01
-2.840658724308013916e-01 1.204347163438796997e-01 4.048696458339691162e-01
-2.616684734821319580e-01 8.854165673255920410e-02 -3.363180160522460938e-01
-3.337265551090240479e-01 1.458937972784042358e-01 3.713581264019012451e-01
-2.261901944875717163e-01 2.081431746482849121e-01 2.371939718723297119e-01
-3.672557175159454346e-01 2.032577991485595703e-01 1.391997784376144409e-01
-2.505239546298980713e-01 3.338173031806945801e-01 5.309818387031555176e-01
-3.260359168052673340e-01 7.316704094409942627e-02 8.929786086082458496e-02
-3.268080055713653564e-01 3.328794240951538086e-01 -3.072054088115692139e-01
-2.569548487663269043e-01 3.081530928611755371e-01 5.969709753990173340e-01
-2.397355288267135620e-01 3.491408228874206543e-01 6.688693165779113770e-02
-2.846542596817016602e-01 4.810014367103576660e-02 -3.465371206402778625e-02
-2.503147125244140625e-01 1.839384585618972778e-01 4.619888663291931152e-01
-2.555715143680572510e-01 3.806683123111724854e-01 3.311315551400184631e-02
-3.489255905151367188e-01 2.934098839759826660e-01 4.567699730396270752e-01
-3.337904214859008789e-01 3.992777466773986816e-01 2.088274657726287842e-01
-3.012832403182983398e-01 1.376909315586090088e-01 4.568096399307250977e-01
-2.380053997039794922e-01 1.738182008266448975e-01 3.352183699607849121e-01
-3.419151604175567627e-01 2.909298241138458252e-01 5.150417089462280273e-01
-3.588128089904785156e-01 1.459754705429077148e-01 -2.608806192874908447e-01
-2.575611174106597900e-01 1.829851120710372925e-01 -4.501519203186035156e-01
-2.759972214698791504e-01 3.446830809116363525e-01 -2.719354927539825439e-01
-3.194713294506072998e-01 1.677227765321731567e-01 4.914336204528808594e-01
-3.508366644382476807e-01 3.542151749134063721e-01 2.985476851463317871e-01
-2.615958154201507568e-01 4.008899331092834473e-01 1.602468490600585938e-01
-2.405942380428314209e-01 3.600151538848876953e-01 1.834639608860015869e-01
-3.249427974224090576e-01 3.919772207736968994e-01 4.410394132137298584e-01
-3.646986782550811768e-01 2.050719559192657471e-01 -2.436408698558807373e-01
-3.571052849292755127e-01 1.280851662158966064e-01 2.283848822116851807e-02
-2.766883373260498047e-01 1.316813826560974121e-01 4.293870627880096436e-01
-3.546871840953826904e-01 2.095322459936141968e-01 3.519056737422943115e-01
-3.474314808845520020e-01 1.188141182065010071e-01 1.493370085954666138e-01
-2.759515047073364258e-01 4.172171950340270996e-01 1.994805186986923218e-01
-3.455613553524017334e-01 1.809758543968200684e-01 -4.471292793750762939e-01
-2.898446917533874512e-01 4.236568808555603027e-01 3.133134543895721436e-01
-3.041120469570159912e-01 3.949412107467651367e-01 5.265675783157348633e-01
-2.557145357131958008e-01 1.645335108041763306e-01 -4.347198307514190674e-01
-3.129033446311950684e-01 3.484360575675964355e-01 6.137518286705017090e-01
-2.396922856569290161e-01 3.417769372463226318e-01 1.321005076169967651e-02
-3.038488030433654785e-01 2.960895001888275146e-01 -4.414352178573608398e-01
-2.697010636329650879e-01 3.868626058101654053e-01 -5.686863139271736145e-02
-2.656200826168060303e-01 1.199812516570091248e-01 3.556965291500091553e-01
-3.465131819248199463e-01 3.731798529624938965e-01 2.410715669393539429e-01
-3.678867816925048828e-01 2.386805415153503418e-01 -1.580554991960525513e-01
-3.493177592754364014e-01 2.526190280914306641e-01 -3.732991814613342285e-01
-2.696532607078552246e-01 9.974043071269989014e-02 -4.284990131855010986e-01
-3.237402439117431641e-01 7.718794047832489014e-02 1.361288726329803467e-01
-3.156669139862060547e-01 1.878585964441299438e-01 5.436772704124450684e-01
-2.483623325824737549e-01 9.471137821674346924e-02 5.787931382656097412e-02
-3.710114359855651855e-01 2.315023690462112427e-01 -2.684943005442619324e-02
-2.822423577308654785e-01 3.600251078605651855e-01 -2.364515364170074463e-01
-2.313543409109115601e-01 1.508527994155883789e-01 1.155283898115158081e-01
-3.341138362884521484e-01 8.841897547245025635e-02 1.229048818349838257e-01
-3.663057684898376465e-01 2.611775696277618408e-01 2.253613173961639404e-01
-3.587816953659057617e-01 2.828068137168884277e-01 3.495492339134216309e-01
-2.474129796028137207e-01 1.219358518719673157e-01 -3.038873672485351562e-01
-2.382990419864654541e-01 1.911763846874237061e-01 -2.935615181922912598e-01
-3.204364180564880371e-01 8.354185521602630615e-02 1.946205198764801025e-01
-3.501084148883819580e-01 1.135324090719223022e-01 7.457912713289260864e-02
-2.345814406871795654e-01 3.339484333992004395e-01 8.489546179771423340e-02
-3.299998939037322998e-01 3.546603322029113770e-01 5.276905298233032227e-01
-2.257259786128997803e-01 2.003913521766662598e-01 -7.687664031982421875e-02
-2.542781233787536621e-01 2.140392661094665527e-01 5.372193455696105957e-01
-2.241582870483398438e-01 2.435670644044876099e-01 2.345842123031616211e-01
-2.268497645854949951e-01 2.292998284101486206e-01 -1.094970107078552246e-01
-3.141095340251922607e-01 2.381532490253448486e-01 6.174136400222778320e-01
-2.369853705167770386e-01 1.244362965226173401e-01 -1.090539842844009399e-01
-2.293308675289154053e-01 1.701951026916503906e-01 -1.201277822256088257e-01
-3.071099519729614258e-01 3.430385887622833252e-01 -3.174462318420410156e-01
-2.258329689502716064e-01 2.760738134384155273e-01 1.420434564352035522e-02
-3.463116288185119629e-01 2.813948690891265869e-01 4.827562570571899414e-01
-2.740814387798309326e-01 7.052944600582122803e-02 1.426771730184555054e-01
-3.226993083953857422e-01 3.421771228313446045e-01 -2.907530665397644043e-01
-2.470920681953430176e-01 1.558129787445068359e-01 -3.621110618114471436e-01
-3.446919322013854980e-01 1.583332717418670654e-01 -4.425905346870422363e-01
-2.305736839771270752e-01 1.476128101348876953e-01 6.649140268564224243e-03
-2.235478013753890991e-01 2.661935091018676758e-01 1.774100959300994873e-01
-3.530856668949127197e-01 3.579057455062866211e-01 1.551480144262313843e-01
-3.191787004470825195e-01 1.271719038486480713e-01 3.828871250152587891e-01
-3.450938463211059570e-01 1.675786077976226807e-01 3.517624437808990479e-01
-3.097651004791259766e-01 1.276209354400634766e-01 4.122922122478485107e-01
-3.354316055774688721e-01 1.374036967754364014e-01 3.344229459762573242e-01
-2.285059392452239990e-01 1.640933454036712646e-01 -6.244118139147758484e-02
-2.331472337245941162e-01 3.150503039360046387e-01 -4.896275699138641357e-03
-3.046992421150207520e-01 4.601389169692993164e-02 -5.497658625245094299e-02
-3.620914816856384277e-01 2.653121650218963623e-01 3.059517443180084229e-01
-2.859694063663482666e-01 4.029439389705657959e-01 4.980257451534271240e-01
-2.933990955352783203e-01 3.697885870933532715e-01 -2.189292013645172119e-01
-3.583002388477325439e-01 3.173454403877258301e-01 3.038401305675506592e-01
-3.234452605247497559e-01 1.025719940662384033e-01 2.724513113498687744e-01
-3.056071698665618896e-01 6.478874385356903076e-02 1.378252059221267700e-01
-3.406109809875488281e-01 3.404677510261535645e-01 -2.072411477565765381e-01
-3.293589651584625244e-01 7.015638053417205811e-02 2.755545452237129211e-02
-2.284586727619171143e-01 2.342423945665359497e-01 -1.381187438964843750e-01
-2.557821869850158691e-01 1.994728147983551025e-01 5.213543176651000977e-01
-2.558263242244720459e-01 1.068861186504364014e-01 -3.487163782119750977e-01
-2.941198348999023438e-01 3.151874244213104248e-01 6.703619956970214844e-01
-3.560142219066619873e-01 2.837105393409729004e-01 -2.528891563415527344e-01
-2.807286977767944336e-01 3.825435042381286621e-01 5.659197568893432617e-01
-3.607878684997558594e-01 2.231868803501129150e-01 2.981022298336029053e-01
-2.808719277381896973e-01 3.421458601951599121e-01 -2.952368259429931641e-01
-2.247840166091918945e-01 2.455968409776687622e-01 -3.652131184935569763e-02
-3.163936734199523926e-01 3.913669288158416748e-01 -9.196342527866363525e-02
-3.693174123764038086e-01 2.142189890146255493e-01 -1.288812756538391113e-01
-2.394185513257980347e-01 2.380776256322860718e-01 4.675241410732269287e-01
-2.690954506397247314e-01 2.296924144029617310e-01 6.111938357353210449e-01
-3.393121659755706787e-01 1.884249448776245117e-01 4.403690099716186523e-01
-3.605856001377105713e-01 2.481971234083175659e-01 3.246663510799407959e-01
-3.396356105804443359e-01 3.043830394744873047e-01 -3.298653066158294678e-01
-3.491938710212707520e-01 3.585208654403686523e-01 -1.091272011399269104e-02
-3.620277643203735352e-01 2.140506058931350708e-01 2.660489976406097412e-01
-3.440622985363006592e-01 3.747473657131195068e-01 3.926892206072807312e-02
-3.453463315963745117e-01 2.236489802598953247e-01 -4.333611428737640381e-01
-3.654563426971435547e-01 1.681468784809112549e-01 -1.642150878906250000e-01
-2.429638206958770752e-01 1.949675679206848145e-01 -3.418906331062316895e-01
-2.278271019458770752e-01 2.081036269664764404e-01 -1.367116868495941162e-01
-3.586476445198059082e-01 2.542321681976318359e-01 -2.851533889770507812e-01
-3.590624630451202393e-01 2.952345311641693115e-01 3.339894115924835205e-01
-3.581118583679199219e-01 3.250379264354705811e-01 2.818515300750732422e-01
-2.781821787357330322e-01 1.584257483482360840e-01 -5.340906977653503418e-01
-3.545913994312286377e-01 1.859549731016159058e-01 3.061159849166870117e-01
-3.238342106342315674e-01 3.970418572425842285e-01 -1.398922130465507507e-02
-2.316317260265350342e-01 2.462361007928848267e-01 3.885815441608428955e-01
-2.778415977954864502e-01 1.022194176912307739e-01 3.262057006359100342e-01
-2.571460604667663574e-01 1.293452829122543335e-01 -4.096905291080474854e-01
-3.633280694484710693e-01 2.560386061668395996e-01 2.851687669754028320e-01
-2.641796767711639404e-01 1.753911972045898438e-01 -4.846871495246887207e-01
-3.245544731616973877e-01 4.098975658416748047e-01 1.558766216039657593e-01
-2.338105440139770508e-01 2.040014863014221191e-01 -2.381511628627777100e-01
-2.289082556962966919e-01 2.065179795026779175e-01 2.916236221790313721e-01
-3.013168573379516602e-01 3.896442651748657227e-01 -1.295030117034912109e-01
-2.339363396167755127e-01 2.127279937267303467e-01 3.776432573795318604e-01
-3.520709872245788574e-01 3.542324602603912354e-01 1.629218086600303650e-02
-2.957603037357330322e-01 4.221979975700378418e-01 1.410080939531326294e-01
-2.718304693698883057e-01 1.176011562347412109e-01 -4.749103188514709473e-01
-3.540646433830261230e-01 1.376578509807586670e-01 1.496061384677886963e-01
-3.423479199409484863e-01 9.856295585632324219e-02 9.403937309980392456e-02
-3.484178483486175537e-01 3.588652908802032471e-01 3.209170401096343994e-01
-2.270228862762451172e-01 2.997407913208007812e-01 1.112431138753890991e-01
-2.290656864643096924e-01 2.919501662254333496e-01 -1.615251973271369934e-02
-2.343461066484451294e-01 2.731468677520751953e-01 4.304086565971374512e-01
-2.997360527515411377e-01 4.249308705329895020e-01 2.773079872131347656e-01
-2.677352726459503174e-01 2.397004365921020508e-01 -4.651246070861816406e-01
-3.688788115978240967e-01 1.888538151979446411e-01 6.649769842624664307e-03
-3.473982810974121094e-01 2.248608022928237915e-01 4.407331347465515137e-01
-2.559020817279815674e-01 3.757319748401641846e-01 -7.330566644668579102e-03
-3.387227952480316162e-01 3.645631670951843262e-01 4.310559928417205811e-01
-3.428311347961425781e-01 1.135620623826980591e-01 1.772830635309219360e-01
-3.335197567939758301e-01 1.924197673797607422e-01 -5.095200538635253906e-01
-2.333375811576843262e-01 1.394706219434738159e-01 -9.730204939842224121e-02
-2.343933284282684326e-01 1.320294588804244995e-01 3.840978443622589111e-02
-2.276313304901123047e-01 3.058915734291076660e-01 1.849109530448913574e-01
-3.652659058570861816e-01 3.014737963676452637e-01 1.668913513422012329e-01
-3.667069971561431885e-01 1.841037124395370483e-01 -1.750394850969314575e-01
-2.351103723049163818e-01 1.576090455055236816e-01 2.399061173200607300e-01
-2.329068630933761597e-01 2.873373925685882568e-01 -1.082987040281295776e-01
-2.624308168888092041e-01 3.428487181663513184e-01 -2.156047224998474121e-01
-2.793876528739929199e-01 4.111626744270324707e-01 6.868535280227661133e-02
-3.564146161079406738e-01 3.453787863254547119e-01 1.923744380474090576e-01
-2.559460103511810303e-01 3.377391993999481201e-01 5.618389248847961426e-01
-3.657206594944000244e-01 2.395841181278228760e-01 2.333658337593078613e-01
-2.785698175430297852e-01 3.755090832710266113e-01 -1.599863022565841675e-01
-2.304436564445495605e-01 3.217476010322570801e-01 2.043817937374114990e-01
-2.802579402923583984e-01 1.520715355873107910e-01 4.927817881107330322e-01
-2.288907766342163086e-01 1.935624778270721436e-01 2.578718960285186768e-01
-2.617210447788238525e-01 2.010005414485931396e-01 -4.685779809951782227e-01
-2.459713369607925415e-01 9.726448357105255127e-02 -1.350528001785278320e-01
-3.407519757747650146e-01 7.983867824077606201e-02 -1.835016310214996338e-01
-3.160010278224945068e-01 2.033722847700119019e-01 5.688623785972595215e-01
-2.813183367252349854e-01 4.136925935745239258e-01 4.123504459857940674e-01
-2.544423639774322510e-01 2.222148478031158447e-01 -4.157930314540863037e-01
-3.418469130992889404e-01 8.698305487632751465e-02 6.770715117454528809e-05
-2.268546819686889648e-01 2.884018123149871826e-01 2.707944214344024658e-01
-3.661424517631530762e-01 2.822681665420532227e-01 2.053837627172470093e-01
-2.641248404979705811e-01 2.695432603359222412e-01 -4.081337451934814453e-01
-3.181748688220977783e-01 8.241349458694458008e-02 -4.362791776657104492e-01
-2.613641321659088135e-01 1.141990870237350464e-01 3.122027516365051270e-01
-3.048452138900756836e-01 2.671338617801666260e-01 6.571988463401794434e-01
-2.369927912950515747e-01 2.405473291873931885e-01 -2.535170316696166992e-01
-2.719312608242034912e-01 4.144076108932495117e-01 2.934116125106811523e-01
-3.634627163410186768e-01 2.162442058324813843e-01 -2.628958523273468018e-01
-3.032152056694030762e-01 2.866956591606140137e-01 6.658446192741394043e-01
-2.552126049995422363e-01 8.860062062740325928e-02 -2.633601129055023193e-01
-2.429038733243942261e-01 3.649647831916809082e-01 1.506703197956085205e-01
-2.544712424278259277e-01 9.820353984832763672e-02 -3.031840026378631592e-01
-2.868252098560333252e-01 4.023779034614562988e-01 -3.655015304684638977e-02
-2.885609567165374756e-01 2.292650789022445679e-01 -5.320609807968139648e-01
-2.283924967050552368e-01 1.596720069646835327e-01 3.163105994462966919e-02
-3.657318055629730225e-01 2.870091199874877930e-01 -7.954497635364532471e-02
-2.614293992519378662e-01 9.733438491821289062e-02 -3.671952188014984131e-01
-2.398655712604522705e-01 2.601491510868072510e-01 4.864680171012878418e-01
-3.560491800308227539e-01 1.905673146247863770e-01 -3.601464629173278809e-01
-2.621351480484008789e-01 3.190414011478424072e-01 6.136071085929870605e-01
-2.235405445098876953e-01 2.211665660142898560e-01 -1.088502630591392517e-02
-3.045837581157684326e-01 5.399829149246215820e-02 5.168959498405456543e-02
-2.248285710811614990e-01 2.553187310695648193e-01 2.572830915451049805e-01
-2.608249783515930176e-01 2.458426356315612793e-01 -4.269527196884155273e-01
-3.287022113800048828e-01 3.714489042758941650e-01 -1.452724784612655640e-01
-2.857250273227691650e-01 1.715620905160903931e-01 -5.545267462730407715e-01
-3.039534091949462891e-01 8.754888176918029785e-02 2.707300484180450439e-01
-3.311368823051452637e-01 3.044831156730651855e-01 -3.700613975524902344e-01
-2.396150529384613037e-01 1.199728101491928101e-01 -1.606419086456298828e-01
-3.243143260478973389e-01 5.963951349258422852e-02 -2.581100761890411377e-01
-2.432720065116882324e-01 1.315780580043792725e-01 -2.779549062252044678e-01
-2.819256186485290527e-01 8.579468727111816406e-02 2.603133916854858398e-01
-2.583828866481781006e-01 2.760277390480041504e-01 -3.678763210773468018e-01
-3.013378083705902100e-01 2.163873165845870972e-01 -5.535804033279418945e-01
-2.419308125972747803e-01 2.177686840295791626e-01 -3.243812024593353271e-01
-3.592775166034698486e-01 1.509871035814285278e-01 1.213107705116271973e-01
-2.281087040901184082e-01 1.856855899095535278e-01 2.141531258821487427e-01
-3.371004462242126465e-01 7.665212452411651611e-02 -2.461456358432769775e-01
-3.511740863323211670e-01 3.582963645458221436e-01 2.584717273712158203e-01
-2.304845154285430908e-01 3.106066584587097168e-01 3.995909914374351501e-02
-2.968840301036834717e-01 4.266354441642761230e-02 -1.535435467958450317e-01
-3.331751823425292969e-01 1.139697879552841187e-01 -4.530482888221740723e-01
-2.442822158336639404e-01 2.293199300765991211e-01 4.972997307777404785e-01
-3.581573069095611572e-01 1.948990374803543091e-01 -3.373128473758697510e-01
-2.382176816463470459e-01 3.434896171092987061e-01 3.464681804180145264e-01
-2.266680598258972168e-01 1.738322079181671143e-01 -2.529431506991386414e-02
-2.614351212978363037e-01 2.873042821884155273e-01 6.215586662292480469e-01
-2.586758732795715332e-01 1.102661192417144775e-01 -3.825564980506896973e-01
-3.410826027393341064e-01 3.746981620788574219e-01 3.543063104152679443e-01
-3.223012983798980713e-01 3.632977008819580078e-01 5.523183345794677734e-01
-3.300577402114868164e-01 6.926344335079193115e-02 -2.870342731475830078e-01
-3.598593771457672119e-01 1.354295611381530762e-01 -6.765220314264297485e-03
-2.315169274806976318e-01 1.906229257583618164e-01 -1.994284689426422119e-01
-2.614601850509643555e-01 6.613373756408691406e-02 -1.077147126197814941e-01
-3.329017460346221924e-01 2.183712422847747803e-01 5.251886248588562012e-01
-3.498204648494720459e-01 1.715531051158905029e-01 3.200447261333465576e-01
-2.224173992872238159e-01 2.416786104440689087e-01 1.251314580440521240e-01
-3.245108127593994141e-01 5.661137402057647705e-02 -1.051690727472305298e-01
-3.424765169620513916e-01 2.800916731357574463e-01 -3.697794973850250244e-01
-2.401881366968154907e-01 1.638282835483551025e-01 -2.983911931514739990e-01
-2.267907708883285522e-01 2.776989042758941650e-01 2.935315966606140137e-01
-3.429245352745056152e-01 8.511725068092346191e-02 -5.880321189761161804e-02
-3.244313001632690430e-01 3.724653422832489014e-01 5.183007121086120605e-01
-2.889488637447357178e-01 7.006299495697021484e-02 1.837807297706604004e-01
-2.224698066711425781e-01 2.240716665983200073e-01 9.349068999290466309e-02
-2.352872788906097412e-01 1.680271625518798828e-01 -2.372665405273437500e-01
-3.570637106895446777e-01 3.059276342391967773e-01 -1.722333729267120361e-01
-3.443578183650970459e-01 2.107990384101867676e-01 -4.483640789985656738e-01
-2.418964654207229614e-01 3.601409792900085449e-01 3.168794810771942139e-01
-3.700190484523773193e-01 2.305229157209396362e-01 1.024865433573722839e-01
-3.002143502235412598e-01 4.025490581989288330e-01 -5.233148112893104553e-02
-3.345958292484283447e-01 3.977413773536682129e-01 2.304278910160064697e-01
-3.328032195568084717e-01 2.838239371776580811e-01 5.716501474380493164e-01
-2.321679592132568359e-01 2.562991082668304443e-01 -1.688645482063293457e-01
-2.519492506980895996e-01 1.435954570770263672e-01 3.638395369052886963e-01
-2.383141368627548218e-01 1.218171492218971252e-01 8.073109388351440430e-02
-3.293935656547546387e-01 3.454475402832031250e-01 5.480812788009643555e-01
-3.052304685115814209e-01 4.870736598968505859e-02 -1.259948685765266418e-02
-3.425631225109100342e-01 3.420061469078063965e-01 4.559210538864135742e-01
-3.611083626747131348e-01 1.850548982620239258e-01 2.161733657121658325e-01
-2.574608325958251953e-01 2.622503638267517090e-01 -3.861671984195709229e-01
-2.341940701007843018e-01 1.373650282621383667e-01 9.793745726346969604e-02
-3.563562631607055664e-01 3.116549253463745117e-01 3.504390418529510498e-01
-2.245877683162689209e-01 1.972417533397674561e-01 1.430991888046264648e-01
-2.461593449115753174e-01 2.714723944664001465e-01 -2.936029136180877686e-01
-3.472820520401000977e-01 3.386381864547729492e-01 4.134613573551177979e-01
-3.182712495326995850e-01 7.543258368968963623e-02 1.580905616283416748e-01
-2.233386635780334473e-01 2.135864198207855225e-01 8.093349635601043701e-03
-2.290680557489395142e-01 1.873170435428619385e-01 -1.487982571125030518e-01
-3.462698757648468018e-01 9.065534174442291260e-02 -1.509688794612884521e-01
-2.540807127952575684e-01 1.319518387317657471e-01 -3.905955851078033447e-01
-2.486296743154525757e-01 3.727869391441345215e-01 3.729213476181030273e-01
-3.421250581741333008e-01 9.425644576549530029e-02 6.481760740280151367e-02
-3.312375843524932861e-01 1.505281925201416016e-01 3.985882699489593506e-01
-2.823642194271087646e-01 3.949435055255889893e-01 -7.061333954334259033e-02
-2.553357481956481934e-01 3.777518868446350098e-01 4.406300485134124756e-01
-2.225140035152435303e-01 2.456857860088348389e-01 8.688855916261672974e-02
-3.648913204669952393e-01 2.011530995368957520e-01 1.895513534545898438e-01
-3.430423736572265625e-01 3.660622835159301758e-01 -5.267655476927757263e-02
-2.276661098003387451e-01 2.799058258533477783e-01 3.132172226905822754e-01
-2.985559701919555664e-01 6.684707105159759521e-02 1.641104221343994141e-01
-2.873198091983795166e-01 7.906419038772583008e-02 2.341382354497909546e-01
-3.349542021751403809e-01 3.931712806224822998e-01 3.084516525268554688e-01
-3.379448354244232178e-01 2.776086926460266113e-01 5.418108701705932617e-01
-2.458620518445968628e-01 2.509146332740783691e-01 -3.246097862720489502e-01
-3.127927184104919434e-01 9.957864880561828613e-02 3.026688992977142334e-01
-3.670122623443603516e-01 2.936068177223205566e-01 2.321767061948776245e-02
-3.682789504528045654e-01 1.840591132640838623e-01 -1.025280803442001343e-01
-3.647868633270263672e-01 2.743626236915588379e-01 -1.489822417497634888e-01
-3.596322834491729736e-01 1.677385270595550537e-01 1.855158954858779907e-01
-3.583192825317382812e-01 3.386490941047668457e-01 6.481824070215225220e-02
-3.298958539962768555e-01 6.455516815185546875e-02 -5.671403184533119202e-02
-3.582564592361450195e-01 3.355087637901306152e-01 1.902890205383300781e-02
-3.488263487815856934e-01 2.753731906414031982e-01 -3.370316326618194580e-01
-3.090897500514984131e-01 3.039219975471496582e-01 -4.217067956924438477e-01
-2.727707624435424805e-01 2.897915244102478027e-01 6.554090380668640137e-01
-2.957932949066162109e-01 6.506997346878051758e-02 -3.982404172420501709e-01
-2.349890321493148804e-01 1.501961350440979004e-01 2.034849375486373901e-01
-2.612258791923522949e-01 2.312422990798950195e-01 -4.451149702072143555e-01
-3.342939019203186035e-01 3.946150243282318115e-01 8.483189344406127930e-02
-2.645960748195648193e-01 3.970299363136291504e-01 6.238034740090370178e-02
-2.299281358718872070e-01 1.583290994167327881e-01 -9.014703333377838135e-02
-2.972354292869567871e-01 4.226128458976745605e-01 3.466067612171173096e-01
-3.294593691825866699e-01 3.082450032234191895e-01 5.841078758239746094e-01
-3.256889879703521729e-01 2.100813537836074829e-01 -5.278253555297851562e-01
-3.299193978309631348e-01 1.835772842168807983e-01 4.827279746532440186e-01
-2.649407684803009033e-01 1.952602267265319824e-01 5.501370429992675781e-01
-2.595178484916687012e-01 6.936573982238769531e-02 -5.798801407217979431e-02
-3.082661628723144531e-01 5.306591093540191650e-02 2.780624479055404663e-02
-2.413904219865798950e-01 1.962774097919464111e-01 4.228011369705200195e-01
-3.686785399913787842e-01 2.808832228183746338e-01 7.525879144668579102e-02
-2.764609754085540771e-01 3.467231988906860352e-01 6.301507353782653809e-01
-3.478309512138366699e-01 9.779436886310577393e-02 -2.187208235263824463e-01
-3.680355250835418701e-01 1.853069514036178589e-01 -1.247717887163162231e-01
-3.313891589641571045e-01 3.255793154239654541e-01 5.618934631347656250e-01
-2.642043232917785645e-01 3.274277448654174805e-01 -2.759526968002319336e-01
-3.531745076179504395e-01 3.346840739250183105e-01 3.426777720451354980e-01
-2.587621212005615234e-01 3.763291835784912109e-01 -3.378906473517417908e-02
-3.614553809165954590e-01 1.906770169734954834e-01 -2.925001978874206543e-01
-3.426562249660491943e-01 1.712438762187957764e-01 3.799477815628051758e-01
-2.240220010280609131e-01 2.217249274253845215e-01 2.026016414165496826e-01
-3.190874159336090088e-01 1.814989745616912842e-01 5.214594602584838867e-01
-2.750943601131439209e-01 5.161742866039276123e-02 -8.892904222011566162e-02
-3.574366271495819092e-01 1.514706015586853027e-01 -3.010855913162231445e-01
-2.385216951370239258e-01 1.656776219606399536e-01 3.161494135856628418e-01
-3.626226186752319336e-01 2.670837342739105225e-01 -2.068560421466827393e-01
-2.913127243518829346e-01 4.887318611145019531e-02 5.324270576238632202e-03
-2.796711623668670654e-01 2.372054457664489746e-01 6.388554573059082031e-01
-3.348976075649261475e-01 1.372187733650207520e-01 -4.813863635063171387e-01
-2.278773635625839233e-01 3.052846193313598633e-01 2.254957109689712524e-01
-3.582430481910705566e-01 2.217677980661392212e-01 3.296902179718017578e-01
-2.254679799079895020e-01 2.486114799976348877e-01 2.759704291820526123e-01
-3.268184363842010498e-01 2.501440644264221191e-01 -4.855616688728332520e-01
-2.723405659198760986e-01 2.631053626537322998e-01 6.464906334877014160e-01
-2.636013925075531006e-01 1.163204237818717957e-01 3.324423730373382568e-01
-3.564172983169555664e-01 2.966914176940917969e-01 3.708819448947906494e-01
-2.416203022003173828e-01 3.246855139732360840e-01 4.637809395790100098e-01
-3.623213768005371094e-01 1.436158120632171631e-01 -4.308599606156349182e-02
-2.446381300687789917e-01 3.714821338653564453e-01 2.344912141561508179e-01
-2.636946439743041992e-01 1.734330356121063232e-01 5.027980208396911621e-01
-2.500381469726562500e-01 9.048245847225189209e-02 -1.806843429803848267e-01
-3.558918833732604980e-01 3.272159397602081299e-01 -9.649002552032470703e-02
-3.548617660999298096e-01 3.381894528865814209e-01 -5.019925162196159363e-02
-3.071329593658447266e-01 2.490412443876266479e-01 -5.193645358085632324e-01
-3.606209158897399902e-01 3.183737695217132568e-01 -4.805620387196540833e-02
-3.086184859275817871e-01 5.970188975334167480e-02 8.947630226612091064e-02
-2.814521193504333496e-01 4.862330853939056396e-02 -5.407710745930671692e-02
-2.546299993991851807e-01 2.936135232448577881e-01 -3.094570636749267578e-01
-2.666306197643280029e-01 4.027737677097320557e-01 9.807310253381729126e-02
-3.472633659839630127e-01 2.520219087600708008e-01 4.667850732803344727e-01
-3.399416804313659668e-01 3.643645346164703369e-01 -9.860332310199737549e-02
-2.316968441009521484e-01 2.766299843788146973e-01 3.928936123847961426e-01
-2.437246441841125488e-01 1.193464994430541992e-01 -2.433195710182189941e-01
-2.608821094036102295e-01 8.158627152442932129e-02 -2.937775254249572754e-01
-2.548462748527526855e-01 3.840305507183074951e-01 7.376974821090698242e-02
-3.198395669460296631e-01 1.548014879226684570e-01 -5.482766032218933105e-01
-3.201133012771606445e-01 4.149243831634521484e-01 1.901100724935531616e-01
-3.702275454998016357e-01 2.497390806674957275e-01 9.586752951145172119e-02
-2.249114513397216797e-01 2.341209799051284790e-01 -5.567599460482597351e-02
-3.323231935501098633e-01 8.913156390190124512e-02 -3.849315643310546875e-01
-3.383688926696777344e-01 2.092527300119400024e-01 4.821623861789703369e-01
-2.969806790351867676e-01 5.486480891704559326e-02 -3.402801752090454102e-01
-3.564634621143341064e-01 2.448346316814422607e-01 3.744275867938995361e-01
-2.293291091918945312e-01 3.000770509243011475e-01 1.439332589507102966e-02
-3.087304234504699707e-01 3.619728088378906250e-01 -2.492125630378723145e-01
-2.701793611049652100e-01 4.115221500396728516e-01 1.772659718990325928e-01
-2.426095008850097656e-01 2.189418077468872070e-01 4.713758230209350586e-01
-3.693020939826965332e-01 2.375746518373489380e-01 1.381946355104446411e-01
-2.874895930290222168e-01 4.192445874214172363e-01 3.803891241550445557e-01
-2.645013630390167236e-01 3.995918631553649902e-01 3.980439007282257080e-01
-2.372922152280807495e-01 2.914085090160369873e-01 -1.592090129852294922e-01
-3.401589989662170410e-01 3.244591951370239258e-01 -2.681238055229187012e-01
-3.267732560634613037e-01 2.805621922016143799e-01 5.998646020889282227e-01
-3.547243773937225342e-01 2.166204154491424561e-01 -3.671644330024719238e-01
-3.488819897174835205e-01 2.646144330501556396e-01 -3.570412695407867432e-01
-2.770314514636993408e-01 3.783910274505615234e-01 -1.403845995664596558e-01
-2.744935452938079834e-01 9.806266427040100098e-02 2.990176677703857422e-01
-3.111060559749603271e-01 4.076039791107177734e-01 4.874885082244873047e-03
-2.431888431310653687e-01 3.595216870307922363e-01 3.576116561889648438e-01
-2.268609106540679932e-01 3.006081581115722656e-01 1.469818204641342163e-01
-3.454969227313995361e-01 2.057911157608032227e-01 4.283956587314605713e-01
-3.048831820487976074e-01 1.625483334064483643e-01 5.151643157005310059e-01
-2.991755306720733643e-01 2.846385836601257324e-01 -4.638229012489318848e-01
-2.333895564079284668e-01 3.215154409408569336e-01 3.395143747329711914e-01
-3.603633642196655273e-01 2.990698218345642090e-01 -1.472805291414260864e-01
-2.386492490768432617e-01 2.304946482181549072e-01 -2.821212410926818848e-01
-2.486209124326705933e-01 3.074954748153686523e-01 -2.304681241512298584e-01
-2.719250321388244629e-01 3.994772434234619141e-01 1.527166366577148438e-02
-2.548879086971282959e-01 2.509297132492065430e-01 5.799977779388427734e-01
-3.338757753372192383e-01 9.555858373641967773e-02 1.686556339263916016e-01
-2.293132692575454712e-01 3.098332285881042480e-01 7.776057720184326172e-02
-2.419174909591674805e-01 1.639065444469451904e-01 -3.182656466960906982e-01
-3.436409235000610352e-01 2.255200296640396118e-01 4.697789847850799561e-01
-2.496457248926162720e-01 9.531924128532409668e-02 9.185707569122314453e-02
-3.588869869709014893e-01 1.282727122306823730e-01 -6.851452589035034180e-02
-2.656796872615814209e-01 6.252372264862060547e-02 -1.844037771224975586e-01
-2.491132766008377075e-01 2.037953138351440430e-01 -3.908562660217285156e-01
-3.072661161422729492e-01 1.034297943115234375e-01 3.327600061893463135e-01
-3.215321302413940430e-01 6.422562897205352783e-02 5.176446959376335144e-02
