2.239784151315689087e-01 3.632863238453865051e-02 2.417820394039154053e-01
1.285281330347061157e-01 1.517286151647567749e-01 4.700107574462890625e-01
1.527999937534332275e-01 1.632542610168457031e-01 1.888616085052490234e-01
3.343058824539184570e-01 1.332659125328063965e-01 5.621073246002197266e-01
1.416362971067428589e-01 5.469437316060066223e-02 -2.319385111331939697e-01
4.587974846363067627e-01 5.731955170631408691e-02 -3.042171299457550049e-01
3.099629282951354980e-01 3.299843519926071167e-02 -1.893274188041687012e-01
4.544501900672912598e-01 1.233285069465637207e-01 2.608250379562377930e-01
2.365306168794631958e-01 4.939469322562217712e-02 -3.656426668167114258e-01
2.285426110029220581e-01 1.584084033966064453e-01 -1.008440554141998291e-01
2.468509227037429810e-01 5.811008438467979431e-02 5.863674879074096680e-01
3.570244908332824707e-01 1.495635509490966797e-01 3.009843081235885620e-02
1.975699663162231445e-01 1.516262441873550415e-01 -2.314249277114868164e-01
4.670350551605224609e-01 5.853889882564544678e-02 3.678967356681823730e-01
5.211134254932403564e-02 7.580780982971191406e-02 3.356920480728149414e-01
3.251099884510040283e-01 2.891273796558380127e-02 -5.130864679813385010e-02
3.897264301776885986e-01 1.333456635475158691e-01 -2.272114753723144531e-01
3.407421112060546875e-01 3.769726678729057312e-02 3.666814267635345459e-01
3.242548108100891113e-01 1.545107513666152954e-01 2.022716104984283447e-01
3.272246420383453369e-01 1.254039704799652100e-01 -4.200902581214904785e-01
1.761352121829986572e-01 1.530576050281524658e-01 4.874742925167083740e-01
1.953576803207397461e-01 1.639072299003601074e-01 1.743634641170501709e-01
4.542262554168701172e-01 8.496475219726562500e-02 -3.763878941535949707e-01
6.680007278919219971e-02 1.534416973590850830e-01 5.526365712285041809e-02
4.245383143424987793e-01 1.209764778614044189e-01 -2.684270739555358887e-01
2.137554734945297241e-01 3.970406949520111084e-02 -1.834455430507659912e-01
5.468569695949554443e-02 8.162400126457214355e-02 -1.953241527080535889e-01
9.518457949161529541e-02 1.263545602560043335e-01 6.075645089149475098e-01
3.088595867156982422e-01 4.381923377513885498e-02 4.614688158035278320e-01
3.993588685989379883e-02 7.483750581741333008e-02 1.134011149406433105e-02
4.429973363876342773e-01 1.305508613586425781e-01 4.674000293016433716e-02
2.567977011203765869e-01 3.570378199219703674e-02 -1.903281509876251221e-01
4.152169227600097656e-01 1.017506942152976990e-01 5.700514316558837891e-01
3.326245248317718506e-01 1.279632896184921265e-01 6.037474870681762695e-01
1.702970266342163086e-01 7.900667935609817505e-02 -4.682238698005676270e-01
4.872739911079406738e-01 1.089581698179244995e-01 -1.050427705049514771e-01
3.351458907127380371e-01 1.454818546772003174e-01 -1.864216029644012451e-01
1.432056725025177002e-02 1.180869489908218384e-01 3.942224383354187012e-01
2.294754385948181152e-01 1.595586240291595459e-01 3.475915491580963135e-01
2.887083590030670166e-01 1.295033544301986694e-01 -4.237023591995239258e-01
3.052115142345428467e-01 2.876987308263778687e-02 9.799058735370635986e-02
1.381653547286987305e-01 6.713609397411346436e-02 -3.516419231891632080e-01
2.877107858657836914e-01 3.126596659421920776e-02 -1.172198355197906494e-01
3.832668066024780273e-02 7.659818977117538452e-02 -1.878535747528076172e-02
1.366356164216995239e-01 9.051803499460220337e-02 6.612555980682373047e-01
-7.067888975143432617e-03 1.200225353240966797e-01 1.299564242362976074e-01
1.853246986865997314e-02 8.433356881141662598e-02 6.911145895719528198e-02
9.710729122161865234e-03 9.095066785812377930e-02 2.046500742435455322e-01
1.693692207336425781e-01 1.079798638820648193e-01 -4.895203113555908203e-01
3.074932396411895752e-01 2.871020138263702393e-02 -1.271446794271469116e-02
4.057878255844116211e-01 1.239649429917335510e-01 4.767457544803619385e-01
3.050035834312438965e-01 7.147773355245590210e-02 6.671279072761535645e-01
4.286597967147827148e-01 3.736582770943641663e-02 -1.422320604324340820e-01
2.222397923469543457e-01 5.473495274782180786e-02 5.397176742553710938e-01
2.492417395114898682e-01 3.981202095746994019e-02 3.731750845909118652e-01
4.090877175331115723e-01 8.599599450826644897e-02 -4.640129208564758301e-01
3.346169888973236084e-01 1.481432020664215088e-01 3.689981997013092041e-01
1.190616339445114136e-01 1.544643193483352661e-01 4.149634838104248047e-01
-7.468193769454956055e-03 1.132403090596199036e-01 9.410455822944641113e-02
3.689575195312500000e-01 1.465690433979034424e-01 -2.114082872867584229e-02
8.171762526035308838e-02 1.446558833122253418e-01 -1.711889207363128662e-01
1.259120702743530273e-01 4.836667701601982117e-02 7.987098395824432373e-02
4.897773265838623047e-01 9.252332895994186401e-02 3.557594716548919678e-01
9.485763311386108398e-02 1.399670094251632690e-01 5.372986793518066406e-01
5.413326621055603027e-02 1.306189447641372681e-01 -2.158505618572235107e-01
3.886066675186157227e-01 1.443390101194381714e-01 1.161855980753898621e-01
2.714067399501800537e-01 1.601658910512924194e-01 6.253059208393096924e-02
2.001119703054428101e-01 5.054851993918418884e-02 4.665986895561218262e-01
1.743850111961364746e-01 4.787133634090423584e-02 -2.285846173763275146e-01
3.297639489173889160e-01 1.540256738662719727e-01 6.501983851194381714e-02
-2.362615466117858887e-01 2.853392809629440308e-02 8.004667162895202637e-01
7.769848406314849854e-02 1.016025468707084656e-01 -1.130428075790405273e+00
4.089563786983489990e-01 1.676381751894950867e-02 -2.638460993766784668e-01
5.565563216805458069e-02 1.176289469003677368e-01 -2.907293438911437988e-01
-5.703163892030715942e-02 7.028356939554214478e-02 9.622304439544677734e-01
6.051230430603027344e-02 1.173404231667518616e-01 -1.883763223886489868e-01
-3.335439264774322510e-01 8.424399793148040771e-02 -7.519116401672363281e-01
-3.051370978355407715e-01 2.864214032888412476e-02 6.787862777709960938e-01
-2.387864589691162109e-01 1.027917414903640747e-01 -3.077288269996643066e-01
-2.712043523788452148e-01 9.461816400289535522e-02 -7.055051326751708984e-01
-1.435326635837554932e-01 3.637557849287986755e-02 -1.098672032356262207e+00
4.529601633548736572e-01 2.174828574061393738e-02 3.227301537990570068e-01
-9.233316034078598022e-02 1.085417121648788452e-01 1.138204038143157959e-01
-1.295438408851623535e-01 1.014709845185279846e-02 -5.618387460708618164e-01
1.354752033948898315e-01 1.125517487525939941e-01 2.305679023265838623e-01
-2.848680913448333740e-01 1.213106885552406311e-02 -3.098583817481994629e-01
7.682569324970245361e-02 1.164999082684516907e-01 -5.091595649719238281e-02
8.858637511730194092e-02 1.091216057538986206e-01 3.445825874805450439e-01
-1.535452306270599365e-01 8.364479988813400269e-03 -4.567574262619018555e-01
2.533539533615112305e-01 1.162669956684112549e-01 1.461993157863616943e-02
-2.375366687774658203e-01 9.021468460559844971e-03 3.438694179058074951e-01
-7.803738117218017578e-03 1.586525514721870422e-02 -8.083207011222839355e-01
-3.047860562801361084e-01 7.451176643371582031e-02 5.808432102203369141e-01
-1.592969298362731934e-01 1.082799881696701050e-01 -1.797364950180053711e-01
7.299230247735977173e-02 1.126831173896789551e-01 1.861481368541717529e-01
-8.418259769678115845e-02 4.125207662582397461e-03 3.998028039932250977e-01
5.323433876037597656e-01 5.095819383859634399e-02 -8.641333580017089844e-01
1.163998395204544067e-01 1.173660606145858765e-01 -5.978198051452636719e-01
-1.930192708969116211e-01 5.268037319183349609e-03 2.295749485492706299e-01
-7.206857949495315552e-02 1.040100008249282837e-01 -9.370704293251037598e-01
8.688051253557205200e-02 1.182916015386581421e-01 -3.543965220451354980e-01
1.704523861408233643e-01 3.714732825756072998e-03 2.364002764225006104e-01
6.139540672302246094e-01 8.061218261718750000e-02 3.094923496246337891e-01
-4.064387828111648560e-02 8.356347680091857910e-04 3.039538860321044922e-02
-2.483985126018524170e-01 8.032862842082977295e-02 6.114794611930847168e-01
-1.639692187309265137e-01 1.047559082508087158e-01 9.975022077560424805e-02
7.885414361953735352e-02 1.138170287013053894e-01 -7.839837670326232910e-01
3.947426974773406982e-01 1.136800646781921387e-01 -7.785701751708984375e-02
4.301593601703643799e-01 8.989039808511734009e-02 6.168232560157775879e-01
5.876578688621520996e-01 7.089670002460479736e-02 -8.488826751708984375e-01
-1.092697307467460632e-01 1.956798136234283447e-02 8.266668319702148438e-01
5.309208035469055176e-01 2.918319590389728546e-02 -3.057287335395812988e-01
-3.513209223747253418e-01 1.746797189116477966e-02 -2.912820875644683838e-01
2.369446754455566406e-01 1.063744425773620605e-01 -1.040410757064819336e+00
-3.536922335624694824e-01 1.981055736541748047e-02 -3.913480937480926514e-01
1.532285809516906738e-01 1.064643710851669312e-01 4.511629939079284668e-01
-3.546048104763031006e-01 8.829979598522186279e-02 2.109600603580474854e-02
3.285667300224304199e-01 1.161423474550247192e-01 -9.514743834733963013e-02
4.307923018932342529e-01 1.133685857057571411e-01 -3.213072121143341064e-01
-7.776885479688644409e-02 1.131034120917320251e-01 -3.141627311706542969e-01
1.320231854915618896e-01 1.042539775371551514e-01 5.103387832641601562e-01
-2.252526581287384033e-01 6.899330765008926392e-03 -1.792821437120437622e-01
1.565911024808883667e-01 6.201211363077163696e-03 4.536308646202087402e-01
-3.260723650455474854e-01 7.900073379278182983e-02 -8.683148622512817383e-01
-1.776248961687088013e-02 1.076610311865806580e-01 2.979588508605957031e-01
6.081833839416503906e-01 9.644807130098342896e-02 -3.833672106266021729e-01
1.372896581888198853e-01 2.124629914760589600e-03 4.123584926128387451e-02
1.193589344620704651e-01 9.583392739295959473e-02 -1.229140877723693848e+00
-3.648664653301239014e-01 3.857870399951934814e-02 -7.723522186279296875e-01
2.690072655677795410e-01 4.647909849882125854e-02 -1.212657928466796875e+00
2.356118857860565186e-01 5.717078596353530884e-02 -1.312121987342834473e+00
5.683148503303527832e-01 8.323547244071960449e-02 4.291963577270507812e-01
-1.493948400020599365e-01 1.090572774410247803e-01 -2.139501869678497314e-01
2.992502748966217041e-01 8.092124015092849731e-03 -2.360448241233825684e-03
3.988953530788421631e-01 4.106434434652328491e-02 -1.002800107002258301e+00
-2.194635868072509766e-01 8.388642221689224243e-02 -1.058259487152099609e+00
4.751612991094589233e-02 6.387341767549514771e-02 1.048436164855957031e+00
5.580083727836608887e-01 3.188374638557434082e-02 -2.459370940923690796e-01
2.465850859880447388e-02 2.936962991952896118e-03 -2.889173030853271484e-01
6.721972823143005371e-01 5.939407646656036377e-02 -3.168466687202453613e-01
-3.018905967473983765e-02 1.832223683595657349e-02 -8.629209399223327637e-01
6.591007113456726074e-01 5.113244429230690002e-02 -8.898450434207916260e-02
2.979548573493957520e-01 5.387714877724647522e-02 -1.250484108924865723e+00
-2.668613195419311523e-01 1.773355901241302490e-02 -5.897243022918701172e-01
-1.156596019864082336e-01 1.344408094882965088e-02 7.037606835365295410e-01
3.692510724067687988e-01 1.144817695021629333e-01 -5.916026830673217773e-01
-2.893412113189697266e-01 1.795013248920440674e-02 5.282369852066040039e-01
-3.056020736694335938e-01 8.503632247447967529e-02 3.716387152671813965e-01
4.685290753841400146e-01 4.610063880681991577e-02 -9.482077360153198242e-01
-2.469271123409271240e-01 1.451310142874717712e-02 -5.282957553863525391e-01
-2.022287249565124512e-01 8.065298944711685181e-02 6.887480616569519043e-01
1.443167477846145630e-01 2.668235450983047485e-03 -9.233400225639343262e-02
2.031334042549133301e-01 4.310250282287597656e-03 1.703125238418579102e-01
-1.846010386943817139e-01 2.789942175149917603e-02 8.611350059509277344e-01
-2.127496302127838135e-01 9.596163034439086914e-02 -8.580324649810791016e-01
2.752937078475952148e-01 1.169913113117218018e-01 -6.751525402069091797e-02
8.807051181793212891e-02 1.031181216239929199e-01 5.273723602294921875e-01
4.659511148929595947e-01 9.487327188253402710e-02 4.683176875114440918e-01
4.995856583118438721e-01 9.319777786731719971e-02 4.337849617004394531e-01
2.268588840961456299e-01 1.189669370651245117e-01 -4.043675363063812256e-01
-2.307299077510833740e-01 9.141064435243606567e-02 -9.176301360130310059e-01
1.838860064744949341e-01 1.081522107124328613e-01 3.997545838356018066e-01
3.612857162952423096e-01 1.161321848630905151e-01 -4.336617290973663330e-01
3.837492763996124268e-01 1.542762294411659241e-02 -3.028608560562133789e-01
3.577912449836730957e-01 2.065550908446311951e-02 6.028725504875183105e-01
3.809837400913238525e-01 1.062429249286651611e-01 -9.127584695816040039e-01
1.994268149137496948e-01 1.151214167475700378e-01 1.114694476127624512e-01
-2.415893077850341797e-01 7.321442663669586182e-02 7.258195281028747559e-01
5.875288844108581543e-01 9.999634325504302979e-02 -2.567318975925445557e-01
-1.434434354305267334e-01 1.028220057487487793e-01 -8.312133550643920898e-01
5.197959542274475098e-01 3.928148001432418823e-02 5.562121272087097168e-01
4.633044302463531494e-01 1.037418246269226074e-01 -8.190400600433349609e-01
2.674876749515533447e-01 3.577651828527450562e-02 -1.085512399673461914e+00
1.468710899353027344e-01 8.708840608596801758e-02 8.442549109458923340e-01
3.248137235641479492e-01 9.586769342422485352e-02 -1.160595655441284180e+00
2.263341844081878662e-01 1.158082038164138794e-01 -7.248744368553161621e-01
2.393693029880523682e-01 6.402164697647094727e-03 -1.954178512096405029e-01
3.314110934734344482e-01 2.129532396793365479e-02 6.729636192321777344e-01
1.697268784046173096e-01 1.108876019716262817e-01 -9.347677826881408691e-01
-1.924400031566619873e-01 8.870452642440795898e-03 4.580373764038085938e-01
1.147101819515228271e-01 1.179124265909194946e-01 -5.387481451034545898e-01
1.623906195163726807e-01 7.128890603780746460e-02 1.005713939666748047e+00
-4.736693948507308960e-02 3.191225230693817139e-03 -2.889094054698944092e-01
6.028052046895027161e-02 1.129490882158279419e-01 1.603282094001770020e-01
-1.904194951057434082e-01 1.716241613030433655e-02 -7.076785564422607422e-01
-3.503994345664978027e-01 1.663984358310699463e-02 -2.458771765232086182e-01
-6.704122573137283325e-02 3.943281248211860657e-02 -1.184180736541748047e+00
3.261058926582336426e-01 1.136739179491996765e-02 3.069825768470764160e-01
-1.396402418613433838e-01 9.217402338981628418e-02 5.718776583671569824e-01
-7.373867183923721313e-02 2.637792378664016724e-03 -2.165267765522003174e-01
-3.128774166107177734e-01 7.652084529399871826e-02 5.288251638412475586e-01
4.104386270046234131e-01 1.142702251672744751e-01 -3.935703933238983154e-01
5.581060051918029785e-01 1.012157127261161804e-01 -5.478035211563110352e-01
1.684902906417846680e-01 8.829679340124130249e-03 5.563066005706787109e-01
6.193408370018005371e-01 9.136706590652465820e-02 3.974875807762145996e-02
-2.203450500965118408e-01 1.039323806762695312e-01 -1.679024398326873779e-01
-2.742242515087127686e-01 6.926016509532928467e-02 7.120772004127502441e-01
6.722768545150756836e-01 7.037705183029174805e-02 -4.389815032482147217e-01
-4.009168446063995361e-01 2.298703044652938843e-02 2.147318720817565918e-01
-2.129837274551391602e-01 1.039584428071975708e-01 -9.577500820159912109e-02
-2.643680870532989502e-01 1.853812485933303833e-02 -6.188029050827026367e-01
-3.382445573806762695e-01 3.549595177173614502e-02 -7.994668483734130859e-01
3.949471116065979004e-01 1.721178740262985229e-02 3.643756508827209473e-01
1.670930683612823486e-01 1.033486723899841309e-01 5.369729399681091309e-01
-4.713758528232574463e-01 6.364841014146804810e-02 -3.490918874740600586e-01
-2.677492797374725342e-01 3.164873272180557251e-02 7.793477773666381836e-01
-8.625233918428421021e-02 9.923705458641052246e-02 4.760860204696655273e-01
3.913274779915809631e-02 3.727099299430847168e-02 1.052319645881652832e+00
-5.291767418384552002e-03 1.143834441900253296e-01 -4.787151515483856201e-02
3.675818741321563721e-01 1.212904602289199829e-02 3.738518059253692627e-02
5.605592727661132812e-01 3.637980297207832336e-02 -4.583738446235656738e-01
-1.480209529399871826e-01 6.468735635280609131e-03 4.336343407630920410e-01
3.403085470199584961e-02 1.117825284600257874e-01 1.879657804965972900e-01
-3.579623401165008545e-01 6.862090528011322021e-02 5.232536196708679199e-01
1.066851988434791565e-01 1.146382093429565430e-02 6.942316293716430664e-01
-1.116190627217292786e-01 1.020775437355041504e-01 -9.220253229141235352e-01
5.518631339073181152e-01 5.231926590204238892e-02 -8.274809718132019043e-01
-1.240536198019981384e-01 3.517046570777893066e-03 -2.066771686077117920e-01
2.094674706459045410e-01 4.816226661205291748e-03 2.149670720100402832e-01
-1.404356062412261963e-01 9.800837934017181396e-02 4.226607084274291992e-01
5.452609658241271973e-01 1.034371405839920044e-01 -5.056785345077514648e-01
3.417767584323883057e-02 6.925899535417556763e-03 -5.119082927703857422e-01
3.571149408817291260e-01 1.580049097537994385e-02 -4.320069551467895508e-01
3.639349341392517090e-01 1.749278604984283447e-02 4.867105484008789062e-01
1.243726909160614014e-01 8.844561874866485596e-02 8.243581056594848633e-01
-1.378719806671142578e-01 2.659898251295089722e-03 -3.013043105602264404e-02
8.288077265024185181e-02 7.474555075168609619e-02 9.793684482574462891e-01
-1.991441845893859863e-01 1.032838076353073120e-01 4.325658082962036133e-02
-2.835959196090698242e-01 3.545462340116500854e-02 -9.102955460548400879e-01
3.500548005104064941e-01 1.185108348727226257e-02 2.148079276084899902e-01
3.320497274398803711e-01 1.037800908088684082e-01 -1.029056072235107422e+00
-1.222374513745307922e-01 1.843149587512016296e-02 -8.133181929588317871e-01
4.679018259048461914e-01 2.132286503911018372e-02 -2.231028378009796143e-01
-1.154730543494224548e-01 2.559963613748550415e-03 2.106160819530487061e-01
2.185343801975250244e-01 4.484499245882034302e-02 -1.230121135711669922e+00
6.713591814041137695e-01 5.760593339800834656e-02 4.429087042808532715e-03
1.824285984039306641e-01 2.418547123670578003e-02 -9.497575163841247559e-01
2.892101109027862549e-01 8.271069079637527466e-02 8.524918556213378906e-01
6.726390123367309570e-02 8.443927019834518433e-02 8.701672554016113281e-01
-4.905811250209808350e-01 5.403099954128265381e-02 -1.991894692182540894e-01
-8.677733689546585083e-02 6.017107516527175903e-03 4.941427111625671387e-01
1.008575260639190674e-01 8.076841384172439575e-02 9.212893247604370117e-01
-1.465380191802978516e-01 6.874724477529525757e-02 8.994210958480834961e-01
-4.671055972576141357e-01 3.905560076236724854e-02 -3.273741304874420166e-01
3.820593059062957764e-01 2.494426444172859192e-02 6.527781486511230469e-01
-6.254583597183227539e-03 7.806338369846343994e-02 9.177839756011962891e-01
-6.865831464529037476e-02 3.011792898178100586e-03 -2.553493976593017578e-01
-7.730513066053390503e-02 8.696152269840240479e-02 -1.219276905059814453e+00
4.019111096858978271e-01 2.168380469083786011e-02 -5.503542423248291016e-01
5.004196166992187500e-01 1.033069416880607605e-01 1.498005688190460205e-01
1.330094635486602783e-01 6.769727915525436401e-02 -1.374715447425842285e+00
3.581425547599792480e-02 1.068980991840362549e-01 3.839078545570373535e-01
-1.236676424741744995e-02 9.013213962316513062e-02 7.469251751899719238e-01
-2.501672804355621338e-01 2.635377645492553711e-02 7.548925280570983887e-01
5.676833391189575195e-01 7.407908141613006592e-02 5.273203253746032715e-01
4.256168007850646973e-01 1.101181432604789734e-01 6.578275561332702637e-02
8.522389829158782959e-02 1.241568475961685181e-03 1.038997620344161987e-01
-1.965655088424682617e-01 1.423734799027442932e-02 -6.133595705032348633e-01
3.840900063514709473e-01 9.351727366447448730e-02 -1.128144025802612305e+00
-2.910128980875015259e-02 1.124967485666275024e-01 3.547805547714233398e-02
8.595404773950576782e-02 1.171703934669494629e-01 -1.009411066770553589e-01
-2.960578501224517822e-01 1.029898971319198608e-02 9.648324549198150635e-02
3.338513970375061035e-01 1.099523752927780151e-01 -8.703549504280090332e-01
4.786336421966552734e-01 3.755797445774078369e-02 6.471490263938903809e-01
-3.485046625137329102e-01 1.533941924571990967e-02 -1.530369073152542114e-01
-8.576355129480361938e-02 3.369190543889999390e-02 -1.107345104217529297e+00
6.018534898757934570e-01 9.716978669166564941e-02 -4.118465185165405273e-01
3.913064301013946533e-01 1.071754917502403259e-01 2.677238583564758301e-01
3.992886841297149658e-01 8.939712494611740112e-02 6.656414270401000977e-01
-1.322872936725616455e-03 9.179120510816574097e-02 -1.229301333427429199e+00
-2.815892100334167480e-01 9.446972608566284180e-02 -6.655240654945373535e-01
1.623634099960327148e-01 6.009127944707870483e-03 -3.640542030334472656e-01
2.273587286472320557e-01 1.077499985694885254e-01 -1.011795878410339355e+00
1.645025461912155151e-01 2.824515104293823242e-03 8.657351136207580566e-03
-2.253234386444091797e-03 3.925338760018348694e-02 -1.207163214683532715e+00
1.358706504106521606e-01 2.268007770180702209e-02 9.033519029617309570e-01
6.580514907836914062e-01 5.134170502424240112e-02 -2.084610462188720703e-01
4.217661917209625244e-03 3.322699666023254395e-02 1.023342728614807129e+00
1.592255234718322754e-01 1.459987461566925049e-02 -7.268868088722229004e-01
3.788042962551116943e-01 1.087595298886299133e-01 2.296782135963439941e-01
-2.579070031642913818e-01 2.833979949355125427e-02 -8.476849794387817383e-01
1.139796450734138489e-01 1.153557822108268738e-01 7.474368810653686523e-02
-8.256269246339797974e-02 2.069219946861267090e-03 2.340908348560333252e-01
6.492750048637390137e-01 8.872368186712265015e-02 -1.750506609678268433e-01
-2.472418248653411865e-01 9.171442687511444092e-02 -8.679628968238830566e-01
3.306054472923278809e-01 1.428113132715225220e-02 4.542593359947204590e-01
6.394865512847900391e-01 8.143081516027450562e-02 1.754968166351318359e-01
-2.075923383235931396e-01 6.385497748851776123e-03 2.728554308414459229e-01
-2.313292920589447021e-01 4.922441393136978149e-02 -1.113973140716552734e+00
-3.482563495635986328e-01 1.815328747034072876e-02 3.273511230945587158e-01
-3.181454539299011230e-01 8.811895549297332764e-02 2.342923581600189209e-01
1.812306493520736694e-01 1.179237961769104004e-01 -8.991693705320358276e-02
-3.791740536689758301e-01 1.825273782014846802e-02 8.465254306793212891e-02
2.815366983413696289e-01 1.045067757368087769e-01 -1.056171536445617676e+00
5.894801020622253418e-01 9.769490361213684082e-02 -5.034423470497131348e-01
4.086790978908538818e-01 9.394172579050064087e-02 5.777967572212219238e-01
6.026405692100524902e-01 6.714677065610885620e-02 -7.907725572586059570e-01
6.149910688400268555e-01 5.275711417198181152e-02 -6.042853593826293945e-01
2.166154384613037109e-01 1.382872462272644043e-02 -6.431457400321960449e-01
-4.188646376132965088e-01 2.352058142423629761e-02 -2.712900191545486450e-02
-4.127108156681060791e-01 8.109743148088455200e-02 -1.345177590847015381e-01
-1.705374121665954590e-01 3.681365400552749634e-03 -3.328228741884231567e-02
4.191014468669891357e-01 1.139431074261665344e-01 -3.538197278976440430e-01
3.007544577121734619e-01 1.497017592191696167e-02 5.561909079551696777e-01
8.089815080165863037e-02 2.087486907839775085e-02 8.949711322784423828e-01
-2.597008049488067627e-01 1.005764901638031006e-01 -4.073779881000518799e-01
-2.999271750450134277e-01 3.666263818740844727e-02 7.564093470573425293e-01
6.221356987953186035e-01 7.428022474050521851e-02 3.459008038043975830e-01
5.894554853439331055e-01 9.454573690891265869e-02 1.058110594749450684e-01
1.591271609067916870e-01 5.525749176740646362e-03 4.115712046623229980e-01
-3.055640757083892822e-01 1.722092553973197937e-02 4.614471793174743652e-01
7.376945763826370239e-02 1.161106824874877930e-01 -6.433067321777343750e-01
-3.889266550540924072e-01 7.972951233386993408e-02 1.736119687557220459e-01
5.789238810539245605e-01 3.499559313058853149e-02 1.301943361759185791e-01
-4.347354471683502197e-01 7.391881942749023438e-02 -4.416596591472625732e-01
3.484728336334228516e-01 1.108334288001060486e-01 -8.200772404670715332e-01
4.017770290374755859e-03 9.902447462081909180e-02 -1.131423830986022949e+00
-3.234694004058837891e-01 9.437887370586395264e-02 -2.843229174613952637e-01
-2.958547174930572510e-01 5.209847539663314819e-02 -1.026595115661621094e+00
8.171354979276657104e-02 4.562411457300186157e-03 -3.699043095111846924e-01
2.756389975547790527e-02 5.768369138240814209e-02 -1.344740509986877441e+00
4.246971309185028076e-01 1.048994883894920349e-01 -8.725538253784179688e-01
3.490536287426948547e-02 1.168659180402755737e-01 -4.586413502693176270e-01
-3.887210786342620850e-01 7.916732132434844971e-02 -6.170247793197631836e-01
9.334995597600936890e-02 9.868241846561431885e-03 -6.110355854034423828e-01
-2.899222970008850098e-01 1.738200336694717407e-02 -5.220245122909545898e-01
6.370680034160614014e-02 9.777867794036865234e-02 6.433949470520019531e-01
-1.662068367004394531e-01 2.090091258287429810e-02 -8.273720741271972656e-01
4.147656261920928955e-01 1.566369831562042236e-02 7.067386806011199951e-02
-1.101000383496284485e-01 9.919426590204238892e-02 4.410678744316101074e-01
4.940714836120605469e-01 3.675342351198196411e-02 -7.255471944808959961e-01
3.294983804225921631e-01 1.020899489521980286e-01 -1.063670396804809570e+00
-1.858592927455902100e-01 3.985253721475601196e-02 -1.095342397689819336e+00
5.988474488258361816e-01 3.803684934973716736e-02 9.085044264793395996e-02
9.961280226707458496e-02 4.557330161333084106e-03 4.334032535552978516e-01
-2.532217502593994141e-01 8.618323504924774170e-02 4.877935051918029785e-01
5.565073490142822266e-01 1.021433770656585693e-01 -6.197980791330337524e-02
3.602420985698699951e-01 2.652019262313842773e-02 -7.916055321693420410e-01
3.501959145069122314e-03 1.162630766630172729e-01 -3.384489119052886963e-01
-2.148166894912719727e-01 9.162873029708862305e-02 4.454641342163085938e-01
-3.808208703994750977e-01 7.696904987096786499e-02 -7.023593187332153320e-01
2.136826217174530029e-01 9.337438642978668213e-02 -1.250078201293945312e+00
2.959657460451126099e-02 2.949113026261329651e-02 -1.086173653602600098e+00
3.939286619424819946e-02 9.156391024589538574e-02 -1.254326820373535156e+00
-2.869845926761627197e-01 2.236871793866157532e-02 -6.711073517799377441e-01
3.371907472610473633e-01 1.019212231040000916e-02 2.721191942691802979e-02
4.511465132236480713e-01 3.633164614439010620e-02 6.960006952285766602e-01
2.396054565906524658e-01 4.313819110393524170e-02 -1.199745893478393555e+00
2.381634116172790527e-01 3.960692882537841797e-02 -1.160174012184143066e+00
-4.060891568660736084e-01 6.190467253327369690e-02 -7.540575861930847168e-01
6.517460942268371582e-02 8.651822805404663086e-02 -1.309426784515380859e+00
2.478054463863372803e-01 1.122840046882629395e-01 2.305224537849426270e-01
-7.510737329721450806e-02 6.377816200256347656e-03 -4.545426666736602783e-01
-8.916459977626800537e-03 1.108356118202209473e-01 -8.039697408676147461e-01
-2.173319160938262939e-01 1.711572334170341492e-02 6.584609746932983398e-01
4.986154139041900635e-01 1.088164746761322021e-01 -2.193606495857238770e-01
-2.025960683822631836e-01 2.213503792881965637e-02 -8.102790117263793945e-01
8.036477118730545044e-02 1.699538528919219971e-02 -8.338540792465209961e-01
-2.190454304218292236e-01 9.316068887710571289e-02 3.938308954238891602e-01
4.906376302242279053e-01 3.760275244712829590e-02 -7.537067532539367676e-01
5.454663634300231934e-01 4.023480415344238281e-02 4.841176271438598633e-01
6.346865296363830566e-01 9.224943816661834717e-02 -2.664220929145812988e-01
-1.451066881418228149e-02 9.125743061304092407e-03 6.466889381408691406e-01
3.109520673751831055e-01 1.175134256482124329e-01 -2.199863195419311523e-01
-1.948654353618621826e-01 4.498925060033798218e-03 1.036140322685241699e-02
2.326167523860931396e-01 5.443140864372253418e-03 -1.019238084554672241e-01
-1.582221686840057373e-01 2.462683990597724915e-02 -9.108233451843261719e-01
-3.951760381460189819e-02 8.446845412254333496e-02 8.167104125022888184e-01
6.478869318962097168e-01 7.573265582323074341e-02 2.095255255699157715e-01
4.760075807571411133e-01 9.959782660007476807e-02 3.362556099891662598e-01
2.519151270389556885e-01 2.198096737265586853e-02 -8.384767174720764160e-01
3.439168930053710938e-01 1.158396005630493164e-01 -5.523576736450195312e-01
4.493374228477478027e-01 1.118827387690544128e-01 -4.522632360458374023e-01
-3.318183720111846924e-01 1.315139234066009521e-02 -5.376672744750976562e-02
1.266273707151412964e-01 6.861010193824768066e-02 1.027642130851745605e+00
4.416569769382476807e-01 2.985635213553905487e-02 -6.994936466217041016e-01
3.699278533458709717e-01 7.084260135889053345e-02 8.878705501556396484e-01
-2.677109241485595703e-01 7.692484557628631592e-02 -1.034295916557312012e+00
5.733696818351745605e-01 3.955536708235740662e-02 -4.980944097042083740e-01
-2.765134274959564209e-01 9.113106876611709595e-03 -9.131640940904617310e-02
-3.416484296321868896e-01 1.583066210150718689e-02 2.487790882587432861e-01
2.609071135520935059e-01 7.895670831203460693e-03 3.115512132644653320e-01
-2.318746149539947510e-01 2.031844109296798706e-02 -7.258859872817993164e-01
4.166657924652099609e-01 1.775848492980003357e-02 2.887083888053894043e-01
3.398475348949432373e-01 1.846660301089286804e-02 -5.926470756530761719e-01
1.745698004961013794e-01 2.207159623503684998e-02 -9.097835421562194824e-01
-1.319766044616699219e-01 1.722692698240280151e-02 -7.753929495811462402e-01
-3.784264922142028809e-01 1.788492500782012939e-02 -2.842892706394195557e-02
5.104167461395263672e-01 3.286891430616378784e-02 4.637339115142822266e-01
9.159933775663375854e-02 5.258247256278991699e-03 4.778157472610473633e-01
2.934245467185974121e-01 1.037491858005523682e-01 4.818581342697143555e-01
-1.434544920921325684e-01 7.393376529216766357e-02 8.533824086189270020e-01
5.640545487403869629e-01 7.056979089975357056e-02 5.593873858451843262e-01
5.461788177490234375e-01 1.045662164688110352e-01 -3.823498189449310303e-01
4.971546828746795654e-01 5.075848847627639771e-02 -9.455344080924987793e-01
-3.618559837341308594e-01 8.720511943101882935e-02 -5.047167539596557617e-01
4.706474840641021729e-01 7.038446515798568726e-02 7.565714120864868164e-01
4.144632220268249512e-01 4.496340081095695496e-02 -1.030499100685119629e+00
1.415153443813323975e-01 1.276159286499023438e-02 7.070467472076416016e-01
3.844700753688812256e-02 7.962643355131149292e-02 9.197322130203247070e-01
2.313284575939178467e-01 8.159861713647842407e-02 8.943525552749633789e-01
-2.115302085876464844e-01 9.190484881401062012e-03 -3.832115530967712402e-01
1.670775711536407471e-01 1.188141405582427979e-01 -2.140868306159973145e-01
7.545993477106094360e-02 1.062124967575073242e-03 4.140016436576843262e-02
5.129693746566772461e-01 1.066147089004516602e-01 -5.093278884887695312e-01
8.792827278375625610e-02 9.488300979137420654e-02 -1.234299421310424805e+00
-2.952633202075958252e-01 1.176401227712631226e-02 2.630829811096191406e-01
3.683722913265228271e-01 2.105399966239929199e-02 -6.172155141830444336e-01
-4.582739770412445068e-01 3.167334198951721191e-02 -1.434218883514404297e-02
3.757072091102600098e-01 1.358898729085922241e-02 -1.902553439140319824e-01
-9.435177594423294067e-02 1.469439268112182617e-02 -7.389565706253051758e-01
-1.207714453339576721e-01 7.324120402336120605e-02 8.839657306671142578e-01
1.810404956340789795e-01 1.214921846985816956e-02 6.546240448951721191e-01
-1.614077687263488770e-01 2.265519648790359497e-02 -8.693428039550781250e-01
-3.483627438545227051e-01 8.323796093463897705e-02 -7.143532633781433105e-01
2.456305623054504395e-01 1.067527830600738525e-01 4.264945387840270996e-01
-4.388988018035888672e-04 5.002569407224655151e-03 -4.193211495876312256e-01
-1.099176034331321716e-01 7.332753390073776245e-03 -4.666530191898345947e-01
-2.856022715568542480e-01 9.772768616676330566e-02 -1.031530722975730896e-01
-2.474832236766815186e-01 8.819164335727691650e-02 4.549551010131835938e-01
1.050377935171127319e-01 8.206073194742202759e-03 -5.377069711685180664e-01
1.338379085063934326e-02 1.141439974308013916e-01 1.757343113422393799e-02
6.279913187026977539e-01 8.902212977409362793e-02 -5.411955714225769043e-01
-7.069935649633407593e-02 2.196922525763511658e-02 -9.249029159545898438e-01
1.621655821800231934e-01 9.928348660469055176e-02 -1.184594273567199707e+00
4.999281764030456543e-01 2.453294396400451660e-02 1.714574098587036133e-01
1.153378486633300781e-01 1.036766022443771362e-01 -1.104232430458068848e+00
6.342513859272003174e-02 1.099464669823646545e-02 6.986999511718750000e-01
-5.444042384624481201e-03 2.484327554702758789e-02 -1.003255844116210938e+00
1.935571134090423584e-01 3.670394420623779297e-03 6.925866007804870605e-02
-2.194000035524368286e-02 1.046501025557518005e-01 3.988584876060485840e-01
-2.408447563648223877e-01 1.010850220918655396e-01 -3.401740640401840210e-02
-3.532192707061767578e-01 1.649573445320129395e-02 2.098810374736785889e-01
4.094118475914001465e-01 1.140130385756492615e-01 -1.911908686161041260e-01
-2.043541073799133301e-01 1.235949248075485229e-02 -5.358310937881469727e-01
1.500048935413360596e-01 1.044639572501182556e-02 -5.924924612045288086e-01
-2.415879070758819580e-02 3.473598510026931763e-03 4.071896672248840332e-01
4.865276813507080078e-01 5.274044722318649292e-02 -9.887347817420959473e-01
2.162214517593383789e-01 3.007260896265506744e-02 9.468476772308349609e-01
1.211370155215263367e-01 1.175992339849472046e-01 -9.395453333854675293e-02
-4.167108237743377686e-01 4.153678938746452332e-02 -6.425224542617797852e-01
4.200457036495208740e-01 3.637094795703887939e-02 7.604073286056518555e-01
4.518284499645233154e-01 1.106465384364128113e-01 -6.533459573984146118e-02
-2.250657677650451660e-01 4.240490496158599854e-02 8.961366415023803711e-01
-4.816981852054595947e-01 5.102325975894927979e-02 1.132862567901611328e-01
-3.309476375579833984e-01 9.282507002353668213e-02 -1.041230559349060059e-01
-4.282822310924530029e-01 7.281735539436340332e-02 1.445278227329254150e-01
1.023386567831039429e-01 4.728919267654418945e-02 -1.289330959320068359e+00
2.101505696773529053e-01 1.520805805921554565e-02 7.062667608261108398e-01
1.366509497165679932e-02 1.160774976015090942e-01 -1.757637858390808105e-01
1.799473166465759277e-02 9.667102992534637451e-02 6.420378684997558594e-01
5.637126564979553223e-01 4.895577207207679749e-02 -7.444143295288085938e-01
-5.923465639352798462e-02 1.087766140699386597e-01 -7.983506917953491211e-01
2.892879843711853027e-01 1.018829047679901123e-01 5.313568711280822754e-01
1.590752452611923218e-01 1.154784783720970154e-01 -7.501250505447387695e-01
2.948962450027465820e-01 2.587437257170677185e-02 8.160138726234436035e-01
2.285062372684478760e-01 1.188576221466064453e-01 -2.478357702493667603e-01
3.831126093864440918e-01 7.429341971874237061e-02 8.505697846412658691e-01
2.649684846401214600e-01 1.206251233816146851e-02 -4.941117167472839355e-01
4.036192297935485840e-01 5.611701682209968567e-02 -1.153375983238220215e+00
3.996055126190185547e-01 3.184590116143226624e-02 7.402442097663879395e-01
5.529097914695739746e-01 2.993416599929332733e-02 -2.527180314064025879e-02
2.642817199230194092e-01 8.099604398012161255e-03 -2.577235698699951172e-01
-2.061941623687744141e-01 6.935017555952072144e-02 8.217749595642089844e-01
-3.556497395038604736e-01 3.211574256420135498e-02 5.942786931991577148e-01
2.467968761920928955e-01 1.550373807549476624e-02 -6.596239805221557617e-01
3.146767318248748779e-01 1.112930476665496826e-02 -3.013911545276641846e-01
3.822763860225677490e-01 1.155806034803390503e-01 -3.520076274871826172e-01
-1.209889128804206848e-01 5.119758471846580505e-02 -1.241025805473327637e+00
3.342366218566894531e-02 4.009570926427841187e-03 -3.601063787937164307e-01
-2.035422027111053467e-01 1.015440151095390320e-01 -6.964836716651916504e-01
2.645036578178405762e-02 1.110794097185134888e-01 -8.443716764450073242e-01
9.670631587505340576e-02 8.329016715288162231e-02 -1.337404012680053711e+00
1.277163475751876831e-01 1.013597846031188965e-02 6.416456103324890137e-01
3.543578684329986572e-01 7.766129076480865479e-02 8.523240089416503906e-01
5.111032724380493164e-01 2.476584911346435547e-02 -6.902845203876495361e-02
2.868268489837646484e-01 7.931225001811981201e-03 1.818146109580993652e-01
-2.569499611854553223e-01 1.212676614522933960e-02 -4.060507416725158691e-01
-3.497215807437896729e-01 8.173369616270065308e-02 3.010604381561279297e-01
-4.655204713344573975e-01 4.182070493698120117e-02 2.202963531017303467e-01
3.999770283699035645e-01 4.982871562242507935e-02 -1.105977773666381836e+00
8.300851285457611084e-02 3.066031076014041901e-02 1.007462978363037109e+00
1.282927840948104858e-01 1.187717318534851074e-01 -2.722036242485046387e-01
3.646312057971954346e-01 1.071400493383407593e-01 3.098038733005523682e-01
2.192498743534088135e-01 1.166939437389373779e-01 6.442576646804809570e-03
-3.164234459400177002e-01 3.738756850361824036e-02 -8.716985583305358887e-01
9.856453537940979004e-02 1.103741079568862915e-01 3.035822510719299316e-01
3.389095515012741089e-02 9.262715280055999756e-02 7.306132912635803223e-01
4.075941741466522217e-01 1.576354727149009705e-02 -1.766186803579330444e-01
-3.327043652534484863e-01 1.742721721529960632e-02 3.697894811630249023e-01
1.279121041297912598e-01 7.575426250696182251e-03 -4.909787774085998535e-01
-1.412310302257537842e-01 1.072134524583816528e-01 3.405411541461944580e-02
-3.766055703163146973e-01 1.883300021290779114e-02 1.762650609016418457e-01
3.927282392978668213e-01 1.663890853524208069e-02 -3.414034843444824219e-01
5.489085316658020020e-01 2.942012622952461243e-02 -7.620393484830856323e-02
2.670638561248779297e-01 5.558634921908378601e-02 -1.284401774406433105e+00
-1.413949131965637207e-01 6.564228236675262451e-02 9.286401271820068359e-01
5.410035848617553711e-01 2.848811820149421692e-02 -1.080906391143798828e-01
6.371626853942871094e-01 5.264889076352119446e-02 -4.787648022174835205e-01
6.576490402221679688e-01 8.571371436119079590e-02 -3.501444756984710693e-01
2.005971670150756836e-01 1.236118748784065247e-02 -6.103461980819702148e-01
1.048631072044372559e-01 1.182297319173812866e-01 -2.071955800056457520e-01
-2.465092837810516357e-01 7.088437676429748535e-03 -4.222214221954345703e-02
-1.987903416156768799e-01 1.654336228966712952e-02 -6.788893938064575195e-01
3.758239746093750000e-01 9.837876260280609131e-02 -1.075116157531738281e+00
-8.067228645086288452e-02 4.963294044137001038e-02 -1.260101079940795898e+00
-2.820177376270294189e-01 1.145502552390098572e-02 -2.800859808921813965e-01
4.068777859210968018e-01 2.369761839509010315e-02 5.626593232154846191e-01
3.618193268775939941e-01 8.918023109436035156e-02 -1.193565726280212402e+00
-3.878655284643173218e-02 8.180322498083114624e-02 8.536272644996643066e-01
4.094489812850952148e-01 8.596505969762802124e-02 -1.162448048591613770e+00
-2.147499024868011475e-01 3.490478545427322388e-02 -1.006300449371337891e+00
-1.736193597316741943e-01 9.513545036315917969e-02 -9.680180549621582031e-01
-7.997892796993255615e-03 1.127865314483642578e-01 6.495679914951324463e-02
2.794936597347259521e-01 1.131351441144943237e-01 -8.136970400810241699e-01
2.256323099136352539e-01 5.096692964434623718e-02 -1.278665423393249512e+00
-4.587767422199249268e-01 7.036344707012176514e-02 -2.644655704498291016e-01
1.882011592388153076e-01 4.012625664472579956e-03 -1.195679679512977600e-01
-4.005612432956695557e-01 3.946454450488090515e-02 -6.757435202598571777e-01
2.473622262477874756e-01 1.187013313174247742e-01 -4.307228028774261475e-01
4.381377398967742920e-01 4.668099805712699890e-02 -1.012340068817138672e+00
-2.126658260822296143e-01 9.093502163887023926e-02 -9.684070348739624023e-01
-2.005882859230041504e-01 1.033734530210494995e-01 -6.138290166854858398e-01
4.395604506134986877e-02 3.837745636701583862e-03 4.293848872184753418e-01
-2.174842357635498047e-01 5.963496863842010498e-03 1.772583425045013428e-01
5.711843371391296387e-01 1.015902757644653320e-01 -1.623119562864303589e-01
6.535310298204421997e-02 2.764410525560379028e-02 -1.056382894515991211e+00
-7.636068016290664673e-02 1.011283546686172485e-01 4.362587332725524902e-01
-3.427273631095886230e-01 1.719230040907859802e-02 -3.231884241104125977e-01
-6.029925495386123657e-02 1.137726604938507080e-01 -2.512142062187194824e-01
2.723682522773742676e-01 1.081224232912063599e-01 3.694230318069458008e-01
-3.331568837165832520e-01 1.316120103001594543e-02 1.779331266880035400e-02
1.590477079153060913e-01 7.550811022520065308e-02 9.728820323944091797e-01
-1.307890117168426514e-01 1.035872101783752441e-01 2.515234947204589844e-01
2.811678946018218994e-01 1.140742301940917969e-01 -7.714141011238098145e-01
-3.655894994735717773e-01 1.651231572031974792e-02 -6.314624100923538208e-02
2.936181128025054932e-01 1.109878644347190857e-01 2.505259811878204346e-01
5.792092680931091309e-01 3.425532951951026917e-02 -1.744586527347564697e-01
5.145195722579956055e-01 1.007337570190429688e-01 1.985553801059722900e-01
-2.159076333045959473e-01 2.452029287815093994e-02 -8.410308957099914551e-01
-4.227081835269927979e-01 7.062392681837081909e-02 -6.036641597747802734e-01
-2.280839383602142334e-01 8.542951196432113647e-02 -1.022445201873779297e+00
1.810044944286346436e-01 5.796562880277633667e-03 3.874067664146423340e-01
-1.083025708794593811e-01 3.673375025391578674e-02 9.923779964447021484e-01
-2.243091166019439697e-01 6.581000983715057373e-03 2.118982672691345215e-01
4.543302059173583984e-01 2.565397694706916809e-02 4.713764190673828125e-01
4.435263872146606445e-01 1.058950945734977722e-01 2.098253965377807617e-01
1.199403479695320129e-01 1.087093055248260498e-01 -9.889709353446960449e-01
-1.172319799661636353e-02 1.157136261463165283e-01 -2.825810313224792480e-01
-1.960885822772979736e-01 1.004647985100746155e-01 2.024281322956085205e-01
3.706318140029907227e-01 1.275372505187988281e-02 1.519430577754974365e-01
2.981973439455032349e-02 1.126281917095184326e-03 1.983645260334014893e-01
2.302506566047668457e-02 1.088348776102066040e-01 3.021746575832366943e-01
9.069278836250305176e-03 1.142046600580215454e-01 -6.572910547256469727e-01
-2.077961266040802002e-01 2.077040448784828186e-02 -7.729853987693786621e-01
-2.782672345638275146e-01 8.410148322582244873e-02 -9.275782704353332520e-01
3.294429779052734375e-01 2.522440999746322632e-02 7.558801174163818359e-01
-4.048115909099578857e-01 4.390617460012435913e-02 5.205913186073303223e-01
-1.466421186923980713e-01 8.453983068466186523e-02 7.076719403266906738e-01
-2.818378806114196777e-01 9.211097657680511475e-02 2.367609441280364990e-01
1.216891780495643616e-01 9.923966228961944580e-02 -1.182407617568969727e+00
3.496393859386444092e-01 1.418295130133628845e-02 3.864328265190124512e-01
2.910696864128112793e-01 9.551301598548889160e-02 -1.190150499343872070e+00
5.636438354849815369e-02 1.176858097314834595e-01 -3.516526222229003906e-01
-2.595459818840026855e-01 1.958115771412849426e-02 -6.574077606201171875e-01
1.628257483243942261e-01 1.168954744935035706e-01 -6.659128069877624512e-01
6.586018204689025879e-01 8.479268103837966919e-02 -3.791255354881286621e-01
5.276793837547302246e-01 8.954005688428878784e-02 4.377562403678894043e-01
4.225686192512512207e-01 1.048914492130279541e-01 2.895576357841491699e-01
8.158882707357406616e-02 3.038529306650161743e-03 3.517885804176330566e-01
1.336906254291534424e-01 2.611443400382995605e-02 -1.013180971145629883e+00
4.425482451915740967e-01 1.126664206385612488e-01 -2.693514525890350342e-01
-7.196251302957534790e-02 5.324669182300567627e-03 -4.032526910305023193e-01
-4.353241026401519775e-01 2.689704671502113342e-02 -1.361347138881683350e-01
2.352676093578338623e-01 9.014059603214263916e-02 7.822964191436767578e-01
4.662708342075347900e-01 1.086772978305816650e-01 -6.225063800811767578e-01
-2.209495604038238525e-01 2.153163403272628784e-02 7.339361906051635742e-01
4.508119523525238037e-01 1.099522113800048828e-01 -9.593367576599121094e-03
1.188117489218711853e-01 1.093807965517044067e-01 3.493986427783966064e-01
1.945482790470123291e-01 9.386412799358367920e-02 7.336254119873046875e-01
-8.058098703622817993e-02 1.127196997404098511e-01 -2.118703722953796387e-01
6.756746768951416016e-01 5.792867392301559448e-02 -1.109600737690925598e-01
-2.969134151935577393e-01 9.710222482681274414e-02 -3.633926212787628174e-01
-4.116910398006439209e-01 2.244773507118225098e-02 -6.396927684545516968e-02
-3.543942868709564209e-01 5.593540146946907043e-02 -9.133185744285583496e-01
-4.489592462778091431e-02 1.057267338037490845e-01 -9.294171929359436035e-01
3.691558539867401123e-01 1.151858717203140259e-01 -5.282548666000366211e-01
1.909806132316589355e-01 1.186083331704139709e-01 -5.085765123367309570e-01
5.836855173110961914e-01 3.654047846794128418e-02 -3.024860620498657227e-01
4.043008685111999512e-01 5.423110723495483398e-02 8.892791271209716797e-01
-1.542874276638031006e-01 1.088774353265762329e-01 -3.706193268299102783e-01
5.804160833358764648e-01 8.746255189180374146e-02 3.225799202919006348e-01
4.835360050201416016e-01 1.041743755340576172e-01 -7.510318756103515625e-01
4.903863966464996338e-01 2.809969335794448853e-02 -4.823443591594696045e-01
-1.727641522884368896e-01 9.951008856296539307e-02 -8.626714348793029785e-01
3.558759391307830811e-01 1.327859610319137573e-02 3.046679794788360596e-01
6.169659495353698730e-01 4.913371428847312927e-02 -5.229626893997192383e-01
5.499150753021240234e-01 9.920050203800201416e-02 1.223656535148620605e-01
4.440779387950897217e-01 1.062074303627014160e-01 -7.924060225486755371e-01
-1.305128931999206543e-01 9.056889265775680542e-02 -1.116403341293334961e+00
1.303977668285369873e-01 7.805803418159484863e-02 9.513314962387084961e-01
6.009073853492736816e-01 3.749749809503555298e-02 -2.125088125467300415e-02
-5.885510891675949097e-02 1.072031334042549133e-01 2.517413496971130371e-01
1.369532495737075806e-01 1.170960590243339539e-01 -3.280398994684219360e-02
-4.712402075529098511e-02 1.086693555116653442e-01 -8.262482285499572754e-01
1.966334581375122070e-01 7.802639156579971313e-03 -4.113303720951080322e-01
5.234847664833068848e-01 2.670499309897422791e-02 -1.695959866046905518e-01
3.553154766559600830e-01 1.085161268711090088e-01 2.744528055191040039e-01
-1.572894752025604248e-01 7.777258008718490601e-02 7.924427390098571777e-01
-9.684985131025314331e-02 1.887832954525947571e-02 -8.428835272789001465e-01
-2.231223583221435547e-01 8.937091380357742310e-02 4.829891324043273926e-01
-8.339562267065048218e-02 7.436128705739974976e-02 9.058773517608642578e-01
6.113246679306030273e-01 9.492225199937820435e-02 -4.546520113945007324e-01
3.609921410679817200e-02 3.470502793788909912e-03 -3.241804242134094238e-01
-1.643922924995422363e-02 4.494164139032363892e-03 -3.880009651184082031e-01
-2.293162047863006592e-01 1.023644059896469116e-01 -6.343176215887069702e-02
8.547400683164596558e-02 1.072034761309623718e-01 -1.014080524444580078e+00
-4.289894998073577881e-01 7.162699103355407715e-02 1.738971173763275146e-01
2.072711884975433350e-01 1.152539253234863281e-02 -5.693010687828063965e-01
-2.168427407741546631e-01 8.136554062366485596e-02 6.530447006225585938e-01
-3.716736286878585815e-02 9.166337549686431885e-04 1.270360648632049561e-01
-5.533374100923538208e-02 6.369285285472869873e-03 5.335150957107543945e-01
3.567842245101928711e-01 1.723169535398483276e-02 -5.004139542579650879e-01
3.035842180252075195e-01 5.034980550408363342e-02 -1.219002127647399902e+00
4.561595916748046875e-01 3.046531602740287781e-02 5.866900086402893066e-01
2.184233367443084717e-01 9.813098609447479248e-02 6.475010514259338379e-01
-2.033695876598358154e-01 8.968693017959594727e-02 -1.008966684341430664e+00
2.252653539180755615e-01 7.655513286590576172e-02 9.464906454086303711e-01
-1.458163559436798096e-01 2.886701375246047974e-03 1.189683377742767334e-01
2.207455337047576904e-01 1.184015274047851562e-01 -5.229070782661437988e-01
6.657803654670715332e-01 7.905904203653335571e-02 2.962785959243774414e-02
4.225308597087860107e-01 1.873146370053291321e-02 3.170152008533477783e-01
