2.288765907287597656e-01 2.837557494640350342e-01 -3.441786170005798340e-01
7.550423592329025269e-02 4.490417242050170898e-02 4.324132204055786133e-01
8.970939368009567261e-02 4.522648453712463379e-02 4.373264908790588379e-01
2.723062932491302490e-01 2.353137433528900146e-01 2.516419067978858948e-02
9.344038367271423340e-02 3.441575467586517334e-01 7.491849362850189209e-02
5.246801301836967468e-02 1.345973163843154907e-01 -2.601262629032135010e-01
7.409742474555969238e-02 1.971658915281295776e-01 -3.673526644706726074e-01
1.351465582847595215e-01 1.701844036579132080e-01 4.038548767566680908e-01
-2.416104823350906372e-02 2.779588997364044189e-01 1.297521591186523438e-01
5.162216350436210632e-02 2.604833543300628662e-01 2.815246880054473877e-01
5.492441356182098389e-03 3.186486661434173584e-01 7.757306843996047974e-02
1.774385571479797363e-03 2.791859805583953857e-01 1.882668137550354004e-01
2.279403209686279297e-01 3.050106465816497803e-01 1.131966616958379745e-02
1.955354958772659302e-02 3.240682482719421387e-01 -3.234455585479736328e-01
-2.114521712064743042e-02 3.176431655883789062e-01 -2.348989248275756836e-02
1.988263726234436035e-01 5.624942481517791748e-02 -8.440428972244262695e-02
1.326327621936798096e-01 -5.118399858474731445e-03 2.883159816265106201e-01
2.754289209842681885e-01 1.975785046815872192e-01 -1.817609667778015137e-01
7.075636088848114014e-02 2.486538290977478027e-01 3.105648756027221680e-01
2.366325557231903076e-01 2.631509006023406982e-01 -3.337474167346954346e-01
2.280213832855224609e-01 1.057333499193191528e-01 3.124521374702453613e-01
9.801863133907318115e-02 -4.724949598312377930e-03 3.003055155277252197e-01
1.084514930844306946e-01 -3.965541720390319824e-03 1.438759714365005493e-01
1.516018211841583252e-01 3.775219619274139404e-01 -1.585987806320190430e-01
-4.301374405622482300e-02 2.296488583087921143e-01 -1.659502536058425903e-01
8.472070842981338501e-02 6.865689158439636230e-02 -1.471897959709167480e-01
1.917133331298828125e-01 1.016482934355735779e-01 -2.161070555448532104e-01
2.003698050975799561e-01 2.829498052597045898e-01 -3.966130316257476807e-01
7.736846804618835449e-02 -3.661453723907470703e-03 2.121552079916000366e-01
-5.532059818506240845e-02 2.179951518774032593e-01 -9.278032928705215454e-02
7.170850038528442383e-02 3.595712780952453613e-01 5.713253282010555267e-03
2.677080631256103516e-01 2.619998455047607422e-01 -2.036568969488143921e-01
-5.214244872331619263e-02 1.292290538549423218e-01 1.904305964708328247e-01
5.502265319228172302e-02 2.548943459987640381e-01 2.937747836112976074e-01
8.629730343818664551e-02 -1.178920269012451172e-03 3.160113990306854248e-01
2.785062491893768311e-01 1.500152051448822021e-01 -9.234440326690673828e-02
-3.290080279111862183e-02 8.055782318115234375e-02 1.931329965591430664e-01
-2.034627646207809448e-02 1.579827517271041870e-01 -1.658714562654495239e-01
2.550678551197052002e-01 1.461148113012313843e-01 2.243334501981735229e-01
2.906317263841629028e-02 2.985765933990478516e-01 -3.623522520065307617e-01
1.375563591718673706e-01 9.761579334735870361e-02 4.429980516433715820e-01
2.823696136474609375e-01 2.262033969163894653e-01 -9.995941817760467529e-02
2.424212396144866943e-01 1.552698612213134766e-01 2.591473162174224854e-01
1.818639039993286133e-01 9.594510495662689209e-02 -2.120621949434280396e-01
8.935405313968658447e-02 3.815519809722900391e-01 -2.822492718696594238e-01
2.110343575477600098e-01 4.605248570442199707e-02 3.049497902393341064e-01
1.626478135585784912e-01 1.579550653696060181e-01 3.936261534690856934e-01
2.825084030628204346e-01 2.217807173728942871e-01 -1.156843975186347961e-01
2.395879328250885010e-01 3.180129826068878174e-01 -2.116369605064392090e-01
2.411302924156188965e-01 9.852116554975509644e-02 -1.238763481378555298e-01
2.326808571815490723e-01 2.780344486236572266e-01 8.374762535095214844e-02
8.333785086870193481e-02 2.194988429546356201e-01 -3.949123322963714600e-01
1.942391842603683472e-01 3.601408004760742188e-01 -2.001880109310150146e-01
-1.328520476818084717e-02 2.677136659622192383e-01 1.856538951396942139e-01
-1.193998008966445923e-02 2.542166411876678467e-01 2.184834778308868408e-01
1.390545815229415894e-01 1.949171721935272217e-01 -3.870522081851959229e-01
7.554452121257781982e-02 5.403921008110046387e-03 1.129127740859985352e-01
4.469937831163406372e-02 1.552724391222000122e-01 -2.849002182483673096e-01
2.095761895179748535e-01 3.403078615665435791e-01 -2.953760921955108643e-01
-3.663421422243118286e-02 3.001928925514221191e-01 -1.012502610683441162e-01
1.060224324464797974e-02 1.870160102844238281e-01 3.563497960567474365e-01
2.700129151344299316e-02 1.283767223358154297e-01 -2.145197689533233643e-01
1.835974752902984619e-01 8.612334728240966797e-03 1.376772075891494751e-01
1.559047251939773560e-01 1.536718904972076416e-01 4.032267928123474121e-01
7.122232764959335327e-02 9.274631738662719727e-04 1.636919826269149780e-01
7.484103739261627197e-02 3.370774388313293457e-01 -3.944756686687469482e-01
2.055707275867462158e-01 3.346808552742004395e-01 -3.294602930545806885e-01
2.852851450443267822e-01 1.942196935415267944e-01 -9.219224750995635986e-02
9.230840206146240234e-02 2.053318470716476440e-01 -3.872375190258026123e-01
2.189240455627441406e-01 3.412899971008300781e-01 -1.905641257762908936e-01
1.266547143459320068e-01 2.150029093027114868e-01 3.556576967239379883e-01
4.070948809385299683e-02 3.693907856941223145e-01 -1.119641140103340149e-01
5.837525427341461182e-02 1.982465386390686035e-03 2.325135618448257446e-01
1.418384015560150146e-01 3.598191142082214355e-01 -1.599949225783348083e-02
-2.753464132547378540e-02 3.096431791782379150e-01 -1.810293272137641907e-02
2.803954482078552246e-01 2.359706759452819824e-01 -9.133005142211914062e-02
-1.371756941080093384e-02 1.832631230354309082e-01 3.222180902957916260e-01
-4.962988942861557007e-02 1.570950150489807129e-01 2.298361212015151978e-01
1.601881384849548340e-01 -2.462998032569885254e-03 2.002101540565490723e-01
2.742418944835662842e-01 1.111000627279281616e-01 2.762443572282791138e-02
2.863722294569015503e-02 3.268930017948150635e-01 -3.397728800773620605e-01
1.396455168724060059e-01 3.193616271018981934e-01 1.340185552835464478e-01
2.254089266061782837e-01 2.493962347507476807e-01 -3.574252724647521973e-01
2.354523837566375732e-01 1.714105755090713501e-01 2.643058300018310547e-01
4.075227677822113037e-02 4.807281494140625000e-02 4.055942296981811523e-01
1.463262140750885010e-01 2.330291867256164551e-01 -4.191364347934722900e-01
2.476683855056762695e-01 7.299009710550308228e-02 -6.913918070495128632e-03
2.695490419864654541e-01 2.235822379589080811e-01 -2.232104837894439697e-01
8.261141180992126465e-02 1.628687977790832520e-02 3.829529508948326111e-02
2.037029564380645752e-01 1.431646347045898438e-01 -2.832684218883514404e-01
6.154133006930351257e-02 1.197483167052268982e-01 4.450355172157287598e-01
2.190635651350021362e-01 2.070265114307403564e-01 -3.442947566509246826e-01
-3.023388236761093140e-02 8.397143334150314331e-02 8.404943346977233887e-02
-4.164535552263259888e-02 1.183355152606964111e-01 2.543653547763824463e-01
2.696358561515808105e-01 1.074544116854667664e-01 1.298667639493942261e-01
1.468985080718994141e-01 3.441043198108673096e-02 -5.720724910497665405e-02
-4.229336231946945190e-02 1.169199869036674500e-01 1.977572776377201080e-02
1.644479632377624512e-01 3.493208885192871094e-01 -1.693875528872013092e-03
1.971164941787719727e-01 3.101643919944763184e-01 -3.868090510368347168e-01
3.839124739170074463e-02 1.263948976993560791e-01 -2.276798188686370850e-01
-4.995889216661453247e-02 1.472557187080383301e-01 -2.325802296400070190e-02
-3.621248155832290649e-02 2.265702635049819946e-01 2.091345787048339844e-01
2.600222229957580566e-01 2.830260396003723145e-01 -7.398685812950134277e-02
7.653321325778961182e-02 3.327280282974243164e-04 1.540730446577072144e-01
1.367197036743164062e-01 2.976502776145935059e-01 1.943158358335494995e-01
8.258779346942901611e-02 3.607438504695892334e-02 -4.453157633543014526e-02
2.453608810901641846e-01 1.513501405715942383e-01 -2.275726050138473511e-01
1.791066229343414307e-01 6.061030924320220947e-02 -1.225196123123168945e-01
1.827100813388824463e-01 7.609710097312927246e-03 2.405698448419570923e-01
-6.138216704130172729e-02 2.232815623283386230e-01 6.963735818862915039e-02
1.262111216783523560e-01 1.023525893688201904e-01 -2.435819804668426514e-01
-2.759795635938644409e-02 3.132884502410888672e-01 -5.272273346781730652e-02
2.862418889999389648e-01 1.943663507699966431e-01 -2.777427807450294495e-02
2.747543156147003174e-01 2.203607261180877686e-01 -1.941317170858383179e-01
9.376077353954315186e-02 2.903059124946594238e-03 1.023122221231460571e-01
1.723335236310958862e-01 2.421984970569610596e-01 -4.145539700984954834e-01
2.564190924167633057e-01 1.197685450315475464e-01 2.222753614187240601e-01
1.673566251993179321e-01 2.140940725803375244e-02 1.169902086257934570e-02
2.768569886684417725e-01 1.355111896991729736e-01 1.088846847414970398e-01
1.159660667181015015e-01 1.494497358798980713e-01 -3.262598216533660889e-01
2.866005599498748779e-01 1.914816945791244507e-01 -4.647603258490562439e-02
2.059590518474578857e-01 3.313466310501098633e-01 -2.295569330453872681e-02
1.575943976640701294e-01 3.777106404304504395e-01 -2.014262080192565918e-01
1.520443707704544067e-01 3.558900058269500732e-01 -1.133570354431867599e-02
6.091974303126335144e-02 6.920651346445083618e-02 4.430593550205230713e-01
-3.356816619634628296e-02 2.213965058326721191e-01 2.260807901620864868e-01
-4.742177575826644897e-02 1.699537336826324463e-01 -8.500351011753082275e-02
8.274029195308685303e-02 3.848920762538909912e-01 -2.063872516155242920e-01
-1.639813929796218872e-02 1.577243506908416748e-01 -1.764169931411743164e-01
2.858498990535736084e-01 2.024161219596862793e-01 -6.749419867992401123e-02
1.828658878803253174e-01 1.373283863067626953e-01 -2.924219369888305664e-01
1.477778553962707520e-01 3.809241056442260742e-01 -2.152509540319442749e-01
1.154470145702362061e-01 2.582150697708129883e-01 2.901694476604461670e-01
2.830721139907836914e-01 1.643765568733215332e-01 5.688492953777313232e-02
1.792357563972473145e-01 1.162599995732307434e-01 -2.567032277584075928e-01
5.881813168525695801e-02 1.485753357410430908e-01 -2.901104986667633057e-01
-4.705383628606796265e-02 1.996119618415832520e-01 -1.268298178911209106e-01
2.536186277866363525e-01 2.302510440349578857e-01 -2.858903706073760986e-01
1.773329973220825195e-01 3.207361102104187012e-01 -4.031626284122467041e-01
1.950170546770095825e-01 3.531513512134552002e-01 -2.938206195831298828e-01
8.894102275371551514e-02 3.480961918830871582e-01 6.009556725621223450e-02
-6.082973629236221313e-02 1.576100438833236694e-01 5.559387803077697754e-02
-2.889017015695571899e-02 1.450842618942260742e-01 3.122570812702178955e-01
-2.924635261297225952e-02 2.482004463672637939e-01 -2.251653075218200684e-01
1.237585246562957764e-01 3.789041042327880859e-01 -1.109359040856361389e-01
1.145711168646812439e-01 3.280258476734161377e-01 -4.238819479942321777e-01
2.625097334384918213e-01 2.840427458286285400e-01 -1.433319896459579468e-01
1.684555411338806152e-02 2.731401622295379639e-01 2.250566929578781128e-01
-6.090601533651351929e-02 1.741831749677658081e-01 4.449394531548023224e-03
-4.574396461248397827e-02 2.525533735752105713e-01 1.135989427566528320e-01
5.805941671133041382e-02 2.158037722110748291e-01 -3.715171515941619873e-01
3.123421221971511841e-02 1.629027724266052246e-02 2.630850076675415039e-01
1.011164486408233643e-01 4.720160365104675293e-02 4.399446845054626465e-01
4.112341254949569702e-02 3.560383319854736328e-01 -1.307637523859739304e-02
6.524366140365600586e-02 1.542623490095138550e-01 4.271337389945983887e-01
2.783826589584350586e-01 2.207005918025970459e-01 1.719354465603828430e-02
-3.579171746969223022e-02 8.495791256427764893e-02 1.663560867309570312e-01
1.422451138496398926e-01 5.762717127799987793e-02 4.308858811855316162e-01
-2.092809230089187622e-02 6.450791656970977783e-02 2.312180101871490479e-01
1.468042880296707153e-01 2.296601235866546631e-01 3.212512135505676270e-01
-3.266461938619613647e-02 1.340785771608352661e-01 3.016627132892608643e-01
-2.374917268753051758e-03 3.058488965034484863e-01 1.038539484143257141e-01
1.954093873500823975e-01 1.438563466072082520e-01 3.640816509723663330e-01
1.152896583080291748e-01 3.652697503566741943e-01 -1.907606795430183411e-02
2.169865071773529053e-01 8.875887840986251831e-02 3.353531360626220703e-01
1.756367236375808716e-01 1.748274266719818115e-02 4.433637112379074097e-02
1.355488002300262451e-01 5.665868520736694336e-03 3.482454419136047363e-01
2.797845005989074707e-01 2.262511402368545532e-01 -1.494398564100265503e-01
1.304822564125061035e-01 2.322629094123840332e-03 9.043694287538528442e-02
-4.502674192190170288e-02 2.153461128473281860e-01 -1.494967192411422729e-01
-6.201251596212387085e-02 2.294218987226486206e-01 7.540515158325433731e-03
5.705098435282707214e-02 3.351798951625823975e-01 9.354090690612792969e-02
6.954538822174072266e-02 2.947790920734405518e-02 -4.175912588834762573e-03
2.767139375209808350e-01 1.176538765430450439e-01 5.099011585116386414e-02
1.161930263042449951e-01 5.343551933765411377e-02 -1.205849349498748779e-01
2.572664618492126465e-01 2.696261703968048096e-01 9.035324677824974060e-03
7.648639380931854248e-02 6.083737313747406006e-02 -1.185493171215057373e-01
1.586947888135910034e-01 3.775161504745483398e-01 -2.238713502883911133e-01
1.082065328955650330e-01 3.851678967475891113e-01 -1.666523218154907227e-01
2.233006060123443604e-01 2.981017231941223145e-01 -3.460612297058105469e-01
-4.014100879430770874e-02 1.895827502012252808e-01 2.481518387794494629e-01
1.106391027569770813e-01 3.154473304748535156e-01 1.619103997945785522e-01
2.249628007411956787e-01 3.110318183898925781e-01 -1.470932736992835999e-03
-8.307367563247680664e-03 3.358250856399536133e-01 -7.516866922378540039e-02
3.446082025766372681e-02 4.169234633445739746e-02 9.504500776529312134e-03
2.508801519870758057e-01 7.054107636213302612e-02 1.759523749351501465e-01
1.940094381570816040e-01 3.598747551441192627e-01 -2.339560538530349731e-01
-2.065608650445938110e-02 3.241787254810333252e-01 -1.049398407340049744e-01
2.669271230697631836e-01 1.033793017268180847e-01 1.455032974481582642e-01
1.309730112552642822e-01 8.264005184173583984e-02 -2.000477463006973267e-01
1.865485608577728271e-01 3.581507205963134766e-01 -2.993095219135284424e-01
1.752642691135406494e-01 2.627770006656646729e-01 -4.206652641296386719e-01
2.723566293716430664e-01 2.199218720197677612e-01 -2.082145512104034424e-01
2.338580191135406494e-01 5.222851037979125977e-02 3.258652612566947937e-02
-2.393027395009994507e-02 1.251677572727203369e-01 3.281970918178558350e-01
2.111208736896514893e-01 1.694317460060119629e-01 3.178874850273132324e-01
1.452600210905075073e-02 2.029452323913574219e-01 -3.016646802425384521e-01
2.221646755933761597e-01 2.783186435699462891e-01 -3.618453443050384521e-01
4.105576872825622559e-02 2.137950509786605835e-01 3.519584238529205322e-01
2.139911055564880371e-01 3.688646852970123291e-02 3.455508500337600708e-02
3.754991292953491211e-02 3.694904744625091553e-01 -1.315386146306991577e-01
3.634657710790634155e-02 3.630985021591186523e-01 -6.933994591236114502e-02
1.428467333316802979e-01 3.552579283714294434e-01 -3.818622529506683350e-01
2.912551164627075195e-03 3.976592421531677246e-02 1.469720751047134399e-01
1.308411508798599243e-01 2.131434381008148193e-01 -4.049832224845886230e-01
1.723954677581787109e-01 3.017410635948181152e-03 2.465446144342422485e-01
-8.216887712478637695e-03 4.986284673213958740e-02 1.496881395578384399e-01
1.498337388038635254e-01 3.714546263217926025e-01 -9.623518586158752441e-02
-6.004303693771362305e-03 7.364980876445770264e-02 3.429714739322662354e-01
-6.086508184671401978e-02 1.676088273525238037e-01 1.436870992183685303e-01
1.949712932109832764e-01 1.593437790870666504e-02 1.128530204296112061e-01
1.160069704055786133e-01 3.536533713340759277e-01 -3.919380307197570801e-01
2.248327285051345825e-01 2.276384830474853516e-01 2.144111841917037964e-01
2.802387624979019165e-02 3.486356437206268311e-01 -2.961865365505218506e-01
2.446717768907546997e-02 2.636432647705078125e-02 3.107545673847198486e-01
1.351412981748580933e-01 2.657802999019622803e-01 -4.363749921321868896e-01
-1.724588125944137573e-02 2.178631573915481567e-01 2.721629440784454346e-01
2.234414219856262207e-03 2.983579039573669434e-01 -3.060788512229919434e-01
2.433004379272460938e-01 3.123544752597808838e-01 -1.219215393066406250e-01
5.549162253737449646e-02 5.507278442382812500e-02 -7.679175585508346558e-02
7.296954840421676636e-02 3.431788384914398193e-01 7.429027557373046875e-02
1.713642477989196777e-02 2.935203313827514648e-01 -3.422917425632476807e-01
2.549401223659515381e-01 2.971183955669403076e-01 -1.741351038217544556e-01
2.074827551841735840e-01 2.296797931194305420e-01 -3.761993348598480225e-01
5.155603215098381042e-02 1.916170120239257812e-02 7.804693281650543213e-02
7.269836962223052979e-03 1.466872245073318481e-01 3.849697411060333252e-01
1.553674042224884033e-02 1.182908862829208374e-01 -1.744169145822525024e-01
2.783308327198028564e-01 1.896927505731582642e-01 7.741092145442962646e-02
2.776435017585754395e-01 2.387533932924270630e-01 -3.757762536406517029e-02
-4.480595141649246216e-02 2.757999002933502197e-01 -1.253889203071594238e-01
1.056671962141990662e-01 9.126955270767211914e-02 -2.144782692193984985e-01
-5.399409681558609009e-02 2.012311369180679321e-01 -9.053316712379455566e-02
-4.406336694955825806e-02 2.500725388526916504e-01 -1.613953560590744019e-01
1.303093582391738892e-01 3.003181517124176025e-02 4.109128415584564209e-01
5.182571709156036377e-03 3.063527047634124756e-01 1.190854236483573914e-01
2.415960431098937988e-01 2.004608511924743652e-01 -2.982988357543945312e-01
5.350261926651000977e-04 4.249472916126251221e-02 2.723383009433746338e-01
9.821799397468566895e-02 3.064282238483428955e-01 -4.305889904499053955e-01
1.594334691762924194e-01 1.149068772792816162e-02 5.487533286213874817e-02
-5.646232515573501587e-02 1.389648318290710449e-01 1.586064696311950684e-01
-3.567308187484741211e-03 2.573464810848236084e-01 2.280561178922653198e-01
1.845491379499435425e-01 1.169553175568580627e-01 3.925685584545135498e-01
1.715401411056518555e-01 3.708228170871734619e-01 -2.624545395374298096e-01
1.387715339660644531e-03 3.872078657150268555e-02 1.798583716154098511e-01
-6.362432986497879028e-02 1.922301501035690308e-01 1.095306500792503357e-02
1.851376444101333618e-01 9.192267805337905884e-02 -2.000626623630523682e-01
1.045879870653152466e-01 1.670842468738555908e-01 -3.481822907924652100e-01
1.621880531311035156e-01 2.561996579170227051e-01 -4.261040687561035156e-01
2.381436228752136230e-01 1.104159355163574219e-01 -1.624135524034500122e-01
1.374043673276901245e-01 3.498389124870300293e-01 -3.952148258686065674e-01
1.477422267198562622e-01 5.892336368560791016e-02 -1.361717134714126587e-01
2.627317011356353760e-01 8.529319614171981812e-02 1.132114380598068237e-01
7.579379528760910034e-02 3.812903165817260742e-01 -1.399692893028259277e-01
-4.372667521238327026e-02 2.021023184061050415e-01 -1.445172876119613647e-01
8.233740180730819702e-02 3.788592815399169922e-01 -1.048812046647071838e-01
1.218878477811813354e-02 3.555909395217895508e-01 -1.565630882978439331e-01
-6.267540901899337769e-02 2.170822024345397949e-01 -1.376400422304868698e-02
8.397766202688217163e-02 2.597869336605072021e-01 2.922248542308807373e-01
2.750389277935028076e-01 2.542358636856079102e-01 -1.024083718657493591e-01
1.707823872566223145e-01 3.408042192459106445e-01 2.295142784714698792e-02
-3.134844452142715454e-02 8.203595131635665894e-02 1.083638966083526611e-01
1.222201585769653320e-01 3.866487741470336914e-02 -7.488418370485305786e-02
3.382579237222671509e-02 3.325684666633605957e-01 7.844848930835723877e-02
1.649416387081146240e-01 1.893637776374816895e-01 -3.746990263462066650e-01
-4.188024252653121948e-02 2.833206057548522949e-01 2.164542302489280701e-02
7.250830531120300293e-04 2.731448411941528320e-01 -3.113485276699066162e-01
1.567479372024536133e-01 7.578119635581970215e-03 3.264461457729339600e-01
1.910162270069122314e-01 2.046724706888198853e-01 -3.739461004734039307e-01
-4.048956185579299927e-02 1.728057861328125000e-01 -1.211766153573989868e-01
1.429960876703262329e-02 4.708345234394073486e-02 4.288220778107643127e-02
1.055369600653648376e-01 1.603734195232391357e-01 -3.392313718795776367e-01
1.010689139366149902e-02 1.747824549674987793e-01 -2.607601284980773926e-01
1.807826757431030273e-01 3.677464723587036133e-01 -1.962946206331253052e-01
2.561255395412445068e-01 9.739003330469131470e-02 2.079655379056930542e-01
-2.725454419851303101e-02 1.799978762865066528e-01 2.953678667545318604e-01
-5.552977323532104492e-03 5.060651898384094238e-02 1.181464940309524536e-01
-2.929418534040451050e-02 2.854978740215301514e-01 -2.083578109741210938e-01
2.860370874404907227e-01 1.736430525779724121e-01 5.733327008783817291e-03
1.444705873727798462e-01 1.277952790260314941e-01 -2.921020090579986572e-01
1.181046739220619202e-01 3.859753906726837158e-01 -2.013519108295440674e-01
8.890368044376373291e-02 9.086698293685913086e-03 3.686579763889312744e-01
1.882623881101608276e-01 1.550875604152679443e-02 8.834608644247055054e-02
1.877034008502960205e-01 1.609480679035186768e-01 3.622792065143585205e-01
5.214308574795722961e-02 4.112356901168823242e-02 4.096438586711883545e-01
1.748922467231750488e-01 2.818658351898193359e-01 1.930134296417236328e-01
-1.816736906766891479e-02 1.316195875406265259e-01 3.433158993721008301e-01
7.262737303972244263e-02 1.378716528415679932e-02 6.536537408828735352e-02
-6.484761834144592285e-03 1.104170605540275574e-01 3.692807555198669434e-01
1.249757036566734314e-01 1.685421168804168701e-02 3.891575932502746582e-01
1.401713043451309204e-01 3.717211484909057617e-01 -8.023701608180999756e-02
-3.638409078121185303e-03 2.819194793701171875e-01 -2.990162074565887451e-01
1.894545555114746094e-01 2.313011586666107178e-01 2.722965180873870850e-01
-2.117168158292770386e-02 6.450700014829635620e-02 1.476139575242996216e-01
7.556034624576568604e-02 3.833763003349304199e-01 -1.817958503961563110e-01
-5.108188837766647339e-02 1.440918445587158203e-01 2.187981456518173218e-01
-3.007449954748153687e-02 2.870019674301147461e-01 7.827372848987579346e-02
2.542181015014648438e-01 2.674458920955657959e-01 -2.749626338481903076e-01
1.204491406679153442e-02 5.041091144084930420e-02 3.528427779674530029e-01
2.287085056304931641e-01 8.497077226638793945e-02 3.027589321136474609e-01
9.408072382211685181e-02 2.575882077217102051e-01 -4.248226284980773926e-01
1.839928328990936279e-03 1.069300770759582520e-01 -1.194875836372375488e-01
2.709736526012420654e-01 2.123263627290725708e-01 8.611045777797698975e-02
1.884599030017852783e-01 1.948595046997070312e-01 -3.663973808288574219e-01
-6.413180381059646606e-02 1.791436374187469482e-01 5.641213059425354004e-02
-1.924527436494827271e-02 1.908988356590270996e-01 3.029716908931732178e-01
6.880663335323333740e-02 1.810158789157867432e-02 3.800471127033233643e-01
1.031097993254661560e-01 1.086051240563392639e-01 -2.502233088016510010e-01
1.377626508474349976e-02 4.307819902896881104e-02 6.473504006862640381e-02
9.348239749670028687e-02 5.217611789703369141e-03 3.566254675388336182e-01
1.581307351589202881e-01 2.953230738639831543e-01 1.808949559926986694e-01
-5.269593745470046997e-02 2.627875506877899170e-01 -7.153196632862091064e-02
2.406460046768188477e-01 1.019883602857589722e-01 -1.346899718046188354e-01
2.317150980234146118e-01 6.888917088508605957e-02 2.758596539497375488e-01
3.964514285326004028e-02 1.067940890789031982e-02 2.446699887514114380e-01
3.524529933929443359e-02 1.484847217798233032e-01 4.144029021263122559e-01
2.593418657779693604e-01 7.795609533786773682e-02 9.702323377132415771e-02
2.554998397827148438e-01 2.691373825073242188e-01 2.030671387910842896e-02
1.041745468974113464e-01 3.397833704948425293e-01 8.902403712272644043e-02
1.515004187822341919e-01 3.462550044059753418e-01 -3.934546113014221191e-01
5.024776607751846313e-02 1.869775801897048950e-01 -3.339651226997375488e-01
1.280061900615692139e-02 2.336989045143127441e-01 -3.237355649471282959e-01
-4.007684439420700073e-02 2.944333553314208984e-01 -8.655953407287597656e-02
-1.060160249471664429e-02 3.351709246635437012e-01 -1.003133207559585571e-01
2.780173122882843018e-01 1.399378329515457153e-01 -6.892427057027816772e-02
7.495152205228805542e-02 2.680010795593261719e-01 -4.165131747722625732e-01
5.224645137786865234e-02 2.851752936840057373e-02 3.861183524131774902e-01
5.607683584094047546e-02 3.624464273452758789e-01 -3.204666972160339355e-01
1.925452798604965210e-01 1.650458574295043945e-02 2.655437290668487549e-01
2.122682332992553711e-02 3.603710532188415527e-01 -2.025423943996429443e-01
2.229492068290710449e-01 3.343763351440429688e-01 -2.486132383346557617e-01
2.440822720527648926e-01 1.578049361705780029e-01 -2.409094572067260742e-01
-5.781815201044082642e-02 1.558813303709030151e-01 1.713036447763442993e-01
-4.226943105459213257e-02 1.666624546051025391e-01 -1.036193370819091797e-01
2.811362147331237793e-01 1.529212743043899536e-01 -7.592967897653579712e-02
1.531030982732772827e-01 3.726302981376647949e-01 -1.130756214261054993e-01
-3.497899323701858521e-02 8.726423978805541992e-02 2.210866510868072510e-01
2.502527236938476562e-01 3.039945662021636963e-01 -1.898474395275115967e-01
1.453272253274917603e-01 1.924932003021240234e-03 1.026658341288566589e-01
-2.252136915922164917e-02 2.180307805538177490e-01 2.603177130222320557e-01
1.118785962462425232e-01 -6.725966930389404297e-03 1.737128198146820068e-01
1.704235672950744629e-01 2.754203081130981445e-01 2.131976336240768433e-01
4.933314025402069092e-02 1.741768270730972290e-01 4.031364619731903076e-01
2.242111861705780029e-01 4.415020346641540527e-02 3.352113068103790283e-02
8.596655726432800293e-02 2.603630721569061279e-02 -9.020636789500713348e-03
-6.209202855825424194e-02 1.661884784698486328e-01 4.588937386870384216e-02
1.147918030619621277e-01 3.631052970886230469e-01 -8.201087825000286102e-03
3.081355988979339600e-02 3.488815724849700928e-01 3.807341679930686951e-03
2.225788533687591553e-01 9.529811888933181763e-02 3.240942358970642090e-01
1.009300425648689270e-01 3.807930350303649902e-01 -1.136161759495735168e-01
-5.025120824575424194e-02 1.576212942600250244e-01 -4.580373689532279968e-02
7.659681141376495361e-03 3.078901171684265137e-01 -3.123683035373687744e-01
2.755597233772277832e-02 3.524902462959289551e-01 -2.346759662032127380e-02
1.152701005339622498e-01 2.919613420963287354e-01 2.197674214839935303e-01
5.277281627058982849e-02 3.720657229423522949e-01 -9.660995006561279297e-02
-3.342800587415695190e-02 1.810862720012664795e-01 2.776168882846832275e-01
2.461618483066558838e-01 3.053456246852874756e-01 -9.058638662099838257e-02
2.955551445484161377e-02 2.841295003890991211e-01 2.145314365625381470e-01
2.703218162059783936e-01 2.022875100374221802e-01 -2.109709531068801880e-01
-2.438550442457199097e-02 1.565257608890533447e-01 -1.513908803462982178e-01
1.930282264947891235e-01 2.043536305427551270e-02 6.733957678079605103e-02
1.869401335716247559e-01 1.645031571388244629e-02 2.879686653614044189e-01
1.450421363115310669e-01 3.599281013011932373e-01 -3.691417574882507324e-01
8.310178667306900024e-02 9.289276599884033203e-02 -2.054107636213302612e-01
1.019699051976203918e-01 2.713558077812194824e-01 2.683911025524139404e-01
1.153954640030860901e-01 7.048289477825164795e-02 -1.676092296838760376e-01
9.989397227764129639e-02 7.061198353767395020e-03 7.003681361675262451e-02
-4.400692135095596313e-02 2.405696809291839600e-01 1.521980315446853638e-01
7.384646683931350708e-02 1.449677646160125732e-01 -2.978149354457855225e-01
2.091947197914123535e-01 2.520955204963684082e-01 2.016707807779312134e-01
1.637663692235946655e-01 3.673017621040344238e-01 -3.171025216579437256e-01
-6.452865153551101685e-02 1.871333718299865723e-01 4.644062370061874390e-02
2.301687598228454590e-01 2.669300138950347900e-01 1.204114556312561035e-01
4.328677058219909668e-02 7.441425323486328125e-02 -1.160435676574707031e-01
2.764930129051208496e-01 1.561174094676971436e-01 1.171425804495811462e-01
2.550166845321655273e-01 7.833097875118255615e-02 1.336610130965709686e-02
-1.070760190486907959e-02 5.043992400169372559e-02 1.857038140296936035e-01
2.558297514915466309e-01 1.925335675477981567e-01 1.812636852264404297e-01
2.158643901348114014e-01 4.652398824691772461e-02 -9.725482203066349030e-03
2.274022996425628662e-01 1.353969722986221313e-01 -2.365382313728332520e-01
2.493003606796264648e-01 6.984481960535049438e-02 2.153613045811653137e-02
2.291054725646972656e-01 2.622231841087341309e-01 1.346425265073776245e-01
6.032038852572441101e-02 2.243369817733764648e-03 1.967660188674926758e-01
2.457669377326965332e-01 9.977250546216964722e-02 2.558560967445373535e-01
8.439716696739196777e-02 1.113696768879890442e-01 -2.454198002815246582e-01
1.686016023159027100e-01 6.849097460508346558e-02 -1.532963812351226807e-01
2.455766201019287109e-01 5.731987953186035156e-02 1.113630682229995728e-01
5.799103528261184692e-02 3.658729195594787598e-01 -4.136373102664947510e-02
1.624790132045745850e-01 3.299054503440856934e-01 7.607630640268325806e-02
1.439684033393859863e-01 5.318388342857360840e-03 3.371698856353759766e-01
1.773531436920166016e-01 3.662356138229370117e-01 -2.806119322776794434e-01
1.170510798692703247e-01 2.391490340232849121e-02 -1.899966970086097717e-02
2.323044091463088989e-02 3.483039736747741699e-01 -1.118583697825670242e-02
4.873221740126609802e-02 3.201353251934051514e-01 -3.804372549057006836e-01
1.498567759990692139e-01 4.711273312568664551e-02 -9.961717575788497925e-02
3.133358806371688843e-02 1.707961559295654297e-01 3.938259482383728027e-01
3.070050477981567383e-02 2.585560977458953857e-01 2.702423930168151855e-01
1.676773130893707275e-01 1.727809011936187744e-01 3.751773536205291748e-01
9.832435846328735352e-02 2.901099622249603271e-02 4.179108738899230957e-01
1.452333480119705200e-01 1.542146354913711548e-01 -3.347831964492797852e-01
9.020681679248809814e-02 1.187533140182495117e-02 5.230772122740745544e-02
2.308425605297088623e-01 2.155150771141052246e-01 2.202577590942382812e-01
2.254612743854522705e-01 2.678397893905639648e-01 -3.579054474830627441e-01
1.704072654247283936e-01 2.280949652194976807e-01 3.016216158866882324e-01
1.711854338645935059e-02 7.190426439046859741e-02 -5.890526622533798218e-02
9.103193879127502441e-02 3.376197814941406250e-01 9.775813668966293335e-02
1.917797923088073730e-01 6.870919466018676758e-02 3.766629695892333984e-01
6.423850357532501221e-02 3.214221000671386719e-01 1.421088576316833496e-01
1.482115089893341064e-01 1.869672238826751709e-01 -3.771006762981414795e-01
2.318360954523086548e-01 3.267542719841003418e-01 -2.245811372995376587e-01
1.894346326589584351e-01 3.604530692100524902e-01 -1.479966193437576294e-01
-3.840700536966323853e-02 2.412824779748916626e-01 1.731171160936355591e-01
-4.800575226545333862e-02 2.762014865875244141e-01 -8.193846791982650757e-02
2.677259445190429688e-01 1.263166666030883789e-01 -9.934225678443908691e-02
1.208993792533874512e-01 1.951500773429870605e-02 -1.192037016153335571e-03
2.687382102012634277e-01 2.701292634010314941e-01 -1.068669557571411133e-01
6.119161844253540039e-03 2.518214583396911621e-01 -3.198342919349670410e-01
1.902625560760498047e-01 1.065197587013244629e-02 2.219400852918624878e-01
2.780956029891967773e-01 1.629284471273422241e-01 -1.225992441177368164e-01
6.943261623382568359e-02 2.096686810255050659e-01 3.702870011329650879e-01
2.671517431735992432e-01 1.127510368824005127e-01 1.608385443687438965e-01
1.314608603715896606e-01 1.765642762184143066e-01 -3.659734129905700684e-01
2.585598528385162354e-01 2.800580859184265137e-01 -4.314951598644256592e-02
1.995812356472015381e-01 2.612025141716003418e-01 2.007047533988952637e-01
-3.374908119440078735e-02 8.721973747014999390e-02 2.346062660217285156e-01
-4.139316827058792114e-02 1.283049583435058594e-01 -2.259824797511100769e-02
2.529363632202148438e-01 1.954063326120376587e-01 -2.659530937671661377e-01
7.679473608732223511e-02 3.565726876258850098e-01 2.221778593957424164e-02
8.849410712718963623e-02 1.111686229705810547e-03 1.226432174444198608e-01
1.333991885185241699e-01 3.761487007141113281e-01 -1.015140041708946228e-01
2.408947944641113281e-01 2.455678731203079224e-01 -3.239084184169769287e-01
2.797193229198455811e-01 2.350471615791320801e-01 -5.338007584214210510e-02
4.480975121259689331e-02 2.012169361114501953e-02 3.474211692810058594e-01
-4.919756203889846802e-02 2.743469774723052979e-01 -6.914012879133224487e-02
9.732531011104583740e-02 3.803019225597381592e-01 -2.992362976074218750e-01
1.673744767904281616e-01 1.510876119136810303e-01 -3.234806060791015625e-01
2.828336358070373535e-01 1.975819468498229980e-01 -1.264639049768447876e-01
2.153655886650085449e-01 2.792577743530273438e-01 1.272163391113281250e-01
1.348480433225631714e-01 1.110847443342208862e-01 4.418351352214813232e-01
4.703804105520248413e-02 1.642793416976928711e-02 3.370963633060455322e-01
6.167948246002197266e-03 7.003798335790634155e-02 -2.408062666654586792e-02
6.738906353712081909e-02 7.581280171871185303e-02 -1.504619568586349487e-01
2.393741011619567871e-01 9.388587623834609985e-02 2.749859094619750977e-01
1.372439414262771606e-01 3.507317900657653809e-01 2.917422726750373840e-02
1.643875539302825928e-01 2.072986662387847900e-01 3.383013606071472168e-01
-2.720432728528976440e-02 1.847476363182067871e-01 -1.850223094224929810e-01
3.365287184715270996e-02 1.851663738489151001e-01 -3.114336431026458740e-01
2.848984897136688232e-01 1.575222760438919067e-01 1.997731439769268036e-02
2.370686829090118408e-01 5.014012753963470459e-02 1.875223815441131592e-01
1.855636239051818848e-01 3.639488816261291504e-01 -2.553988099098205566e-01
1.392193883657455444e-01 3.826113939285278320e-01 -2.439440786838531494e-01
-3.019604831933975220e-02 1.626153886318206787e-01 3.008323907852172852e-01
2.051942795515060425e-02 4.778438806533813477e-02 3.689621984958648682e-01
8.958868682384490967e-03 3.876307606697082520e-02 3.029831945896148682e-01
1.285466849803924561e-01 6.135158240795135498e-02 4.417607486248016357e-01
9.543508291244506836e-02 2.755914032459259033e-01 2.606375515460968018e-01
6.228331476449966431e-02 3.389508128166198730e-01 -3.787749707698822021e-01
2.221200764179229736e-01 3.257590532302856445e-01 -5.952317267656326294e-02
8.591791242361068726e-02 -1.332208514213562012e-03 1.487529724836349487e-01
1.395832747220993042e-02 3.562638759613037109e-01 -1.253392547369003296e-01
8.867417275905609131e-02 2.097210437059402466e-01 3.724464476108551025e-01
2.148652374744415283e-01 1.671695858240127563e-01 -3.058121502399444580e-01
2.676134407520294189e-01 1.770596653223037720e-01 1.520782113075256348e-01
2.764917612075805664e-01 1.263475269079208374e-01 -3.485440462827682495e-02
2.712070941925048828e-03 2.523980438709259033e-01 2.483997642993927002e-01
4.362247884273529053e-02 1.443034410476684570e-02 1.355735063552856445e-01
-2.134328335523605347e-02 1.428731977939605713e-01 -1.355595439672470093e-01
-4.330476373434066772e-02 1.225976273417472839e-01 6.453431211411952972e-03
1.698046177625656128e-01 1.737857460975646973e-01 -3.539369404315948486e-01
1.260997653007507324e-01 2.806344032287597656e-01 2.402256578207015991e-01
2.052476555109024048e-01 3.071914911270141602e-01 -3.758216798305511475e-01
1.185796633362770081e-01 3.078213036060333252e-01 1.792546212673187256e-01
2.261686176061630249e-01 6.216719746589660645e-02 -4.631501808762550354e-02
1.155871227383613586e-01 3.654100000858306885e-01 -3.654594123363494873e-01
2.631340324878692627e-01 1.443220525979995728e-01 -1.615972369909286499e-01
2.487746775150299072e-01 7.057464867830276489e-02 1.936001330614089966e-01
1.769975721836090088e-01 3.556535542011260986e-01 -6.095381826162338257e-02
1.616405546665191650e-01 1.822169125080108643e-02 2.097191289067268372e-02
4.593402147293090820e-03 3.495950400829315186e-01 -1.310270279645919800e-01
-1.594445854425430298e-02 5.970309674739837646e-02 1.323365271091461182e-01
1.385030150413513184e-01 3.696470856666564941e-01 -6.453884392976760864e-02
1.916050612926483154e-01 3.323991298675537109e-01 1.313366927206516266e-02
2.404774725437164307e-01 2.417235076427459717e-01 1.478061676025390625e-01
2.035945355892181396e-01 3.305138349533081055e-01 -1.160720828920602798e-02
9.064152836799621582e-02 1.961416453123092651e-01 3.896116614341735840e-01
2.531128525733947754e-01 1.179080680012702942e-01 -1.382330060005187988e-01
2.229679673910140991e-01 5.322767794132232666e-02 2.793861925601959229e-01
2.163141965866088867e-01 1.154413893818855286e-01 3.391369581222534180e-01
5.967576056718826294e-02 1.918533295392990112e-01 3.893200159072875977e-01
1.964701712131500244e-01 1.870617568492889404e-01 -3.510403037071228027e-01
-6.091511994600296021e-02 2.355077266693115234e-01 -3.747126087546348572e-03
6.867884844541549683e-02 4.464069008827209473e-02 -5.968651175498962402e-02
4.343842715024948120e-02 3.344354033470153809e-02 2.467067912220954895e-02
2.412009239196777344e-01 2.897737026214599609e-01 -3.011115491390228271e-01
-2.589248865842819214e-02 1.908627748489379883e-01 2.878190577030181885e-01
2.817911505699157715e-01 1.697235405445098877e-01 -1.057317703962326050e-01
5.586183071136474609e-02 4.209336638450622559e-02 -3.313297033309936523e-02
-6.146244704723358154e-03 3.327063322067260742e-01 -2.108514755964279175e-01
2.533254623413085938e-01 2.974508404731750488e-01 -2.035507559776306152e-01
2.623646259307861328e-01 1.113755106925964355e-01 -8.265691995620727539e-02
-4.135731607675552368e-02 2.145793586969375610e-01 -1.650819182395935059e-01
-5.827603489160537720e-02 2.361073195934295654e-01 -6.121531128883361816e-02
2.796854972839355469e-01 1.848112493753433228e-01 -1.433555781841278076e-01
2.191347181797027588e-01 3.217533826828002930e-01 -3.197837769985198975e-01
-1.898533850908279419e-02 1.135047376155853271e-01 3.396126031875610352e-01
2.055974751710891724e-01 3.675274550914764404e-02 8.418138138949871063e-03
2.234958112239837646e-03 2.462152093648910522e-01 -3.096992075443267822e-01
-1.242312043905258179e-02 6.179423630237579346e-02 8.821260184049606323e-02
2.514131069183349609e-01 1.031022369861602783e-01 -1.040294319391250610e-01
1.777390241622924805e-01 6.210179626941680908e-02 3.948849737644195557e-01
5.845243111252784729e-02 3.264360129833221436e-01 1.234728693962097168e-01
1.466423869132995605e-01 1.170902252197265625e-01 4.319552183151245117e-01
1.124721318483352661e-01 -1.565262675285339355e-03 1.202122047543525696e-01
1.680939644575119019e-02 3.038432598114013672e-01 -3.365533351898193359e-01
3.422527760267257690e-02 2.282282114028930664e-01 3.258939087390899658e-01
-4.440940916538238525e-03 1.167143061757087708e-01 -1.269784271717071533e-01
9.369096159934997559e-02 3.715738654136657715e-01 -4.831733182072639465e-02
-4.430436342954635620e-02 1.372848451137542725e-01 2.546506524085998535e-01
1.459125429391860962e-01 5.334141850471496582e-02 -1.202463805675506592e-01
5.029022693634033203e-02 1.162327453494071960e-01 -2.232869267463684082e-01
2.379269301891326904e-01 2.886061370372772217e-01 -3.141660094261169434e-01
1.387033313512802124e-01 3.651942312717437744e-01 -3.587655425071716309e-01
1.087438762187957764e-01 3.562448918819427490e-01 2.519286796450614929e-02
2.470561265945434570e-01 8.216109871864318848e-02 2.318421304225921631e-01
2.643869519233703613e-01 2.270346134901046753e-01 9.010714292526245117e-02
2.839420139789581299e-01 2.160631269216537476e-01 -4.687195271253585815e-02
1.201253831386566162e-01 1.837850958108901978e-01 -3.735789656639099121e-01
6.462417542934417725e-02 3.810369372367858887e-01 -1.901156753301620483e-01
7.640863209962844849e-02 3.738408684730529785e-01 -7.120956480503082275e-02
7.803097367286682129e-02 3.766292333602905273e-01 -2.989382743835449219e-01
2.185487449169158936e-01 1.515284180641174316e-01 -2.778817415237426758e-01
9.285697340965270996e-02 2.925545871257781982e-01 -4.306144118309020996e-01
-6.065040081739425659e-02 1.520932912826538086e-01 1.069536656141281128e-01
2.601373195648193359e-01 2.553958296775817871e-01 -2.585393786430358887e-01
3.332926332950592041e-02 2.399329096078872681e-01 -3.600749373435974121e-01
-3.981999307870864868e-02 2.366919517517089844e-01 -1.820991188287734985e-01
4.363607615232467651e-02 3.408440053462982178e-01 5.973694100975990295e-02
2.792052626609802246e-01 1.275062561035156250e-01 5.606535449624061584e-02
2.313809394836425781e-01 3.194687664508819580e-01 -7.360725849866867065e-02
-5.281720310449600220e-02 1.899570673704147339e-01 -8.536124974489212036e-02
8.973310887813568115e-02 -6.548166275024414062e-03 2.500695586204528809e-01
9.088696539402008057e-02 -4.665106534957885742e-03 2.911483347415924072e-01
2.036696076393127441e-01 3.403828144073486328e-01 -6.125282496213912964e-02
3.904431313276290894e-02 3.494116961956024170e-01 -3.218951225280761719e-01
-3.130341321229934692e-02 3.012167215347290039e-01 6.698852404952049255e-03
2.368494868278503418e-03 4.320935904979705811e-02 1.201783940196037292e-01
5.426968634128570557e-02 3.741421997547149658e-01 -2.572276294231414795e-01
1.038631647825241089e-01 3.263863325119018555e-01 1.322267800569534302e-01
2.190409153699874878e-01 4.640890657901763916e-02 8.542183786630630493e-04
-2.878471463918685913e-02 1.479323059320449829e-01 -1.213996708393096924e-01
2.052983194589614868e-01 7.739117741584777832e-02 3.558743596076965332e-01
2.334703207015991211e-01 1.136688292026519775e-01 -1.806237995624542236e-01
2.109926044940948486e-01 2.451486587524414062e-01 2.117408663034439087e-01
1.483133435249328613e-02 3.280466794967651367e-02 1.251901835203170776e-01
-3.916062414646148682e-03 5.106292665004730225e-02 1.035555452108383179e-01
1.068378984928131104e-01 3.685647249221801758e-02 -6.411959230899810791e-02
1.853306740522384644e-01 1.952513903379440308e-01 3.296761810779571533e-01
7.925329357385635376e-02 2.093166112899780273e-02 3.960771262645721436e-01
1.858755797147750854e-01 1.550075411796569824e-01 -3.182002604007720947e-01
3.759439289569854736e-02 3.696943521499633789e-01 -2.157365083694458008e-01
2.584052383899688721e-01 1.297237426042556763e-01 -1.480344682931900024e-01
8.909792453050613403e-02 3.103790581226348877e-01 1.790730953216552734e-01
-5.632590502500534058e-02 2.547114491462707520e-01 -7.581452839076519012e-03
6.240287423133850098e-02 3.150176405906677246e-01 1.598129570484161377e-01
2.268364727497100830e-01 3.647723793983459473e-02 1.602200567722320557e-01
2.225478738546371460e-01 3.361579179763793945e-01 -2.354465276002883911e-01
-3.474546223878860474e-02 1.716016381978988647e-01 -1.414830833673477173e-01
-1.821326464414596558e-02 2.741995453834533691e-01 1.574271619319915771e-01
1.756522506475448608e-01 2.172970771789550781e-01 3.120358884334564209e-01
1.868770122528076172e-01 7.440128922462463379e-02 -1.542950719594955444e-01
2.327692657709121704e-01 3.220335245132446289e-01 -2.525747716426849365e-01
2.226592600345611572e-01 3.302261233329772949e-01 -2.763417661190032959e-01
-3.259591758251190186e-03 4.380321502685546875e-02 2.458570301532745361e-01
2.137572467327117920e-01 2.860929071903228760e-02 2.263271510601043701e-01
2.623339742422103882e-02 3.156673908233642578e-01 -3.468294441699981689e-01
6.595753878355026245e-02 1.083498150110244751e-01 -2.242062538862228394e-01
2.149617969989776611e-01 7.113782316446304321e-02 -1.045688763260841370e-01
1.528886854648590088e-01 3.169459402561187744e-01 1.284186840057373047e-01
6.595151871442794800e-02 3.808502256870269775e-01 -2.247349917888641357e-01
-1.916408538818359375e-03 3.315175473690032959e-01 -2.386459857225418091e-01
2.811028957366943359e-01 1.766384392976760864e-01 7.025613635778427124e-02
1.296694874763488770e-01 -5.204945802688598633e-03 1.552642136812210083e-01
2.041922658681869507e-01 2.690822780132293701e-01 1.751890629529953003e-01
-5.985248833894729614e-02 2.239572554826736450e-01 -5.235006287693977356e-02
-3.460138291120529175e-02 2.877141237258911133e-01 5.259142071008682251e-02
9.441398084163665771e-03 2.363439351320266724e-01 2.871133089065551758e-01
1.264527291059494019e-01 5.012080073356628418e-03 7.236330211162567139e-02
-1.149700582027435303e-02 8.678910881280899048e-02 3.431713283061981201e-01
2.393049895763397217e-01 5.126687884330749512e-02 8.558140695095062256e-02
2.352043539285659790e-01 1.310863047838211060e-01 -2.135833650827407837e-01
-8.864179253578186035e-03 1.080395132303237915e-01 -9.411929547786712646e-02
9.912424534559249878e-02 3.674365878105163574e-01 -2.517819032073020935e-02
4.915250837802886963e-02 3.457067906856536865e-01 4.661708697676658630e-02
1.505073606967926025e-01 3.718309402465820312e-01 -3.194324970245361328e-01
-3.685694187879562378e-02 2.541319727897644043e-01 -1.952236145734786987e-01
1.113022044301033020e-01 5.863577127456665039e-02 -1.342300772666931152e-01
-6.349817663431167603e-02 2.060607373714447021e-01 8.001494407653808594e-02
-1.774159818887710571e-02 2.535889148712158203e-01 2.070716321468353271e-01
-2.452209591865539551e-04 1.517847925424575806e-01 3.707818686962127686e-01
2.717494964599609375e-01 1.696004718542098999e-01 1.383217275142669678e-01
9.572701156139373779e-02 3.834056854248046875e-01 -2.729722559452056885e-01
2.588422000408172607e-01 2.082250863313674927e-01 1.478422135114669800e-01
1.054950505495071411e-01 -2.691596746444702148e-04 3.352697789669036865e-01
2.690636217594146729e-01 2.694071233272552490e-01 -1.487843990325927734e-01
3.166504204273223877e-03 1.632229685783386230e-01 3.682186901569366455e-01
1.388995498418807983e-01 3.402637243270874023e-01 -4.091701507568359375e-01
2.142494767904281616e-01 2.801606655120849609e-01 -3.760944604873657227e-01
6.835962831974029541e-02 5.755126476287841797e-02 -1.006009280681610107e-01
1.978568434715270996e-01 1.783630400896072388e-01 3.311210274696350098e-01
1.160864308476448059e-01 7.267569005489349365e-02 4.514280557632446289e-01
4.827477037906646729e-03 2.665568590164184570e-01 2.225178331136703491e-01
4.319547116756439209e-02 1.635633409023284912e-02 1.216311752796173096e-01
5.106909573078155518e-02 5.210755765438079834e-02 -6.060151010751724243e-02
2.641865611076354980e-02 7.956661283969879150e-02 -1.012989133596420288e-01
2.047278434038162231e-01 2.979129552841186523e-02 4.441851377487182617e-02
1.940083801746368408e-01 1.769623011350631714e-01 -3.413771688938140869e-01
1.906316578388214111e-01 4.740357398986816406e-02 -6.571886688470840454e-02
2.819176912307739258e-01 1.501602530479431152e-01 -5.906498432159423828e-02
-1.147282868623733521e-02 3.240156769752502441e-01 -2.148801237344741821e-01
2.840636372566223145e-01 2.174062877893447876e-01 -6.525522470474243164e-02
-8.079491555690765381e-03 2.122384011745452881e-01 -2.651354670524597168e-01
1.985889822244644165e-01 3.438270688056945801e-01 -3.222617805004119873e-01
-3.991515189409255981e-02 1.811023205518722534e-01 2.571408748626708984e-01
1.915257424116134644e-02 3.035009503364562988e-01 1.517610251903533936e-01
1.871847957372665405e-01 3.557049036026000977e-01 -3.100131154060363770e-01
1.444322168827056885e-01 1.446397602558135986e-02 2.620348706841468811e-02
2.629683613777160645e-01 2.819289565086364746e-01 -1.705221533775329590e-01
-2.670892328023910522e-02 7.234361022710800171e-02 1.392937451601028442e-01
2.509750425815582275e-01 2.989868819713592529e-01 -2.215888947248458862e-01
2.116600275039672852e-01 1.780537813901901245e-01 -3.239803314208984375e-01
1.517976820468902588e-01 3.685743808746337891e-01 -8.031447976827621460e-02
2.665162980556488037e-01 1.472939848899841309e-01 1.766045391559600830e-01
6.016336381435394287e-03 3.235704898834228516e-01 -2.876478731632232666e-01
-5.073846131563186646e-02 2.697627842426300049e-01 -3.796622157096862793e-03
