5.004198476672172546e-02 2.526301443576812744e-01 7.303106188774108887e-01
1.880324929952621460e-01 1.426329612731933594e-01 -2.053714096546173096e-01
1.311013400554656982e-01 2.871616184711456299e-01 -4.450212121009826660e-01
-7.313314080238342285e-02 9.964286535978317261e-02 -1.103727594017982483e-01
3.333575278520584106e-02 9.631182253360748291e-02 -3.988019227981567383e-01
2.156911045312881470e-01 2.446101903915405273e-01 -3.181218355894088745e-02
-6.287187337875366211e-02 3.244941532611846924e-01 1.644935458898544312e-01
-1.394408643245697021e-01 2.502248883247375488e-01 -6.819593906402587891e-01
-2.329912036657333374e-02 2.827050089836120605e-01 6.803643107414245605e-01
-1.212722435593605042e-01 1.192823275923728943e-01 -4.926204681396484375e-01
-2.299074977636337280e-01 1.830418258905410767e-01 -1.400922983884811401e-01
-8.224207162857055664e-02 1.123199164867401123e-01 -5.622662901878356934e-01
-3.194888308644294739e-02 2.628569900989532471e-01 7.481400966644287109e-01
1.528535336256027222e-01 1.456273198127746582e-01 -6.381362080574035645e-01
-2.143992632627487183e-01 2.648857235908508301e-01 -3.918781131505966187e-02
-1.508552283048629761e-01 1.383281648159027100e-01 2.547624111175537109e-01
1.501524895429611206e-01 2.954564392566680908e-01 8.321614563465118408e-02
-2.139914184808731079e-01 2.656338810920715332e-01 -6.150402128696441650e-03
1.126415356993675232e-01 1.507631540298461914e-01 4.302728772163391113e-01
-7.730636000633239746e-02 9.982546418905258179e-02 -1.527112573385238647e-01
-2.049901187419891357e-01 1.621632277965545654e-01 1.329997330904006958e-01
2.003423273563385010e-01 1.622833609580993652e-01 4.021307826042175293e-02
1.576910540461540222e-02 1.012315079569816589e-01 9.349648654460906982e-02
-1.562484949827194214e-01 2.120696157217025757e-01 -7.305489182472229004e-01
-1.059133410453796387e-01 1.122534796595573425e-01 -4.597614407539367676e-01
1.299932450056076050e-01 1.739749312400817871e-01 4.995145797729492188e-01
-2.368591576814651489e-01 2.009260803461074829e-01 -8.925373107194900513e-02
-4.084904119372367859e-02 3.193052709102630615e-01 -2.866699695587158203e-01
-2.378462851047515869e-01 2.209919244050979614e-01 -4.208291321992874146e-02
1.097378134727478027e-01 2.834875583648681641e-01 4.907820224761962891e-01
2.381012775003910065e-02 1.191918849945068359e-01 -7.469360828399658203e-01
1.176927089691162109e-01 2.863690257072448730e-01 -5.078249573707580566e-01
5.163845792412757874e-02 1.888806074857711792e-01 7.022408246994018555e-01
-1.299827545881271362e-01 3.112941682338714600e-01 1.169062852859497070e-01
-1.378212124109268188e-01 3.034852743148803711e-01 -2.091352641582489014e-01
-2.319774329662322998e-01 2.384026050567626953e-01 6.236073374748229980e-02
-5.526815541088581085e-03 3.166592717170715332e-01 -3.590525984764099121e-01
1.603350490331649780e-01 1.405155807733535767e-01 1.422047764062881470e-01
2.255933135747909546e-01 2.243778109550476074e-01 -1.340163648128509521e-01
3.779162093997001648e-02 1.080343499779701233e-01 1.836360543966293335e-01
-6.890401989221572876e-02 3.244223892688751221e-01 1.220988482236862183e-01
-1.466861367225646973e-01 2.822793126106262207e-01 -4.500041007995605469e-01
1.180308908224105835e-01 2.624820768833160400e-01 -6.891263127326965332e-01
-7.706009596586227417e-02 3.101740777492523193e-01 4.279101490974426270e-01
-1.627680063247680664e-01 2.907566130161285400e-01 -2.558118700981140137e-01
-1.082776933908462524e-01 1.064008995890617371e-01 -2.242827266454696655e-01
-1.324748098850250244e-01 1.760206222534179688e-01 5.714631080627441406e-01
-1.960250735282897949e-02 3.239572048187255859e-01 2.776603102684020996e-01
1.834906786680221558e-01 2.768492698669433594e-01 2.366781979799270630e-02
1.181758493185043335e-01 3.090870380401611328e-01 -5.449067428708076477e-02
1.960690617561340332e-01 2.425727695226669312e-01 -4.587334990501403809e-01
-1.311565041542053223e-01 2.872324585914611816e-01 4.975107908248901367e-01
1.443312019109725952e-01 2.783487439155578613e-01 -4.777995347976684570e-01
1.975845843553543091e-01 2.130629867315292358e-01 2.976779937744140625e-01
-2.175967842340469360e-01 1.649453788995742798e-01 -7.275975495576858521e-02
-1.210703849792480469e-01 3.097051978111267090e-01 2.667441368103027344e-01
1.751311309635639191e-02 3.056716322898864746e-01 -5.007194280624389648e-01
-1.456279903650283813e-01 1.796705424785614014e-01 -7.574911117553710938e-01
-2.537751197814941406e-02 3.052742481231689453e-01 5.351061224937438965e-01
-4.814547672867774963e-02 2.768459320068359375e-01 -7.206040620803833008e-01
-1.563638895750045776e-01 1.773346662521362305e-01 5.083596110343933105e-01
1.700768023729324341e-01 1.821187585592269897e-01 3.798430562019348145e-01
-2.014205753803253174e-01 2.286275178194046021e-01 4.208862185478210449e-01
4.066829010844230652e-02 1.512181907892227173e-01 5.654134750366210938e-01
-1.332238316535949707e-01 2.724628448486328125e-01 -5.790956616401672363e-01
-1.845401823520660400e-01 2.099844515323638916e-01 -6.196262240409851074e-01
-3.407946601510047913e-02 1.954575181007385254e-01 7.529277205467224121e-01
1.549050360918045044e-01 2.944836616516113281e-01 -1.552364975214004517e-02
-1.924833357334136963e-01 2.676969170570373535e-01 -3.206378221511840820e-01
-2.331856191158294678e-01 2.363269180059432983e-01 -8.956149220466613770e-02
9.445846825838088989e-02 3.017264604568481445e-01 3.852983117103576660e-01
1.759583950042724609e-01 2.539046406745910645e-01 3.542078137397766113e-01
1.849164515733718872e-01 1.575515121221542358e-01 -5.278653502464294434e-01
9.948252141475677490e-02 1.211426779627799988e-01 2.071240693330764771e-01
-1.145902499556541443e-01 1.088718101382255554e-01 -2.876165807247161865e-01
1.204366385936737061e-01 1.301314383745193481e-01 -6.549349427223205566e-01
1.453404724597930908e-01 1.470751762390136719e-01 2.875699996948242188e-01
3.062824159860610962e-02 2.769972681999206543e-01 -7.356355786323547363e-01
8.781189471483230591e-02 2.822521030902862549e-01 5.617312788963317871e-01
1.507861316204071045e-01 2.811972498893737793e-01 3.211386203765869141e-01
-1.324465423822402954e-01 2.665990591049194336e-01 -6.192368865013122559e-01
-1.059307381510734558e-01 1.559536755084991455e-01 -8.079057335853576660e-01
1.125343367457389832e-01 1.083456128835678101e-01 -1.497579514980316162e-01
6.490309257060289383e-03 1.378763467073440552e-01 -8.663673400878906250e-01
-5.391919240355491638e-02 1.363036036491394043e-01 4.787004590034484863e-01
2.914471179246902466e-02 3.221490979194641113e-01 2.692866921424865723e-01
-2.556675486266613007e-02 1.088448613882064819e-01 2.219439893960952759e-01
-2.144980430603027344e-01 2.039980590343475342e-01 -4.412327408790588379e-01
1.777394562959671021e-01 1.380313783884048462e-01 -3.509532809257507324e-01
-1.989774107933044434e-01 1.485709398984909058e-01 -4.380444437265396118e-02
1.037443131208419800e-01 1.101044639945030212e-01 7.945671677589416504e-04
-2.212140522897243500e-02 3.279591500759124756e-01 -4.326498135924339294e-02
-2.104281932115554810e-01 2.420913130044937134e-01 -3.750966191291809082e-01
-1.205520853400230408e-01 3.114999234676361084e-01 2.253194004297256470e-01
-9.212451428174972534e-02 3.113145232200622559e-01 3.718864917755126953e-01
-1.012360528111457825e-01 2.677989900112152100e-01 -6.924247145652770996e-01
7.888235151767730713e-02 1.100600808858871460e-01 1.168765276670455933e-01
-3.244172781705856323e-03 2.467019706964492798e-01 -8.876144289970397949e-01
7.050151377916336060e-02 2.940298318862915039e-01 -5.577781796455383301e-01
-2.477566013112664223e-03 2.326937019824981689e-01 -9.299777150154113770e-01
-1.866941526532173157e-02 9.396772086620330811e-02 -1.329938322305679321e-01
-2.055101543664932251e-01 1.528902798891067505e-01 -1.158827021718025208e-01
-9.042537212371826172e-02 2.004527449607849121e-01 7.191774845123291016e-01
1.917968541383743286e-01 2.713046967983245850e-01 -3.777876496315002441e-02
-4.952577874064445496e-02 1.187970787286758423e-01 -7.062144279479980469e-01
-1.427171081304550171e-01 1.176350563764572144e-01 -2.360672652721405029e-01
1.507052034139633179e-01 1.278948634862899780e-01 -4.655402302742004395e-01
7.612813264131546021e-02 1.050298959016799927e-01 -4.889106750488281250e-01
-1.922411769628524780e-01 2.520301342010498047e-01 -4.464419484138488770e-01
-4.751844331622123718e-02 1.209632381796836853e-01 3.498967289924621582e-01
-1.426342427730560303e-01 2.183693349361419678e-01 -7.649435400962829590e-01
1.860104352235794067e-01 2.019205242395401001e-01 3.552490472793579102e-01
-1.305821686983108521e-01 1.274401843547821045e-01 -5.489268898963928223e-01
9.534340351819992065e-02 1.112629994750022888e-01 7.215502858161926270e-02
1.800093352794647217e-01 1.595344245433807373e-01 -5.752842426300048828e-01
2.267190068960189819e-01 1.983754187822341919e-01 -2.019688934087753296e-01
-1.774390041828155518e-01 2.876594066619873047e-01 2.223096042871475220e-01
-2.308794558048248291e-01 2.326723933219909668e-01 1.396545916795730591e-01
1.767325587570667267e-02 3.188622891902923584e-01 3.556078076362609863e-01
7.285986840724945068e-02 3.172461986541748047e-01 -1.988316178321838379e-01
-6.782589107751846313e-02 1.002590730786323547e-01 -4.209174215793609619e-02
1.469030976295471191e-01 1.375644803047180176e-01 -6.050139069557189941e-01
-2.105029821395874023e-01 2.505157887935638428e-01 2.977440357208251953e-01
-1.379915773868560791e-01 1.306447088718414307e-01 2.255059927701950073e-01
1.799748092889785767e-01 1.733760386705398560e-01 2.887189388275146484e-01
1.906733028590679169e-02 9.386614710092544556e-02 -3.167394995689392090e-01
5.632859468460083008e-02 1.410729289054870605e-01 4.841566681861877441e-01
4.241821821779012680e-03 2.836092710494995117e-01 -7.003825902938842773e-01
3.354476392269134521e-02 9.777633100748062134e-02 -1.671769469976425171e-02
-3.623636439442634583e-02 1.593037992715835571e-01 6.290605068206787109e-01
-2.213903218507766724e-01 2.047303915023803711e-01 2.606223821640014648e-01
2.484503947198390961e-02 3.116042017936706543e-01 -4.205726385116577148e-01
-1.096024289727210999e-01 3.112061619758605957e-01 -2.249059379100799561e-01
-1.601842492818832397e-01 1.709581315517425537e-01 4.651132225990295410e-01
1.897478010505437851e-03 1.431179642677307129e-01 5.425760746002197266e-01
-8.421941846609115601e-02 3.214846551418304443e-01 -6.981821358203887939e-02
1.049458011984825134e-01 1.076627820730209351e-01 -3.843709826469421387e-01
1.382011920213699341e-01 2.990338504314422607e-01 -1.948462724685668945e-01
7.195992767810821533e-02 3.152641057968139648e-01 2.710289359092712402e-01
-1.336147040128707886e-01 2.952754199504852295e-01 -3.664519786834716797e-01
-1.618945747613906860e-01 2.992120385169982910e-01 -4.501003026962280273e-02
-5.022546648979187012e-02 3.228875696659088135e-01 2.655092477798461914e-01
-9.778719395399093628e-02 2.475477159023284912e-01 7.220261096954345703e-01
-2.353407740592956543e-01 2.157616615295410156e-01 9.323856234550476074e-02
-7.915474474430084229e-02 2.651061713695526123e-01 -7.476304769515991211e-01
1.064332425594329834e-01 3.128586411476135254e-01 -2.104415744543075562e-02
-1.889524012804031372e-01 2.467092573642730713e-01 4.573779702186584473e-01
5.609195679426193237e-02 2.079160213470458984e-01 7.331832051277160645e-01
-1.002242788672447205e-01 3.188906610012054443e-01 -3.997903317213058472e-02
-1.074734106659889221e-01 2.857725024223327637e-01 5.732660293579101562e-01
1.229570358991622925e-01 1.471919715404510498e-01 3.746483325958251953e-01
-1.215793117880821228e-01 1.132679656147956848e-01 -3.713963031768798828e-01
-4.278064146637916565e-02 3.123940229415893555e-01 4.528470635414123535e-01
-6.377322971820831299e-02 2.849572300910949707e-01 -6.471717953681945801e-01
6.834176182746887207e-02 1.286053359508514404e-01 3.669813871383666992e-01
1.871087402105331421e-01 1.565188318490982056e-01 1.144860833883285522e-01
1.022382676601409912e-01 2.941324412822723389e-01 -4.773594737052917480e-01
1.140746101737022400e-01 2.369923889636993408e-01 6.341224312782287598e-01
5.092031788080930710e-03 3.252277374267578125e-01 -1.683036983013153076e-01
-6.562963873147964478e-02 2.964719533920288086e-01 -5.482584834098815918e-01
5.171395372599363327e-03 3.280430734157562256e-01 1.013097018003463745e-01
-1.502557843923568726e-01 3.033994436264038086e-01 -7.880223542451858521e-02
-1.588027626276016235e-01 2.804389894008636475e-01 4.368795752525329590e-01
-1.223175153136253357e-01 2.965637445449829102e-01 4.482968449592590332e-01
1.922907829284667969e-01 2.196408361196517944e-01 -5.801539421081542969e-01
-7.383428514003753662e-03 1.036535426974296570e-01 1.473862230777740479e-01
-6.302627921104431152e-02 1.042014881968498230e-01 8.489242196083068848e-02
-1.711867898702621460e-01 2.899615168571472168e-01 -1.940209269523620605e-01
-3.879491612315177917e-02 1.168834790587425232e-01 3.138787746429443359e-01
2.304912079125642776e-03 1.565180122852325439e-01 -9.341105222702026367e-01
1.435627937316894531e-01 1.195720136165618896e-01 -3.383731842041015625e-01
1.045502722263336182e-01 2.870356142520904541e-01 -5.436844825744628906e-01
1.456665247678756714e-02 2.986046671867370605e-01 5.767818093299865723e-01
-1.128802523016929626e-01 1.161044836044311523e-01 1.256740689277648926e-01
-1.606290936470031738e-01 2.881067395210266113e-01 -3.106536865234375000e-01
-1.533717289566993713e-02 1.288731396198272705e-01 -8.125725984573364258e-01
1.483711600303649902e-01 2.620336413383483887e-01 -5.936376452445983887e-01
6.080935709178447723e-04 9.582742303609848022e-02 -3.373076766729354858e-02
6.887240707874298096e-02 2.817022800445556641e-01 6.060291528701782227e-01
6.562434881925582886e-02 1.013609319925308228e-01 -2.172283083200454712e-02
-5.910716485232114792e-03 2.750416398048400879e-01 7.107629179954528809e-01
1.218712925910949707e-01 1.232624426484107971e-01 -5.791387557983398438e-01
1.545538660138845444e-03 1.224209740757942200e-01 3.819511532783508301e-01
-2.988712303340435028e-02 3.280626833438873291e-01 -6.350822746753692627e-03
-1.605446636676788330e-01 1.487012058496475220e-01 -5.827338099479675293e-01
2.018566876649856567e-01 2.597098648548126221e-01 4.546879231929779053e-02
-5.169297382235527039e-02 1.296272277832031250e-01 4.273051619529724121e-01
1.010572984814643860e-01 1.047814562916755676e-01 -2.726632356643676758e-01
-1.204002574086189270e-01 3.033584952354431152e-01 -3.141312003135681152e-01
1.681424081325531006e-01 1.305423974990844727e-01 -2.893631458282470703e-01
1.717026680707931519e-01 2.466801404953002930e-01 4.057683348655700684e-01
-1.464405208826065063e-01 1.542017459869384766e-01 4.130988121032714844e-01
-1.267444938421249390e-01 2.479763627052307129e-01 6.679260134696960449e-01
-6.057683750987052917e-02 1.095285862684249878e-01 1.874672621488571167e-01
3.905950859189033508e-02 9.545080363750457764e-02 -1.293299347162246704e-01
9.376343339681625366e-02 1.056055203080177307e-01 -5.768146738409996033e-02
3.492004796862602234e-02 2.761867344379425049e-01 6.803365349769592285e-01
1.815368533134460449e-01 2.738142013549804688e-01 -2.581822872161865234e-01
7.592080533504486084e-02 2.824997603893280029e-01 -6.469677686691284180e-01
-1.617739349603652954e-01 2.536123096942901611e-01 -5.884416699409484863e-01
-1.134153977036476135e-01 1.205093115568161011e-01 1.952695995569229126e-01
-8.374733477830886841e-02 1.550019085407257080e-01 -8.507871627807617188e-01
-5.434905365109443665e-02 1.869511306285858154e-01 7.227029204368591309e-01
-2.234279066324234009e-01 2.351435422897338867e-01 -2.869626283645629883e-01
1.092190369963645935e-01 2.719942927360534668e-01 -6.519193649291992188e-01
1.847222745418548584e-01 2.488814145326614380e-01 3.200762271881103516e-01
-5.139512568712234497e-02 1.290908753871917725e-01 -7.805548906326293945e-01
2.227018624544143677e-01 -1.329423487186431885e-02 4.526731073856353760e-01
2.262301445007324219e-01 -3.449111431837081909e-02 -2.700033187866210938e-01
7.823333889245986938e-02 -6.589986383914947510e-02 8.992170691490173340e-01
-2.210208028554916382e-01 -9.476860612630844116e-02 5.382958650588989258e-01
1.260031852871179581e-02 9.932074695825576782e-02 -5.403084754943847656e-01
-1.216515004634857178e-01 1.762435436248779297e-01 2.009021490812301636e-01
-2.691262401640415192e-02 -3.486083149909973145e-01 -5.605843663215637207e-01
1.865485906600952148e-01 -2.530559599399566650e-01 5.843693614006042480e-01
-1.949744075536727905e-01 -2.311224937438964844e-01 5.047146081924438477e-01
-2.156726121902465820e-01 9.681336581707000732e-03 4.882628023624420166e-01
3.483853489160537720e-02 1.804573237895965576e-01 -1.661778390407562256e-01
1.389281004667282104e-01 1.353531777858734131e-01 -7.902812957763671875e-02
-1.541609615087509155e-01 -2.688944041728973389e-01 5.745185613632202148e-01
2.045204788446426392e-01 -3.331766724586486816e-01 -3.566807508468627930e-02
-2.015815824270248413e-01 9.363704174757003784e-02 -1.556663215160369873e-01
1.357401311397552490e-01 -3.697136640548706055e-01 3.802363574504852295e-01
-2.625807523727416992e-01 -6.728595495223999023e-02 2.076489031314849854e-01
-1.305707842111587524e-01 1.712865233421325684e-01 -5.876116454601287842e-03
-3.534727543592453003e-02 -2.633392810821533203e-02 -7.577673792839050293e-01
6.736517697572708130e-02 5.177284032106399536e-02 7.972097992897033691e-01
1.478029638528823853e-01 1.218252256512641907e-01 3.667502701282501221e-01
-2.210239768028259277e-01 -2.615454196929931641e-01 2.290925234556198120e-01
1.867675334215164185e-01 -3.476732075214385986e-01 -1.325671076774597168e-01
2.634137570858001709e-01 -9.357777237892150879e-02 1.525574624538421631e-01
2.024462819099426270e-01 7.287193089723587036e-02 2.062926143407821655e-01
-1.792104691267013550e-01 -3.961191326379776001e-02 6.843120455741882324e-01
-1.643775850534439087e-01 1.301266252994537354e-01 3.542587757110595703e-01
8.546928316354751587e-02 1.415041834115982056e-02 8.305031657218933105e-01
-1.328755170106887817e-01 1.721155941486358643e-01 1.333387643098831177e-01
-1.888998895883560181e-01 -2.628306150436401367e-01 4.522765874862670898e-01
-2.612211108207702637e-01 -1.683903932571411133e-01 2.777899429202079773e-02
1.293010413646697998e-01 1.527218520641326904e-01 1.376749873161315918e-01
2.089776545763015747e-01 -4.892647266387939453e-04 -2.973050475120544434e-01
-6.495809555053710938e-02 -1.123958006501197815e-01 9.037259817123413086e-01
1.200884953141212463e-02 -2.639375329017639160e-01 8.124481439590454102e-01
-1.164352521300315857e-01 7.076063007116317749e-02 -5.387009382247924805e-01
-1.960121840238571167e-01 -1.765003949403762817e-01 -5.270895957946777344e-01
-1.411177515983581543e-01 -2.347897589206695557e-01 -6.232967376708984375e-01
1.644929125905036926e-02 -4.065420925617218018e-01 -3.423124253749847412e-01
2.137064933776855469e-01 1.387774199247360229e-02 -2.236749529838562012e-01
6.029268726706504822e-02 -3.826805949211120605e-01 -4.271718263626098633e-01
1.967245191335678101e-01 -6.950108706951141357e-02 6.552683711051940918e-01
2.540279626846313477e-01 -9.461927413940429688e-02 -1.420526057481765747e-01
-1.078020930290222168e-01 1.852985620498657227e-01 7.999086380004882812e-02
-7.638917118310928345e-02 1.907153129577636719e-01 -5.668566375970840454e-02
2.237608134746551514e-01 3.455816954374313354e-02 2.261643111705780029e-01
4.922578483819961548e-02 3.470142930746078491e-02 8.395396471023559570e-01
1.717873965390026569e-03 2.031974494457244873e-01 9.773708879947662354e-02
2.585187256336212158e-01 -2.113077938556671143e-01 3.696623817086219788e-02
2.387751191854476929e-01 -4.505642503499984741e-02 4.003794789314270020e-01
-1.603462994098663330e-01 1.462145149707794189e-01 -7.455472648143768311e-02
1.999209672212600708e-01 -2.118037939071655273e-01 6.012740731239318848e-01
-1.823681592941284180e-02 -3.719133734703063965e-01 5.292381048202514648e-01
-2.139265537261962891e-01 8.370692282915115356e-02 2.457013279199600220e-01
-2.442813366651535034e-01 -1.926659792661666870e-01 -2.242199778556823730e-01
-1.881336271762847900e-01 -3.196263313293457031e-01 1.808494180440902710e-01
-1.750473827123641968e-01 -8.116981387138366699e-02 7.097181081771850586e-01
-2.599186599254608154e-01 -1.620353013277053833e-01 -9.105168282985687256e-02
-1.811079531908035278e-01 1.271360218524932861e-01 2.440523803234100342e-01
2.027703523635864258e-01 4.595684260129928589e-02 4.012168347835540771e-01
-2.576620876789093018e-01 -8.254326879978179932e-02 2.831177115440368652e-01
-1.340363025665283203e-01 -2.072139084339141846e-01 -6.693240404129028320e-01
2.230010628700256348e-01 -3.066046535968780518e-01 1.705713942646980286e-02
1.580890268087387085e-01 -2.545008063316345215e-01 -5.515540242195129395e-01
-9.287721663713455200e-02 -3.141056299209594727e-01 -5.741058588027954102e-01
-1.475277692079544067e-01 -3.688224256038665771e-01 8.972124010324478149e-02
1.687570512294769287e-01 5.558045953512191772e-02 -3.366508185863494873e-01
-2.655143141746520996e-01 -1.108123362064361572e-01 1.554583013057708740e-01
-7.042610645294189453e-02 1.221826598048210144e-01 6.485498547554016113e-01
1.412823051214218140e-01 -5.438880249857902527e-02 -6.223440170288085938e-01
-9.838274121284484863e-02 -3.716139793395996094e-01 3.831406533718109131e-01
-2.279868721961975098e-01 -4.070832580327987671e-02 -3.835197389125823975e-01
-2.123109996318817139e-01 -1.665145903825759888e-02 5.415935516357421875e-01
2.451828867197036743e-01 -2.079520374536514282e-02 2.424482107162475586e-01
2.480298578739166260e-01 -2.125662714242935181e-01 -1.615969538688659668e-01
7.241973280906677246e-02 -1.115766838192939758e-01 9.103583693504333496e-01
-5.946066603064537048e-02 -2.760056853294372559e-01 7.517252564430236816e-01
2.565648853778839111e-01 -2.123430967330932617e-01 1.803834587335586548e-01
-2.104928046464920044e-01 -2.573580443859100342e-01 3.425185084342956543e-01
1.747599691152572632e-01 -2.879141867160797119e-01 -4.393276572227478027e-01
-8.455421030521392822e-02 1.687168478965759277e-01 -2.311663031578063965e-01
2.128355652093887329e-01 -1.419126689434051514e-01 6.055405735969543457e-01
-2.239759415388107300e-01 -2.305155098438262939e-01 -2.965364754199981689e-01
-6.004440039396286011e-02 1.996193528175354004e-01 1.649038791656494141e-01
-2.162874639034271240e-01 -9.081880003213882446e-02 -4.732413887977600098e-01
-2.153038978576660156e-01 6.612614542245864868e-02 3.334454596042633057e-01
2.563891708850860596e-01 -2.158499956130981445e-01 -1.292712986469268799e-02
-6.234432011842727661e-02 -3.339627683162689209e-01 6.099910736083984375e-01
-3.713396564126014709e-02 1.438981592655181885e-01 -4.026948511600494385e-01
1.600846797227859497e-01 8.934096246957778931e-02 4.766847193241119385e-01
-3.141066804528236389e-02 -4.276622235774993896e-01 -9.247604012489318848e-02
9.505510330200195312e-02 -4.176516532897949219e-01 1.380626708269119263e-01
-1.381865143775939941e-01 -3.673333227634429932e-01 -2.031401097774505615e-01
1.244299784302711487e-01 -3.798018693923950195e-01 -2.961164116859436035e-01
1.763438284397125244e-01 -3.680419027805328369e-01 4.504800587892532349e-02
1.297626048326492310e-01 -3.142396807670593262e-01 6.044033169746398926e-01
-5.973553285002708435e-02 6.774812191724777222e-02 -6.097477674484252930e-01
-8.324322849512100220e-02 -4.030274152755737305e-01 -1.971919238567352295e-01
-2.076180651783943176e-03 -4.300174415111541748e-01 -1.294143795967102051e-01
1.628368645906448364e-01 -1.840732842683792114e-01 -6.020186543464660645e-01
-2.598467171192169189e-01 -1.043453812599182129e-01 -1.809346228837966919e-01
-1.302806008607149124e-02 -4.252238869667053223e-01 -1.805500537157058716e-01
2.121173590421676636e-01 -2.967129349708557129e-01 -2.168777883052825928e-01
-3.506767749786376953e-02 -2.363472282886505127e-01 -7.565065026283264160e-01
-5.130655691027641296e-02 -2.358627319335937500e-01 8.241254687309265137e-01
2.018274962902069092e-01 -3.321257531642913818e-01 1.969738900661468506e-01
-6.087929010391235352e-02 -1.782148778438568115e-01 -7.832468748092651367e-01
-1.735083758831024170e-01 -1.202263236045837402e-01 -6.209307909011840820e-01
-5.169622227549552917e-02 -3.212246894836425781e-01 -6.117156147956848145e-01
-1.470101028680801392e-01 -3.668373525142669678e-01 -1.233421117067337036e-01
1.145001724362373352e-01 -4.115784168243408203e-01 -2.067546546459197998e-02
-2.227133661508560181e-01 -2.559485733509063721e-01 -2.099901735782623291e-01
1.516342461109161377e-01 -1.593463718891143799e-01 -6.377559900283813477e-01
-8.966016769409179688e-02 -3.933550715446472168e-01 -2.561930716037750244e-01
1.222408190369606018e-01 -1.930271387100219727e-01 -6.871699690818786621e-01
-1.564706116914749146e-01 1.175806149840354919e-01 4.578760862350463867e-01
1.187513917684555054e-01 1.580850183963775635e-01 2.529906854033470154e-02
2.415584623813629150e-01 -2.365852147340774536e-02 -1.014408916234970093e-01
-2.101272493600845337e-01 -2.217481434345245361e-01 -4.044896066188812256e-01
2.045905590057373047e-01 -1.605364382266998291e-01 -4.733625650405883789e-01
5.600068345665931702e-02 -4.139134585857391357e-01 -2.613924443721771240e-01
-9.594404697418212891e-02 -3.223681747913360596e-01 5.852223634719848633e-01
2.146082520484924316e-01 4.157588630914688110e-02 3.120943307876586914e-01
-2.379741668701171875e-01 -1.725718826055526733e-01 3.747774064540863037e-01
9.669873863458633423e-02 -2.095780223608016968e-01 -7.179757356643676758e-01
2.623662054538726807e-01 -8.178230375051498413e-02 7.434888929128646851e-02
7.449039816856384277e-02 1.836856007575988770e-01 5.769741162657737732e-02
-2.867718227207660675e-02 9.193294495344161987e-02 7.561769485473632812e-01
2.589628994464874268e-01 -9.288083761930465698e-02 2.624742090702056885e-01
2.347696423530578613e-01 -2.814060151576995850e-01 -1.993067562580108643e-02
2.438328713178634644e-01 -6.568945944309234619e-03 1.158009916543960571e-01
1.552997082471847534e-01 1.275159716606140137e-01 4.950501024723052979e-03
1.269697304815053940e-02 -3.699209392070770264e-01 -5.044713616371154785e-01
-2.275379598140716553e-01 -2.626120746135711670e-01 1.189256310462951660e-01
-2.424494624137878418e-01 -1.825751364231109619e-01 -2.657793462276458740e-01
1.097930148243904114e-01 -2.774260193109512329e-02 8.387659192085266113e-01
1.192513853311538696e-01 1.132889464497566223e-01 5.415290594100952148e-01
2.559516429901123047e-01 -9.783166646957397461e-02 3.125418126583099365e-01
2.131961733102798462e-01 -3.061325252056121826e-01 -1.600331068038940430e-01
3.671681880950927734e-02 3.197938203811645508e-04 8.867451548576354980e-01
1.330053359270095825e-01 -2.725078761577606201e-01 -5.872218012809753418e-01
2.541220784187316895e-01 -1.521430760622024536e-01 -1.716427952051162720e-01
1.671509742736816406e-01 -8.588874340057373047e-02 7.547373175621032715e-01
-1.002591848373413086e-02 -5.863735452294349670e-02 -7.863062620162963867e-01
1.366867423057556152e-01 -2.491415441036224365e-01 7.243790030479431152e-01
-2.369212172925472260e-02 1.932112276554107666e-01 3.377825617790222168e-01
-9.142865240573883057e-02 -1.634505391120910645e-02 8.511584997177124023e-01
1.920972168445587158e-01 -1.840142309665679932e-01 -5.119617581367492676e-01
-1.989165097475051880e-01 -5.387373268604278564e-03 -4.669615030288696289e-01
-5.588097870349884033e-02 1.884843409061431885e-01 -1.322968453168869019e-01
7.774380594491958618e-02 -3.498807251453399658e-01 -5.187464952468872070e-01
-7.424598187208175659e-02 -4.102645814418792725e-01 1.726312041282653809e-01
1.437696442008018494e-02 -3.925846815109252930e-01 -4.146898686885833740e-01
-5.487787351012229919e-02 1.742753982543945312e-01 4.523261189460754395e-01
-1.415910869836807251e-01 2.019187062978744507e-02 7.294898629188537598e-01
1.406478136777877808e-01 -3.175272941589355469e-01 -4.781546592712402344e-01
1.197872906923294067e-01 -6.187088787555694580e-03 -6.123466491699218750e-01
-2.179659605026245117e-01 -2.076879739761352539e-01 4.371722340583801270e-01
-1.131365597248077393e-01 -3.957338929176330566e-01 4.234011471271514893e-02
-1.704090088605880737e-01 -2.259727269411087036e-01 -5.570172667503356934e-01
-2.040445059537887573e-01 6.521145254373550415e-02 4.166441857814788818e-01
-2.385313212871551514e-01 -1.480696201324462891e-01 -3.433633744716644287e-01
1.592086404561996460e-01 1.020690053701400757e-02 -4.852568507194519043e-01
9.883584082126617432e-02 -4.028813242912292480e-01 -2.371969223022460938e-01
1.074186246842145920e-02 -4.348927438259124756e-01 2.098473906517028809e-02
1.137615144252777100e-01 1.741480082273483276e-02 7.835025191307067871e-01
2.575148344039916992e-01 -9.424567222595214844e-02 -9.622430801391601562e-02
1.681813746690750122e-01 -2.131489664316177368e-01 -5.687481164932250977e-01
1.957451403141021729e-01 -1.876507103443145752e-01 6.430439352989196777e-01
1.883938312530517578e-01 9.130550175905227661e-02 1.098655909299850464e-02
-1.879861056804656982e-01 -3.092076778411865234e-01 -2.409657537937164307e-01
-1.278314460068941116e-02 -3.354511559009552002e-01 6.534861922264099121e-01
-8.971382677555084229e-02 -1.145666763186454773e-01 -7.688361406326293945e-01
-2.456557750701904297e-01 1.719180494546890259e-02 -1.091795116662979126e-01
8.625831454992294312e-02 1.434901058673858643e-01 -2.732524573802947998e-01
-3.894289955496788025e-02 -3.996978104114532471e-01 -3.453629016876220703e-01
2.158503234386444092e-01 -2.345719933509826660e-01 -3.594492375850677490e-01
-8.704870194196701050e-02 -2.669645100831985474e-02 -7.262727022171020508e-01
1.261061728000640869e-01 -3.434934318065643311e-01 -4.429356455802917480e-01
-2.669414877891540527e-01 -1.119925230741500854e-01 -4.353525489568710327e-02
-9.275919944047927856e-02 1.463474333286285400e-01 5.285075902938842773e-01
3.325186669826507568e-02 1.857468485832214355e-01 -1.231870204210281372e-01
1.387206315994262695e-01 -1.468621343374252319e-01 8.151238560676574707e-01
8.277673274278640747e-02 -2.969900965690612793e-01 -6.332603096961975098e-01
-1.381741464138031006e-01 -2.167920172214508057e-01 7.145105004310607910e-01
2.433269917964935303e-01 -1.906485557556152344e-01 -2.415971457958221436e-01
-5.289128748700022697e-04 -4.222679734230041504e-01 -2.246919870376586914e-01
2.644953131675720215e-01 -1.387705504894256592e-01 1.921151578426361084e-01
-1.972937136888504028e-01 2.457281202077865601e-02 -4.198729693889617920e-01
-5.963945016264915466e-02 -2.658172547817230225e-01 -7.055974006652832031e-01
2.320942431688308716e-01 -2.605291903018951416e-01 -1.847023516893386841e-01
-2.555025219917297363e-01 -1.430699229240417480e-02 2.026557922363281250e-01
-2.007586359977722168e-01 4.764155298471450806e-02 -3.488953709602355957e-01
-2.251807749271392822e-01 -1.717159450054168701e-01 4.597645103931427002e-01
3.097052313387393951e-02 -4.323711395263671875e-01 -8.611828088760375977e-02
-2.560778260231018066e-01 -1.867792308330535889e-01 -5.385486036539077759e-02
1.483491361141204834e-01 -3.224717378616333008e-01 5.336555838584899902e-01
3.121851198375225067e-02 -3.367472290992736816e-01 -5.952107310295104980e-01
-7.009174674749374390e-02 -3.604064583778381348e-01 5.060281753540039062e-01
-2.667586207389831543e-01 -7.041835784912109375e-02 -3.025662899017333984e-02
2.064252644777297974e-01 -3.250934779644012451e-01 -1.009982824325561523e-01
-2.421561777591705322e-01 -2.139072120189666748e-01 -1.762875765562057495e-01
-9.516727924346923828e-02 -6.114862114191055298e-02 8.682160377502441406e-01
-3.843899816274642944e-02 1.150531098246574402e-01 -5.016047358512878418e-01
2.595107257366180420e-01 -1.320673823356628418e-01 2.855736017227172852e-01
-1.285985410213470459e-01 2.187510579824447632e-02 -6.110212206840515137e-01
6.610729545354843140e-02 -3.397824168205261230e-01 6.285529732704162598e-01
-2.294168919324874878e-01 6.063898652791976929e-02 -7.059808075428009033e-02
-2.229595184326171875e-01 -2.755451202392578125e-01 3.657316043972969055e-02
4.256370663642883301e-02 -2.408161163330078125e-01 8.407509922981262207e-01
2.005487829446792603e-01 2.740678936243057251e-02 -2.650592029094696045e-01
-2.384402900934219360e-01 -2.414168119430541992e-01 -4.900471121072769165e-02
2.495201230049133301e-01 -1.691734343767166138e-01 3.724569678306579590e-01
1.963641494512557983e-01 -2.994813024997711182e-01 -3.109923601150512695e-01
-9.973016381263732910e-02 1.558772027492523193e-01 4.684110581874847412e-01
1.372539699077606201e-01 -2.228190749883651733e-01 7.592347264289855957e-01
-2.192134708166122437e-01 4.780844599008560181e-02 3.742294013500213623e-01
4.152795672416687012e-02 1.830739378929138184e-01 3.622454702854156494e-01
2.463400661945343018e-01 -1.181819736957550049e-01 -2.379296720027923584e-01
-2.448343783617019653e-01 2.805402129888534546e-02 1.738627701997756958e-01
2.258048504590988159e-01 3.144054859876632690e-02 1.081969216465950012e-02
-5.764696281403303146e-03 -3.893383145332336426e-01 4.622230529785156250e-01
1.891364157199859619e-01 -9.569016844034194946e-02 6.934183835983276367e-01
1.888214498758316040e-01 -3.526835441589355469e-01 1.325288116931915283e-01
-1.400729268789291382e-01 -3.767274916172027588e-01 -1.317091286182403564e-02
8.350259810686111450e-02 8.731903880834579468e-02 -4.911335110664367676e-01
-3.833756968379020691e-02 -3.902620971202850342e-01 -3.965480029582977295e-01
-2.471444457769393921e-01 -2.072175145149230957e-01 -1.327481120824813843e-01
-2.447747439146041870e-01 -1.648624241352081299e-01 3.338808119297027588e-01
1.547525227069854736e-01 7.588251680135726929e-02 5.509268045425415039e-01
-1.663715541362762451e-01 -3.162237703800201416e-01 3.693966567516326904e-01
2.196116298437118530e-01 -1.712639033794403076e-01 5.599439740180969238e-01
1.688366532325744629e-01 -2.529062032699584961e-01 6.413122415542602539e-01
-1.174266114830970764e-01 1.127344444394111633e-01 -4.197127223014831543e-01
1.719981431961059570e-01 -3.688566982746124268e-01 -6.915502250194549561e-02
-1.519824415445327759e-01 1.380973458290100098e-01 -1.972924470901489258e-01
-3.675353899598121643e-02 -3.966310024261474609e-01 3.920000195503234863e-01
-8.378823101520538330e-02 1.018548086285591125e-01 -5.062772631645202637e-01
1.068560853600502014e-01 1.547554731369018555e-01 3.565365374088287354e-01
1.875429600477218628e-01 2.096401900053024292e-02 -3.530450761318206787e-01
-2.249101698398590088e-01 -2.379259467124938965e-01 3.021215796470642090e-01
7.437445968389511108e-02 6.178102642297744751e-02 -5.694168806076049805e-01
-1.277719587087631226e-01 -3.775088787078857422e-01 1.956893652677536011e-01
1.716614067554473877e-01 1.123627275228500366e-02 6.476579308509826660e-01
2.318313717842102051e-01 -2.149736583232879639e-01 -2.941764295101165771e-01
-3.492800146341323853e-02 6.255056709051132202e-02 8.092043399810791016e-01
1.337173581123352051e-01 -3.505638539791107178e-01 -3.968924283981323242e-01
-2.146522402763366699e-01 -1.350107640027999878e-01 -4.783470630645751953e-01
2.493886351585388184e-01 -9.701023995876312256e-02 3.816803693771362305e-01
-1.977494359016418457e-01 -2.843299210071563721e-01 -2.934184074401855469e-01
2.515715733170509338e-02 1.289274990558624268e-01 -4.405067563056945801e-01
-2.584471106529235840e-01 -3.657940775156021118e-02 -1.255178600549697876e-01
2.439749091863632202e-01 -1.393887549638748169e-01 4.357294738292694092e-01
7.972161471843719482e-02 1.051163151860237122e-01 -4.447682499885559082e-01
-2.345862984657287598e-01 4.105531424283981323e-02 2.580910921096801758e-01
-2.673730254173278809e-01 -6.610687077045440674e-02 4.595277458429336548e-02
2.191921323537826538e-01 4.794067889451980591e-02 1.374138295650482178e-01
1.537057608366012573e-01 -3.797428607940673828e-01 2.114607840776443481e-01
7.373542338609695435e-02 -1.879518777132034302e-01 -7.576118111610412598e-01
1.547042429447174072e-01 -3.417494595050811768e-01 -3.566633760929107666e-01
2.138683050870895386e-01 -2.822669744491577148e-01 -2.587562799453735352e-01
2.335471361875534058e-01 6.362862884998321533e-03 -5.853942781686782837e-02
-7.412404567003250122e-02 -2.927587628364562988e-01 -6.468894481658935547e-01
2.579236924648284912e-01 -6.475123763084411621e-02 2.379216253757476807e-03
2.294722348451614380e-01 -2.333251535892486572e-01 4.173716306686401367e-01
-1.413306295871734619e-01 -3.121734559535980225e-01 4.931206107139587402e-01
-1.048930883407592773e-01 1.404450535774230957e-01 -3.384969532489776611e-01
1.713228225708007812e-01 9.052904695272445679e-02 -1.738811731338500977e-01
2.494725286960601807e-01 -2.520108968019485474e-02 5.362378805875778198e-02
-8.569185435771942139e-02 -3.755990564823150635e-01 -3.781746625900268555e-01
8.065774291753768921e-02 1.571387648582458496e-01 4.452745318412780762e-01
7.891581393778324127e-03 -2.956988215446472168e-01 -6.854219436645507812e-01
-7.633716613054275513e-02 1.408134400844573975e-01 -3.841521739959716797e-01
-1.566091328859329224e-01 -3.448425829410552979e-01 -2.485969960689544678e-01
1.010365709662437439e-01 -2.077922821044921875e-01 8.318732976913452148e-01
-2.372729182243347168e-01 -2.194497883319854736e-01 2.532829642295837402e-01
-4.175933822989463806e-02 1.453234553337097168e-01 5.989431142807006836e-01
-1.847471445798873901e-01 1.134804412722587585e-01 3.214136064052581787e-01
1.922598928213119507e-01 -2.810871601104736328e-02 6.325976848602294922e-01
2.599423229694366455e-01 -1.414936482906341553e-01 -1.018420308828353882e-01
2.662277519702911377e-01 -1.304264366626739502e-01 1.153138279914855957e-01
-6.366138905286788940e-02 1.913601756095886230e-01 3.009585142135620117e-01
2.001627162098884583e-02 1.992506384849548340e-01 3.040698170661926270e-02
6.876838207244873047e-02 1.652058660984039307e-01 -1.933928132057189941e-01
7.698605954647064209e-02 -2.539178133010864258e-01 -7.024087905883789062e-01
3.376519307494163513e-02 1.673917770385742188e-01 4.853117167949676514e-01
1.253571957349777222e-01 1.202695593237876892e-01 4.896078109741210938e-01
1.546159535646438599e-01 -3.857201933860778809e-01 -3.422777354717254639e-02
1.653658896684646606e-01 -3.616963028907775879e-01 -2.027657330036163330e-01
-1.730557233095169067e-01 -3.450179994106292725e-01 6.506761163473129272e-02
1.410322785377502441e-01 1.140316352248191833e-01 -2.190809249877929688e-01
2.573529481887817383e-01 -2.178297340869903564e-01 8.809715509414672852e-02
-6.305215507745742798e-02 -4.204396009445190430e-01 4.073524847626686096e-02
-9.503104537725448608e-02 -2.541430294513702393e-01 7.421293258666992188e-01
1.734089404344558716e-01 -7.896354049444198608e-02 -5.580152273178100586e-01
1.145848557353019714e-01 8.130333572626113892e-02 6.577864885330200195e-01
-2.086167484521865845e-01 -2.949349582195281982e-01 -1.118853837251663208e-01
2.365566641092300415e-01 -1.095670014619827271e-01 -3.040642738342285156e-01
5.407965183258056641e-02 3.352922946214675903e-02 -6.493718028068542480e-01
-3.937722649425268173e-03 -2.390529513359069824e-01 8.463219404220581055e-01
-4.954942688345909119e-02 -3.772908151149749756e-01 -4.405636787414550781e-01
-9.736530482769012451e-02 -7.297435402870178223e-02 -7.482015490531921387e-01
-2.224833667278289795e-01 5.033027380704879761e-02 -2.066981792449951172e-01
-2.276359498500823975e-01 2.069786936044692993e-02 -2.705609798431396484e-01
6.887493282556533813e-02 -4.285925030708312988e-01 4.371564090251922607e-02
3.273865953087806702e-02 -1.277668178081512451e-01 9.298830032348632812e-01
2.413930743932723999e-01 -1.814050078392028809e-01 4.243596792221069336e-01
-2.788039855659008026e-02 -4.260230660438537598e-01 1.554383337497711182e-01
2.534308433532714844e-01 -2.313459813594818115e-01 1.286312192678451538e-01
-1.176371425390243530e-01 1.678599119186401367e-01 3.301534354686737061e-01
1.506175696849822998e-01 -2.994700521230697632e-02 -5.729373097419738770e-01
2.486664205789566040e-01 -4.733703285455703735e-02 3.017745018005371094e-01
-2.173800021409988403e-01 -2.851036190986633301e-01 -3.001748025417327881e-02
1.196706593036651611e-01 9.333159774541854858e-02 6.105385422706604004e-01
1.365315318107604980e-01 1.441184580326080322e-01 2.336651384830474854e-01
-2.419955581426620483e-01 -3.107924014329910278e-02 -2.824781537055969238e-01
2.123827785253524780e-01 -8.098922669887542725e-02 5.991237163543701172e-01
2.314051985740661621e-01 -1.491240859031677246e-01 -3.457519710063934326e-01
-1.756580770015716553e-01 8.777085691690444946e-02 4.875151813030242920e-01
1.249903962016105652e-01 -4.012406468391418457e-01 1.797501742839813232e-01
-1.562221050262451172e-01 -4.889468103647232056e-02 7.518561482429504395e-01
-1.815028339624404907e-01 -1.683202087879180908e-01 -5.819582343101501465e-01
2.166651636362075806e-01 1.912917941808700562e-02 -1.809927970170974731e-01
2.259795665740966797e-01 -1.178993284702301025e-01 5.470719933509826660e-01
-2.636851966381072998e-01 -5.323902517557144165e-02 1.626680195331573486e-01
8.072766661643981934e-02 1.718359291553497314e-01 -9.104003012180328369e-02
-3.661837056279182434e-02 -2.329367399215698242e-02 9.038744568824768066e-01
1.612285524606704712e-02 7.888931781053543091e-02 7.838202118873596191e-01
-9.794338047504425049e-02 -3.893882632255554199e-01 2.672081589698791504e-01
2.368027865886688232e-01 1.006568223237991333e-02 1.685370355844497681e-01
9.894851595163345337e-03 -2.414104044437408447e-01 -7.575493454933166504e-01
4.256016109138727188e-03 -4.062950611114501953e-04 -7.299169301986694336e-01
-2.239404320716857910e-01 -4.147703945636749268e-02 5.074726343154907227e-01
1.592225730419158936e-01 1.100302562117576599e-01 -1.338887810707092285e-01
-2.677301466464996338e-01 -8.930800855159759521e-02 9.978355467319488525e-02
1.987228989601135254e-01 -1.023111417889595032e-01 -4.868986010551452637e-01
2.008049637079238892e-01 7.661364227533340454e-02 5.457218736410140991e-02
-1.985444277524948120e-01 -2.664604783058166504e-01 3.880892395973205566e-01
9.153636544942855835e-02 1.759544014930725098e-01 1.703322827816009521e-01
9.118440002202987671e-02 9.418271481990814209e-03 -6.405107975006103516e-01
-2.033662796020507812e-01 1.073276177048683167e-01 4.467301070690155029e-03
-9.487569332122802734e-02 -1.763939410448074341e-01 8.379936218261718750e-01
-2.402438521385192871e-01 -4.168340563774108887e-02 4.089581668376922607e-01
-2.102424949407577515e-01 -5.932962894439697266e-02 5.818937420845031738e-01
8.704318106174468994e-02 1.383017301559448242e-01 5.272614955902099609e-01
-5.954088270664215088e-02 -4.045941233634948730e-01 2.894858419895172119e-01
-1.656095832586288452e-01 2.658412605524063110e-02 -5.212661623954772949e-01
-6.814123690128326416e-02 -4.070239663124084473e-01 2.387598007917404175e-01
1.660297065973281860e-01 1.133564189076423645e-01 2.807422876358032227e-01
1.821720153093338013e-01 -5.489388853311538696e-02 -5.077959299087524414e-01
5.808020755648612976e-02 -4.059653878211975098e-01 -3.127508163452148438e-01
1.512242704629898071e-01 1.333601772785186768e-01 1.950474977493286133e-01
2.435807287693023682e-01 -5.230088531970977783e-02 -1.702054738998413086e-01
-1.187609881162643433e-01 9.247117489576339722e-02 -4.794347882270812988e-01
-2.575181126594543457e-01 -1.908556371927261353e-02 -8.134223520755767822e-02
2.205075323581695557e-01 -2.966292798519134521e-01 2.530151009559631348e-01
-2.587955892086029053e-01 -1.624763011932373047e-02 -3.445689380168914795e-02
-1.482899487018585205e-02 -3.773421049118041992e-01 -4.723101258277893066e-01
-1.029465422034263611e-01 -3.791176676750183105e-01 -3.038488328456878662e-01
-1.026795357465744019e-01 1.867961883544921875e-01 1.609103679656982422e-01
-2.427752315998077393e-01 -2.324938774108886719e-01 2.463933080434799194e-03
1.254271864891052246e-01 1.352080404758453369e-01 4.061792790889739990e-01
-1.855507642030715942e-01 1.263933181762695312e-01 1.936306059360504150e-01
1.275409311056137085e-01 -4.051576852798461914e-01 3.456706553697586060e-02
-7.721747457981109619e-02 -2.836245000362396240e-01 7.141860723495483398e-01
2.322250157594680786e-01 1.095261424779891968e-02 2.686707973480224609e-01
8.280779421329498291e-02 -3.640725910663604736e-01 5.292961001396179199e-01
2.136651128530502319e-01 -3.190205991268157959e-01 1.519610583782196045e-01
-5.554002150893211365e-02 -1.833021640777587891e-01 8.769183158874511719e-01
1.042303722351789474e-02 1.698825061321258545e-01 -2.712848782539367676e-01
3.581934422254562378e-02 8.031392842531204224e-02 -5.719522833824157715e-01
1.875692158937454224e-01 2.053394168615341187e-02 5.672469139099121094e-01
-1.884306073188781738e-01 -8.802862465381622314e-02 -5.738933682441711426e-01
-2.234338968992233276e-01 -2.637906670570373535e-01 -1.542063206434249878e-01
-1.122235432267189026e-01 -2.815727591514587402e-01 -6.088081598281860352e-01
-1.907567381858825684e-01 -3.241930902004241943e-01 -4.806256294250488281e-02
-1.767431348562240601e-01 1.095190271735191345e-01 -2.335729598999023438e-01
1.715845912694931030e-01 -3.442844748497009277e-01 -2.669363319873809814e-01
-3.408112097531557083e-03 -3.117101192474365234e-01 7.176646590232849121e-01
2.458624243736267090e-01 -2.487051784992218018e-01 -5.532485991716384888e-02
4.859730973839759827e-02 1.370278596878051758e-01 6.034245491027832031e-01
1.772763133049011230e-01 1.599498093128204346e-03 -4.398777484893798828e-01
-1.471194624900817871e-01 -3.536200523376464844e-01 2.669456005096435547e-01
-1.531320363283157349e-01 -1.231147870421409607e-01 7.606777548789978027e-01
1.464079618453979492e-01 -1.838383972644805908e-01 7.792369127273559570e-01
-9.010764956474304199e-02 1.824868470430374146e-02 8.215216398239135742e-01
2.364948540925979614e-01 -6.968863308429718018e-02 4.569490253925323486e-01
1.210074946284294128e-01 7.129790633916854858e-02 -4.526936411857604980e-01
-2.511135935783386230e-01 -1.734016835689544678e-02 -1.703166514635086060e-01
-1.410138159990310669e-01 -3.388240188360214233e-02 -6.562394499778747559e-01
2.364981323480606079e-01 -4.983675479888916016e-02 -2.272899150848388672e-01
-2.042916119098663330e-01 -2.948822677135467529e-01 -1.760349720716476440e-01
7.638242840766906738e-02 1.303630173206329346e-01 -3.591763079166412354e-01
4.385631904006004333e-02 -3.444802016019821167e-02 -7.464597225189208984e-01
-1.137851402163505554e-01 -1.128317862749099731e-01 8.420616388320922852e-01
-1.299934387207031250e-01 -3.555635511875152588e-01 -3.293705880641937256e-01
-4.735263064503669739e-02 1.152229830622673035e-01 6.900817155838012695e-01
-1.741801351308822632e-01 3.255908936262130737e-02 6.226541399955749512e-01
-1.655493825674057007e-01 -3.135734498500823975e-01 -3.604273498058319092e-01
-2.548394203186035156e-01 -1.678399592638015747e-01 -1.630487442016601562e-01
-2.630807459354400635e-01 -3.262868523597717285e-02 8.409468084573745728e-02
-1.620112359523773193e-02 -3.503482341766357422e-01 6.070432662963867188e-01
-1.749299019575119019e-01 -1.956370174884796143e-01 6.416884660720825195e-01
3.569298237562179565e-02 -4.051166772842407227e-02 9.171174168586730957e-01
2.209628522396087646e-01 -7.177439332008361816e-02 5.516940355300903320e-01
5.058646574616432190e-02 -3.200942873954772949e-01 6.920730471611022949e-01
9.890895336866378784e-02 -2.114382386207580566e-02 -6.692569255828857422e-01
1.025374680757522583e-01 -1.340457051992416382e-01 8.753527998924255371e-01
1.753484457731246948e-01 -5.931730568408966064e-02 7.190862298011779785e-01
2.217609584331512451e-01 2.357948571443557739e-02 -1.113084256649017334e-01
2.166393548250198364e-01 -2.877047657966613770e-01 3.359093666076660156e-01
-1.887456774711608887e-01 1.260409057140350342e-01 4.190916568040847778e-02
1.372230201959609985e-01 -5.070813745260238647e-02 8.066837787628173828e-01
2.161358892917633057e-01 -3.635705262422561646e-02 -3.353310525417327881e-01
-4.812735691666603088e-02 1.633625030517578125e-01 5.179892778396606445e-01
-7.976963371038436890e-02 1.603870391845703125e-01 -2.886010110378265381e-01
1.292089819908142090e-01 -1.019640564918518066e-01 8.389625549316406250e-01
2.742982655763626099e-02 1.213369145989418030e-01 6.755623817443847656e-01
-2.268320173025131226e-01 6.849683076143264771e-02 1.782084554433822632e-01
-4.471871629357337952e-02 2.026400864124298096e-01 1.003226041793823242e-01
