4.635429382324218750e-01 -6.808579564094543457e-01 2.917258441448211670e-01
4.744397401809692383e-01 -7.533106803894042969e-01 3.086312413215637207e-01
4.895603954792022705e-01 -6.562157869338989258e-01 2.983616292476654053e-01
4.414149820804595947e-01 -7.355508804321289062e-01 3.387228846549987793e-01
4.654190838336944580e-01 -7.460633516311645508e-01 3.492346107959747314e-01
4.925405979156494141e-01 -6.273312568664550781e-01 3.308627605438232422e-01
4.358130991458892822e-01 -7.337836623191833496e-01 3.284721970558166504e-01
4.876827001571655273e-01 -6.636005043983459473e-01 2.974023818969726562e-01
4.432662129402160645e-01 -7.478076219558715820e-01 2.945422530174255371e-01
4.450127482414245605e-01 -7.178111076354980469e-01 3.366874456405639648e-01
4.909245669841766357e-01 -6.992302536964416504e-01 3.347226679325103760e-01
4.549594223499298096e-01 -6.667006015777587891e-01 3.056847155094146729e-01
4.803141653537750244e-01 -7.482935786247253418e-01 3.320556282997131348e-01
4.950614273548126221e-01 -6.702464818954467773e-01 3.339346647262573242e-01
4.342191815376281738e-01 -7.305968999862670898e-01 3.143749833106994629e-01
4.627248048782348633e-01 -6.667793989181518555e-01 2.948892414569854736e-01
4.815019667148590088e-01 -6.216947436332702637e-01 3.257451355457305908e-01
4.874715209007263184e-01 -7.214147448539733887e-01 3.314561545848846436e-01
4.735313355922698975e-01 -7.457642555236816406e-01 3.450835347175598145e-01
4.274021387100219727e-01 -8.176728487014770508e-01 3.089233338832855225e-01
4.622662961483001709e-01 -7.575479745864868164e-01 2.977959513664245605e-01
4.660521745681762695e-01 -6.870763301849365234e-01 3.437888622283935547e-01
4.761679768562316895e-01 -6.879701018333435059e-01 3.457357883453369141e-01
4.769571125507354736e-01 -7.422334551811218262e-01 3.425595760345458984e-01
4.549507498741149902e-01 -7.000613212585449219e-01 2.925047278404235840e-01
4.748173356056213379e-01 -6.575329303741455078e-01 2.928790152072906494e-01
4.919906854629516602e-01 -6.439256668090820312e-01 3.354900777339935303e-01
4.832710325717926025e-01 -7.401338815689086914e-01 3.242680430412292480e-01
4.422472119331359863e-01 -7.661617398262023926e-01 2.955755889415740967e-01
4.714036583900451660e-01 -7.398189902305603027e-01 3.474802970886230469e-01
4.317425191402435303e-01 -7.620190978050231934e-01 3.029249608516693115e-01
4.981620013713836670e-01 -6.173074245452880859e-01 3.100845813751220703e-01
4.849635958671569824e-01 -6.101675033569335938e-01 3.159134984016418457e-01
4.983363449573516846e-01 -6.661439538002014160e-01 3.155174255371093750e-01
4.999041259288787842e-01 -6.520783901214599609e-01 3.250073790550231934e-01
4.831608831882476807e-01 -6.822822690010070801e-01 3.437454998493194580e-01
4.725633561611175537e-01 -6.438482403755187988e-01 2.963504195213317871e-01
5.001446604728698730e-01 -6.301990151405334473e-01 3.118056356906890869e-01
4.725368022918701172e-01 -7.335500121116638184e-01 2.984670698642730713e-01
4.774186015129089355e-01 -6.259294152259826660e-01 3.250942528247833252e-01
4.853368997573852539e-01 -6.794412136077880859e-01 2.973573803901672363e-01
4.837515950202941895e-01 -6.200439929962158203e-01 3.016449213027954102e-01
4.675307869911193848e-01 -7.360976338386535645e-01 3.491497337818145752e-01
4.483689963817596436e-01 -8.158249855041503906e-01 3.418694436550140381e-01
4.936235845088958740e-01 -6.394348144531250000e-01 3.014577329158782959e-01
4.828924238681793213e-01 -6.141263842582702637e-01 3.197284340858459473e-01
4.485706984996795654e-01 -8.092059493064880371e-01 3.079522848129272461e-01
4.585002958774566650e-01 -7.116916179656982422e-01 3.459023237228393555e-01
4.218398928642272949e-01 -8.059565424919128418e-01 3.241518735885620117e-01
4.232840836048126221e-01 -8.349283933639526367e-01 3.271225690841674805e-01
4.417269825935363770e-01 -8.040971159934997559e-01 3.460025787353515625e-01
4.337324202060699463e-01 -7.907825708389282227e-01 3.008777499198913574e-01
4.932911396026611328e-01 -6.556276082992553711e-01 3.362067639827728271e-01
4.449314475059509277e-01 -8.131265044212341309e-01 3.442287147045135498e-01
4.379923045635223389e-01 -7.437875270843505859e-01 3.371486961841583252e-01
4.638873338699340820e-01 -6.441610455513000488e-01 3.180860877037048340e-01
4.698314964771270752e-01 -7.113634347915649414e-01 2.924278974533081055e-01
4.818632304668426514e-01 -7.287087440490722656e-01 3.404027819633483887e-01
4.861625730991363525e-01 -6.262685060501098633e-01 3.307187259197235107e-01
4.894694089889526367e-01 -6.088517904281616211e-01 3.085306286811828613e-01
4.290788173675537109e-01 -7.954865097999572754e-01 3.382059037685394287e-01
4.387764334678649902e-01 -7.179843187332153320e-01 3.244847655296325684e-01
4.530581235885620117e-01 -6.789477467536926270e-01 3.281307816505432129e-01
4.303033351898193359e-01 -7.513520121574401855e-01 3.100073933601379395e-01
4.948800802230834961e-01 -6.866524219512939453e-01 3.293858468532562256e-01
4.551695287227630615e-01 -6.871025562286376953e-01 3.358617424964904785e-01
4.954585134983062744e-01 -6.141461133956909180e-01 3.075802624225616455e-01
4.487434327602386475e-01 -7.480324506759643555e-01 3.472584784030914307e-01
4.508301019668579102e-01 -7.016869783401489258e-01 3.371884226799011230e-01
4.837615191936492920e-01 -7.139061093330383301e-01 3.044349253177642822e-01
4.430996477603912354e-01 -7.106469869613647461e-01 3.009011149406433105e-01
4.538245499134063721e-01 -6.954057812690734863e-01 2.939041256904602051e-01
4.636431634426116943e-01 -7.256466746330261230e-01 2.921014726161956787e-01
4.551588594913482666e-01 -7.928639650344848633e-01 3.460223674774169922e-01
4.444742202758789062e-01 -7.248229980468750000e-01 2.955485582351684570e-01
4.472551941871643066e-01 -6.898489594459533691e-01 3.048592209815979004e-01
4.541397690773010254e-01 -7.842893600463867188e-01 3.012331128120422363e-01
4.791260659694671631e-01 -7.376061677932739258e-01 3.078933358192443848e-01
4.498334825038909912e-01 -7.411153316497802734e-01 2.924999296665191650e-01
4.697297811508178711e-01 -7.809008955955505371e-01 3.320333063602447510e-01
4.514369368553161621e-01 -6.834867596626281738e-01 3.282922804355621338e-01
4.302456676959991455e-01 -7.525875568389892578e-01 3.251896500587463379e-01
4.540112018585205078e-01 -7.047474384307861328e-01 3.413415551185607910e-01
4.312451779842376709e-01 -8.316978216171264648e-01 3.380022346973419189e-01
4.787069857120513916e-01 -7.255508899688720703e-01 3.021044731140136719e-01
4.702460169792175293e-01 -6.458095312118530273e-01 3.310576677322387695e-01
4.612733423709869385e-01 -7.272906303405761719e-01 3.490139842033386230e-01
4.295260906219482422e-01 -7.511150240898132324e-01 3.161267340183258057e-01
4.218648970127105713e-01 -8.228535056114196777e-01 3.266611397266387939e-01
4.682473540306091309e-01 -7.655888795852661133e-01 3.446041941642761230e-01
4.651994407176971436e-01 -7.794281840324401855e-01 3.427548706531524658e-01
4.677496254444122314e-01 -6.362991333007812500e-01 3.181051909923553467e-01
4.214045107364654541e-01 -8.166350126266479492e-01 3.197396397590637207e-01
4.446362257003784180e-01 -7.798869609832763672e-01 2.971776127815246582e-01
4.733092784881591797e-01 -6.991422772407531738e-01 2.924621403217315674e-01
4.565748274326324463e-01 -6.880269646644592285e-01 2.936230301856994629e-01
4.290487170219421387e-01 -8.366355895996093750e-01 3.350003063678741455e-01
4.649530649185180664e-01 -7.733479142189025879e-01 3.059516549110412598e-01
4.390909075736999512e-01 -7.910717725753784180e-01 2.994259893894195557e-01
4.522762596607208252e-01 -7.107431292533874512e-01 2.925185859203338623e-01
4.438661634922027588e-01 -6.963221430778503418e-01 3.171932399272918701e-01
4.255670309066772461e-01 -8.318188786506652832e-01 3.151301145553588867e-01
4.352129101753234863e-01 -7.786675095558166504e-01 2.991122603416442871e-01
4.435084760189056396e-01 -8.340743780136108398e-01 3.327205777168273926e-01
4.422259032726287842e-01 -7.208539247512817383e-01 3.340349495410919189e-01
4.683493673801422119e-01 -7.352890372276306152e-01 2.958744168281555176e-01
4.926826357841491699e-01 -6.857358217239379883e-01 3.086158633232116699e-01
4.799691438674926758e-01 -6.350008845329284668e-01 2.967931628227233887e-01
4.927185177803039551e-01 -6.966876983642578125e-01 3.149924278259277344e-01
4.902456700801849365e-01 -6.710895299911499023e-01 3.007958233356475830e-01
4.479938447475433350e-01 -6.971087455749511719e-01 3.309341669082641602e-01
4.650492966175079346e-01 -7.779996395111083984e-01 3.085439503192901611e-01
4.497279822826385498e-01 -8.098421096801757812e-01 3.435144126415252686e-01
4.561731517314910889e-01 -6.811929941177368164e-01 3.342455029487609863e-01
4.870203435420989990e-01 -6.694362759590148926e-01 2.974463701248168945e-01
4.236304759979248047e-01 -7.858269810676574707e-01 3.211210966110229492e-01
4.610393047332763672e-01 -6.604093909263610840e-01 3.287052512168884277e-01
4.856715798377990723e-01 -6.542918086051940918e-01 2.957155108451843262e-01
4.741193056106567383e-01 -7.577738165855407715e-01 3.405224084854125977e-01
4.388443231582641602e-01 -7.597782611846923828e-01 3.423825502395629883e-01
4.418396055698394775e-01 -7.025007009506225586e-01 3.141890168190002441e-01
4.530824720859527588e-01 -8.178291320800781250e-01 3.345322310924530029e-01
4.718571901321411133e-01 -6.652850508689880371e-01 3.402891755104064941e-01
4.410548508167266846e-01 -7.734439969062805176e-01 2.965395748615264893e-01
4.819205999374389648e-01 -7.198689579963684082e-01 3.425830304622650146e-01
4.373110532760620117e-01 -7.196835875511169434e-01 3.198382258415222168e-01
4.266689121723175049e-01 -8.242242932319641113e-01 3.360088169574737549e-01
4.785485863685607910e-01 -6.471851468086242676e-01 2.943106293678283691e-01
4.572129249572753906e-01 -7.866092920303344727e-01 3.465862572193145752e-01
4.722630679607391357e-01 -7.598083615303039551e-01 3.088071346282958984e-01
4.407851994037628174e-01 -7.462800741195678711e-01 3.411628901958465576e-01
4.916790723800659180e-01 -7.058004140853881836e-01 3.201834261417388916e-01
4.261439442634582520e-01 -8.326196074485778809e-01 3.337514102458953857e-01
4.272688627243041992e-01 -7.857378125190734863e-01 3.336019515991210938e-01
4.407796263694763184e-01 -7.584773302078247070e-01 2.956837415695190430e-01
4.399705827236175537e-01 -8.383212089538574219e-01 3.225267231464385986e-01
4.492596387863159180e-01 -7.184984087944030762e-01 3.414689302444458008e-01
4.612861871719360352e-01 -7.146727442741394043e-01 2.907831370830535889e-01
4.746171236038208008e-01 -7.394706010818481445e-01 3.024561107158660889e-01
4.841052889823913574e-01 -7.322908043861389160e-01 3.158593475818634033e-01
4.930625855922698975e-01 -6.791812181472778320e-01 3.068800866603851318e-01
4.241640269756317139e-01 -8.162801861763000488e-01 3.328520655632019043e-01
4.492126107215881348e-01 -6.903127431869506836e-01 3.287742733955383301e-01
4.904261827468872070e-01 -6.839617490768432617e-01 3.387185633182525635e-01
4.490506350994110107e-01 -6.806252598762512207e-01 3.169921636581420898e-01
4.692498743534088135e-01 -6.834100484848022461e-01 2.909142971038818359e-01
4.400694966316223145e-01 -7.089980244636535645e-01 3.119035363197326660e-01
4.297454655170440674e-01 -8.447736501693725586e-01 3.281691372394561768e-01
4.816998839378356934e-01 -6.440342664718627930e-01 3.367336094379425049e-01
4.221924841403961182e-01 -8.115323781967163086e-01 3.275473117828369141e-01
4.460554420948028564e-01 -7.046909332275390625e-01 2.988418042659759521e-01
4.683382511138916016e-01 -7.438933849334716797e-01 2.980761229991912842e-01
4.562145471572875977e-01 -7.777675390243530273e-01 3.002643585205078125e-01
4.217483401298522949e-01 -8.274526596069335938e-01 3.229146599769592285e-01
4.546640813350677490e-01 -8.052635192871093750e-01 3.419103324413299561e-01
4.550420045852661133e-01 -7.408506274223327637e-01 2.922768294811248779e-01
4.702073037624359131e-01 -6.665058135986328125e-01 2.921327054500579834e-01
4.901151657104492188e-01 -6.149340271949768066e-01 3.040102124214172363e-01
4.593652486801147461e-01 -7.062362432479858398e-01 3.451727926731109619e-01
4.481710493564605713e-01 -8.278063535690307617e-01 3.238444626331329346e-01
4.726644456386566162e-01 -7.684425115585327148e-01 3.160777986049652100e-01
4.441796541213989258e-01 -7.411817312240600586e-01 3.430480957031250000e-01
4.445496797561645508e-01 -8.189479112625122070e-01 3.424656689167022705e-01
4.785511493682861328e-01 -7.560620307922363281e-01 3.250784575939178467e-01
4.695494174957275391e-01 -7.644915580749511719e-01 3.073221147060394287e-01
4.463268816471099854e-01 -7.103857994079589844e-01 2.967820465564727783e-01
4.782837331295013428e-01 -7.522963881492614746e-01 3.352195024490356445e-01
4.909152686595916748e-01 -7.005743980407714844e-01 3.119607269763946533e-01
4.688772261142730713e-01 -6.507690548896789551e-01 3.324724137783050537e-01
4.329023361206054688e-01 -7.734379172325134277e-01 3.005928397178649902e-01
4.735857546329498291e-01 -6.422097086906433105e-01 3.320723474025726318e-01
4.876121878623962402e-01 -7.092403173446655273e-01 3.090114593505859375e-01
4.369494915008544922e-01 -8.221359848976135254e-01 3.422051370143890381e-01
4.961047470569610596e-01 -6.839112043380737305e-01 3.201918303966522217e-01
4.788399934768676758e-01 -7.544363737106323242e-01 3.300221562385559082e-01
4.295924901962280273e-01 -7.729138135910034180e-01 3.043096959590911865e-01
4.601171612739562988e-01 -6.632321476936340332e-01 2.985456585884094238e-01
4.728741347789764404e-01 -6.570512056350708008e-01 3.380375206470489502e-01
4.367799162864685059e-01 -7.564655542373657227e-01 3.394775986671447754e-01
4.411798119544982910e-01 -7.112368345260620117e-01 3.258540332317352295e-01
4.633999168872833252e-01 -6.453393101692199707e-01 3.070939183235168457e-01
4.827065467834472656e-01 -6.852446198463439941e-01 2.961241602897644043e-01
4.519243538379669189e-01 -8.111581802368164062e-01 3.123666048049926758e-01
4.601636230945587158e-01 -7.432472109794616699e-01 2.936325967311859131e-01
5.007733702659606934e-01 -6.473720073699951172e-01 3.191122114658355713e-01
4.288664758205413818e-01 -7.570627927780151367e-01 3.232636153697967529e-01
4.452841281890869141e-01 -7.015208601951599121e-01 3.285190165042877197e-01
4.661381840705871582e-01 -6.434888839721679688e-01 3.235361874103546143e-01
4.996500909328460693e-01 -6.466234922409057617e-01 3.267267346382141113e-01
4.225142002105712891e-01 -7.963301539421081543e-01 3.227710723876953125e-01
4.820798933506011963e-01 -7.095701694488525391e-01 3.008134365081787109e-01
4.297066330909729004e-01 -7.892986536026000977e-01 3.034485876560211182e-01
4.423126280307769775e-01 -7.038828134536743164e-01 3.220298886299133301e-01
4.510841369628906250e-01 -7.026073336601257324e-01 2.943984568119049072e-01
4.731270670890808105e-01 -6.483027338981628418e-01 3.346903026103973389e-01
4.265083372592926025e-01 -7.797159552574157715e-01 3.086107671260833740e-01
4.612115323543548584e-01 -7.678964138031005859e-01 3.483941853046417236e-01
4.850541651248931885e-01 -7.327301502227783203e-01 3.209984302520751953e-01
4.276874065399169922e-01 -8.275544047355651855e-01 3.117563128471374512e-01
4.322185516357421875e-01 -7.829670310020446777e-01 3.011908531188964844e-01
4.659124016761779785e-01 -7.744511365890502930e-01 3.439249098300933838e-01
4.571811556816101074e-01 -8.116119503974914551e-01 3.306323885917663574e-01
4.713861048221588135e-01 -7.317721247673034668e-01 3.481730818748474121e-01
4.877058565616607666e-01 -6.879101395606994629e-01 3.410947024822235107e-01
4.715656936168670654e-01 -7.711226940155029297e-01 3.373037278652191162e-01
4.219298362731933594e-01 -8.109285235404968262e-01 3.166278898715972900e-01
4.652043879032135010e-01 -7.936885952949523926e-01 3.285915851593017578e-01
4.930679798126220703e-01 -6.131590604782104492e-01 3.236920833587646484e-01
4.235326647758483887e-01 -8.155259490013122559e-01 3.128621578216552734e-01
4.888029396533966064e-01 -6.640348434448242188e-01 3.398768305778503418e-01
4.351224005222320557e-01 -7.376208305358886719e-01 3.041398823261260986e-01
4.702126681804656982e-01 -7.267457246780395508e-01 2.951407432556152344e-01
4.757463932037353516e-01 -7.613796591758728027e-01 3.345269262790679932e-01
4.809008836746215820e-01 -6.139017343521118164e-01 3.121781051158905029e-01
4.542537331581115723e-01 -8.051295876502990723e-01 3.111228644847869873e-01
4.703312516212463379e-01 -6.782010197639465332e-01 3.432317376136779785e-01
4.503819644451141357e-01 -6.910701394081115723e-01 2.983438372611999512e-01
5.003589987754821777e-01 -6.392612457275390625e-01 3.246245384216308594e-01
4.546526074409484863e-01 -7.638222575187683105e-01 3.497014939785003662e-01
4.733715951442718506e-01 -7.704333662986755371e-01 3.213540017604827881e-01
4.516997635364532471e-01 -8.157694935798645020e-01 3.157152533531188965e-01
4.668681025505065918e-01 -6.934597492218017578e-01 3.454779684543609619e-01
4.527548551559448242e-01 -7.257224321365356445e-01 3.457317352294921875e-01
4.428333938121795654e-01 -7.054765820503234863e-01 3.042914271354675293e-01
4.252459704875946045e-01 -7.959238290786743164e-01 3.322458565235137939e-01
4.755590558052062988e-01 -6.339387297630310059e-01 3.289880752563476562e-01
4.816685318946838379e-01 -7.196930050849914551e-01 3.037117123603820801e-01
4.307295680046081543e-01 -7.715902328491210938e-01 3.354879319667816162e-01
4.671895205974578857e-01 -7.886490821838378906e-01 3.260470032691955566e-01
4.313341975212097168e-01 -8.065459728240966797e-01 3.411599695682525635e-01
4.615931510925292969e-01 -7.744022607803344727e-01 3.470911383628845215e-01
4.331313073635101318e-01 -7.626546025276184082e-01 3.364601731300354004e-01
4.504083096981048584e-01 -7.357640266418457031e-01 2.922192811965942383e-01
4.994316101074218750e-01 -6.617192625999450684e-01 3.199211359024047852e-01
4.526680707931518555e-01 -8.208138942718505859e-01 3.286355733871459961e-01
4.835522770881652832e-01 -6.458678245544433594e-01 2.952428460121154785e-01
4.968186914920806885e-01 -6.454052925109863281e-01 3.056704103946685791e-01
4.781412780284881592e-01 -7.162070870399475098e-01 3.459890186786651611e-01
4.378505349159240723e-01 -7.733776569366455078e-01 3.437998592853546143e-01
4.276493787765502930e-01 -8.428198099136352539e-01 3.217858672142028809e-01
4.628860056400299072e-01 -7.168318033218383789e-01 3.481930494308471680e-01
4.494130909442901611e-01 -7.402495741844177246e-01 3.464716970920562744e-01
4.783124923706054688e-01 -6.618232131004333496e-01 3.411821722984313965e-01
4.414625763893127441e-01 -7.705361843109130859e-01 3.459339737892150879e-01
4.801322221755981445e-01 -6.303055286407470703e-01 2.982233762741088867e-01
4.852951765060424805e-01 -7.328501343727111816e-01 3.257536590099334717e-01
4.720502197742462158e-01 -7.438552975654602051e-01 3.013089895248413086e-01
4.817005395889282227e-01 -6.170700192451477051e-01 3.047160208225250244e-01
4.520902633666992188e-01 -6.747035384178161621e-01 3.055229187011718750e-01
4.311933815479278564e-01 -8.203406333923339844e-01 3.078621327877044678e-01
4.847734570503234863e-01 -6.126229166984558105e-01 3.065792322158813477e-01
4.889936447143554688e-01 -7.114542722702026367e-01 3.138533532619476318e-01
4.548683464527130127e-01 -6.716943383216857910e-01 3.014843761920928955e-01
4.692924022674560547e-01 -7.801554799079895020e-01 3.190645277500152588e-01
4.909077882766723633e-01 -6.659609079360961914e-01 3.006893992424011230e-01
4.316324889659881592e-01 -8.207931518554687500e-01 3.404962420463562012e-01
4.775117933750152588e-01 -7.479352951049804688e-01 3.396304845809936523e-01
4.893981516361236572e-01 -6.763603091239929199e-01 3.008241653442382812e-01
4.846962392330169678e-01 -7.234864234924316406e-01 3.107512891292572021e-01
4.682228267192840576e-01 -7.045968174934387207e-01 3.475356996059417725e-01
4.565342664718627930e-01 -7.479534149169921875e-01 3.496769666671752930e-01
4.994069039821624756e-01 -6.285576820373535156e-01 3.251481950283050537e-01
4.315967559814453125e-01 -7.451648116111755371e-01 3.238444030284881592e-01
4.344875514507293701e-01 -7.422834634780883789e-01 3.035766184329986572e-01
4.589654207229614258e-01 -8.028503656387329102e-01 3.378075957298278809e-01
4.314752221107482910e-01 -8.332787156105041504e-01 3.131996989250183105e-01
4.503003358840942383e-01 -6.827425360679626465e-01 3.029597401618957520e-01
4.265950024127960205e-01 -7.663440108299255371e-01 3.190483450889587402e-01
4.463637471199035645e-01 -7.127117514610290527e-01 3.363308310508728027e-01
4.588108062744140625e-01 -6.745981574058532715e-01 3.340986967086791992e-01
4.882433712482452393e-01 -6.238543391227722168e-01 3.002596199512481689e-01
4.311550855636596680e-01 -7.548457384109497070e-01 3.057826161384582520e-01
4.357917308807373047e-01 -7.673572301864624023e-01 2.984843254089355469e-01
4.525586068630218506e-01 -7.648748755455017090e-01 2.954455018043518066e-01
4.645809829235076904e-01 -6.614294648170471191e-01 2.952628731727600098e-01
4.997429847717285156e-01 -6.240469813346862793e-01 3.228020071983337402e-01
4.715972542762756348e-01 -6.288180351257324219e-01 3.173485696315765381e-01
4.243701696395874023e-01 -7.899576425552368164e-01 3.116351366043090820e-01
4.260396659374237061e-01 -8.381053805351257324e-01 3.184360563755035400e-01
4.451097548007965088e-01 -7.581830620765686035e-01 3.466470539569854736e-01
4.436958134174346924e-01 -8.145684003829956055e-01 3.074468076229095459e-01
4.771405160427093506e-01 -7.370996475219726562e-01 3.437334895133972168e-01
4.496700763702392578e-01 -8.016685247421264648e-01 3.051873743534088135e-01
4.623108804225921631e-01 -7.918381094932556152e-01 3.401800394058227539e-01
4.533089101314544678e-01 -6.806630492210388184e-01 2.989463806152343750e-01
4.471623003482818604e-01 -7.665691971778869629e-01 3.482970297336578369e-01
4.768192470073699951e-01 -6.197302341461181641e-01 3.096925914287567139e-01
4.762287139892578125e-01 -7.121593952178955078e-01 2.961113750934600830e-01
4.622072875499725342e-01 -6.948146820068359375e-01 3.439213037490844727e-01
4.511055350303649902e-01 -7.289428114891052246e-01 2.920023798942565918e-01
4.725175797939300537e-01 -6.336605548858642578e-01 3.253089487552642822e-01
4.290418028831481934e-01 -7.651503086090087891e-01 3.296298980712890625e-01
4.562807381153106689e-01 -8.107334375381469727e-01 3.356287777423858643e-01
4.917213320732116699e-01 -7.062503695487976074e-01 3.257433176040649414e-01
5.003240108489990234e-01 -6.238291263580322266e-01 3.136956691741943359e-01
4.610361754894256592e-01 -7.734426856040954590e-01 3.021377921104431152e-01
4.573163092136383057e-01 -7.303574085235595703e-01 2.914952337741851807e-01
4.372507631778717041e-01 -7.643341422080993652e-01 3.417917788028717041e-01
4.946954846382141113e-01 -6.488771438598632812e-01 3.343831896781921387e-01
4.972083866596221924e-01 -6.346484422683715820e-01 3.057412803173065186e-01
4.867899417877197266e-01 -7.251170277595520020e-01 3.189888298511505127e-01
4.311513602733612061e-01 -8.052106499671936035e-01 3.041740953922271729e-01
4.463362693786621094e-01 -6.884551644325256348e-01 3.164331316947937012e-01
4.967973828315734863e-01 -6.636428236961364746e-01 3.093985617160797119e-01
4.442182779312133789e-01 -7.383679151535034180e-01 2.943667471408843994e-01
4.951680898666381836e-01 -6.788852810859680176e-01 3.319398164749145508e-01
4.768039882183074951e-01 -7.170605063438415527e-01 2.976787388324737549e-01
4.703259170055389404e-01 -7.502506375312805176e-01 3.018963336944580078e-01
4.640522599220275879e-01 -6.976437568664550781e-01 2.905571758747100830e-01
4.378075003623962402e-01 -8.365901112556457520e-01 3.176206350326538086e-01
4.812827408313751221e-01 -6.384294033050537109e-01 3.345943987369537354e-01
4.983234405517578125e-01 -6.624889969825744629e-01 3.280435800552368164e-01
4.905215501785278320e-01 -6.831870675086975098e-01 3.039328455924987793e-01
4.596910178661346436e-01 -6.808019280433654785e-01 3.377704620361328125e-01
4.315524101257324219e-01 -7.425723671913146973e-01 3.130829632282257080e-01
4.369763135910034180e-01 -7.314709424972534180e-01 3.030161857604980469e-01
4.852670431137084961e-01 -7.305160164833068848e-01 3.313932716846466064e-01
4.627615809440612793e-01 -7.967697381973266602e-01 3.197377920150756836e-01
4.644041359424591064e-01 -7.654988169670104980e-01 3.019971549510955811e-01
4.670053124427795410e-01 -7.872231006622314453e-01 3.336989283561706543e-01
4.810585379600524902e-01 -7.478817105293273926e-01 3.263973891735076904e-01
4.444105029106140137e-01 -7.070023417472839355e-01 3.303656280040740967e-01
4.868783950805664062e-01 -7.193688750267028809e-01 3.135158419609069824e-01
4.969527125358581543e-01 -6.308276653289794922e-01 3.291562795639038086e-01
4.368512034416198730e-01 -8.421381711959838867e-01 3.298696279525756836e-01
4.369162619113922119e-01 -8.324146866798400879e-01 3.137946426868438721e-01
4.842365980148315430e-01 -7.126662731170654297e-01 3.414800465106964111e-01
4.381420612335205078e-01 -8.166350722312927246e-01 3.435539305210113525e-01
4.925112426280975342e-01 -6.924224495887756348e-01 3.114619255065917969e-01
4.518225193023681641e-01 -7.585799098014831543e-01 3.492604196071624756e-01
4.966457188129425049e-01 -6.744335293769836426e-01 3.293403685092926025e-01
4.388715326786041260e-01 -7.153972387313842773e-01 3.084487915039062500e-01
4.757971465587615967e-01 -7.616296410560607910e-01 3.186096251010894775e-01
4.326987862586975098e-01 -7.504543662071228027e-01 3.041671514511108398e-01
4.693954288959503174e-01 -7.730101346969604492e-01 3.124019801616668701e-01
4.335098564624786377e-01 -7.910757064819335938e-01 3.422338068485260010e-01
4.944559931755065918e-01 -6.201704740524291992e-01 3.044692873954772949e-01
5.323109030723571777e-02 -1.230958625674247742e-01 1.272199749946594238e-01
5.520947277545928955e-02 -1.137460470199584961e-01 -9.729640185832977295e-02
1.688393801450729370e-01 -7.821599394083023071e-02 2.398398816585540771e-01
7.568940520286560059e-02 -6.765059381723403931e-02 1.407457143068313599e-01
2.127329856157302856e-01 -1.615102440118789673e-01 -1.950357556343078613e-01
5.189431309700012207e-01 -1.192837357521057129e-01 2.199733257293701172e-02
1.600335836410522461e-01 -1.527146250009536743e-01 -1.767710298299789429e-01
4.283777773380279541e-01 -2.252086699008941650e-01 8.435454964637756348e-02
5.044908821582794189e-02 -9.210657328367233276e-02 -9.767237305641174316e-02
2.102585434913635254e-01 -3.647863864898681641e-02 1.442905813455581665e-01
4.473531842231750488e-01 -2.005293816328048706e-01 -8.778946101665496826e-02
5.103177428245544434e-01 -1.183565184473991394e-01 -3.521110117435455322e-02
7.119272649288177490e-02 -1.420813053846359253e-01 1.377021074295043945e-01
4.886260628700256348e-01 -1.775881797075271606e-01 -8.938550204038619995e-02
3.412522673606872559e-01 -4.014252871274948120e-02 8.579541742801666260e-02
2.293340563774108887e-01 -2.511651068925857544e-02 -6.692279130220413208e-02
4.349669516086578369e-01 -2.096076309680938721e-01 -6.808628886938095093e-02
1.830048859119415283e-01 -3.680407255887985229e-02 1.397721916437149048e-01
2.111003100872039795e-01 -1.759342253208160400e-01 -1.660621464252471924e-01
4.174289107322692871e-01 -2.104818224906921387e-01 -7.942847162485122681e-02
1.364176422357559204e-01 -2.840063720941543579e-02 4.825734719634056091e-02
4.490042924880981445e-01 -2.216122746467590332e-01 6.612136960029602051e-02
5.272693037986755371e-01 -1.395145058631896973e-01 9.295684099197387695e-02
3.519605696201324463e-01 -4.029317200183868408e-02 -4.476593434810638428e-02
2.449816167354583740e-01 -5.124150961637496948e-02 1.980629414319992065e-01
1.194372028112411499e-01 -1.805598884820938110e-01 1.100893840193748474e-01
1.835767328739166260e-01 -6.608611345291137695e-02 2.255461961030960083e-01
5.785974860191345215e-02 -1.046698540449142456e-01 1.495336741209030151e-01
2.988349199295043945e-01 -2.050411701202392578e-01 2.276775687932968140e-01
3.585878610610961914e-01 -1.270606815814971924e-01 2.905778288841247559e-01
3.672673404216766357e-01 -8.614063262939453125e-02 2.379354089498519897e-01
2.387313097715377808e-01 -1.748939305543899536e-01 2.685660123825073242e-01
4.513660073280334473e-01 -1.866522133350372314e-01 -1.183577179908752441e-01
9.538978338241577148e-02 -1.673395484685897827e-01 -3.611130267381668091e-02
5.463208258152008057e-02 -5.504512041807174683e-02 3.729194402694702148e-02
1.985669434070587158e-01 -5.647247284650802612e-02 -1.897146999835968018e-01
9.088526666164398193e-02 -1.596513837575912476e-01 1.343808919191360474e-01
3.592792749404907227e-01 -2.255848348140716553e-01 -2.661713398993015289e-02
1.306211352348327637e-01 -5.401881784200668335e-02 1.695884168148040771e-01
3.195081353187561035e-01 -1.934120059013366699e-01 -1.581437140703201294e-01
3.848898410797119141e-01 -4.707679152488708496e-02 2.558045275509357452e-02
2.779765725135803223e-01 -2.933458983898162842e-02 7.831076532602310181e-02
3.586425483226776123e-01 -2.065976858139038086e-01 -1.180752217769622803e-01
4.295852780342102051e-01 -7.436430454254150391e-02 -9.509190917015075684e-02
3.126818537712097168e-01 -2.261141538619995117e-01 -1.248115114867687225e-02
1.557585895061492920e-01 -2.520129084587097168e-02 -3.944604843854904175e-02
5.215733647346496582e-01 -1.814577430486679077e-01 7.963385432958602905e-04
3.744194805622100830e-01 -6.159717589616775513e-02 1.629106104373931885e-01
4.562134146690368652e-01 -9.894248843193054199e-02 -1.203741133213043213e-01
2.757949829101562500e-01 -2.024382352828979492e-01 -1.232753396034240723e-01
3.128130435943603516e-01 -1.694669872522354126e-01 -2.039757519960403442e-01
4.300276637077331543e-01 -1.937894970178604126e-01 -1.209776997566223145e-01
4.892691969871520996e-02 -1.273755729198455811e-01 1.059434115886688232e-01
3.349784612655639648e-01 -6.284945458173751831e-02 -1.720005869865417480e-01
3.003471493721008301e-01 -4.859857261180877686e-02 1.727617233991622925e-01
3.019735217094421387e-01 -3.166996687650680542e-02 7.084748148918151855e-02
4.222180843353271484e-01 -2.030471861362457275e-01 2.126661986112594604e-01
3.787133097648620605e-01 -4.734855145215988159e-02 6.566771864891052246e-02
1.079103797674179077e-01 -3.289657831192016602e-02 -2.807071991264820099e-02
5.013670325279235840e-01 -1.957065314054489136e-01 1.239778026938438416e-01
1.634153127670288086e-01 -1.983345597982406616e-01 1.110589727759361267e-01
2.557187974452972412e-01 -2.208666205406188965e-01 -2.156322821974754333e-03
4.881466925144195557e-01 -9.401604533195495605e-02 6.188655644655227661e-02
4.454047679901123047e-01 -1.473998427391052246e-01 2.478284984827041626e-01
7.015234231948852539e-02 -4.788577556610107422e-02 5.197000503540039062e-02
4.834802746772766113e-01 -9.799859672784805298e-02 1.116459667682647705e-01
2.670996785163879395e-01 -4.669339954853057861e-02 1.791276037693023682e-01
4.280115067958831787e-01 -6.188637018203735352e-02 3.829037770628929138e-03
3.807383179664611816e-01 -5.577689409255981445e-02 -9.973965585231781006e-02
2.869851291179656982e-01 -1.477597206830978394e-01 3.026397526264190674e-01
3.089118897914886475e-01 -1.437823027372360229e-01 -2.309101670980453491e-01
1.282419264316558838e-01 -1.805930435657501221e-01 1.364029496908187866e-01
2.717891335487365723e-01 -2.201576828956604004e-01 -3.136990964412689209e-02
2.997157573699951172e-01 -1.021142005920410156e-01 -2.367571145296096802e-01
4.963205456733703613e-01 -2.005768418312072754e-01 -2.933738753199577332e-03
3.650738596916198730e-01 -1.543749272823333740e-01 -2.110206484794616699e-01
1.790686249732971191e-01 -3.016152232885360718e-02 -9.978188574314117432e-02
2.789294421672821045e-01 -2.122380733489990234e-01 -8.484670519828796387e-02
1.130515336990356445e-01 -1.539982259273529053e-01 1.928917616605758667e-01
5.532667040824890137e-02 -6.048888713121414185e-02 -6.079518049955368042e-02
3.537123501300811768e-01 -7.587338984012603760e-02 -1.870051026344299316e-01
4.559052884578704834e-01 -2.191231250762939453e-01 3.085509873926639557e-02
1.697923243045806885e-01 -2.023252844810485840e-01 8.788972347974777222e-02
4.459944963455200195e-01 -7.054221630096435547e-02 -1.619916222989559174e-02
3.443281352519989014e-01 -5.141736567020416260e-02 -1.283484846353530884e-01
4.373354911804199219e-01 -1.301318556070327759e-01 -1.749448925256729126e-01
2.566584348678588867e-01 -1.943677067756652832e-01 -1.413549035787582397e-01
3.504417538642883301e-01 -2.161702513694763184e-01 1.971915513277053833e-01
1.817208528518676758e-01 -2.821406722068786621e-02 9.127307683229446411e-02
3.301795721054077148e-01 -2.171301692724227905e-01 1.920370757579803467e-01
4.006127417087554932e-01 -1.243086308240890503e-01 -2.025810182094573975e-01
3.092383742332458496e-01 -2.235157042741775513e-01 -3.332427144050598145e-02
1.451753228902816772e-01 -1.849232614040374756e-01 1.530961990356445312e-01
6.859719753265380859e-02 -1.180263832211494446e-01 1.659917682409286499e-01
3.181172609329223633e-01 -5.274119973182678223e-02 -1.553527712821960449e-01
2.247710227966308594e-01 -2.158186733722686768e-01 4.150610417127609253e-03
1.165527850389480591e-01 -1.757342666387557983e-01 -5.004368722438812256e-02
3.438191115856170654e-02 -9.515394270420074463e-02 -5.054689198732376099e-02
2.647110223770141602e-01 -2.617339044809341431e-02 -5.198814719915390015e-02
1.847924888134002686e-01 -5.590746551752090454e-02 2.035035341978073120e-01
1.201654374599456787e-01 -4.937788099050521851e-02 1.466217190027236938e-01
1.904379129409790039e-01 -2.071131169795989990e-01 -4.946036264300346375e-03
4.080839157104492188e-01 -1.899381875991821289e-01 -1.437084972858428955e-01
4.154938459396362305e-02 -1.037179157137870789e-01 -7.178691029548645020e-02
2.567355632781982422e-01 -2.819006890058517456e-02 8.558077365159988403e-02
3.772136270999908447e-01 -8.630882203578948975e-02 -1.875251531600952148e-01
1.268943548202514648e-01 -1.695305854082107544e-01 -9.891220927238464355e-02
3.804073631763458252e-01 -1.106365770101547241e-01 -2.099098861217498779e-01
4.218137264251708984e-01 -1.317653954029083252e-01 -1.884722113609313965e-01
2.122400104999542236e-01 -2.121390700340270996e-01 1.145540401339530945e-01
2.526221871376037598e-01 -2.157276868820190430e-01 1.544327884912490845e-01
2.700304985046386719e-02 -9.983699023723602295e-02 3.137194737792015076e-02
4.044813513755798340e-01 -7.924172282218933105e-02 1.897263377904891968e-01
5.090038776397705078e-01 -1.565109789371490479e-01 1.647864729166030884e-01
5.513109266757965088e-02 -1.367864310741424561e-01 -4.582279175519943237e-02
3.551441729068756104e-01 -2.223301231861114502e-01 1.680809855461120605e-01
9.691193699836730957e-02 -1.522368788719177246e-01 -1.023322045803070068e-01
4.281317889690399170e-01 -2.252814471721649170e-01 4.008979722857475281e-02
5.087651312351226807e-02 -6.381928175687789917e-02 7.445627450942993164e-02
2.647740542888641357e-01 -2.423974126577377319e-02 -1.110931299626827240e-02
5.116438865661621094e-01 -1.959550082683563232e-01 6.168152019381523132e-02
3.380781710147857666e-01 -4.453284293413162231e-02 1.224640980362892151e-01
6.280086934566497803e-02 -1.329720616340637207e-01 -8.112053573131561279e-02
4.351666569709777832e-01 -2.192734479904174805e-01 -1.634256727993488312e-02
2.322356104850769043e-01 -3.726316988468170166e-02 1.478468030691146851e-01
1.587235033512115479e-01 -9.507263451814651489e-02 2.532042860984802246e-01
2.855116128921508789e-02 -9.834218770265579224e-02 -1.690769009292125702e-02
1.934280693531036377e-01 -4.301146417856216431e-02 -1.562141627073287964e-01
4.185560345649719238e-01 -1.790037900209426880e-01 -1.574723720550537109e-01
3.259981274604797363e-01 -2.056881934404373169e-01 -1.231664866209030151e-01
8.731864392757415771e-02 -3.829514980316162109e-02 -9.838817641139030457e-03
8.127401769161224365e-02 -4.309276491403579712e-02 -4.646889120340347290e-02
5.089977979660034180e-01 -1.109452992677688599e-01 6.910267472267150879e-02
3.164499104022979736e-01 -4.628450423479080200e-02 -1.336715817451477051e-01
1.636430621147155762e-01 -1.686081588268280029e-01 2.268236726522445679e-01
3.552651405334472656e-01 -6.673960387706756592e-02 -1.664635390043258667e-01
4.913734495639801025e-01 -1.021668016910552979e-01 -4.643640667200088501e-02
1.798048913478851318e-01 -9.400097280740737915e-02 -2.236717790365219116e-01
3.888670802116394043e-01 -1.886642277240753174e-01 2.569466829299926758e-01
3.105561137199401855e-01 -2.229541838169097900e-01 1.549069583415985107e-01
8.213008940219879150e-02 -1.428523957729339600e-01 1.609140634536743164e-01
1.231465339660644531e-01 -3.326921910047531128e-02 -6.967954337596893311e-02
2.209604978561401367e-01 -1.452640295028686523e-01 -2.197078317403793335e-01
4.346320033073425293e-02 -6.228403747081756592e-02 1.834446936845779419e-02
2.709806263446807861e-01 -2.116686105728149414e-01 1.916656941175460815e-01
3.860364556312561035e-01 -2.298811674118041992e-01 8.356188982725143433e-02
4.436727166175842285e-01 -2.200398743152618408e-01 1.160587295889854431e-01
3.462932407855987549e-01 -2.107933461666107178e-01 2.165556401014328003e-01
2.979348897933959961e-01 -1.740681082010269165e-01 2.856208086013793945e-01
4.820078611373901367e-01 -8.862692117691040039e-02 1.785148307681083679e-02
2.786176204681396484e-01 -3.612338006496429443e-02 -1.154730916023254395e-01
5.154539346694946289e-01 -1.797948330640792847e-01 -2.799753658473491669e-02
2.445125430822372437e-01 -1.351649910211563110e-01 -2.340327948331832886e-01
7.003721594810485840e-02 -6.197902560234069824e-02 1.166227310895919800e-01
1.718890517950057983e-01 -1.923927366733551025e-01 1.671876162290573120e-01
4.033654332160949707e-01 -5.376680940389633179e-02 -2.259108982980251312e-02
5.007520318031311035e-01 -1.229822635650634766e-01 -7.628884166479110718e-02
3.739248812198638916e-01 -4.462016373872756958e-02 4.364984482526779175e-02
1.348683983087539673e-01 -3.358459472656250000e-02 -8.733979612588882446e-02
4.134536981582641602e-01 -1.381740719079971313e-01 2.689511179924011230e-01
3.320495784282684326e-02 -8.278012275695800781e-02 -3.588698059320449829e-02
3.749446272850036621e-01 -7.996866106986999512e-02 2.191484719514846802e-01
4.826367199420928955e-01 -1.814177185297012329e-01 1.933933794498443604e-01
9.263056516647338867e-02 -1.326120793819427490e-01 1.935458332300186157e-01
4.570148587226867676e-01 -1.612960249185562134e-01 -1.476204246282577515e-01
2.155224680900573730e-01 -2.146482914686203003e-01 9.040708839893341064e-02
5.080878734588623047e-01 -1.227205917239189148e-01 -5.522240698337554932e-02
1.979987025260925293e-01 -2.068163454532623291e-01 -2.769138105213642120e-02
4.048009812831878662e-01 -6.449747085571289062e-02 1.329837888479232788e-01
5.057786405086517334e-02 -7.698096334934234619e-02 1.105377823114395142e-01
3.444079160690307617e-01 -1.628397107124328613e-01 2.935557663440704346e-01
4.705207943916320801e-01 -8.541515469551086426e-02 8.298332244157791138e-02
7.132512331008911133e-02 -1.581920981407165527e-01 4.663316532969474792e-02
4.422693252563476562e-01 -8.883625268936157227e-02 1.682124882936477661e-01
1.611204743385314941e-01 -2.869644016027450562e-02 -8.023507148027420044e-02
3.265433013439178467e-01 -1.548339277505874634e-01 -2.199804931879043579e-01
9.494386613368988037e-02 -1.663322597742080688e-01 1.159549802541732788e-01
2.412665933370590210e-01 -2.756518125534057617e-02 -8.327397704124450684e-02
2.699528336524963379e-01 -2.251061946153640747e-01 7.631019502878189087e-02
3.365911245346069336e-01 -6.921664625406265259e-02 2.178678214550018311e-01
1.766099333763122559e-01 -1.850469112396240234e-01 -1.114694923162460327e-01
2.177712768316268921e-01 -2.458874881267547607e-02 6.702612340450286865e-02
3.286375105381011963e-01 -7.459932565689086914e-02 2.347802817821502686e-01
2.297356426715850830e-01 -4.729901254177093506e-02 -1.709640175104141235e-01
4.330249428749084473e-01 -7.989851385354995728e-02 1.522713154554367065e-01
2.875452041625976562e-01 -1.939917206764221191e-01 2.522224485874176025e-01
1.192195713520050049e-01 -1.430761814117431641e-01 2.174444645643234253e-01
1.299862563610076904e-01 -1.250223368406295776e-01 2.408950626850128174e-01
5.193356871604919434e-01 -1.631385535001754761e-01 1.387983262538909912e-01
3.015382289886474609e-01 -2.860981971025466919e-02 6.550313904881477356e-03
1.160953491926193237e-01 -7.017423212528228760e-02 1.931348592042922974e-01
4.491879642009735107e-01 -7.402357459068298340e-02 7.858893275260925293e-02
3.987571299076080322e-01 -6.329073756933212280e-02 -1.048864573240280151e-01
5.032790899276733398e-01 -2.010339796543121338e-01 3.871271014213562012e-02
3.249787986278533936e-01 -2.283169478178024292e-01 1.152972951531410217e-01
1.448041796684265137e-01 -1.929955780506134033e-01 9.569540619850158691e-02
4.650470018386840820e-01 -8.104541897773742676e-02 -2.490234561264514923e-02
3.127363026142120361e-01 -2.006452679634094238e-01 -1.380358338356018066e-01
2.166889309883117676e-01 -3.976678848266601562e-02 -1.481902450323104858e-01
4.267432689666748047e-01 -2.112386226654052734e-01 1.846632361412048340e-01
3.520935773849487305e-02 -1.229203343391418457e-01 3.433661535382270813e-02
2.522594034671783447e-01 -1.564093232154846191e-01 -2.157197296619415283e-01
5.666062235832214355e-02 -5.511180311441421509e-02 -3.812356293201446533e-02
4.961515665054321289e-01 -1.453005373477935791e-01 -1.026386916637420654e-01
1.926205456256866455e-01 -2.337077260017395020e-02 4.926862195134162903e-02
3.055539429187774658e-01 -2.198671102523803711e-01 -5.657054483890533447e-02
2.380103319883346558e-01 -7.576327025890350342e-02 -2.221010476350784302e-01
1.889351606369018555e-01 -3.755343705415725708e-02 -1.368690729141235352e-01
5.140612721443176270e-01 -1.198054552078247070e-01 9.233802556991577148e-02
4.018007814884185791e-01 -1.506711542606353760e-01 -1.970281153917312622e-01
2.679350972175598145e-01 -6.571084260940551758e-02 2.330764979124069214e-01
2.951072752475738525e-01 -7.111249864101409912e-02 2.393102943897247314e-01
2.446699589490890503e-01 -2.054369300603866577e-01 1.980681717395782471e-01
2.276265025138854980e-01 -1.244865879416465759e-01 2.944049239158630371e-01
4.228487908840179443e-01 -2.192043960094451904e-01 1.521488875150680542e-01
5.351443290710449219e-01 -1.577477008104324341e-01 5.697826296091079712e-02
4.566069841384887695e-01 -2.145101428031921387e-01 1.329857409000396729e-01
5.229559540748596191e-01 -1.318301558494567871e-01 -1.769634895026683807e-02
2.679680585861206055e-01 -1.551675498485565186e-01 2.970565259456634521e-01
3.931393325328826904e-01 -8.779066801071166992e-02 -1.767365336418151855e-01
1.347493529319763184e-01 -1.660068631172180176e-01 1.984456628561019897e-01
4.556961059570312500e-01 -8.089797198772430420e-02 1.061962619423866272e-01
1.849842071533203125e-01 -2.201303094625473022e-02 1.348058134317398071e-02
4.041700959205627441e-01 -1.998082399368286133e-01 -1.222063899040222168e-01
4.590500891208648682e-01 -9.840273112058639526e-02 1.690170168876647949e-01
4.355044662952423096e-01 -2.142580747604370117e-01 -4.640446603298187256e-02
1.328643113374710083e-01 -1.900854855775833130e-01 6.464909017086029053e-02
4.644059836864471436e-01 -7.849313318729400635e-02 1.443377882242202759e-02
4.268965423107147217e-01 -1.864582002162933350e-01 -1.389399468898773193e-01
1.845574676990509033e-01 -2.193941920995712280e-02 -8.576987311244010925e-03
3.800748288631439209e-01 -1.583677828311920166e-01 2.861563563346862793e-01
3.846930265426635742e-01 -1.839518100023269653e-01 -1.662815660238265991e-01
2.756324708461761475e-01 -1.515867859125137329e-01 -2.246484905481338501e-01
2.644736468791961670e-01 -3.042706847190856934e-02 -9.098722785711288452e-02
3.446210026741027832e-01 -4.717246443033218384e-02 -1.089487969875335693e-01
4.752146899700164795e-01 -2.096520960330963135e-01 -5.901290103793144226e-03
4.777084589004516602e-01 -2.133001238107681274e-01 6.187103316187858582e-02
4.317096471786499023e-01 -9.178420901298522949e-02 1.916389614343643188e-01
1.100515872240066528e-01 -1.503643840551376343e-01 -1.281658113002777100e-01
1.975279450416564941e-01 -2.104497551918029785e-01 1.815187558531761169e-02
3.326072096824645996e-01 -1.805288642644882202e-01 -1.848751008510589600e-01
4.769859313964843750e-01 -2.042909264564514160e-01 1.468938887119293213e-01
1.972389966249465942e-01 -8.542668819427490234e-02 -2.249916046857833862e-01
1.375443935394287109e-01 -4.282688349485397339e-02 1.386689990758895874e-01
5.206096172332763672e-01 -1.567670404911041260e-01 -4.608477652072906494e-02
2.675660252571105957e-01 -4.154355823993682861e-02 -1.447114348411560059e-01
5.091094970703125000e-01 -1.127331033349037170e-01 -1.645774208009243011e-02
3.387290537357330322e-01 -2.302905023097991943e-01 3.014849126338958740e-02
4.401915371417999268e-01 -8.404164016246795654e-02 -1.096222698688507080e-01
3.187843859195709229e-01 -3.876394778490066528e-02 1.087002307176589966e-01
1.487526148557662964e-01 -1.759925484657287598e-01 -1.088730394840240479e-01
1.821116507053375244e-01 -2.006272971630096436e-01 1.412417441606521606e-01
2.701096832752227783e-01 -2.233094722032546997e-01 1.120277121663093567e-01
1.678053736686706543e-01 -6.203137338161468506e-02 2.110827416181564331e-01
8.008429408073425293e-02 -1.512253582477569580e-01 -6.908541917800903320e-02
4.018021225929260254e-01 -2.288340032100677490e-01 4.705853760242462158e-02
9.931063652038574219e-02 -5.016405135393142700e-02 1.254232823848724365e-01
1.621537804603576660e-01 -4.200217872858047485e-02 1.518566757440567017e-01
2.865356206893920898e-02 -9.425806999206542969e-02 5.076960474252700806e-02
2.327735722064971924e-01 -2.213107794523239136e-02 1.746296137571334839e-02
2.876212894916534424e-01 -2.273431867361068726e-01 4.436509311199188232e-02
1.250159442424774170e-01 -2.841567248106002808e-02 -9.260494261980056763e-04
3.227858245372772217e-01 -7.927876710891723633e-02 -2.093479186296463013e-01
8.653941750526428223e-02 -4.723639786243438721e-02 9.253715723752975464e-02
8.114834129810333252e-02 -1.097511574625968933e-01 -1.455813944339752197e-01
2.505796849727630615e-01 -2.120499014854431152e-01 1.736240684986114502e-01
3.492276072502136230e-01 -4.483451694250106812e-02 -8.930814266204833984e-02
4.959635734558105469e-01 -1.651532649993896484e-01 1.873939335346221924e-01
2.596431970596313477e-01 -8.830195665359497070e-02 -2.333491593599319458e-01
2.549596428871154785e-01 -6.572653353214263916e-02 -2.076300233602523804e-01
5.036078095436096191e-01 -1.371950209140777588e-01 1.637558639049530029e-01
4.298456311225891113e-01 -1.402104943990707397e-01 2.582772076129913330e-01
3.159419894218444824e-01 -2.111316025257110596e-01 -1.021836847066879272e-01
3.957490324974060059e-01 -7.857710123062133789e-02 -1.565053611993789673e-01
2.726475298404693604e-01 -7.574541866779327393e-02 2.527438700199127197e-01
3.839122056961059570e-01 -2.148153930902481079e-01 1.960684359073638916e-01
1.824336946010589600e-01 -1.427739560604095459e-01 -2.055214941501617432e-01
2.909540534019470215e-01 -4.235637187957763672e-02 1.516556590795516968e-01
2.833100557327270508e-01 -2.179407030344009399e-01 -5.647159367799758911e-02
2.136480510234832764e-01 -2.680882811546325684e-02 8.771818131208419800e-02
4.125906825065612793e-01 -1.783185452222824097e-01 2.589562833309173584e-01
3.130932152271270752e-01 -4.344277083873748779e-02 1.416586935520172119e-01
3.078197538852691650e-01 -5.777208507061004639e-02 2.005460709333419800e-01
3.271348476409912109e-01 -1.793815493583679199e-01 2.807024717330932617e-01
3.276526927947998047e-02 -7.628180086612701416e-02 3.331811726093292236e-02
1.079401671886444092e-01 -5.913998186588287354e-02 -1.460967957973480225e-01
8.757358789443969727e-02 -1.391460001468658447e-01 -1.178444325923919678e-01
4.945430457592010498e-01 -9.765554964542388916e-02 5.658503621816635132e-03
3.736532628536224365e-01 -2.298285961151123047e-01 9.852350503206253052e-02
2.563246190547943115e-01 -2.091017514467239380e-01 -8.584643155336380005e-02
2.224597334861755371e-01 -1.863761395215988159e-01 -1.463310271501541138e-01
4.602596163749694824e-02 -1.207700446248054504e-01 -6.135503947734832764e-02
