-3.171099424362182617e-01 -1.192058157175779343e-02 -1.957368254661560059e-01
-8.744344115257263184e-02 -5.316165462136268616e-02 1.911936700344085693e-01
-2.337571084499359131e-01 6.239653751254081726e-02 -2.448186278343200684e-01
-3.383803963661193848e-01 2.473614551126956940e-02 1.290319710969924927e-01
5.000269412994384766e-01 -6.596868038177490234e-01 -2.382168769836425781e-01
4.886775016784667969e-01 -7.441515922546386719e-01 -2.269968390464782715e-01
4.111693799495697021e-01 -7.738581895828247070e-01 -2.279830574989318848e-01
3.686104416847229004e-01 -5.763601064682006836e-01 -2.395852059125900269e-01
4.796360135078430176e-01 -5.512135028839111328e-01 -2.562897801399230957e-01
4.161299169063568115e-01 -5.504611134529113770e-01 -3.097454309463500977e-01
4.813742935657501221e-01 -5.564297437667846680e-01 -2.636000216007232666e-01
3.813862502574920654e-01 -5.179791450500488281e-01 -2.771010398864746094e-01
4.797143340110778809e-01 -7.834302186965942383e-01 -2.319029271602630615e-01
3.918077945709228516e-01 -6.938589811325073242e-01 -2.174406349658966064e-01
4.124671220779418945e-01 -6.764109730720520020e-01 -3.227725028991699219e-01
3.860623836517333984e-01 -6.735489368438720703e-01 -2.188494354486465454e-01
3.800384402275085449e-01 -7.461611032485961914e-01 -2.584086656570434570e-01
4.988686144351959229e-01 -7.566546797752380371e-01 -2.480358183383941650e-01
3.608947992324829102e-01 -6.405367851257324219e-01 -2.595546543598175049e-01
4.848466813564300537e-01 -6.531100273132324219e-01 -3.025627732276916504e-01
4.668971300125122070e-01 -6.489751338958740234e-01 -3.153616189956665039e-01
3.613505959510803223e-01 -6.244941353797912598e-01 -2.531076371669769287e-01
3.791282474994659424e-01 -5.487962365150451660e-01 -2.921653985977172852e-01
4.949391484260559082e-01 -7.049121260643005371e-01 -2.935532033443450928e-01
4.140068888664245605e-01 -7.507053017616271973e-01 -2.174924165010452271e-01
4.660333096981048584e-01 -5.770635008811950684e-01 -3.018883466720581055e-01
4.951376020908355713e-01 -7.120556235313415527e-01 -2.289714664220809937e-01
3.888170719146728516e-01 -5.330071449279785156e-01 -2.944579422473907471e-01
4.001652002334594727e-01 -5.120875835418701172e-01 -2.906305193901062012e-01
3.647019267082214355e-01 -5.833308696746826172e-01 -2.468425631523132324e-01
4.804771244525909424e-01 -7.956748008728027344e-01 -2.875511646270751953e-01
4.659488499164581299e-01 -7.869586944580078125e-01 -2.252911925315856934e-01
4.106376767158508301e-01 -6.148151755332946777e-01 -2.037113904953002930e-01
4.172768592834472656e-01 -7.188845276832580566e-01 -2.084264457225799561e-01
3.778098821640014648e-01 -7.018773555755615234e-01 -2.966579198837280273e-01
4.564455449581146240e-01 -5.602729320526123047e-01 -3.027482032775878906e-01
4.291990697383880615e-01 -6.614285111427307129e-01 -1.999127119779586792e-01
3.921550214290618896e-01 -7.348013520240783691e-01 -3.032179772853851318e-01
4.903492033481597900e-01 -7.388264536857604980e-01 -2.958874702453613281e-01
5.032427906990051270e-01 -6.854336261749267578e-01 -2.765583693981170654e-01
4.949959814548492432e-01 -6.323369741439819336e-01 -2.341011464595794678e-01
3.707523047924041748e-01 -6.996179819107055664e-01 -2.838583588600158691e-01
4.019392132759094238e-01 -7.453795075416564941e-01 -3.077513873577117920e-01
4.729600250720977783e-01 -6.300635933876037598e-01 -2.107869088649749756e-01
3.605612516403198242e-01 -6.035566329956054688e-01 -2.673027813434600830e-01
5.000411868095397949e-01 -7.073779106140136719e-01 -2.364112287759780884e-01
4.705764353275299072e-01 -6.181787252426147461e-01 -2.108179032802581787e-01
4.226971268653869629e-01 -6.247439980506896973e-01 -2.007599771022796631e-01
3.788600564002990723e-01 -6.130469441413879395e-01 -3.050473928451538086e-01
4.017520546913146973e-01 -5.610010623931884766e-01 -3.097761571407318115e-01
3.669376075267791748e-01 -6.749247312545776367e-01 -2.839776277542114258e-01
4.674754738807678223e-01 -5.346596240997314453e-01 -2.772214114665985107e-01
4.305518567562103271e-01 -6.704614162445068359e-01 -3.251613080501556396e-01
4.645340144634246826e-01 -6.288442611694335938e-01 -2.063893675804138184e-01
4.946105182170867920e-01 -6.212559342384338379e-01 -2.808701395988464355e-01
4.828428328037261963e-01 -5.924708247184753418e-01 -2.898233532905578613e-01
3.960800468921661377e-01 -5.897424221038818359e-01 -3.133054971694946289e-01
3.913938105106353760e-01 -5.261037349700927734e-01 -2.291121482849121094e-01
4.010928869247436523e-01 -7.064415812492370605e-01 -3.157892823219299316e-01
4.174772799015045166e-01 -7.910706996917724609e-01 -2.326515316963195801e-01
4.904284179210662842e-01 -7.939302921295166016e-01 -2.588296532630920410e-01
4.884810149669647217e-01 -7.146413922309875488e-01 -3.007965683937072754e-01
4.461328387260437012e-01 -6.536421179771423340e-01 -3.232200741767883301e-01
3.602641820907592773e-01 -6.139143705368041992e-01 -2.610698640346527100e-01
4.258272349834442139e-01 -5.264986753463745117e-01 -2.184747010469436646e-01
4.772452712059020996e-01 -7.527494430541992188e-01 -2.199656367301940918e-01
5.026597380638122559e-01 -7.380653023719787598e-01 -2.511422932147979736e-01
4.867215454578399658e-01 -6.059666275978088379e-01 -2.894368469715118408e-01
3.802141249179840088e-01 -6.003662347793579102e-01 -3.049953281879425049e-01
4.947532415390014648e-01 -7.581205368041992188e-01 -2.393058836460113525e-01
4.003537893295288086e-01 -5.530712008476257324e-01 -2.154370695352554321e-01
3.957841396331787109e-01 -7.723417282104492188e-01 -2.435100972652435303e-01
3.731726109981536865e-01 -5.316209197044372559e-01 -2.535205185413360596e-01
3.824000358581542969e-01 -7.546694874763488770e-01 -2.629076242446899414e-01
3.873933255672454834e-01 -5.809642076492309570e-01 -3.073295950889587402e-01
4.783581197261810303e-01 -6.393352746963500977e-01 -3.065888285636901855e-01
4.221481382846832275e-01 -6.548570394515991211e-01 -3.246819972991943359e-01
3.716197311878204346e-01 -6.574731469154357910e-01 -2.329982221126556396e-01
4.435089826583862305e-01 -7.103715538978576660e-01 -2.033008635044097900e-01
4.326853156089782715e-01 -5.082109570503234863e-01 -2.894485294818878174e-01
4.015536308288574219e-01 -4.928462505340576172e-01 -2.446568310260772705e-01
3.738548457622528076e-01 -5.283100008964538574e-01 -2.678993642330169678e-01
4.933449327945709229e-01 -6.990097165107727051e-01 -2.256261110305786133e-01
4.158918261528015137e-01 -6.643401384353637695e-01 -2.024089395999908447e-01
3.789339661598205566e-01 -5.848602652549743652e-01 -2.241961658000946045e-01
3.773812353610992432e-01 -5.187898278236389160e-01 -2.657351195812225342e-01
4.838387370109558105e-01 -5.653643012046813965e-01 -2.481153756380081177e-01
4.805714488029479980e-01 -6.399468779563903809e-01 -2.151538282632827759e-01
3.923470973968505859e-01 -6.662119030952453613e-01 -3.150593638420104980e-01
4.554820060729980469e-01 -7.004573941230773926e-01 -2.036560922861099243e-01
3.809232711791992188e-01 -6.900419592857360840e-01 -3.032697439193725586e-01
4.671387374401092529e-01 -6.775546073913574219e-01 -3.167698085308074951e-01
3.657724261283874512e-01 -6.224667429924011230e-01 -2.400451302528381348e-01
4.422201216220855713e-01 -5.900020003318786621e-01 -2.042755335569381714e-01
3.962309360504150391e-01 -4.955149888992309570e-01 -2.736650407314300537e-01
4.644579887390136719e-01 -5.976293683052062988e-01 -2.106809467077255249e-01
3.666067719459533691e-01 -6.493901610374450684e-01 -2.888392210006713867e-01
4.153005778789520264e-01 -7.446889877319335938e-01 -3.146790862083435059e-01
4.911051988601684570e-01 -6.652563214302062988e-01 -2.231713831424713135e-01
3.797930181026458740e-01 -7.233384847640991211e-01 -2.919175624847412109e-01
4.906193017959594727e-01 -5.881039500236511230e-01 -2.473257184028625488e-01
4.605977535247802734e-01 -7.510569095611572266e-01 -3.137617707252502441e-01
3.820285499095916748e-01 -5.588755607604980469e-01 -2.983244955539703369e-01
4.088244438171386719e-01 -7.983670830726623535e-01 -2.858178615570068359e-01
5.046885013580322266e-01 -7.032878398895263672e-01 -2.716903984546661377e-01
3.851818144321441650e-01 -7.419421672821044922e-01 -2.916721701622009277e-01
5.056638121604919434e-01 -6.887996792793273926e-01 -2.647185027599334717e-01
4.375921189785003662e-01 -6.231883764266967773e-01 -3.224187195301055908e-01
4.379300177097320557e-01 -7.697203159332275391e-01 -3.128537237644195557e-01
4.507758617401123047e-01 -5.815913677215576172e-01 -3.119426369667053223e-01
4.178647696971893311e-01 -4.977226257324218750e-01 -2.339857071638107300e-01
4.014809429645538330e-01 -6.782301068305969238e-01 -3.189639449119567871e-01
4.048625528812408447e-01 -5.744830965995788574e-01 -3.136714100837707520e-01
3.722151815891265869e-01 -5.438222885131835938e-01 -2.453145533800125122e-01
4.141967594623565674e-01 -6.505967974662780762e-01 -3.234861493110656738e-01
3.649761378765106201e-01 -6.437633633613586426e-01 -2.436431050300598145e-01
3.720189929008483887e-01 -6.132730841636657715e-01 -2.978122234344482422e-01
4.095460176467895508e-01 -7.118693590164184570e-01 -2.101481854915618896e-01
4.047879278659820557e-01 -5.058960914611816406e-01 -2.316288501024246216e-01
4.359312951564788818e-01 -7.552068829536437988e-01 -3.163896799087524414e-01
3.817121386528015137e-01 -7.119680643081665039e-01 -2.321753948926925659e-01
4.625597596168518066e-01 -6.532732844352722168e-01 -2.041397094726562500e-01
4.195460975170135498e-01 -6.038520932197570801e-01 -3.208118975162506104e-01
4.358228743076324463e-01 -4.914049804210662842e-01 -2.470449656248092651e-01
4.770520925521850586e-01 -7.198627591133117676e-01 -3.098643124103546143e-01
4.663465321063995361e-01 -8.193675279617309570e-01 -2.835450470447540283e-01
4.985131025314331055e-01 -6.982395052909851074e-01 -2.880353033542633057e-01
4.259309768676757812e-01 -7.959933876991271973e-01 -3.005877137184143066e-01
3.935442566871643066e-01 -7.541333436965942383e-01 -2.970063090324401855e-01
4.373688995838165283e-01 -6.808750629425048828e-01 -2.004372030496597290e-01
4.911614060401916504e-01 -7.884782552719116211e-01 -2.734386324882507324e-01
3.993860185146331787e-01 -5.269483327865600586e-01 -2.977932393550872803e-01
4.552517235279083252e-01 -6.704235076904296875e-01 -2.019173651933670044e-01
4.520048201084136963e-01 -6.903565526008605957e-01 -3.222565054893493652e-01
3.701013922691345215e-01 -6.257909536361694336e-01 -2.324778437614440918e-01
4.061897695064544678e-01 -6.133585572242736816e-01 -3.196265697479248047e-01
4.041635394096374512e-01 -6.970883607864379883e-01 -3.184312582015991211e-01
4.952429234981536865e-01 -6.426576972007751465e-01 -2.868925034999847412e-01
4.895309209823608398e-01 -6.253819465637207031e-01 -2.269805669784545898e-01
5.023365020751953125e-01 -7.113168239593505859e-01 -2.792017757892608643e-01
3.813516199588775635e-01 -5.526390075683593750e-01 -2.284197211265563965e-01
4.294179975986480713e-01 -6.009401679039001465e-01 -3.204568624496459961e-01
3.956713080406188965e-01 -6.210226416587829590e-01 -3.164806962013244629e-01
3.921118676662445068e-01 -7.784263491630554199e-01 -2.632065117359161377e-01
5.005992650985717773e-01 -6.330478191375732422e-01 -2.665773332118988037e-01
3.761944770812988281e-01 -7.301369309425354004e-01 -2.536054253578186035e-01
4.990705549716949463e-01 -6.423748731613159180e-01 -2.782489955425262451e-01
4.378084242343902588e-01 -5.603207349777221680e-01 -2.093369662761688232e-01
3.753012120723724365e-01 -6.378996968269348145e-01 -2.260691821575164795e-01
5.048611164093017578e-01 -7.152680754661560059e-01 -2.689095437526702881e-01
4.345507323741912842e-01 -7.147281169891357422e-01 -3.227986395359039307e-01
4.485150575637817383e-01 -7.370274066925048828e-01 -2.077660262584686279e-01
4.330537915229797363e-01 -8.124365806579589844e-01 -2.380602955818176270e-01
4.870755672454833984e-01 -6.098041534423828125e-01 -2.277893126010894775e-01
4.546473324298858643e-01 -5.061295628547668457e-01 -2.559515535831451416e-01
4.279338717460632324e-01 -8.132532835006713867e-01 -2.902840971946716309e-01
4.249138832092285156e-01 -7.545152306556701660e-01 -3.150964081287384033e-01
3.921011984348297119e-01 -5.386382341384887695e-01 -2.238567322492599487e-01
4.858006834983825684e-01 -6.339433193206787109e-01 -2.984471917152404785e-01
5.001813769340515137e-01 -6.270453333854675293e-01 -2.592899501323699951e-01
3.730362057685852051e-01 -7.240296006202697754e-01 -2.679343819618225098e-01
4.047241508960723877e-01 -6.531486511230468750e-01 -2.056443840265274048e-01
4.564014673233032227e-01 -7.000828385353088379e-01 -3.206985890865325928e-01
4.880939722061157227e-01 -5.775040388107299805e-01 -2.668194472789764404e-01
4.669089317321777344e-01 -6.071094274520874023e-01 -2.103609442710876465e-01
4.912166297435760498e-01 -6.660147905349731445e-01 -2.969464659690856934e-01
3.611800670623779297e-01 -6.026259660720825195e-01 -2.555896043777465820e-01
4.233911633491516113e-01 -6.137918233871459961e-01 -3.221910595893859863e-01
4.126507639884948730e-01 -8.100089430809020996e-01 -2.564119398593902588e-01
4.488951265811920166e-01 -6.130173802375793457e-01 -3.186452090740203857e-01
4.361268579959869385e-01 -6.892203092575073242e-01 -3.245988488197326660e-01
5.026587247848510742e-01 -7.440553903579711914e-01 -2.666137516498565674e-01
4.772432744503021240e-01 -7.197424769401550293e-01 -2.139307409524917603e-01
4.273953139781951904e-01 -5.598280429840087891e-01 -3.122330904006958008e-01
3.968229293823242188e-01 -5.183213353157043457e-01 -2.289826571941375732e-01
3.769605755805969238e-01 -6.128935813903808594e-01 -2.239218056201934814e-01
4.927195310592651367e-01 -5.987750291824340820e-01 -2.722261846065521240e-01
4.286555349826812744e-01 -7.949671149253845215e-01 -2.288398444652557373e-01
4.472588598728179932e-01 -4.981961250305175781e-01 -2.535428106784820557e-01
5.017991065979003906e-01 -7.502233982086181641e-01 -2.566573023796081543e-01
4.478488862514495850e-01 -7.177634835243225098e-01 -3.214449882507324219e-01
3.857756257057189941e-01 -7.491781115531921387e-01 -2.440761923789978027e-01
4.988624453544616699e-01 -7.454707622528076172e-01 -2.424908131361007690e-01
4.054059982299804688e-01 -6.560994386672973633e-01 -3.212461471557617188e-01
4.286708533763885498e-01 -6.352465748786926270e-01 -1.998283267021179199e-01
4.544462561607360840e-01 -5.504918098449707031e-01 -3.002341985702514648e-01
4.882340431213378906e-01 -7.567864656448364258e-01 -2.299669235944747925e-01
4.121411144733428955e-01 -4.839400649070739746e-01 -2.530886232852935791e-01
4.491165876388549805e-01 -7.787159681320190430e-01 -3.097748756408691406e-01
4.270784854888916016e-01 -5.984547138214111328e-01 -2.022751122713088989e-01
4.009900689125061035e-01 -7.360835075378417969e-01 -3.097609877586364746e-01
4.289172291755676270e-01 -6.303835511207580566e-01 -3.237643539905548096e-01
3.793991208076477051e-01 -6.716052889823913574e-01 -2.250909954309463501e-01
4.711034595966339111e-01 -5.442703962326049805e-01 -2.795071005821228027e-01
4.471015036106109619e-01 -6.001761555671691895e-01 -2.037924081087112427e-01
4.800582230091094971e-01 -5.653746724128723145e-01 -2.373993098735809326e-01
3.773087561130523682e-01 -7.376003265380859375e-01 -2.738671004772186279e-01
4.175300300121307373e-01 -7.717181444168090820e-01 -3.076111972332000732e-01
3.863187432289123535e-01 -6.847057938575744629e-01 -2.203730195760726929e-01
4.708073437213897705e-01 -7.490367293357849121e-01 -3.097558021545410156e-01
4.794060587882995605e-01 -8.107355833053588867e-01 -2.511702179908752441e-01
3.858119249343872070e-01 -7.635793089866638184e-01 -2.621458172798156738e-01
4.375481009483337402e-01 -6.377806067466735840e-01 -3.237036764621734619e-01
3.617620170116424561e-01 -6.563251018524169922e-01 -2.675077319145202637e-01
4.494130909442901611e-01 -6.629120111465454102e-01 -3.228354156017303467e-01
4.604713022708892822e-01 -6.416512727737426758e-01 -2.038406133651733398e-01
4.353299140930175781e-01 -7.573685050010681152e-01 -2.128614336252212524e-01
3.891866803169250488e-01 -7.416898012161254883e-01 -2.343455553054809570e-01
4.540804922580718994e-01 -7.723326683044433594e-01 -2.170970439910888672e-01
3.650957047939300537e-01 -6.633083820343017578e-01 -2.823652327060699463e-01
3.611244261264801025e-01 -5.920830965042114258e-01 -2.640950381755828857e-01
4.625527560710906982e-01 -5.395359396934509277e-01 -2.880251407623291016e-01
4.904225468635559082e-01 -5.829437971115112305e-01 -2.577625215053558350e-01
3.965719044208526611e-01 -5.810778141021728516e-01 -2.121040523052215576e-01
4.639312624931335449e-01 -5.193858146667480469e-01 -2.584390044212341309e-01
4.985866546630859375e-01 -6.763976216316223145e-01 -2.332434654235839844e-01
4.949147701263427734e-01 -6.572048664093017578e-01 -2.905302941799163818e-01
4.390958249568939209e-01 -7.439193725585937500e-01 -2.091359347105026245e-01
3.829762339591979980e-01 -5.899873971939086914e-01 -3.057913780212402344e-01
4.496900737285614014e-01 -5.121023654937744141e-01 -2.358218431472778320e-01
4.911980330944061279e-01 -6.243457198143005371e-01 -2.886765301227569580e-01
5.051253437995910645e-01 -6.751804947853088379e-01 -2.649845480918884277e-01
4.044887423515319824e-01 -7.788950204849243164e-01 -2.956310808658599854e-01
3.712741434574127197e-01 -6.942523121833801270e-01 -2.435922324657440186e-01
3.957314193248748779e-01 -7.541885375976562500e-01 -2.324338555335998535e-01
3.884745240211486816e-01 -7.162207961082458496e-01 -3.051140904426574707e-01
4.996808767318725586e-01 -7.260923385620117188e-01 -2.385610938072204590e-01
4.167487919330596924e-01 -6.336416006088256836e-01 -2.015707194805145264e-01
5.024535059928894043e-01 -6.885110735893249512e-01 -2.410964369773864746e-01
4.933036565780639648e-01 -5.961471796035766602e-01 -2.506344318389892578e-01
5.058823823928833008e-01 -7.035760283470153809e-01 -2.614366710186004639e-01
4.370149075984954834e-01 -5.195969939231872559e-01 -2.947080433368682861e-01
4.993822872638702393e-01 -6.281784772872924805e-01 -2.486192137002944946e-01
4.634294509887695312e-01 -7.707439661026000977e-01 -3.083563446998596191e-01
4.843829870223999023e-01 -7.994769811630249023e-01 -2.790024578571319580e-01
3.759585022926330566e-01 -6.853533387184143066e-01 -2.322379499673843384e-01
3.683601021766662598e-01 -6.888903379440307617e-01 -2.823130190372467041e-01
4.725340902805328369e-01 -5.925133824348449707e-01 -2.171535789966583252e-01
4.081106781959533691e-01 -5.148956179618835449e-01 -2.948645353317260742e-01
4.060769677162170410e-01 -6.018263697624206543e-01 -3.183499574661254883e-01
3.814429640769958496e-01 -5.363050699234008789e-01 -2.893357872962951660e-01
4.719558060169219971e-01 -7.794389724731445312e-01 -2.250998467206954956e-01
4.976202845573425293e-01 -6.667104363441467285e-01 -2.873913943767547607e-01
4.359109401702880859e-01 -8.278893232345581055e-01 -2.534278035163879395e-01
4.709326624870300293e-01 -7.450914978981018066e-01 -2.149275541305541992e-01
4.636681079864501953e-01 -5.535827875137329102e-01 -2.229757159948348999e-01
4.739348292350769043e-01 -8.179782629013061523e-01 -2.518280148506164551e-01
4.322820603847503662e-01 -7.058010101318359375e-01 -2.031278908252716064e-01
3.721946477890014648e-01 -6.717769503593444824e-01 -2.347727268934249878e-01
4.767805337905883789e-01 -8.185325264930725098e-01 -2.612512409687042236e-01
4.061692655086517334e-01 -7.396345138549804688e-01 -2.184492945671081543e-01
4.420350193977355957e-01 -6.389081478118896484e-01 -1.999006718397140503e-01
4.613431096076965332e-01 -6.863781213760375977e-01 -3.193668127059936523e-01
4.273249804973602295e-01 -8.026784658432006836e-01 -2.339175790548324585e-01
3.938827216625213623e-01 -6.558448076248168945e-01 -2.113410234451293945e-01
3.912730515003204346e-01 -4.968233704566955566e-01 -2.541233897209167480e-01
4.693209528923034668e-01 -7.091994285583496094e-01 -3.150942921638488770e-01
4.239771664142608643e-01 -6.826235055923461914e-01 -3.245244622230529785e-01
4.738568961620330811e-01 -7.287536859512329102e-01 -3.109888136386871338e-01
4.660297930240631104e-01 -5.381186008453369141e-01 -2.340117990970611572e-01
3.629194796085357666e-01 -6.348443031311035156e-01 -2.481569349765777588e-01
3.796487152576446533e-01 -6.489102244377136230e-01 -3.064339458942413330e-01
4.359947741031646729e-01 -5.333040952682495117e-01 -3.016681969165802002e-01
4.329613745212554932e-01 -7.915347814559936523e-01 -3.047326207160949707e-01
4.959801435470581055e-01 -6.052206754684448242e-01 -2.569473385810852051e-01
4.277317523956298828e-01 -7.234070301055908203e-01 -3.213662505149841309e-01
4.077514708042144775e-01 -4.909413158893585205e-01 -2.765638828277587891e-01
3.906235992908477783e-01 -7.638952136039733887e-01 -2.459498643875122070e-01
4.623531699180603027e-01 -6.931082606315612793e-01 -2.048652321100234985e-01
3.700080513954162598e-01 -6.224973201751708984e-01 -2.956032156944274902e-01
5.027978420257568359e-01 -6.456646919250488281e-01 -2.573032677173614502e-01
4.800783991813659668e-01 -7.099488377571105957e-01 -2.145913094282150269e-01
4.719492495059967041e-01 -6.612530946731567383e-01 -3.134271502494812012e-01
4.238065183162689209e-01 -5.247079730033874512e-01 -3.004054129123687744e-01
3.664391636848449707e-01 -6.923350095748901367e-01 -2.693620026111602783e-01
4.123584926128387451e-01 -4.836362302303314209e-01 -2.645841538906097412e-01
4.024454057216644287e-01 -6.668868660926818848e-01 -2.075110822916030884e-01
4.839124381542205811e-01 -8.072456121444702148e-01 -2.689213454723358154e-01
4.866304397583007812e-01 -7.843068838119506836e-01 -2.859986424446105957e-01
3.620871007442474365e-01 -5.813692808151245117e-01 -2.633685469627380371e-01
5.037794113159179688e-01 -6.662544608116149902e-01 -2.702693939208984375e-01
3.734289407730102539e-01 -5.844896435737609863e-01 -2.957390546798706055e-01
4.524600207805633545e-01 -6.521962285041809082e-01 -2.012190222740173340e-01
4.578541815280914307e-01 -7.920167446136474609e-01 -3.034023046493530273e-01
4.864145815372467041e-01 -7.218192815780639648e-01 -2.207683622837066650e-01
4.709764719009399414e-01 -5.340157747268676758e-01 -2.669130563735961914e-01
4.694261550903320312e-01 -5.541881322860717773e-01 -2.888156771659851074e-01
4.978114962577819824e-01 -6.185095906257629395e-01 -2.490913122892379761e-01
5.012993216514587402e-01 -7.253044247627258301e-01 -2.799220681190490723e-01
4.933955371379852295e-01 -7.863211631774902344e-01 -2.648975253105163574e-01
3.775056004524230957e-01 -6.671355366706848145e-01 -3.029385805130004883e-01
4.230500161647796631e-01 -5.539154410362243652e-01 -2.099923193454742432e-01
4.730781018733978271e-01 -8.113732337951660156e-01 -2.434079647064208984e-01
4.573979675769805908e-01 -6.679428815841674805e-01 -3.206243813037872314e-01
4.074149131774902344e-01 -7.936189770698547363e-01 -2.441745847463607788e-01
4.616555273532867432e-01 -6.121620535850524902e-01 -3.132746517658233643e-01
4.935551285743713379e-01 -6.852167248725891113e-01 -2.254909873008728027e-01
4.928100109100341797e-01 -6.180731058120727539e-01 -2.345305532217025757e-01
4.286894500255584717e-01 -7.149104475975036621e-01 -2.049047499895095825e-01
4.294893443584442139e-01 -8.275420069694519043e-01 -2.698255777359008789e-01
4.916234016418457031e-01 -6.846306324005126953e-01 -2.977868020534515381e-01
3.705687820911407471e-01 -5.972451567649841309e-01 -2.941782176494598389e-01
3.996912240982055664e-01 -5.413860678672790527e-01 -3.034168779850006104e-01
5.017074346542358398e-01 -6.460622549057006836e-01 -2.479229122400283813e-01
4.507689177989959717e-01 -6.615750193595886230e-01 -2.008500695228576660e-01
4.115591049194335938e-01 -6.263779401779174805e-01 -3.219390213489532471e-01
4.108282625675201416e-01 -5.275237560272216797e-01 -3.012267947196960449e-01
4.297946989536285400e-01 -7.684241533279418945e-01 -2.173229455947875977e-01
3.628406226634979248e-01 -6.676845550537109375e-01 -2.649297118186950684e-01
5.047165751457214355e-01 -6.845906376838684082e-01 -2.492983937263488770e-01
4.613668024539947510e-01 -5.212149620056152344e-01 -2.737658023834228516e-01
3.975258469581604004e-01 -6.064056158065795898e-01 -3.160297274589538574e-01
3.965660035610198975e-01 -7.783977985382080078e-01 -2.852665483951568604e-01
4.651248157024383545e-01 -8.252863883972167969e-01 -2.517414391040802002e-01
5.004739165306091309e-01 -7.371293306350708008e-01 -2.791736721992492676e-01
4.397331178188323975e-01 -4.927209615707397461e-01 -2.668447494506835938e-01
3.635620772838592529e-01 -5.798218250274658203e-01 -2.747265100479125977e-01
3.793588876724243164e-01 -7.459086775779724121e-01 -2.689212858676910400e-01
4.889593124389648438e-01 -5.921689271926879883e-01 -2.783967852592468262e-01
3.714434504508972168e-01 -6.508505940437316895e-01 -2.969416081905364990e-01
4.969597458839416504e-01 -7.160079479217529297e-01 -2.898422479629516602e-01
3.608227074146270752e-01 -6.117432713508605957e-01 -2.723154723644256592e-01
4.083637893199920654e-01 -5.459946393966674805e-01 -2.143461257219314575e-01
4.170989096164703369e-01 -6.858618855476379395e-01 -2.037626802921295166e-01
3.893088996410369873e-01 -6.099484562873840332e-01 -3.123529255390167236e-01
4.197180271148681641e-01 -5.789927244186401367e-01 -2.054125666618347168e-01
4.556646049022674561e-01 -5.268577337265014648e-01 -2.302139401435852051e-01
3.651196956634521484e-01 -5.947607755661010742e-01 -2.432371973991394043e-01
3.658480048179626465e-01 -5.673609972000122070e-01 -2.495935708284378052e-01
4.275489449501037598e-01 -4.845646023750305176e-01 -2.606837451457977295e-01
3.898920118808746338e-01 -5.576541423797607422e-01 -2.200981080532073975e-01
4.668341577053070068e-01 -5.684871673583984375e-01 -2.197850644588470459e-01
3.971259891986846924e-01 -6.171508431434631348e-01 -2.088844925165176392e-01
4.600585997104644775e-01 -5.220583677291870117e-01 -2.392759919166564941e-01
4.120229184627532959e-01 -7.302188873291015625e-01 -3.165659606456756592e-01
4.847525656223297119e-01 -7.348386645317077637e-01 -3.022672235965728760e-01
4.601192176342010498e-01 -7.805321812629699707e-01 -3.067187964916229248e-01
4.826807081699371338e-01 -6.604170203208923340e-01 -2.152487337589263916e-01
4.699192047119140625e-01 -8.116917014122009277e-01 -2.872366011142730713e-01
3.628633022308349609e-01 -6.197187900543212891e-01 -2.813372015953063965e-01
3.930280506610870361e-01 -6.819194555282592773e-01 -3.142706751823425293e-01
4.119353592395782471e-01 -4.960193037986755371e-01 -2.829821407794952393e-01
3.657441437244415283e-01 -5.589557886123657227e-01 -2.567585408687591553e-01
4.428641498088836670e-01 -5.988135933876037598e-01 -3.180609643459320068e-01
3.847979903221130371e-01 -5.357983708381652832e-01 -2.307548075914382935e-01
4.362027347087860107e-01 -5.584189891815185547e-01 -3.104378581047058105e-01
3.911720216274261475e-01 -5.571928024291992188e-01 -3.042335808277130127e-01
4.625664055347442627e-01 -7.993716001510620117e-01 -2.986260354518890381e-01
4.090129733085632324e-01 -7.825124263763427734e-01 -2.342928946018218994e-01
3.692101240158081055e-01 -5.664980411529541016e-01 -2.845024764537811279e-01
4.441323578357696533e-01 -7.969188094139099121e-01 -3.034657835960388184e-01
4.971914291381835938e-01 -7.480715513229370117e-01 -2.833822369575500488e-01
3.879730403423309326e-01 -7.619395256042480469e-01 -2.825902998447418213e-01
3.818710148334503174e-01 -7.122315764427185059e-01 -2.990567088127136230e-01
4.282291531562805176e-01 -4.939046502113342285e-01 -2.791319489479064941e-01
4.939298033714294434e-01 -5.969657301902770996e-01 -2.627114355564117432e-01
3.787831664085388184e-01 -7.266017794609069824e-01 -2.436079084873199463e-01
4.897116124629974365e-01 -6.365997791290283203e-01 -2.248956263065338135e-01
4.729894399642944336e-01 -6.235220432281494141e-01 -3.082227408885955811e-01
4.996489584445953369e-01 -7.633045911788940430e-01 -2.628190219402313232e-01
4.649986028671264648e-01 -8.101059794425964355e-01 -2.369619011878967285e-01
4.226320087909698486e-01 -7.361432313919067383e-01 -2.103102952241897583e-01
4.625350832939147949e-01 -7.780188322067260742e-01 -2.207755297422409058e-01
4.065703153610229492e-01 -5.893126130104064941e-01 -3.167337179183959961e-01
3.712977766990661621e-01 -6.764217019081115723e-01 -2.929629981517791748e-01
4.048558175563812256e-01 -6.416310667991638184e-01 -3.209275603294372559e-01
5.017388463020324707e-01 -7.155532836914062500e-01 -2.411768138408660889e-01
5.048096179962158203e-01 -6.661863923072814941e-01 -2.601908445358276367e-01
3.910749256610870361e-01 -5.988342165946960449e-01 -2.132701873779296875e-01
4.126325845718383789e-01 -7.803142070770263672e-01 -3.014430105686187744e-01
3.706591725349426270e-01 -5.766748189926147461e-01 -2.902022302150726318e-01
4.858636260032653809e-01 -7.253778576850891113e-01 -3.024162054061889648e-01
4.406908452510833740e-01 -6.094459891319274902e-01 -3.202116489410400391e-01
4.259877502918243408e-01 -5.347671508789062500e-01 -3.043273985385894775e-01
3.948828577995300293e-01 -6.370263099670410156e-01 -3.168365657329559326e-01
4.404817521572113037e-01 -5.479570031166076660e-01 -2.132951319217681885e-01
3.863717913627624512e-01 -6.406077146530151367e-01 -3.119415342807769775e-01
3.692436516284942627e-01 -7.048986554145812988e-01 -2.738041877746582031e-01
4.038406610488891602e-01 -7.238404750823974609e-01 -3.141984939575195312e-01
3.850627243518829346e-01 -6.762086749076843262e-01 -3.091603517532348633e-01
4.085262715816497803e-01 -5.416443347930908203e-01 -3.060137927532196045e-01
3.769472539424896240e-01 -5.681825876235961914e-01 -2.960129380226135254e-01
4.658290147781372070e-01 -8.177368640899658203e-01 -2.434232831001281738e-01
4.589035511016845703e-01 -8.097002506256103516e-01 -2.946438789367675781e-01
4.470144212245941162e-01 -8.134965300559997559e-01 -2.946388125419616699e-01
3.972652554512023926e-01 -6.495384573936462402e-01 -3.180963099002838135e-01
4.212669432163238525e-01 -6.131528019905090332e-01 -2.015604376792907715e-01
4.018404781818389893e-01 -6.253970861434936523e-01 -2.064800709486007690e-01
3.881914615631103516e-01 -6.475178599357604980e-01 -2.146522849798202515e-01
4.394946098327636719e-01 -7.319804430007934570e-01 -2.066754847764968872e-01
3.811322450637817383e-01 -6.510369777679443359e-01 -2.208139300346374512e-01
3.604308962821960449e-01 -6.206652522087097168e-01 -2.701874375343322754e-01
4.365316629409790039e-01 -7.893999814987182617e-01 -2.238476872444152832e-01
3.815088570117950439e-01 -6.007418632507324219e-01 -2.201798558235168457e-01
3.648623824119567871e-01 -6.830915212631225586e-01 -2.642547190189361572e-01
4.290697276592254639e-01 -5.372706055641174316e-01 -2.147961258888244629e-01
4.423844218254089355e-01 -8.142259716987609863e-01 -2.365931421518325806e-01
4.690387248992919922e-01 -6.811721920967102051e-01 -2.068053483963012695e-01
3.629174232482910156e-01 -6.116756200790405273e-01 -2.473032772541046143e-01
4.438608884811401367e-01 -5.450244545936584473e-01 -3.035528063774108887e-01
4.368378221988677979e-01 -8.281285762786865234e-01 -2.785574793815612793e-01
3.763211965560913086e-01 -7.117384672164916992e-01 -2.907844185829162598e-01
4.096264243125915527e-01 -6.894982457160949707e-01 -3.211677074432373047e-01
3.934411406517028809e-01 -7.284160852432250977e-01 -2.245938330888748169e-01
4.612273275852203369e-01 -8.033348917961120605e-01 -2.313751280307769775e-01
3.886053860187530518e-01 -5.860562324523925781e-01 -2.161204665899276733e-01
4.545772373676300049e-01 -6.394882798194885254e-01 -3.199030756950378418e-01
4.594091475009918213e-01 -5.155043601989746094e-01 -2.467325478792190552e-01
4.854127764701843262e-01 -7.675436139106750488e-01 -2.944338917732238770e-01
4.839259386062622070e-01 -6.876247525215148926e-01 -3.057788610458374023e-01
4.178541004657745361e-01 -7.175335288047790527e-01 -3.204261958599090576e-01
4.451046586036682129e-01 -5.625728964805603027e-01 -3.090093135833740234e-01
4.567755460739135742e-01 -8.200669288635253906e-01 -2.881676852703094482e-01
4.483557939529418945e-01 -6.249104142189025879e-01 -3.203554749488830566e-01
4.475226402282714844e-01 -5.241582989692687988e-01 -2.917377054691314697e-01
4.704547226428985596e-01 -8.251281380653381348e-01 -2.612309753894805908e-01
4.073050022125244141e-01 -8.036550879478454590e-01 -2.748532891273498535e-01
4.466617405414581299e-01 -5.756164193153381348e-01 -2.078489363193511963e-01
4.412424266338348389e-01 -5.065656900405883789e-01 -2.337153851985931396e-01
4.670600891113281250e-01 -7.119290828704833984e-01 -2.081509381532669067e-01
3.948414623737335205e-01 -7.691819071769714355e-01 -2.899502217769622803e-01
4.521735310554504395e-01 -6.387299895286560059e-01 -2.015573531389236450e-01
4.713740944862365723e-01 -5.333077907562255859e-01 -2.534809410572052002e-01
4.721207618713378906e-01 -5.803948044776916504e-01 -2.202592343091964722e-01
4.175375103950500488e-01 -4.899571239948272705e-01 -2.771934270858764648e-01
5.048463344573974609e-01 -7.258197069168090820e-01 -2.622675895690917969e-01
4.539856314659118652e-01 -7.642784118652343750e-01 -3.128218352794647217e-01
4.371741116046905518e-01 -6.275959610939025879e-01 -2.000119388103485107e-01
3.703780174255371094e-01 -5.967186093330383301e-01 -2.331788837909698486e-01
4.585320055484771729e-01 -5.689489245414733887e-01 -3.044390678405761719e-01
4.396255910396575928e-01 -8.217742443084716797e-01 -2.436108887195587158e-01
3.875605762004852295e-01 -5.164999961853027344e-01 -2.377004027366638184e-01
4.933753907680511475e-01 -7.227205634117126465e-01 -2.280919402837753296e-01
4.408669471740722656e-01 -6.100289821624755859e-01 -2.015981674194335938e-01
4.773609042167663574e-01 -5.872460603713989258e-01 -2.231177091598510742e-01
4.353378713130950928e-01 -7.424281239509582520e-01 -3.189315795898437500e-01
3.855996727943420410e-01 -7.235452532768249512e-01 -3.000105917453765869e-01
4.093889892101287842e-01 -5.904698371887207031e-01 -2.060202807188034058e-01
3.789240717887878418e-01 -5.161730647087097168e-01 -2.550530731678009033e-01
4.775777459144592285e-01 -8.050208091735839844e-01 -2.846639752388000488e-01
4.084843099117279053e-01 -5.145691633224487305e-01 -2.255559265613555908e-01
3.728493154048919678e-01 -5.456496477127075195e-01 -2.817129790782928467e-01
4.122391641139984131e-01 -4.914370477199554443e-01 -2.405280619859695435e-01
4.069437980651855469e-01 -7.999314665794372559e-01 -2.521568536758422852e-01
4.789737761020660400e-01 -5.826781392097473145e-01 -2.909533977508544922e-01
4.333707392215728760e-01 -5.082708597183227539e-01 -2.288107424974441528e-01
4.153568446636199951e-01 -5.233440399169921875e-01 -2.202137559652328491e-01
4.424300193786621094e-01 -7.875432968139648438e-01 -3.072386682033538818e-01
4.919072389602661133e-01 -7.841561436653137207e-01 -2.495462596416473389e-01
4.104332327842712402e-01 -5.805513858795166016e-01 -2.069782614707946777e-01
4.808148145675659180e-01 -6.604295372962951660e-01 -3.070144653320312500e-01
4.483074545860290527e-01 -6.925438046455383301e-01 -2.018358707427978516e-01
4.233042001724243164e-01 -5.039135217666625977e-01 -2.890116572380065918e-01
3.651510477066040039e-01 -6.284349560737609863e-01 -2.871964573860168457e-01
4.282090365886688232e-01 -5.891491770744323730e-01 -3.186244964599609375e-01
3.870006203651428223e-01 -6.525362730026245117e-01 -3.122159838676452637e-01
4.951916635036468506e-01 -6.423859596252441406e-01 -2.319307923316955566e-01
4.758540987968444824e-01 -6.069764494895935059e-01 -3.023799657821655273e-01
4.755737781524658203e-01 -5.462960600852966309e-01 -2.712589204311370850e-01
4.939759969711303711e-01 -7.471038699150085449e-01 -2.342008948326110840e-01
3.802719414234161377e-01 -7.391521334648132324e-01 -2.490104883909225464e-01
4.291394352912902832e-01 -5.169464349746704102e-01 -2.229900956153869629e-01
4.599212408065795898e-01 -6.304318308830261230e-01 -3.168241381645202637e-01
3.882460594177246094e-01 -6.264693737030029297e-01 -2.140248566865921021e-01
3.653083145618438721e-01 -5.877615213394165039e-01 -2.829397618770599365e-01
4.738957881927490234e-01 -6.951812505722045898e-01 -3.130924701690673828e-01
4.027243852615356445e-01 -7.671568989753723145e-01 -2.316647768020629883e-01
4.189663529396057129e-01 -8.186269998550415039e-01 -2.610368728637695312e-01
4.469762742519378662e-01 -8.261246085166931152e-01 -2.466382086277008057e-01
4.481089711189270020e-01 -5.636413097381591797e-01 -2.110983282327651978e-01
3.855600655078887939e-01 -5.043199062347412109e-01 -2.544911801815032959e-01
4.833015501499176025e-01 -7.676018476486206055e-01 -2.287044227123260498e-01
4.863394200801849365e-01 -8.020173907279968262e-01 -2.562413811683654785e-01
3.946110606193542480e-01 -7.239766120910644531e-01 -3.083653151988983154e-01
4.885929524898529053e-01 -7.022224664688110352e-01 -3.012717664241790771e-01
3.678880929946899414e-01 -5.483154654502868652e-01 -2.678202986717224121e-01
4.322141110897064209e-01 -7.264295816421508789e-01 -2.063095122575759888e-01
4.471654295921325684e-01 -5.059655308723449707e-01 -2.775509357452392578e-01
4.009906649589538574e-01 -7.825367450714111328e-01 -2.436624765396118164e-01
4.974526464939117432e-01 -6.131303906440734863e-01 -2.633847296237945557e-01
3.656212389469146729e-01 -6.744331121444702148e-01 -2.507585287094116211e-01
3.602918088436126709e-01 -6.311030387878417969e-01 -2.633924782276153564e-01
4.477356672286987305e-01 -8.252173662185668945e-01 -2.851198017597198486e-01
3.710080087184906006e-01 -5.386602878570556641e-01 -2.709049880504608154e-01
4.284470379352569580e-01 -5.462481975555419922e-01 -2.119997739791870117e-01
4.926198422908782959e-01 -7.645641565322875977e-01 -2.858818471431732178e-01
5.039012432098388672e-01 -7.260791659355163574e-01 -2.511078715324401855e-01
4.809125661849975586e-01 -5.634230375289916992e-01 -2.756868004798889160e-01
3.945379555225372314e-01 -6.734482645988464355e-01 -2.125222682952880859e-01
4.918487071990966797e-01 -6.064610481262207031e-01 -2.800500690937042236e-01
3.706037998199462891e-01 -7.128773927688598633e-01 -2.608706653118133545e-01
4.002283811569213867e-01 -5.007882118225097656e-01 -2.377099841833114624e-01
4.225870668888092041e-01 -5.875374674797058105e-01 -2.038896381855010986e-01
4.994180202484130859e-01 -6.358633041381835938e-01 -2.439732551574707031e-01
3.770411312580108643e-01 -7.384580969810485840e-01 -2.638588845729827881e-01
4.102324545383453369e-01 -5.580675601959228516e-01 -3.111120760440826416e-01
3.612564504146575928e-01 -6.433385610580444336e-01 -2.720653414726257324e-01
4.311453402042388916e-01 -5.735472440719604492e-01 -3.152198195457458496e-01
4.552011489868164062e-01 -5.501251816749572754e-01 -2.184825539588928223e-01
4.395176470279693604e-01 -7.787162065505981445e-01 -2.190953493118286133e-01
4.330155551433563232e-01 -5.452492833137512207e-01 -3.069752156734466553e-01
3.861354887485504150e-01 -6.224630475044250488e-01 -3.112775683403015137e-01
4.685097336769104004e-01 -6.689026951789855957e-01 -2.063696682453155518e-01
4.663999378681182861e-01 -5.931187272071838379e-01 -3.063285350799560547e-01
-2.911484241485595703e-01 8.245078325271606445e-01 2.775923013687133789e-01
-2.741183042526245117e-01 6.606981158256530762e-02 1.824173629283905029e-01
-2.374981343746185303e-01 4.645381271839141846e-01 -3.936909437179565430e-01
-2.145655751228332520e-01 4.820444285869598389e-01 -2.151339501142501831e-01
-2.264448553323745728e-01 1.427738368511199951e-01 3.219468891620635986e-02
-2.462349683046340942e-01 3.565627336502075195e-01 4.026975631713867188e-01
-2.086270004510879517e-01 5.066511631011962891e-01 -9.278785437345504761e-02
-2.298727482557296753e-01 2.892353534698486328e-01 -3.028768301010131836e-01
-2.152607440948486328e-01 2.533487081527709961e-01 -4.529850557446479797e-02
-3.287017941474914551e-01 4.604755043983459473e-01 -8.260482922196388245e-03
-2.956072092056274414e-01 2.684565186500549316e-01 -3.531320095062255859e-01
-3.183781802654266357e-01 3.875325620174407959e-01 2.237173616886138916e-01
-2.847829163074493408e-01 7.509556412696838379e-02 -1.865345984697341919e-01
-2.751843631267547607e-01 2.961868047714233398e-02 -9.573660790920257568e-02
-2.330869138240814209e-01 1.463780105113983154e-01 1.718549430370330811e-01
-2.266083359718322754e-01 7.143299579620361328e-01 -2.452338784933090210e-01
-2.368929982185363770e-01 8.880090713500976562e-01 -5.742203816771507263e-02
-2.352793961763381958e-01 2.628080248832702637e-01 -3.216403424739837646e-01
-3.219980597496032715e-01 2.949618101119995117e-01 -9.267649054527282715e-02
-3.242276310920715332e-01 6.605197191238403320e-01 7.209865003824234009e-02
-2.124067544937133789e-01 3.979966044425964355e-01 1.657474040985107422e-01
-2.296319007873535156e-01 8.501366376876831055e-01 5.590028688311576843e-02
-2.142272740602493286e-01 4.203298985958099365e-01 2.047054618597030640e-01
-2.085918337106704712e-01 5.326645374298095703e-01 8.939228206872940063e-02
-2.251903712749481201e-01 6.443077325820922852e-01 2.898792028427124023e-01
-3.064871728420257568e-01 8.599527478218078613e-01 3.895558789372444153e-02
-2.082856148481369019e-01 4.733148515224456787e-01 -8.295495063066482544e-02
-3.012315034866333008e-01 8.899671435356140137e-01 3.338772058486938477e-02
-3.181344270706176758e-01 6.607768535614013672e-01 2.005612403154373169e-01
-3.021863996982574463e-01 8.586037158966064453e-01 1.410913318395614624e-01
-2.416010051965713501e-01 8.058696985244750977e-02 -1.299112141132354736e-01
-3.097783923149108887e-01 2.951441407203674316e-01 2.587997019290924072e-01
-3.179807662963867188e-01 7.663106322288513184e-01 1.624974235892295837e-02
-2.279634177684783936e-01 2.312408089637756348e-01 2.353793531656265259e-01
-2.191420197486877441e-01 4.885294139385223389e-01 2.732247710227966309e-01
-3.072795271873474121e-01 1.957905292510986328e-01 -2.076832652091979980e-01
-3.041995465755462646e-01 7.495778799057006836e-01 2.713800072669982910e-01
-2.930841743946075439e-01 9.243195056915283203e-01 2.725707739591598511e-02
-2.114269733428955078e-01 4.407130479812622070e-01 1.636263430118560791e-01
-3.175013065338134766e-01 4.193425178527832031e-01 2.457753121852874756e-01
-2.955117225646972656e-01 8.492026925086975098e-01 2.216691970825195312e-01
-3.136254847049713135e-01 4.261130690574645996e-01 2.856966257095336914e-01
-2.510328590869903564e-01 1.519806683063507080e-01 2.856864631175994873e-01
-2.134552896022796631e-01 6.824802756309509277e-01 7.177230715751647949e-02
-3.242221176624298096e-01 3.455388844013214111e-01 -1.075079664587974548e-01
-2.366266548633575439e-01 5.368027091026306152e-01 3.885516226291656494e-01
-2.159712612628936768e-01 2.563348114490509033e-01 8.282718062400817871e-02
-3.184419572353363037e-01 6.305893659591674805e-01 -2.250940054655075073e-01
-2.087182700634002686e-01 5.893071293830871582e-01 -2.415754133835434914e-03
-3.261032700538635254e-01 6.204690337181091309e-01 -7.339640706777572632e-02
-3.165330290794372559e-01 7.373859286308288574e-01 -1.505403071641921997e-01
-2.736767530441284180e-01 9.415061473846435547e-01 1.403249055147171021e-01
-3.189648687839508057e-01 2.878779172897338867e-01 1.358101963996887207e-01
-2.706320285797119141e-01 6.013956069946289062e-01 -4.433182775974273682e-01
-3.279396593570709229e-01 4.994558095932006836e-01 -8.863136172294616699e-02
-2.310962229967117310e-01 4.556232690811157227e-01 3.609968721866607666e-01
-2.290786504745483398e-01 5.102443695068359375e-01 3.507110178470611572e-01
-2.961473464965820312e-01 4.181664586067199707e-01 3.904726803302764893e-01
-2.138010859489440918e-01 2.779799103736877441e-01 5.444940552115440369e-02
-2.233508527278900146e-01 7.161173224449157715e-01 -2.092101424932479858e-01
-2.097105085849761963e-01 4.489193856716156006e-01 1.276050209999084473e-01
-3.207449913024902344e-01 4.246848225593566895e-01 2.076400071382522583e-01
-2.236883491277694702e-01 3.928436338901519775e-01 2.985287904739379883e-01
-2.800519466400146484e-01 9.553143978118896484e-01 3.220034763216972351e-02
-2.195092290639877319e-01 4.718571603298187256e-01 -2.729313969612121582e-01
-3.279013931751251221e-01 5.696108937263488770e-01 3.675191849470138550e-02
-2.970756590366363525e-01 1.070544719696044922e-01 -1.596995741128921509e-01
-2.170030921697616577e-01 7.426992654800415039e-01 7.773844059556722641e-03
-2.410525083541870117e-01 8.249207735061645508e-01 2.543875873088836670e-01
-2.593179345130920410e-01 3.709331750869750977e-01 4.318301379680633545e-01
-3.022681474685668945e-01 8.773428797721862793e-01 -7.726108282804489136e-02
-2.292983978986740112e-01 2.037264704704284668e-01 2.176165133714675903e-01
-2.762511372566223145e-01 4.805989265441894531e-01 4.475576281547546387e-01
-3.042526543140411377e-01 1.147735416889190674e-01 -2.298882231116294861e-02
-2.857767343521118164e-01 1.085278689861297607e-01 2.181303203105926514e-01
-2.161982506513595581e-01 2.427507787942886353e-01 4.876920953392982483e-02
-3.274612128734588623e-01 4.922741651535034180e-01 8.957438915967941284e-02
-2.466430664062500000e-01 1.772686839103698730e-01 -3.106519281864166260e-01
-3.258560895919799805e-01 5.147324204444885254e-01 -1.489845961332321167e-01
-2.096487134695053101e-01 3.790823817253112793e-01 7.991626113653182983e-02
-3.044280409812927246e-01 8.743299245834350586e-01 6.087252404540777206e-04
-2.159194499254226685e-01 7.135025262832641602e-01 -7.581709325313568115e-02
-3.198678195476531982e-01 3.232585191726684570e-01 -1.816954463720321655e-01
-2.919915914535522461e-01 2.196497619152069092e-01 3.148253560066223145e-01
-2.308641821146011353e-01 8.608211874961853027e-01 2.495414391160011292e-02
-2.908113598823547363e-01 1.182920038700103760e-01 -2.317136675119400024e-01
-2.152838408946990967e-01 6.762533187866210938e-01 -1.263958066701889038e-01
-3.035669624805450439e-01 8.154776096343994141e-01 -2.035046517848968506e-01
-3.189149200916290283e-01 4.224260747432708740e-01 -2.485643923282623291e-01
-2.302729338407516479e-01 8.362974524497985840e-01 1.271424591541290283e-01
-2.636901438236236572e-01 7.429209351539611816e-01 -3.810409307479858398e-01
-2.898182272911071777e-01 4.198294579982757568e-01 -4.257317483425140381e-01
-2.858871221542358398e-01 4.598704278469085693e-01 -4.394431412220001221e-01
-3.095155954360961914e-01 6.983021497726440430e-01 -2.728351056575775146e-01
-2.448077648878097534e-01 2.491098344326019287e-01 3.473339080810546875e-01
-2.079507112503051758e-01 4.107539951801300049e-01 1.745139993727207184e-02
-3.211792111396789551e-01 4.153062999248504639e-01 -2.170217782258987427e-01
-2.181382179260253906e-01 2.901664078235626221e-01 -1.830272376537322998e-01
-3.083306550979614258e-01 8.338959217071533203e-01 -1.017818227410316467e-01
-3.089025318622589111e-01 4.453480839729309082e-01 3.264756798744201660e-01
-3.160445094108581543e-01 7.319340705871582031e-01 1.616591513156890869e-01
-2.413568645715713501e-01 6.807446479797363281e-02 5.820195004343986511e-02
-3.215114474296569824e-01 5.973331928253173828e-01 1.890490204095840454e-01
-2.241859585046768188e-01 1.667108535766601562e-01 -7.891291379928588867e-02
-3.232544660568237305e-01 5.482219457626342773e-01 1.781452447175979614e-01
-3.276413083076477051e-01 5.340257287025451660e-01 7.730109244585037231e-02
-2.833320498466491699e-01 6.551204323768615723e-01 4.113739430904388428e-01
-2.468269020318984985e-01 5.677747726440429688e-02 -1.081086620688438416e-01
-2.398090660572052002e-01 1.502769291400909424e-01 2.329262942075729370e-01
-3.055711686611175537e-01 5.610452294349670410e-01 3.479850888252258301e-01
-2.278411984443664551e-01 4.868234694004058838e-01 -3.408969044685363770e-01
-2.655094265937805176e-01 8.362084627151489258e-02 -2.425855696201324463e-01
-2.117154002189636230e-01 6.499288678169250488e-01 7.193662226200103760e-02
-3.169631063938140869e-01 7.444908618927001953e-01 1.256480962038040161e-01
-2.833808660507202148e-01 2.788429260253906250e-01 -3.983860611915588379e-01
-2.537546753883361816e-01 1.922832727432250977e-01 -3.456450104713439941e-01
-2.367810904979705811e-01 2.914447188377380371e-01 -3.461526334285736084e-01
-2.123574465513229370e-01 4.835653901100158691e-01 1.864257454872131348e-01
-3.172597587108612061e-01 3.266180753707885742e-01 -2.230100929737091064e-01
-2.156955599784851074e-01 4.545702040195465088e-01 2.322423756122589111e-01
