1.397415995597839355e-03 -6.088376641273498535e-01 -3.189620375633239746e-02
1.029958575963973999e-01 -4.705582857131958008e-01 -1.170490011572837830e-01
-3.214444220066070557e-02 -6.051652431488037109e-01 2.218446135520935059e-02
4.279322028160095215e-01 -5.503548383712768555e-01 -2.790339887142181396e-01
1.102358624339103699e-01 -5.050012469291687012e-01 -2.472854256629943848e-01
1.726720631122589111e-01 -4.461606740951538086e-01 2.255863547325134277e-01
-2.191193401813507080e-02 -5.582574605941772461e-01 -2.353245019912719727e-01
4.723393917083740234e-02 -5.590269565582275391e-01 3.413929641246795654e-01
-5.932046473026275635e-02 -5.054771304130554199e-01 3.807703256607055664e-01
2.041627168655395508e-01 -4.535051882266998291e-01 -4.269697517156600952e-02
3.971254825592041016e-02 -6.069285869598388672e-01 8.512070775032043457e-02
-3.974208235740661621e-02 -5.757146477699279785e-01 2.669095098972320557e-01
2.941659390926361084e-01 -4.745575785636901855e-01 3.232603967189788818e-01
-1.632326692342758179e-01 -4.952088892459869385e-01 2.307302355766296387e-01
3.699833154678344727e-01 -5.888600945472717285e-01 4.735475033521652222e-02
3.916873931884765625e-01 -5.869740247726440430e-01 -2.022152245044708252e-01
5.286849737167358398e-01 -5.171427130699157715e-01 6.276216357946395874e-02
3.593171238899230957e-01 -5.975828170776367188e-01 -5.045072734355926514e-02
2.388376146554946899e-01 -5.816387534141540527e-01 2.153484225273132324e-01
1.481107026338577271e-01 -4.906196892261505127e-01 -2.198888361454010010e-01
7.656853646039962769e-02 -6.119295954704284668e-01 -1.048840060830116272e-01
4.973680973052978516e-01 -4.928577840328216553e-01 1.186279281973838806e-01
-6.370168924331665039e-02 -4.752812981605529785e-01 1.388125494122505188e-02
2.154180407524108887e-02 -4.540210664272308350e-01 2.283195853233337402e-01
4.174989461898803711e-01 -5.873377919197082520e-01 -1.233276203274726868e-01
2.503815293312072754e-02 -5.479428768157958984e-01 -2.665965259075164795e-01
-1.154511421918869019e-01 -4.873286783695220947e-01 2.124130912125110626e-02
1.553523093461990356e-01 -6.050087213516235352e-01 1.046525388956069946e-01
2.128590643405914307e-01 -4.444067776203155518e-01 1.849074959754943848e-01
-1.877490729093551636e-01 -5.542214512825012207e-01 -1.226465404033660889e-02
-1.310764700174331665e-01 -5.822647213935852051e-01 1.454666852951049805e-01
3.126747012138366699e-01 -5.918556451797485352e-01 -2.495527863502502441e-01
8.052109926939010620e-02 -6.134314537048339844e-01 -6.077598780393600464e-02
3.606059551239013672e-01 -5.846047401428222656e-01 9.498763084411621094e-02
5.291461944580078125e-01 -5.374674797058105469e-01 -1.385873556137084961e-01
-1.852831393480300903e-01 -5.048873424530029297e-01 9.826960414648056030e-02
-8.347038924694061279e-02 -5.706712603569030762e-01 2.646563947200775146e-01
1.441816985607147217e-01 -5.497907996177673340e-01 3.552871346473693848e-01
4.969970881938934326e-02 -5.719600915908813477e-01 3.007056117057800293e-01
8.144835382699966431e-02 -6.025412082672119141e-01 -1.999466419219970703e-01
2.451181411743164062e-02 -5.908082127571105957e-01 -2.169895470142364502e-01
3.455670177936553955e-02 -4.941320419311523438e-01 -1.758659183979034424e-01
4.541242718696594238e-01 -4.711954593658447266e-01 1.136891692876815796e-01
3.087795972824096680e-01 -4.986706078052520752e-01 3.423153460025787354e-01
-4.241311550140380859e-02 -5.997197628021240234e-01 1.052296683192253113e-01
-1.096963882446289062e-03 -6.016288399696350098e-01 -1.407550573348999023e-01
7.506072521209716797e-02 -5.873388051986694336e-01 2.351391911506652832e-01
1.589285880327224731e-01 -6.010869741439819336e-01 1.365350037813186646e-01
1.769813001155853271e-01 -4.436399042606353760e-01 1.667582392692565918e-01
8.855295181274414062e-02 -6.097939014434814453e-01 6.206509470939636230e-02
4.237639904022216797e-01 -4.639118611812591553e-01 1.249049976468086243e-01
2.371671497821807861e-01 -4.481935799121856689e-01 2.296707630157470703e-01
2.668602764606475830e-01 -4.578130841255187988e-01 -8.000691235065460205e-02
1.772606968879699707e-01 -6.137540340423583984e-01 -6.702248007059097290e-02
-2.005238682031631470e-01 -5.195879936218261719e-01 2.133328914642333984e-01
-1.652181893587112427e-01 -5.642132759094238281e-01 -4.950833320617675781e-02
7.837727665901184082e-03 -5.797141790390014648e-01 2.645383477210998535e-01
-6.802567839622497559e-02 -5.959320068359375000e-01 1.153544411063194275e-01
3.154661655426025391e-01 -6.022369861602783203e-01 -1.595779657363891602e-01
2.623095214366912842e-01 -4.960462152957916260e-01 3.667754530906677246e-01
4.607184529304504395e-01 -5.188817381858825684e-01 1.958729326725006104e-01
2.688193321228027344e-02 -5.793937444686889648e-01 -2.476811110973358154e-01
1.480315625667572021e-01 -4.538658559322357178e-01 2.977652251720428467e-01
1.213582307100296021e-01 -4.458768665790557861e-01 2.024187743663787842e-01
9.410202503204345703e-02 -6.064667105674743652e-01 1.017521619796752930e-01
3.000244498252868652e-01 -4.506800472736358643e-01 -9.654462337493896484e-04
1.398115456104278564e-01 -4.732753336429595947e-01 3.746267259120941162e-01
-1.728291809558868408e-02 -5.307828783988952637e-01 3.869984745979309082e-01
3.486163914203643799e-02 -4.747105538845062256e-01 -9.404551237821578979e-02
1.362984329462051392e-01 -4.451848268508911133e-01 1.006441116333007812e-01
2.267192006111145020e-01 -4.655424654483795166e-01 -1.298885047435760498e-01
-1.112412363290786743e-01 -5.715465545654296875e-01 -1.298511028289794922e-01
2.127531766891479492e-01 -4.818919003009796143e-01 -2.046311497688293457e-01
1.881143152713775635e-01 -5.698305368423461914e-01 2.859209775924682617e-01
4.709619283676147461e-01 -5.686576366424560547e-01 -1.742942333221435547e-01
4.904825091361999512e-01 -5.512399673461914062e-01 6.750971078872680664e-02
-3.658123314380645752e-02 -5.443046092987060547e-01 3.610461354255676270e-01
1.341803520917892456e-01 -5.090768933296203613e-01 -2.658714354038238525e-01
3.186672925949096680e-01 -4.556111097335815430e-01 -4.633957147598266602e-02
3.789877891540527344e-01 -5.852519273757934570e-01 -2.303483784198760986e-01
1.661197245121002197e-01 -5.577505230903625488e-01 -3.240700364112854004e-01
4.007880091667175293e-01 -4.583854079246520996e-01 1.110107377171516418e-01
1.394004374742507935e-01 -6.143320798873901367e-01 -6.113918870687484741e-02
4.436116218566894531e-01 -4.660222232341766357e-01 1.818573102355003357e-02
-1.977260559797286987e-01 -5.255498886108398438e-01 3.431267291307449341e-02
3.770445883274078369e-01 -4.566904306411743164e-01 1.528489887714385986e-01
-1.079692989587783813e-01 -5.239627361297607422e-01 -1.270471811294555664e-01
1.432424783706665039e-01 -6.140367388725280762e-01 -3.256099671125411987e-02
1.531080752611160278e-01 -5.953339338302612305e-01 -2.582494020462036133e-01
5.125499367713928223e-01 -4.878797233104705811e-01 -1.004246249794960022e-02
2.695156931877136230e-01 -4.511493146419525146e-01 2.366258203983306885e-01
1.713038831949234009e-01 -6.119389533996582031e-01 9.366644546389579773e-03
-1.011834889650344849e-01 -5.947605371475219727e-01 3.737436234951019287e-02
-2.103298902511596680e-03 -5.469319224357604980e-01 -2.487953305244445801e-01
1.698272526264190674e-01 -4.597659111022949219e-01 3.270222842693328857e-01
-1.515286117792129517e-01 -5.626436471939086914e-01 2.323455214500427246e-01
2.512550950050354004e-01 -5.653116106986999512e-01 2.735584676265716553e-01
1.965339481830596924e-01 -4.470759630203247070e-01 2.925039455294609070e-02
3.972835838794708252e-02 -5.191251635551452637e-01 -2.431290149688720703e-01
3.928841948509216309e-01 -4.968795776367187500e-01 -2.325157225131988525e-01
4.898616671562194824e-01 -4.837234914302825928e-01 -7.153745740652084351e-02
4.180778861045837402e-01 -5.143339037895202637e-01 -2.621532976627349854e-01
2.673061788082122803e-01 -5.880191922187805176e-01 1.642242074012756348e-01
-1.638083904981613159e-01 -5.075031518936157227e-01 2.815302908420562744e-01
-7.717365026473999023e-02 -4.682037234306335449e-01 1.360172033309936523e-01
4.802697300910949707e-01 -5.384185314178466797e-01 1.328216195106506348e-01
1.908191889524459839e-01 -4.595108032226562500e-01 -8.607494086027145386e-02
6.790022552013397217e-02 -4.487199187278747559e-01 1.242074593901634216e-01
2.682524919509887695e-01 -4.448670446872711182e-01 1.233332827687263489e-01
-5.330860614776611328e-02 -5.886251330375671387e-01 -1.530356407165527344e-01
5.075630545616149902e-02 -6.108739376068115234e-01 2.805284224450588226e-02
2.452792376279830933e-01 -5.573799014091491699e-01 3.009394705295562744e-01
-8.553673326969146729e-02 -5.966172218322753906e-01 -3.248085826635360718e-02
-1.231374293565750122e-01 -5.863986611366271973e-01 1.202994138002395630e-01
2.726641297340393066e-02 -4.741933047771453857e-01 3.652514517307281494e-01
3.031874895095825195e-01 -4.520854949951171875e-01 2.151772379875183105e-01
7.504560053348541260e-02 -4.760254621505737305e-01 -1.286122798919677734e-01
4.029085636138916016e-01 -4.754062592983245850e-01 -1.377426981925964355e-01
2.074765861034393311e-01 -4.504988193511962891e-01 -1.452353224158287048e-02
-1.809061616659164429e-01 -5.134868621826171875e-01 2.585777044296264648e-01
-1.132227033376693726e-01 -5.555537343025207520e-01 2.957330942153930664e-01
1.141466423869132996e-01 -5.566098690032958984e-01 -3.096129894256591797e-01
4.985004663467407227e-03 -5.560100078582763672e-01 3.449566960334777832e-01
1.483257710933685303e-01 -5.824100971221923828e-01 2.481935024261474609e-01
3.391499519348144531e-01 -5.236327648162841797e-01 -3.066844940185546875e-01
1.695966720581054688e-02 -6.081905364990234375e-01 -9.358868747949600220e-02
3.817593455314636230e-01 -5.778042078018188477e-01 1.112240552902221680e-01
2.942867279052734375e-01 -6.004089713096618652e-01 4.385925456881523132e-02
3.853655457496643066e-01 -5.821473598480224609e-01 7.758528739213943481e-02
-1.982091814279556274e-01 -5.607640147209167480e-01 1.132878661155700684e-01
-8.523067831993103027e-02 -4.985723197460174561e-01 -8.232760429382324219e-02
4.571224451065063477e-01 -5.610935091972351074e-01 -2.331072390079498291e-01
1.350675821304321289e-01 -5.963620543479919434e-01 1.766003072261810303e-01
4.354584813117980957e-01 -4.884895980358123779e-01 2.193557024002075195e-01
-1.568488329648971558e-01 -4.948781132698059082e-01 7.061655074357986450e-02
2.044631540775299072e-01 -6.058874130249023438e-01 -2.025910615921020508e-01
4.941010475158691406e-01 -5.026628375053405762e-01 1.436821520328521729e-01
3.313869237899780273e-03 -5.003525614738464355e-01 -1.737860739231109619e-01
4.912637472152709961e-01 -5.417107343673706055e-01 1.030377298593521118e-01
-1.025008708238601685e-01 -5.881592035293579102e-01 -7.901160418987274170e-02
-5.053639411926269531e-02 -4.814166426658630371e-01 -4.505759477615356445e-02
2.330329865217208862e-01 -4.535530805587768555e-01 -4.639641195535659790e-02
7.053249329328536987e-02 -5.973888635635375977e-01 1.761449873447418213e-01
9.698203951120376587e-02 -4.469439983367919922e-01 1.116305738687515259e-01
3.609820008277893066e-01 -5.952837467193603516e-01 -9.301185607910156250e-03
3.165822029113769531e-01 -5.876176953315734863e-01 1.249364241957664490e-01
6.436167657375335693e-02 -4.505559206008911133e-01 8.532173186540603638e-02
2.152184844017028809e-01 -6.082486510276794434e-01 3.465420752763748169e-02
-1.981001645326614380e-01 -5.607186555862426758e-01 6.329250335693359375e-02
2.310959994792938232e-02 -5.730522274971008301e-01 2.943388819694519043e-01
1.429439634084701538e-01 -4.442952275276184082e-01 1.694606840610504150e-01
2.303628176450729370e-01 -5.925530195236206055e-01 1.612849831581115723e-01
1.602658331394195557e-01 -5.102685689926147461e-01 -2.765116393566131592e-01
-1.239708811044692993e-01 -5.182647109031677246e-01 -9.396197646856307983e-02
2.343914806842803955e-01 -4.603805541992187500e-01 3.106064796447753906e-01
-6.056457757949829102e-03 -5.724586248397827148e-01 2.910514175891876221e-01
-5.350907146930694580e-02 -4.639654755592346191e-01 2.173698246479034424e-01
6.811975687742233276e-02 -5.646132230758666992e-01 3.254081010818481445e-01
-1.568956226110458374e-01 -4.910561740398406982e-01 1.134151369333267212e-01
3.162878751754760742e-01 -5.803635120391845703e-01 -2.907901406288146973e-01
5.448299646377563477e-01 -5.181866884231567383e-01 -4.166352003812789917e-02
-7.580789923667907715e-02 -5.189758539199829102e-01 -1.527352631092071533e-01
4.575694799423217773e-01 -5.406934022903442383e-01 -2.581888735294342041e-01
1.917945891618728638e-01 -6.090394854545593262e-01 4.222532734274864197e-02
1.150255873799324036e-01 -4.558303058147430420e-01 -2.607187628746032715e-02
3.959830403327941895e-01 -5.462378859519958496e-01 -3.009367883205413818e-01
3.806104362010955811e-01 -5.559305548667907715e-01 2.088258266448974609e-01
2.827389836311340332e-01 -5.476635694503784180e-01 3.059255480766296387e-01
2.890844345092773438e-01 -5.004320740699768066e-01 -2.678692638874053955e-01
-1.854022890329360962e-01 -5.688227415084838867e-01 8.706222474575042725e-02
-7.331208884716033936e-02 -5.885795950889587402e-01 1.754468977451324463e-01
-9.274049103260040283e-02 -5.961381196975708008e-01 -7.089573889970779419e-03
1.936213225126266479e-01 -4.495969712734222412e-01 2.603963613510131836e-01
3.430758118629455566e-01 -5.895684957504272461e-01 -2.405584156513214111e-01
3.311637043952941895e-01 -4.662572443485260010e-01 -1.227232888340950012e-01
-4.229326546192169189e-02 -4.622198939323425293e-01 1.227554380893707275e-01
3.329253792762756348e-01 -4.494594931602478027e-01 1.209577247500419617e-01
3.271359801292419434e-01 -4.507592618465423584e-01 2.228641323745250702e-02
-7.312990725040435791e-02 -5.808310508728027344e-01 2.239767909049987793e-01
1.631211191415786743e-01 -4.733245670795440674e-01 -1.562898457050323486e-01
3.562550544738769531e-01 -5.987994074821472168e-01 -1.000253483653068542e-01
1.467687487602233887e-01 -5.672399401664733887e-01 3.069182038307189941e-01
-1.566669344902038574e-02 -5.894917845726013184e-01 -1.891698539257049561e-01
1.980616152286529541e-02 -6.098826527595520020e-01 1.106911525130271912e-02
-5.980791151523590088e-02 -5.924644470214843750e-01 -1.258464157581329346e-01
1.366411149501800537e-01 -4.920103549957275391e-01 4.028187394142150879e-01
2.541786432266235352e-01 -4.680025875568389893e-01 -1.451086997985839844e-01
-9.119994938373565674e-02 -5.129036903381347656e-01 3.649773001670837402e-01
2.950192391872406006e-01 -4.463428258895874023e-01 9.562689065933227539e-02
5.045760869979858398e-01 -5.600781440734863281e-01 -1.105867698788642883e-01
2.839171886444091797e-01 -6.062147617340087891e-01 -2.736027538776397705e-02
1.464675962924957275e-01 -4.487935900688171387e-01 2.728313952684402466e-02
4.087973833084106445e-01 -4.845273494720458984e-01 -1.788375079631805420e-01
8.729259669780731201e-02 -5.336549878120422363e-01 -2.881633043289184570e-01
5.142958760261535645e-01 -5.480501651763916016e-01 1.667353697121143341e-02
-6.148874759674072266e-03 -4.822315871715545654e-01 -9.672375768423080444e-02
4.651492089033126831e-02 -5.896652936935424805e-01 2.216484844684600830e-01
3.883010447025299072e-01 -5.193476080894470215e-01 2.760030329227447510e-01
-1.852336525917053223e-02 -6.069489717483520508e-01 -7.344000041484832764e-04
1.152588799595832825e-01 -5.904375314712524414e-01 -2.645985782146453857e-01
1.668275594711303711e-01 -6.112706065177917480e-01 -1.502182483673095703e-01
3.640109300613403320e-01 -4.551690816879272461e-01 8.590146899223327637e-05
-1.004880219697952271e-01 -4.741226136684417725e-01 1.177589744329452515e-01
4.866361618041992188e-01 -4.781235456466674805e-01 -1.297965273261070251e-02
1.382111310958862305e-01 -6.129270792007446289e-01 5.040593445301055908e-03
2.817234098911285400e-01 -4.487814009189605713e-01 2.015624642372131348e-01
2.246924787759780884e-01 -5.753920674324035645e-01 -3.160176873207092285e-01
-1.406736820936203003e-01 -4.848098754882812500e-01 2.117457985877990723e-01
4.263795018196105957e-01 -5.770274400711059570e-01 4.410959035158157349e-02
-7.681089639663696289e-02 -4.832126498222351074e-01 3.290047943592071533e-01
-3.755173087120056152e-02 -6.034955382347106934e-01 5.405622720718383789e-02
-8.915401995182037354e-02 -4.702196419239044189e-01 1.897894740104675293e-01
1.100474223494529724e-01 -4.545398056507110596e-01 2.988557517528533936e-01
2.351521849632263184e-01 -4.443859159946441650e-01 8.278970420360565186e-02
-8.175238966941833496e-03 -6.052072644233703613e-01 -9.595904499292373657e-02
1.681289672851562500e-01 -4.444971680641174316e-01 8.946928381919860840e-02
4.232342839241027832e-01 -4.729614257812500000e-01 1.916464269161224365e-01
2.767699360847473145e-01 -4.486024081707000732e-01 1.562485098838806152e-02
2.412450015544891357e-01 -5.953521728515625000e-01 1.359764635562896729e-01
4.214121103286743164e-01 -4.719870686531066895e-01 -9.907057136297225952e-02
-2.070892602205276489e-01 -5.216000676155090332e-01 1.867605745792388916e-01
-2.114741951227188110e-01 -5.259990096092224121e-01 1.003909856081008911e-01
1.043542027473449707e-01 -6.137627363204956055e-01 -8.170288801193237305e-02
2.701432406902313232e-01 -5.707718729972839355e-01 2.433242797851562500e-01
3.345210254192352295e-01 -4.847882390022277832e-01 -2.117006778717041016e-01
2.444267570972442627e-01 -4.452015459537506104e-01 1.802531182765960693e-01
3.075214028358459473e-01 -4.635006785392761230e-01 -1.124857440590858459e-01
3.221599459648132324e-01 -5.453650355339050293e-01 -3.266420960426330566e-01
1.922810673713684082e-01 -5.841602683067321777e-01 -2.973211705684661865e-01
3.653965890407562256e-01 -5.062878131866455078e-01 -2.682599723339080811e-01
2.098586410284042358e-01 -5.574122071266174316e-01 -3.310895264148712158e-01
7.613176107406616211e-02 -4.488975405693054199e-01 2.188130021095275879e-01
-1.805736869573593140e-01 -5.402923226356506348e-01 2.552868127822875977e-01
4.371016025543212891e-01 -4.651187062263488770e-01 9.325854480266571045e-02
2.695330679416656494e-01 -4.467656314373016357e-01 4.320896789431571960e-02
3.336615860462188721e-02 -6.084351539611816406e-01 6.014189869165420532e-02
2.734080255031585693e-01 -6.082612872123718262e-01 -6.463892012834548950e-02
-1.743304282426834106e-01 -5.179907083511352539e-01 -5.763925611972808838e-03
2.097022533416748047e-02 -6.003048419952392578e-01 1.446494460105895996e-01
-1.150704473257064819e-01 -4.770502150058746338e-01 2.095626890659332275e-01
3.978796005249023438e-01 -4.741807579994201660e-01 2.316672205924987793e-01
5.012080669403076172e-01 -4.853097200393676758e-01 6.732097268104553223e-02
-1.318972855806350708e-01 -5.827652812004089355e-01 -4.715001583099365234e-02
1.787806153297424316e-01 -6.073833703994750977e-01 7.041551172733306885e-02
-2.294097840785980225e-02 -6.031330823898315430e-01 8.450104296207427979e-02
7.851064950227737427e-02 -6.122862100601196289e-01 1.452024653553962708e-02
9.971264004707336426e-02 -5.776914358139038086e-01 2.771799564361572266e-01
8.208495378494262695e-02 -4.579158723354339600e-01 -2.029981836676597595e-02
-2.696707844734191895e-03 -5.951260328292846680e-01 1.754366755485534668e-01
2.029223740100860596e-01 -5.832539200782775879e-01 2.254351377487182617e-01
2.888234257698059082e-01 -5.317333340644836426e-01 -3.233088254928588867e-01
-9.838201105594635010e-02 -4.722759723663330078e-01 1.596414148807525635e-01
1.999935060739517212e-01 -4.469389319419860840e-01 2.314347326755523682e-01
3.890130221843719482e-01 -4.573246240615844727e-01 1.158494129776954651e-02
4.902148246765136719e-02 -6.016113758087158203e-01 -1.856550872325897217e-01
5.335670709609985352e-01 -5.404970049858093262e-01 -2.847587317228317261e-02
-6.704975664615631104e-02 -1.523903608322143555e-01 5.752009525895118713e-02
-2.171099931001663208e-01 4.319434612989425659e-02 -1.029565581120550632e-03
-2.056400179862976074e-01 7.331801205873489380e-02 8.289691805839538574e-02
-2.097200751304626465e-01 -7.227372378110885620e-02 1.980232149362564087e-01
-2.882271260023117065e-02 -3.772417083382606506e-02 -7.819744199514389038e-02
-1.863422989845275879e-01 -2.288670390844345093e-01 -9.953879565000534058e-02
-1.286196559667587280e-01 9.778556227684020996e-02 2.895334959030151367e-01
-1.643596440553665161e-01 -2.447172552347183228e-01 -6.608304381370544434e-02
-2.227773368358612061e-01 -9.860800951719284058e-02 -1.345091164112091064e-01
-7.057516276836395264e-02 -1.183227598667144775e-01 1.794736683368682861e-01
-2.287919223308563232e-01 -6.719701737165451050e-02 -8.643580973148345947e-02
-4.504420608282089233e-02 -8.894305676221847534e-02 -9.512200951576232910e-02
-1.273868083953857422e-01 3.165706247091293335e-02 -3.155048489570617676e-01
-1.080201119184494019e-01 2.460470348596572876e-01 3.211423754692077637e-02
-2.049210071563720703e-01 1.444508321583271027e-02 1.816936582326889038e-01
-1.052213609218597412e-01 -1.817122995853424072e-01 1.673772335052490234e-01
-2.248465120792388916e-01 -1.743750721216201782e-01 2.230978012084960938e-02
-1.214956268668174744e-01 1.560183316469192505e-01 2.435936182737350464e-01
-1.329662054777145386e-01 1.275283843278884888e-01 -2.595711946487426758e-01
-4.305889457464218140e-02 -3.602979704737663269e-02 -1.769049763679504395e-01
-5.038609355688095093e-02 -8.964577317237854004e-02 -1.323294043540954590e-01
-2.332845330238342285e-02 -4.746474325656890869e-03 9.791678190231323242e-02
-1.192802935838699341e-02 6.305058300495147705e-02 5.996647849678993225e-02
-1.305578052997589111e-01 -1.819675564765930176e-01 -2.069731056690216064e-01
-1.959208846092224121e-01 -2.322739511728286743e-01 5.010461807250976562e-02
-1.064346209168434143e-01 -1.785101145505905151e-01 -1.730649918317794800e-01
-7.385975122451782227e-02 2.389491945505142212e-01 1.152781620621681213e-01
-3.349477052688598633e-02 1.226713061332702637e-01 1.923330724239349365e-01
-1.320463269948959351e-01 1.082118228077888489e-01 -2.771768867969512939e-01
-1.007858812808990479e-01 -2.053972035646438599e-01 6.728892028331756592e-02
-2.242171168327331543e-01 -4.550348594784736633e-02 -1.152232587337493896e-01
-3.515287488698959351e-02 -6.067191809415817261e-02 -8.306603133678436279e-02
-5.582938343286514282e-02 1.803519278764724731e-01 -1.991712301969528198e-01
-2.680532634258270264e-02 -6.386289373040199280e-03 -1.201025843620300293e-01
-2.305291295051574707e-01 -1.168631538748741150e-01 -6.291113048791885376e-02
-1.844428926706314087e-01 -1.770142763853073120e-01 2.026906162500381470e-01
-6.804717332124710083e-02 5.917033553123474121e-02 -2.801938951015472412e-01
-1.171666234731674194e-01 1.871063858270645142e-01 2.049912214279174805e-01
-1.217478066682815552e-01 2.131162434816360474e-01 -1.404985785484313965e-01
-2.283399999141693115e-01 -4.071257263422012329e-02 -7.008332759141921997e-02
-9.388044476509094238e-02 -1.229636296629905701e-01 2.368954718112945557e-01
-1.809361875057220459e-01 -9.005904197692871094e-02 -2.642825841903686523e-01
-1.420291215181350708e-01 1.739133894443511963e-01 -1.803460270166397095e-01
-2.123492807149887085e-01 2.361343055963516235e-02 -1.299827843904495239e-01
-3.741718828678131104e-02 -3.876996040344238281e-02 -1.445312649011611938e-01
-4.251621663570404053e-02 1.220205724239349365e-01 -2.154619544744491577e-01
-2.292454987764358521e-02 1.528077125549316406e-01 1.277830153703689575e-01
-1.555945575237274170e-01 -1.555560082197189331e-01 2.505780756473541260e-01
-2.099348902702331543e-01 -6.450832821428775787e-03 1.749027371406555176e-01
-1.893475800752639771e-01 -6.956794112920761108e-02 2.550216615200042725e-01
-1.574196815490722656e-01 1.918180882930755615e-01 4.432588443160057068e-02
-3.907731920480728149e-02 -5.819283053278923035e-02 1.274738162755966187e-01
-2.191939353942871094e-01 -1.731856763362884521e-01 9.326326102018356323e-02
-2.107415497303009033e-01 -1.901271939277648926e-01 -1.084935739636421204e-01
-1.973588466644287109e-01 2.451765723526477814e-02 2.043653726577758789e-01
-1.763232499361038208e-01 -2.380020171403884888e-01 8.996018022298812866e-02
-1.099549829959869385e-01 5.915766954421997070e-02 3.139169514179229736e-01
-1.753691583871841431e-02 1.775829195976257324e-01 -3.297473117709159851e-02
-1.562176495790481567e-01 1.904791593551635742e-01 -6.707083433866500854e-02
-3.059374541044235229e-02 -5.090500041842460632e-02 6.333553045988082886e-02
-1.737337410449981689e-01 1.486695855855941772e-01 -1.115387529134750366e-01
-3.437718749046325684e-02 1.882337927818298340e-01 1.364954411983489990e-01
-2.166277915239334106e-02 -1.311041694134473801e-02 5.653804168105125427e-02
-1.739016473293304443e-01 -2.484432905912399292e-01 -2.248873561620712280e-02
-1.409124881029129028e-01 -4.630267620086669922e-02 3.138879239559173584e-01
-2.540863305330276489e-02 1.377324759960174561e-01 -1.485233753919601440e-01
-7.640556246042251587e-02 -1.416067928075790405e-01 1.574176698923110962e-01
-1.995908766984939575e-01 3.066936321556568146e-02 -1.892696022987365723e-01
-1.047322899103164673e-02 1.162134855985641479e-01 4.789330065250396729e-02
-1.121257990598678589e-01 -2.137060016393661499e-01 9.221145510673522949e-02
-2.341662347316741943e-02 -2.832318097352981567e-02 1.738812029361724854e-02
-1.152801960706710815e-01 -2.041846662759780884e-01 -1.336643546819686890e-01
-7.562484592199325562e-02 -1.457560658454895020e-01 -1.395520120859146118e-01
-1.726433038711547852e-01 -1.986141651868820190e-01 -1.850391179323196411e-01
-1.130595281720161438e-01 -6.449707597494125366e-02 -3.014775812625885010e-01
-3.865409642457962036e-02 -7.912784069776535034e-02 -5.892799422144889832e-02
-9.920795261859893799e-02 1.476166844367980957e-01 2.642941772937774658e-01
-2.266044169664382935e-01 -1.423344910144805908e-01 8.140000700950622559e-02
-1.123012378811836243e-01 -1.931400150060653687e-01 -1.549801677465438843e-01
-7.041335850954055786e-02 -1.621697098016738892e-01 -2.241128124296665192e-02
-2.169394940137863159e-01 -7.718831300735473633e-02 1.682245135307312012e-01
-1.080310195684432983e-01 -1.513739079236984253e-01 -2.220101654529571533e-01
-6.217414513230323792e-02 -7.799348980188369751e-02 2.076573371887207031e-01
-1.828080117702484131e-01 6.540307402610778809e-02 2.177511155605316162e-01
-6.716619431972503662e-02 3.425815701484680176e-02 -2.784036695957183838e-01
-1.568173319101333618e-01 -2.256098538637161255e-01 1.400751471519470215e-01
-1.993162631988525391e-01 5.729664489626884460e-02 1.608350127935409546e-01
-1.183708757162094116e-02 1.488318741321563721e-01 7.384660653769969940e-03
-7.959602028131484985e-02 -1.609032601118087769e-01 -1.179159209132194519e-01
-2.290053665637969971e-01 -7.207494229078292847e-02 8.724421262741088867e-02
-1.339742094278335571e-01 2.245022803544998169e-01 2.443741075694561005e-02
-1.968761980533599854e-01 1.093158721923828125e-01 -3.944747895002365112e-02
-1.020592376589775085e-01 -1.604303568601608276e-01 -1.966149061918258667e-01
-2.316321134567260742e-01 -1.130384504795074463e-01 5.055956915020942688e-02
-2.228314876556396484e-01 5.973369814455509186e-03 -5.945444107055664062e-02
-1.363602578639984131e-01 -9.369426220655441284e-02 -2.948277592658996582e-01
-1.799017339944839478e-01 1.526521891355514526e-01 -1.371131837368011475e-02
-1.202382743358612061e-01 2.026786059141159058e-01 1.707771122455596924e-01
-8.281997591257095337e-02 2.181854546070098877e-01 -1.678972989320755005e-01
-2.093544751405715942e-01 -9.169809520244598389e-02 -1.960563212633132935e-01
-1.549283117055892944e-01 1.559477578848600388e-02 3.015650510787963867e-01
-5.075579136610031128e-02 2.456258982419967651e-01 6.186662241816520691e-03
-2.116982042789459229e-01 -2.098608165979385376e-01 4.226393252611160278e-02
-1.151648163795471191e-02 9.633066505193710327e-02 -6.576498597860336304e-02
-1.790708601474761963e-01 1.100941523909568787e-01 1.729935705661773682e-01
-1.101499795913696289e-02 1.364810019731521606e-01 3.046363219618797302e-02
-7.725008577108383179e-02 2.203778773546218872e-01 1.641084998846054077e-01
-1.644709110260009766e-01 -6.812181323766708374e-02 2.933600544929504395e-01
-5.585418641567230225e-02 -8.948010206222534180e-02 -1.617902666330337524e-01
-1.567322313785552979e-01 2.082617208361625671e-02 -2.959795594215393066e-01
-1.997553259134292603e-01 8.520913124084472656e-02 -1.040967032313346863e-01
-1.312374323606491089e-01 -2.131833136081695557e-01 -1.447195559740066528e-01
-1.850541830062866211e-01 1.023823674768209457e-02 -2.491914778947830200e-01
-2.162459790706634521e-01 -5.142719671130180359e-02 1.674107462167739868e-01
-1.109236478805541992e-02 8.413204550743103027e-02 6.200360506772994995e-02
-1.153389513492584229e-01 -2.198858857154846191e-01 -7.256819307804107666e-02
-1.670525670051574707e-01 1.766479611396789551e-01 -3.284930065274238586e-02
-7.866378128528594971e-02 -6.206826120615005493e-02 -2.603580951690673828e-01
-1.999984234571456909e-01 -1.788814812898635864e-01 -1.651291102170944214e-01
-2.175242006778717041e-01 7.199564948678016663e-03 -1.146228313446044922e-01
-2.035428583621978760e-01 -2.052397727966308594e-01 1.107233911752700806e-01
-2.265837788581848145e-01 -1.791450195014476776e-02 -5.769873410463333130e-02
-1.024181768298149109e-01 2.395426034927368164e-01 -9.430978447198867798e-02
-2.275511473417282104e-01 -1.165913641452789307e-01 -9.441377967596054077e-02
-3.066000342369079590e-02 2.183502763509750366e-01 -1.365672424435615540e-02
-1.249488443136215210e-02 1.015428453683853149e-01 8.163195103406906128e-02
-1.646268814802169800e-01 1.763612776994705200e-01 6.915918737649917603e-02
-1.042304560542106628e-01 1.777666658163070679e-01 -2.279530018568038940e-01
-9.916724264621734619e-02 2.119309902191162109e-01 1.778086274862289429e-01
-2.188213169574737549e-02 3.210142627358436584e-02 1.309676766395568848e-01
-2.289786934852600098e-01 -1.519028693437576294e-01 -2.581120654940605164e-02
-1.688224077224731445e-01 -7.564458996057510376e-02 -2.845483422279357910e-01
-1.794412881135940552e-01 -9.438058733940124512e-02 2.674152255058288574e-01
-1.544526219367980957e-01 -2.485568970441818237e-01 3.039593994617462158e-02
-2.225838601589202881e-01 -5.720782279968261719e-02 -1.325683444738388062e-01
-6.035552173852920532e-02 1.881282031536102295e-01 1.999299079179763794e-01
-4.687557369470596313e-02 -2.423254214227199554e-02 -2.036264985799789429e-01
-3.163019567728042603e-02 -3.014504909515380859e-02 -1.197927594184875488e-01
-1.525369435548782349e-01 1.822274178266525269e-01 1.252048015594482422e-01
-1.015418320894241333e-01 2.488197684288024902e-01 -3.936493396759033203e-02
-1.163165122270584106e-01 -2.147649824619293213e-01 -1.011577546596527100e-01
-9.087172150611877441e-02 -7.780662178993225098e-02 -2.701485157012939453e-01
-1.265888661146163940e-01 1.704708337783813477e-01 2.181538194417953491e-01
-1.927467286586761475e-01 9.961520880460739136e-02 -1.206854209303855896e-01
-1.499936729669570923e-01 9.603955596685409546e-02 -2.641549408435821533e-01
-1.405622214078903198e-01 1.743256151676177979e-01 1.845560669898986816e-01
-8.733465522527694702e-02 -1.295857727527618408e-01 2.138038277626037598e-01
-1.919951289892196655e-02 5.766846239566802979e-02 -1.240008771419525146e-01
-1.466936022043228149e-01 -2.013581544160842896e-01 1.896131336688995361e-01
-3.099729120731353760e-02 -5.427086353302001953e-02 -5.033209919929504395e-02
-1.631921827793121338e-01 1.640576720237731934e-01 -1.261253058910369873e-01
-2.745756506919860840e-02 1.659113913774490356e-01 -1.330857276916503906e-01
-7.928622514009475708e-02 9.861332923173904419e-02 -2.843763232231140137e-01
-4.927574098110198975e-02 2.212004661560058594e-01 -1.193402186036109924e-01
-2.122723311185836792e-02 1.948397755622863770e-01 1.980950124561786652e-03
-5.961213260889053345e-02 -1.349312365055084229e-01 6.684838235378265381e-02
-1.063235849142074585e-01 1.415920630097389221e-02 3.193050622940063477e-01
-5.343355238437652588e-02 -1.169049367308616638e-01 8.242456614971160889e-02
-2.800589799880981445e-02 4.667742177844047546e-02 -1.696114689111709595e-01
-1.295036822557449341e-01 -2.366615831851959229e-01 3.782223910093307495e-02
-3.131873160600662231e-02 -1.352336164563894272e-02 1.461962908506393433e-01
-5.671390891075134277e-02 -7.121332734823226929e-02 -1.918545961380004883e-01
-2.131051570177078247e-02 1.181679032742977142e-02 -1.000319421291351318e-01
-2.175766974687576294e-02 -8.033035323023796082e-03 -6.800145655870437622e-02
-7.154208421707153320e-02 2.901721931993961334e-02 2.884961366653442383e-01
-2.072190642356872559e-01 7.936350256204605103e-02 2.467161417007446289e-02
-1.809507459402084351e-01 1.356995254755020142e-01 1.037042513489723206e-01
-1.819853484630584717e-02 3.559806197881698608e-02 1.050200611352920532e-01
-9.782806038856506348e-02 2.440161854028701782e-01 8.459969609975814819e-02
-2.181994318962097168e-01 -1.933793723583221436e-01 -4.372137039899826050e-02
-1.444797217845916748e-02 1.000633239746093750e-01 -9.644851833581924438e-02
-6.233241781592369080e-02 -5.790687724947929382e-02 2.291118949651718140e-01
-7.985498011112213135e-02 -3.522298112511634827e-02 2.826262712478637695e-01
-1.870538145303726196e-01 -3.121468797326087952e-02 2.588050961494445801e-01
-9.156025946140289307e-03 9.901313483715057373e-02 -1.660751551389694214e-02
-1.944556087255477905e-02 3.400486707687377930e-02 -1.094645857810974121e-01
-2.301073372364044189e-01 -3.674865886569023132e-02 2.914474532008171082e-02
-1.919753849506378174e-01 1.175862997770309448e-01 -6.889294832944869995e-02
-1.910655647516250610e-01 -3.924040496349334717e-02 -2.490970045328140259e-01
-1.679667085409164429e-02 7.558249682188034058e-02 1.177968978881835938e-01
-3.848576545715332031e-02 1.561083644628524780e-01 -1.831844598054885864e-01
-3.557260334491729736e-02 5.728996172547340393e-02 -2.035589814186096191e-01
-3.059885650873184204e-02 1.403354406356811523e-01 -1.685471832752227783e-01
-1.771651059389114380e-01 -2.203482538461685181e-01 -1.388829946517944336e-01
-1.562952250242233276e-01 1.643586307764053345e-01 -1.556881964206695557e-01
-2.265524715185165405e-01 -1.251508146524429321e-01 9.863055497407913208e-02
-1.870093792676925659e-01 1.368433088064193726e-01 9.034385904669761658e-03
-3.519722074270248413e-02 3.422672860324382782e-03 1.826395690441131592e-01
-1.034036129713058472e-01 -1.478708386421203613e-01 2.228915691375732422e-01
-2.108605355024337769e-01 -1.989154666662216187e-01 -8.780655264854431152e-02
-9.033886343240737915e-02 2.680869400501251221e-02 3.098834156990051270e-01
-1.827742010354995728e-01 1.160636395215988159e-01 1.441774368286132812e-01
-1.449621319770812988e-01 2.099884450435638428e-01 -4.095300659537315369e-02
-1.969027519226074219e-02 1.231718659400939941e-01 -1.267360448837280273e-01
-1.792781800031661987e-02 1.907298900187015533e-02 -7.567179203033447266e-02
-1.549125462770462036e-01 -1.207714974880218506e-01 -2.755002379417419434e-01
-2.325058728456497192e-01 -1.205043792724609375e-01 -1.615788415074348450e-02
-4.372647404670715332e-02 4.425792954862117767e-03 2.167383134365081787e-01
-2.018086612224578857e-01 -9.133555926382541656e-03 -2.087861448526382446e-01
-1.821752041578292847e-01 -1.546667665243148804e-01 2.285968065261840820e-01
-9.536895900964736938e-02 -1.596710681915283203e-01 1.857294738292694092e-01
-2.269360125064849854e-01 -4.891583323478698730e-02 9.490054845809936523e-02
-1.783014535903930664e-01 5.479066818952560425e-02 2.401235550642013550e-01
-1.542648822069168091e-01 -3.448940813541412354e-02 -3.049855530261993408e-01
-1.690254062414169312e-01 -1.040419936180114746e-01 -2.743958234786987305e-01
-1.290564090013504028e-01 2.279504984617233276e-01 -4.459746927022933960e-02
-2.175616025924682617e-01 -1.176287606358528137e-02 1.368472576141357422e-01
-1.519091129302978516e-01 4.543503373861312866e-02 2.947357892990112305e-01
-2.165244221687316895e-01 -1.472298651933670044e-01 -1.400625854730606079e-01
-1.738704442977905273e-01 1.096809655427932739e-01 1.935020238161087036e-01
-1.921590566635131836e-01 -1.369908452033996582e-01 2.246870547533035278e-01
-2.009547948837280273e-01 1.128232013434171677e-02 -1.996286213397979736e-01
-2.281088232994079590e-01 -3.404406085610389709e-02 6.477105617523193359e-02
-1.559655964374542236e-01 1.964069753885269165e-01 1.106896670535206795e-04
-1.054103821516036987e-01 -2.414333447813987732e-02 -3.108903765678405762e-01
-1.669267565011978149e-01 -1.838394105434417725e-01 2.136177867650985718e-01
-2.081331312656402588e-01 4.525455832481384277e-02 -1.256476342678070068e-01
-1.657523810863494873e-01 1.586150527000427246e-01 1.292359232902526855e-01
-3.613670915365219116e-02 -6.733693927526473999e-02 7.771964371204376221e-02
-1.924239695072174072e-01 1.186655163764953613e-01 5.779327824711799622e-02
-6.217116490006446838e-02 -1.306799203157424927e-01 -1.031646803021430969e-01
-2.088167071342468262e-01 -7.409602403640747070e-03 -1.797279268503189087e-01
-2.056851983070373535e-01 -1.194876879453659058e-01 -1.987828165292739868e-01
-1.246344298124313354e-02 4.368908330798149109e-02 -3.319222480058670044e-02
-1.272509545087814331e-01 -2.328692525625228882e-01 -5.408196151256561279e-02
-1.599213182926177979e-01 -2.176543325185775757e-01 1.594628691673278809e-01
-1.223899647593498230e-01 -2.191851288080215454e-01 1.093045696616172791e-01
-2.151551842689514160e-02 -1.872873120009899139e-02 -1.876772567629814148e-02
-4.241113364696502686e-02 5.615839362144470215e-02 -2.254644930362701416e-01
-2.132447957992553711e-01 1.552850939333438873e-03 -1.500122547149658203e-01
-1.393630951642990112e-01 1.530562043190002441e-01 2.218719124794006348e-01
-4.535556584596633911e-02 -9.428666532039642334e-02 8.555340021848678589e-02
-6.049875169992446899e-02 2.444909065961837769e-01 7.515494525432586670e-02
-1.106690466403961182e-01 -2.215061485767364502e-01 1.394218578934669495e-02
-1.872929930686950684e-01 1.350172460079193115e-01 3.013678081333637238e-02
-2.097883075475692749e-01 -2.166729420423507690e-01 -7.222246844321489334e-03
-5.380764603614807129e-02 -1.160408034920692444e-01 -8.457115292549133301e-02
-8.527933061122894287e-02 -1.403742432594299316e-01 1.913381516933441162e-01
-1.695411801338195801e-01 3.183896094560623169e-02 -2.722871005535125732e-01
-1.333395242691040039e-01 -1.266380995512008667e-01 -2.722651064395904541e-01
-1.938005834817886353e-01 5.940432846546173096e-02 1.839666813611984253e-01
-6.186945736408233643e-02 -1.352013647556304932e-01 8.930870145559310913e-02
-2.167163491249084473e-01 2.969394251704216003e-02 8.134141564369201660e-02
-1.562806963920593262e-02 1.433238293975591660e-02 1.975190639495849609e-02
-1.928815245628356934e-01 -8.522155135869979858e-02 -2.431049942970275879e-01
-7.311026751995086670e-02 -1.032208800315856934e-01 2.107443809509277344e-01
-2.185050547122955322e-01 3.306022658944129944e-02 -4.132290557026863098e-02
-1.851730793714523315e-02 1.298155933618545532e-01 1.198481842875480652e-01
-1.323891133069992065e-01 2.189329117536544800e-01 8.304158598184585571e-02
-1.800936460494995117e-01 3.972953557968139648e-02 -2.450927644968032837e-01
-5.540297925472259521e-02 1.086931452155113220e-01 2.524688541889190674e-01
-9.394198656082153320e-02 -1.183695420622825623e-01 -2.381296455860137939e-01
-1.872864365577697754e-01 -1.242463812232017517e-01 -2.393706440925598145e-01
-5.681745707988739014e-02 -2.825828827917575836e-02 -2.325849533081054688e-01
-1.225684210658073425e-01 -2.272394448518753052e-01 7.173554599285125732e-02
-5.147422850131988525e-02 9.426626563072204590e-02 -2.455832213163375854e-01
-1.987598091363906860e-02 -6.511026062071323395e-03 -4.059026762843132019e-02
-4.537793248891830444e-02 4.676882922649383545e-02 2.367188483476638794e-01
-1.131850108504295349e-01 -5.665833130478858948e-02 3.083263635635375977e-01
-1.711395978927612305e-01 -2.472482174634933472e-01 4.638882726430892944e-02
-1.935979723930358887e-01 -1.370377838611602783e-01 -2.194662541151046753e-01
-1.230984479188919067e-01 -2.326822280883789062e-01 -2.052757889032363892e-02
-1.690705567598342896e-01 1.591920256614685059e-01 1.081212460994720459e-01
-1.328346133232116699e-01 -1.538790911436080933e-01 2.495895922183990479e-01
-1.087182015180587769e-02 6.216967850923538208e-02 3.701860085129737854e-02
-5.658928304910659790e-02 -1.337819099426269531e-01 5.377413704991340637e-03
-2.089512199163436890e-01 6.960028409957885742e-02 -5.119936913251876831e-02
-1.400084048509597778e-01 1.327066272497177124e-01 2.461929619312286377e-01
-2.196379601955413818e-01 -7.691010087728500366e-02 -1.535695344209671021e-01
-2.086788415908813477e-01 5.128109455108642578e-02 1.107776239514350891e-01
-8.960621058940887451e-02 -6.620933115482330322e-02 2.801710963249206543e-01
-4.611052572727203369e-02 1.169136837124824524e-01 2.301246225833892822e-01
-5.377102643251419067e-02 5.664607882499694824e-02 -2.542987167835235596e-01
-5.545774102210998535e-02 2.161004990339279175e-01 -1.450001150369644165e-01
-2.326852083206176758e-01 -7.497160136699676514e-02 3.092024102807044983e-02
-3.040106594562530518e-02 -2.626014128327369690e-02 1.219563111662864685e-01
-1.449374258518218994e-01 -2.465893626213073730e-01 8.192219771444797516e-03
-3.802868723869323730e-02 3.468437865376472473e-02 -2.063271850347518921e-01
-2.190728783607482910e-01 -3.396424651145935059e-02 1.442547738552093506e-01
-1.527622491121292114e-01 -2.073152512311935425e-01 -1.768956482410430908e-01
-2.238603830337524414e-01 -1.667924225330352783e-01 -6.447946280241012573e-02
-1.292200982570648193e-01 -2.207161486148834229e-01 -1.183283030986785889e-01
-1.393244713544845581e-01 1.052841618657112122e-01 2.733085155487060547e-01
-1.745226234197616577e-02 9.667658805847167969e-02 1.243011355400085449e-01
-3.880216926336288452e-02 -8.604843914508819580e-02 7.313086185604333878e-03
-6.514084339141845703e-02 -4.303561896085739136e-02 2.485530972480773926e-01
-8.275484293699264526e-02 -1.439852863550186157e-01 -1.721125394105911255e-01
-1.027350351214408875e-01 -2.098542749881744385e-01 -4.742493852972984314e-02
-1.755897253751754761e-01 8.991996198892593384e-02 -2.127178907394409180e-01
-6.622675806283950806e-02 -4.225745797157287598e-03 2.715821564197540283e-01
-2.254635244607925415e-01 -2.417366020381450653e-02 8.435735851526260376e-02
-2.188489139080047607e-01 -4.472303763031959534e-02 -1.501403599977493286e-01
-8.429884910583496094e-02 -5.050321668386459351e-02 -2.776952385902404785e-01
-1.084757745265960693e-01 -8.344048261642456055e-02 -2.876918911933898926e-01
-1.040873974561691284e-01 -2.137933522462844849e-01 -1.944549381732940674e-02
-1.287522614002227783e-01 -1.952562630176544189e-01 -1.815247982740402222e-01
-4.829744249582290649e-02 -1.124018058180809021e-01 2.648871392011642456e-02
-1.941834390163421631e-01 1.189410313963890076e-01 -7.647114340215921402e-03
-5.326369404792785645e-02 2.104637920856475830e-01 1.542217880487442017e-01
-1.155636310577392578e-01 -8.747787773609161377e-02 2.943403422832489014e-01
-2.220027446746826172e-01 -1.566213369369506836e-01 -9.838993102312088013e-02
-7.478044927120208740e-02 2.560541927814483643e-01 -6.906390655785799026e-03
-2.307929098606109619e-01 -9.809778630733489990e-02 6.972033530473709106e-02
-1.426913589239120483e-02 1.651987880468368530e-01 -5.756008438766002655e-03
-1.594031453132629395e-01 -1.884870231151580811e-01 -2.076372504234313965e-01
-7.922870665788650513e-02 -1.538484543561935425e-01 1.407528519630432129e-01
-1.680423319339752197e-02 2.307047322392463684e-02 7.312697917222976685e-02
-2.125480473041534424e-01 5.100664123892784119e-02 7.205953449010848999e-02
-1.770234405994415283e-01 -2.456459105014801025e-01 -4.281986504793167114e-02
-1.940984725952148438e-01 -2.134218215942382812e-01 -1.214873120188713074e-01
-2.242302894592285156e-01 -1.184827759861946106e-01 -1.182842329144477844e-01
-1.196910738945007324e-01 -1.334713399410247803e-01 -2.576940953731536865e-01
-1.827918738126754761e-01 1.246567443013191223e-01 1.236244216561317444e-01
-1.651153415441513062e-01 8.599661290645599365e-02 2.455672323703765869e-01
-6.603902578353881836e-02 -1.491551548242568970e-01 -5.999694392085075378e-02
-1.871704757213592529e-01 -1.123711001127958298e-02 -2.522734999656677246e-01
-5.407522618770599365e-02 8.468016982078552246e-03 2.491248100996017456e-01
-5.319429934024810791e-02 -1.062599048018455505e-01 -1.108602285385131836e-01
-8.996060490608215332e-02 6.323827058076858521e-02 3.060224056243896484e-01
-9.680166840553283691e-03 7.292104512453079224e-02 1.392903272062540054e-02
-1.783718168735504150e-01 1.540702879428863525e-01 3.977290168404579163e-02
-9.107472747564315796e-02 -1.622186750173568726e-01 -1.631632447242736816e-01
-1.671743839979171753e-01 1.144977360963821411e-01 -2.071327567100524902e-01
-1.850710511207580566e-01 1.124548316001892090e-01 -1.386926174163818359e-01
-2.059048712253570557e-01 2.114383131265640259e-02 -1.699659824371337891e-01
-1.691947579383850098e-01 1.728125959634780884e-01 3.279826045036315918e-02
-1.279091835021972656e-02 4.001477360725402832e-02 3.659261018037796021e-02
-1.990217864513397217e-01 -4.158500209450721741e-02 -2.284992039203643799e-01
-9.293974190950393677e-02 -1.900076270103454590e-01 -8.876272290945053101e-02
-2.187665998935699463e-01 9.498347528278827667e-03 1.011409610509872437e-01
-1.653904616832733154e-01 -2.331030815839767456e-01 -1.141153499484062195e-01
-4.474245756864547729e-02 1.601525247097015381e-01 1.998840719461441040e-01
-1.859801113605499268e-01 1.108075398951768875e-02 2.478818148374557495e-01
-3.287513554096221924e-02 1.519987732172012329e-01 1.720799803733825684e-01
-5.045929551124572754e-02 -1.186770349740982056e-01 -8.954555727541446686e-03
-8.306355774402618408e-02 -1.155623197555541992e-01 -2.176389992237091064e-01
-2.005263417959213257e-02 1.554954051971435547e-01 1.073391512036323547e-01
-2.980261296033859253e-02 1.027301698923110962e-01 -1.816267520189285278e-01
-2.323693037033081055e-01 -9.014485031366348267e-02 4.575118795037269592e-02
-2.306760251522064209e-01 -8.596998453140258789e-02 -7.058201730251312256e-02
-8.019110560417175293e-02 -9.902669489383697510e-02 2.346444725990295410e-01
-2.087390124797821045e-01 7.149697095155715942e-02 4.543020203709602356e-02
-4.289481788873672485e-02 1.884341239929199219e-01 1.642165929079055786e-01
-7.584285736083984375e-02 1.701442748308181763e-01 2.361887991428375244e-01
-3.145529329776763916e-02 2.137832790613174438e-01 -5.650153011083602905e-02
-4.693008959293365479e-02 -5.361399054527282715e-02 1.782487779855728149e-01
-3.517929464578628540e-02 3.010062128305435181e-02 1.982378065586090088e-01
-4.639058560132980347e-02 2.323606610298156738e-01 -7.534325867891311646e-02
-2.253352701663970947e-01 -8.164952695369720459e-02 -1.192687675356864929e-01
-1.604506224393844604e-01 1.337658464908599854e-01 -1.990427225828170776e-01
-1.360558569431304932e-01 5.870690196752548218e-02 3.048133850097656250e-01
-1.342337727546691895e-01 1.946462839841842651e-01 1.575018614530563354e-01
-1.787325292825698853e-01 2.853759750723838806e-02 2.564910352230072021e-01
-1.018442586064338684e-01 1.251385211944580078e-01 -2.796357572078704834e-01
-9.975761175155639648e-03 1.128140613436698914e-01 -3.558135405182838440e-02
-1.783350110054016113e-01 -4.463411867618560791e-02 2.769989967346191406e-01
-1.071045547723770142e-01 2.476361095905303955e-01 9.600504301488399506e-03
-1.920753568410873413e-01 -2.019574046134948730e-01 -1.499685049057006836e-01
-2.096076160669326782e-01 -1.782476007938385010e-01 1.359323114156723022e-01
-2.229468524456024170e-01 -3.348198160529136658e-02 1.173970475792884827e-01
-2.270279973745346069e-01 -1.382800638675689697e-01 -8.078462630510330200e-02
-5.649361759424209595e-02 -4.769292846322059631e-02 -2.161781042814254761e-01
-1.273856461048126221e-01 8.828725665807723999e-02 -2.941566407680511475e-01
-1.609792262315750122e-01 -2.334361523389816284e-01 1.173836886882781982e-01
-3.454867750406265259e-02 -1.974890707060694695e-03 -1.706423163414001465e-01
-9.042076766490936279e-03 1.030177697539329529e-01 1.283715479075908661e-02
-1.042504310607910156e-01 -1.994052231311798096e-01 1.148243173956871033e-01
-1.995122283697128296e-01 -1.803456842899322510e-01 1.669114828109741211e-01
