1.018308475613594055e-01 9.213837981224060059e-02 -1.908802539110183716e-01
9.747271239757537842e-02 -2.011708170175552368e-02 -1.899329572916030884e-01
8.413210511207580566e-02 -1.509261876344680786e-02 7.959051430225372314e-02
-1.147773265838623047e-01 6.506825983524322510e-02 3.106050193309783936e-01
-8.987082168459892273e-03 -1.835417002439498901e-02 3.182719051837921143e-01
-1.196528822183609009e-01 2.034077942371368408e-01 1.335346996784210205e-01
8.368420600891113281e-02 1.768265664577484131e-02 -2.781260907649993896e-01
-2.801321819424629211e-02 1.901378631591796875e-01 -2.406235188245773315e-01
4.278010874986648560e-02 2.136578857898712158e-01 -1.970569342374801636e-01
4.698684439063072205e-02 -5.977036058902740479e-02 -2.027666121721267700e-01
6.398651003837585449e-02 2.336043119430541992e-02 1.726034134626388550e-01
-6.103326380252838135e-02 2.490972429513931274e-01 -8.914270997047424316e-02
8.645744621753692627e-02 -2.874562889337539673e-02 5.496115237474441528e-02
-6.058166548609733582e-02 2.385675013065338135e-01 2.081915587186813354e-01
3.018645569682121277e-02 4.883461073040962219e-02 2.662708461284637451e-01
-1.303659528493881226e-01 1.314340382814407349e-01 1.325962245464324951e-01
8.807717263698577881e-02 8.773261308670043945e-02 3.630325570702552795e-02
3.179695457220077515e-02 2.360240221023559570e-01 -5.787819996476173401e-02
3.364345431327819824e-02 -2.860219031572341919e-02 2.396812736988067627e-01
-9.799084812402725220e-02 5.635362863540649414e-02 3.525021076202392578e-01
7.633634842932224274e-03 -1.969449222087860107e-02 -2.359051853418350220e-01
-8.698112517595291138e-02 -1.089434325695037842e-02 2.989069819450378418e-01
1.083674579858779907e-01 1.672868430614471436e-02 -1.196881681680679321e-01
-2.120187878608703613e-02 1.680196523666381836e-01 -2.650012075901031494e-01
-4.689251072704792023e-03 2.630144953727722168e-01 -3.302222490310668945e-02
-1.159245148301124573e-02 -9.892338514328002930e-02 -1.844167709350585938e-04
8.915851265192031860e-02 5.817548930644989014e-02 -2.817029058933258057e-01
4.792004078626632690e-02 -6.761734187602996826e-02 1.587174981832504272e-01
-1.082225814461708069e-01 1.180737465620040894e-01 -3.201672807335853577e-02
9.846978634595870972e-02 3.136026486754417419e-02 8.437132462859153748e-03
-1.123267710208892822e-01 1.736652404069900513e-01 2.851909697055816650e-01
-7.261969149112701416e-02 2.627073824405670166e-01 8.851078152656555176e-02
-5.111552774906158447e-02 -5.504773557186126709e-02 2.770939469337463379e-01
5.437538959085941315e-03 -1.092956513166427612e-01 9.453566372394561768e-02
-7.952351123094558716e-02 1.324248760938644409e-01 -1.459200382232666016e-01
-1.044796258211135864e-01 1.014272868633270264e-01 -4.299530014395713806e-02
1.011752709746360779e-01 2.993761375546455383e-02 -1.217176765203475952e-02
-5.601929873228073120e-02 -6.879802048206329346e-02 5.881389230489730835e-02
-7.313626259565353394e-02 8.723315596580505371e-02 -1.535670012235641479e-01
6.123092398047447205e-02 1.601676642894744873e-01 -2.749278843402862549e-01
-6.987649947404861450e-02 2.519003748893737793e-01 1.634419113397598267e-01
-1.192733719944953918e-01 1.814749836921691895e-01 2.454681694507598877e-01
3.140372037887573242e-01 2.305976301431655884e-01 -2.352147996425628662e-01
1.034948155283927917e-01 -1.266721189022064209e-01 -5.846508964896202087e-02
6.593000888824462891e-02 4.011108726263046265e-02 -7.064167410135269165e-02
1.648031920194625854e-01 2.220560982823371887e-02 -3.359058797359466553e-01
3.489646315574645996e-01 2.193942517042160034e-01 -2.013806998729705811e-01
2.310436964035034180e-01 -8.022932708263397217e-02 -1.868418231606483459e-02
2.959610819816589355e-01 -6.700180470943450928e-03 -9.628203697502613068e-03
1.670505851507186890e-01 1.228814572095870972e-01 -2.741229832172393799e-01
2.103977650403976440e-01 2.189535498619079590e-01 -1.767551898956298828e-01
2.713651061058044434e-01 1.789144799113273621e-02 1.714161336421966553e-01
1.493767499923706055e-01 -1.522506028413772583e-02 -3.148705959320068359e-01
1.129080057144165039e-01 -1.738132536411285400e-02 2.972926795482635498e-01
2.806100249290466309e-01 -3.287236392498016357e-02 -5.646466091275215149e-02
2.576249241828918457e-01 9.467739611864089966e-02 -3.722515404224395752e-01
1.327033191919326782e-01 -1.037369817495346069e-01 1.429531723260879517e-01
3.012836873531341553e-01 9.361480921506881714e-02 1.971484422683715820e-01
1.976909935474395752e-01 2.476769834756851196e-01 1.036439463496208191e-01
2.877362668514251709e-01 2.713229656219482422e-01 -1.152208670973777771e-01
1.046118810772895813e-01 -8.403438329696655273e-02 -2.005975395441055298e-01
2.262729555368423462e-01 -7.545721530914306641e-02 4.205212369561195374e-02
8.147670328617095947e-02 1.102993041276931763e-01 1.267744153738021851e-01
3.495689332485198975e-01 8.596909046173095703e-02 -1.690384745597839355e-01
3.391876220703125000e-01 2.529304623603820801e-01 6.167414784431457520e-02
2.938676774501800537e-01 1.740852594375610352e-01 2.458019554615020752e-01
2.760232686996459961e-01 6.746642291545867920e-02 -3.638023734092712402e-01
1.656671166419982910e-01 2.164729684591293335e-01 -2.229396440088748932e-02
2.686026096343994141e-01 2.066930383443832397e-01 2.630156278610229492e-01
3.533286154270172119e-01 1.630253642797470093e-01 6.999374181032180786e-02
2.470717281103134155e-01 1.195567324757575989e-01 3.108983635902404785e-01
2.790236473083496094e-01 2.825478911399841309e-01 4.346859827637672424e-02
3.078442513942718506e-01 1.866266727447509766e-01 -3.029189407825469971e-01
3.639657497406005859e-01 1.371509730815887451e-01 -1.611803621053695679e-01
1.943487823009490967e-01 2.148790210485458374e-01 2.478678524494171143e-01
2.444561719894409180e-01 1.710073202848434448e-01 3.067189753055572510e-01
2.784943282604217529e-01 1.067158803343772888e-01 2.588661313056945801e-01
2.316686213016510010e-01 2.478922456502914429e-01 -1.283988654613494873e-01
3.001753687858581543e-01 1.311470270156860352e-01 2.269887775182723999e-01
9.797773510217666626e-02 1.106907129287719727e-01 -8.590225130319595337e-02
2.438723295927047729e-01 2.584225237369537354e-01 1.723982691764831543e-01
2.850270271301269531e-01 1.951625943183898926e-01 2.521057426929473877e-01
2.897802293300628662e-01 -8.843682706356048584e-03 2.361375838518142700e-02
4.288451373577117920e-02 -1.743736118078231812e-02 7.998932152986526489e-02
2.810818552970886230e-01 2.354105114936828613e-01 2.171963453292846680e-01
2.706770598888397217e-01 -4.559939354658126831e-02 -7.283550500869750977e-02
2.868813276290893555e-01 2.836754918098449707e-01 -2.289772033691406250e-03
1.756468117237091064e-01 2.210153639316558838e-01 1.846746504306793213e-01
2.153010219335556030e-01 -7.587783038616180420e-03 2.493981420993804932e-01
1.366489231586456299e-01 8.099845796823501587e-02 -2.605751156806945801e-01
2.969540059566497803e-01 3.610606119036674500e-02 1.248320788145065308e-01
2.454164475202560425e-01 -4.453962296247482300e-02 9.517486393451690674e-02
2.050351053476333618e-01 -1.027760207653045654e-01 -7.921221852302551270e-02
3.346547484397888184e-01 2.077373266220092773e-01 -2.501729428768157959e-01
1.056563630700111389e-01 -1.189943403005599976e-01 -1.158663257956504822e-01
3.173594474792480469e-01 2.463492006063461304e-02 -2.031496465206146240e-01
1.705698966979980469e-01 1.999872028827667236e-01 2.446644008159637451e-01
3.133790493011474609e-01 2.407424151897430420e-01 -2.139023244380950928e-01
2.986354231834411621e-01 2.234692424535751343e-01 -2.544444203376770020e-01
2.685858309268951416e-01 -4.875051975250244141e-02 -1.047250404953956604e-01
3.022568225860595703e-01 1.165723800659179688e-01 -3.460462987422943115e-01
1.400333046913146973e-01 1.854089200496673584e-01 1.953592896461486816e-01
1.616491377353668213e-01 2.163822948932647705e-01 1.095023285597562790e-02
1.809936016798019409e-01 1.899232417345046997e-01 -1.835264563560485840e-01
3.272723853588104248e-01 5.103482306003570557e-02 -2.325502634048461914e-01
1.484710276126861572e-01 1.358890533447265625e-01 -2.135923057794570923e-01
2.403073012828826904e-01 -6.690408289432525635e-02 1.857094466686248779e-02
5.151468515396118164e-02 -8.037897944450378418e-02 1.939013227820396423e-02
8.435236662626266479e-02 1.044919937849044800e-01 -1.823155209422111511e-02
1.801599413156509399e-01 2.284099459648132324e-01 -3.357454389333724976e-02
3.637927770614624023e-01 1.696639060974121094e-01 -1.885167062282562256e-01
2.143622189760208130e-01 2.244589477777481079e-01 2.469593286514282227e-01
2.282694876194000244e-01 2.178379595279693604e-01 2.660066485404968262e-01
2.363290935754776001e-01 2.647670507431030273e-01 -5.362991988658905029e-02
3.216179609298706055e-01 1.293585151433944702e-01 1.698500066995620728e-01
1.647248417139053345e-01 2.168739289045333862e-01 1.554670929908752441e-01
3.434749841690063477e-01 6.774210184812545776e-02 -8.046831935644149780e-02
3.549847006797790527e-01 1.529008448123931885e-01 -2.340166866779327393e-01
8.942649513483047485e-02 4.474586248397827148e-02 -1.691073179244995117e-01
3.304287195205688477e-01 1.364011913537979126e-01 -3.040593564510345459e-01
3.548525869846343994e-01 9.728412330150604248e-02 -7.890058308839797974e-02
3.383891582489013672e-01 1.841502636671066284e-01 -2.687955498695373535e-01
1.241988092660903931e-01 1.324464827775955200e-01 -1.455475687980651855e-01
2.254154682159423828e-01 -8.768036961555480957e-02 -5.553410947322845459e-02
3.063517808914184570e-01 2.808709442615509033e-01 -4.557242989540100098e-02
1.324862837791442871e-01 4.952629655599594116e-02 -2.778071165084838867e-01
1.398476362228393555e-01 1.615377664566040039e-01 -1.294991523027420044e-01
3.651637136936187744e-01 1.488077640533447266e-01 -3.104235976934432983e-02
2.193750590085983276e-01 2.492074966430664062e-01 1.775508671998977661e-01
2.805183827877044678e-01 -1.088094711303710938e-02 -2.645414173603057861e-01
3.702621459960937500e-01 1.918700039386749268e-01 -9.934700280427932739e-02
1.540962457656860352e-01 -1.140031367540359497e-01 7.482437044382095337e-02
9.275475144386291504e-02 6.504286825656890869e-02 -1.552693694829940796e-01
3.379155993461608887e-01 7.844310998916625977e-02 -2.393137365579605103e-01
1.027011424303054810e-01 1.010744795203208923e-01 -1.308982968330383301e-01
3.477979302406311035e-01 7.670950889587402344e-02 -1.013862192630767822e-01
3.080294728279113770e-01 5.888402462005615234e-03 -1.804782897233963013e-01
6.820558011531829834e-02 7.404146343469619751e-02 1.682360470294952393e-01
2.727189660072326660e-01 -1.026965677738189697e-02 1.010291501879692078e-01
9.854550659656524658e-02 -1.099079698324203491e-01 1.218411624431610107e-01
3.157686591148376465e-01 1.824583113193511963e-02 -4.524574428796768188e-02
4.787397384643554688e-02 -2.065757662057876587e-02 -2.345784753561019897e-02
1.176327243447303772e-01 -1.268685460090637207e-01 -8.977064490318298340e-02
3.390967547893524170e-01 1.559382081031799316e-01 1.276008784770965576e-01
2.740113139152526855e-01 2.612380087375640869e-01 -1.474767625331878662e-01
3.085860610008239746e-01 2.682857215404510498e-03 -1.325490176677703857e-01
1.961731314659118652e-01 2.012499570846557617e-01 2.778769135475158691e-01
1.246330142021179199e-01 1.785309463739395142e-01 7.537063956260681152e-02
1.830745488405227661e-01 -8.306014537811279297e-02 -2.548341751098632812e-01
1.308391094207763672e-01 -1.302540898323059082e-01 -3.274966031312942505e-02
2.665442824363708496e-01 2.478490620851516724e-01 2.051135152578353882e-01
2.380256950855255127e-01 2.174551784992218018e-02 -3.652097284793853760e-01
9.233782440423965454e-02 8.797498792409896851e-02 2.619445025920867920e-01
1.259619891643524170e-01 1.150023266673088074e-01 -1.868730932474136353e-01
1.521048247814178467e-01 -5.441032350063323975e-02 2.463406324386596680e-01
3.670168220996856689e-01 1.856991648674011230e-01 -1.432012952864170074e-02
1.170660704374313354e-01 1.674970090389251709e-01 4.971517994999885559e-02
3.278832435607910156e-01 2.730521559715270996e-01 -6.257739663124084473e-02
1.544472724199295044e-01 1.534447520971298218e-01 -1.959513127803802490e-01
3.661006391048431396e-01 1.581822335720062256e-01 -1.666616648435592651e-01
1.873542219400405884e-01 -3.611684590578079224e-02 -3.270806074142456055e-01
5.499675869941711426e-02 3.654247894883155823e-02 8.525422774255275726e-03
3.521178364753723145e-01 1.823406219482421875e-01 8.228673040866851807e-02
2.052913755178451538e-01 -5.601535737514495850e-02 1.723053753376007080e-01
2.314432710409164429e-01 -8.371149003505706787e-02 -8.318912237882614136e-02
5.362214148044586182e-02 4.301589354872703552e-02 8.789275586605072021e-02
1.308719813823699951e-01 1.778074800968170166e-01 -1.915566809475421906e-02
5.662551522254943848e-02 -8.252210915088653564e-03 2.027456760406494141e-01
3.438589572906494141e-01 1.384131908416748047e-01 9.604282677173614502e-02
7.069279253482818604e-02 6.368916481733322144e-02 -5.024596303701400757e-02
5.756574869155883789e-02 -3.014905005693435669e-02 -9.031609445810317993e-02
2.474115341901779175e-01 2.751331627368927002e-01 6.093881279230117798e-02
1.403029859066009521e-01 1.949876248836517334e-01 1.345545500516891479e-01
1.666857898235321045e-01 5.643412470817565918e-02 -3.293143808841705322e-01
9.466278553009033203e-02 -1.204463690519332886e-01 -7.906172424554824829e-02
2.701080143451690674e-01 1.746430695056915283e-01 2.806147634983062744e-01
3.302732110023498535e-01 1.535741984844207764e-01 1.567907035350799561e-01
6.161522865295410156e-02 4.042760655283927917e-02 -4.154315590858459473e-02
7.008056342601776123e-02 -8.395086228847503662e-02 -1.065057218074798584e-01
2.579379081726074219e-01 -1.737172901630401611e-02 -3.047818243503570557e-01
1.314026266336441040e-01 -2.780796587467193604e-02 2.912597060203552246e-01
1.331754624843597412e-01 -9.730227291584014893e-02 -2.155720889568328857e-01
4.553630948066711426e-02 6.610199809074401855e-03 6.206799298524856567e-02
2.294173836708068848e-01 1.078406050801277161e-01 -3.604960143566131592e-01
2.096884399652481079e-01 1.223022937774658203e-01 -3.349623978137969971e-01
2.467934489250183105e-01 9.473920613527297974e-02 3.029960393905639648e-01
3.308557868003845215e-01 1.002926155924797058e-01 -2.923234999179840088e-01
3.466255366802215576e-01 1.983522623777389526e-01 1.039014160633087158e-01
2.433050423860549927e-01 7.154054194688796997e-02 2.940703332424163818e-01
1.571829915046691895e-01 -1.223191171884536743e-01 7.879043929278850555e-03
6.044037640094757080e-02 -4.335530102252960205e-03 -9.467329829931259155e-02
1.568140536546707153e-01 -9.651398658752441406e-02 1.418475806713104248e-01
1.195857375860214233e-01 9.489506483078002930e-03 -2.701862752437591553e-01
2.461743801832199097e-01 -5.219946801662445068e-02 6.309716403484344482e-02
2.342075258493423462e-01 1.524792313575744629e-01 -3.274411559104919434e-01
2.408717572689056396e-01 2.502228021621704102e-01 1.983551681041717529e-01
1.992432326078414917e-01 -1.001694351434707642e-01 -1.658165603876113892e-01
6.160187721252441406e-02 9.163640439510345459e-03 2.214904725551605225e-01
2.394579201936721802e-01 -7.292217016220092773e-02 -1.675344556570053101e-01
1.683375388383865356e-01 1.755450963973999023e-01 2.912532389163970947e-01
2.868729829788208008e-01 -5.239486694335937500e-03 5.452874302864074707e-02
2.540702223777770996e-01 2.733654975891113281e-01 1.054067537188529968e-01
1.586729437112808228e-01 1.719015538692474365e-01 -1.660671532154083252e-01
1.460876762866973877e-01 2.531032636761665344e-02 3.344325721263885498e-01
1.979429572820663452e-01 -1.041554659605026245e-01 -1.386213749647140503e-01
3.093328177928924561e-01 5.017452687025070190e-02 -2.997316420078277588e-01
8.777894824743270874e-02 1.748599112033843994e-03 -1.959418356418609619e-01
3.333093523979187012e-01 2.007969319820404053e-01 1.487901359796524048e-01
2.703501880168914795e-01 1.177806630730628967e-01 -3.636934757232666016e-01
2.654290795326232910e-01 -2.293504029512405396e-02 -2.771431505680084229e-01
2.316928803920745850e-01 8.253149688243865967e-02 3.154728412628173828e-01
2.219091504812240601e-01 -2.552908658981323242e-02 2.065102159976959229e-01
1.372346282005310059e-01 1.335916668176651001e-01 3.053432404994964600e-01
3.262895345687866211e-01 3.518230840563774109e-02 -5.642030760645866394e-02
3.624438643455505371e-01 2.096857130527496338e-01 1.395622547715902328e-02
9.294486045837402344e-02 1.313318163156509399e-01 5.801136046648025513e-02
2.521231174468994141e-01 -6.478522717952728271e-02 -1.310577392578125000e-01
1.503657102584838867e-01 1.312946081161499023e-01 3.243472874164581299e-01
2.536617517471313477e-01 -2.757607400417327881e-02 1.196743100881576538e-01
2.383925914764404297e-01 1.198413223028182983e-02 2.385073006153106689e-01
2.966411411762237549e-01 -5.304977297782897949e-03 -2.105646878480911255e-01
2.019132524728775024e-01 2.052284330129623413e-01 -1.948293149471282959e-01
1.991969943046569824e-01 1.888133287429809570e-01 2.987496256828308105e-01
2.450495362281799316e-01 -5.619032680988311768e-02 -2.330575883388519287e-01
1.801241338253021240e-01 2.972574532032012939e-02 -3.503254055976867676e-01
2.154361754655838013e-01 -6.025478243827819824e-03 -3.527840375900268555e-01
6.075575947761535645e-02 -7.759404182434082031e-02 -7.387230545282363892e-02
3.338555097579956055e-01 1.213208734989166260e-01 1.205975711345672607e-01
1.130494996905326843e-01 1.213127151131629944e-01 -1.282488703727722168e-01
3.703599572181701660e-01 1.836918294429779053e-01 -6.922090053558349609e-02
2.142498344182968140e-01 -6.663098931312561035e-02 1.203435063362121582e-01
3.129962086677551270e-01 1.542724668979644775e-01 -3.239470422267913818e-01
1.214829608798027039e-01 -1.243785470724105835e-01 5.554602295160293579e-02
3.495116531848907471e-01 1.792845577001571655e-01 -2.458194196224212646e-01
2.944963872432708740e-01 -1.301836222410202026e-02 -3.853983059525489807e-02
1.219062656164169312e-01 9.736789017915725708e-02 -2.034352421760559082e-01
1.970426589250564575e-01 8.683427423238754272e-02 -3.480858504772186279e-01
2.846768796443939209e-01 2.545461058616638184e-03 -2.844668924808502197e-01
7.060672342777252197e-02 -5.586743354797363281e-04 -1.381442993879318237e-01
1.994682103395462036e-01 -9.106564521789550781e-02 6.855130940675735474e-02
1.809119731187820435e-01 -1.145654916763305664e-01 -2.248123101890087128e-02
2.290035486221313477e-01 5.296591669321060181e-02 2.993646562099456787e-01
3.546175062656402588e-01 2.483434826135635376e-01 -6.529901921749114990e-02
3.406225740909576416e-01 9.587322175502777100e-02 5.107296258211135864e-02
3.079560399055480957e-01 1.450191810727119446e-02 -2.249271869659423828e-01
2.536395490169525146e-01 1.070600748062133789e-02 2.042755335569381714e-01
3.464626669883728027e-01 2.389144599437713623e-01 -1.655127406120300293e-01
1.083778291940689087e-01 1.541930139064788818e-01 1.386241912841796875e-01
2.848432660102844238e-01 -6.113201379776000977e-05 8.144686371088027954e-02
5.728653073310852051e-02 4.575365781784057617e-02 1.526941806077957153e-01
3.562141656875610352e-01 1.189726740121841431e-01 -7.070219609886407852e-03
1.235904917120933533e-01 1.682258546352386475e-01 1.842307299375534058e-01
1.358377486467361450e-01 1.919190287590026855e-01 1.022715568542480469e-01
2.622604966163635254e-01 2.300566285848617554e-01 -2.273795157670974731e-01
1.613062769174575806e-01 6.338614970445632935e-02 3.486047983169555664e-01
1.852591782808303833e-01 -5.989672243595123291e-02 -2.982023060321807861e-01
3.605102300643920898e-01 1.324457824230194092e-01 -1.885011494159698486e-01
2.199854403734207153e-01 -4.274083673954010010e-02 -3.091381490230560303e-01
1.540586352348327637e-01 6.382125616073608398e-02 -3.071270287036895752e-01
3.366961479187011719e-01 5.875641852617263794e-02 -3.682164475321769714e-02
3.218359053134918213e-01 1.647388041019439697e-01 1.847501993179321289e-01
2.203061282634735107e-01 1.983308792114257812e-01 2.927034497261047363e-01
1.407964974641799927e-01 7.846970856189727783e-02 3.430980443954467773e-01
7.077652215957641602e-02 8.705198764801025391e-02 1.333511471748352051e-01
1.778280287981033325e-01 -4.993186891078948975e-02 2.300368696451187134e-01
1.147217825055122375e-01 6.229422241449356079e-02 3.235400617122650146e-01
2.399795949459075928e-01 3.064404800534248352e-02 2.605001330375671387e-01
1.559212058782577515e-01 8.791200816631317139e-03 3.221756815910339355e-01
8.811678737401962280e-02 9.369981288909912109e-02 2.378569841384887695e-01
1.136142015457153320e-01 -1.299967318773269653e-01 -1.551628485321998596e-02
5.769659578800201416e-02 5.406528338789939880e-02 5.257955193519592285e-02
2.261958122253417969e-01 -6.658630073070526123e-02 8.294379711151123047e-02
6.868097186088562012e-02 3.149754181504249573e-02 2.383963763713836670e-01
1.227393746376037598e-01 -5.768692493438720703e-02 2.513378858566284180e-01
2.697688639163970947e-01 2.935840561985969543e-02 -3.481901884078979492e-01
9.691911190748214722e-02 1.019568741321563721e-02 3.001748025417327881e-01
3.548066020011901855e-01 1.923520117998123169e-01 -2.187437117099761963e-01
6.419758498668670654e-02 -5.196659266948699951e-02 -1.164523065090179443e-01
1.271866858005523682e-01 -8.343800902366638184e-02 -2.349119931459426880e-01
4.862158000469207764e-02 -5.559113621711730957e-02 -2.200689911842346191e-02
3.270324766635894775e-01 2.400154769420623779e-01 1.300131082534790039e-01
3.586409687995910645e-01 1.633901894092559814e-01 4.034124314785003662e-02
2.078459411859512329e-01 -1.001216620206832886e-01 -4.727287590503692627e-02
2.446704208850860596e-01 1.451704204082489014e-01 3.142397999763488770e-01
2.681564390659332275e-01 2.672135457396507263e-02 1.956268996000289917e-01
1.493743211030960083e-01 2.369160205125808716e-02 -3.166343271732330322e-01
1.737694591283798218e-01 -9.998778998851776123e-02 -2.125006169080734253e-01
2.839974761009216309e-01 3.760261461138725281e-02 1.704008132219314575e-01
1.563699543476104736e-01 -7.071453332901000977e-02 -2.768514156341552734e-01
6.897066533565521240e-02 -6.654551625251770020e-02 1.884212642908096313e-01
3.257495760917663574e-01 3.194010630249977112e-02 -7.903671264648437500e-02
2.068922817707061768e-01 -5.892750620841979980e-02 -2.909021079540252686e-01
3.188833296298980713e-01 3.697752952575683594e-02 2.130629494786262512e-02
3.518609702587127686e-01 9.985412657260894775e-02 -2.170935645699501038e-02
1.065278351306915283e-01 -1.012569516897201538e-01 -1.730318963527679443e-01
9.183444082736968994e-02 -1.245233416557312012e-01 -1.099649816751480103e-04
1.638747751712799072e-01 2.075884938240051270e-01 2.011555135250091553e-01
1.533175110816955566e-01 -4.253493249416351318e-02 2.649082839488983154e-01
1.389534622430801392e-01 1.957572996616363525e-01 7.460855692625045776e-02
2.223335802555084229e-01 2.615497112274169922e-01 1.087093502283096313e-01
4.428261518478393555e-02 -5.108812451362609863e-02 3.273684903979301453e-02
1.688231080770492554e-01 -1.149308234453201294e-01 3.175427392125129700e-02
3.166181743144989014e-01 2.328485101461410522e-01 1.654056906700134277e-01
2.568337619304656982e-01 -6.067888438701629639e-02 -8.263711631298065186e-02
3.094516396522521973e-01 2.753679156303405762e-01 7.059349119663238525e-02
1.803724318742752075e-01 2.067631334066390991e-01 -1.332344859838485718e-01
1.598668992519378662e-01 1.867451965808868408e-01 -1.281374990940093994e-01
1.246454492211341858e-01 -9.092834591865539551e-02 1.840616613626480103e-01
3.687220215797424316e-01 1.766664683818817139e-01 -1.435280442237854004e-01
4.330487549304962158e-02 -2.740620821714401245e-02 9.979801625013351440e-02
3.503794968128204346e-01 1.247871369123458862e-01 -2.415304481983184814e-01
5.709715187549591064e-02 -9.132386744022369385e-02 1.127939671277999878e-03
1.457225680351257324e-01 1.969367563724517822e-01 -1.103729475289583206e-02
2.458686232566833496e-01 -6.974300742149353027e-02 -5.068521201610565186e-02
3.226985335350036621e-01 5.646095424890518188e-02 5.847534537315368652e-02
2.547439634799957275e-01 1.956918388605117798e-01 -2.866341173648834229e-01
3.577657341957092285e-01 1.939544677734375000e-01 5.303744226694107056e-02
2.848173677921295166e-01 1.517345756292343140e-01 -3.424269556999206543e-01
1.264745593070983887e-01 1.770531237125396729e-01 1.634097844362258911e-02
9.043823927640914917e-02 -1.228104829788208008e-01 2.787613868713378906e-02
9.565763920545578003e-02 1.351444274187088013e-01 1.320633888244628906e-01
3.032234311103820801e-01 2.725489437580108643e-02 7.758805155754089355e-02
3.481356203556060791e-01 8.525540679693222046e-02 -3.892747685313224792e-02
1.055367738008499146e-01 7.719963788986206055e-02 -1.824159622192382812e-01
3.324055075645446777e-01 2.392954081296920776e-01 -1.969927400350570679e-01
5.901974439620971680e-02 -9.573224186897277832e-02 4.297398403286933899e-02
2.932545244693756104e-01 9.549728780984878540e-02 2.193009257316589355e-01
1.217173561453819275e-01 -1.203222572803497314e-01 8.037529885768890381e-02
2.651810348033905029e-01 6.832472980022430420e-03 -3.303797543048858643e-01
2.354383170604705811e-01 2.679478526115417480e-01 -2.147779241204261780e-02
4.436974227428436279e-02 -4.881522059440612793e-02 8.827149122953414917e-02
2.022828012704849243e-01 2.448358684778213501e-01 1.546858996152877808e-01
3.686965703964233398e-01 1.981039345264434814e-01 -4.127838462591171265e-02
3.178505301475524902e-01 3.937664255499839783e-02 -2.502337098121643066e-01
1.866449862718582153e-01 -9.491682052612304688e-02 8.930809050798416138e-02
1.774879395961761475e-01 2.314247936010360718e-01 1.214578896760940552e-01
2.787662744522094727e-01 -3.615748882293701172e-02 -1.443364322185516357e-01
6.237047910690307617e-02 5.075558274984359741e-02 1.848701983690261841e-01
3.407396078109741211e-01 1.182367131114006042e-01 -2.739534378051757812e-01
2.768091857433319092e-01 -2.815598249435424805e-02 1.281070243567228317e-02
8.311123400926589966e-02 5.049915611743927002e-02 2.712431252002716064e-01
3.190166652202606201e-01 8.520805835723876953e-02 1.310360431671142578e-01
6.318336725234985352e-02 -1.707476377487182617e-02 2.242634743452072144e-01
2.386919707059860229e-01 -7.090501487255096436e-03 2.065210640430450439e-01
3.199262320995330811e-01 7.158962637186050415e-02 -2.970656752586364746e-01
2.934896349906921387e-01 -1.863671839237213135e-02 -1.293412148952484131e-01
1.925067007541656494e-01 2.066273242235183716e-01 -1.687503308057785034e-01
1.752489358186721802e-01 -9.140127897262573242e-02 1.286993175745010376e-01
9.522911161184310913e-02 4.029715061187744141e-02 3.004349172115325928e-01
2.204169631004333496e-01 -9.196162223815917969e-02 -1.077961847186088562e-01
1.183039322495460510e-01 9.261792153120040894e-02 3.145378232002258301e-01
2.591583430767059326e-01 1.966209113597869873e-01 2.796358168125152588e-01
2.430117279291152954e-01 2.297032475471496582e-01 -2.064130157232284546e-01
3.510332703590393066e-01 2.450436651706695557e-01 2.196574583649635315e-02
3.676367998123168945e-01 1.506994068622589111e-01 -1.337431371212005615e-01
2.704319953918457031e-01 2.519415020942687988e-01 -1.761502474546432495e-01
1.308474689722061157e-01 2.062252536416053772e-02 -2.881859242916107178e-01
2.189876586198806763e-01 1.944738924503326416e-01 -2.494285404682159424e-01
1.791000217199325562e-01 1.921229064464569092e-03 3.035969138145446777e-01
1.727546751499176025e-01 1.114140748977661133e-01 -2.973577678203582764e-01
4.832631349563598633e-02 -3.333901613950729370e-02 1.499727070331573486e-01
1.730723381042480469e-01 2.065903097391128540e-01 -1.082858294248580933e-01
3.548734188079833984e-01 2.462233752012252808e-01 -2.074441500008106232e-02
7.626700401306152344e-02 2.966086566448211670e-02 -1.358389407396316528e-01
1.816207617521286011e-01 2.365379482507705688e-01 4.275541752576828003e-02
2.140079289674758911e-01 1.161902993917465210e-01 3.387989699840545654e-01
1.209301501512527466e-01 4.051455110311508179e-02 3.303498923778533936e-01
3.600868880748748779e-01 1.604689657688140869e-01 -2.105056792497634888e-01
1.526421606540679932e-01 1.900359988212585449e-01 2.273143678903579712e-01
1.577059030532836914e-01 -1.163848042488098145e-01 -1.562823951244354248e-01
1.199942454695701599e-01 1.297955960035324097e-01 2.766037285327911377e-01
9.439518302679061890e-02 1.228393912315368652e-01 1.928016990423202515e-01
7.468503713607788086e-02 8.973309397697448730e-02 6.933464668691158295e-03
2.871435880661010742e-01 8.596182614564895630e-02 -3.590139746665954590e-01
7.431887090206146240e-02 -5.943241715431213379e-02 -1.498143523931503296e-01
5.419036746025085449e-02 7.819518446922302246e-03 1.870812326669692993e-01
1.176834776997566223e-01 1.509195566177368164e-01 -6.121225282549858093e-02
3.672111332416534424e-01 2.040956914424896240e-01 -1.319349855184555054e-01
3.026533722877502441e-01 2.501301467418670654e-02 -2.771479785442352295e-01
2.170157730579376221e-01 -8.202373981475830078e-02 -2.099815011024475098e-01
3.420934081077575684e-01 2.638687491416931152e-01 -2.190218865871429443e-02
2.806825041770935059e-01 -2.213520556688308716e-02 -2.262055128812789917e-01
2.345356643199920654e-01 -5.263902246952056885e-02 -2.700096368789672852e-01
4.346700012683868408e-02 -2.003971487283706665e-02 3.353987634181976318e-02
1.825053095817565918e-01 -2.859243005514144897e-02 2.612302303314208984e-01
1.889195442199707031e-01 -1.018613576889038086e-01 4.763523489236831665e-02
9.034735709428787231e-02 1.084155887365341187e-01 2.151915132999420166e-01
3.229785263538360596e-01 2.585202753543853760e-01 1.020116433501243591e-01
6.230005621910095215e-02 1.777438446879386902e-02 -8.336731046438217163e-02
1.617501229047775269e-01 -1.455511152744293213e-02 2.970781326293945312e-01
1.815156042575836182e-01 5.030740052461624146e-02 3.392880558967590332e-01
3.518834710121154785e-01 1.131515502929687500e-01 -2.210606783628463745e-01
1.527375429868698120e-01 -8.784331381320953369e-02 1.728653162717819214e-01
6.520368158817291260e-02 7.564289867877960205e-02 1.126658916473388672e-01
1.647943258285522461e-01 -9.305737912654876709e-02 -2.365105301141738892e-01
7.837936282157897949e-02 -6.572072207927703857e-02 2.084202468395233154e-01
2.894988954067230225e-01 2.765116989612579346e-01 -8.706369996070861816e-02
8.237796276807785034e-02 -9.768758714199066162e-02 1.432462632656097412e-01
1.533904224634170532e-01 2.112923115491867065e-01 7.927664369344711304e-02
1.067191287875175476e-01 -7.069811224937438965e-02 2.266008406877517700e-01
2.566466331481933594e-01 7.563777267932891846e-02 2.765202820301055908e-01
2.318660616874694824e-01 1.856364607810974121e-01 -2.815921604633331299e-01
8.862794935703277588e-02 1.249293759465217590e-01 8.559637516736984253e-02
2.227393537759780884e-01 2.302736043930053711e-02 2.787549793720245361e-01
3.574814796447753906e-01 1.036429703235626221e-01 -1.017499491572380066e-01
2.181558012962341309e-01 2.436742931604385376e-01 -1.104689761996269226e-01
2.776977419853210449e-01 7.927252352237701416e-02 2.398443818092346191e-01
1.386128067970275879e-01 1.407702565193176270e-01 -1.761031001806259155e-01
2.873429059982299805e-01 -2.111947536468505859e-02 -1.897338628768920898e-01
8.106428384780883789e-02 -8.418804407119750977e-02 -1.444443613290786743e-01
3.026112616062164307e-01 -5.676254630088806152e-03 -8.547493070363998413e-02
2.041196525096893311e-01 -7.656578719615936279e-02 -2.531932592391967773e-01
3.672515153884887695e-01 2.139192223548889160e-01 -9.851443022489547729e-02
1.204497739672660828e-01 1.582536548376083374e-01 2.094124704599380493e-01
9.573955088853836060e-02 -1.216071248054504395e-01 5.773825198411941528e-02
2.971756458282470703e-01 2.209049016237258911e-01 2.145618796348571777e-01
8.342469483613967896e-02 9.693671017885208130e-02 -3.985789790749549866e-02
3.053947389125823975e-01 2.501531839370727539e-01 -1.935573667287826538e-01
1.700187623500823975e-01 -1.549552381038665771e-02 -3.336350321769714355e-01
3.619191646575927734e-01 1.447214335203170776e-01 -4.737717565149068832e-03
3.060585260391235352e-01 2.650539875030517578e-01 -1.445055007934570312e-01
1.023763194680213928e-01 1.381522715091705322e-01 -1.153458468616008759e-02
5.144102871417999268e-02 1.090545207262039185e-02 -1.809988729655742645e-02
4.656192660331726074e-02 9.656742215156555176e-03 1.098975390195846558e-01
3.078559637069702148e-01 1.941820681095123291e-01 2.139186412096023560e-01
3.445826172828674316e-01 2.277448475360870361e-01 8.966542780399322510e-02
2.631071209907531738e-01 6.521341204643249512e-02 2.559621334075927734e-01
2.829540073871612549e-01 2.304337918758392334e-02 -3.225286900997161865e-01
1.332149058580398560e-01 1.619668155908584595e-01 2.472238838672637939e-01
1.088160946965217590e-01 1.261624693870544434e-01 -9.684120118618011475e-02
6.774790585041046143e-02 5.273406207561492920e-02 2.136459052562713623e-01
2.550291717052459717e-01 1.535984277725219727e-01 -3.384713828563690186e-01
3.016303777694702148e-01 2.671647667884826660e-01 1.214651316404342651e-01
2.406264245510101318e-01 2.599385976791381836e-01 -9.615469723939895630e-02
1.409928798675537109e-01 1.908794343471527100e-01 1.725688278675079346e-01
3.114447593688964844e-01 1.909595355391502380e-02 9.677940979599952698e-04
2.735299468040466309e-01 1.886021494865417480e-01 -3.059016168117523193e-01
5.355033278465270996e-02 3.953468054533004761e-02 1.230691522359848022e-01
1.510577797889709473e-01 1.970415115356445312e-01 -4.723489284515380859e-02
5.229926109313964844e-02 -7.512825727462768555e-02 9.939123690128326416e-02
3.274982571601867676e-01 3.604724630713462830e-02 -1.617859303951263428e-01
2.724176049232482910e-01 2.790738940238952637e-01 8.134143799543380737e-02
3.398991525173187256e-01 6.102980673313140869e-02 -1.613621562719345093e-01
3.594552278518676758e-01 2.272657305002212524e-01 -1.389068663120269775e-01
8.360670506954193115e-02 -1.190263926982879639e-01 -3.458099439740180969e-02
1.614144891500473022e-01 -1.147376596927642822e-01 5.455656349658966064e-02
3.369176983833312988e-01 1.047130152583122253e-01 8.601306378841400146e-02
2.099615931510925293e-01 2.553588151931762695e-01 3.782789222896099091e-03
1.816736757755279541e-01 -7.620574533939361572e-02 1.640073657035827637e-01
2.317634969949722290e-01 1.346180438995361328e-01 -3.428525924682617188e-01
1.390503644943237305e-01 1.805321574211120605e-01 -5.866501480340957642e-02
3.137747943401336670e-01 1.191004365682601929e-02 -1.542559713125228882e-01
1.158548519015312195e-01 1.112754344940185547e-01 -1.604743152856826782e-01
2.660623192787170410e-01 -4.458114504814147949e-02 -1.944092810153961182e-01
9.033643454313278198e-02 1.199444383382797241e-01 1.695498824119567871e-03
1.409394443035125732e-01 -1.120934784412384033e-01 1.038885265588760376e-01
1.972440779209136963e-01 2.337951511144638062e-01 1.943789273500442505e-01
1.230826899409294128e-01 -1.374655216932296753e-02 -2.782508730888366699e-01
2.680468261241912842e-01 2.604125142097473145e-01 1.718073487281799316e-01
3.398000001907348633e-01 8.024959266185760498e-02 1.846458390355110168e-02
2.331932783126831055e-01 2.341510653495788574e-01 2.363030463457107544e-01
7.970736920833587646e-02 -9.556509554386138916e-03 2.666755616664886475e-01
3.010719418525695801e-01 5.304760858416557312e-02 1.428763866424560547e-01
3.159577250480651855e-01 4.938157647848129272e-02 -2.784913480281829834e-01
2.624917328357696533e-01 2.691989839076995850e-01 -9.587870538234710693e-02
3.460580706596374512e-01 2.563264966011047363e-01 -9.566921740770339966e-02
3.144910633563995361e-01 1.401717662811279297e-01 1.963851898908615112e-01
6.170991063117980957e-02 -3.774844855070114136e-02 2.062382400035858154e-01
3.158892393112182617e-01 6.561721861362457275e-02 1.103510782122612000e-01
1.723435819149017334e-01 -1.197997778654098511e-01 -7.110972702503204346e-02
3.642829656600952148e-01 1.291686892509460449e-01 -1.195738837122917175e-01
1.919947266578674316e-01 3.712454438209533691e-02 3.249249458312988281e-01
1.191622167825698853e-01 -4.239631444215774536e-02 2.729031443595886230e-01
1.885658949613571167e-01 1.891461610794067383e-01 -2.037387639284133911e-01
2.024651467800140381e-01 1.612537503242492676e-01 -2.808134555816650391e-01
2.338399887084960938e-01 -8.024838566780090332e-02 -1.381115168333053589e-01
3.126061856746673584e-01 9.554058313369750977e-02 1.663350015878677368e-01
2.014839649200439453e-01 2.785359695553779602e-02 -3.643053472042083740e-01
5.523715913295745850e-02 -5.244158208370208740e-02 -7.228066027164459229e-02
3.146212697029113770e-01 2.719520926475524902e-01 -1.061966046690940857e-01
3.183405995368957520e-01 2.070305347442626953e-01 -2.708868682384490967e-01
5.977176129817962646e-02 -6.197944283485412598e-02 1.694008558988571167e-01
2.605956792831420898e-01 -4.531572014093399048e-02 -2.195006310939788818e-01
3.469646573066711426e-01 8.537992089986801147e-02 -1.955403089523315430e-01
1.179874613881111145e-01 -8.254025876522064209e-02 2.049816250801086426e-01
6.602706015110015869e-02 7.673172652721405029e-02 5.401152372360229492e-02
7.890611886978149414e-02 8.930587768554687500e-02 2.017697840929031372e-01
1.021753549575805664e-01 3.428156301379203796e-02 -2.179456949234008789e-01
1.149491146206855774e-01 7.212480157613754272e-02 -2.170469462871551514e-01
3.697000145912170410e-01 1.631225943565368652e-01 -8.558966219425201416e-02
2.693211734294891357e-01 2.709123790264129639e-01 1.319516152143478394e-01
3.366718292236328125e-01 2.640212476253509521e-01 2.847407758235931396e-02
3.599205017089843750e-01 1.184073165059089661e-01 -5.124010890722274780e-02
1.479327976703643799e-01 1.517768502235412598e-01 2.982900440692901611e-01
2.492519319057464600e-01 5.329100042581558228e-02 2.693428993225097656e-01
8.136670291423797607e-02 1.098568215966224670e-01 5.183061212301254272e-02
2.793888449668884277e-01 5.409266799688339233e-02 2.078029066324234009e-01
7.813906669616699219e-02 7.233743369579315186e-02 2.325461208820343018e-01
1.773162037134170532e-01 1.060712039470672607e-01 3.496476709842681885e-01
2.157700955867767334e-01 1.742569506168365479e-01 3.166962862014770508e-01
9.117073565721511841e-02 1.065982878208160400e-01 -5.941092595458030701e-02
2.611416280269622803e-01 -5.061380565166473389e-02 -1.377954985946416855e-02
1.050804629921913147e-01 1.343103945255279541e-01 -4.912814125418663025e-02
1.692982167005538940e-01 1.715825796127319336e-01 -1.966144740581512451e-01
2.025924623012542725e-01 -9.907387197017669678e-02 6.591583602130413055e-03
1.190408691763877869e-01 1.710979640483856201e-01 1.044576019048690796e-01
2.913580238819122314e-01 -2.155428379774093628e-02 -9.842918068170547485e-02
1.671024858951568604e-01 -1.181125193834304810e-01 -1.291649639606475830e-01
2.624541521072387695e-01 -2.749841660261154175e-02 8.773132413625717163e-02
3.466017246246337891e-01 1.751461923122406006e-01 1.052610427141189575e-01
4.474179446697235107e-02 -3.715956211090087891e-02 6.387329660356044769e-03
1.980514675378799438e-01 -7.334220409393310547e-02 1.396580189466476440e-01
1.229678466916084290e-01 1.445648968219757080e-01 -1.091204434633255005e-01
2.002516537904739380e-01 2.326486706733703613e-01 -1.013234183192253113e-01
8.181513100862503052e-02 9.811460971832275391e-03 -1.730321943759918213e-01
8.403734117746353149e-02 6.049201637506484985e-02 -1.272822916507720947e-01
2.127050906419754028e-01 3.015345707535743713e-02 2.992680668830871582e-01
1.880119740962982178e-01 2.380659431219100952e-01 -9.640529751777648926e-03
1.028838381171226501e-01 -4.792181402444839478e-02 -2.307386547327041626e-01
3.057698607444763184e-01 4.670292139053344727e-03 -2.877796813845634460e-02
1.965323537588119507e-01 2.475302815437316895e-01 2.839999273419380188e-02
2.004119902849197388e-01 1.375955045223236084e-01 -3.089146614074707031e-01
1.313125640153884888e-01 9.487727284431457520e-02 -2.322320789098739624e-01
2.921422719955444336e-01 2.828168869018554688e-01 -2.884694933891296387e-02
9.777954965829849243e-02 -6.257943809032440186e-02 -2.104292958974838257e-01
8.044570684432983398e-02 -1.121142208576202393e-01 7.922563701868057251e-02
1.812391877174377441e-01 -5.776026844978332520e-02 2.097150385379791260e-01
7.852639257907867432e-02 7.272317260503768921e-02 -7.687862962484359741e-02
1.065165102481842041e-01 1.479853689670562744e-01 8.595471270382404327e-03
2.604476213455200195e-01 -5.537135899066925049e-02 -1.519130915403366089e-01
3.505871891975402832e-01 1.390573829412460327e-01 6.400997936725616455e-02
3.401801586151123047e-01 1.444817632436752319e-01 -2.819208204746246338e-01
8.472350984811782837e-02 -1.016761660575866699e-01 -1.206227391958236694e-01
2.184811085462570190e-01 1.444835662841796875e-01 3.320864737033843994e-01
1.783215701580047607e-01 -1.071293801069259644e-01 -1.776181012392044067e-01
2.371204048395156860e-01 -3.727272897958755493e-02 1.436113864183425903e-01
1.503981500864028931e-01 1.867349445819854736e-01 -9.001367539167404175e-02
2.037489116191864014e-01 3.043845295906066895e-03 2.802665531635284424e-01
1.170299574732780457e-01 2.968959510326385498e-02 -2.572158575057983398e-01
1.591680198907852173e-01 1.387282013893127441e-01 -2.348509728908538818e-01
6.346163153648376465e-02 -1.391328126192092896e-02 -1.144946441054344177e-01
1.328745186328887939e-01 1.869962960481643677e-01 3.710983321070671082e-02
1.943449974060058594e-01 2.547698616981506348e-01 1.854639351367950439e-01
-3.690082579851150513e-02 2.657654583454132080e-01 1.931239515542984009e-01
1.425176113843917847e-01 2.827333509922027588e-01 2.934526801109313965e-01
7.489466667175292969e-02 2.302924841642379761e-01 3.460109829902648926e-01
1.772857308387756348e-01 2.601230442523956299e-01 2.500275671482086182e-01
4.284888505935668945e-03 2.900317311286926270e-01 5.060076713562011719e-03
1.121133640408515930e-01 3.339509367942810059e-01 1.525713801383972168e-01
8.747108280658721924e-03 3.213417828083038330e-01 1.078738644719123840e-01
1.882634609937667847e-01 2.476159185171127319e-01 1.653004735708236694e-01
1.486959308385848999e-02 3.236462175846099854e-01 4.379564523696899414e-02
5.255259573459625244e-03 3.197887539863586426e-01 9.100720286369323730e-02
1.085899546742439270e-01 2.415174841880798340e-01 3.111978620290756226e-02
1.618489772081375122e-01 2.402984052896499634e-01 8.076609671115875244e-02
-3.458074480295181274e-02 2.640108764171600342e-01 1.753138601779937744e-01
2.094464004039764404e-01 3.361918628215789795e-01 -8.843570202589035034e-02
3.542650490999221802e-02 2.928997576236724854e-01 -5.565697699785232544e-02
1.716370582580566406e-01 3.327188193798065186e-01 1.097781956195831299e-01
2.221850156784057617e-01 3.065232336521148682e-01 1.015087142586708069e-01
-3.031802922487258911e-02 2.483951747417449951e-01 2.345387637615203857e-01
2.047482430934906006e-01 3.359476923942565918e-01 1.603312790393829346e-02
5.092167481780052185e-02 3.387457728385925293e-01 2.957841008901596069e-02
2.331244945526123047e-02 3.092693686485290527e-01 2.418699264526367188e-01
5.452019721269607544e-02 3.137786388397216797e-01 2.454428076744079590e-01
3.587191551923751831e-02 2.458568811416625977e-01 3.758293688297271729e-01
3.158170729875564575e-02 2.316071689128875732e-01 1.361327916383743286e-01
9.587682783603668213e-03 2.390762865543365479e-01 1.306359320878982544e-01
1.480419784784317017e-01 2.604811787605285645e-01 3.031152188777923584e-01
-2.586186677217483521e-02 2.956016957759857178e-01 1.515373885631561279e-01
1.546185463666915894e-02 2.760085761547088623e-01 3.409024775028228760e-01
-1.159109175205230713e-03 2.305201441049575806e-01 2.287798821926116943e-01
1.025580391287803650e-01 2.554349005222320557e-01 -2.860870212316513062e-02
3.661589324474334717e-02 3.256746232509613037e-01 -3.524918109178543091e-02
1.506138145923614502e-01 2.965666651725769043e-01 2.592226862907409668e-01
4.078031331300735474e-02 2.491804063320159912e-01 3.805795311927795410e-02
2.268141210079193115e-01 3.245025873184204102e-01 -7.175996154546737671e-02
1.950049996376037598e-01 3.352123796939849854e-01 5.124841630458831787e-02
9.202808886766433716e-02 2.696426808834075928e-01 -6.906972080469131470e-02
1.804710924625396729e-01 3.018645942211151123e-01 -1.424746215343475342e-01
2.011588215827941895e-02 2.503403425216674805e-01 6.179359555244445801e-02
-7.062241435050964355e-03 3.106408417224884033e-01 1.532709300518035889e-01
1.383987367153167725e-01 2.465585470199584961e-01 1.210559159517288208e-02
1.595560312271118164e-01 2.869343459606170654e-01 -1.226335242390632629e-01
1.737803667783737183e-01 2.429642826318740845e-01 8.745218068361282349e-02
1.120092123746871948e-01 2.316983342170715332e-01 3.120262026786804199e-01
1.176911070942878723e-01 2.244378626346588135e-01 1.823841631412506104e-01
5.940021947026252747e-02 2.900332212448120117e-01 -8.363204449415206909e-02
1.254020333290100098e-01 2.271003425121307373e-01 2.543965876102447510e-01
2.063200175762176514e-01 2.669422328472137451e-01 -5.836889147758483887e-03
-1.464755088090896606e-02 2.839778959751129150e-01 5.990923941135406494e-02
2.269743978977203369e-01 2.790405154228210449e-01 3.204837441444396973e-03
1.082584857940673828e-01 2.225017547607421875e-01 2.418643832206726074e-01
1.907257139682769775e-01 3.005425930023193359e-01 1.925446093082427979e-01
4.687027633190155029e-02 2.206045389175415039e-01 2.203442752361297607e-01
1.485186070203781128e-01 2.417579293251037598e-01 4.814641922712326050e-02
6.765793263912200928e-02 3.242641091346740723e-01 2.018052935600280762e-01
1.108482033014297485e-01 2.793506681919097900e-01 3.268505632877349854e-01
1.451252102851867676e-01 3.135838806629180908e-01 -1.601823866367340088e-01
1.205451786518096924e-01 2.575367987155914307e-01 -3.949294239282608032e-02
1.588308811187744141e-01 2.385980188846588135e-01 2.375535070896148682e-01
5.396431684494018555e-02 2.384449988603591919e-01 7.136662304401397705e-02
1.578561365604400635e-01 2.360389828681945801e-01 1.180916577577590942e-01
8.720847964286804199e-02 2.461868226528167725e-01 3.626163303852081299e-01
1.493069976568222046e-01 2.713580727577209473e-01 -8.385058492422103882e-02
1.401595324277877808e-01 2.721185684204101562e-01 3.085361421108245850e-01
4.797145351767539978e-02 2.198831886053085327e-01 2.348392009735107422e-01
1.794894337654113770e-01 2.951040267944335938e-01 2.231538295745849609e-01
2.289096415042877197e-01 2.917427420616149902e-01 -4.841419309377670288e-02
8.463644981384277344e-02 3.467262685298919678e-01 -5.762301385402679443e-03
1.377660036087036133e-01 2.773362696170806885e-01 -1.020219102501869202e-01
1.130191907286643982e-01 3.495859503746032715e-01 -5.618729442358016968e-02
1.006539314985275269e-01 3.425058424472808838e-01 -9.752962738275527954e-02
3.980795294046401978e-02 3.347636461257934570e-01 2.353829890489578247e-02
1.549721360206604004e-01 2.404734492301940918e-01 6.604516506195068359e-02
1.988481879234313965e-01 2.648997008800506592e-01 1.978958845138549805e-01
2.209695130586624146e-01 2.787655889987945557e-01 1.324049830436706543e-01
1.423257440328598022e-01 2.324154973030090332e-01 1.199710443615913391e-01
1.175498440861701965e-01 2.432923614978790283e-01 3.321306705474853516e-01
1.406928896903991699e-02 2.839738130569458008e-01 -9.808681905269622803e-03
7.001218199729919434e-02 2.358452379703521729e-01 7.279656827449798584e-02
1.450019925832748413e-01 3.484896421432495117e-01 2.385768294334411621e-02
1.070931032299995422e-01 3.302004337310791016e-01 1.740493178367614746e-01
2.360891103744506836e-01 3.031173348426818848e-01 -4.233212023973464966e-02
1.573548316955566406e-01 3.126318156719207764e-01 2.089639306068420410e-01
2.194726318120956421e-01 3.015565574169158936e-01 1.219775453209877014e-01
6.674373149871826172e-02 3.315231204032897949e-01 -8.413312584161758423e-02
5.963428318500518799e-02 2.465032190084457397e-01 2.984222769737243652e-02
1.840436458587646484e-02 3.204537332057952881e-01 1.663785576820373535e-01
1.783686876296997070e-01 3.387250304222106934e-01 -1.356640160083770752e-01
1.418150365352630615e-01 2.854729294776916504e-01 -1.213911250233650208e-01
1.916180551052093506e-01 3.064111769199371338e-01 1.768071055412292480e-01
1.741326749324798584e-01 3.169678151607513428e-01 1.732596904039382935e-01
