-5.941437482833862305e-01 -3.176125288009643555e-01 -1.543957740068435669e-01
-6.138139367103576660e-01 -3.876248598098754883e-01 -1.657421886920928955e-01
-5.984173417091369629e-01 -5.169457793235778809e-01 -7.711477279663085938e-01
-5.976518392562866211e-01 -3.442561030387878418e-01 1.669193208217620850e-01
-5.944074988365173340e-01 -3.056530654430389404e-01 -9.263603389263153076e-02
-5.942702889442443848e-01 -3.356569707393646240e-01 -1.156840324401855469e-01
-6.057838797569274902e-01 -5.843806862831115723e-01 -1.339211016893386841e-01
-5.963074564933776855e-01 -2.325152754783630371e-01 -3.753194808959960938e-01
-5.973535776138305664e-01 -2.020567208528518677e-01 -3.545194268226623535e-01
-6.028895378112792969e-01 -1.729378998279571533e-01 -4.274859428405761719e-01
-5.963823795318603516e-01 -5.054948925971984863e-01 -1.972247660160064697e-01
-5.991302728652954102e-01 -2.633047103881835938e-01 2.584843933582305908e-01
-5.988650918006896973e-01 -1.405645310878753662e-01 -1.568195670843124390e-01
-6.010706424713134766e-01 -3.447823524475097656e-01 2.690736949443817139e-01
-6.135965585708618164e-01 -3.407564759254455566e-01 -3.298040032386779785e-01
-5.966290235519409180e-01 -5.447199344635009766e-01 -5.651427507400512695e-01
-6.071407794952392578e-01 -5.391907691955566406e-01 -2.340108156204223633e-02
-5.946891307830810547e-01 -3.903035521507263184e-01 -5.067343115806579590e-01
-6.064772605895996094e-01 -2.602434456348419189e-01 -6.176199913024902344e-01
-5.958870649337768555e-01 -3.982667028903961182e-01 4.875391721725463867e-03
-6.101032495498657227e-01 -2.172305434942245483e-01 1.602132916450500488e-01
-5.963038206100463867e-01 -4.203100204467773438e-01 -6.664922237396240234e-01
-5.956686735153198242e-01 -2.753925919532775879e-01 -4.376434087753295898e-01
-5.992134213447570801e-01 -5.891348719596862793e-01 -3.007088303565979004e-01
-6.079000234603881836e-01 -4.591384530067443848e-01 1.246081888675689697e-01
-5.980691909790039062e-01 -5.279500484466552734e-01 -1.352651119232177734e-01
-6.139091253280639648e-01 -3.684208393096923828e-01 -2.989546060562133789e-01
-6.129978299140930176e-01 -3.659740984439849854e-01 -1.826709508895874023e-02
-6.101740598678588867e-01 -6.001315116882324219e-01 -4.167010486125946045e-01
-6.124911904335021973e-01 -3.334656357765197754e-01 4.489296674728393555e-02
-6.089379191398620605e-01 -1.493964195251464844e-01 -1.012793183326721191e-02
-6.073945760726928711e-01 -5.849112868309020996e-01 -7.984524965286254883e-01
-6.126775145530700684e-01 -3.060531318187713623e-01 -3.940676450729370117e-01
-5.952150225639343262e-01 -2.339493036270141602e-01 -2.216630429029464722e-01
-6.068424582481384277e-01 -1.219843327999114990e-01 -5.520410835742950439e-02
-5.949393510818481445e-01 -3.280932307243347168e-01 -1.210609078407287598e-02
-6.096768975257873535e-01 -2.657980620861053467e-01 -5.261996984481811523e-01
-6.124781966209411621e-01 -2.510482072830200195e-01 -1.914403736591339111e-01
-5.948108434677124023e-01 -3.256817162036895752e-01 -4.512529969215393066e-01
-6.021977066993713379e-01 -6.355807781219482422e-01 -4.069907665252685547e-01
-5.979498028755187988e-01 -3.927434682846069336e-01 1.301428377628326416e-01
-6.063700914382934570e-01 -6.433781385421752930e-01 -4.482722878456115723e-01
-5.953903198242187500e-01 -4.833180010318756104e-01 -5.523226261138916016e-01
-5.944122672080993652e-01 -2.765343189239501953e-01 -1.777115464210510254e-01
-6.108143329620361328e-01 -5.007569789886474609e-01 -5.966611206531524658e-02
-6.102872490882873535e-01 -2.913373112678527832e-01 -5.507415533065795898e-01
-6.052818298339843750e-01 -6.136240959167480469e-01 -7.876592874526977539e-01
-6.005090475082397461e-01 -5.470821857452392578e-01 -8.275163173675537109e-01
-6.050989031791687012e-01 -3.435802161693572998e-01 2.948903143405914307e-01
-6.005108356475830078e-01 -1.412281095981597900e-01 1.824740469455718994e-01
-6.133431792259216309e-01 -2.974644005298614502e-01 -1.994873881340026855e-01
-5.955120921134948730e-01 -5.079050660133361816e-01 -3.574672937393188477e-01
-6.069464683532714844e-01 -6.442081332206726074e-01 -5.330853462219238281e-01
-6.126505136489868164e-01 -2.719991803169250488e-01 -2.802698016166687012e-01
-5.974733233451843262e-01 -3.589237630367279053e-01 1.458643972873687744e-01
-5.945168137550354004e-01 -2.808940708637237549e-01 -1.008069366216659546e-01
-6.089913845062255859e-01 -2.741039097309112549e-01 -5.742924213409423828e-01
-6.030348539352416992e-01 -2.235557138919830322e-01 3.265171945095062256e-01
-5.993092656135559082e-01 -6.114857196807861328e-01 -5.669046640396118164e-01
-5.971357226371765137e-01 -5.658487677574157715e-01 -5.243158936500549316e-01
-6.114277243614196777e-01 -3.036927878856658936e-01 1.312743723392486572e-01
-6.084721684455871582e-01 -6.274560689926147461e-01 -5.929299592971801758e-01
-5.953598618507385254e-01 -3.803799748420715332e-01 -5.722829103469848633e-01
-6.131904721260070801e-01 -3.800573050975799561e-01 -4.735999703407287598e-01
-6.110584139823913574e-01 -2.820888757705688477e-01 1.519944369792938232e-01
-6.106463074684143066e-01 -4.056691527366638184e-01 1.106550395488739014e-01
-5.982692241668701172e-01 -3.039054274559020996e-01 -6.391974091529846191e-01
-5.951425433158874512e-01 -4.788050651550292969e-01 -2.723779082298278809e-01
-5.963020920753479004e-01 -2.194888144731521606e-01 -3.287813961505889893e-01
-5.970475673675537109e-01 -5.644462108612060547e-01 -4.574480652809143066e-01
-5.984716415405273438e-01 -5.936630368232727051e-01 -5.910689830780029297e-01
-5.955927371978759766e-01 -4.383981227874755859e-01 -9.107898175716400146e-02
-5.944391489028930664e-01 -2.745190858840942383e-01 -2.029050588607788086e-01
-5.965106487274169922e-01 -5.286046266555786133e-01 -2.764988839626312256e-01
-5.957921743392944336e-01 -2.109395265579223633e-01 -2.082388103008270264e-01
-6.042820215225219727e-01 -1.532498747110366821e-01 2.602801620960235596e-01
-6.086806058883666992e-01 -1.559661477804183960e-01 -1.857693195343017578e-01
-5.954526662826538086e-01 -4.365073144435882568e-01 -6.004902124404907227e-01
-5.993996858596801758e-01 -2.139087766408920288e-01 2.539117634296417236e-01
-5.952289104461669922e-01 -2.276597470045089722e-01 -1.454202234745025635e-01
-5.959884524345397949e-01 -3.493742644786834717e-01 6.793212890625000000e-02
-6.136583089828491211e-01 -3.263137042522430420e-01 -1.703180968761444092e-01
-6.099372506141662598e-01 -5.359425544738769531e-01 -1.039239019155502319e-01
-5.979140400886535645e-01 -1.491527110338211060e-01 -5.580931901931762695e-02
-5.970924496650695801e-01 -5.644249916076660156e-01 -4.293007254600524902e-01
-6.134604811668395996e-01 -3.457846343517303467e-01 -8.005054295063018799e-02
-5.985524058341979980e-01 -1.831347048282623291e-01 1.840719580650329590e-01
-5.964288115501403809e-01 -2.745244503021240234e-01 1.270091235637664795e-01
-6.099247932434082031e-01 -5.671860575675964355e-01 -2.046911418437957764e-01
-5.955734252929687500e-01 -3.444817066192626953e-01 -5.532166957855224609e-01
-5.959304571151733398e-01 -1.999019831418991089e-01 -1.222053766250610352e-01
-5.958451628684997559e-01 -4.578657150268554688e-01 -1.114037930965423584e-01
-5.959328413009643555e-01 -5.049057006835937500e-01 -2.501325309276580811e-01
-5.988565087318420410e-01 -6.034387946128845215e-01 -4.625832438468933105e-01
-5.939761996269226074e-01 -3.419007658958435059e-01 -2.081082165241241455e-01
-6.009279489517211914e-01 -1.247516274452209473e-01 -1.830169856548309326e-01
-6.100555658340454102e-01 -1.868644654750823975e-01 -2.314289212226867676e-01
-5.946280956268310547e-01 -3.381067216396331787e-01 -5.635310709476470947e-02
-6.006695628166198730e-01 -3.012312650680541992e-01 2.889789640903472900e-01
-5.978522300720214844e-01 -5.708445310592651367e-01 -3.316076993942260742e-01
-5.963016748428344727e-01 -3.859482407569885254e-01 5.100414156913757324e-02
-6.132855415344238281e-01 -4.651215076446533203e-01 -2.054141163825988770e-01
-6.122698783874511719e-01 -5.454590916633605957e-01 -4.136948287487030029e-01
-6.055730581283569336e-01 -2.842407524585723877e-01 -6.777055263519287109e-01
-5.952876806259155273e-01 -3.319839835166931152e-01 -5.115593075752258301e-01
-5.947052240371704102e-01 -3.641189932823181152e-01 -4.896567761898040771e-01
-5.942727327346801758e-01 -3.014261126518249512e-01 -1.336095482110977173e-01
-6.138481497764587402e-01 -4.191094040870666504e-01 -2.197909653186798096e-01
-6.008168458938598633e-01 -5.450461506843566895e-01 -6.645855307579040527e-02
-6.048403382301330566e-01 -1.919142752885818481e-01 3.066920936107635498e-01
-5.947490930557250977e-01 -4.397990107536315918e-01 -2.024390697479248047e-01
-5.952386856079101562e-01 -4.982178211212158203e-01 -3.857957124710083008e-01
-6.070787906646728516e-01 -6.403508186340332031e-01 -6.157006025314331055e-01
-6.093622446060180664e-01 -3.873058259487152100e-01 -7.332534790039062500e-01
-6.082307696342468262e-01 -1.924985498189926147e-01 -3.872911334037780762e-01
-6.139720678329467773e-01 -4.097601473331451416e-01 -3.192514777183532715e-01
-5.966984033584594727e-01 -4.156365096569061279e-01 3.431409597396850586e-02
-5.985710620880126953e-01 -4.507552683353424072e-01 6.826147437095642090e-02
-5.946395993232727051e-01 -2.608878016471862793e-01 -1.433316171169281006e-01
-6.103780865669250488e-01 -5.158213973045349121e-01 -7.379913926124572754e-01
-5.951240062713623047e-01 -2.841286957263946533e-01 9.779006242752075195e-03
-5.949268937110900879e-01 -2.573954164981842041e-01 -5.505409836769104004e-02
-6.136252880096435547e-01 -3.944513499736785889e-01 -4.227031469345092773e-01
-6.124521493911743164e-01 -2.643656432628631592e-01 -7.555872201919555664e-03
-6.136855483055114746e-01 -4.453639686107635498e-01 -2.380327135324478149e-01
-5.973955988883972168e-01 -5.686887502670288086e-01 -5.734314918518066406e-01
-5.968928933143615723e-01 -3.039599359035491943e-01 -5.787554383277893066e-01
-5.974262356758117676e-01 -2.424401491880416870e-01 -4.797748029232025146e-01
-6.015384793281555176e-01 -1.094672381877899170e-01 4.027163982391357422e-02
-6.139156818389892578e-01 -4.167530238628387451e-01 -3.536187410354614258e-01
-6.134284734725952148e-01 -3.154649734497070312e-01 -1.057840883731842041e-01
-6.136004924774169922e-01 -4.329102933406829834e-01 -4.461330175399780273e-01
-5.990658402442932129e-01 -3.168682157993316650e-01 -6.845828294754028320e-01
-6.023083329200744629e-01 -1.463250219821929932e-01 -3.263935148715972900e-01
-5.975906848907470703e-01 -1.651994287967681885e-01 5.492854118347167969e-02
-6.085593104362487793e-01 -5.568675398826599121e-01 -7.930189371109008789e-01
-6.112824082374572754e-01 -4.436091184616088867e-01 -6.859356164932250977e-01
-5.952150225639343262e-01 -4.757579863071441650e-01 -2.447018176317214966e-01
-6.128101348876953125e-01 -2.762618660926818848e-01 -4.838922619819641113e-02
-5.965759754180908203e-01 -1.857196241617202759e-01 -1.854040026664733887e-01
-6.022046804428100586e-01 -5.267533659934997559e-01 1.043033599853515625e-02
-6.129276752471923828e-01 -4.958319664001464844e-01 -5.153700113296508789e-01
-6.013555526733398438e-01 -6.170962452888488770e-01 -3.213019967079162598e-01
-5.989621281623840332e-01 -4.818784594535827637e-01 -8.052442073822021484e-01
-5.986060500144958496e-01 -1.408903747797012329e-01 -1.240132153034210205e-01
-6.117563247680664062e-01 -5.305011272430419922e-01 -6.194522380828857422e-01
-5.941504240036010742e-01 -3.524562418460845947e-01 -3.838424086570739746e-01
-6.110562682151794434e-01 -3.338295817375183105e-01 -5.856651067733764648e-01
-6.103903651237487793e-01 -1.798564642667770386e-01 -2.640703320503234863e-02
-6.014618873596191406e-01 -1.635921299457550049e-01 -3.821014463901519775e-01
-6.073965430259704590e-01 -1.811001449823379517e-01 2.433260977268218994e-01
-6.133107542991638184e-01 -3.704174757003784180e-01 -4.438115060329437256e-01
-6.087890267372131348e-01 -3.183197677135467529e-01 2.490537464618682861e-01
-6.085031032562255859e-01 -6.119150519371032715e-01 -6.877269744873046875e-01
-6.114617586135864258e-01 -5.661431550979614258e-01 -3.591850996017456055e-01
-6.112358570098876953e-01 -2.063670158386230469e-01 -1.678391098976135254e-01
-6.126301884651184082e-01 -3.589534759521484375e-01 -5.065399408340454102e-01
-6.110063195228576660e-01 -5.844900608062744141e-01 -4.488254189491271973e-01
-6.026402115821838379e-01 -3.967561423778533936e-01 2.384893000125885010e-01
-6.132325530052185059e-01 -4.914864301681518555e-01 -4.517171680927276611e-01
-5.942564606666564941e-01 -2.912085056304931641e-01 -2.277340292930603027e-01
-6.000099182128906250e-01 -5.644996762275695801e-01 -1.538714170455932617e-01
-6.111106872558593750e-01 -2.941694557666778564e-01 -5.076884031295776367e-01
-6.130396127700805664e-01 -4.352083504199981689e-01 -5.347263813018798828e-01
-5.940533876419067383e-01 -3.992582559585571289e-01 -3.656052052974700928e-01
-6.073679924011230469e-01 -5.245104432106018066e-01 -8.465687036514282227e-01
-5.970526337623596191e-01 -5.332132577896118164e-01 -2.330980002880096436e-01
-5.959439277648925781e-01 -2.329137921333312988e-01 5.544835329055786133e-02
-6.122580766677856445e-01 -4.005815684795379639e-01 -5.894000530242919922e-01
-5.944186449050903320e-01 -4.473105370998382568e-01 -3.519381880760192871e-01
-5.941245555877685547e-01 -4.018321037292480469e-01 -3.943654298782348633e-01
1.003178358078002930e-01 1.994429528713226318e-02 4.219871759414672852e-01
3.627483248710632324e-01 1.522338297218084335e-02 -2.177686393260955811e-01
1.861041784286499023e-01 1.635610684752464294e-02 2.733840346336364746e-01
5.585893988609313965e-01 1.722906902432441711e-02 -1.711681485176086426e-03
4.850831627845764160e-01 2.843001857399940491e-02 6.629682779312133789e-01
9.964992851018905640e-02 3.197805210947990417e-02 5.819385647773742676e-01
-1.981647908687591553e-01 1.997088640928268433e-02 -4.913057684898376465e-01
2.154985964298248291e-01 1.519527379423379898e-02 -3.474811017513275146e-01
2.251644432544708252e-02 4.061726853251457214e-02 3.194513916969299316e-01
-1.745854616165161133e-01 4.066924378275871277e-02 -6.524313092231750488e-01
1.241339668631553650e-01 4.435636103153228760e-02 -5.415492653846740723e-01
-4.286532104015350342e-02 2.279471233487129211e-02 -8.086609244346618652e-01
6.951041221618652344e-01 2.222950011491775513e-02 -1.094819381833076477e-01
3.237172961235046387e-01 1.456956006586551666e-02 2.666376531124114990e-02
-3.076671659946441650e-01 2.899001725018024445e-02 -7.114109992980957031e-01
6.620663404464721680e-01 3.795079514384269714e-02 -1.981282532215118408e-01
-1.407330930233001709e-01 4.042316973209381104e-02 1.184757649898529053e-01
3.597165942192077637e-01 2.013392746448516846e-02 -6.092008948326110840e-01
3.374442458152770996e-01 1.478187646716833115e-02 -1.623731255531311035e-01
3.094729483127593994e-01 3.261052072048187256e-02 6.589515805244445801e-01
-2.042595744132995605e-01 2.139903977513313293e-02 4.935963451862335205e-02
7.802135944366455078e-01 3.115562722086906433e-02 1.384570896625518799e-01
7.797776162624359131e-02 1.501557417213916779e-02 -2.268102765083312988e-02
4.887296557426452637e-01 4.207073524594306946e-02 2.752792537212371826e-01
5.361387729644775391e-01 4.258823767304420471e-02 8.768720924854278564e-02
1.114367619156837463e-01 1.591999642550945282e-02 -4.414619207382202148e-01
4.722146093845367432e-01 4.361809045076370239e-02 9.417772293090820312e-02
3.102864623069763184e-01 4.280936717987060547e-02 3.262839615345001221e-01
6.561300158500671387e-01 3.131756186485290527e-02 -4.186074435710906982e-01
4.667727351188659668e-01 1.579983346164226532e-02 -6.345204263925552368e-02
-3.819611966609954834e-01 3.198089078068733215e-02 -3.074114322662353516e-01
-3.248736560344696045e-01 2.426869049668312073e-02 -4.507251679897308350e-01
-1.467992663383483887e-01 2.142924442887306213e-02 -6.861339211463928223e-01
4.856446683406829834e-01 1.620668917894363403e-02 1.452585756778717041e-01
2.584773004055023193e-01 1.665064692497253418e-02 3.274384438991546631e-01
6.271462142467498779e-02 1.538409572094678879e-02 -3.364387154579162598e-01
1.281341910362243652e-01 4.341162368655204773e-02 -6.166715621948242188e-01
4.088203907012939453e-01 3.978411108255386353e-02 -6.047764420509338379e-01
6.180608272552490234e-02 4.513031244277954102e-02 -4.470660686492919922e-01
-2.514272332191467285e-01 4.045810177922248840e-02 -1.910791397094726562e-01
5.098102986812591553e-02 2.087367139756679535e-02 -7.576893568038940430e-01
-1.958619356155395508e-01 4.241648316383361816e-02 -2.777119278907775879e-01
2.957269549369812012e-03 4.525052383542060852e-02 -1.266346126794815063e-01
-2.519967854022979736e-01 2.114742249250411987e-02 -1.499848663806915283e-01
2.948263287544250488e-01 4.536578431725502014e-02 4.934892058372497559e-02
-8.727523684501647949e-02 2.178223803639411926e-02 -7.505643963813781738e-01
-1.140415966510772705e-01 1.719018816947937012e-02 -2.431530654430389404e-01
1.998661160469055176e-01 1.696632429957389832e-02 -5.286426544189453125e-01
1.384161114692687988e-01 1.515230629593133926e-02 -3.455697596073150635e-01
5.469484329223632812e-01 1.774556934833526611e-02 2.557404041290283203e-01
-5.106744170188903809e-02 4.115198925137519836e-02 -7.292259335517883301e-01
3.712612092494964600e-01 1.605525985360145569e-02 -3.235385417938232422e-01
3.320023417472839355e-02 2.381999231874942780e-02 -8.525502085685729980e-01
3.915177583694458008e-01 2.177317067980766296e-02 -6.437584757804870605e-01
-4.302833974361419678e-02 4.149976745247840881e-02 2.029851973056793213e-01
-2.149493992328643799e-01 1.956303790211677551e-02 -3.233790397644042969e-01
4.883360564708709717e-01 1.763155870139598846e-02 -2.987362742424011230e-01
3.858445882797241211e-01 4.374144598841667175e-02 2.145317792892456055e-01
3.119926154613494873e-02 3.482628986239433289e-02 -9.187694191932678223e-01
4.996764361858367920e-01 2.129016816616058350e-02 -5.035873651504516602e-01
1.719468683004379272e-01 1.724930666387081146e-02 3.317368924617767334e-01
4.875063896179199219e-03 1.658331230282783508e-02 -4.569497406482696533e-01
-2.396696805953979492e-01 3.915420547127723694e-02 -6.405221819877624512e-01
-1.325520575046539307e-01 4.337042197585105896e-02 -1.468343287706375122e-01
2.893329858779907227e-01 4.421394318342208862e-02 -4.593899846076965332e-01
2.607072591781616211e-01 2.900508232414722443e-02 -8.686202764511108398e-01
-9.224921464920043945e-03 4.491613805294036865e-02 -7.742553949356079102e-02
3.044052422046661377e-01 1.769561506807804108e-02 -5.239670276641845703e-01
4.575567841529846191e-01 2.343023009598255157e-02 6.107061505317687988e-01
-3.612517416477203369e-01 3.541054576635360718e-02 -4.079925417900085449e-01
4.879386723041534424e-01 4.219665005803108215e-02 -3.388523161411285400e-01
-2.777726948261260986e-02 1.638086698949337006e-02 -3.838855028152465820e-01
-6.001836061477661133e-02 4.413248226046562195e-02 -4.790381491184234619e-01
2.846957445144653320e-01 4.458048567175865173e-02 1.722795069217681885e-01
4.865717291831970215e-01 4.277183860540390015e-02 2.017146050930023193e-01
2.710853815078735352e-01 4.519120603799819946e-02 9.386987984180450439e-02
2.417010366916656494e-01 4.493154957890510559e-02 1.351161003112792969e-01
-8.395582437515258789e-02 4.428301751613616943e-02 -3.967676460742950439e-01
-5.359587073326110840e-02 1.627271622419357300e-02 -1.320448666810989380e-01
-3.446644544601440430e-02 2.342862263321876526e-02 4.072258472442626953e-01
4.314522743225097656e-01 4.169841855764389038e-02 -4.778507053852081299e-01
1.868716180324554443e-01 1.452400535345077515e-02 2.297654747962951660e-02
4.144761562347412109e-01 1.514478772878646851e-02 1.845280826091766357e-02
5.932966470718383789e-01 2.610116638243198395e-02 5.859532952308654785e-01
4.282282292842864990e-01 1.668516919016838074e-02 -3.100739121437072754e-01
-9.609639644622802734e-02 1.900468394160270691e-02 -5.849241018295288086e-01
3.161571621894836426e-01 1.987550035119056702e-02 -6.320788860321044922e-01
5.453283786773681641e-01 4.063819348812103271e-02 3.195403814315795898e-01
5.979421138763427734e-01 1.879983022809028625e-02 2.602343857288360596e-01
-1.238076388835906982e-01 4.199548065662384033e-02 -6.220953464508056641e-01
2.595081329345703125e-01 1.681729964911937714e-02 -4.908299744129180908e-01
5.252009630203247070e-01 1.750479824841022491e-02 -2.033697813749313354e-01
3.625199198722839355e-03 2.052693255245685577e-02 3.556272089481353760e-01
2.281405478715896606e-01 1.439748704433441162e-02 -1.757611930370330811e-01
3.974760472774505615e-01 4.023417830467224121e-02 4.578019976615905762e-01
5.990722775459289551e-01 1.838155835866928101e-02 -6.661009788513183594e-02
1.519362926483154297e-01 3.804071247577667236e-02 5.041872262954711914e-01
-5.183941125869750977e-02 4.218654334545135498e-02 -6.693300604820251465e-01
3.046047091484069824e-01 4.565229266881942749e-02 -5.052056163549423218e-02
5.000684261322021484e-01 4.065383970737457275e-02 3.736443519592285156e-01
7.441219091415405273e-01 3.192852064967155457e-02 -1.628361046314239502e-01
6.930696964263916016e-01 2.104982733726501465e-02 1.129772961139678955e-01
7.017866373062133789e-01 2.607210353016853333e-02 -2.700015306472778320e-01
-5.900403857231140137e-02 3.140651062130928040e-02 4.522030353546142578e-01
-9.264349937438964844e-04 3.701984882354736328e-02 -8.809620738029479980e-01
7.121145725250244141e-02 4.588104039430618286e-02 -2.538167834281921387e-01
-6.820231676101684570e-02 4.459545016288757324e-02 -1.879670172929763794e-01
6.155036687850952148e-01 3.609254211187362671e-02 4.731484651565551758e-01
3.598538041114807129e-01 3.111028485000133514e-02 6.754911541938781738e-01
6.336680054664611816e-02 4.575183615088462830e-02 -1.328005343675613403e-01
2.519405186176300049e-01 4.595535248517990112e-02 -9.720723330974578857e-02
-2.458779513835906982e-02 3.236365690827369690e-02 4.804323315620422363e-01
3.378822207450866699e-01 1.789311319589614868e-02 4.197362661361694336e-01
1.468041092157363892e-01 4.098551347851753235e-02 3.913406133651733398e-01
2.178193926811218262e-01 2.748528309166431427e-02 -8.776046037673950195e-01
6.192021369934082031e-01 2.104778215289115906e-02 4.022341370582580566e-01
2.296411842107772827e-01 4.527470842003822327e-02 -3.903192579746246338e-01
2.542386949062347412e-01 2.022833004593849182e-02 -6.853267550468444824e-01
-1.844770610332489014e-01 3.240942209959030151e-02 2.831005752086639404e-01
6.194177865982055664e-01 4.058225825428962708e-02 1.067497730255126953e-01
7.231291532516479492e-01 3.659064322710037231e-02 6.316466629505157471e-02
-3.810039162635803223e-02 1.617337763309478760e-02 -3.115321993827819824e-01
5.213472247123718262e-01 2.011134102940559387e-02 -4.159179329872131348e-01
2.521782517433166504e-01 2.169573679566383362e-02 5.619808435440063477e-01
-2.322353422641754150e-01 3.122634440660476685e-02 -8.321470022201538086e-01
8.185466378927230835e-02 4.516677558422088623e-02 2.428372204303741455e-02
2.679907083511352539e-01 2.023170888423919678e-02 5.191552639007568359e-01
3.877040147781372070e-01 3.403472900390625000e-02 -7.649947404861450195e-01
-8.639010787010192871e-02 1.991365291178226471e-02 2.057850360870361328e-01
1.033766791224479675e-01 2.383613027632236481e-02 -8.495585918426513672e-01
-8.671379089355468750e-02 1.863982528448104858e-02 1.202707290649414062e-01
-9.005311131477355957e-02 2.539084665477275848e-02 3.830127716064453125e-01
3.303609788417816162e-02 4.478491470217704773e-02 -4.813719987869262695e-01
4.625958204269409180e-01 3.292035683989524841e-02 -7.010152339935302734e-01
5.455679297447204590e-01 3.864816203713417053e-02 -4.541249871253967285e-01
2.701821923255920410e-01 4.078174382448196411e-02 4.413059353828430176e-01
5.108097791671752930e-01 4.301375523209571838e-02 -1.554130613803863525e-01
4.787532985210418701e-01 3.641517832875251770e-02 5.708513855934143066e-01
2.942070066928863525e-01 4.054205864667892456e-02 -6.826305389404296875e-01
5.993607044219970703e-01 4.127484560012817383e-02 -1.626905798912048340e-02
-2.623751759529113770e-03 1.831501349806785583e-02 2.336640357971191406e-01
3.398363590240478516e-01 4.461636766791343689e-02 1.414989531040191650e-01
-1.993413567543029785e-01 2.202944830060005188e-02 9.839448332786560059e-02
5.371478796005249023e-01 3.465272486209869385e-02 -5.845340490341186523e-01
2.214863151311874390e-01 4.283110424876213074e-02 -6.167685985565185547e-01
7.865969836711883545e-02 4.592252150177955627e-02 -1.878188103437423706e-01
-1.799170076847076416e-01 2.470493689179420471e-02 -7.858682870864868164e-01
1.616491824388504028e-01 1.439254544675350189e-02 -8.335390686988830566e-02
3.960552811622619629e-01 1.960001513361930847e-02 5.011092424392700195e-01
7.301319837570190430e-01 3.189587965607643127e-02 3.887243866920471191e-01
-2.999189794063568115e-01 3.839420899748802185e-02 -1.880880296230316162e-01
5.823707580566406250e-01 1.886317506432533264e-02 -1.978766322135925293e-01
4.286601543426513672e-01 4.260360822081565857e-02 2.908189892768859863e-01
6.207580566406250000e-01 2.357222512364387512e-02 -3.874829411506652832e-01
3.111004531383514404e-01 1.894921623170375824e-02 4.741606712341308594e-01
4.608087241649627686e-02 4.570426791906356812e-02 -2.926663458347320557e-01
3.481205701828002930e-01 3.924160450696945190e-02 -6.866921782493591309e-01
-3.143037259578704834e-01 3.766890615224838257e-02 -5.257992744445800781e-01
-2.018809616565704346e-01 1.952609047293663025e-02 -4.125879406929016113e-01
5.492969751358032227e-01 4.245477914810180664e-02 -6.190209090709686279e-02
2.626462876796722412e-01 1.555414963513612747e-02 -3.697359561920166016e-01
7.454489469528198242e-01 2.668818458914756775e-02 3.440157175064086914e-01
-2.857045233249664307e-01 2.218869328498840332e-02 -4.107182621955871582e-01
-8.385398983955383301e-02 1.766647771000862122e-02 3.288364410400390625e-02
-1.573474109172821045e-01 3.890204802155494690e-02 1.666863560676574707e-01
5.761907100677490234e-01 3.174959495663642883e-02 -5.600138902664184570e-01
2.057334184646606445e-01 2.262613922357559204e-02 5.689800977706909180e-01
5.251601934432983398e-01 1.712556928396224976e-02 2.176322937011718750e-01
1.882520318031311035e-01 2.554894238710403442e-02 6.142225265502929688e-01
-2.203550338745117188e-01 2.460007742047309875e-02 -7.387655973434448242e-01
4.242079854011535645e-01 4.328307136893272400e-02 -3.614005446434020996e-01
1.354077458381652832e-02 1.553156320005655289e-02 -2.820226848125457764e-01
-2.623118758201599121e-01 4.036531597375869751e-02 -2.460365444421768188e-01
3.463970720767974854e-01 1.631116867065429688e-02 3.026569187641143799e-01
-1.813301444053649902e-01 2.396421879529953003e-02 2.127656638622283936e-01
4.332687854766845703e-01 4.108530282974243164e-02 3.969486951828002930e-01
6.449552774429321289e-01 3.992493823170661926e-02 3.785823285579681396e-02
9.987531602382659912e-02 4.224630072712898254e-02 2.971232831478118896e-01
4.010811448097229004e-01 4.303895309567451477e-02 -4.238175451755523682e-01
2.408992052078247070e-01 1.603109762072563171e-02 2.701445221900939941e-01
-2.226256132125854492e-01 4.071432352066040039e-02 -5.573227405548095703e-01
-1.204802691936492920e-01 1.733567751944065094e-02 -1.929908990859985352e-01
7.551493644714355469e-01 3.185705468058586121e-02 -1.138906702399253845e-01
-2.848322689533233643e-02 3.962788730859756470e-02 3.114550709724426270e-01
3.618628978729248047e-01 2.027115598320960999e-02 5.319917201995849609e-01
5.090644955635070801e-02 1.925807818770408630e-02 3.482246398925781250e-01
-2.726804614067077637e-01 2.737502008676528931e-02 1.048473715782165527e-01
3.895203471183776855e-01 1.576790399849414825e-02 -2.614169120788574219e-01
1.012659296393394470e-01 4.454250261187553406e-02 1.200839579105377197e-01
1.262600719928741455e-02 4.540575295686721802e-02 -3.347793817520141602e-01
-3.593187034130096436e-01 3.410235047340393066e-02 -2.015807181596755981e-01
7.159299850463867188e-01 2.565843984484672546e-02 -2.151460349559783936e-01
3.440566360950469971e-02 4.568248242139816284e-02 -2.146921604871749878e-01
6.895695924758911133e-01 3.797768056392669678e-02 1.579788923263549805e-01
2.317751944065093994e-01 2.420073933899402618e-02 6.118399500846862793e-01
1.041594222187995911e-01 2.294977754354476929e-02 5.195157527923583984e-01
7.000241279602050781e-01 3.639712929725646973e-02 -1.574131250381469727e-01
6.517699956893920898e-01 2.300029620528221130e-02 4.425770044326782227e-01
2.092183232307434082e-01 4.429027065634727478e-02 2.006722986698150635e-01
3.541661500930786133e-01 4.368337243795394897e-02 -4.335991144180297852e-01
2.340538054704666138e-01 4.571694880723953247e-02 -3.061125874519348145e-01
4.813025891780853271e-02 1.788869127631187439e-02 2.677607238292694092e-01
6.470623612403869629e-01 1.955732330679893494e-02 1.681051850318908691e-01
-2.353112101554870605e-01 2.899676561355590820e-02 2.021705210208892822e-01
-2.114602923393249512e-01 1.959839835762977600e-02 -1.807348281145095825e-01
3.061842322349548340e-01 1.590603217482566833e-02 -3.762879371643066406e-01
1.523968577384948730e-01 1.473154593259096146e-02 -2.686213850975036621e-01
7.428945302963256836e-01 2.434482425451278687e-02 -2.756524831056594849e-02
5.953485369682312012e-01 1.800978556275367737e-02 2.577355504035949707e-02
-3.501709997653961182e-01 3.000634722411632538e-02 -9.700289368629455566e-02
-4.013092815876007080e-02 1.976638287305831909e-02 2.673382461071014404e-01
-1.370892822742462158e-01 1.870495639741420746e-02 -4.945764243602752686e-01
-2.617254555225372314e-01 2.445381879806518555e-02 5.297277867794036865e-02
1.372763067483901978e-01 4.305804520845413208e-02 2.691133022308349609e-01
-3.441667258739471436e-01 3.494630753993988037e-02 -5.731478333473205566e-01
2.084765583276748657e-01 1.765535585582256317e-02 3.769680261611938477e-01
-9.357520937919616699e-02 4.349595680832862854e-02 -4.787119477987289429e-02
4.111826419830322266e-02 1.525727938860654831e-02 -5.618198215961456299e-02
-2.280023694038391113e-01 2.362941391766071320e-02 -6.899482607841491699e-01
5.967102050781250000e-01 4.013854265213012695e-02 -2.400920987129211426e-01
1.931166648864746094e-02 4.379286989569664001e-02 -5.816477537155151367e-01
6.644741296768188477e-01 2.219695597887039185e-02 3.802904486656188965e-01
1.582919955253601074e-01 1.601462066173553467e-02 2.240092754364013672e-01
1.767189651727676392e-01 2.918301708996295929e-02 -9.077389240264892578e-01
-7.596477866172790527e-02 4.136727750301361084e-02 1.664186418056488037e-01
5.562976598739624023e-01 1.989621669054031372e-02 4.226737618446350098e-01
7.656415700912475586e-01 3.292675316333770752e-02 1.919465661048889160e-01
3.291388750076293945e-01 1.532875653356313705e-02 -2.821596860885620117e-01
1.164004206657409668e-01 4.117956757545471191e-02 -7.428689599037170410e-01
1.362884491682052612e-01 1.573240198194980621e-02 1.762168705463409424e-01
3.822198510169982910e-02 4.375350847840309143e-02 1.366426646709442139e-01
6.724159717559814453e-01 3.303506225347518921e-02 4.817193746566772461e-01
2.932990193367004395e-01 4.577898234128952026e-02 -1.513787806034088135e-01
-3.055043518543243408e-01 3.882883116602897644e-02 -3.083399534225463867e-01
6.105662882328033447e-02 4.349213466048240662e-02 -6.154621839523315430e-01
-3.058007061481475830e-01 2.288907021284103394e-02 -3.579794168472290039e-01
-5.291900038719177246e-02 3.782257437705993652e-02 -8.523678779602050781e-01
9.846199303865432739e-02 2.964877523481845856e-02 -9.311512112617492676e-01
3.069122135639190674e-01 3.758867457509040833e-02 -7.680404782295227051e-01
5.208379030227661133e-01 2.048848196864128113e-02 4.857804775238037109e-01
4.674257040023803711e-01 2.244869805872440338e-02 -5.866496562957763672e-01
1.835310906171798706e-01 1.921349763870239258e-02 4.450175762176513672e-01
7.633469998836517334e-02 1.611484959721565247e-02 1.525049805641174316e-01
5.569818019866943359e-01 3.973244875669479370e-02 3.685051500797271729e-01
1.797158122062683105e-01 4.612749442458152771e-02 -1.515731960535049438e-01
-1.485657095909118652e-01 4.344328865408897400e-02 -3.240854740142822266e-01
5.630574226379394531e-01 4.181175678968429565e-02 -1.531440913677215576e-01
1.488641351461410522e-01 4.527707025408744812e-02 -4.330077767372131348e-01
2.386593669652938843e-01 4.575198888778686523e-02 -4.892647266387939453e-03
8.430531620979309082e-02 1.508371718227863312e-02 -2.971937954425811768e-01
7.046990096569061279e-02 1.945400238037109375e-02 -6.948989629745483398e-01
-1.675133407115936279e-02 4.425386339426040649e-02 -5.131295919418334961e-01
2.016371637582778931e-01 4.511638730764389038e-02 1.069216281175613403e-01
7.394429445266723633e-01 3.464576229453086853e-02 2.424189746379852295e-01
8.079830557107925415e-02 4.451659321784973145e-02 -5.274383425712585449e-01
3.323830366134643555e-01 2.352282777428627014e-02 6.227143406867980957e-01
4.031155705451965332e-01 3.808346763253211975e-02 5.435543656349182129e-01
4.718295633792877197e-01 4.388168081641197205e-02 7.459864020347595215e-03
4.260542988777160645e-01 1.614452525973320007e-02 2.403531372547149658e-01
3.965048193931579590e-01 4.481593519449234009e-02 -1.697783470153808594e-01
4.531893134117126465e-01 1.821565628051757812e-02 -4.028491079807281494e-01
2.497155666351318359e-01 4.594119265675544739e-02 -2.061805725097656250e-01
-2.654061913490295410e-01 3.882575407624244690e-02 -8.003490418195724487e-02
2.086153924465179443e-01 1.452341862022876740e-02 -2.230787575244903564e-01
7.098762691020965576e-02 4.566343873739242554e-02 -8.742710947990417480e-02
4.208993017673492432e-01 1.539137866348028183e-02 1.105081439018249512e-01
5.514662265777587891e-01 3.223834931850433350e-02 6.161634325981140137e-01
1.681990027427673340e-01 3.892917931079864502e-02 -8.088479638099670410e-01
-3.056260049343109131e-01 2.387914434075355530e-02 -1.340992748737335205e-01
6.220477819442749023e-01 3.978874161839485168e-02 2.304282486438751221e-01
-1.820932328701019287e-02 1.796448603272438049e-02 -5.725642442703247070e-01
-1.036419570446014404e-01 3.663093969225883484e-02 -8.626039028167724609e-01
2.109433114528656006e-01 4.249590635299682617e-02 3.369758725166320801e-01
2.545364499092102051e-01 2.781488001346588135e-02 6.591150164604187012e-01
5.359189510345458984e-01 4.173336923122406006e-02 -2.644278407096862793e-01
1.485268622636795044e-01 4.259015992283821106e-02 -6.634320020675659180e-01
6.862097978591918945e-01 2.241841144859790802e-02 3.386421203613281250e-01
6.331523060798645020e-01 2.236190065741539001e-02 -3.115835487842559814e-01
2.935506403446197510e-01 4.543753340840339661e-02 -2.849653363227844238e-01
6.351623535156250000e-01 3.953783959150314331e-02 -1.552651524543762207e-01
8.475159108638763428e-02 1.731452345848083496e-02 -5.644646883010864258e-01
-5.118492245674133301e-02 1.730301603674888611e-02 6.754763424396514893e-02
2.198345512151718140e-01 1.454689539968967438e-02 5.335400998592376709e-02
2.877426445484161377e-01 1.441277563571929932e-02 -1.160111874341964722e-01
-3.010762035846710205e-01 2.512833848595619202e-02 -3.939285129308700562e-02
-4.971969127655029297e-02 1.661265082657337189e-02 -2.547615021467208862e-02
5.270280838012695312e-01 3.513043373823165894e-02 5.795020461082458496e-01
-8.341223001480102539e-03 4.340744763612747192e-02 1.115010976791381836e-01
2.867107391357421875e-01 4.247003421187400818e-02 -5.929942131042480469e-01
-1.749434769153594971e-01 1.989463344216346741e-02 1.550099253654479980e-02
-2.847706079483032227e-01 3.320731595158576965e-02 -7.552823424339294434e-01
1.058344095945358276e-01 1.640013232827186584e-02 -4.901406764984130859e-01
-2.627417445182800293e-01 4.054715856909751892e-02 -3.703824281692504883e-01
2.070346325635910034e-01 1.477536372840404510e-02 -2.815837562084197998e-01
2.755229175090789795e-02 1.528391614556312561e-02 -1.041279584169387817e-01
5.631436109542846680e-01 4.035872966051101685e-02 -3.176409006118774414e-01
4.089863002300262451e-01 4.452105239033699036e-02 6.024578213691711426e-02
-1.347797811031341553e-01 1.800143904983997345e-02 -8.336226642131805420e-02
3.727108240127563477e-01 4.515863955020904541e-02 -1.260708570480346680e-01
2.337911427021026611e-01 3.977997601032257080e-02 -7.511873841285705566e-01
1.091399863362312317e-01 2.214039117097854614e-02 -8.013044595718383789e-01
1.176175177097320557e-01 1.497496478259563446e-02 4.381115734577178955e-02
3.444774746894836426e-01 2.171403169631958008e-02 5.795542597770690918e-01
1.861034184694290161e-01 4.539119452238082886e-02 -4.023559093475341797e-01
1.567561328411102295e-01 1.492711715400218964e-02 8.367627859115600586e-02
5.269755125045776367e-01 3.717066347599029541e-02 -5.398699045181274414e-01
4.377197027206420898e-01 4.431350901722908020e-02 -1.494889557361602783e-01
-3.531477749347686768e-01 2.650135383009910583e-02 -4.838604927062988281e-01
-2.068170905113220215e-02 3.438512980937957764e-02 -9.212506413459777832e-01
-1.302835643291473389e-01 3.371282666921615601e-02 3.461075127124786377e-01
3.786510825157165527e-01 1.915235072374343872e-02 -5.456328392028808594e-01
2.829202115535736084e-01 4.216115549206733704e-02 3.694383502006530762e-01
-1.474048495292663574e-01 4.310733824968338013e-02 -4.499767720699310303e-01
1.817505061626434326e-01 4.577298462390899658e-02 -8.691564202308654785e-03
2.885676920413970947e-01 1.603397913277149200e-02 2.804291546344757080e-01
-7.770627737045288086e-02 2.873135544359683990e-02 -9.162690043449401855e-01
-3.760204613208770752e-01 3.254692256450653076e-02 -2.595063447952270508e-01
-2.150469124317169189e-01 4.051654413342475891e-02 -5.606659501791000366e-02
2.565412223339080811e-02 4.198220372200012207e-02 -7.078921198844909668e-01
4.516396224498748779e-01 4.389387369155883789e-02 -2.061840891838073730e-01
1.619425117969512939e-01 2.269079536199569702e-02 5.491446256637573242e-01
3.509731888771057129e-01 4.422283172607421875e-02 1.849308311939239502e-01
6.257684230804443359e-01 2.556593902409076691e-02 5.469467639923095703e-01
3.073197603225708008e-02 3.615769371390342712e-02 4.724039435386657715e-01
4.236389398574829102e-01 4.460234940052032471e-02 -8.696620166301727295e-02
4.243825376033782959e-02 1.591048389673233032e-02 -4.036847352981567383e-01
2.785882949829101562e-01 1.435700617730617523e-02 -3.037593513727188110e-02
-1.900120079517364502e-01 4.200007766485214233e-02 -1.387007534503936768e-01
1.511806547641754150e-01 4.460759460926055908e-02 1.467032432556152344e-01
1.306455284357070923e-01 1.452098973095417023e-02 -1.627704948186874390e-01
1.944708526134490967e-01 4.595836251974105835e-02 -5.636373162269592285e-02
6.006327867507934570e-01 2.619872987270355225e-02 -4.908822178840637207e-01
5.002297163009643555e-01 1.732286065816879272e-02 -2.427486181259155273e-01
-1.646410226821899414e-01 2.046498283743858337e-02 -6.046181917190551758e-01
-8.154019713401794434e-02 3.897775709629058838e-02 2.750888764858245850e-01
2.622774541378021240e-01 1.468878705054521561e-02 -2.364246547222137451e-01
4.223558306694030762e-02 2.956645749509334564e-02 5.494707822799682617e-01
3.187077045440673828e-01 1.859137043356895447e-02 -5.669304132461547852e-01
3.294851183891296387e-01 3.455933928489685059e-02 -8.066350817680358887e-01
-9.080988168716430664e-02 4.439506679773330688e-02 -3.001941144466400146e-01
4.673622548580169678e-01 2.110967785120010376e-02 -5.383280515670776367e-01
4.701035022735595703e-01 2.067395858466625214e-02 5.231630802154541016e-01
4.252216219902038574e-02 4.509023576974868774e-02 -1.388657093048095703e-02
-2.458413541316986084e-01 3.530751168727874756e-02 -7.763893604278564453e-01
-2.882275581359863281e-01 2.476723678410053253e-02 -6.278089284896850586e-01
-3.819825351238250732e-01 3.176357969641685486e-02 -4.481590390205383301e-01
7.744085788726806641e-01 3.175693750381469727e-02 2.088291943073272705e-02
-7.009989023208618164e-02 4.459044709801673889e-02 -3.510726094245910645e-01
1.986739635467529297e-01 4.606274142861366272e-02 -1.013203337788581848e-01
1.791925579309463501e-01 1.744257286190986633e-02 -5.685901641845703125e-01
-1.673712730407714844e-01 1.855537667870521545e-02 -3.782498538494110107e-01
1.038469523191452026e-01 4.352020099759101868e-02 2.140687108039855957e-01
3.800455927848815918e-01 4.510135203599929810e-02 -8.107641339302062988e-02
6.756328344345092773e-01 3.402349725365638733e-02 -3.343453705310821533e-01
2.538742125034332275e-01 4.342959076166152954e-02 -5.555121898651123047e-01
3.432121574878692627e-01 4.463765397667884827e-02 -3.412322700023651123e-01
4.211223721504211426e-01 1.731617376208305359e-02 3.599613904953002930e-01
-1.315021514892578125e-01 4.366335645318031311e-02 -3.739400506019592285e-01
-6.975993514060974121e-03 1.641564629971981049e-02 5.221499502658843994e-02
-5.752113461494445801e-02 1.894276589155197144e-02 -6.167699098587036133e-01
-1.165868639945983887e-01 4.170621559023857117e-02 7.795748114585876465e-02
1.909307986497879028e-01 4.466914013028144836e-02 -4.890395402908325195e-01
3.309558928012847900e-01 1.481015793979167938e-02 9.959183633327484131e-02
5.324572324752807617e-01 1.708727516233921051e-02 -1.164104491472244263e-01
6.701846420764923096e-02 3.905221074819564819e-02 -8.285948634147644043e-01
1.139777153730392456e-01 3.859396651387214661e-02 4.661440253257751465e-01
6.606109142303466797e-01 2.023481205105781555e-02 -5.203080922365188599e-02
1.580569744110107422e-01 1.994153484702110291e-02 -7.098531126976013184e-01
1.661318838596343994e-01 3.698893636465072632e-02 -8.577500581741333008e-01
-1.578386425971984863e-01 2.784850634634494781e-02 -8.690826892852783203e-01
-1.712334156036376953e-01 2.280671522021293640e-02 -7.260020375251770020e-01
2.294088900089263916e-02 2.228120341897010803e-02 -8.066456913948059082e-01
-2.893382310867309570e-02 1.593647710978984833e-02 -2.648776769638061523e-01
4.065486788749694824e-01 1.508555654436349869e-02 -5.114071071147918701e-02
-2.685358226299285889e-01 3.917315602302551270e-02 -5.680632591247558594e-01
7.210423946380615234e-01 2.349767088890075684e-02 2.906188964843750000e-01
7.422719001770019531e-01 -1.415731161832809448e-01 1.440262794494628906e-01
4.232806563377380371e-01 3.501366078853607178e-02 8.039607107639312744e-02
4.117519259452819824e-01 -2.521123588085174561e-01 -8.221672475337982178e-02
2.250468432903289795e-01 -1.166261509060859680e-01 8.645991981029510498e-02
6.197650432586669922e-01 3.288109600543975830e-02 -3.379568457603454590e-03
5.091045498847961426e-01 -2.781485319137573242e-01 1.378155052661895752e-01
2.866386175155639648e-01 -1.163728013634681702e-01 8.077287077903747559e-01
1.966131031513214111e-01 -1.061909198760986328e-01 2.665312886238098145e-01
2.454171925783157349e-01 -8.940689265727996826e-02 4.120628535747528076e-02
2.876303195953369141e-01 -2.611156105995178223e-01 3.130301833152770996e-01
4.019672870635986328e-01 1.286828517913818359e-02 5.523474812507629395e-01
3.304354846477508545e-01 -2.544368207454681396e-01 6.451681256294250488e-02
4.858103990554809570e-01 1.229667663574218750e-02 5.590084791183471680e-01
7.199909687042236328e-01 -6.200100108981132507e-02 3.014377057552337646e-01
3.034389019012451172e-01 -5.398198962211608887e-03 4.885892271995544434e-01
5.519888401031494141e-01 -1.904815435409545898e-01 6.643808484077453613e-01
2.919717133045196533e-01 -2.604028582572937012e-01 2.589772939682006836e-01
2.632367908954620361e-01 -2.510277628898620605e-01 4.060813784599304199e-01
3.270950913429260254e-01 -3.143853694200515747e-02 6.863901019096374512e-01
3.624215424060821533e-01 -2.310317605733871460e-01 7.180019617080688477e-01
7.016675472259521484e-01 -1.524103879928588867e-01 -2.535929083824157715e-01
2.771933674812316895e-01 -1.751115322113037109e-01 7.843139767646789551e-01
7.268501520156860352e-01 -1.634605377912521362e-01 1.757481992244720459e-01
5.395597219467163086e-01 -2.216176688671112061e-01 6.058353781700134277e-01
5.629553794860839844e-01 -8.600334823131561279e-02 7.051362395286560059e-01
2.462347745895385742e-01 -2.119571119546890259e-01 1.246345415711402893e-01
5.669591426849365234e-01 -5.462490022182464600e-02 -3.891342282295227051e-01
2.925990819931030273e-01 -2.615454196929931641e-01 4.490478336811065674e-01
4.443796873092651367e-01 -2.358729094266891479e-01 6.753418445587158203e-01
2.770736515522003174e-01 -2.486469745635986328e-01 5.391655564308166504e-01
3.691950440406799316e-01 -2.699601352214813232e-01 5.231237411499023438e-01
3.980575799942016602e-01 -2.082258462905883789e-01 7.737790942192077637e-01
5.975970625877380371e-01 -2.381468713283538818e-01 3.972982168197631836e-01
4.850844740867614746e-01 -4.623619467020034790e-02 7.364260554313659668e-01
2.396230995655059814e-01 -2.262821197509765625e-01 2.295205146074295044e-01
4.670011103153228760e-01 1.195079088211059570e-02 -1.628084629774093628e-01
4.715371727943420410e-01 -2.789736986160278320e-01 8.953045308589935303e-02
4.986275434494018555e-01 4.611015319824218750e-02 8.323588967323303223e-02
5.081760883331298828e-01 4.782558977603912354e-02 1.251215636730194092e-01
6.194621324539184570e-01 3.513352572917938232e-02 1.128662452101707458e-01
3.482023775577545166e-01 8.894100785255432129e-03 7.557557523250579834e-02
1.864988207817077637e-01 -1.362586021423339844e-01 3.095597028732299805e-01
2.541508674621582031e-01 -2.462972998619079590e-01 3.704966902732849121e-01
3.049759268760681152e-01 -3.328311443328857422e-02 6.616500020027160645e-01
5.019984841346740723e-01 -2.577407956123352051e-01 5.106597542762756348e-01
4.698255360126495361e-01 -2.734631597995758057e-01 4.447739422321319580e-01
6.626487970352172852e-01 -2.253181189298629761e-01 3.181236982345581055e-02
4.235978126525878906e-01 1.724356412887573242e-02 -7.072500884532928467e-02
6.037663221359252930e-01 -2.231431156396865845e-01 -1.967507451772689819e-01
7.312911152839660645e-01 -3.618588298559188843e-02 -1.197973340749740601e-01
3.109235763549804688e-01 -1.571480929851531982e-01 -1.554465442895889282e-01
3.081399798393249512e-01 -2.610104978084564209e-01 1.839975416660308838e-01
6.090273857116699219e-01 -2.477342337369918823e-01 2.608159184455871582e-01
2.350583821535110474e-01 -1.944934576749801636e-01 6.785553097724914551e-01
3.404164314270019531e-01 -4.970344901084899902e-02 7.527860999107360840e-01
7.399493455886840820e-01 -1.538194864988327026e-01 -4.155103862285614014e-02
5.168584585189819336e-01 -2.663348019123077393e-01 4.185653626918792725e-01
3.053897619247436523e-01 2.559639513492584229e-03 2.659630179405212402e-01
5.793145895004272461e-01 -2.521939873695373535e-01 3.551515340805053711e-01
6.554738879203796387e-01 -2.146951258182525635e-01 3.146015405654907227e-01
6.080200672149658203e-01 -2.490792274475097656e-01 1.454037427902221680e-02
5.804244875907897949e-01 -2.602501511573791504e-01 2.456301450729370117e-01
6.726595163345336914e-01 1.101790368556976318e-02 1.794000566005706787e-01
2.485235035419464111e-01 -6.983083486557006836e-02 7.347537577152252197e-02
4.490945935249328613e-01 -4.910492897033691406e-02 -3.157590627670288086e-01
4.037186503410339355e-01 -2.842475771903991699e-01 3.400750756263732910e-01
7.347475886344909668e-01 -1.422646939754486084e-01 2.063446491956710815e-01
3.699457347393035889e-01 -2.109356671571731567e-01 -1.728191226720809937e-01
2.163701355457305908e-01 -6.177227571606636047e-02 4.449515938758850098e-01
7.273452281951904297e-01 -1.237364038825035095e-01 2.883922457695007324e-01
4.637885093688964844e-01 -2.841916084289550781e-01 2.076826095581054688e-01
2.734811305999755859e-01 -3.381533175706863403e-02 1.074140518903732300e-01
6.009960770606994629e-01 -2.594091743230819702e-02 -3.348191976547241211e-01
3.845076560974121094e-01 -3.249660134315490723e-03 -9.601236879825592041e-02
4.699550569057464600e-01 -8.684568107128143311e-02 -3.757575750350952148e-01
7.274343967437744141e-01 -1.682380735874176025e-01 1.345190256834030151e-01
6.418985128402709961e-01 -1.302085071802139282e-02 4.292773306369781494e-01
7.239785194396972656e-01 -9.638510644435882568e-02 3.176349997520446777e-01
3.328622281551361084e-01 -1.916296780109405518e-03 5.510814785957336426e-01
3.565986454486846924e-01 -2.209086716175079346e-01 -1.257547587156295776e-01
