3.640181422233581543e-01 -2.014021724462509155e-01 -1.445181071758270264e-01
3.487308323383331299e-01 -2.200169265270233154e-01 2.553990781307220459e-01
6.440324187278747559e-01 1.437243074178695679e-01 3.149611949920654297e-01
2.272997200489044189e-01 1.375690102577209473e-01 -2.240269035100936890e-01
4.178717434406280518e-01 1.428874433040618896e-01 3.516817390918731689e-01
3.152678012847900391e-01 -4.890966042876243591e-02 -3.084439933300018311e-01
4.861654341220855713e-01 1.875414699316024780e-01 -2.787252962589263916e-01
7.358959913253784180e-01 -6.343672424554824829e-02 -2.735674381256103516e-01
1.087810397148132324e-01 -1.208975613117218018e-01 -5.519073829054832458e-02
1.825740039348602295e-01 1.838976144790649414e-01 1.122020184993743896e-01
2.319882810115814209e-01 -2.085431665182113647e-01 1.819693297147750854e-01
6.498993635177612305e-01 -3.011670708656311035e-02 -3.318564891815185547e-01
2.186729907989501953e-01 -1.685623824596405029e-01 -1.154827475547790527e-01
7.315469980239868164e-01 -1.733878552913665771e-01 -1.155944466590881348e-01
6.733824014663696289e-01 -1.127324923872947693e-01 -2.610166966915130615e-01
7.198870182037353516e-01 2.285112440586090088e-01 2.345300838351249695e-02
4.283973276615142822e-01 2.462515085935592651e-01 1.327582448720932007e-01
6.409311294555664062e-01 -2.280853390693664551e-01 -5.658112466335296631e-03
5.280514955520629883e-01 -1.998623311519622803e-01 3.106950819492340088e-01
4.371950328350067139e-01 -1.900459378957748413e-01 -1.883749663829803467e-01
5.849205255508422852e-01 -2.365887314081192017e-01 1.705761104822158813e-01
8.130511641502380371e-01 -1.451636403799057007e-01 -6.799195706844329834e-02
8.862107992172241211e-01 -8.853587508201599121e-02 -3.446234390139579773e-02
2.052700519561767578e-01 8.911850303411483765e-02 -2.461671382188796997e-01
8.337631225585937500e-01 1.670430600643157959e-01 6.036107987165451050e-02
8.798128366470336914e-02 1.223078370094299316e-01 1.802070438861846924e-02
5.937246680259704590e-01 2.528819441795349121e-01 6.917140632867813110e-02
3.440082669258117676e-01 -1.589892208576202393e-01 -2.158297449350357056e-01
2.244078218936920166e-01 -2.141323983669281006e-01 8.334773033857345581e-02
4.062851667404174805e-01 -1.170901656150817871e-01 4.130131006240844727e-01
4.999022483825683594e-01 -2.320985049009323120e-01 -8.025652170181274414e-02
3.204625844955444336e-01 1.199272572994232178e-01 -2.998886108398437500e-01
2.669634819030761719e-01 1.754138022661209106e-01 -2.054308354854583740e-01
7.101222276687622070e-01 -8.845066279172897339e-02 3.507391512393951416e-01
2.561815381050109863e-01 -2.061765342950820923e-01 2.270326763391494751e-01
4.499845802783966064e-01 -1.054890826344490051e-01 4.218135774135589600e-01
5.242027640342712402e-01 -8.323947340250015259e-02 -3.235220015048980713e-01
5.000724196434020996e-01 -2.532111704349517822e-01 7.950794696807861328e-02
5.484459400177001953e-01 5.812089890241622925e-02 4.139111340045928955e-01
1.612627506256103516e-01 -9.639312326908111572e-02 3.171636164188385010e-01
7.410480380058288574e-01 1.633158773183822632e-01 2.227664291858673096e-01
1.987395584583282471e-01 2.006071954965591431e-01 2.023029699921607971e-02
3.428803086280822754e-01 1.963913440704345703e-01 2.477471977472305298e-01
3.029060363769531250e-01 2.352265566587448120e-01 7.330460101366043091e-02
7.424908876419067383e-01 2.192785441875457764e-01 -6.235023960471153259e-02
1.753111779689788818e-01 7.339420169591903687e-02 -2.277185469865798950e-01
4.123333096504211426e-02 -5.250928550958633423e-02 1.251202970743179321e-01
3.630414009094238281e-01 -2.080768495798110962e-01 2.916429638862609863e-01
9.174239635467529297e-02 7.454558461904525757e-02 2.105922400951385498e-01
7.091659307479858398e-01 1.279909163713455200e-01 -2.895175516605377197e-01
1.966108977794647217e-01 -1.964535564184188843e-01 1.675096601247787476e-01
2.883509099483489990e-01 2.155492901802062988e-01 1.568592935800552368e-01
2.109713554382324219e-01 2.021264731884002686e-01 -4.524664208292961121e-02
3.709136843681335449e-01 -3.548845648765563965e-02 -3.334651589393615723e-01
1.484096050262451172e-01 -1.286680549383163452e-01 2.690423727035522461e-01
4.422061145305633545e-01 -1.771549880504608154e-01 3.568229675292968750e-01
7.171480059623718262e-01 1.052453145384788513e-01 3.156651556491851807e-01
5.645078420639038086e-01 -2.148791253566741943e-01 2.645966410636901855e-01
7.899724245071411133e-01 8.953364193439483643e-02 2.716088593006134033e-01
5.049202442169189453e-01 -2.178241610527038574e-01 2.774261534214019775e-01
4.173405468463897705e-01 -1.372964233160018921e-01 -2.655751109123229980e-01
6.936862468719482422e-01 2.237129956483840942e-01 1.115172654390335083e-01
7.582497596740722656e-01 -1.748725324869155884e-01 1.806539744138717651e-01
5.294787287712097168e-01 -2.159868329763412476e-01 -1.274667382240295410e-01
4.904068112373352051e-01 -2.503951191902160645e-01 1.891145668923854828e-02
1.297211050987243652e-01 1.212756112217903137e-01 -1.244536191225051880e-01
8.598098754882812500e-01 4.552392289042472839e-02 -1.999760121107101440e-01
5.413898825645446777e-02 -7.075801491737365723e-02 -5.465831607580184937e-03
5.995705723762512207e-01 1.474265009164810181e-01 -3.140453696250915527e-01
8.556889295578002930e-01 -3.771744295954704285e-02 -1.815718859434127808e-01
4.109686613082885742e-01 -2.688738703727722168e-02 4.416612088680267334e-01
6.483703851699829102e-01 2.828369662165641785e-02 -3.462681174278259277e-01
2.493868768215179443e-01 -8.958750218152999878e-02 3.835926055908203125e-01
4.782085120677947998e-01 2.200192362070083618e-01 2.247741222381591797e-01
3.896982669830322266e-01 6.774353981018066406e-02 4.127166271209716797e-01
9.257522821426391602e-01 2.710633352398872375e-02 -4.392011091113090515e-02
6.382544636726379395e-01 -1.088938713073730469e-01 3.778403401374816895e-01
3.068916797637939453e-01 -2.046252042055130005e-01 2.736957073211669922e-01
1.166909635066986084e-01 1.461102813482284546e-01 -1.455961540341377258e-02
3.252222239971160889e-01 -1.674821525812149048e-01 3.483127355575561523e-01
5.535765886306762695e-01 -1.759752631187438965e-01 3.424569368362426758e-01
5.113652348518371582e-01 4.012532904744148254e-02 -3.664194643497467041e-01
1.528429388999938965e-01 -1.145124956965446472e-01 -1.369173973798751831e-01
1.456468999385833740e-01 1.616066396236419678e-01 -5.531957373023033142e-02
8.973537087440490723e-01 6.474921945482492447e-03 1.645635366439819336e-01
4.447434246540069580e-01 -1.175159439444541931e-01 -2.912890315055847168e-01
4.357009828090667725e-01 -2.309044152498245239e-01 -8.251284062862396240e-02
3.712036013603210449e-01 -2.307764738798141479e-01 2.304719388484954834e-01
2.487809956073760986e-01 5.148451775312423706e-02 3.781643211841583252e-01
8.926492333412170410e-01 1.164574697613716125e-01 2.602967061102390289e-02
6.804137825965881348e-01 -2.203390747308731079e-01 2.151859924197196960e-02
5.971121788024902344e-01 1.013909652829170227e-02 -3.567228913307189941e-01
8.812955021858215332e-01 1.315308362245559692e-01 -2.048377320170402527e-02
1.962431967258453369e-01 -1.460204720497131348e-01 -1.363330036401748657e-01
4.906311929225921631e-01 -8.868233114480972290e-02 -3.199057877063751221e-01
1.013346016407012939e-01 3.709873184561729431e-02 -1.535117775201797485e-01
1.583510637283325195e-01 1.542216986417770386e-01 -1.103067547082901001e-01
4.455541670322418213e-01 -6.177607178688049316e-02 -3.350540697574615479e-01
5.170704722404479980e-01 1.048163548111915588e-01 -3.506190776824951172e-01
4.513403475284576416e-01 1.112327277660369873e-01 3.862349689006805420e-01
1.820088624954223633e-01 4.418285191059112549e-02 -2.439516037702560425e-01
9.250258207321166992e-01 -1.310957316309213638e-02 5.781401693820953369e-02
3.903130888938903809e-01 1.041034311056137085e-01 3.869109451770782471e-01
2.583032846450805664e-01 -2.235612422227859497e-01 4.374101012945175171e-02
7.762907743453979492e-01 4.286590963602066040e-03 -2.801923751831054688e-01
7.754071950912475586e-01 2.056432664394378662e-01 2.777479588985443115e-02
2.690827846527099609e-01 1.921841353178024292e-01 -1.749099791049957275e-01
3.977466821670532227e-01 -1.052290722727775574e-01 -2.950236797332763672e-01
1.924835443496704102e-01 -7.725068926811218262e-02 -2.170299142599105835e-01
6.039546132087707520e-01 2.396750748157501221e-01 -1.506098210811614990e-01
8.087913393974304199e-01 1.582210958003997803e-01 1.493474990129470825e-01
1.587035357952117920e-01 8.857797831296920776e-02 -2.012316435575485229e-01
7.221302390098571777e-02 4.746187478303909302e-02 2.035896182060241699e-01
5.240713953971862793e-01 -2.038558423519134521e-01 -1.595762670040130615e-01
6.995387077331542969e-01 1.967799961566925049e-01 -2.053441703319549561e-01
4.415042996406555176e-01 -2.536802589893341064e-01 6.874586641788482666e-02
5.055380463600158691e-01 1.590198576450347900e-01 -3.125216662883758545e-01
4.772101938724517822e-01 6.349602714180946350e-03 -3.631407320499420166e-01
5.870559811592102051e-01 4.977670311927795410e-02 -3.598429262638092041e-01
6.409642100334167480e-01 -1.382650732994079590e-01 -2.433777898550033569e-01
2.564519047737121582e-01 3.543602302670478821e-02 -2.983841001987457275e-01
7.941379547119140625e-01 -7.184844464063644409e-02 -2.221074849367141724e-01
5.430290102958679199e-02 7.460637949407100677e-03 -6.725941598415374756e-02
4.360243678092956543e-01 4.749367386102676392e-02 4.272017180919647217e-01
3.832490444183349609e-01 2.360409051179885864e-01 -1.478537470102310181e-01
4.093645215034484863e-01 1.749351471662521362e-01 3.067916333675384521e-01
2.797207832336425781e-01 -4.429155960679054260e-02 4.109819531440734863e-01
3.041912317276000977e-01 -1.503288447856903076e-01 -2.104521989822387695e-01
3.733517527580261230e-01 2.478299438953399658e-01 8.880028128623962402e-02
9.286677837371826172e-01 -5.711340345442295074e-03 1.532979495823383331e-02
1.919891536235809326e-01 6.671176292002201080e-03 -2.539813518524169922e-01
5.816832184791564941e-01 1.219270005822181702e-01 -3.361732959747314453e-01
5.767547488212585449e-01 1.756175607442855835e-01 2.958847880363464355e-01
7.774899005889892578e-01 1.924350261688232422e-01 1.012959629297256470e-01
3.364073336124420166e-01 2.140340656042098999e-01 -1.806365400552749634e-01
9.055740833282470703e-01 -4.095350578427314758e-02 1.203965544700622559e-01
6.367033720016479492e-01 2.424360811710357666e-01 9.020689129829406738e-02
6.709988713264465332e-01 -2.224308997392654419e-01 1.206045746803283691e-01
3.457537889480590820e-01 -2.446593791246414185e-01 6.110507994890213013e-02
3.735634684562683105e-01 1.842915713787078857e-01 2.828750312328338623e-01
8.685024976730346680e-01 1.330994665622711182e-01 7.892578840255737305e-02
4.584159851074218750e-01 2.361948043107986450e-01 1.777408123016357422e-01
1.322989761829376221e-01 1.491805911064147949e-01 1.289789527654647827e-01
7.390526533126831055e-01 -1.457622647285461426e-01 -1.705411225557327271e-01
1.463221907615661621e-01 -1.743157655000686646e-01 4.398599639534950256e-02
4.778125882148742676e-01 -1.794175356626510620e-01 -2.113122791051864624e-01
5.148184895515441895e-01 2.456456720829010010e-01 -1.539016664028167725e-01
4.396927356719970703e-01 -1.605456918478012085e-01 -2.383820861577987671e-01
5.743829011917114258e-01 -1.646964251995086670e-01 -2.255774289369583130e-01
8.902503252029418945e-01 8.481331914663314819e-02 -1.232038289308547974e-01
7.345783710479736328e-01 1.112047582864761353e-02 -3.081193566322326660e-01
6.578742265701293945e-01 2.426650822162628174e-01 5.821071937680244446e-02
7.631205320358276367e-01 -8.297709375619888306e-02 -2.377241998910903931e-01
3.274338245391845703e-01 -2.263776510953903198e-01 -4.678672924637794495e-02
7.809859514236450195e-01 1.760712563991546631e-01 -1.650179028511047363e-01
3.587704300880432129e-01 6.089191883802413940e-04 -3.406542837619781494e-01
3.482965230941772461e-01 -9.202702343463897705e-02 4.177910685539245605e-01
7.395241856575012207e-01 -2.004564851522445679e-01 6.208532303571701050e-02
8.118194937705993652e-01 -8.707877248525619507e-02 2.584188878536224365e-01
4.124799072742462158e-01 2.524472177028656006e-01 -9.334243834018707275e-02
1.182582378387451172e-01 1.282460242509841919e-01 -8.678656816482543945e-02
8.156229257583618164e-01 1.264600008726119995e-01 -2.032288014888763428e-01
2.647769451141357422e-01 2.064308673143386841e-01 -1.325046420097351074e-01
3.314712941646575928e-01 2.347628027200698853e-01 1.203376352787017822e-01
8.077412843704223633e-02 -1.234519332647323608e-01 6.442929804325103760e-02
7.925068736076354980e-01 4.506904631853103638e-02 2.982873320579528809e-01
1.433839797973632812e-01 1.686848402023315430e-01 1.149198599159717560e-02
4.646151065826416016e-01 2.520240247249603271e-01 -1.218884736299514771e-01
8.092743158340454102e-02 -1.019401326775550842e-01 1.872892230749130249e-01
7.878652215003967285e-02 -2.270946651697158813e-02 -1.141045093536376953e-01
2.816124558448791504e-01 2.253463864326477051e-01 -7.949273288249969482e-02
2.491366714239120483e-01 2.218174934387207031e-01 2.391334250569343567e-02
4.217727184295654297e-01 2.082961499691009521e-01 -2.342254668474197388e-01
6.882055997848510742e-01 -1.290719863027334213e-02 -3.244008421897888184e-01
8.616067171096801758e-01 7.471661269664764404e-02 1.958490759134292603e-01
8.597092032432556152e-01 1.033215820789337158e-01 1.652356684207916260e-01
5.968853831291198730e-02 6.646890193223953247e-02 1.431546062231063843e-01
6.539845466613769531e-01 -1.360837966203689575e-01 3.470483124256134033e-01
8.072804808616638184e-01 -7.038169540464878082e-03 2.959652245044708252e-01
1.888899505138397217e-01 1.947332322597503662e-01 5.209455639123916626e-02
8.986592292785644531e-01 -7.188710384070873260e-03 -1.266573816537857056e-01
7.837669849395751953e-01 -1.414753049612045288e-01 -1.294450908899307251e-01
2.530408501625061035e-01 -9.367501363158226013e-03 3.999992311000823975e-01
3.560098409652709961e-01 -1.269682943820953369e-01 3.982542157173156738e-01
1.090360283851623535e-01 -7.931946218013763428e-02 -1.210208982229232788e-01
3.176161646842956543e-02 -5.341235548257827759e-03 1.025497466325759888e-01
3.768892586231231689e-01 8.878413587808609009e-02 -3.376312553882598877e-01
3.874856829643249512e-01 -1.923537850379943848e-01 3.284466564655303955e-01
2.940292060375213623e-01 1.515864282846450806e-01 -2.575805783271789551e-01
5.773711204528808594e-01 -5.065596103668212891e-02 -3.389284908771514893e-01
8.312274217605590820e-01 -1.237947940826416016e-01 -9.277623891830444336e-02
4.799417257308959961e-01 -1.489422023296356201e-01 -2.576468288898468018e-01
2.194825112819671631e-01 2.062311628833413124e-03 -2.738238275051116943e-01
4.373785555362701416e-01 1.183530613780021667e-01 -3.371516466140747070e-01
8.276430368423461914e-01 -9.312729537487030029e-02 -1.587548702955245972e-01
6.730357408523559570e-01 2.145922780036926270e-01 1.658114939928054810e-01
9.121382236480712891e-01 8.660913258790969849e-02 -2.085973694920539856e-02
5.150096416473388672e-01 1.837399229407310486e-02 4.337891638278961182e-01
8.410775661468505859e-01 2.237289026379585266e-02 -2.243555933237075806e-01
1.221292614936828613e-01 6.880890578031539917e-04 -1.842154413461685181e-01
3.137090206146240234e-01 1.837258487939834595e-01 -2.263441830873489380e-01
1.491336226463317871e-01 2.315209060907363892e-02 3.230190277099609375e-01
4.354065656661987305e-01 -2.112721055746078491e-01 -1.411657482385635376e-01
6.157090067863464355e-01 2.260247766971588135e-01 -1.881256401538848877e-01
1.495884358882904053e-01 -6.023272871971130371e-02 -1.893986165523529053e-01
1.850711405277252197e-01 1.227123960852622986e-01 -1.993151009082794189e-01
5.402249097824096680e-01 -3.176921233534812927e-02 4.347335994243621826e-01
2.944915890693664551e-01 1.522704362869262695e-01 3.034329116344451904e-01
1.782846450805664062e-01 1.792637854814529419e-01 -7.369057834148406982e-02
9.052361249923706055e-01 5.745808780193328857e-02 1.195704787969589233e-01
7.350978851318359375e-01 2.632017433643341064e-02 3.502046763896942139e-01
1.841771602630615234e-01 -1.481098234653472900e-01 2.821873724460601807e-01
6.025265455245971680e-01 -2.079308629035949707e-01 2.615258097648620605e-01
8.898997306823730469e-02 7.160488516092300415e-02 -1.117684543132781982e-01
5.214799046516418457e-01 1.138514503836631775e-01 3.801705539226531982e-01
4.884659647941589355e-01 6.690962612628936768e-02 -3.626977205276489258e-01
1.980890035629272461e-01 -1.859089881181716919e-01 2.152718752622604370e-01
3.862155675888061523e-01 2.258704453706741333e-01 1.912632584571838379e-01
1.377703547477722168e-01 -6.163462996482849121e-02 3.136525452136993408e-01
4.651021063327789307e-01 -5.801592767238616943e-02 4.393995404243469238e-01
2.546567022800445557e-01 -3.435723483562469482e-02 -2.856034040451049805e-01
8.037618398666381836e-01 -2.978678792715072632e-02 -2.448713332414627075e-01
4.697988927364349365e-01 -1.468917727470397949e-01 3.905759155750274658e-01
3.921032249927520752e-01 3.147817030549049377e-02 4.298917353153228760e-01
1.268862187862396240e-01 1.565470099449157715e-01 5.650105327367782593e-02
4.202851653099060059e-02 -6.518243253231048584e-02 7.688181847333908081e-02
5.111934542655944824e-01 -1.706620901823043823e-01 -2.253988236188888550e-01
2.642570734024047852e-01 2.241925001144409180e-01 -4.517684504389762878e-02
2.464767843484878540e-01 2.094226628541946411e-01 1.251393109560012817e-01
8.392081856727600098e-01 1.543072313070297241e-01 -1.123634427785873413e-01
6.728276014328002930e-01 -2.041086852550506592e-01 2.117545604705810547e-01
1.933320462703704834e-01 -2.004228383302688599e-01 5.942138284444808960e-02
2.412899136543273926e-01 1.215901523828506470e-01 -2.512738406658172607e-01
8.783814907073974609e-01 -1.158984471112489700e-02 -1.637493073940277100e-01
6.580056548118591309e-01 2.271293252706527710e-01 -1.582262963056564331e-01
2.984972596168518066e-01 -2.345431745052337646e-01 4.625737667083740234e-02
8.854171633720397949e-02 4.165668971836566925e-03 2.583113610744476318e-01
1.336732208728790283e-01 -1.499198973178863525e-01 -3.357784822583198547e-02
6.878029704093933105e-01 -1.574777215719223022e-01 -1.889545172452926636e-01
7.426341772079467773e-01 -1.793464720249176025e-01 -8.236046135425567627e-02
1.741203665733337402e-01 -1.702602356672286987e-01 -5.134637281298637390e-02
5.722739100456237793e-01 -8.274564146995544434e-02 -3.189118206501007080e-01
7.549069523811340332e-01 9.815261512994766235e-02 2.948233485221862793e-01
6.126045584678649902e-01 -2.310727983713150024e-01 -2.632213011384010315e-02
6.535772085189819336e-01 -2.193899303674697876e-01 -4.067460820078849792e-02
8.830095529556274414e-01 6.580888479948043823e-02 1.654025018215179443e-01
8.634641170501708984e-01 1.384775191545486450e-01 -9.043554961681365967e-02
2.675196528434753418e-01 -1.128633040934801102e-03 -3.025228083133697510e-01
4.347891807556152344e-01 2.756353095173835754e-02 -3.607488572597503662e-01
7.694630622863769531e-01 -4.027058184146881104e-02 -2.667024731636047363e-01
4.956347644329071045e-01 2.529653012752532959e-01 1.113954931497573853e-01
5.351651906967163086e-01 1.389299482107162476e-01 3.532449603080749512e-01
8.693887591361999512e-01 -1.131945922970771790e-01 -2.837605774402618408e-03
8.972643613815307617e-01 1.044838428497314453e-01 -6.094676628708839417e-02
5.242299437522888184e-01 2.565151751041412354e-01 8.646188676357269287e-02
3.003558516502380371e-01 6.139678880572319031e-02 -3.172419369220733643e-01
2.651906609535217285e-01 7.430059462785720825e-02 -2.950483560562133789e-01
2.945808768272399902e-01 -9.472462534904479980e-02 -2.684585154056549072e-01
8.487219810485839844e-01 1.103259846568107605e-01 -1.757376790046691895e-01
6.897925138473510742e-01 -1.431697309017181396e-01 3.165049254894256592e-01
6.171641945838928223e-01 2.547541558742523193e-01 -2.764556184411048889e-02
3.331583142280578613e-01 2.261413335800170898e-01 -1.429410576820373535e-01
4.175142049789428711e-01 -2.460390925407409668e-01 1.769523620605468750e-01
6.225411891937255859e-01 -5.435029789805412292e-02 4.087936580181121826e-01
3.402323126792907715e-01 -2.203365564346313477e-01 -7.928980886936187744e-02
1.478432714939117432e-01 -1.620885133743286133e-01 1.977038532495498657e-01
4.464224576950073242e-01 -2.420967966318130493e-01 -3.700620308518409729e-02
5.504489541053771973e-01 2.511990964412689209e-01 1.080472767353057861e-01
1.828598082065582275e-01 1.904723346233367920e-01 -2.137009054422378540e-02
6.939625740051269531e-01 -2.069691717624664307e-01 -4.433239623904228210e-02
1.138590276241302490e-01 -3.898120298981666565e-02 -1.604261845350265503e-01
2.026051580905914307e-01 1.726935803890228271e-01 -1.396639943122863770e-01
4.806140363216400146e-01 8.893808722496032715e-02 4.034926593303680420e-01
7.773992419242858887e-02 -1.180291548371315002e-01 1.209406554698944092e-01
3.554140925407409668e-01 -1.416614800691604614e-01 -2.440142184495925903e-01
6.663557887077331543e-01 1.982696503400802612e-01 -2.245131582021713257e-01
7.838183641433715820e-01 -1.376564651727676392e-01 2.299118638038635254e-01
6.784449815750122070e-01 -2.226667851209640503e-01 5.719835311174392700e-02
3.330798149108886719e-01 -2.409893572330474854e-01 1.406420916318893433e-01
5.358687043190002441e-01 8.719772100448608398e-02 3.990041017532348633e-01
4.122258722782135010e-01 -2.050748169422149658e-01 3.089887201786041260e-01
5.998370051383972168e-02 5.442573875188827515e-02 -5.805636569857597351e-02
8.778152465820312500e-01 1.074068620800971985e-01 1.187602281570434570e-01
9.197742938995361328e-01 -1.409463305026292801e-02 -5.576143786311149597e-02
4.868151843547821045e-01 2.635790109634399414e-01 1.953672431409358978e-02
7.912554740905761719e-01 -5.466979369521141052e-02 3.019869029521942139e-01
7.907919883728027344e-01 -1.692726463079452515e-01 1.224455237388610840e-01
4.767820537090301514e-01 -2.530927658081054688e-01 4.953556507825851440e-02
6.142414212226867676e-01 -1.391734927892684937e-01 3.634960651397705078e-01
5.850192308425903320e-01 -5.344342440366744995e-02 4.213473498821258545e-01
4.322216212749481201e-01 -2.282345443964004517e-01 2.543826401233673096e-01
2.270269095897674561e-01 -5.213293060660362244e-02 -2.599085867404937744e-01
7.334603071212768555e-01 2.105664014816284180e-01 1.083176732063293457e-01
2.942035496234893799e-01 8.158559352159500122e-02 3.789191246032714844e-01
3.625406324863433838e-01 -2.472837865352630615e-01 1.124111860990524292e-01
5.763254165649414062e-01 -1.354358792304992676e-01 -2.663940489292144775e-01
6.407700181007385254e-01 -2.220465838909149170e-01 1.807349920272827148e-01
3.070172071456909180e-01 1.232417598366737366e-01 3.459711372852325439e-01
8.648278117179870605e-01 1.115956157445907593e-02 -1.926470547914505005e-01
5.458380579948425293e-01 2.623589336872100830e-01 -3.300516679883003235e-02
7.120358943939208984e-02 9.912829101085662842e-02 9.400328993797302246e-02
4.998164474964141846e-01 2.098442614078521729e-01 -2.443799823522567749e-01
4.934937953948974609e-01 -1.108165364712476730e-02 4.408182799816131592e-01
8.432618975639343262e-01 1.438043862581253052e-01 1.182695776224136353e-01
2.183253169059753418e-01 9.587759524583816528e-02 3.272231221199035645e-01
7.771480083465576172e-01 -1.206813007593154907e-01 2.639843225479125977e-01
8.299440145492553711e-01 9.556095302104949951e-02 2.208967208862304688e-01
7.365838289260864258e-01 -9.949220716953277588e-02 3.239055871963500977e-01
9.285216927528381348e-01 3.625151142477989197e-02 2.089926786720752716e-02
5.008026361465454102e-01 -4.919070377945899963e-02 -3.453221917152404785e-01
3.639767169952392578e-01 -2.360431402921676636e-01 -3.135075792670249939e-02
1.656187176704406738e-01 -2.834915369749069214e-02 -2.226529270410537720e-01
2.121213972568511963e-01 -2.085066437721252441e-01 1.208211779594421387e-01
6.301438212394714355e-01 2.308631390333175659e-01 1.471657603979110718e-01
2.922176718711853027e-01 1.933253854513168335e-01 2.255956232547760010e-01
2.573006451129913330e-01 1.484467834234237671e-01 -2.359953969717025757e-01
5.442297458648681641e-01 1.914879381656646729e-01 2.774163186550140381e-01
6.703443527221679688e-01 1.037344709038734436e-01 -3.227194845676422119e-01
7.212665081024169922e-01 -5.318420380353927612e-02 3.590078651905059814e-01
1.012909114360809326e-01 -1.366639137268066406e-01 1.533466018736362457e-02
9.410884976387023926e-02 -9.315577149391174316e-02 2.309686541557312012e-01
8.071410655975341797e-01 1.865331083536148071e-01 -7.078185677528381348e-02
2.174818515777587891e-01 1.944285780191421509e-01 -9.996354579925537109e-02
1.711945831775665283e-01 1.168633773922920227e-01 2.625905573368072510e-01
5.289562940597534180e-01 -2.442234903573989868e-01 1.715783923864364624e-01
4.317474365234375000e-01 -6.915917247533798218e-02 4.366681873798370361e-01
5.653341412544250488e-01 -9.797675162553787231e-02 4.104166030883789062e-01
6.283625364303588867e-01 2.146978378295898438e-01 1.973105370998382568e-01
6.564805507659912109e-01 2.404785156250000000e-01 -1.012338548898696899e-01
2.044228315353393555e-01 1.799438893795013428e-01 1.706783026456832886e-01
7.262184023857116699e-01 -5.194260738790035248e-03 3.614195585250854492e-01
3.675725162029266357e-01 1.532312780618667603e-01 3.294004201889038086e-01
5.475376844406127930e-01 -4.631982184946537018e-03 -3.602749109268188477e-01
8.335708379745483398e-01 -1.304968297481536865e-01 1.516529917716979980e-01
6.402462720870971680e-02 8.497890830039978027e-02 -1.693704351782798767e-02
3.719725012779235840e-01 2.327148169279098511e-01 1.613793969154357910e-01
3.859111666679382324e-02 3.900686651468276978e-02 1.878733187913894653e-02
2.597565650939941406e-01 1.935688555240631104e-01 1.979287862777709961e-01
5.418654084205627441e-01 -5.814910680055618286e-02 -3.389348089694976807e-01
5.420480966567993164e-01 2.242632955312728882e-01 -2.133936136960983276e-01
3.548139929771423340e-01 2.507617175579071045e-01 -7.291365414857864380e-03
2.275557518005371094e-01 2.087598741054534912e-01 2.406794726848602295e-01
2.000235617160797119e-01 -1.093263402581214905e-01 -5.280423909425735474e-03
2.085693925619125366e-02 2.006736695766448975e-01 -7.360790669918060303e-02
3.003149330615997314e-01 1.646022349596023560e-01 6.421219557523727417e-02
8.467783033847808838e-02 -6.636541336774826050e-02 3.131513893604278564e-01
2.857479155063629150e-01 3.520198911428451538e-02 1.983431726694107056e-02
1.187954097986221313e-01 -1.427953541278839111e-01 1.504692733287811279e-01
-5.582865327596664429e-02 6.223258376121520996e-02 3.001088798046112061e-01
5.394518375396728516e-03 -9.121414273977279663e-02 -9.214538335800170898e-02
1.617822051048278809e-01 -6.599792093038558960e-02 -2.154690325260162354e-01
2.769040763378143311e-01 1.491060853004455566e-01 1.464839875698089600e-01
-4.057719558477401733e-02 8.580297976732254028e-02 3.263155519962310791e-01
-6.814304739236831665e-02 4.942400008440017700e-02 6.983035057783126831e-02
1.178527921438217163e-01 2.512139081954956055e-01 -1.677983850240707397e-01
4.488388448953628540e-02 1.461344361305236816e-01 3.798894286155700684e-01
2.948442995548248291e-01 7.781738042831420898e-02 -1.594132333993911743e-01
2.080307900905609131e-01 -6.617515534162521362e-02 1.315558552742004395e-01
-3.509677201509475708e-02 -9.815112501382827759e-02 1.147716119885444641e-02
1.903440058231353760e-02 2.664363682270050049e-01 1.466447710990905762e-01
2.653888463973999023e-01 5.487747862935066223e-02 1.347088217735290527e-01
2.675704658031463623e-01 2.787736952304840088e-01 -1.305514723062515259e-01
2.841862142086029053e-01 7.333891093730926514e-02 8.590075373649597168e-02
3.099548816680908203e-02 -1.602119803428649902e-01 1.619276702404022217e-01
2.777550816535949707e-01 1.856425404548645020e-01 1.414607018232345581e-01
-7.600875943899154663e-02 5.348938703536987305e-02 1.468290835618972778e-01
1.848743557929992676e-01 7.282241433858871460e-02 -2.855558395385742188e-01
9.090829640626907349e-02 2.968061268329620361e-01 -5.109319463372230530e-02
2.155325561761856079e-02 2.577249407768249512e-01 2.227124273777008057e-01
3.059832006692886353e-02 2.718105018138885498e-01 1.998468488454818726e-01
2.268653512001037598e-01 1.475574970245361328e-01 2.544547319412231445e-01
2.026799470186233521e-01 -1.020848825573921204e-01 3.773656487464904785e-02
2.494261860847473145e-01 -1.136546581983566284e-02 1.024938151240348816e-01
3.077007830142974854e-01 1.991255581378936768e-01 8.872799575328826904e-03
9.611517190933227539e-02 1.609088480472564697e-02 3.641145527362823486e-01
-7.686369866132736206e-02 1.019959151744842529e-02 2.124811857938766479e-01
1.058651208877563477e-01 2.926880717277526855e-01 2.556425034999847412e-01
1.150456592440605164e-01 8.320333808660507202e-02 -2.636137604713439941e-01
2.883938252925872803e-01 1.243323236703872681e-01 -2.044275403022766113e-01
2.641898095607757568e-01 1.814687848091125488e-01 1.775590628385543823e-01
-6.211373955011367798e-02 -5.584710091352462769e-02 2.349668890237808228e-01
4.166399687528610229e-02 2.745911180973052979e-01 2.257493883371353149e-01
5.838950723409652710e-02 1.882148385047912598e-01 -1.572941988706588745e-01
2.966938614845275879e-01 1.868406534194946289e-01 7.643034309148788452e-02
3.056976199150085449e-01 2.231863439083099365e-01 -1.004990562796592712e-02
-7.448378950357437134e-02 6.842074543237686157e-02 1.722616553306579590e-01
3.968443721532821655e-02 -9.776587039232254028e-02 -1.339066326618194580e-01
-1.081431657075881958e-02 2.213714718818664551e-01 2.146959453821182251e-01
5.646393075585365295e-02 -1.660749316215515137e-01 1.378101110458374023e-01
-3.500384837388992310e-02 1.772896945476531982e-02 -5.857228115200996399e-02
1.123916357755661011e-01 -9.366735070943832397e-02 2.578604519367218018e-01
3.124339878559112549e-01 1.254397630691528320e-01 -5.604849383234977722e-02
3.096739649772644043e-01 1.852521002292633057e-01 -1.160777360200881958e-01
4.150374233722686768e-02 -1.415852606296539307e-01 2.201469838619232178e-01
2.300476133823394775e-01 2.827401459217071533e-01 1.774228215217590332e-01
2.994070351123809814e-01 1.212252974510192871e-01 -1.713231652975082397e-01
2.828083932399749756e-03 -1.524696946144104004e-01 1.620308607816696167e-01
2.998809516429901123e-02 -1.201063469052314758e-01 -9.432195127010345459e-02
6.333105266094207764e-03 -1.266576647758483887e-01 -4.596086964011192322e-02
2.114284634590148926e-01 -2.878494560718536377e-03 -2.466961741447448730e-01
2.935572862625122070e-01 7.478789240121841431e-02 4.342241212725639343e-02
2.116664052009582520e-01 8.504459261894226074e-02 -2.816913723945617676e-01
-5.146982520818710327e-02 1.002490073442459106e-01 2.909711003303527832e-01
1.339080631732940674e-01 1.607403457164764404e-01 -2.535078525543212891e-01
1.705899685621261597e-01 -7.555603235960006714e-02 2.013259828090667725e-01
8.726356178522109985e-02 1.349142044782638550e-01 -2.271480262279510498e-01
2.666858583688735962e-02 1.283640712499618530e-01 -1.499035060405731201e-01
-4.811546951532363892e-02 -6.167065352201461792e-02 9.685229510068893433e-03
2.237721532583236694e-01 9.652227163314819336e-03 2.000845670700073242e-01
-3.378606587648391724e-02 1.879943758249282837e-01 1.926766335964202881e-01
2.707600891590118408e-01 7.689604908227920532e-02 -2.250721156597137451e-01
-6.352508813142776489e-02 1.191929727792739868e-02 2.814592719078063965e-01
2.953570783138275146e-01 5.076061934232711792e-02 -1.042009741067886353e-01
-3.763293474912643433e-02 -6.005740910768508911e-02 -2.490869536995887756e-02
1.024097651243209839e-01 2.266401052474975586e-01 -1.786356419324874878e-01
-4.522935301065444946e-02 1.658324152231216431e-01 1.803759187459945679e-01
1.398441344499588013e-01 -1.090301200747489929e-01 -1.639238595962524414e-01
9.521804749965667725e-03 7.081291079521179199e-02 3.829421699047088623e-01
2.821049094200134277e-01 2.846492230892181396e-01 -4.410770907998085022e-02
1.929324865341186523e-01 3.158297240734100342e-01 -1.129140853881835938e-01
5.622759088873863220e-02 1.577031314373016357e-01 -1.775960922241210938e-01
-7.026030868291854858e-02 3.678116202354431152e-02 2.555432319641113281e-01
-3.163754194974899292e-02 4.917450621724128723e-02 -6.293849647045135498e-02
2.001162171363830566e-01 8.381134271621704102e-02 2.861557602882385254e-01
9.431368857622146606e-02 1.152549982070922852e-01 3.831168711185455322e-01
2.029618918895721436e-01 -8.251079171895980835e-02 1.090749129652976990e-01
2.447333633899688721e-01 1.117662191390991211e-01 2.168551385402679443e-01
2.555914223194122314e-01 1.785753816366195679e-01 -2.439218759536743164e-01
2.251212298870086670e-02 -7.937573641538619995e-02 -1.293874382972717285e-01
1.365378201007843018e-01 -6.772579997777938843e-02 2.639296650886535645e-01
8.991595357656478882e-02 2.417717874050140381e-02 -2.443849146366119385e-01
2.555592656135559082e-01 -1.870864629745483398e-02 6.184406951069831848e-02
3.953652828931808472e-02 6.444755196571350098e-02 -1.919832825660705566e-01
1.392600983381271362e-01 2.678334116935729980e-01 -1.666485965251922607e-01
1.762219220399856567e-01 -1.114256680011749268e-03 2.754648327827453613e-01
-4.994513839483261108e-02 -1.062050387263298035e-01 1.313778609037399292e-01
3.383641690015792847e-02 2.796954512596130371e-01 8.739072084426879883e-02
4.141458123922348022e-02 2.000080347061157227e-01 -1.171997338533401489e-01
1.059106513857841492e-01 2.759741544723510742e-01 2.829991281032562256e-01
4.940927028656005859e-04 -1.572864949703216553e-01 1.129642799496650696e-01
1.808711141347885132e-02 2.462737262248992920e-01 2.097216621041297913e-02
2.268500030040740967e-01 2.433082759380340576e-01 -2.172534465789794922e-01
2.370641380548477173e-01 3.247971534729003906e-01 -5.244691297411918640e-02
-1.972148567438125610e-02 2.143412530422210693e-01 1.393812745809555054e-01
9.459543228149414062e-02 2.620751261711120605e-01 -1.245620548725128174e-01
1.571676433086395264e-01 1.131397560238838196e-01 -2.798897325992584229e-01
-3.614787012338638306e-02 1.684707552194595337e-01 2.493066191673278809e-01
3.023896217346191406e-01 2.406852245330810547e-01 -5.972573533654212952e-02
-7.708034664392471313e-02 9.143576025962829590e-04 1.254260092973709106e-01
5.267597734928131104e-03 1.351802796125411987e-01 -1.049446463584899902e-01
1.855428963899612427e-01 -9.534531086683273315e-02 1.288777589797973633e-01
1.442364156246185303e-01 3.367099463939666748e-01 -1.378360018134117126e-02
2.394032031297683716e-01 3.194058835506439209e-01 7.901208102703094482e-02
2.312417030334472656e-01 -5.508554726839065552e-02 -1.471159607172012329e-01
2.046593725681304932e-01 2.062631398439407349e-01 2.748774886131286621e-01
-5.346869677305221558e-02 1.462466269731521606e-01 1.602653861045837402e-01
1.837022006511688232e-01 3.419746160507202148e-01 -2.105617895722389221e-02
2.522207498550415039e-01 3.541479259729385376e-02 1.549750119447708130e-01
1.657058596611022949e-01 -2.605354785919189453e-02 2.692929506301879883e-01
-9.081222116947174072e-03 3.624754026532173157e-02 -1.160296797752380371e-01
2.072155177593231201e-01 2.496751248836517334e-01 2.458091527223587036e-01
1.050195842981338501e-01 3.189491033554077148e-01 -1.266751065850257874e-02
6.048059836030006409e-02 -1.722715497016906738e-01 2.504578605294227600e-02
1.802190244197845459e-01 2.712747156620025635e-01 2.561917603015899658e-01
2.085768282413482666e-01 3.375560939311981201e-01 8.427566289901733398e-02
1.445686668157577515e-01 2.895256876945495605e-01 2.576972246170043945e-01
1.164506897330284119e-01 1.568109989166259766e-01 3.669390380382537842e-01
1.539740562438964844e-01 3.219417929649353027e-01 -7.805100083351135254e-02
3.909195959568023682e-02 -1.639929413795471191e-01 -1.473896205425262451e-03
9.568646550178527832e-03 2.543684840202331543e-01 1.696601808071136475e-01
-4.317946732044219971e-03 2.234709262847900391e-01 5.246986448764801025e-02
2.666324377059936523e-01 -4.483275115489959717e-03 -1.424975544214248657e-01
2.091175615787506104e-01 -9.366046637296676636e-02 -9.545733034610748291e-02
2.680657505989074707e-01 3.899431973695755005e-02 1.094444990158081055e-01
2.535483241081237793e-01 2.447985708713531494e-01 1.707032769918441772e-01
3.038029670715332031e-01 9.728945046663284302e-02 7.308233529329299927e-03
-3.327477723360061646e-02 -1.162055656313896179e-01 4.299990087747573853e-02
3.709182143211364746e-03 2.475913763046264648e-01 1.211113780736923218e-01
2.166615426540374756e-01 -7.248874753713607788e-02 8.757244050502777100e-02
3.087304532527923584e-01 1.106009855866432190e-01 -1.098450124263763428e-01
3.127114772796630859e-01 1.569577604532241821e-01 -1.022153049707412720e-01
1.775771975517272949e-01 -4.900368303060531616e-02 -2.269707620143890381e-01
1.459163278341293335e-01 -1.412440538406372070e-01 -7.516160607337951660e-02
6.865492463111877441e-02 4.302174970507621765e-02 -2.273450493812561035e-01
2.799187302589416504e-01 9.711038321256637573e-02 -2.159501016139984131e-01
6.503370404243469238e-02 -2.838888764381408691e-02 -2.083478271961212158e-01
1.476909965276718140e-01 2.656984031200408936e-01 2.857682406902313232e-01
3.043866157531738281e-01 1.934760957956314087e-01 3.572842478752136230e-02
1.232845038175582886e-01 3.351564407348632812e-01 1.340753138065338135e-01
-5.971365422010421753e-02 3.437362611293792725e-02 2.255081944167613983e-02
7.314078509807586670e-03 5.094730481505393982e-02 -1.446848064661026001e-01
1.798289418220520020e-01 -8.673477917909622192e-02 1.624773144721984863e-01
1.607028841972351074e-01 -1.404317915439605713e-01 -2.576431259512901306e-02
3.124753832817077637e-01 1.566980481147766113e-01 -1.816451922059059143e-02
-4.139924794435501099e-02 4.591142013669013977e-02 3.338297307491302490e-01
7.421279698610305786e-02 2.681598663330078125e-01 2.835363149642944336e-01
2.215487957000732422e-01 2.064485251903533936e-01 -2.481023967266082764e-01
2.208486795425415039e-01 -3.085920959711074829e-02 1.584843546152114868e-01
3.100216686725616455e-01 1.745424568653106689e-01 4.964664578437805176e-03
7.452392578125000000e-02 -1.697541773319244385e-01 1.027634739875793457e-01
7.048027217388153076e-02 3.101100921630859375e-01 1.488708406686782837e-01
1.210594922304153442e-02 8.739930391311645508e-02 -1.438329368829727173e-01
-6.594828516244888306e-02 9.247683733701705933e-02 2.333456873893737793e-01
2.108064591884613037e-01 1.520120799541473389e-01 2.792183458805084229e-01
1.065727323293685913e-01 -1.363685727119445801e-02 3.411408066749572754e-01
2.803302109241485596e-01 2.699329257011413574e-01 5.941633880138397217e-02
1.737963706254959106e-01 -1.050078496336936951e-01 -1.451221257448196411e-01
-5.576605349779129028e-02 -9.506509453058242798e-02 1.539305150508880615e-01
-2.783853560686111450e-02 1.537899971008300781e-01 3.008996248245239258e-01
2.341468185186386108e-01 7.571253180503845215e-02 2.249819636344909668e-01
1.714165806770324707e-01 -1.243852153420448303e-01 -9.004276990890502930e-02
2.970591783523559570e-01 5.120427906513214111e-02 -7.048186659812927246e-02
2.043770253658294678e-01 3.286457061767578125e-01 1.291248649358749390e-01
1.743458658456802368e-01 3.426401913166046143e-01 1.081641316413879395e-01
6.913459300994873047e-02 2.068801522254943848e-01 3.507186174392700195e-01
2.265884578227996826e-01 -4.087341576814651489e-02 1.256508082151412964e-01
3.020308017730712891e-01 1.084048971533775330e-01 3.253022208809852600e-02
2.720967233180999756e-01 2.541690170764923096e-01 -1.635991483926773071e-01
2.409082502126693726e-01 2.726102471351623535e-01 -1.755961924791336060e-01
2.183366715908050537e-01 1.205242201685905457e-01 2.665795981884002686e-01
1.411462426185607910e-01 -1.524065732955932617e-01 2.803539857268333435e-02
1.334328502416610718e-01 3.541320189833641052e-02 -2.712800800800323486e-01
1.307450085878372192e-01 3.221119940280914307e-01 -5.007688328623771667e-02
1.474799066781997681e-01 -9.303837269544601440e-02 2.129536569118499756e-01
-2.811891585588455200e-02 1.322078704833984375e-01 3.217950761318206787e-01
2.840487658977508545e-01 1.468881815671920776e-01 -2.142622470855712891e-01
1.121883839368820190e-01 2.354566454887390137e-01 3.273725211620330811e-01
2.646118700504302979e-01 2.148380279541015625e-01 1.649706214666366577e-01
2.855459749698638916e-01 2.275507152080535889e-02 -2.070192620158195496e-02
4.456730931997299194e-02 2.617451250553131104e-01 2.648002505302429199e-01
8.821718394756317139e-02 7.837740331888198853e-02 -2.437213063240051270e-01
1.388459950685501099e-01 -8.266708999872207642e-02 2.415104359388351440e-01
4.602141678333282471e-02 2.247291505336761475e-01 -9.549275040626525879e-02
-1.948776096105575562e-02 3.278971835970878601e-02 -9.463647007942199707e-02
-3.731220215559005737e-02 1.424923837184906006e-01 2.456915006041526794e-02
-1.897879689931869507e-02 1.989711672067642212e-01 2.489257007837295532e-01
2.594863176345825195e-01 2.001192271709442139e-01 -2.295437753200531006e-01
2.176018655300140381e-01 -1.318870484828948975e-02 1.895640045404434204e-01
2.162291109561920166e-01 3.019004762172698975e-01 1.718228608369827271e-01
5.583430454134941101e-02 2.588718533515930176e-01 -6.032467260956764221e-02
3.707684576511383057e-03 1.622115969657897949e-01 3.449955284595489502e-01
9.132663905620574951e-02 -1.702334284782409668e-01 1.751672849059104919e-02
4.811650514602661133e-02 2.904424071311950684e-01 1.788266748189926147e-01
1.761920452117919922e-01 2.550091147422790527e-01 2.755073904991149902e-01
-7.639718800783157349e-02 3.701617568731307983e-02 2.118869274854660034e-01
2.857189178466796875e-01 5.815638601779937744e-02 6.145521253347396851e-02
-1.328065246343612671e-02 6.191484630107879639e-03 -1.075166016817092896e-01
-1.505685597658157349e-02 1.525201499462127686e-01 -3.921980038285255432e-02
-2.548923343420028687e-02 3.680887445807456970e-02 3.552082479000091553e-01
1.433208882808685303e-01 -1.096052899956703186e-01 1.895905882120132446e-01
-1.998298615217208862e-02 1.079099178314208984e-01 3.497252762317657471e-01
-2.289385348558425903e-02 7.222767919301986694e-02 -7.724663615226745605e-02
2.590698748826980591e-02 1.499803662300109863e-01 -1.344217956066131592e-01
3.931120038032531738e-03 -1.408028900623321533e-01 -1.023567095398902893e-02
1.050318256020545959e-01 3.054862618446350098e-01 2.281839400529861450e-01
2.179898619651794434e-01 6.305370479822158813e-02 2.492377907037734985e-01
2.748793065547943115e-01 2.608187794685363770e-01 9.647922217845916748e-02
2.667620778083801270e-01 1.027236878871917725e-02 -1.714999079704284668e-01
2.928014099597930908e-02 2.781787142157554626e-02 3.838140666484832764e-01
7.031072676181793213e-02 1.525630354881286621e-01 -1.993497908115386963e-01
-2.769758552312850952e-02 -1.351439356803894043e-01 1.021194979548454285e-01
2.942676246166229248e-01 1.133095398545265198e-01 7.556000351905822754e-02
2.880408465862274170e-01 2.540922537446022034e-02 -5.427178367972373962e-02
-1.632381230592727661e-02 -1.917120814323425293e-02 -9.633164107799530029e-02
-6.099380552768707275e-03 1.878063082695007324e-01 -1.899847015738487244e-02
4.543534666299819946e-02 -8.730890601873397827e-02 3.071405887603759766e-01
-7.166532427072525024e-02 7.616856694221496582e-02 2.108754813671112061e-01
-1.119700819253921509e-02 -6.626994162797927856e-02 -8.304983377456665039e-02
-6.284131854772567749e-02 1.186778247356414795e-01 1.619181334972381592e-01
4.950378835201263428e-02 -1.048539504408836365e-01 2.839632332324981689e-01
-4.889801889657974243e-02 -2.812722325325012207e-02 2.994286715984344482e-01
5.661010742187500000e-03 1.802571117877960205e-01 -6.262677907943725586e-02
7.890725880861282349e-02 3.174262940883636475e-01 1.194526553153991699e-01
-6.413529068231582642e-02 1.132287085056304932e-02 3.808255493640899658e-02
1.410690248012542725e-01 -1.392143666744232178e-01 1.151108816266059875e-01
4.252141714096069336e-02 -6.925632804632186890e-02 -1.622619330883026123e-01
1.010247170925140381e-01 1.025637164711952209e-01 -2.502188384532928467e-01
1.703873872756958008e-01 3.341547250747680664e-01 1.490461230278015137e-01
6.324425339698791504e-04 -4.499991983175277710e-02 -1.180506497621536255e-01
-6.053017824888229370e-02 -1.774271577596664429e-02 2.787617966532707214e-02
3.140246570110321045e-01 1.534469127655029297e-01 -4.732606187462806702e-02
2.718200981616973877e-01 1.099990904331207275e-01 1.511833667755126953e-01
2.348886430263519287e-01 -6.150013953447341919e-02 -1.132209151983261108e-01
-4.217859357595443726e-02 1.121532022953033447e-01 6.036952137947082520e-03
6.393879652023315430e-03 9.451309591531753540e-02 3.785302937030792236e-01
1.313123852014541626e-01 -1.211923882365226746e-01 -1.447325050830841064e-01
7.405318319797515869e-03 -7.575448602437973022e-02 3.166253864765167236e-01
2.379874587059020996e-01 -6.528338044881820679e-02 -1.526770368218421936e-02
4.631623625755310059e-02 7.370069622993469238e-02 3.921402692794799805e-01
7.810193300247192383e-02 -1.303335428237915039e-01 2.281131297349929810e-01
5.014122277498245239e-02 -1.202850565314292908e-01 2.602504193782806396e-01
2.685025334358215332e-01 2.412786781787872314e-01 -1.853276640176773071e-01
1.913303732872009277e-01 -6.212433427572250366e-02 1.807657480239868164e-01
2.443480491638183594e-01 2.167223691940307617e-01 2.075780332088470459e-01
6.125820428133010864e-02 1.252089291810989380e-01 -2.020695507526397705e-01
9.286531060934066772e-02 2.365939319133758545e-01 -1.561859250068664551e-01
2.099017053842544556e-02 -1.355382800102233887e-01 2.312318980693817139e-01
1.922664344310760498e-01 3.174686133861541748e-01 1.745192408561706543e-01
1.559438556432723999e-01 -1.276320219039916992e-02 2.935644388198852539e-01
3.082570731639862061e-01 2.184998691082000732e-01 -3.806460276246070862e-02
6.312596797943115234e-02 1.734752357006072998e-01 3.709537684917449951e-01
1.214335709810256958e-01 -1.208947673439979553e-01 2.008346468210220337e-01
1.868797391653060913e-01 3.352990150451660156e-01 -5.384053662419319153e-02
9.289552271366119385e-02 -2.463462203741073608e-02 -2.316606342792510986e-01
1.290189921855926514e-01 -1.579599082469940186e-01 -6.534095853567123413e-03
5.471063405275344849e-02 -6.976147741079330444e-02 3.235547840595245361e-01
1.210402473807334900e-01 3.379111886024475098e-01 6.298108398914337158e-02
2.566790282726287842e-01 3.133959770202636719e-01 2.676427178084850311e-02
3.108407258987426758e-01 1.289288103580474854e-01 -1.772863790392875671e-02
-5.316749960184097290e-02 -3.678601980209350586e-02 8.642926812171936035e-03
2.213034033775329590e-01 -5.352931469678878784e-02 -1.744707077741622925e-01
4.208010435104370117e-02 2.685490846633911133e-01 -1.002941280603408813e-03
6.396897137165069580e-02 2.855336368083953857e-01 2.376888096332550049e-01
3.057976067066192627e-01 8.562929183244705200e-02 -4.592840746045112610e-02
-1.407629996538162231e-02 -1.150824204087257385e-01 -2.130823209881782532e-02
2.493731081485748291e-01 1.380914598703384399e-01 -2.600476741790771484e-01
-7.286756485700607300e-02 -4.230230301618576050e-02 1.321285068988800049e-01
-5.275578051805496216e-02 1.260833144187927246e-01 2.550605535507202148e-01
1.574536263942718506e-01 3.466710448265075684e-01 6.117175146937370300e-02
2.633836269378662109e-01 3.007061779499053955e-01 5.266978219151496887e-02
2.463437616825103760e-01 9.053913503885269165e-02 -2.613506913185119629e-01
2.922059595584869385e-01 1.488289684057235718e-01 9.673200547695159912e-02
1.189298257231712341e-01 3.274115324020385742e-01 1.695676296949386597e-01
2.138200700283050537e-01 -7.016579061746597290e-02 -1.557109504938125610e-01
1.306271702051162720e-01 1.958973109722137451e-01 -2.307474017143249512e-01
-4.557577520608901978e-02 -6.462671607732772827e-02 2.727191746234893799e-01
9.537220001220703125e-02 2.197676599025726318e-01 3.424146175384521484e-01
1.178381443023681641e-01 5.015604197978973389e-02 3.630837798118591309e-01
1.828651130199432373e-01 2.205255627632141113e-01 -2.382971048355102539e-01
2.511051595211029053e-01 5.486854538321495056e-02 1.744977831840515137e-01
2.339882850646972656e-01 -5.472450703382492065e-02 6.595009565353393555e-02
2.316397130489349365e-01 2.694687619805335999e-02 -2.498050034046173096e-01
