-2.017378248274326324e-02 -4.054137319326400757e-02 -1.770554110407829285e-03
1.307759247720241547e-02 4.935123026371002197e-03 -1.075879558920860291e-01
2.132922969758510590e-02 -1.586466096341609955e-02 -8.967449516057968140e-02
3.511523455381393433e-02 -1.208352483808994293e-02 6.642197072505950928e-02
-3.828084468841552734e-02 7.514822483062744141e-02 2.528148889541625977e-02
-3.856192342936992645e-03 5.759477615356445312e-03 -1.246396079659461975e-01
1.548227202147245407e-02 9.733629971742630005e-02 -1.236191112548112869e-02
2.130724303424358368e-02 8.784913271665573120e-02 3.729723766446113586e-02
3.340538218617439270e-02 2.962218225002288818e-02 4.685589298605918884e-02
-7.377702742815017700e-03 7.293117046356201172e-02 1.318239420652389526e-01
-2.216626517474651337e-02 7.650988176465034485e-03 7.971166074275970459e-02
1.642281305976212025e-03 1.042506694793701172e-01 1.131116822361946106e-01
-2.239014022052288055e-02 -2.718810550868511200e-02 -6.400042772293090820e-02
-2.821152843534946442e-02 -9.671131148934364319e-03 1.068025082349777222e-02
3.575989603996276855e-02 -4.774509370326995850e-02 9.452505037188529968e-04
3.397180140018463135e-02 -1.600602827966213226e-02 -3.028374537825584412e-02
-3.421885147690773010e-02 1.277578920125961304e-01 9.006636217236518860e-03
2.528778463602066040e-02 7.265733182430267334e-02 2.303492277860641479e-02
8.375286124646663666e-03 -8.011057227849960327e-02 -6.222214549779891968e-02
-3.724723309278488159e-02 9.888360649347305298e-02 -3.964319080114364624e-02
-3.842794522643089294e-02 9.850011765956878662e-02 -2.569402009248733521e-02
-1.443323213607072830e-02 3.820958733558654785e-02 -1.210997328162193298e-01
-1.102823764085769653e-02 2.681218832731246948e-02 1.231260225176811218e-01
3.625214844942092896e-02 5.264395847916603088e-03 2.969282120466232300e-02
2.269665151834487915e-02 4.570335894823074341e-02 1.110100373625755310e-01
-1.600262708961963654e-02 -3.391053527593612671e-02 -8.676374703645706177e-02
-3.227592632174491882e-02 2.429281361401081085e-02 3.894849866628646851e-02
-8.842268958687782288e-03 -6.602696329355239868e-02 1.011908426880836487e-02
1.043084356933832169e-02 -8.532861620187759399e-02 3.134675323963165283e-02
-2.667099609971046448e-02 1.382969766855239868e-01 -2.252096310257911682e-02
-8.525726385414600372e-03 -6.931741535663604736e-02 -1.373116951435804367e-02
-3.206893056631088257e-02 9.357379749417304993e-03 1.320467330515384674e-02
-1.580713503062725067e-02 5.156690999865531921e-02 1.207055076956748962e-01
2.293507196009159088e-02 -1.327089779078960419e-02 1.149913743138313293e-01
-2.757167629897594452e-02 -1.566069386899471283e-02 -5.169475451111793518e-03
-9.277764707803726196e-03 1.453332751989364624e-01 3.991860523819923401e-02
3.649141639471054077e-02 -4.199915379285812378e-02 8.654169738292694092e-03
-3.724797070026397705e-02 1.127668917179107666e-01 -1.208986807614564896e-02
2.018268033862113953e-02 4.709098488092422485e-02 -6.613928824663162231e-02
2.811838313937187195e-02 -4.534077644348144531e-02 -6.050033867359161377e-02
2.373371832072734833e-02 7.926913350820541382e-02 3.817935287952423096e-02
1.555559504777193069e-02 -2.402538247406482697e-02 1.180673241615295410e-01
-2.279191394336521626e-04 -3.721004351973533630e-03 -1.228555366396903992e-01
-2.569716796278953552e-02 -1.264342851936817169e-02 3.061685338616371155e-02
-2.328685298562049866e-02 -2.990485914051532745e-02 3.250593086704611778e-03
-3.041566908359527588e-02 1.252471953630447388e-01 5.456623435020446777e-02
-2.511625736951828003e-02 -1.751069910824298859e-02 -6.369352340698242188e-02
-2.487914822995662689e-02 7.132007181644439697e-02 9.996770322322845459e-02
1.559588406234979630e-02 1.037082448601722717e-01 1.615365967154502869e-02
4.161102697253227234e-03 6.794764101505279541e-02 -9.621033817529678345e-02
3.039797581732273102e-02 -2.422701381146907806e-02 -5.448208749294281006e-02
-7.142248097807168961e-03 1.627150550484657288e-02 1.253563910722732544e-01
-1.462948508560657501e-02 -5.580996721982955933e-02 -5.904681980609893799e-03
-3.764019161462783813e-02 4.790171235799789429e-02 1.043651625514030457e-02
-3.792424499988555908e-02 5.806757509708404541e-02 -4.489678889513015747e-02
-1.865537464618682861e-02 2.588263154029846191e-02 1.050018444657325745e-01
5.579813383519649506e-03 5.728139728307723999e-02 -1.010478064417839050e-01
7.941975258290767670e-03 1.113651096820831299e-01 -2.551264688372612000e-02
-1.966660656034946442e-02 1.413656175136566162e-01 6.088536977767944336e-02
-9.047797648236155510e-04 1.343800127506256104e-01 -8.325828239321708679e-04
2.760741487145423889e-02 -3.709115087985992432e-02 9.253437072038650513e-02
-1.084237731993198395e-02 -1.498013734817504883e-03 1.080757752060890198e-01
3.144754469394683838e-02 4.383913800120353699e-02 3.699457272887229919e-02
-3.445132449269294739e-02 9.993485361337661743e-02 -5.739901959896087646e-02
3.144570812582969666e-02 -6.734447926282882690e-02 3.764750808477401733e-02
-2.417477965354919434e-02 1.455736309289932251e-01 2.854525297880172729e-02
-3.289397433400154114e-02 6.621210277080535889e-02 -8.055236935615539551e-02
1.551381032913923264e-02 1.051906645298004150e-01 3.727423027157783508e-02
-3.591567650437355042e-02 8.447338640689849854e-02 -6.006614118814468384e-02
-4.884171299636363983e-03 1.262883692979812622e-01 -4.164237156510353088e-02
1.308635692112147808e-03 1.334143429994583130e-01 1.409965008497238159e-02
1.036284770816564560e-02 6.397992372512817383e-02 -8.489300310611724854e-02
-3.376892581582069397e-02 1.757218874990940094e-02 9.233443066477775574e-03
-3.943144530057907104e-02 7.763348519802093506e-02 5.625268910080194473e-03
-6.631931290030479431e-03 8.428095281124114990e-02 -9.904289990663528442e-02
-2.041495963931083679e-02 -1.002267561852931976e-02 -9.771101921796798706e-02
2.288520522415637970e-02 4.783921688795089722e-02 -5.276973545551300049e-02
-2.974705584347248077e-02 -9.228810667991638184e-04 1.673106476664543152e-02
1.046221237629652023e-02 9.680805355310440063e-02 1.031938344240188599e-01
-3.811958804726600647e-02 4.631654918193817139e-02 -2.306257188320159912e-02
1.662806794047355652e-02 4.843604564666748047e-02 1.261180937290191650e-01
-1.637928746640682220e-02 -4.889647662639617920e-02 1.024372410029172897e-02
-3.331278637051582336e-02 1.287488043308258057e-01 2.380205318331718445e-02
2.329355105757713318e-02 -4.006881266832351685e-02 -8.006884157657623291e-02
-5.781971849501132965e-03 1.360150873661041260e-01 -1.885940507054328918e-02
1.643895544111728668e-02 9.702648967504501343e-02 7.253591716289520264e-02
-2.561343461275100708e-02 -2.354742772877216339e-02 -8.462440222501754761e-03
-1.321103144437074661e-02 6.466178596019744873e-02 1.262131035327911377e-01
-2.445687539875507355e-02 4.434620961546897888e-03 6.568307429552078247e-02
2.952571958303451538e-02 2.901168540120124817e-03 9.917796403169631958e-02
3.484842926263809204e-02 -5.631707608699798584e-04 -1.399916503578424454e-02
3.403307404369115829e-03 1.038667485117912292e-01 -5.852664262056350708e-02
1.751106791198253632e-02 9.681409597396850586e-02 7.397644687443971634e-03
-2.482522092759609222e-02 8.485919237136840820e-02 9.944745153188705444e-02
3.033538721501827240e-02 -5.470179021358489990e-02 6.688228249549865723e-02
2.207130379974842072e-02 8.463124930858612061e-02 4.767831414937973022e-02
9.579861536622047424e-03 1.146251410245895386e-01 6.984212249517440796e-02
4.117319360375404358e-03 -4.808108508586883545e-02 9.239399433135986328e-02
1.831779838539659977e-03 -8.345070481300354004e-02 4.092166200280189514e-03
-3.645063564181327820e-02 3.056442923843860626e-02 -1.463222224265336990e-02
2.380958013236522675e-02 -8.435552567243576050e-02 2.749209478497505188e-02
3.575279563665390015e-02 -4.977098852396011353e-02 2.638773992657661438e-02
-1.314277853816747665e-02 -2.934955246746540070e-02 -1.006355360150337219e-01
-1.359668746590614319e-02 1.003591194748878479e-01 1.163387745618820190e-01
-2.829572744667530060e-02 1.077796965837478638e-01 -7.096388936042785645e-02
2.559986710548400879e-02 -1.381704770028591156e-02 -7.534485310316085815e-02
-1.332965563051402569e-03 -3.825493901968002319e-02 9.475476294755935669e-02
-1.960679143667221069e-02 7.480737566947937012e-02 1.139009296894073486e-01
6.563992239534854889e-03 6.607990711927413940e-03 -1.177533417940139771e-01
1.255320478230714798e-02 6.815602630376815796e-02 -7.434388250112533569e-02
-3.173124045133590698e-02 1.089649125933647156e-01 6.471216678619384766e-02
-6.473050918430089951e-03 1.059129387140274048e-01 1.165867447853088379e-01
-3.923152759671211243e-02 6.175078451633453369e-02 -7.200645282864570618e-03
2.157412655651569366e-02 1.481325086206197739e-02 -8.211431652307510376e-02
2.202440798282623291e-02 3.241514042019844055e-02 1.188509762287139893e-01
3.378067165613174438e-02 8.169542998075485229e-03 -1.765279099345207214e-02
-1.175192650407552719e-02 1.517800986766815186e-02 1.164828240871429443e-01
-3.489064797759056091e-02 7.803781330585479736e-02 -6.844546645879745483e-02
-3.967600315809249878e-02 7.617868483066558838e-02 -1.410778332501649857e-02
-3.321878984570503235e-02 9.534066542983055115e-03 -1.813933625817298889e-02
3.722810745239257812e-02 -2.390310354530811310e-02 3.242541104555130005e-02
-2.450709976255893707e-02 1.830526441335678101e-02 7.908145338296890259e-02
-3.552113473415374756e-02 1.227027997374534607e-01 -2.463431097567081451e-03
3.109992854297161102e-02 -4.552550613880157471e-02 -4.547794908285140991e-02
6.826889235526323318e-03 -8.593458682298660278e-02 1.874388381838798523e-02
-2.910172753036022186e-02 6.382863968610763550e-03 -7.350275665521621704e-02
-3.217164054512977600e-02 5.434310063719749451e-02 -8.412425220012664795e-02
-1.134155504405498505e-02 -6.145538389682769775e-02 -4.573386907577514648e-02
3.680964931845664978e-02 -8.610600605607032776e-03 4.118346050381660461e-02
1.460736710578203201e-02 1.067578345537185669e-01 4.991874843835830688e-02
1.567466929554939270e-02 5.571813136339187622e-02 -7.563603669404983521e-02
1.417218334972858429e-02 8.535901084542274475e-03 1.318480968475341797e-01
-2.801424264907836914e-02 -3.014696761965751648e-03 3.047812357544898987e-02
-2.647070772945880890e-02 5.551046878099441528e-02 -1.022133305668830872e-01
-9.591995738446712494e-03 -5.045037716627120972e-02 5.224744230508804321e-02
1.777684874832630157e-02 -3.058457933366298676e-02 -9.690771251916885376e-02
1.917081512510776520e-02 -9.058922529220581055e-02 -1.530506182461977005e-02
-9.204366244375705719e-03 1.459321379661560059e-01 2.645786479115486145e-02
-2.435293048620223999e-02 1.137608736753463745e-01 8.867967128753662109e-02
2.628703787922859192e-02 1.000184006989002228e-02 -6.553136557340621948e-02
2.628719806671142578e-02 -6.338480114936828613e-02 -5.500974133610725403e-02
4.871367709711194038e-04 7.838910073041915894e-02 -9.447708725929260254e-02
-2.666452713310718536e-02 2.377387695014476776e-02 -9.781468659639358521e-02
2.841033414006233215e-02 2.706551924347877502e-02 -4.224093630909919739e-02
2.963725291192531586e-02 3.690761327743530273e-02 -2.120296284556388855e-02
8.518216200172901154e-03 -1.167783327400684357e-02 -1.152297258377075195e-01
5.901465192437171936e-05 3.666247054934501648e-02 1.379254162311553955e-01
3.705545514822006226e-02 -8.344156667590141296e-03 2.574561908841133118e-02
-4.181514028459787369e-03 -7.453756779432296753e-02 8.799426257610321045e-03
2.923985756933689117e-02 5.423929542303085327e-02 5.078594386577606201e-02
-3.625369444489479065e-02 3.297088667750358582e-02 4.978699609637260437e-03
-7.654636166989803314e-03 -6.129493564367294312e-02 3.601240366697311401e-02
1.408153958618640900e-02 9.584394842386245728e-02 -2.636820077896118164e-02
-3.171376883983612061e-02 1.300889849662780762e-01 -2.282993122935295105e-02
-8.538136258721351624e-03 -1.678559370338916779e-02 1.009941920638084412e-01
2.328709699213504791e-02 1.952225342392921448e-03 -8.072147518396377563e-02
-1.217819843441247940e-02 1.284033358097076416e-01 9.176822751760482788e-02
2.959737367928028107e-02 -5.428577214479446411e-02 -4.803629219532012939e-02
-7.243911270052194595e-03 1.188435852527618408e-01 -6.038431078195571899e-02
-3.376309573650360107e-02 2.773364260792732239e-02 2.994034066796302795e-02
-2.933967672288417816e-02 -5.580069497227668762e-03 -4.820086434483528137e-02
-2.470007911324501038e-02 1.111065037548542023e-02 7.162787765264511108e-02
3.025542944669723511e-03 -8.577107638120651245e-02 -1.948666572570800781e-02
-1.348528917878866196e-02 -2.853761054575443268e-02 7.289420813322067261e-02
3.332871571183204651e-02 -1.150290854275226593e-02 7.984770834445953369e-02
3.087848983705043793e-02 -3.917622566223144531e-02 8.003665506839752197e-02
-1.550863310694694519e-02 -8.154345676302909851e-03 8.945127576589584351e-02
3.499478846788406372e-02 -3.303804248571395874e-02 6.052184477448463440e-02
-2.318521775305271149e-02 9.846310317516326904e-02 -8.774952590465545654e-02
1.730218715965747833e-02 8.575382828712463379e-02 9.199851006269454956e-02
3.132868185639381409e-02 3.695175051689147949e-03 9.061826020479202271e-02
-3.548007085919380188e-02 9.627609699964523315e-02 4.913910850882530212e-02
3.247369453310966492e-02 -6.871348619461059570e-02 6.509525701403617859e-03
3.330108895897865295e-02 -5.119949579238891602e-02 -2.611022070050239563e-02
-1.511024776846170425e-02 -4.753176122903823853e-02 2.728427574038505554e-02
1.848783902823925018e-02 9.645187854766845703e-02 2.589997276663780212e-02
-2.466725558042526245e-02 -3.558510914444923401e-03 -8.712913841009140015e-02
-2.492312714457511902e-02 4.800702631473541260e-02 9.495059400796890259e-02
-2.486362121999263763e-03 1.346377432346343994e-01 6.652504205703735352e-02
-2.056005410850048065e-02 -2.812516130506992340e-02 3.702929243445396423e-02
-1.890265382826328278e-02 1.307257860898971558e-01 8.253716677427291870e-02
-3.844598308205604553e-02 5.171538144350051880e-02 -1.343927346169948578e-03
3.247446566820144653e-02 -1.686811260879039764e-02 -4.154032841324806213e-02
-1.186660490930080414e-02 1.262566447257995605e-01 -5.453838035464286804e-02
3.522224351763725281e-02 -2.833551354706287384e-02 -2.006917446851730347e-02
3.483476489782333374e-02 5.873136222362518311e-03 6.307595968246459961e-02
-3.343812003731727600e-02 1.285253018140792847e-01 -1.214414369314908981e-02
-3.883206844329833984e-02 5.484699457883834839e-02 -1.901017129421234131e-02
2.755813486874103546e-02 5.556714162230491638e-02 -6.383779458701610565e-03
9.455762803554534912e-03 3.862689435482025146e-02 -1.039789170026779175e-01
-3.138508647680282593e-02 -1.677498221397399902e-05 -1.865744963288307190e-02
2.381781488656997681e-02 3.686163574457168579e-02 -5.885620415210723877e-02
1.135647576302289963e-02 -9.021857380867004395e-02 9.338773787021636963e-03
7.454638835042715073e-03 2.189061790704727173e-02 -1.138564422726631165e-01
-3.212073817849159241e-02 1.230591014027595520e-01 -3.754811361432075500e-02
-8.874726481735706329e-03 1.021878272294998169e-01 -8.445259928703308105e-02
-1.760014146566390991e-02 -1.320425234735012054e-02 7.639153301715850830e-02
2.023182064294815063e-02 7.561507821083068848e-02 -2.819431200623512268e-02
-1.037723105400800705e-02 1.412824448198080063e-02 -1.239109858870506287e-01
2.943264693021774292e-02 -6.786704063415527344e-02 -3.339406475424766541e-02
2.749144285917282104e-02 4.788228869438171387e-02 -2.257885038852691650e-02
1.168570667505264282e-02 1.038338840007781982e-01 -2.232265844941139221e-02
-1.162102818489074707e-02 -4.609840363264083862e-02 -8.419322222471237183e-02
2.803689427673816681e-02 -6.470107287168502808e-02 -4.572097584605216980e-02
2.509489282965660095e-02 3.141966089606285095e-02 1.095616668462753296e-01
-3.058692067861557007e-02 6.443822383880615234e-02 -8.946795016527175903e-02
3.526757657527923584e-02 6.455672904849052429e-03 -6.089443340897560120e-04
3.290284052491188049e-02 2.280121296644210815e-02 -8.888420648872852325e-03
3.457387164235115051e-02 -5.902058631181716919e-02 1.426149159669876099e-02
7.421205285936594009e-03 1.059695184230804443e-01 -4.012888669967651367e-02
2.891405858099460602e-02 4.750173538923263550e-02 7.398211210966110229e-02
2.531924471259117126e-02 6.573299318552017212e-02 -5.963018164038658142e-03
-5.461380351334810257e-03 -7.706267759203910828e-03 1.145926192402839661e-01
2.335420250892639160e-02 -3.073395974934101105e-02 1.058933064341545105e-01
2.785579673945903778e-02 -3.100537322461605072e-02 -6.597152352333068848e-02
1.183550804853439331e-02 1.142283752560615540e-01 4.120756313204765320e-02
-6.035272963345050812e-03 1.088136434555053711e-01 -7.294884324073791504e-02
-2.200426906347274780e-02 3.263631090521812439e-02 -1.119385287165641785e-01
-5.265880841761827469e-03 -6.022763997316360474e-02 4.986431822180747986e-02
3.368193283677101135e-02 1.333334576338529587e-02 6.984051316976547241e-02
-1.508455630391836166e-02 -5.482374131679534912e-02 -3.407544270157814026e-02
1.944766030646860600e-03 -2.368250675499439240e-02 1.134953573346138000e-01
3.237492218613624573e-02 3.815928846597671509e-02 2.846464514732360840e-02
-1.567494869232177734e-02 -3.421688824892044067e-02 5.434392765164375305e-02
-3.789719566702842712e-02 1.049471497535705566e-01 1.701836287975311279e-02
3.597168624401092529e-02 -2.190279774367809296e-02 5.653272196650505066e-02
-3.245865553617477417e-02 2.006050944328308105e-02 -6.493009626865386963e-02
-2.985883876681327820e-02 1.316269487142562866e-01 4.617146402597427368e-02
1.422337815165519714e-02 1.055229306221008301e-01 6.315766274929046631e-02
-3.158251941204071045e-02 4.888645559549331665e-02 6.565025448799133301e-02
-3.770567476749420166e-02 4.560230299830436707e-02 -3.486992046236991882e-02
1.306627225130796432e-02 8.623993396759033203e-02 -4.966367408633232117e-02
-5.733690690249204636e-03 -7.019024342298507690e-02 1.767192035913467407e-02
-3.138707578182220459e-02 6.187687069177627563e-02 7.238762080669403076e-02
3.344994038343429565e-02 -5.733537673950195312e-02 -1.693017408251762390e-02
-1.474690344184637070e-02 -5.201186984777450562e-02 -5.419268831610679626e-02
3.102023340761661530e-02 4.487670958042144775e-02 4.893048852682113647e-02
3.558029979467391968e-02 1.127335056662559509e-02 4.182143881916999817e-02
-2.228840626776218414e-02 1.018373295664787292e-01 1.009693816304206848e-01
2.906206808984279633e-02 5.650768429040908813e-02 3.954712674021720886e-02
1.739751361310482025e-02 7.283863425254821777e-02 -4.923193901777267456e-02
-2.676554210484027863e-02 9.821448475122451782e-02 9.001693129539489746e-02
3.227385506033897400e-02 -3.135351836681365967e-02 -4.310872405767440796e-02
-2.920335903763771057e-02 1.400704234838485718e-01 1.445688959211111069e-02
3.677755966782569885e-02 -3.086429648101329803e-02 2.509803976863622665e-03
2.522985450923442841e-02 4.427849873900413513e-02 1.017029732465744019e-01
1.353062875568866730e-02 6.664372235536575317e-02 1.235395297408103943e-01
-2.833005227148532867e-02 1.895114034414291382e-02 6.031644716858863831e-02
1.858054660260677338e-02 1.067779771983623505e-02 -9.309523552656173706e-02
-3.437276557087898254e-02 7.715584337711334229e-02 5.895067751407623291e-02
-2.982326596975326538e-02 1.370411366224288940e-01 -1.024082582443952560e-02
2.815291471779346466e-02 4.559691995382308960e-02 8.334734290838241577e-02
-2.002629637718200684e-02 6.589282304048538208e-02 1.130055189132690430e-01
2.547124959528446198e-02 4.429899901151657104e-02 -4.218596592545509338e-02
3.899805713444948196e-03 -2.618277631700038910e-02 -1.156910434365272522e-01
-8.693266659975051880e-03 -5.677612498402595520e-03 -1.210051998496055603e-01
1.727963611483573914e-02 -7.807176560163497925e-02 -6.081363558769226074e-02
-2.079610899090766907e-02 -6.815878674387931824e-03 7.027543336153030396e-02
1.167462859302759171e-02 1.128453612327575684e-01 5.731019377708435059e-02
2.468449622392654419e-02 5.857315659523010254e-02 -2.705801650881767273e-02
1.144679635763168335e-02 1.040618121623992920e-01 8.715491741895675659e-02
-3.406260535120964050e-02 1.031853780150413513e-01 5.531800165772438049e-02
-2.748638391494750977e-02 8.044678717851638794e-02 9.125524759292602539e-02
-3.417674079537391663e-02 5.615921318531036377e-02 5.352294445037841797e-02
-2.304317988455295563e-02 5.752339214086532593e-02 1.038221344351768494e-01
-1.353093050420284271e-02 -5.392231047153472900e-02 1.884877867996692657e-02
-3.267518430948257446e-02 9.389849379658699036e-03 -4.139351472258567810e-02
-2.342827431857585907e-02 1.312080323696136475e-01 7.249859720468521118e-02
-2.709147520363330841e-02 4.187539219856262207e-02 8.381024748086929321e-02
-3.843095153570175171e-02 6.237647682428359985e-02 1.572623662650585175e-02
-1.866245409473776817e-03 1.259918063879013062e-01 -3.317569196224212646e-02
3.250661771744489670e-03 1.312692165374755859e-01 2.785042673349380493e-02
1.023622695356607437e-02 1.170598119497299194e-01 1.735099032521247864e-02
1.776756532490253448e-02 -2.018781900405883789e-01 7.528468966484069824e-02
1.437694579362869263e-02 -2.325548529624938965e-01 -5.373615771532058716e-03
5.207954673096537590e-04 -5.054070055484771729e-02 -2.074946612119674683e-01
2.218231931328773499e-02 -4.408793896436691284e-02 4.624642059206962585e-02
-3.031759150326251984e-02 -1.809153854846954346e-01 -1.005630195140838623e-01
2.679219096899032593e-02 -1.479621529579162598e-01 -9.734950214624404907e-02
-2.960455976426601410e-02 -1.849497705698013306e-01 -7.769419997930526733e-02
-1.219063531607389450e-02 -1.783314347267150879e-01 -2.329408079385757446e-01
-2.641605772078037262e-02 -1.240255162119865417e-01 -2.162988036870956421e-01
2.457440830767154694e-02 -1.481927633285522461e-01 -1.229060441255569458e-01
-3.193135932087898254e-02 -6.829392910003662109e-02 -8.772461116313934326e-02
2.288868837058544159e-02 -1.417035758495330811e-01 1.113661974668502808e-01
1.545891864225268364e-04 -2.004784047603607178e-01 1.033842563629150391e-01
-3.870915155857801437e-03 -1.692089438438415527e-01 -2.383435070514678955e-01
-3.001580946147441864e-02 -6.802476197481155396e-02 -1.519695669412612915e-01
-3.092279098927974701e-02 -1.655282378196716309e-01 -4.291199147701263428e-02
2.175476029515266418e-02 -5.314443260431289673e-02 7.302078604698181152e-02
-1.107162144035100937e-02 -2.187668681144714355e-01 -1.823037564754486084e-01
-3.429593890905380249e-02 -1.317586451768875122e-01 -1.001529768109321594e-01
2.014070563018321991e-02 -4.180355370044708252e-02 6.312613189220428467e-02
-3.295405581593513489e-02 -7.988169044256210327e-02 -8.136051148176193237e-02
2.352796029299497604e-03 6.006762385368347168e-03 -2.708110027015209198e-02
-2.203034982085227966e-02 -2.812128514051437378e-02 -7.227417081594467163e-03
5.031765438616275787e-03 -8.581978082656860352e-02 -2.234876900911331177e-01
1.502262614667415619e-02 -1.494426727294921875e-01 -1.911288052797317505e-01
-1.833817176520824432e-02 -2.227025777101516724e-01 -1.852166280150413513e-02
-2.237469889223575592e-02 -5.213686078786849976e-02 3.753799572587013245e-02
1.305863074958324432e-02 -1.274943947792053223e-01 -2.044285088777542114e-01
-2.284771203994750977e-02 -1.477664411067962646e-01 6.210861727595329285e-02
1.595376431941986084e-02 -2.186099439859390259e-02 -7.814712077379226685e-02
2.852439507842063904e-02 -1.455569416284561157e-01 5.852903798222541809e-02
1.876629516482353210e-02 -2.130106389522552490e-01 4.071603342890739441e-02
-2.754084020853042603e-02 -1.120131313800811768e-01 3.399566188454627991e-02
-1.710997149348258972e-02 -6.554271280765533447e-02 -2.233660817146301270e-01
-2.919951453804969788e-02 -1.048825979232788086e-01 -1.953732520341873169e-01
2.869346179068088531e-02 -1.151254102587699890e-01 -7.456547021865844727e-02
-5.921733099967241287e-05 -2.490590363740921021e-01 -4.280944541096687317e-02
2.240258641541004181e-02 -1.080862730741500854e-01 -1.445100605487823486e-01
3.041071444749832153e-02 -1.290690004825592041e-01 2.879499271512031555e-02
-2.543847635388374329e-02 -5.438353121280670166e-02 1.289649680256843567e-02
-5.070535466074943542e-03 -1.002369821071624756e-02 -1.477025300264358521e-01
-3.142742440104484558e-02 -1.477821171283721924e-01 -2.516401931643486023e-02
2.219167910516262054e-02 -2.012114226818084717e-01 -7.858644425868988037e-02
-2.985340729355812073e-02 -8.005610108375549316e-02 -6.398115307092666626e-03
1.117615215480327606e-02 -2.289015352725982666e-01 -1.134358346462249756e-01
1.757683046162128448e-02 -8.355993032455444336e-02 1.277787834405899048e-01
1.379140652716159821e-02 -5.892884731292724609e-02 1.199527531862258911e-01
-2.974030189216136932e-02 -6.034912541508674622e-02 -3.701021522283554077e-02
2.313376404345035553e-02 -6.567197293043136597e-02 -1.025002822279930115e-01
-1.675378158688545227e-02 -6.468817591667175293e-02 8.524104952812194824e-02
3.067818004637956619e-03 -8.092498034238815308e-02 1.445786356925964355e-01
-2.208358421921730042e-02 -2.062863111495971680e-02 -1.082192063331604004e-01
-2.978496998548507690e-02 -1.625855863094329834e-01 -1.695936173200607300e-01
-2.105281874537467957e-02 -1.483027935028076172e-01 7.343047857284545898e-02
1.690336689352989197e-02 -2.105244994163513184e-01 -1.165548563003540039e-01
-3.062677569687366486e-02 -1.683432161808013916e-01 -1.473369598388671875e-01
2.939012832939624786e-02 -1.496886163949966431e-01 3.736491873860359192e-02
-2.641701698303222656e-02 -3.510041534900665283e-02 -6.108087301254272461e-02
2.717480622231960297e-02 -1.573783308267593384e-01 -8.438857644796371460e-02
-2.299379929900169373e-02 -6.381849944591522217e-02 4.623335227370262146e-02
2.046354860067367554e-02 -1.702554374933242798e-01 -1.449522674083709717e-01
-3.107623197138309479e-02 -8.840423822402954102e-02 -1.665335446596145630e-01
-1.781345531344413757e-02 -2.525290101766586304e-02 2.497506514191627502e-02
2.760199829936027527e-02 -1.795466691255569458e-01 -1.014980673789978027e-02
2.077904902398586273e-02 -3.013525903224945068e-02 -9.838443249464035034e-03
-2.760323509573936462e-02 -1.970016062259674072e-01 -1.033073514699935913e-01
2.198219858109951019e-02 -2.086930274963378906e-01 1.167603954672813416e-02
2.656585723161697388e-02 -6.849442422389984131e-02 -5.501035228371620178e-02
-2.726399153470993042e-02 -8.812657743692398071e-02 -2.006220370531082153e-01
-2.138819545507431030e-02 -3.104144334793090820e-02 -1.560082733631134033e-01
1.850909739732742310e-02 -9.033501148223876953e-02 -1.651222258806228638e-01
1.022828463464975357e-02 -1.893608868122100830e-01 -1.878048181533813477e-01
-2.890849485993385315e-02 -1.544207930564880371e-01 -1.873087882995605469e-01
-2.270905114710330963e-02 -2.163023054599761963e-01 -6.083077937364578247e-02
-1.879850961267948151e-02 -2.118705958127975464e-01 1.061651483178138733e-02
2.011441998183727264e-02 -1.996273100376129150e-01 6.473076343536376953e-02
1.920682564377784729e-02 -2.105132937431335449e-01 -9.251049160957336426e-02
-9.196157567203044891e-03 -8.702038228511810303e-02 1.265673339366912842e-01
-1.268929988145828247e-02 6.149783730506896973e-04 -3.988626599311828613e-02
-3.139948844909667969e-02 -1.659472286701202393e-01 -5.581175908446311951e-02
2.028581313788890839e-02 -1.861622035503387451e-01 -1.294291764497756958e-01
-2.624920569360256195e-02 -1.570625454187393188e-01 -2.051357775926589966e-01
1.546920859254896641e-03 -2.191125005483627319e-01 -1.767375320196151733e-01
-3.109433129429817200e-02 -1.257595866918563843e-01 -1.804057061672210693e-01
2.331921458244323730e-02 -8.811284601688385010e-02 -1.256150007247924805e-01
-1.593522168695926666e-02 -1.017567068338394165e-01 1.063153445720672607e-01
2.485580556094646454e-02 -1.166758313775062561e-01 -1.244371533393859863e-01
1.160474866628646851e-02 -8.758936822414398193e-02 -2.008233070373535156e-01
2.723484300076961517e-02 -1.195478588342666626e-01 8.308686316013336182e-02
-2.855787426233291626e-02 -1.293249577283859253e-01 -2.022308409214019775e-01
3.695803228765726089e-03 -1.545006185770034790e-01 -2.318833321332931519e-01
-2.778148092329502106e-02 -4.355541616678237915e-02 -5.071355029940605164e-02
-2.213141880929470062e-02 -2.681590616703033447e-02 -1.370326578617095947e-01
-3.705140901729464531e-03 -1.115979999303817749e-01 -2.492479234933853149e-01
2.183529920876026154e-02 -2.071122080087661743e-01 2.336977049708366394e-02
-1.333072502166032791e-02 -5.662459880113601685e-02 9.383870661258697510e-02
1.013169810175895691e-02 -2.411513924598693848e-01 -5.357694253325462341e-02
-2.603231556713581085e-02 -2.048283964395523071e-01 -9.168815612792968750e-02
-2.992384880781173706e-02 -9.722217917442321777e-02 -1.856384724378585815e-01
-2.171087265014648438e-02 -2.249735593795776367e-02 -1.243681311607360840e-01
-3.207702562212944031e-02 -1.659834682941436768e-01 -8.639217913150787354e-02
-3.020195849239826202e-02 -1.340788900852203369e-01 2.215474843978881836e-03
2.499369159340858459e-02 -1.911833882331848145e-01 2.893714979290962219e-02
2.985915169119834900e-02 -1.018458157777786255e-01 -3.759139403700828552e-02
-2.448615431785583496e-02 -1.681047528982162476e-01 -2.064083069562911987e-01
2.718265168368816376e-02 -1.773769855499267578e-01 -4.857636243104934692e-02
-1.458702702075242996e-02 -3.983503580093383789e-02 6.970563530921936035e-02
-8.159250020980834961e-03 -1.089546084403991699e-02 4.283360764384269714e-02
9.637770242989063263e-03 -1.732506304979324341e-01 -2.035398036241531372e-01
-3.302710875868797302e-02 -1.031347885727882385e-01 -1.489190608263015747e-01
-2.359138056635856628e-02 -1.820106804370880127e-01 2.530452236533164978e-02
1.798796094954013824e-02 -1.487130522727966309e-01 -1.745578795671463013e-01
-2.359963953495025635e-02 -2.140598595142364502e-01 -1.022834926843643188e-01
-3.177362307906150818e-02 -8.047848939895629883e-02 -3.833832591772079468e-02
1.890516839921474457e-02 -1.731239557266235352e-01 1.093567013740539551e-01
1.678140088915824890e-02 -7.087745517492294312e-02 -1.618162244558334351e-01
-6.634188815951347351e-03 -1.630300581455230713e-01 1.247212588787078857e-01
3.015486150979995728e-02 -1.424593478441238403e-01 2.512319758534431458e-02
-3.360659256577491760e-02 -1.475340723991394043e-01 -1.002268791198730469e-01
-9.355654008686542511e-03 3.311149775981903076e-03 -2.452661842107772827e-02
-2.785769291222095490e-02 -1.004532799124717712e-01 2.881956472992897034e-02
-1.264045480638742447e-02 -8.132383227348327637e-04 -9.464867413043975830e-02
2.903150208294391632e-02 -8.777209371328353882e-02 -3.768821060657501221e-02
-1.300645247101783752e-02 -2.369367182254791260e-01 -2.808809466660022736e-02
1.038030814379453659e-02 -1.127153933048248291e-01 -2.145818322896957397e-01
2.325693517923355103e-02 -4.234222322702407837e-02 -3.363120928406715393e-02
-1.655137538909912109e-02 -2.334357798099517822e-01 -9.721666574478149414e-02
2.017370425164699554e-02 -3.154089301824569702e-02 2.744818851351737976e-02
7.229272741824388504e-03 -9.386113286018371582e-02 1.497524380683898926e-01
9.607014246284961700e-03 -2.094940543174743652e-01 -1.651337295770645142e-01
1.523611322045326233e-02 -2.281272113323211670e-01 -7.537060976028442383e-02
-3.263983130455017090e-02 -1.464651525020599365e-01 -4.806760698556900024e-02
1.702902093529701233e-02 -3.718685358762741089e-02 7.603028416633605957e-02
-2.708065882325172424e-02 -1.715095341205596924e-01 -1.851915568113327026e-01
2.303523384034633636e-02 -1.853348910808563232e-01 6.859609484672546387e-02
-2.499231882393360138e-02 -7.513590157032012939e-02 4.041882976889610291e-02
-4.665033193305134773e-04 -7.363620400428771973e-02 -2.291649132966995239e-01
-3.039912879467010498e-02 -1.779070645570755005e-01 -6.827016919851303101e-02
2.292289398610591888e-02 -4.712464660406112671e-02 -6.453833729028701782e-02
2.935150265693664551e-02 -1.619446724653244019e-01 -1.562024652957916260e-02
2.837878651916980743e-02 -1.080385446548461914e-01 6.676836311817169189e-02
-1.364455185830593109e-02 -2.437478303909301758e-02 4.911709204316139221e-02
-2.793271839618682861e-02 -1.529093384742736816e-01 1.600961014628410339e-02
4.711636342108249664e-03 -1.680766046047210693e-02 -1.425231099128723145e-01
2.929977513849735260e-02 -8.716386556625366211e-02 1.966870948672294617e-02
1.036539115011692047e-02 -2.552752196788787842e-02 -1.348344236612319946e-01
-1.285387575626373291e-02 -2.341496348381042480e-01 -1.194661855697631836e-02
-1.558378338813781738e-02 -1.367905586957931519e-01 1.060860753059387207e-01
4.891598131507635117e-03 2.729028463363647461e-03 -3.508806228637695312e-03
-1.076929923146963120e-02 -6.160438060760498047e-04 -8.011478930711746216e-03
-2.198600023984909058e-02 -2.115845978260040283e-01 -2.244516089558601379e-02
6.085566710680723190e-03 -1.068938747048377991e-01 -2.282193601131439209e-01
1.654919795691967010e-02 -4.954881221055984497e-02 9.961004555225372314e-02
3.204926382750272751e-03 -8.338384330272674561e-03 5.242302641272544861e-02
2.435124292969703674e-02 -1.976551413536071777e-01 1.471494510769844055e-02
2.567015215754508972e-02 -1.051996499300003052e-01 9.442345798015594482e-02
-2.521930262446403503e-03 -1.054034382104873657e-01 1.459172517061233521e-01
1.625286228954792023e-02 -3.920549154281616211e-02 -1.225335747003555298e-01
1.649001985788345337e-02 -2.840674668550491333e-02 5.821000412106513977e-02
2.448855340480804443e-02 -1.983527392148971558e-01 -3.613343834877014160e-02
1.966616138815879822e-02 -3.396847099065780640e-02 -7.290188968181610107e-02
2.462320029735565186e-02 -5.547112971544265747e-02 4.343262687325477600e-02
-1.181270694360136986e-03 -1.805948764085769653e-01 1.226159632205963135e-01
2.825442887842655182e-02 -1.708882153034210205e-01 -3.523403033614158630e-02
-3.158232942223548889e-02 -6.855991482734680176e-02 -1.199671477079391479e-01
-2.774579636752605438e-02 -1.637918353080749512e-01 7.380910217761993408e-03
5.879553500562906265e-03 -2.438296377658843994e-01 -6.567973643541336060e-03
-2.712074667215347290e-02 -8.477296680212020874e-02 2.838681265711784363e-02
2.251307666301727295e-02 -3.853885084390640259e-02 1.228063181042671204e-02
-1.137789059430360794e-02 -1.478621065616607666e-01 1.184583753347396851e-01
7.334551308304071426e-03 -1.446190625429153442e-01 1.485617458820343018e-01
-3.361661359667778015e-02 -1.466041058301925659e-01 -8.786056935787200928e-02
3.049192950129508972e-02 -1.049550473690032959e-01 -8.565057069063186646e-03
-1.364642847329378128e-02 -1.132092997431755066e-01 1.168996840715408325e-01
-2.915281988680362701e-02 -1.641807705163955688e-01 -1.057033985853195190e-02
1.153306476771831512e-02 -9.487777948379516602e-03 -7.480407506227493286e-02
-3.033060394227504730e-02 -1.054413765668869019e-01 3.269162029027938843e-03
-3.105193749070167542e-02 -6.585970520973205566e-02 -5.385252833366394043e-02
1.179867424070835114e-02 -5.859044566750526428e-02 -1.775252223014831543e-01
1.205506362020969391e-02 -1.018478944897651672e-01 -2.049346715211868286e-01
-2.699170820415019989e-02 -3.676363080739974976e-02 -7.565134018659591675e-02
2.273494005203247070e-02 -2.024981975555419922e-01 -6.432156264781951904e-02
9.945181198418140411e-03 -2.201691865921020508e-01 -1.438531428575515747e-01
1.575602218508720398e-02 -1.149158850312232971e-01 1.423634290695190430e-01
8.676894940435886383e-03 -2.395706474781036377e-01 6.010115146636962891e-03
2.007720526307821274e-03 -3.623479604721069336e-02 1.065516620874404907e-01
-1.697195321321487427e-02 -1.862133145332336426e-01 6.587713956832885742e-02
3.037128224968910217e-02 -1.060306504368782043e-01 1.870379969477653503e-02
-6.419013254344463348e-03 -1.354562938213348389e-01 1.366802006959915161e-01
2.568893320858478546e-02 -1.282052397727966309e-01 -1.165651977062225342e-01
-1.638703234493732452e-02 -5.255810916423797607e-03 -8.518281579017639160e-02
-1.800648309290409088e-02 -3.746418654918670654e-02 -1.860501319169998169e-01
-8.134262170642614365e-04 -2.023530900478363037e-01 -2.058323621749877930e-01
-1.797139458358287811e-02 -1.221675202250480652e-01 9.782838821411132812e-02
-3.103162720799446106e-02 -1.096422225236892700e-01 -1.800213456153869629e-01
2.222770266234874725e-02 -1.194745898246765137e-01 1.191495954990386963e-01
-3.393092751502990723e-02 -9.530665725469589233e-02 -8.506052196025848389e-02
2.961864322423934937e-02 -1.191758662462234497e-01 -5.741846933960914612e-02
-2.196948044002056122e-02 -1.681598126888275146e-01 -2.182609289884567261e-01
2.974234148859977722e-02 -1.092135012149810791e-01 4.324026033282279968e-02
2.945281565189361572e-02 -1.398875415325164795e-01 -5.701407790184020996e-02
2.208046801388263702e-02 -1.608320325613021851e-01 -1.388117969036102295e-01
-2.102877944707870483e-02 -1.645881682634353638e-02 -9.782554209232330322e-02
2.981836721301078796e-02 -1.380649358034133911e-01 4.006714001297950745e-02
-3.209757432341575623e-02 -7.061128318309783936e-02 -1.055206656455993652e-01
-1.401849370449781418e-02 -7.569022476673126221e-03 3.130733966827392578e-05
-6.746713072061538696e-03 -2.440074086189270020e-01 -1.931792870163917542e-02
2.624789811670780182e-02 -8.463729918003082275e-02 7.499954104423522949e-02
-1.654249848797917366e-03 -2.023130655288696289e-02 -1.672926843166351318e-01
2.073816396296024323e-02 -3.022204339504241943e-02 -2.259286493062973022e-02
-2.212766371667385101e-02 -2.070576846599578857e-01 -9.844146668910980225e-03
-3.322753682732582092e-02 -1.456543207168579102e-01 -1.314358264207839966e-01
1.952388440258800983e-03 -2.486260682344436646e-01 -6.167374551296234131e-02
-1.669848896563053131e-02 -5.639111250638961792e-02 -2.153076678514480591e-01
-1.941032148897647858e-02 -1.044397577643394470e-01 8.991074562072753906e-02
-2.075147815048694611e-02 -1.903109997510910034e-01 3.634985908865928650e-02
-2.195300161838531494e-02 -6.979520618915557861e-02 5.906033143401145935e-02
-1.360474061220884323e-02 -2.201575040817260742e-01 2.776234969496726990e-02
-2.152032591402530670e-02 -1.273601204156875610e-01 7.771898806095123291e-02
2.872238680720329285e-02 -9.331122785806655884e-02 4.901850596070289612e-02
2.823217213153839111e-02 -1.005595773458480835e-01 -7.398350536823272705e-02
1.840908080339431763e-02 -1.997460722923278809e-01 -1.249462813138961792e-01
1.465165428817272186e-02 -2.243280708789825439e-01 3.594594076275825500e-02
2.403031289577484131e-02 -2.017091065645217896e-01 -2.423134259879589081e-02
-1.074490044265985489e-02 -1.367703974246978760e-01 -2.525074481964111328e-01
2.297922782599925995e-02 -7.204592227935791016e-02 9.102384746074676514e-02
-3.223061561584472656e-02 -1.172692552208900452e-01 -2.244381979107856750e-02
-2.407212741672992706e-03 -2.219109684228897095e-01 6.543423235416412354e-02
9.126011282205581665e-03 -6.495617330074310303e-02 1.334391534328460693e-01
-3.182686865329742432e-02 -1.685347706079483032e-01 -1.055895090103149414e-01
1.435338705778121948e-02 -3.789583593606948853e-02 9.054164588451385498e-02
-2.572346478700637817e-02 -1.329579651355743408e-01 4.699281975626945496e-02
-7.540587335824966431e-03 -2.015994191169738770e-01 8.621694147586822510e-02
-9.813870303332805634e-03 -3.196211159229278564e-02 -1.924792379140853882e-01
5.741970147937536240e-03 -2.616535872220993042e-02 9.041573107242584229e-02
2.896495535969734192e-02 -8.076551556587219238e-02 -9.764932096004486084e-03
2.824378758668899536e-02 -7.501867413520812988e-02 1.720884814858436584e-02
-3.266555443406105042e-02 -1.300741285085678101e-01 -3.358075022697448730e-02
-1.080351509153842926e-02 -2.136902362108230591e-01 -1.921960115432739258e-01
3.627092111855745316e-03 -2.397700250148773193e-01 -1.177124083042144775e-01
2.822938561439514160e-02 -1.537178158760070801e-01 -7.020945847034454346e-02
1.948473416268825531e-02 -6.330825388431549072e-02 -1.343726813793182373e-01
-4.143866244703531265e-03 -1.464710980653762817e-01 1.382246911525726318e-01
2.558973990380764008e-02 -5.774608999490737915e-02 -4.375232756137847900e-02
1.661965064704418182e-02 -1.114452704787254333e-01 -1.848182827234268188e-01
-3.182935714721679688e-02 -1.077903136610984802e-01 -1.704556494951248169e-02
9.914185851812362671e-03 -1.434087902307510376e-01 -2.156072705984115601e-01
-2.459798008203506470e-02 -1.760620176792144775e-01 -1.974934041500091553e-01
-3.218241408467292786e-02 -1.390018016099929810e-01 -1.612043976783752441e-01
-2.875238470733165741e-02 -4.566995054483413696e-02 -8.833319693803787231e-02
2.221411466598510742e-02 -1.701434105634689331e-01 -1.301492452621459961e-01
-1.552824024111032486e-02 -1.605064123868942261e-01 9.559115767478942871e-02
2.980948984622955322e-02 -1.008764952421188354e-01 3.281122818589210510e-02
-3.070525079965591431e-02 -1.742064654827117920e-01 -1.285131126642227173e-01
2.831432968378067017e-03 -2.429220676422119141e-01 -1.068431884050369263e-01
-5.212973337620496750e-05 -1.665197312831878662e-03 3.127400204539299011e-02
1.557786762714385986e-02 -4.769030213356018066e-02 -1.421039253473281860e-01
2.055836841464042664e-02 -1.873478591442108154e-01 8.380994200706481934e-02
-1.881013810634613037e-02 -3.893849998712539673e-02 4.430541768670082092e-02
-3.371871262788772583e-02 -9.017714858055114746e-02 -9.719246625900268555e-02
-2.526180818676948547e-02 -2.005496323108673096e-01 -3.342527523636817932e-02
-2.740949392318725586e-02 -1.318453848361968994e-01 3.279477730393409729e-02
-3.061387501657009125e-02 -1.486090123653411865e-01 -1.747680604457855225e-01
2.128267288208007812e-02 -2.115849852561950684e-01 -5.221356078982353210e-02
1.162529643625020981e-02 -5.052931606769561768e-03 -1.866888999938964844e-02
1.025049667805433273e-02 -4.089005291461944580e-02 -1.628908216953277588e-01
-1.251478213816881180e-02 -1.201579719781875610e-02 2.574009075760841370e-02
-3.036722540855407715e-02 -5.770401656627655029e-02 -6.481844931840896606e-02
2.594614028930664062e-02 -1.482137590646743774e-01 8.636894822120666504e-02
2.454910427331924438e-02 -7.154330611228942871e-02 7.684421539306640625e-02
-1.279987022280693054e-02 -2.356698215007781982e-01 -1.261383295059204102e-01
-1.883300393819808960e-02 -2.287053465843200684e-01 -7.033994048833847046e-02
2.614895999431610107e-02 -7.660707831382751465e-02 6.606829166412353516e-02
-1.144146779552102089e-03 2.619408071041107178e-03 1.162860170006752014e-02
2.714431472122669220e-02 -8.865313231945037842e-02 -8.001822233200073242e-02
-2.017987705767154694e-02 -1.798220723867416382e-02 -2.161557786166667938e-02
1.445538364350795746e-02 -1.887917518615722656e-01 -1.674735993146896362e-01
1.481537334620952606e-02 -8.759557455778121948e-02 -1.853810399770736694e-01
-1.842107251286506653e-02 -5.732768028974533081e-02 6.991809606552124023e-02
1.834470964968204498e-02 -2.393420785665512085e-02 1.798626407980918884e-02
-2.643605694174766541e-02 -3.481923043727874756e-02 -9.837485849857330322e-02
-3.270226716995239258e-02 -1.551095247268676758e-01 -6.750408560037612915e-02
-3.000338748097419739e-02 -1.756940782070159912e-01 -4.791260510683059692e-02
2.482820861041545868e-02 -9.545992314815521240e-02 -1.156944185495376587e-01
5.879164207726716995e-03 2.932466566562652588e-03 -4.653652757406234741e-02
3.054819256067276001e-02 -1.176182925701141357e-01 2.351966872811317444e-02
2.383062988519668579e-02 -1.248376816511154175e-01 -1.351079344749450684e-01
-1.218477915972471237e-02 -2.186849862337112427e-01 3.901083394885063171e-02
2.226608246564865112e-02 -2.089794278144836426e-01 3.130175173282623291e-04
-1.824704371392726898e-02 -2.801487594842910767e-02 -1.664658486843109131e-01
-1.121912803500890732e-02 -7.257379591464996338e-03 -1.336278170347213745e-01
-3.931811079382896423e-04 -1.782727986574172974e-01 -2.278451472520828247e-01
-2.930968068540096283e-02 -9.992620348930358887e-02 1.357280835509300232e-02
-1.959396712481975555e-02 -1.382085382938385010e-01 -2.404575198888778687e-01
1.421857066452503204e-02 -1.062996685504913330e-02 -3.167786449193954468e-02
2.020798251032829285e-02 -2.853722870349884033e-02 3.163620829582214355e-03
-2.469928935170173645e-02 -7.526595145463943481e-02 -2.055524289608001709e-01
-2.472131326794624329e-02 -8.706173300743103027e-02 5.030338093638420105e-02
-2.605141513049602509e-02 -1.689252108335494995e-01 1.924697682261466980e-02
1.668128930032253265e-02 -6.028685346245765686e-02 -1.514483094215393066e-01
1.456688717007637024e-02 -2.083949744701385498e-02 -9.023796021938323975e-02
-2.698282152414321899e-02 -1.444696933031082153e-01 3.116416558623313904e-02
1.971874013543128967e-02 -1.119220256805419922e-01 1.298325061798095703e-01
2.843154035508632660e-02 -1.635607331991195679e-01 3.494959697127342224e-02
-2.596321143209934235e-02 -1.824970990419387817e-01 -1.787778437137603760e-01
2.711394801735877991e-02 -1.018516644835472107e-01 7.921500504016876221e-02
-1.696552895009517670e-02 -9.273188561201095581e-02 -2.411313056945800781e-01
9.442191570997238159e-03 -2.838097512722015381e-02 -1.457422226667404175e-01
-7.947488687932491302e-03 1.033715903759002686e-03 -1.058962196111679077e-01
1.325035002082586288e-02 -1.276379823684692383e-02 2.679967507719993591e-02
2.297026850283145905e-02 -5.754813551902770996e-02 -9.030015021562576294e-02
-1.262045837938785553e-02 1.350805163383483887e-03 -5.539883673191070557e-02
2.558192424476146698e-02 -1.100921034812927246e-01 -1.150415986776351929e-01
-2.187929861247539520e-02 -2.129335701465606689e-01 -1.432453244924545288e-01
2.733956277370452881e-02 -6.566289067268371582e-02 -1.092161983251571655e-02
2.874441444873809814e-02 -9.231378883123397827e-02 -5.440515652298927307e-02
4.315109457820653915e-03 -2.018806785345077515e-01 -1.950406134128570557e-01
-2.279158867895603180e-02 -4.291633516550064087e-02 1.966790482401847839e-02
-2.743796259164810181e-02 -1.817987561225891113e-01 -1.655877530574798584e-01
-1.325303409248590469e-02 -2.397254854440689087e-01 -8.818712830543518066e-02
-1.527436822652816772e-02 -1.235699728131294250e-01 1.099797487258911133e-01
-2.644619904458522797e-02 -1.401680558919906616e-01 -2.129507362842559814e-01
1.309546642005443573e-02 -5.366396903991699219e-02 -1.652944386005401611e-01
-2.458940073847770691e-02 -5.084640532732009888e-02 -1.756248921155929565e-01
2.757823839783668518e-02 -1.792659461498260498e-01 -2.118194662034511566e-02
1.656458713114261627e-02 -2.405405789613723755e-02 4.336893931031227112e-02
2.720068953931331635e-02 -7.591299712657928467e-02 4.892267659306526184e-02
-1.383249182254076004e-02 -2.379612624645233154e-01 -4.789767414331436157e-02
1.096605788916349411e-02 -2.249664366245269775e-01 5.259123072028160095e-02
-3.285263851284980774e-02 -1.114577353000640869e-01 -3.429429233074188232e-02
5.278419237583875656e-03 2.600163221359252930e-03 -6.059857830405235291e-02
-3.351701423525810242e-02 -1.383101493120193481e-01 -6.155308336019515991e-02
-3.314517438411712646e-02 -1.535838097333908081e-01 -1.098434031009674072e-01
-1.348228775896131992e-03 -1.521793752908706665e-02 6.865853071212768555e-02
2.414506487548351288e-02 -1.043270677328109741e-01 1.055067330598831177e-01
2.767206169664859772e-02 -1.391069293022155762e-01 7.413986325263977051e-02
2.384081855416297913e-02 -2.027408182621002197e-01 -1.176133006811141968e-02
-3.955251537263393402e-03 7.455825805664062500e-03 -3.964958339929580688e-02
-1.917031593620777130e-02 -1.891717761754989624e-01 4.900737479329109192e-02
2.464053593575954437e-02 -5.939785763621330261e-02 -6.951593607664108276e-02
1.846542581915855408e-02 -1.274503767490386963e-01 -1.754801124334335327e-01
-1.154379919171333313e-02 -2.073535025119781494e-01 -2.014553099870681763e-01
-5.746518261730670929e-03 -2.265025377273559570e-01 4.746187850832939148e-02
3.516185563057661057e-03 -2.465687692165374756e-03 -1.034786179661750793e-01
-2.175253629684448242e-02 -2.042417824268341064e-01 1.605257391929626465e-03
-3.349646925926208496e-02 -9.268189966678619385e-02 -6.635018438100814819e-02
1.648906618356704712e-02 -1.545816361904144287e-01 1.311964988708496094e-01
1.722785644233226776e-02 -1.773186922073364258e-01 -1.619842648506164551e-01
6.475592497736215591e-03 -1.642496287822723389e-01 -2.198708951473236084e-01
1.547698117792606354e-02 -2.009163796901702881e-01 -1.454401761293411255e-01
2.816430851817131042e-02 -7.788547128438949585e-02 3.156762942671775818e-02
2.732278220355510712e-02 -1.153512299060821533e-01 -9.558061510324478149e-02
