-2.054751962423324585e-01 -7.329684495925903320e-01 -4.619221687316894531e-01
-1.389818191528320312e-01 -6.973283290863037109e-01 -3.760931491851806641e-01
-2.399517893791198730e-01 -7.381262183189392090e-01 -2.371558547019958496e-01
-1.334451884031295776e-01 -7.802929282188415527e-01 -2.703843414783477783e-01
-2.386439442634582520e-01 -6.863434314727783203e-01 -4.215441644191741943e-02
-2.289080917835235596e-01 -8.334842324256896973e-01 -2.120134234428405762e-01
-2.062127590179443359e-01 -6.730054616928100586e-01 -4.447873234748840332e-01
-1.804312169551849365e-01 -8.126517534255981445e-01 1.430775821208953857e-01
-1.943191438913345337e-01 -9.045143127441406250e-01 -5.466670542955398560e-02
-1.363887488842010498e-01 -8.087875843048095703e-01 -2.520510554313659668e-01
-2.182639688253402710e-01 -8.474360704421997070e-01 -2.575041353702545166e-01
-1.749914735555648804e-01 -6.391776204109191895e-01 -7.603776454925537109e-02
-1.352367699146270752e-01 -7.109955549240112305e-01 -2.817898392677307129e-01
-2.261202633380889893e-01 -7.220876216888427734e-01 -3.625748157501220703e-01
-1.938058733940124512e-01 -7.392535805702209473e-01 1.499586999416351318e-01
-1.372935175895690918e-01 -7.301223874092102051e-01 -1.633269190788269043e-01
-2.184809595346450806e-01 -7.656907439231872559e-01 1.675582230091094971e-01
-2.360015362501144409e-01 -8.317707777023315430e-01 4.707062244415283203e-02
-1.538817286491394043e-01 -6.517756581306457520e-01 -1.779309660196304321e-01
-1.532609760761260986e-01 -8.228539228439331055e-01 -3.974358737468719482e-01
-1.470922529697418213e-01 -6.582118868827819824e-01 -2.523654401302337646e-01
-1.451653987169265747e-01 -6.622714996337890625e-01 -3.360638618469238281e-01
-2.448749244213104248e-01 -7.750750184059143066e-01 -1.230755820870399475e-01
-2.157577276229858398e-01 -8.874579668045043945e-01 -7.020717114210128784e-02
-1.613172590732574463e-01 -6.407575607299804688e-01 -4.256925582885742188e-01
-1.456944942474365234e-01 -7.296488285064697266e-01 -4.632838964462280273e-01
-1.533915549516677856e-01 -8.436042070388793945e-01 -1.907628774642944336e-02
-2.446274310350418091e-01 -7.347970604896545410e-01 -6.651625037193298340e-03
-2.219614088535308838e-01 -8.761760592460632324e-01 -8.548005670309066772e-02
-1.713025569915771484e-01 -8.514231443405151367e-01 8.139228820800781250e-02
-1.624997705221176147e-01 -6.301823258399963379e-01 -3.883755803108215332e-01
-2.064585834741592407e-01 -6.416555643081665039e-01 -1.482789218425750732e-02
-2.023111879825592041e-01 -7.522106170654296875e-01 1.676007509231567383e-01
-1.835100799798965454e-01 -6.659922599792480469e-01 2.509996294975280762e-02
-2.375444471836090088e-01 -7.183378338813781738e-01 -2.630537152290344238e-01
-1.971696615219116211e-01 -6.842196583747863770e-01 8.476907014846801758e-02
-2.448410093784332275e-01 -7.848637104034423828e-01 -6.049916148185729980e-03
-2.401367872953414917e-01 -7.057855129241943359e-01 -2.171292603015899658e-01
-2.423737347126007080e-01 -8.034970760345458984e-01 -1.055171191692352295e-01
-1.876237690448760986e-01 -9.004218578338623047e-01 -4.271522164344787598e-03
-2.076547443866729736e-01 -8.950496315956115723e-01 1.271843910217285156e-03
-2.270375341176986694e-01 -6.859611868858337402e-01 -3.393029570579528809e-01
-1.392592340707778931e-01 -6.865719556808471680e-01 -3.332267999649047852e-01
-1.365073323249816895e-01 -7.016572952270507812e-01 -3.160666227340698242e-01
-2.203230857849121094e-01 -8.755006194114685059e-01 3.864333033561706543e-02
-1.743218898773193359e-01 -7.483659982681274414e-01 1.104529500007629395e-01
-2.237304151058197021e-01 -6.763408780097961426e-01 -3.539022803306579590e-01
-1.385622322559356689e-01 -8.179244399070739746e-01 -1.716829240322113037e-01
-1.338212192058563232e-01 -7.380365729331970215e-01 -3.349644541740417480e-01
-2.334848344326019287e-01 -7.418452501296997070e-01 1.074956357479095459e-01
-2.460318058729171753e-01 -7.320958971977233887e-01 -6.966809183359146118e-02
-2.337185144424438477e-01 -7.132261395454406738e-01 -3.007834553718566895e-01
-1.459057331085205078e-01 -8.520194888114929199e-01 -1.811980307102203369e-01
-1.848506778478622437e-01 -6.074633598327636719e-01 -2.050298154354095459e-01
-1.362688392400741577e-01 -7.972092628479003906e-01 -1.701442003250122070e-01
-2.396158576011657715e-01 -8.212692737579345703e-01 1.779508590698242188e-02
-2.009039670228958130e-01 -8.081982731819152832e-01 -4.128823280334472656e-01
-2.304261028766632080e-01 -6.885411739349365234e-01 -3.130589723587036133e-01
-1.996550112962722778e-01 -7.018515467643737793e-01 -4.815930128097534180e-01
-2.085047662258148193e-01 -7.146229743957519531e-01 -4.532425999641418457e-01
-2.442547231912612915e-01 -7.177680134773254395e-01 -1.447874307632446289e-01
-2.173227816820144653e-01 -7.453936934471130371e-01 1.574611961841583252e-01
-2.370489686727523804e-01 -7.933439016342163086e-01 9.811058640480041504e-02
-1.776573657989501953e-01 -8.969359993934631348e-01 -1.893036663532257080e-01
-1.974547058343887329e-01 -7.404894232749938965e-01 -4.836215078830718994e-01
-1.952403932809829712e-01 -9.025740623474121094e-01 -1.215395778417587280e-01
-2.275230586528778076e-01 -8.531282544136047363e-01 7.290713489055633545e-02
-1.810302138328552246e-01 -9.036827683448791504e-01 -8.744180947542190552e-02
-1.646080613136291504e-01 -8.268464803695678711e-01 7.524687051773071289e-02
-1.335958987474441528e-01 -7.358288168907165527e-01 -2.412131726741790771e-01
-1.744446456432342529e-01 -6.461390256881713867e-01 -5.595210194587707520e-02
-1.429518908262252808e-01 -7.787899374961853027e-01 -6.072793155908584595e-02
-2.120441198348999023e-01 -6.167872548103332520e-01 -1.757759451866149902e-01
-2.414153218269348145e-01 -8.065361380577087402e-01 2.952159941196441650e-02
-1.577856242656707764e-01 -7.821446061134338379e-01 5.148689448833465576e-02
-2.302394211292266846e-01 -6.820719242095947266e-01 2.700799703598022461e-02
-1.333660185337066650e-01 -7.798901796340942383e-01 -2.541130483150482178e-01
-2.450636476278305054e-01 -7.882356643676757812e-01 -6.453665345907211304e-02
-1.723169535398483276e-01 -6.609484553337097168e-01 -2.445299923419952393e-02
-1.589684635400772095e-01 -8.671486377716064453e-01 -2.853026986122131348e-02
-2.088642269372940063e-01 -8.759055137634277344e-01 -2.187906503677368164e-01
-2.324581891298294067e-01 -7.903430461883544922e-01 -2.696483135223388672e-01
-1.346951276063919067e-01 -7.265675067901611328e-01 -2.265622168779373169e-01
-1.571654528379440308e-01 -6.660712957382202148e-01 -4.666894376277923584e-01
-1.574960649013519287e-01 -8.786233067512512207e-01 -1.879336982965469360e-01
5.677154064178466797e-01 -5.371842980384826660e-01 3.121521174907684326e-01
4.338843524456024170e-01 -5.842088460922241211e-01 3.342637717723846436e-01
4.596112072467803955e-01 -6.559116840362548828e-01 3.355796635150909424e-01
5.358235836029052734e-01 -5.170293450355529785e-01 3.130074143409729004e-01
3.578386902809143066e-01 -6.432095766067504883e-01 2.544887363910675049e-01
2.968223690986633301e-01 -6.443110704421997070e-01 2.535253763198852539e-01
1.369365453720092773e-01 -8.033952713012695312e-01 2.581424117088317871e-01
2.520615458488464355e-01 -5.801217555999755859e-01 2.618621885776519775e-01
5.726134777069091797e-01 -6.663044691085815430e-01 3.167289793491363525e-01
2.332769632339477539e-01 -8.571497201919555664e-01 2.677011787891387939e-01
8.826152980327606201e-02 -7.164661288261413574e-01 2.590216696262359619e-01
2.493150681257247925e-01 -7.872411012649536133e-01 2.561482787132263184e-01
-3.371816873550415039e-02 -7.470470070838928223e-01 3.105860650539398193e-01
2.810506522655487061e-01 -5.229096412658691406e-01 2.752397060394287109e-01
2.582282423973083496e-01 -5.128231048583984375e-01 2.840994298458099365e-01
4.639610648155212402e-01 -6.875056624412536621e-01 3.339998722076416016e-01
2.382608205080032349e-01 -7.516203522682189941e-01 2.531813681125640869e-01
3.198760747909545898e-01 -8.121247291564941406e-01 3.306281268596649170e-01
2.646830379962921143e-01 -8.083849549293518066e-01 2.593511939048767090e-01
-4.420280456542968750e-04 -7.659573554992675781e-01 2.693325281143188477e-01
4.048365354537963867e-01 -5.549154281616210938e-01 3.313511312007904053e-01
1.214746534824371338e-01 -6.915394663810729980e-01 2.574347257614135742e-01
-1.657813787460327148e-02 -7.721337080001831055e-01 2.725966870784759521e-01
4.246220886707305908e-01 -8.004289865493774414e-01 2.745693922042846680e-01
5.722975730895996094e-01 -6.553349494934082031e-01 2.793982923030853271e-01
4.311757981777191162e-01 -5.354261398315429688e-01 3.271532058715820312e-01
3.044397830963134766e-01 -8.843979239463806152e-01 2.998999059200286865e-01
1.516249030828475952e-01 -6.237539052963256836e-01 2.621915936470031738e-01
2.492900937795639038e-01 -6.247361302375793457e-01 3.375573754310607910e-01
3.936261534690856934e-01 -6.435730457305908203e-01 3.393513560295104980e-01
2.732088863849639893e-01 -7.714335322380065918e-01 3.382307589054107666e-01
3.744848370552062988e-01 -6.707854866981506348e-01 2.546216249465942383e-01
2.012824416160583496e-01 -8.328337073326110840e-01 3.310192227363586426e-01
3.463117480278015137e-01 -8.693920373916625977e-01 2.942594885826110840e-01
3.964990377426147461e-02 -6.949046850204467773e-01 3.234063982963562012e-01
1.903107166290283203e-01 -5.634903907775878906e-01 2.716001570224761963e-01
5.973428487777709961e-01 -6.576377749443054199e-01 2.911214232444763184e-01
1.038279682397842407e-01 -7.751782536506652832e-01 3.334296941757202148e-01
2.894592285156250000e-01 -7.749922871589660645e-01 2.561683356761932373e-01
1.606734097003936768e-01 -8.153434991836547852e-01 2.588613927364349365e-01
2.916085720062255859e-01 -7.788119316101074219e-01 3.370336890220642090e-01
2.467470169067382812e-01 -8.028135299682617188e-01 3.351477682590484619e-01
2.609237134456634521e-01 -8.595408201217651367e-01 3.229387104511260986e-01
5.811715126037597656e-01 -6.970076560974121094e-01 2.983379364013671875e-01
3.862725198268890381e-02 -6.273595094680786133e-01 3.043837845325469971e-01
3.650943934917449951e-02 -7.301468253135681152e-01 2.645040750503540039e-01
5.082354545593261719e-01 -7.195881605148315430e-01 2.724787294864654541e-01
3.985171318054199219e-01 -5.160587430000305176e-01 3.227201700210571289e-01
4.875581264495849609e-01 -6.874788999557495117e-01 2.651286125183105469e-01
4.418888092041015625e-01 -6.587985157966613770e-01 3.369112014770507812e-01
1.730419993400573730e-01 -7.692801952362060547e-01 2.546439766883850098e-01
4.212571978569030762e-01 -7.177247405052185059e-01 3.357486724853515625e-01
5.831609964370727539e-01 -5.833779573440551758e-01 3.161914646625518799e-01
4.910634160041809082e-01 -7.626605033874511719e-01 3.177811503410339355e-01
2.101426124572753906e-01 -6.367059350013732910e-01 2.561849057674407959e-01
5.665911436080932617e-01 -5.272060632705688477e-01 2.889537513256072998e-01
-2.827659249305725098e-02 -8.177901506423950195e-01 3.118574917316436768e-01
8.213591575622558594e-02 -7.744256258010864258e-01 3.316550552845001221e-01
8.894103765487670898e-02 -6.585630774497985840e-01 3.268720805644989014e-01
-1.743191480636596680e-02 -8.693699836730957031e-01 3.009259104728698730e-01
7.163433730602264404e-02 -7.246811389923095703e-01 2.603588700294494629e-01
4.132633507251739502e-01 -4.947113394737243652e-01 3.144967555999755859e-01
1.136824637651443481e-01 -6.027383804321289062e-01 2.722301483154296875e-01
2.708642184734344482e-01 -5.186874866485595703e-01 3.154385983943939209e-01
5.659583806991577148e-01 -6.801832318305969238e-01 2.808734774589538574e-01
2.577459812164306641e-01 -7.640413045883178711e-01 2.542286515235900879e-01
2.177234590053558350e-01 -5.957387685775756836e-01 3.317368626594543457e-01
2.450404763221740723e-01 -6.608796715736389160e-01 3.400960266590118408e-01
4.481802880764007568e-02 -8.579173088073730469e-01 2.714759707450866699e-01
3.023607730865478516e-01 -7.976127862930297852e-01 3.341550827026367188e-01
3.717802762985229492e-01 -8.267751336097717285e-01 2.733137607574462891e-01
2.235366404056549072e-01 -5.253496170043945312e-01 3.098995089530944824e-01
4.759663939476013184e-01 -5.650472044944763184e-01 3.297863900661468506e-01
2.713868319988250732e-01 -7.211574912071228027e-01 3.412376642227172852e-01
4.735723733901977539e-01 -7.939591407775878906e-01 3.095205724239349365e-01
3.757863342761993408e-01 -8.415454030036926270e-01 3.145138621330261230e-01
2.336021363735198975e-01 -7.532328963279724121e-01 3.397218585014343262e-01
2.287687659263610840e-01 -8.774962425231933594e-01 2.739412486553192139e-01
1.191701442003250122e-01 -7.904316186904907227e-01 3.335966467857360840e-01
1.560776829719543457e-01 -7.654850482940673828e-01 2.549155056476593018e-01
3.196766972541809082e-01 -5.590089559555053711e-01 2.631625831127166748e-01
3.581770360469818115e-01 -8.492012023925781250e-01 2.799537777900695801e-01
4.623589515686035156e-01 -6.338758468627929688e-01 2.608333230018615723e-01
7.027463614940643311e-02 -7.069064974784851074e-01 3.293517231941223145e-01
4.441683888435363770e-01 -6.130066514015197754e-01 3.358700871467590332e-01
5.575003623962402344e-01 -6.783439517021179199e-01 3.194470405578613281e-01
2.141775488853454590e-01 -8.103273510932922363e-01 3.344216048717498779e-01
1.808340400457382202e-01 -5.394104719161987305e-01 3.068665862083435059e-01
4.717153310775756836e-01 -5.850115418434143066e-01 2.641633152961730957e-01
3.968143761157989502e-01 -5.897324681282043457e-01 2.593607008457183838e-01
4.914988577365875244e-01 -7.077177166938781738e-01 2.676683664321899414e-01
1.937387287616729736e-01 -5.902047753334045410e-01 2.642394602298736572e-01
3.291372358798980713e-01 -8.750593662261962891e-01 3.021496534347534180e-01
4.206581115722656250e-01 -8.326226472854614258e-01 3.040466010570526123e-01
2.122498005628585815e-01 -8.893014192581176758e-01 2.777959406375885010e-01
8.497279882431030273e-02 -7.686015963554382324e-01 2.588607370853424072e-01
3.891152441501617432e-01 -8.233385086059570312e-01 3.196746110916137695e-01
2.010212391614913940e-01 -8.706376552581787109e-01 3.223296701908111572e-01
4.614315927028656006e-02 -7.915571331977844238e-01 3.271265327930450439e-01
2.511383295059204102e-01 -8.736576437950134277e-01 2.743417918682098389e-01
4.479787349700927734e-01 -4.803045392036437988e-01 2.995858788490295410e-01
2.755749821662902832e-01 -7.395904064178466797e-01 3.404933214187622070e-01
3.139243423938751221e-01 -5.118530392646789551e-01 3.174112141132354736e-01
5.329435467720031738e-01 -5.221321582794189453e-01 2.819038927555084229e-01
1.429872661828994751e-01 -5.528775453567504883e-01 2.917114496231079102e-01
-2.300351858139038086e-03 -8.492182493209838867e-01 3.130716383457183838e-01
1.137298941612243652e-01 -6.546633839607238770e-01 2.617224156856536865e-01
3.268572092056274414e-01 -6.473928689956665039e-01 2.536105513572692871e-01
2.469701021909713745e-01 -7.667526602745056152e-01 3.388812243938446045e-01
9.810890257358551025e-02 -7.402670979499816895e-01 3.336224853992462158e-01
2.279545515775680542e-01 -5.887006521224975586e-01 2.617745697498321533e-01
5.916043519973754883e-01 -6.714658737182617188e-01 3.064241707324981689e-01
5.882366001605987549e-02 -7.578310966491699219e-01 3.295664787292480469e-01
4.047513604164123535e-01 -7.937937974929809570e-01 3.259910941123962402e-01
4.343812167644500732e-02 -8.574579954147338867e-01 3.187656402587890625e-01
2.934077382087707520e-01 -6.476162672042846680e-01 3.405590951442718506e-01
5.455062985420227051e-01 -5.813216567039489746e-01 2.734534740447998047e-01
7.542887330055236816e-02 -7.290496826171875000e-01 3.310915827751159668e-01
3.839723765850067139e-01 -6.881757974624633789e-01 2.553517222404479980e-01
1.686889231204986572e-01 -8.598420023918151855e-01 3.255032300949096680e-01
2.507993876934051514e-01 -7.021327018737792969e-01 3.413093686103820801e-01
1.291546970605850220e-01 -5.947321653366088867e-01 2.717164158821105957e-01
1.654623746871948242e-01 -5.659949779510498047e-01 2.748296856880187988e-01
-1.068735122680664062e-02 -6.741290688514709473e-01 3.004653453826904297e-01
3.775549829006195068e-01 -6.616477966308593750e-01 3.402024507522583008e-01
2.076721191406250000e-02 -7.211480736732482910e-01 2.676824331283569336e-01
4.392334222793579102e-01 -7.586128711700439453e-01 3.286380767822265625e-01
3.814102709293365479e-01 -7.141781449317932129e-01 2.562647759914398193e-01
2.801853716373443604e-01 -7.037943601608276367e-01 2.520666122436523438e-01
1.746876388788223267e-01 -6.535103321075439453e-01 2.565647363662719727e-01
3.466266691684722900e-01 -5.659911632537841797e-01 3.331280946731567383e-01
3.390382230281829834e-01 -5.211292505264282227e-01 3.226853013038635254e-01
4.863191843032836914e-01 -5.018077492713928223e-01 2.824921309947967529e-01
6.107951402664184570e-01 -6.089363098144531250e-01 3.044394552707672119e-01
1.400799453258514404e-01 -7.661023139953613281e-01 3.361693620681762695e-01
2.409469634294509888e-01 -5.636917948722839355e-01 3.272588253021240234e-01
4.992438554763793945e-01 -6.701354980468750000e-01 2.656529843807220459e-01
4.061106443405151367e-01 -7.321178913116455078e-01 2.596091926097869873e-01
1.330500245094299316e-01 -8.525322079658508301e-01 3.263343274593353271e-01
1.971567571163177490e-01 -5.540400147438049316e-01 3.188549280166625977e-01
5.597742795944213867e-01 -6.341214179992675781e-01 3.227094411849975586e-01
5.064780116081237793e-01 -7.369171977043151855e-01 3.210526406764984131e-01
3.380047976970672607e-01 -5.415856838226318359e-01 2.664344906806945801e-01
2.623087167739868164e-02 -8.877084255218505859e-01 3.059203922748565674e-01
3.989256024360656738e-01 -7.926045656204223633e-01 2.680626809597015381e-01
1.570286452770233154e-01 -8.885658979415893555e-01 2.749938964843750000e-01
2.889691591262817383e-01 -6.114927530288696289e-01 2.561904788017272949e-01
4.969114363193511963e-01 -5.445566177368164062e-01 2.717017233371734619e-01
3.113695681095123291e-01 -5.155125856399536133e-01 2.755841612815856934e-01
1.558825671672821045e-01 -5.710722208023071289e-01 3.174526989459991455e-01
-1.914277672767639160e-02 -8.289651870727539062e-01 2.766568064689636230e-01
4.181865155696868896e-01 -6.649060845375061035e-01 2.571716606616973877e-01
2.766484320163726807e-01 -8.552905321121215820e-01 2.702896893024444580e-01
6.414639949798583984e-02 -8.595684170722961426e-01 3.205606341361999512e-01
7.146304845809936523e-02 -6.391403079032897949e-01 2.708874642848968506e-01
5.056720376014709473e-01 -5.781155228614807129e-01 2.681431472301483154e-01
1.323623359203338623e-01 -7.147160768508911133e-01 2.555895745754241943e-01
4.908890426158905029e-01 -6.007232666015625000e-01 3.317892253398895264e-01
9.546850621700286865e-02 -7.907255291938781738e-01 2.591251134872436523e-01
4.422479867935180664e-02 -7.687832117080688477e-01 3.276643753051757812e-01
3.640472590923309326e-01 -8.140149116516113281e-01 3.261643946170806885e-01
1.756462454795837402e-02 -6.493190526962280273e-01 3.055900633335113525e-01
3.575135767459869385e-01 -7.817080020904541016e-01 3.332324028015136719e-01
3.989914059638977051e-02 -8.087835907936096191e-01 3.252008855342864990e-01
2.540934681892395020e-01 -7.246943712234497070e-01 3.410595059394836426e-01
5.261489152908325195e-01 -5.723962187767028809e-01 3.257940411567687988e-01
2.671945095062255859e-01 -7.381841540336608887e-01 2.528314888477325439e-01
2.111510038375854492e-01 -5.441007614135742188e-01 2.756178081035614014e-01
4.913952350616455078e-01 -6.675113439559936523e-01 3.320661187171936035e-01
4.979774057865142822e-01 -6.438077092170715332e-01 3.320074081420898438e-01
-1.814946532249450684e-02 -8.506258726119995117e-01 2.807917594909667969e-01
5.207667350769042969e-01 -6.589859724044799805e-01 3.285589218139648438e-01
1.780369281768798828e-01 -8.174107074737548828e-01 3.331833481788635254e-01
3.796976804733276367e-01 -7.970807552337646484e-01 3.283631205558776855e-01
1.150608062744140625e-02 -7.399141788482666016e-01 2.680334150791168213e-01
5.511884391307830811e-02 -6.212927699089050293e-01 2.814282774925231934e-01
5.804020166397094727e-01 -6.338048577308654785e-01 2.801433801651000977e-01
3.870160877704620361e-01 -5.286426544189453125e-01 3.261264860630035400e-01
3.621270060539245605e-01 -7.152445316314697266e-01 3.396048247814178467e-01
2.230941802263259888e-01 -7.310581207275390625e-01 2.524201869964599609e-01
2.961700856685638428e-01 -8.182301521301269531e-01 2.627802193164825439e-01
5.490396022796630859e-01 -7.153875827789306641e-01 3.141001164913177490e-01
5.796070098876953125e-01 -6.375749707221984863e-01 3.176047801971435547e-01
1.871972382068634033e-01 -6.898829936981201172e-01 2.535714209079742432e-01
5.112855434417724609e-01 -5.109484791755676270e-01 3.148767054080963135e-01
2.049555480480194092e-01 -6.072918772697448730e-01 2.602290809154510498e-01
2.817603945732116699e-01 -6.819555759429931641e-01 2.521499097347259521e-01
4.880754947662353516e-01 -7.194712758064270020e-01 3.277861177921295166e-01
3.892799317836761475e-01 -6.608575582504272461e-01 2.553892135620117188e-01
4.306840598583221436e-01 -7.508463859558105469e-01 2.645959556102752686e-01
2.692091763019561768e-01 -6.073645353317260742e-01 3.365454077720642090e-01
4.414298832416534424e-01 -7.946376204490661621e-01 2.763695716857910156e-01
1.456753760576248169e-01 -5.858349800109863281e-01 3.205067813396453857e-01
3.826925754547119141e-01 -4.824392199516296387e-01 3.036327660083770752e-01
5.380589962005615234e-01 -6.551787853240966797e-01 2.712180316448211670e-01
3.852980136871337891e-01 -5.561770200729370117e-01 3.317573964595794678e-01
3.888818621635437012e-01 -6.253442764282226562e-01 3.388195931911468506e-01
-1.811289787292480469e-02 -7.316379547119140625e-01 2.755069732666015625e-01
7.458910346031188965e-02 -7.983307242393493652e-01 2.611033022403717041e-01
1.592106819152832031e-01 -6.399822235107421875e-01 2.591613531112670898e-01
9.709940850734710693e-02 -6.919959783554077148e-01 2.596382498741149902e-01
4.068023562431335449e-01 -6.818755269050598145e-01 2.566619813442230225e-01
3.733088076114654541e-01 -6.331248283386230469e-01 2.554157972335815430e-01
3.348809480667114258e-01 -5.963954925537109375e-01 2.575010657310485840e-01
3.910593688488006592e-02 -7.236409187316894531e-01 3.259082436561584473e-01
2.996735274791717529e-01 -7.503505945205688477e-01 3.394568860530853271e-01
2.866407930850982666e-01 -8.819589614868164062e-01 3.096544742584228516e-01
9.431383013725280762e-02 -5.996888875961303711e-01 2.779286503791809082e-01
1.305972337722778320e-01 -5.738072395324707031e-01 3.123079240322113037e-01
2.841660082340240479e-01 -5.069813132286071777e-01 2.831990718841552734e-01
1.316909939050674438e-01 -6.232804656028747559e-01 2.645415365695953369e-01
1.235765069723129272e-01 -5.944033265113830566e-01 3.188298940658569336e-01
2.845255732536315918e-01 -5.580312013626098633e-01 2.646009624004364014e-01
1.891647577285766602e-01 -7.251023650169372559e-01 2.529327273368835449e-01
2.471991628408432007e-01 -9.000994563102722168e-01 2.990787923336029053e-01
4.210752248764038086e-02 -8.768288493156433105e-01 2.767928838729858398e-01
2.605874836444854736e-01 -6.496794223785400391e-01 2.535055577754974365e-01
5.646098852157592773e-01 -5.676099061965942383e-01 3.190008103847503662e-01
5.166515707969665527e-01 -6.758085489273071289e-01 2.687411606311798096e-01
2.038285881280899048e-01 -7.001509666442871094e-01 2.527101039886474609e-01
5.415315032005310059e-01 -5.627533793449401855e-01 3.225156664848327637e-01
5.184689760208129883e-01 -6.784926056861877441e-01 3.275849819183349609e-01
1.319719702005386353e-01 -7.340318560600280762e-01 2.553196847438812256e-01
-4.750403761863708496e-02 -7.962799072265625000e-01 2.823170423507690430e-01
2.106626331806182861e-01 -8.010630607604980469e-01 2.570354044437408447e-01
4.560403823852539062e-01 -7.470019459724426270e-01 2.676157355308532715e-01
1.451056450605392456e-01 -7.472053170204162598e-01 2.547580897808074951e-01
4.939694702625274658e-01 -7.477988004684448242e-01 2.751263678073883057e-01
3.979989290237426758e-01 -4.968954622745513916e-01 2.800621390342712402e-01
4.170536994934082031e-01 -6.237224340438842773e-01 3.377417623996734619e-01
2.016814351081848145e-01 -6.088317632675170898e-01 3.325138092041015625e-01
4.252201914787292480e-01 -6.075937151908874512e-01 3.365200757980346680e-01
-4.826176166534423828e-02 -7.914353013038635254e-01 3.066838979721069336e-01
4.724383950233459473e-01 -5.294564962387084961e-01 3.239262402057647705e-01
3.521269857883453369e-01 -7.823921442031860352e-01 2.609809339046478271e-01
4.430886805057525635e-01 -5.574577450752258301e-01 3.306157588958740234e-01
2.771940529346466064e-01 -6.341031789779663086e-01 2.543311715126037598e-01
-3.139728307723999023e-02 -7.231898307800292969e-01 3.076987862586975098e-01
1.778019368648529053e-01 -6.211644411087036133e-01 3.322135508060455322e-01
-4.900535941123962402e-02 -8.152125477790832520e-01 3.042143881320953369e-01
1.499959528446197510e-01 -7.807813882827758789e-01 3.358716666698455811e-01
3.035339713096618652e-01 -5.672239065170288086e-01 2.620496153831481934e-01
3.449197411537170410e-01 -6.499898433685302734e-01 3.407023549079895020e-01
1.588919311761856079e-01 -6.689208149909973145e-01 2.562755048274993896e-01
1.706356257200241089e-01 -8.398567438125610352e-01 3.296168744564056396e-01
8.971886336803436279e-02 -6.799603700637817383e-01 3.296181857585906982e-01
3.786049187183380127e-01 -5.586695671081542969e-01 2.629744410514831543e-01
1.269427835941314697e-01 -8.699358701705932617e-01 2.692297101020812988e-01
5.126212835311889648e-01 -7.192007899284362793e-01 3.233626484870910645e-01
4.506296515464782715e-01 -6.752561330795288086e-01 3.358422517776489258e-01
2.658361494541168213e-01 -8.341315388679504395e-01 2.640430033206939697e-01
1.960307210683822632e-01 -9.081362485885620117e-01 3.012781143188476562e-01
8.666485548019409180e-02 -8.958446383476257324e-01 3.109813928604125977e-01
3.515440821647644043e-01 -8.177356719970703125e-01 2.678297758102416992e-01
4.550319314002990723e-01 -6.038793921470642090e-01 2.614096701145172119e-01
4.770121276378631592e-01 -7.447203993797302246e-01 3.253879547119140625e-01
2.013204097747802734e-01 -7.844434380531311035e-01 3.371335864067077637e-01
5.414239168167114258e-01 -6.810034513473510742e-01 2.741602659225463867e-01
1.997773051261901855e-01 -6.641204953193664551e-01 3.382499516010284424e-01
3.755686581134796143e-01 -7.391077876091003418e-01 3.371914029121398926e-01
5.857506990432739258e-01 -5.633354187011718750e-01 3.128079473972320557e-01
3.195437192916870117e-01 -7.247949838638305664e-01 3.405531346797943115e-01
3.153696656227111816e-01 -6.545547842979431152e-01 3.410260081291198730e-01
4.248911738395690918e-01 -7.946181893348693848e-01 3.226060569286346436e-01
1.550731062889099121e-02 -8.225691318511962891e-01 3.204907178878784180e-01
4.399600625038146973e-02 -6.610216498374938965e-01 2.718138992786407471e-01
1.746197044849395752e-01 -5.885358452796936035e-01 2.666498124599456787e-01
1.823234409093856812e-01 -7.324864268302917480e-01 3.391244411468505859e-01
1.270686984062194824e-01 -6.824474334716796875e-01 3.340362310409545898e-01
1.722671687602996826e-01 -7.954488992691040039e-01 2.565751671791076660e-01
4.202034473419189453e-01 -6.463795900344848633e-01 3.382320106029510498e-01
-3.400221467018127441e-02 -7.482392191886901855e-01 2.788022756576538086e-01
-3.821164369583129883e-03 -7.400660514831542969e-01 3.187364339828491211e-01
4.040717482566833496e-01 -5.329515933990478516e-01 3.271291851997375488e-01
5.008130073547363281e-01 -5.368727445602416992e-01 3.232235312461853027e-01
3.693299889564514160e-01 -5.094741582870483398e-01 2.751329839229583740e-01
1.996517181396484375e-02 -7.973729968070983887e-01 3.232848644256591797e-01
5.703210830688476562e-03 -6.559534668922424316e-01 2.887283861637115479e-01
4.046104848384857178e-01 -4.794334769248962402e-01 2.967106699943542480e-01
5.645747184753417969e-01 -5.457167625427246094e-01 2.824155390262603760e-01
4.537017345428466797e-01 -6.619347929954528809e-01 2.600563168525695801e-01
2.284566462039947510e-01 -9.030651450157165527e-01 2.913743257522583008e-01
3.302456140518188477e-01 -8.403556346893310547e-01 3.225825130939483643e-01
5.049167573451995850e-02 -7.646308541297912598e-01 2.620018720626831055e-01
2.540040612220764160e-01 -5.404063463211059570e-01 2.714940607547760010e-01
5.110613703727722168e-01 -6.474164724349975586e-01 2.664504051208496094e-01
2.421175539493560791e-01 -6.854627728462219238e-01 3.409231901168823242e-01
-3.150534629821777344e-02 -7.700389027595520020e-01 3.128800094127655029e-01
3.342930972576141357e-02 -6.595423817634582520e-01 3.156234622001647949e-01
8.525194227695465088e-02 -6.611418724060058594e-01 2.644338011741638184e-01
3.654379844665527344e-01 -5.501572489738464355e-01 3.306172490119934082e-01
5.349317789077758789e-01 -7.296382784843444824e-01 3.148203492164611816e-01
-2.333551645278930664e-02 -6.913863420486450195e-01 2.889991998672485352e-01
4.726170301437377930e-01 -5.170005559921264648e-01 2.757495045661926270e-01
3.304494023323059082e-01 -6.998913288116455078e-01 3.411871790885925293e-01
1.699203252792358398e-01 -8.469724655151367188e-01 2.637096941471099854e-01
1.685709357261657715e-01 -6.174921989440917969e-01 2.615600228309631348e-01
1.764239817857742310e-01 -7.540715932846069336e-01 3.383366465568542480e-01
5.152082443237304688e-01 -5.135417580604553223e-01 2.817623615264892578e-01
2.277811467647552490e-01 -8.265984654426574707e-01 3.318500816822052002e-01
5.475207567214965820e-01 -6.987762451171875000e-01 2.785017490386962891e-01
4.043483734130859375e-01 -8.433841466903686523e-01 2.990528345108032227e-01
2.255826145410537720e-01 -7.356616854667663574e-01 3.403590619564056396e-01
1.967935860157012939e-01 -8.091028332710266113e-01 3.344995975494384766e-01
2.217928171157836914e-01 -7.741240859031677246e-01 3.382284641265869141e-01
1.874823719263076782e-01 -6.156308054924011230e-01 2.602430582046508789e-01
2.615113556385040283e-01 -6.385277509689331055e-01 3.392359018325805664e-01
4.441637396812438965e-01 -7.957395315170288086e-01 3.182823657989501953e-01
3.206901550292968750e-01 -6.251541376113891602e-01 3.394748866558074951e-01
5.227176845073699951e-02 -7.887092828750610352e-01 2.625139951705932617e-01
2.942767441272735596e-01 -7.990617156028747559e-01 2.594136595726013184e-01
2.338540256023406982e-01 -8.202174305915832520e-01 2.600673139095306396e-01
3.361170589923858643e-01 -5.469772219657897949e-01 3.293446302413940430e-01
1.300304681062698364e-01 -9.116490483283996582e-01 3.017688095569610596e-01
4.556695222854614258e-01 -5.245490074157714844e-01 3.237252235412597656e-01
4.395890831947326660e-01 -4.912082552909851074e-01 3.121429383754730225e-01
1.109535694122314453e-01 -6.538914442062377930e-01 3.293215036392211914e-01
9.163081645965576172e-03 -6.694330573081970215e-01 3.102929592132568359e-01
2.205757945775985718e-01 -6.226785182952880859e-01 3.357732594013214111e-01
5.351591110229492188e-01 -5.953692793846130371e-01 2.707657217979431152e-01
1.510604172945022583e-01 -8.601928949356079102e-01 2.665316164493560791e-01
1.402177959680557251e-01 -7.062871456146240234e-01 3.364246785640716553e-01
2.515061795711517334e-01 -5.400313138961791992e-01 3.216191232204437256e-01
4.244708716869354248e-01 -5.662733912467956543e-01 2.632070779800415039e-01
5.370846986770629883e-01 -5.403423905372619629e-01 2.778762876987457275e-01
2.397784590721130371e-02 -7.713084816932678223e-01 2.653689980506896973e-01
6.000746488571166992e-01 -5.854102969169616699e-01 3.103282749652862549e-01
4.167561233043670654e-01 -8.164182901382446289e-01 2.787114381790161133e-01
3.003383576869964600e-01 -5.469541549682617188e-01 2.664093673229217529e-01
2.149931043386459351e-01 -9.019625186920166016e-01 3.059267997741699219e-01
4.177566170692443848e-01 -6.472191810607910156e-01 2.571919858455657959e-01
4.524639844894409180e-01 -5.256423354148864746e-01 2.720414996147155762e-01
5.313692986965179443e-02 -8.937180638313293457e-01 3.080015778541564941e-01
-1.308488845825195312e-02 -6.913976073265075684e-01 3.077357709407806396e-01
2.898548245429992676e-01 -6.653360724449157715e-01 2.525837123394012451e-01
3.001076281070709229e-01 -7.069900035858154297e-01 3.414784967899322510e-01
3.034228682518005371e-01 -8.563631772994995117e-01 2.735810279846191406e-01
4.093098640441894531e-01 -7.625197768211364746e-01 2.637250125408172607e-01
1.934363692998886108e-01 -6.400466561317443848e-01 3.358389735221862793e-01
5.033612251281738281e-04 -8.416470289230346680e-01 2.745889425277709961e-01
4.370893836021423340e-01 -5.156644582748413086e-01 3.220778405666351318e-01
4.205796718597412109e-01 -5.891712903976440430e-01 2.604150772094726562e-01
4.457875788211822510e-01 -6.901337504386901855e-01 2.603053450584411621e-01
3.701857924461364746e-01 -5.987765789031982422e-01 3.372817039489746094e-01
6.005756258964538574e-01 -6.397610902786254883e-01 3.087895512580871582e-01
5.784322023391723633e-01 -6.826257705688476562e-01 3.110389411449432373e-01
1.566854417324066162e-01 -5.817699432373046875e-01 2.709368467330932617e-01
4.670681357383728027e-01 -6.753687262535095215e-01 2.618452608585357666e-01
9.707567095756530762e-02 -6.992589235305786133e-01 3.321004211902618408e-01
1.595587730407714844e-01 -6.987974047660827637e-01 3.375308513641357422e-01
2.483143061399459839e-01 -8.388770222663879395e-01 2.640972733497619629e-01
3.137449324131011963e-01 -7.266131639480590820e-01 2.534720301628112793e-01
2.849243879318237305e-01 -7.280703783035278320e-01 2.527278363704681396e-01
4.525574147701263428e-01 -6.286883950233459473e-01 3.359441757202148438e-01
3.583511114120483398e-01 -6.866863965988159180e-01 2.540026605129241943e-01
5.688297748565673828e-01 -7.117019295692443848e-01 2.936891019344329834e-01
4.471529722213745117e-01 -5.090140104293823242e-01 2.765146493911743164e-01
2.993493676185607910e-01 -6.663165092468261719e-01 3.413496315479278564e-01
2.180777341127395630e-01 -5.430465340614318848e-01 3.180799484252929688e-01
2.520680725574493408e-01 -5.126152634620666504e-01 3.077195882797241211e-01
8.574029803276062012e-02 -6.051863431930541992e-01 3.130737543106079102e-01
3.247538506984710693e-01 -6.714115142822265625e-01 2.528893053531646729e-01
1.624379903078079224e-01 -5.977207422256469727e-01 3.262400627136230469e-01
3.268998265266418457e-01 -7.486359477043151855e-01 3.387706577777862549e-01
3.782112002372741699e-01 -8.004518151283264160e-01 2.670424282550811768e-01
1.179517507553100586e-01 -9.108668565750122070e-01 2.888756394386291504e-01
2.068455368280410767e-01 -5.814702510833740234e-01 3.279584944248199463e-01
5.283914208412170410e-01 -6.358547210693359375e-01 2.688596844673156738e-01
1.363178342580795288e-01 -6.498978137969970703e-01 2.599759697914123535e-01
8.940701186656951904e-02 -8.407153487205505371e-01 3.261231780052185059e-01
5.240866541862487793e-01 -6.929529905319213867e-01 2.718449532985687256e-01
1.911029219627380371e-02 -6.840923428535461426e-01 2.729978263378143311e-01
4.276397824287414551e-01 -7.811478376388549805e-01 2.698486149311065674e-01
4.195608794689178467e-01 -5.104585289955139160e-01 3.208478093147277832e-01
1.358340382575988770e-01 -8.494988083839416504e-01 2.645117342472076416e-01
2.240390479564666748e-01 -7.671787142753601074e-01 2.540560960769653320e-01
3.619987368583679199e-01 -6.709434986114501953e-01 3.407185673713684082e-01
9.923075139522552490e-02 -8.903610706329345703e-01 2.766514718532562256e-01
4.416342079639434814e-01 -5.630985498428344727e-01 2.645156979560852051e-01
5.627515316009521484e-01 -5.666978955268859863e-01 2.783322036266326904e-01
2.622564435005187988e-01 -6.070607304573059082e-01 2.573433816432952881e-01
3.639588952064514160e-01 -7.489616870880126953e-01 2.577552199363708496e-01
5.457723736763000488e-01 -5.806219577789306641e-01 3.237966299057006836e-01
3.363792300224304199e-01 -7.955138087272644043e-01 2.617565095424652100e-01
4.700077474117279053e-01 -7.760177850723266602e-01 3.188814818859100342e-01
2.495459616184234619e-01 -8.828193545341491699e-01 3.147304952144622803e-01
3.840524256229400635e-01 -6.054156422615051270e-01 2.575165331363677979e-01
7.800787687301635742e-03 -7.124075889587402344e-01 3.188006877899169922e-01
3.556502461433410645e-01 -8.599064946174621582e-01 3.081463873386383057e-01
2.653679251670837402e-02 -8.620575070381164551e-01 3.153777420520782471e-01
3.693388402462005615e-01 -7.739434838294982910e-01 2.612485885620117188e-01
4.024456739425659180e-01 -6.757720708847045898e-01 3.390820622444152832e-01
3.775933980941772461e-01 -5.041779279708862305e-01 3.181723058223724365e-01
4.578399658203125000e-01 -7.630621194839477539e-01 3.248896002769470215e-01
5.025278329849243164e-01 -7.803469300270080566e-01 2.998923063278198242e-01
5.515155196189880371e-02 -8.955676555633544922e-01 2.831233143806457520e-01
4.424178898334503174e-01 -6.338870525360107422e-01 2.591745555400848389e-01
1.428447216749191284e-01 -7.276400327682495117e-01 3.370333611965179443e-01
1.123584508895874023e-01 -7.267253398895263672e-01 2.566680312156677246e-01
2.769782245159149170e-01 -5.036762952804565430e-01 3.063011169433593750e-01
4.321861863136291504e-01 -5.300139188766479492e-01 2.699745595455169678e-01
2.334764599800109863e-01 -5.562995672225952148e-01 2.686448693275451660e-01
5.724206566810607910e-02 -6.164669394493103027e-01 3.076787590980529785e-01
1.083460450172424316e-01 -6.260556578636169434e-01 2.672470808029174805e-01
3.951158225536346436e-01 -5.758809447288513184e-01 3.344964683055877686e-01
3.962083756923675537e-01 -8.320445418357849121e-01 2.806594371795654297e-01
-8.829265832901000977e-03 -8.224569559097290039e-01 3.160874247550964355e-01
4.096395671367645264e-01 -5.537214279174804688e-01 2.645097970962524414e-01
7.872037589550018311e-02 -8.528715372085571289e-01 2.675691843032836914e-01
4.717792272567749023e-01 -7.080846428871154785e-01 2.647482454776763916e-01
1.095274537801742554e-01 -9.072881340980529785e-01 3.055268228054046631e-01
2.704875171184539795e-01 -8.047982454299926758e-01 3.343173563480377197e-01
3.133664429187774658e-01 -5.885679125785827637e-01 2.585430443286895752e-01
8.642672002315521240e-02 -8.665043115615844727e-01 3.208481967449188232e-01
3.318856358528137207e-01 -4.871064424514770508e-01 2.982423305511474609e-01
-3.215193748474121094e-02 -7.195081114768981934e-01 2.830757498741149902e-01
3.924994170665740967e-01 -5.715685486793518066e-01 2.613421678543090820e-01
3.028387725353240967e-01 -6.041626334190368652e-01 3.373050391674041748e-01
5.139508843421936035e-01 -5.320340991020202637e-01 2.762372493743896484e-01
2.545491755008697510e-01 -5.900036692619323730e-01 3.334198296070098877e-01
1.580872535705566406e-01 -5.540010333061218262e-01 3.095978200435638428e-01
3.016039133071899414e-01 -6.901624202728271484e-01 2.523018717765808105e-01
2.079671919345855713e-01 -7.387600541114807129e-01 3.398670554161071777e-01
5.446642637252807617e-01 -5.080822110176086426e-01 2.918069064617156982e-01
2.482805848121643066e-01 -6.905476450920104980e-01 2.520768046379089355e-01
3.325915634632110596e-01 -5.864679813385009766e-01 3.358309268951416016e-01
3.826786577701568604e-01 -6.922409534454345703e-01 3.396464884281158447e-01
4.523965716361999512e-01 -5.067710876464843750e-01 3.186149597167968750e-01
1.908809542655944824e-01 -7.643761038780212402e-01 2.540537416934967041e-01
3.596431314945220947e-01 -7.497176527976989746e-01 3.371297121047973633e-01
6.258308887481689453e-02 -6.545772552490234375e-01 2.692774236202239990e-01
5.738612413406372070e-01 -6.072474718093872070e-01 3.197902739048004150e-01
1.534849554300308228e-01 -6.916654109954833984e-01 2.551728188991546631e-01
2.115945816040039062e-01 -8.867141604423522949e-01 3.159669041633605957e-01
5.232638120651245117e-01 -4.965465664863586426e-01 2.941228151321411133e-01
5.190779566764831543e-01 -5.966945290565490723e-01 3.286074101924896240e-01
2.873202264308929443e-01 -8.498885035514831543e-01 3.239055573940277100e-01
4.781387746334075928e-02 -8.144242763519287109e-01 2.647778391838073730e-01
4.439523518085479736e-01 -8.153755068778991699e-01 3.080477118492126465e-01
1.767250597476959229e-01 -8.948729634284973145e-01 3.136730492115020752e-01
-2.679347991943359375e-03 -7.010074853897094727e-01 2.757144868373870850e-01
-2.910733222961425781e-02 -8.015719652175903320e-01 2.763461470603942871e-01
3.379004597663879395e-01 -5.770947933197021484e-01 2.599317133426666260e-01
3.076280057430267334e-01 -8.593658208847045898e-01 3.184802234172821045e-01
5.188083648681640625e-01 -7.550192475318908691e-01 2.857130765914916992e-01
3.563433289527893066e-01 -4.861464500427246094e-01 2.900446355342864990e-01
1.213469207286834717e-01 -7.527154088020324707e-01 2.560622692108154297e-01
3.027779459953308105e-01 -6.313853263854980469e-01 3.397121131420135498e-01
4.253474473953247070e-01 -6.671657562255859375e-01 3.379110693931579590e-01
2.743350565433502197e-01 -5.361375808715820312e-01 3.227556943893432617e-01
2.223650217056274414e-01 -5.174753665924072266e-01 2.927482724189758301e-01
5.412750244140625000e-01 -6.080374121665954590e-01 3.260614871978759766e-01
3.725737929344177246e-01 -7.295390963554382324e-01 2.566783130168914795e-01
3.920663297176361084e-01 -7.179431319236755371e-01 3.378577828407287598e-01
3.390743732452392578e-01 -8.379176259040832520e-01 2.719635963439941406e-01
-4.508796334266662598e-02 -7.244906425476074219e-01 2.957459092140197754e-01
1.586900204420089722e-01 -7.280681133270263672e-01 2.540033459663391113e-01
2.048319578170776367e-02 -7.950118184089660645e-01 2.665772140026092529e-01
3.309133648872375488e-01 -6.630039215087890625e-01 3.412012457847595215e-01
8.618751168251037598e-02 -8.035499453544616699e-01 3.302757143974304199e-01
1.798284351825714111e-01 -8.754914999008178711e-01 2.708626389503479004e-01
5.650690197944641113e-02 -6.484106779098510742e-01 3.188727498054504395e-01
2.621607184410095215e-01 -5.601530671119689941e-01 3.282297253608703613e-01
-3.687113523483276367e-03 -8.806348443031311035e-01 2.994430065155029297e-01
1.251183301210403442e-01 -5.622115135192871094e-01 2.991924285888671875e-01
4.114784598350524902e-01 -7.138801813125610352e-01 2.585694789886474609e-01
3.215398490428924561e-01 -7.812163233757019043e-01 2.585560381412506104e-01
4.766811132431030273e-01 -7.615507841110229492e-01 2.745774686336517334e-01
2.008659392595291138e-01 -6.587036848068237305e-01 2.547156810760498047e-01
1.616823673248291016e-01 -6.316092610359191895e-01 3.321196436882019043e-01
2.716305255889892578e-01 -5.810145139694213867e-01 3.329422771930694580e-01
1.308744996786117554e-01 -8.112333416938781738e-01 3.323908448219299316e-01
1.274607628583908081e-01 -7.363384366035461426e-01 3.359997272491455078e-01
3.606153428554534912e-01 -6.052630543708801270e-01 2.569178938865661621e-01
1.931579411029815674e-01 -5.337606668472290039e-01 2.860030531883239746e-01
3.633540868759155273e-01 -4.881122112274169922e-01 3.079898357391357422e-01
4.365505576133728027e-01 -7.277200818061828613e-01 2.623398303985595703e-01
-1.034456491470336914e-02 -7.867962121963500977e-01 3.182896077632904053e-01
4.657924771308898926e-01 -5.386567711830139160e-01 2.700699269771575928e-01
2.653422653675079346e-01 -8.832353353500366211e-01 2.806731164455413818e-01
2.785234153270721436e-01 -6.901914477348327637e-01 3.416105508804321289e-01
2.991485893726348877e-01 -5.620005726814270020e-01 3.309243321418762207e-01
6.842617690563201904e-02 -7.012261748313903809e-01 2.621593475341796875e-01
4.599971473217010498e-01 -4.899012744426727295e-01 3.101637661457061768e-01
2.449816167354583740e-01 -6.223816275596618652e-01 2.561815977096557617e-01
1.902507245540618896e-01 -7.145535349845886230e-01 3.395301699638366699e-01
4.548810720443725586e-01 -8.125498294830322266e-01 2.920328974723815918e-01
1.348164975643157959e-01 -6.633121967315673828e-01 3.331519663333892822e-01
4.053252637386322021e-01 -5.284150242805480957e-01 2.695003747940063477e-01
3.505641222000122070e-01 -7.309432029724121094e-01 3.391563892364501953e-01
3.406773209571838379e-01 -7.299346923828125000e-01 2.548030316829681396e-01
2.855629026889801025e-01 -8.840745091438293457e-01 2.852862775325775146e-01
9.130655229091644287e-02 -5.832477807998657227e-01 2.914341092109680176e-01
4.952009916305541992e-01 -6.192607879638671875e-01 2.644895315170288086e-01
2.063402384519577026e-01 -8.712139725685119629e-01 2.704423964023590088e-01
2.297782003879547119e-01 -7.949483990669250488e-01 3.362709581851959229e-01
2.329244762659072876e-01 -6.433653831481933594e-01 3.384660184383392334e-01
3.360959887504577637e-01 -7.051326036453247070e-01 2.534782886505126953e-01
1.984860301017761230e-01 -8.391299843788146973e-01 2.624896764755249023e-01
4.237602949142456055e-01 -8.149827718734741211e-01 3.154718875885009766e-01
-1.374605000019073486e-01 4.394460320472717285e-01 2.743134498596191406e-01
-1.494840681552886963e-01 3.421821594238281250e-01 -2.028179317712783813e-01
-2.342023998498916626e-01 2.761711776256561279e-01 1.457969564944505692e-02
-8.734195679426193237e-02 6.693308353424072266e-01 -8.202423900365829468e-02
-2.315534055233001709e-01 8.127959966659545898e-01 -1.607264578342437744e-02
-2.590589225292205811e-01 6.309483647346496582e-01 3.826725855469703674e-02
-2.356098443269729614e-01 7.769268751144409180e-01 -1.144001409411430359e-01
-2.173582166433334351e-01 3.715419173240661621e-01 2.552227377891540527e-01
-2.458195686340332031e-01 7.013277411460876465e-01 1.216228529810905457e-01
-1.085811629891395569e-01 8.720082640647888184e-01 9.252715855836868286e-02
-2.547208070755004883e-01 3.585833311080932617e-01 5.196631886065006256e-03
-2.145430147647857666e-01 2.457147836685180664e-01 -5.270613357424736023e-02
-1.723051965236663818e-01 2.639909684658050537e-01 -1.195979341864585876e-01
-9.291796386241912842e-02 7.597163915634155273e-01 -1.120184287428855896e-01
-2.199209630489349365e-01 2.602397501468658447e-01 8.245846629142761230e-02
-2.036683410406112671e-01 2.349407970905303955e-01 -1.670952886343002319e-02
-2.426948696374893188e-01 3.297269046306610107e-01 1.089616492390632629e-01
-9.501503407955169678e-02 8.020504713058471680e-01 -8.493230491876602173e-02
-1.790044605731964111e-01 4.934917688369750977e-01 3.503268957138061523e-01
-1.538222134113311768e-01 8.847988843917846680e-01 2.069997340440750122e-01
-2.303827255964279175e-01 6.062176823616027832e-01 2.708522379398345947e-01
-2.107845693826675415e-01 8.001177310943603516e-01 -2.327658832073211670e-01
-2.190544009208679199e-01 5.751097798347473145e-01 3.104181289672851562e-01
-8.980755507946014404e-02 7.536787390708923340e-01 8.820018172264099121e-02
-1.157448887825012207e-01 6.648732423782348633e-01 -2.731276750564575195e-01
-9.542917460203170776e-02 6.862545013427734375e-01 1.777347773313522339e-01
-9.464075416326522827e-02 5.045445561408996582e-01 -8.064959198236465454e-03
-1.424703299999237061e-01 5.577908754348754883e-01 3.372998535633087158e-01
-2.281826138496398926e-01 5.908561348915100098e-01 -3.016813695430755615e-01
-1.504305452108383179e-01 3.202927112579345703e-01 1.761672049760818481e-01
-2.044582962989807129e-01 7.128491401672363281e-01 -3.184548914432525635e-01
-1.019580066204071045e-01 8.585367798805236816e-01 -4.214416071772575378e-02
-9.263696521520614624e-02 5.840774178504943848e-01 1.314776092767715454e-01
-1.817589551210403442e-01 4.227213263511657715e-01 3.214307427406311035e-01
-1.279457360506057739e-01 5.423789620399475098e-01 3.016139566898345947e-01
-2.288266271352767944e-01 7.497888803482055664e-01 -2.105700522661209106e-01
-1.037395447492599487e-01 5.200660228729248047e-01 -1.688351333141326904e-01
-9.169076383113861084e-02 7.830218672752380371e-01 7.679995149374008179e-02
-9.910962730646133423e-02 7.571183443069458008e-01 1.752506643533706665e-01
-2.233954668045043945e-01 8.375192284584045410e-01 -7.108089327812194824e-02
-2.485046088695526123e-01 5.472115278244018555e-01 1.986376643180847168e-01
-2.323077619075775146e-01 8.039816021919250488e-01 -7.109492272138595581e-02
-1.922094076871871948e-01 9.193137288093566895e-01 -1.008951570838689804e-02
-1.984531283378601074e-01 7.088595628738403320e-01 3.155592083930969238e-01
