5.716612339019775391e-01 -4.671310186386108398e-01 4.757626652717590332e-01
5.245584845542907715e-01 -4.871505200862884521e-01 6.602290868759155273e-01
5.885080099105834961e-01 -3.187451064586639404e-01 3.687045872211456299e-01
5.884368419647216797e-01 -3.673674166202545166e-01 1.143010109663009644e-01
5.606094598770141602e-01 -5.573512315750122070e-01 4.197604060173034668e-01
4.337625503540039062e-01 -1.547855436801910400e-01 4.328685998916625977e-01
5.558726191520690918e-01 -4.410148561000823975e-01 5.873901844024658203e-01
5.890322923660278320e-01 -2.678922116756439209e-01 2.516158521175384521e-01
4.069887995719909668e-01 -3.542393147945404053e-01 2.680363059043884277e-01
5.776857733726501465e-01 -5.184875130653381348e-01 3.031532764434814453e-01
4.165288209915161133e-01 -2.308576107025146484e-01 3.096025288105010986e-01
4.137140810489654541e-01 -2.497960329055786133e-01 4.439578652381896973e-01
4.689282774925231934e-01 -3.129086196422576904e-01 -7.233884930610656738e-02
5.615614652633666992e-01 -2.666305303573608398e-01 5.676554441452026367e-01
5.302647948265075684e-01 -1.606988906860351562e-01 5.957206487655639648e-01
4.880359470844268799e-01 -5.643778443336486816e-01 -3.274801373481750488e-02
4.179444909095764160e-01 -4.996943473815917969e-01 2.037603706121444702e-01
5.595914721488952637e-01 -4.148662090301513672e-01 -6.041491031646728516e-02
5.137423276901245117e-01 -6.695963740348815918e-01 2.865777015686035156e-01
5.413354039192199707e-01 -1.771597266197204590e-01 4.777193069458007812e-03
5.699808597564697266e-01 -5.456436872482299805e-01 3.459322452545166016e-01
5.727359056472778320e-01 -1.719904243946075439e-01 2.076089978218078613e-01
5.831418633460998535e-01 -3.152349889278411865e-01 4.360623061656951904e-01
5.565263628959655762e-01 -6.020174622535705566e-01 2.220766842365264893e-01
4.426424801349639893e-01 -6.227767467498779297e-01 2.952550351619720459e-01
4.781877696514129639e-01 -2.729588449001312256e-01 7.316927909851074219e-01
4.696641564369201660e-01 -4.332956373691558838e-01 -8.193773031234741211e-02
5.648157596588134766e-01 -2.938250303268432617e-01 -2.859953045845031738e-02
4.747241139411926270e-01 -6.615123748779296875e-01 2.071089148521423340e-01
4.443185329437255859e-01 -5.096836090087890625e-01 3.342738747596740723e-02
5.756079554557800293e-01 -3.492035269737243652e-01 4.865497350692749023e-03
5.831371545791625977e-01 -2.196132093667984009e-01 2.466549128293991089e-01
4.582280814647674561e-01 -3.971971869468688965e-01 -5.839082598686218262e-02
5.389844179153442383e-01 -1.119490563869476318e-01 1.243350803852081299e-01
5.689459443092346191e-01 -1.526515632867813110e-01 2.918230593204498291e-01
5.473627448081970215e-01 -1.466658562421798706e-01 5.087275505065917969e-01
4.454042911529541016e-01 -3.268503546714782715e-01 -5.810976028442382812e-03
5.640256404876708984e-01 -5.738402605056762695e-01 1.701116859912872314e-01
4.337691664695739746e-01 -2.213878333568572998e-01 5.958008766174316406e-01
4.576120674610137939e-01 -1.828936934471130371e-01 6.310278177261352539e-02
4.488497674465179443e-01 -3.856114149093627930e-01 -2.878841757774353027e-02
4.502484798431396484e-01 -1.607603877782821655e-01 1.330292671918869019e-01
4.245513677597045898e-01 -2.082787305116653442e-01 5.036025047302246094e-01
5.173209905624389648e-01 -6.355580091476440430e-01 4.633721709251403809e-01
5.357162356376647949e-01 -6.116294860839843750e-01 4.530079960823059082e-01
5.651724934577941895e-01 -2.228499650955200195e-01 3.079488873481750488e-02
4.879221022129058838e-01 -5.518409013748168945e-01 6.475609540939331055e-01
5.790393352508544922e-01 -4.829220771789550781e-01 3.823509514331817627e-01
4.719606339931488037e-01 -6.666055917739868164e-01 3.264417648315429688e-01
4.164387881755828857e-01 -4.754795432090759277e-01 5.243868827819824219e-01
5.899311900138854980e-01 -3.074058294296264648e-01 1.640648692846298218e-01
5.924022197723388672e-01 -3.332771658897399902e-01 2.134448140859603882e-01
4.284312725067138672e-01 -2.540668547153472900e-01 6.019671559333801270e-01
5.284728407859802246e-01 -3.229388594627380371e-01 6.985783576965332031e-01
4.636457264423370361e-01 -8.557814359664916992e-02 3.176640272140502930e-01
5.514748096466064453e-01 -5.612062811851501465e-01 4.774631261825561523e-01
4.912111461162567139e-01 -6.350061297416687012e-02 2.715185880661010742e-01
5.463632345199584961e-01 -9.472253918647766113e-02 2.856452763080596924e-01
4.810692071914672852e-01 -5.072087645530700684e-01 6.901375651359558105e-01
5.659409165382385254e-01 -5.735255479812622070e-01 2.244111150503158569e-01
5.107424259185791016e-01 -2.348985671997070312e-01 -8.056879043579101562e-02
5.681739449501037598e-01 -5.314458012580871582e-01 8.467799425125122070e-02
5.615361332893371582e-01 -1.516297161579132080e-01 4.203931689262390137e-01
5.447624921798706055e-01 -2.952779829502105713e-01 -8.646646142005920410e-02
4.103421568870544434e-01 -4.904360175132751465e-01 3.454196453094482422e-01
4.649907946586608887e-01 -4.440844357013702393e-01 7.191295623779296875e-01
4.150011837482452393e-01 -5.195342898368835449e-01 4.015888869762420654e-01
4.944694638252258301e-01 -1.838618516921997070e-01 6.738783121109008789e-01
5.420742630958557129e-01 -6.160689592361450195e-01 1.169722825288772583e-01
4.422336220741271973e-01 -1.333447545766830444e-01 4.493071436882019043e-01
5.136048793792724609e-01 -6.031763553619384766e-02 3.102822005748748779e-01
5.795766711235046387e-01 -4.988909959793090820e-01 3.365736007690429688e-01
5.541972517967224121e-01 -5.985767841339111328e-01 1.513444185256958008e-01
5.151147246360778809e-01 -3.453657627105712891e-01 -1.292450726032257080e-01
4.190464019775390625e-01 -3.196876347064971924e-01 1.453421711921691895e-01
4.303333759307861328e-01 -5.201866626739501953e-01 1.204849630594253540e-01
4.546830058097839355e-01 -1.077543199062347412e-01 4.552464485168457031e-01
4.215243458747863770e-01 -5.487260222434997559e-01 2.722732424736022949e-01
4.296247661113739014e-01 -5.331038832664489746e-01 1.429015249013900757e-01
5.592588186264038086e-01 -5.941243767738342285e-01 2.790724635124206543e-01
5.505303144454956055e-01 -5.460158586502075195e-01 5.086162090301513672e-01
4.226899147033691406e-01 -3.023725152015686035e-01 6.040718555450439453e-01
5.502001643180847168e-01 -5.233118534088134766e-01 -2.229830622673034668e-02
4.978294968605041504e-01 -2.771267592906951904e-01 -1.007639765739440918e-01
4.514672160148620605e-01 -5.769304633140563965e-01 7.915033400058746338e-02
4.285015463829040527e-01 -3.524309396743774414e-01 6.487935781478881836e-01
5.713293552398681641e-01 -5.106764435768127441e-01 4.184137582778930664e-01
4.138295054435729980e-01 -2.745251357555389404e-01 2.462269216775894165e-01
5.845595598220825195e-01 -3.737845718860626221e-01 7.054527103900909424e-02
4.136602282524108887e-01 -5.052641034126281738e-01 2.849993407726287842e-01
4.862490892410278320e-01 -6.717944741249084473e-01 3.544695973396301270e-01
4.799084067344665527e-01 -2.874751389026641846e-01 -8.356878161430358887e-02
4.190890789031982422e-01 -5.371843576431274414e-01 4.240605235099792480e-01
4.042356610298156738e-01 -3.547359406948089600e-01 3.886699378490447998e-01
4.228523969650268555e-01 -5.617522001266479492e-01 3.714807927608489990e-01
4.348805248737335205e-01 -4.569302797317504883e-01 6.463929414749145508e-01
4.875574111938476562e-01 -2.377375066280364990e-01 -6.536948680877685547e-02
5.674221515655517578e-01 -5.400720238685607910e-01 3.957330584526062012e-01
5.178451538085937500e-01 -1.032657623291015625e-01 5.286438465118408203e-01
4.087764322757720947e-01 -4.112574458122253418e-01 4.976631104946136475e-01
4.989708960056304932e-01 -5.933961272239685059e-02 3.696067333221435547e-01
5.908134579658508301e-01 -4.186204969882965088e-01 2.478249967098236084e-01
4.688871502876281738e-01 -3.902625739574432373e-01 -8.546712994575500488e-02
5.037214159965515137e-01 -1.854340434074401855e-01 -3.343862295150756836e-02
5.510091781616210938e-01 -1.272646784782409668e-01 4.411267638206481934e-01
5.427217483520507812e-01 -4.827516973018646240e-01 -7.577589154243469238e-02
4.256747364997863770e-01 -2.156784087419509888e-01 5.310437679290771484e-01
4.630875885486602783e-01 -5.979119539260864258e-01 6.729760766029357910e-02
4.164378345012664795e-01 -4.680223166942596436e-01 1.820100247859954834e-01
5.545852184295654297e-01 -2.577942609786987305e-01 5.958017110824584961e-01
5.289136171340942383e-01 -5.068506002426147461e-01 6.340087652206420898e-01
4.676449000835418701e-01 -7.911634445190429688e-02 3.438867628574371338e-01
5.767783522605895996e-01 -4.261190891265869141e-01 2.629032731056213379e-02
5.690479874610900879e-01 -3.664392232894897461e-01 5.468977689743041992e-01
5.337180495262145996e-01 -3.475071787834167480e-01 6.874463558197021484e-01
4.067768454551696777e-01 -3.178137838840484619e-01 4.386385679244995117e-01
5.712053179740905762e-01 -5.420076251029968262e-01 1.475045233964920044e-01
5.598469376564025879e-01 -5.160821676254272461e-01 4.985567033290863037e-01
5.015259385108947754e-01 -8.144864439964294434e-02 1.614029109477996826e-01
5.725502371788024902e-01 -3.686662614345550537e-01 -1.309332251548767090e-02
5.694255232810974121e-01 -4.019080400466918945e-01 5.353360772132873535e-01
5.770298838615417480e-01 -2.975696325302124023e-01 3.196337819099426270e-02
4.934083819389343262e-01 -5.014602541923522949e-01 -9.024295210838317871e-02
4.620809853076934814e-01 -1.081171631813049316e-01 5.059303045272827148e-01
4.060983955860137939e-01 -3.587376177310943604e-01 4.622239470481872559e-01
5.922331213951110840e-01 -3.231848180294036865e-01 2.698772847652435303e-01
4.573096930980682373e-01 -3.023990094661712646e-01 -3.735947608947753906e-02
4.133588671684265137e-01 -4.727467596530914307e-01 2.238967120647430420e-01
5.470289587974548340e-01 -1.568392217159271240e-01 5.199509859085083008e-02
4.205192029476165771e-01 -4.259058833122253418e-01 1.211597323417663574e-01
4.105794429779052734e-01 -4.372900724411010742e-01 2.260130047798156738e-01
5.806238651275634766e-01 -2.240170240402221680e-01 1.553605794906616211e-01
5.795436501502990723e-01 -1.994057744741439819e-01 2.919991612434387207e-01
5.762624144554138184e-01 -2.825659811496734619e-01 4.828972220420837402e-01
5.366145372390747070e-01 -4.590087234973907471e-01 -9.940254688262939453e-02
5.314997434616088867e-01 -2.758626639842987061e-01 -9.676370024681091309e-02
4.615921974182128906e-01 -6.226714849472045898e-01 5.031481981277465820e-01
4.976636469364166260e-01 -4.006069600582122803e-01 -1.264571249485015869e-01
4.854377806186676025e-01 -4.133101403713226318e-01 7.396003007888793945e-01
5.362508893013000488e-01 -8.092045783996582031e-02 2.580671310424804688e-01
5.294927358627319336e-01 -5.191379785537719727e-01 -7.230406999588012695e-02
5.833383202552795410e-01 -2.659692466259002686e-01 1.139443963766098022e-01
4.449595808982849121e-01 -2.306676805019378662e-01 5.938431620597839355e-02
4.351326823234558105e-01 -1.815948635339736938e-01 1.935334503650665283e-01
4.632081985473632812e-01 -6.108349561691284180e-01 5.363311767578125000e-01
5.270126461982727051e-01 -1.419729888439178467e-01 3.194844722747802734e-02
4.066660702228546143e-01 -3.109809160232543945e-01 3.346004784107208252e-01
5.556899309158325195e-01 -5.692692995071411133e-01 7.261699438095092773e-02
4.317124485969543457e-01 -2.959026098251342773e-01 7.318809628486633301e-02
4.468885660171508789e-01 -4.220837950706481934e-01 -1.852211356163024902e-02
5.007184743881225586e-01 -6.717439889907836914e-01 2.154872119426727295e-01
4.577396512031555176e-01 -6.496093273162841797e-01 2.722488641738891602e-01
4.323914945125579834e-01 -5.531238317489624023e-01 5.256393551826477051e-01
4.344968497753143311e-01 -4.488377571105957031e-01 4.300829768180847168e-02
4.081479310989379883e-01 -4.407175481319427490e-01 4.609886407852172852e-01
5.013040304183959961e-01 -1.105430722236633301e-01 8.297224342823028564e-02
4.582817256450653076e-01 -4.910593330860137939e-01 -3.008934855461120605e-02
4.613169431686401367e-01 -3.955358862876892090e-01 7.303272485733032227e-01
4.854911565780639648e-01 -1.656316816806793213e-01 1.027998328208923340e-02
4.168730974197387695e-01 -3.343193829059600830e-01 5.788603425025939941e-01
5.676553249359130859e-01 -1.556164473295211792e-01 3.554456233978271484e-01
5.499489307403564453e-01 -1.769261211156845093e-01 2.919587492942810059e-02
5.596238970756530762e-01 -3.404136002063751221e-01 -6.304866075515747070e-02
4.105975329875946045e-01 -4.863855242729187012e-01 4.141786694526672363e-01
4.826647043228149414e-01 -4.643195867538452148e-01 -9.588843584060668945e-02
5.815796256065368652e-01 -3.828211724758148193e-01 4.511110484600067139e-01
4.776542186737060547e-01 -3.623477518558502197e-01 -1.013579368591308594e-01
5.701068043708801270e-01 -4.427757263183593750e-01 5.082579851150512695e-01
5.416124463081359863e-01 -2.770835459232330322e-01 6.526141166687011719e-01
4.909930229187011719e-01 -4.444981813430786133e-01 7.270806431770324707e-01
5.900273919105529785e-01 -3.342461884021759033e-01 3.480935692787170410e-01
4.041099846363067627e-01 -3.781087696552276611e-01 3.430233001708984375e-01
4.071941077709197998e-01 -4.530546665191650391e-01 4.118561148643493652e-01
4.101285934448242188e-01 -3.978016376495361328e-01 2.142148315906524658e-01
4.725944697856903076e-01 -5.071581006050109863e-01 -5.626553297042846680e-02
5.753710269927978516e-01 -2.090104222297668457e-01 4.084059596061706543e-01
5.917525887489318848e-01 -3.339753448963165283e-01 1.850391477346420288e-01
5.842248201370239258e-01 -3.445769250392913818e-01 4.305978417396545410e-01
5.175766348838806152e-01 -1.625527292490005493e-01 6.271523237228393555e-01
5.828028321266174316e-01 -4.865848124027252197e-01 3.049642741680145264e-01
4.344085156917572021e-01 -6.025857329368591309e-01 3.490981161594390869e-01
4.173210263252258301e-01 -5.229701399803161621e-01 2.623319923877716064e-01
4.184632897377014160e-01 -5.404970645904541016e-01 3.860028982162475586e-01
5.918183326721191406e-01 -3.088806271553039551e-01 2.408187687397003174e-01
4.940742254257202148e-01 -3.567112088203430176e-01 7.458776831626892090e-01
4.236311018466949463e-01 -4.886913895606994629e-01 5.654265880584716797e-01
4.214797019958496094e-01 -2.121641337871551514e-01 2.744189202785491943e-01
4.111773073673248291e-01 -4.510467052459716797e-01 4.954065084457397461e-01
5.737693905830383301e-01 -5.127626061439514160e-01 3.876478672027587891e-01
5.218808054924011230e-01 -5.678179860115051270e-01 5.842047333717346191e-01
5.475158691406250000e-01 -2.634982168674468994e-01 -6.392076611518859863e-02
4.478241801261901855e-01 -4.120045900344848633e-01 7.032917141914367676e-01
5.030549168586730957e-01 -6.736536026000976562e-01 2.423998564481735229e-01
4.313196837902069092e-01 -3.868880569934844971e-01 6.593533158302307129e-01
5.594680309295654297e-01 -1.337626576423645020e-01 3.807101845741271973e-01
5.677409172058105469e-01 -5.661423802375793457e-01 2.785868048667907715e-01
5.406310558319091797e-01 -5.586624145507812500e-01 5.359414815902709961e-01
4.275988638401031494e-01 -5.738332271575927734e-01 2.658281028270721436e-01
4.060566723346710205e-01 -4.352517426013946533e-01 3.184778988361358643e-01
5.566539764404296875e-01 -4.844601750373840332e-01 5.515617132186889648e-01
4.073161482810974121e-01 -4.361850023269653320e-01 2.825181484222412109e-01
4.049350023269653320e-01 -4.095670282840728760e-01 4.189168214797973633e-01
5.743438005447387695e-01 -5.354121923446655273e-01 1.804107129573822021e-01
5.733377933502197266e-01 -4.576481282711029053e-01 2.469906210899353027e-02
5.160551667213439941e-01 -2.515768110752105713e-01 7.008168697357177734e-01
5.882093906402587891e-01 -4.509145617485046387e-01 2.426394224166870117e-01
4.347165822982788086e-01 -2.020283937454223633e-01 1.563183814287185669e-01
4.366458654403686523e-01 -6.009687781333923340e-01 2.473927289247512817e-01
4.086858630180358887e-01 -3.182031810283660889e-01 2.675949335098266602e-01
4.642539918422698975e-01 -2.578302323818206787e-01 7.127918004989624023e-01
5.866809487342834473e-01 -4.139232039451599121e-01 1.114589571952819824e-01
5.767226219177246094e-01 -1.975058466196060181e-01 1.718242168426513672e-01
4.165167212486267090e-01 -2.260984927415847778e-01 3.372453749179840088e-01
5.913443565368652344e-01 -3.723210692405700684e-01 3.162499666213989258e-01
4.587708115577697754e-01 -1.366532742977142334e-01 1.393810808658599854e-01
4.647416472434997559e-01 -3.569773137569427490e-01 -7.362064719200134277e-02
4.250586032867431641e-01 -2.731019854545593262e-01 1.342040151357650757e-01
4.200407266616821289e-01 -5.496158003807067871e-01 3.300586938858032227e-01
4.171321392059326172e-01 -2.769582569599151611e-01 2.010147869586944580e-01
4.682389199733734131e-01 -8.536711335182189941e-02 2.608535885810852051e-01
5.328597426414489746e-01 -6.413216590881347656e-01 1.638710349798202515e-01
5.049681067466735840e-01 -5.827477574348449707e-02 3.423302471637725830e-01
5.606277585029602051e-01 -1.768348515033721924e-01 7.552216947078704834e-02
4.226530790328979492e-01 -2.400496900081634521e-01 1.962465643882751465e-01
5.569477081298828125e-01 -2.164308428764343262e-01 2.828806638717651367e-03
5.201221108436584473e-01 -6.609639525413513184e-01 3.366484344005584717e-01
4.746618270874023438e-01 -6.007805466651916504e-01 3.864449262619018555e-02
4.520698487758636475e-01 -4.443762898445129395e-01 -3.117546439170837402e-02
5.200529098510742188e-01 -5.465869307518005371e-01 6.153469085693359375e-01
4.261725544929504395e-01 -4.715979695320129395e-01 1.038569658994674683e-01
5.040543079376220703e-01 -3.930020630359649658e-01 7.343988418579101562e-01
5.870454311370849609e-01 -3.409571349620819092e-01 9.885929524898529053e-02
4.451144039630889893e-01 -1.190943270921707153e-01 3.542485237121582031e-01
5.761510133743286133e-01 -4.863759279251098633e-01 4.106613099575042725e-01
5.243816375732421875e-01 -3.984171450138092041e-01 7.024899721145629883e-01
5.014269351959228516e-01 -9.134709835052490234e-02 1.304048448801040649e-01
5.569410324096679688e-01 -6.016564369201660156e-01 2.493090927600860596e-01
5.911507606506347656e-01 -3.032632768154144287e-01 2.874919772148132324e-01
4.435647428035736084e-01 -1.501122266054153442e-01 5.237222909927368164e-01
5.430431365966796875e-01 -6.315211653709411621e-01 2.997902035713195801e-01
4.659497737884521484e-01 -1.454171389341354370e-01 6.039053201675415039e-01
4.423831105232238770e-01 -1.261446624994277954e-01 3.870324790477752686e-01
4.532121121883392334e-01 -1.322506815195083618e-01 1.816489398479461670e-01
5.616340637207031250e-01 -1.313731521368026733e-01 2.377613484859466553e-01
5.062810182571411133e-01 -5.942280292510986328e-01 5.755941867828369141e-01
4.051994085311889648e-01 -3.941554725170135498e-01 3.018055260181427002e-01
4.605155587196350098e-01 -9.066197276115417480e-02 3.976075053215026855e-01
5.822977423667907715e-01 -2.282568514347076416e-01 3.472406864166259766e-01
5.481854081153869629e-01 -5.968593358993530273e-01 9.487904608249664307e-02
5.807826519012451172e-01 -4.109516143798828125e-01 4.451637864112854004e-01
5.134238004684448242e-01 -4.443096518516540527e-01 7.059965133666992188e-01
5.731844305992126465e-01 -3.287921547889709473e-01 5.211599469184875488e-01
5.654245018959045410e-01 -2.005442082881927490e-01 6.248803436756134033e-02
4.210148453712463379e-01 -2.128145545721054077e-01 4.673627614974975586e-01
5.526484847068786621e-01 -1.082713603973388672e-01 2.546524107456207275e-01
4.114843308925628662e-01 -4.961716532707214355e-01 3.167702853679656982e-01
5.911517739295959473e-01 -4.016601145267486572e-01 2.898961901664733887e-01
4.134376645088195801e-01 -3.337339162826538086e-01 5.498956441879272461e-01
5.465939044952392578e-01 -5.929995775222778320e-01 4.379727840423583984e-01
4.187912344932556152e-01 -5.276916027069091797e-01 4.527053236961364746e-01
5.273376107215881348e-01 -5.999971032142639160e-01 5.150136947631835938e-01
4.397874176502227783e-01 -4.011299312114715576e-01 7.160872220993041992e-03
4.382529556751251221e-01 -5.744200348854064941e-01 1.504795998334884644e-01
4.845905005931854248e-01 -5.832712650299072266e-01 6.074245572090148926e-01
5.815332531929016113e-01 -4.049672484397888184e-01 5.205771327018737793e-02
5.438017249107360840e-01 -4.733034968376159668e-01 6.149415969848632812e-01
5.843831300735473633e-01 -4.581414759159088135e-01 3.484957814216613770e-01
4.574059545993804932e-01 -1.665356606245040894e-01 6.156349182128906250e-01
4.508545398712158203e-01 -1.758303493261337280e-01 1.030615568161010742e-01
4.490908980369567871e-01 -5.608887672424316406e-01 5.884535312652587891e-01
4.151460230350494385e-01 -2.490271925926208496e-01 4.721549749374389648e-01
4.147771000862121582e-01 -3.645089268684387207e-01 1.648577153682708740e-01
4.477272033691406250e-01 -6.149919033050537109e-01 4.635291397571563721e-01
5.382269620895385742e-01 -2.080357074737548828e-01 6.218395233154296875e-01
4.183261394500732422e-01 -2.530687749385833740e-01 2.223436832427978516e-01
5.134692192077636719e-01 -5.326854586601257324e-01 6.431583166122436523e-01
5.856307148933410645e-01 -3.989851474761962891e-01 8.904941380023956299e-02
4.591796696186065674e-01 -2.207116186618804932e-01 6.798801422119140625e-01
5.692371726036071777e-01 -1.835574209690093994e-01 4.230015873908996582e-01
5.866855978965759277e-01 -3.207667171955108643e-01 3.965485394001007080e-01
5.357661843299865723e-01 -3.056516945362091064e-01 6.778606176376342773e-01
5.915457010269165039e-01 -3.984543085098266602e-01 2.018364369869232178e-01
4.273456633090972900e-01 -5.800077915191650391e-01 3.316091895103454590e-01
5.661024451255798340e-01 -5.045726299285888672e-01 4.722043275833129883e-01
5.380241274833679199e-01 -9.317594766616821289e-02 4.142048656940460205e-01
5.699865221977233887e-01 -1.583878993988037109e-01 2.307450026273727417e-01
5.233467817306518555e-01 -2.333808392286300659e-01 6.778436899185180664e-01
5.609027147293090820e-01 -5.711103081703186035e-01 3.784552216529846191e-01
5.845729112625122070e-01 -3.719700574874877930e-01 4.239013195037841797e-01
4.114451706409454346e-01 -2.621601223945617676e-01 3.300015032291412354e-01
5.914288759231567383e-01 -3.815895915031433105e-01 1.760610938072204590e-01
5.885723829269409180e-01 -3.819416761398315430e-01 3.676676154136657715e-01
4.333468973636627197e-01 -5.919666290283203125e-01 4.184202551841735840e-01
5.821965336799621582e-01 -4.971399903297424316e-01 2.111816108226776123e-01
4.220010042190551758e-01 -3.763582110404968262e-01 1.046318411827087402e-01
5.251985788345336914e-01 -8.924177289009094238e-02 1.531999111175537109e-01
4.301966130733489990e-01 -1.622727662324905396e-01 3.768940567970275879e-01
4.439824223518371582e-01 -6.239386200904846191e-01 3.794067800045013428e-01
4.133679568767547607e-01 -3.136363923549652100e-01 2.049227803945541382e-01
4.300275444984436035e-01 -5.031895637512207031e-01 5.864262580871582031e-01
5.525347590446472168e-01 -3.943810164928436279e-01 6.209243535995483398e-01
5.060450434684753418e-01 -3.352909982204437256e-01 7.362664937973022461e-01
5.638467073440551758e-01 -5.639421939849853516e-01 1.263185888528823853e-01
5.682462453842163086e-01 -4.022898077964782715e-01 -2.972009778022766113e-02
5.795034170150756836e-01 -2.637284994125366211e-01 7.813964784145355225e-02
4.298325181007385254e-01 -2.499888539314270020e-01 1.239741891622543335e-01
4.282457828521728516e-01 -4.435321390628814697e-01 7.548427581787109375e-02
4.453963637351989746e-01 -2.128980755805969238e-01 6.364740133285522461e-01
4.157493412494659424e-01 -5.024906396865844727e-01 2.379815578460693359e-01
4.076276123523712158e-01 -4.107927680015563965e-01 2.554341256618499756e-01
5.504993796348571777e-01 -4.411718249320983887e-01 -7.860302925109863281e-02
5.865996479988098145e-01 -2.482032179832458496e-01 2.941134870052337646e-01
5.480139255523681641e-01 -1.327122002840042114e-01 4.758188128471374512e-01
5.416848659515380859e-01 -5.783773064613342285e-01 2.476060390472412109e-02
4.837522506713867188e-01 -1.289830207824707031e-01 7.119697332382202148e-02
4.682024717330932617e-01 -1.079481840133666992e-01 1.684686541557312012e-01
5.869045853614807129e-01 -4.357689023017883301e-01 1.391590535640716553e-01
4.572955667972564697e-01 -1.226394027471542358e-01 5.275651216506958008e-01
4.715515971183776855e-01 -5.980482697486877441e-01 5.759257674217224121e-01
4.263817667961120605e-01 -2.030714154243469238e-01 2.307985424995422363e-01
5.738297700881958008e-01 -2.517590820789337158e-01 4.797354042530059814e-01
5.495731830596923828e-01 -2.673254013061523438e-01 6.210350990295410156e-01
5.863144993782043457e-01 -2.423704564571380615e-01 2.588142156600952148e-01
4.352653026580810547e-01 -5.904128551483154297e-01 2.205205410718917847e-01
5.700915455818176270e-01 -2.754464149475097656e-01 6.245851516723632812e-03
4.599996805191040039e-01 -6.542817354202270508e-01 3.046829402446746826e-01
5.787497162818908691e-01 -1.948587596416473389e-01 2.411546707153320312e-01
4.538369178771972656e-01 -1.108054220676422119e-01 2.546570003032684326e-01
4.271479845046997070e-01 -5.391588211059570312e-01 1.737291663885116577e-01
4.444429576396942139e-01 -3.247522413730621338e-01 6.991733312606811523e-01
5.600745677947998047e-01 -4.043180048465728760e-01 5.849536061286926270e-01
5.159292221069335938e-01 -6.456938385963439941e-02 2.559373378753662109e-01
5.820211768150329590e-01 -4.362889230251312256e-01 4.117821753025054932e-01
4.806962311267852783e-01 -6.669477224349975586e-01 3.804441690444946289e-01
4.348614215850830078e-01 -2.480879426002502441e-01 6.289662718772888184e-01
4.680547118186950684e-01 -9.413701295852661133e-02 4.828103780746459961e-01
4.183940589427947998e-01 -3.967542052268981934e-01 5.916385650634765625e-01
5.737838745117187500e-01 -2.081860601902008057e-01 1.100431233644485474e-01
5.004349946975708008e-01 -1.310688704252243042e-01 6.054925322532653809e-01
4.809401035308837891e-01 -6.415384411811828613e-01 4.881456494331359863e-01
4.130429625511169434e-01 -2.601142823696136475e-01 2.912175953388214111e-01
4.169890880584716797e-01 -2.209858745336532593e-01 3.834158778190612793e-01
5.399028062820434570e-01 -3.770314157009124756e-01 -1.119460463523864746e-01
5.256043076515197754e-01 -6.361433863639831543e-01 4.292424917221069336e-01
5.782528519630432129e-01 -4.572457373142242432e-01 6.106106936931610107e-02
5.490276813507080078e-01 -3.062997162342071533e-01 6.362805366516113281e-01
5.384267568588256836e-01 -3.707420229911804199e-01 6.732674241065979004e-01
5.034092664718627930e-01 -2.847367227077484131e-01 7.294963598251342773e-01
5.823457241058349609e-01 -2.555598616600036621e-01 3.984716832637786865e-01
4.329121708869934082e-01 -3.386068940162658691e-01 4.673802852630615234e-02
5.618745684623718262e-01 -1.690515726804733276e-01 4.588671624660491943e-01
4.253577589988708496e-01 -3.882506489753723145e-01 8.188083767890930176e-02
5.801079869270324707e-01 -3.690204322338104248e-01 3.301870822906494141e-02
4.522583484649658203e-01 -2.346165776252746582e-01 2.481588721275329590e-02
5.389380455017089844e-01 -1.966328173875808716e-01 -2.400818467140197754e-02
4.056996107101440430e-01 -3.472392559051513672e-01 3.025011718273162842e-01
4.465902447700500488e-01 -5.860746502876281738e-01 1.198382973670959473e-01
4.539909362792968750e-01 -1.464805454015731812e-01 5.698148012161254883e-01
4.420335292816162109e-01 -1.756366491317749023e-01 5.705953836441040039e-01
4.271768033504486084e-01 -1.858465373516082764e-01 2.732564210891723633e-01
4.536174535751342773e-01 -6.445162892341613770e-01 3.397052288055419922e-01
4.196529388427734375e-01 -2.858067750930786133e-01 1.663367003202438354e-01
4.634522795677185059e-01 -5.390544533729553223e-01 6.473475694656372070e-01
5.708947777748107910e-01 -4.854959845542907715e-01 3.536689281463623047e-02
5.390424728393554688e-01 -1.592312306165695190e-01 5.653447508811950684e-01
5.558217763900756836e-01 -3.757950961589813232e-01 -7.749757170677185059e-02
5.641470551490783691e-01 -4.509097039699554443e-01 -2.832600474357604980e-02
5.826248526573181152e-01 -2.864840626716613770e-01 4.261316061019897461e-01
5.810201764106750488e-01 -3.407584130764007568e-01 4.231864213943481445e-02
5.134577155113220215e-01 -5.952587127685546875e-01 -1.653671264648437500e-03
4.356938600540161133e-01 -1.456124335527420044e-01 4.042918682098388672e-01
4.057724773883819580e-01 -3.207914531230926514e-01 4.027743935585021973e-01
5.340560674667358398e-01 -2.541406750679016113e-01 6.643896102905273438e-01
4.238830208778381348e-01 -2.525483965873718262e-01 1.666209250688552856e-01
4.839904904365539551e-01 -2.101292759180068970e-01 -3.696158528327941895e-02
5.361518263816833496e-01 -1.137426793575286865e-01 4.924257397651672363e-01
5.336877107620239258e-01 -4.144935309886932373e-01 6.761740446090698242e-01
4.388357698917388916e-01 -5.895622968673706055e-01 4.830978512763977051e-01
4.068919420242309570e-01 -3.856402635574340820e-01 4.790380299091339111e-01
5.456293821334838867e-01 -5.238119959831237793e-01 5.613026618957519531e-01
4.853063225746154785e-01 -3.044218719005584717e-01 7.429459095001220703e-01
5.499818325042724609e-01 -5.044474005699157715e-01 -4.121732711791992188e-02
4.917960762977600098e-01 -7.440415024757385254e-02 2.031974196434020996e-01
4.054294824600219727e-01 -3.885945081710815430e-01 4.486174583435058594e-01
4.195719361305236816e-01 -4.553540647029876709e-01 1.428650617599487305e-01
4.411817193031311035e-01 -1.447442322969436646e-01 4.878062903881072998e-01
4.426230788230895996e-01 -3.558258712291717529e-01 -2.298921346664428711e-03
5.744996666908264160e-01 -5.382470488548278809e-01 2.064301371574401855e-01
5.652487874031066895e-01 -3.409360945224761963e-01 5.693949460983276367e-01
5.449478030204772949e-01 -9.601935744285583496e-02 3.601685762405395508e-01
4.188494682312011719e-01 -5.146872997283935547e-01 4.859762191772460938e-01
5.406226515769958496e-01 -5.734140872955322266e-01 5.119066834449768066e-01
5.698308944702148438e-01 -1.739207506179809570e-01 1.539971977472305298e-01
4.263490438461303711e-01 -5.624378919601440430e-01 2.396762669086456299e-01
4.793568849563598633e-01 -1.072556078433990479e-01 1.290377676486968994e-01
5.891950130462646484e-01 -4.378493428230285645e-01 2.101291120052337646e-01
5.484665632247924805e-01 -4.980455636978149414e-01 5.764689445495605469e-01
5.418074131011962891e-01 -3.941895067691802979e-01 6.588486433029174805e-01
5.548093914985656738e-01 -5.355981588363647461e-01 1.001557707786560059e-02
4.097451865673065186e-01 -2.821382284164428711e-01 3.115690350532531738e-01
5.827003121376037598e-01 -2.468160688877105713e-01 1.358979940414428711e-01
5.580001473426818848e-01 -1.195828914642333984e-01 2.793287336826324463e-01
4.320784211158752441e-01 -5.950708389282226562e-01 3.102333247661590576e-01
4.566020965576171875e-01 -9.953361749649047852e-02 2.919148802757263184e-01
4.378612637519836426e-01 -1.527167856693267822e-01 2.504594922065734863e-01
5.757361054420471191e-01 -2.291839271783828735e-01 9.092526137828826904e-02
4.148956239223480225e-01 -4.029894471168518066e-01 1.629114896059036255e-01
4.658655822277069092e-01 -2.054670602083206177e-01 8.213758468627929688e-03
5.571480393409729004e-01 -3.135752677917480469e-01 -6.351509690284729004e-02
5.695030689239501953e-01 -2.290856987237930298e-01 4.905764162540435791e-01
5.570099949836730957e-01 -5.984703302383422852e-01 1.955426633358001709e-01
5.638806819915771484e-01 -4.685611426830291748e-01 5.265648365020751953e-01
4.601591527462005615e-01 -5.554649829864501953e-01 1.766893267631530762e-02
4.489967823028564453e-01 -3.735919296741485596e-01 7.127636075019836426e-01
5.879055857658386230e-01 -2.844513952732086182e-01 3.487292230129241943e-01
4.048381149768829346e-01 -4.104467034339904785e-01 3.265409171581268311e-01
4.549489021301269531e-01 -5.546700954437255859e-01 6.129865646362304688e-01
4.702502787113189697e-01 -5.793460607528686523e-01 1.785495877265930176e-02
5.775517225265502930e-01 -2.492706179618835449e-01 4.446545243263244629e-01
4.464777112007141113e-01 -6.008546352386474609e-01 1.532103270292282104e-01
4.443969726562500000e-01 -6.180640459060668945e-01 4.237312376499176025e-01
5.766738653182983398e-01 -4.950296878814697266e-01 9.721757471561431885e-02
4.369293451309204102e-01 -5.832205414772033691e-01 1.815825104713439941e-01
5.849872827529907227e-01 -4.754551053047180176e-01 2.807150483131408691e-01
4.779422879219055176e-01 -6.334838867187500000e-01 9.592160582542419434e-02
4.041609168052673340e-01 -3.579193651676177979e-01 3.609594702720642090e-01
4.320746660232543945e-01 -5.313857793807983398e-01 5.608420372009277344e-01
4.278556406497955322e-01 -5.589444637298583984e-01 4.755592942237854004e-01
5.811272263526916504e-01 -3.162926137447357178e-01 5.152225494384765625e-02
5.721618533134460449e-01 -2.992510497570037842e-01 5.205792784690856934e-01
4.128031134605407715e-01 -3.758850097656250000e-01 5.515745282173156738e-01
5.363517403602600098e-01 -5.665509700775146484e-01 -9.020745754241943359e-03
5.819361805915832520e-01 -4.949221014976501465e-01 1.851611435413360596e-01
5.331099033355712891e-01 -8.613529801368713379e-02 1.948127746582031250e-01
4.362584054470062256e-01 -5.141401290893554688e-01 7.713849842548370361e-02
4.097404778003692627e-01 -3.938907682895660400e-01 5.171418190002441406e-01
5.470851659774780273e-01 -4.234297275543212891e-01 6.314610242843627930e-01
4.276672005653381348e-01 -4.706255793571472168e-01 6.056185960769653320e-01
5.693532228469848633e-01 -2.062565535306930542e-01 4.629076123237609863e-01
4.580218195915222168e-01 -1.938818991184234619e-01 6.519104242324829102e-01
4.225158691406250000e-01 -1.933625787496566772e-01 3.570695221424102783e-01
4.508480429649353027e-01 -5.108319520950317383e-01 6.522871255874633789e-01
5.390554666519165039e-01 -5.946346521377563477e-01 4.640761017799377441e-02
5.500357151031494141e-01 -3.645973503589630127e-01 6.360170245170593262e-01
5.066812634468078613e-01 -6.517803668975830078e-01 1.200213879346847534e-01
4.102201163768768311e-01 -3.362283706665039062e-01 2.273377776145935059e-01
5.837607979774475098e-01 -2.364155352115631104e-01 1.776697635650634766e-01
5.295356512069702148e-01 -2.090245485305786133e-01 6.469737291336059570e-01
4.915030300617218018e-01 -3.173226714134216309e-01 -1.112538874149322510e-01
5.733778476715087891e-01 -1.694219857454299927e-01 2.589985728263854980e-01
5.069374442100524902e-01 -6.338168382644653320e-01 6.867639720439910889e-02
4.645961225032806396e-01 -8.740580081939697266e-02 4.231184124946594238e-01
5.804104804992675781e-01 -3.221287131309509277e-01 4.643890857696533203e-01
5.635319948196411133e-01 -1.403637379407882690e-01 2.094952166080474854e-01
4.588969945907592773e-01 -6.294959783554077148e-01 1.575356125831604004e-01
4.277377724647521973e-01 -3.428611159324645996e-01 7.429575920104980469e-02
4.613453447818756104e-01 -4.498141407966613770e-01 -5.728271603584289551e-02
5.143579840660095215e-01 -7.372972369194030762e-02 4.441289305686950684e-01
5.369133949279785156e-01 -4.671310782432556152e-01 6.416318416595458984e-01
4.752659499645233154e-01 -7.897278666496276855e-02 4.450335800647735596e-01
5.716030597686767578e-01 -4.910048246383666992e-01 4.474195837974548340e-01
4.212734699249267578e-01 -4.986734986305236816e-01 5.360888838768005371e-01
5.849278569221496582e-01 -2.872189283370971680e-01 3.990457355976104736e-01
5.335190296173095703e-01 -6.402837038040161133e-01 3.614533245563507080e-01
4.101973772048950195e-01 -2.844179570674896240e-01 4.584861397743225098e-01
5.415447354316711426e-01 -4.176380634307861328e-01 -1.048290729522705078e-01
4.038923382759094238e-01 -3.838985860347747803e-01 3.724956512451171875e-01
4.487316310405731201e-01 -5.397790670394897461e-01 4.274174571037292480e-02
5.910154581069946289e-01 -3.031485676765441895e-01 2.024243175983428955e-01
4.426961839199066162e-01 -2.875567972660064697e-01 2.365592122077941895e-02
5.768680572509765625e-01 -5.105513334274291992e-01 1.338899731636047363e-01
5.003466606140136719e-01 -6.189957857131958008e-01 5.379452109336853027e-01
4.235630631446838379e-01 -1.887280941009521484e-01 3.921315670013427734e-01
4.156208634376525879e-01 -5.242444276809692383e-01 3.130558431148529053e-01
5.431294441223144531e-01 -6.331176757812500000e-01 2.554416060447692871e-01
5.265035629272460938e-01 -6.537798047065734863e-01 1.949143707752227783e-01
4.729769229888916016e-01 -5.599039793014526367e-01 -1.201057434082031250e-02
4.282979965209960938e-01 -1.710754483938217163e-01 3.323976695537567139e-01
4.217185080051422119e-01 -5.303205251693725586e-01 2.142782807350158691e-01
5.621508955955505371e-01 -1.679941117763519287e-01 1.026740223169326782e-01
5.904687047004699707e-01 -3.409254848957061768e-01 1.499799489974975586e-01
5.927905440330505371e-01 -3.616793155670166016e-01 2.572245597839355469e-01
4.894919991493225098e-01 -6.340408325195312500e-01 5.111514925956726074e-01
4.116232395172119141e-01 -3.077864348888397217e-01 2.325600236654281616e-01
5.660211443901062012e-01 -2.629598379135131836e-01 5.410797595977783203e-01
4.454626441001892090e-01 -4.856595695018768311e-01 1.163631677627563477e-02
4.092331528663635254e-01 -2.796753048896789551e-01 4.132526814937591553e-01
4.504505097866058350e-01 -3.456507325172424316e-01 -2.961274981498718262e-02
5.804744958877563477e-01 -5.085971951484680176e-01 2.568250596523284912e-01
5.664988160133361816e-01 -5.656417608261108398e-01 3.181401491165161133e-01
4.064096510410308838e-01 -4.487376809120178223e-01 3.859270513057708740e-01
4.098279476165771484e-01 -3.525575101375579834e-01 5.183039307594299316e-01
5.174878835678100586e-01 -6.560213565826416016e-01 3.858025670051574707e-01
5.170850157737731934e-01 -3.015415072441101074e-01 -1.170579195022583008e-01
5.837351679801940918e-01 -2.289467304944992065e-01 2.046539485454559326e-01
5.500404238700866699e-01 -2.411916106939315796e-01 -4.183563590049743652e-02
1.128699332475662231e-01 9.456358104944229126e-02 -4.946808516979217529e-01
6.956586241722106934e-02 7.871967554092407227e-02 -4.886262416839599609e-01
3.985565304756164551e-01 3.410374745726585388e-02 -4.330183565616607666e-01
1.029172539710998535e-02 -1.984529197216033936e-02 1.632648333907127380e-02
3.706257045269012451e-01 1.461910307407379150e-01 2.508652210235595703e-01
3.788194060325622559e-01 1.248735189437866211e-02 -3.258636295795440674e-01
2.485014200210571289e-01 2.899244427680969238e-04 -3.665871620178222656e-01
-1.415863633155822754e-02 5.001765117049217224e-02 3.843002617359161377e-01
6.019188761711120605e-01 7.189096510410308838e-02 -6.271874904632568359e-02
2.022693902254104614e-01 1.136711835861206055e-01 -4.965758621692657471e-01
1.270574629306793213e-01 1.196069344878196716e-01 3.124131858348846436e-01
4.847608804702758789e-01 4.570639133453369141e-02 -3.539087176322937012e-01
8.254922926425933838e-02 -1.990921795368194580e-02 2.312811464071273804e-01
1.879771947860717773e-01 5.368827283382415771e-02 -5.714887380599975586e-01
4.068948626518249512e-01 -2.009414136409759521e-03 1.357806567102670670e-02
1.866694688796997070e-01 1.468289345502853394e-01 4.401460662484169006e-02
3.102511763572692871e-01 -5.727931857109069824e-03 3.124626874923706055e-01
1.213457435369491577e-01 -1.675488054752349854e-02 2.948163449764251709e-01
1.452192962169647217e-01 1.902954280376434326e-02 5.062067508697509766e-01
4.882259368896484375e-01 1.486317515373229980e-01 -1.815833747386932373e-01
2.289763391017913818e-01 1.038007289171218872e-01 4.894753098487854004e-01
4.138737320899963379e-01 1.456049978733062744e-01 2.404400259256362915e-01
3.049685955047607422e-01 -3.966294229030609131e-03 -2.778765261173248291e-01
3.677184283733367920e-01 1.568283438682556152e-01 8.387575298547744751e-02
3.520829677581787109e-01 1.566146910190582275e-01 -1.854113787412643433e-01
1.343570649623870850e-01 -8.202940225601196289e-04 4.226115345954895020e-01
3.066904544830322266e-01 1.186570897698402405e-02 -4.052943289279937744e-01
4.424433708190917969e-01 7.915794849395751953e-02 -4.993072152137756348e-01
3.242135643959045410e-01 1.482343226671218872e-01 -3.148466348648071289e-01
2.419572472572326660e-01 -2.238281071186065674e-02 -6.206868588924407959e-02
2.931709885597229004e-01 -1.491501182317733765e-02 -1.390762031078338623e-01
1.256717145442962646e-01 1.264979541301727295e-01 -3.292149305343627930e-01
2.792026698589324951e-01 1.539087444543838501e-01 9.125608205795288086e-02
3.339702486991882324e-01 1.549143493175506592e-01 1.215122193098068237e-01
3.029575943946838379e-01 1.567925810813903809e-01 3.886239975690841675e-02
3.264276385307312012e-01 1.579812020063400269e-01 -1.248238533735275269e-01
-2.225908637046813965e-02 -3.481127321720123291e-03 2.394052892923355103e-01
1.999706476926803589e-01 1.163609176874160767e-01 4.145788252353668213e-01
5.310447216033935547e-01 3.659957274794578552e-02 1.752694398164749146e-01
1.996936500072479248e-01 1.438408792018890381e-01 1.557525545358657837e-01
1.290352046489715576e-01 3.460258245468139648e-03 -4.041770696640014648e-01
2.193117141723632812e-01 1.473568081855773926e-01 1.297315508127212524e-01
4.122155606746673584e-01 1.294959336519241333e-02 3.193008005619049072e-01
1.944948434829711914e-01 1.337272077798843384e-01 -3.653344511985778809e-01
3.569720983505249023e-01 1.164796948432922363e-02 -3.506937325000762939e-01
2.233624160289764404e-01 1.499500274658203125e-01 7.686173915863037109e-02
3.103720545768737793e-01 -1.688877493143081665e-02 -2.165231853723526001e-03
4.440815746784210205e-01 6.303558498620986938e-02 4.786309897899627686e-01
9.330989420413970947e-02 -2.470432966947555542e-02 1.488390713930130005e-01
2.357644289731979370e-01 -2.410454303026199341e-02 4.972814023494720459e-02
5.724827945232391357e-02 8.551590144634246826e-02 -4.564531743526458740e-01
3.783434629440307617e-01 -3.790579736232757568e-03 1.879080086946487427e-01
1.453834325075149536e-01 -2.636788785457611084e-02 1.271723359823226929e-01
4.881229996681213379e-01 1.778306066989898682e-02 -2.999703586101531982e-02
2.394855618476867676e-01 1.298141330480575562e-01 3.549201488494873047e-01
4.524946212768554688e-01 1.521002650260925293e-01 1.115695238113403320e-01
2.652966082096099854e-01 -1.649386435747146606e-02 2.314593344926834106e-01
1.282401382923126221e-02 9.351299703121185303e-02 -3.427414298057556152e-01
5.637191534042358398e-01 1.161816716194152832e-01 2.276362031698226929e-01
4.373503923416137695e-01 1.455534398555755615e-01 -3.027619123458862305e-01
1.599237769842147827e-01 -8.228428661823272705e-03 -3.262498378753662109e-01
6.039439439773559570e-01 8.422602713108062744e-02 -1.338344067335128784e-01
8.851207792758941650e-02 -1.660638302564620972e-02 2.785442471504211426e-01
2.135567367076873779e-02 9.837470948696136475e-02 2.688356637954711914e-01
2.509975433349609375e-01 -1.925241202116012573e-02 2.016937136650085449e-01
8.994996547698974609e-02 4.500299692153930664e-02 5.131065845489501953e-01
6.105223298072814941e-01 9.593367576599121094e-02 -1.049347147345542908e-01
2.965914607048034668e-01 -1.863382756710052490e-02 5.421191081404685974e-02
-5.678606033325195312e-02 -7.051527500152587891e-04 -1.254181116819381714e-01
1.478226780891418457e-01 1.005353331565856934e-01 4.504755139350891113e-01
1.886636316776275635e-01 -1.716852933168411255e-02 -2.259275317192077637e-01
-9.622001647949218750e-02 1.212641969323158264e-02 -4.333282820880413055e-03
7.291932404041290283e-02 3.590684384107589722e-02 -4.926583170890808105e-01
4.575019478797912598e-01 5.221595615148544312e-02 4.429790675640106201e-01
-9.560048580169677734e-03 6.845369935035705566e-04 2.964130640029907227e-01
6.050143241882324219e-01 8.301842212677001953e-02 1.167359650135040283e-01
1.020201146602630615e-01 1.224047988653182983e-01 2.398796379566192627e-01
2.463092356920242310e-01 -2.224992215633392334e-02 1.279275268316268921e-01
1.819090843200683594e-01 1.450648307800292969e-01 -1.807089149951934814e-01
-5.325675010681152344e-02 1.093260943889617920e-03 -1.605332344770431519e-01
2.869163155555725098e-01 1.558541357517242432e-01 -1.453142166137695312e-01
3.519317805767059326e-01 1.514897048473358154e-01 1.856235265731811523e-01
1.596478521823883057e-01 1.192089840769767761e-01 -4.335035681724548340e-01
3.212835192680358887e-01 -1.538721472024917603e-02 8.739128708839416504e-02
4.723534584045410156e-01 8.508452028036117554e-02 4.520772397518157959e-01
4.156460464000701904e-01 1.494620144367218018e-01 1.938668638467788696e-01
1.835103332996368408e-02 -1.951834559440612793e-02 -6.275361031293869019e-02
1.630336642265319824e-01 1.413907706737518311e-01 1.102458536624908447e-01
3.851431608200073242e-01 9.642098844051361084e-02 5.055331587791442871e-01
1.684360504150390625e-01 1.390117853879928589e-01 1.696704328060150146e-01
-4.995122551918029785e-02 8.240591734647750854e-03 -2.286286354064941406e-01
4.893981814384460449e-01 2.352428063750267029e-02 2.030668854713439941e-01
3.401592969894409180e-01 1.272288411855697632e-01 -4.702562093734741211e-01
5.210636854171752930e-01 1.421270668506622314e-01 -1.904831081628799438e-01
2.556672096252441406e-01 1.195621937513351440e-01 4.288094043731689453e-01
7.462130486965179443e-02 1.264179646968841553e-01 -1.800995916128158569e-01
4.499207735061645508e-01 2.767431363463401794e-02 3.538268208503723145e-01
1.875792592763900757e-01 1.375372335314750671e-02 -4.639929831027984619e-01
-1.103926599025726318e-01 4.505179077386856079e-02 9.985375218093395233e-03
4.813688695430755615e-01 8.352551609277725220e-02 -4.561986327171325684e-01
-1.644167304039001465e-02 1.906122639775276184e-02 3.606461882591247559e-01
2.707479000091552734e-01 1.332976520061492920e-01 -4.267292618751525879e-01
1.769022047519683838e-01 1.590489968657493591e-02 5.036461353302001953e-01
2.202041298151016235e-01 1.441718041896820068e-01 -2.817419171333312988e-01
3.279304504394531250e-02 1.190367341041564941e-01 -8.106444031000137329e-02
4.271893203258514404e-01 1.224179267883300781e-01 3.960694670677185059e-01
2.548525929450988770e-01 1.058634370565414429e-02 -4.310660362243652344e-01
1.937500536441802979e-01 -1.081287860870361328e-02 -2.965897619724273682e-01
-5.009162425994873047e-02 7.832014560699462891e-02 1.935446113348007202e-01
1.642586588859558105e-01 -1.654936373233795166e-02 3.027541041374206543e-01
5.155981779098510742e-01 2.580961957573890686e-02 3.338088467717170715e-02
3.611355125904083252e-01 1.910158991813659668e-02 -3.965556323528289795e-01
4.924948513507843018e-02 9.940217435359954834e-02 -3.869195580482482910e-01
4.840443134307861328e-01 1.429416835308074951e-01 -2.670003175735473633e-01
1.106987595558166504e-01 -2.712620794773101807e-02 3.249955363571643829e-03
8.563682436943054199e-03 -8.256435394287109375e-03 -2.208873182535171509e-01
1.559008657932281494e-01 5.835114791989326477e-02 -5.654327273368835449e-01
9.767156839370727539e-02 9.246710687875747681e-02 4.327405095100402832e-01
1.193788200616836548e-01 -2.723295986652374268e-02 7.132159173488616943e-02
1.047936081886291504e-01 -2.643426507711410522e-02 1.017442271113395691e-01
2.704574465751647949e-01 -2.082981914281845093e-02 9.775447100400924683e-02
4.493808746337890625e-01 1.410855352878570557e-02 2.322105169296264648e-01
2.156903594732284546e-01 -2.508450299501419067e-02 8.388596028089523315e-02
1.672832518815994263e-01 5.135945975780487061e-03 -4.195391833782196045e-01
3.414643406867980957e-01 3.479518741369247437e-02 -4.907222986221313477e-01
1.173479408025741577e-01 1.285991072654724121e-01 2.012966424226760864e-01
3.861354589462280273e-01 3.856941312551498413e-02 4.891615211963653564e-01
-7.356950640678405762e-02 3.894500434398651123e-02 2.532668709754943848e-01
1.324626058340072632e-01 6.734241545200347900e-02 5.298108458518981934e-01
2.555726766586303711e-01 8.488675951957702637e-02 5.494394302368164062e-01
2.279344201087951660e-01 1.524464040994644165e-01 -8.125957101583480835e-02
2.595954835414886475e-01 -1.875508576631546021e-02 -1.260942518711090088e-01
4.466763138771057129e-01 1.354911923408508301e-01 3.044436872005462646e-01
4.230163097381591797e-01 1.210220158100128174e-03 4.034543409943580627e-02
2.710869610309600830e-01 1.487106233835220337e-01 1.830173730850219727e-01
