-2.235686033964157104e-01 1.246022805571556091e-02 8.448977768421173096e-02
-6.856467723846435547e-01 5.924848467111587524e-02 -7.638672832399606705e-04
-3.219125568866729736e-01 -2.434064447879791260e-02 1.259206831455230713e-01
-4.303545355796813965e-01 -1.459255516529083252e-01 5.329375620931386948e-03
-2.164648473262786865e-01 -6.312759220600128174e-02 1.123922504484653473e-02
-5.521871447563171387e-01 1.424781978130340576e-01 1.282332241535186768e-01
-4.731048643589019775e-01 1.442383229732513428e-01 -1.334558129310607910e-01
-6.363419890403747559e-01 1.822383701801300049e-01 -4.782345518469810486e-02
-4.888403713703155518e-01 2.657518982887268066e-01 -2.795167267322540283e-02
-5.911577343940734863e-01 2.374360114336013794e-01 -1.467479765415191650e-02
-2.240155786275863647e-01 -5.092719942331314087e-02 5.171989277005195618e-02
-1.933441907167434692e-01 -3.560654819011688232e-03 -3.340733051300048828e-02
-2.545199394226074219e-01 6.349358707666397095e-02 1.099501028656959534e-01
-4.123957455158233643e-01 -1.036650687456130981e-01 9.350255131721496582e-02
-6.299636960029602051e-01 2.061216086149215698e-01 3.325391188263893127e-02
-4.884409904479980469e-01 2.711431980133056641e-01 1.346736447885632515e-03
-3.526735901832580566e-01 2.274376899003982544e-02 1.441532075405120850e-01
-5.900740623474121094e-01 2.116348445415496826e-01 7.268633693456649780e-02
-3.479136824607849121e-01 9.297309815883636475e-02 -1.356365084648132324e-01
-3.265651166439056396e-01 5.331241711974143982e-02 1.403250843286514282e-01
-4.611016511917114258e-01 -1.042084693908691406e-01 8.833861351013183594e-02
-3.996422886848449707e-01 2.088430672883987427e-01 1.090486049652099609e-01
-2.740310728549957275e-01 1.603519469499588013e-01 -8.118610829114913940e-02
-6.345555186271667480e-01 3.805841132998466492e-02 -8.367513120174407959e-02
-6.084623336791992188e-01 4.250835627317428589e-02 1.100109666585922241e-01
-4.780755341053009033e-01 3.731636703014373779e-02 1.504582017660140991e-01
-3.720813691616058350e-01 2.147319465875625610e-01 9.765026718378067017e-02
-4.562672972679138184e-01 -8.485805988311767578e-02 -1.022823527455329895e-01
-2.436251044273376465e-01 1.195226162672042847e-01 8.940392732620239258e-02
-3.244081735610961914e-01 2.379434257745742798e-01 -2.277684397995471954e-02
-5.606685280799865723e-01 2.232859432697296143e-01 -6.771289557218551636e-02
-3.027288913726806641e-01 -9.205047786235809326e-02 7.867244631052017212e-02
-2.837583124637603760e-01 1.332540065050125122e-01 1.103380843997001648e-01
-4.253743886947631836e-01 -1.332937180995941162e-02 -1.378518640995025635e-01
-3.350904583930969238e-01 2.008390426635742188e-02 -1.338315755128860474e-01
-3.120975494384765625e-01 -1.254433542490005493e-01 -2.995229884982109070e-02
-3.640920519828796387e-01 -9.882628917694091797e-02 -8.971988409757614136e-02
-4.418476521968841553e-01 2.548629045486450195e-01 -5.432664975523948669e-02
-2.768204212188720703e-01 4.556543007493019104e-02 -1.154633760452270508e-01
-3.499124050140380859e-01 3.066317364573478699e-02 -1.381711661815643311e-01
-4.486015141010284424e-01 9.262689203023910522e-02 -1.453011184930801392e-01
-4.273534715175628662e-01 2.622761130332946777e-01 4.883935675024986267e-02
-6.195765733718872070e-01 1.457347869873046875e-01 9.531769901514053345e-02
-6.152830719947814941e-01 4.867079108953475952e-02 -9.965189546346664429e-02
-5.756992697715759277e-01 -7.355391979217529297e-03 -1.070598587393760681e-01
-5.694648027420043945e-01 1.533149182796478271e-01 1.187711432576179504e-01
-6.366961002349853516e-01 -4.441986232995986938e-02 -7.309866137802600861e-03
-3.934562206268310547e-01 -5.802347511053085327e-02 -1.201775968074798584e-01
-6.666384935379028320e-01 1.655128300189971924e-01 8.021625690162181854e-03
-6.801725029945373535e-01 8.529490977525711060e-02 -3.212185204029083252e-02
-6.875834465026855469e-01 8.561146259307861328e-02 5.262065678834915161e-03
-1.984557509422302246e-01 8.148446679115295410e-02 -4.632457718253135681e-02
-5.491029024124145508e-01 1.485540568828582764e-01 -1.180377006530761719e-01
-2.590922713279724121e-01 1.177923753857612610e-02 -1.036247014999389648e-01
-5.527110099792480469e-01 1.956975460052490234e-01 1.046382784843444824e-01
-2.880899906158447266e-01 1.498053073883056641e-01 -9.633054584264755249e-02
-3.551675677299499512e-01 -1.288440823554992676e-01 5.323085188865661621e-02
-4.915852546691894531e-01 1.124574989080429077e-01 1.475758552551269531e-01
-1.869962066411972046e-01 8.425055444240570068e-02 -1.605618000030517578e-02
-5.603274106979370117e-01 7.970083504915237427e-02 -1.268142908811569214e-01
-5.437905788421630859e-01 -1.087109893560409546e-01 3.864560648798942566e-02
-5.520758032798767090e-01 1.864769309759140015e-01 -1.001528650522232056e-01
-5.763636827468872070e-01 1.923964470624923706e-01 9.665806591510772705e-02
-6.081515550613403320e-01 2.273032665252685547e-01 -1.185805536806583405e-02
-2.400154620409011841e-01 1.806214451789855957e-01 -7.162069901823997498e-03
-3.056497573852539062e-01 6.265768408775329590e-02 1.336966007947921753e-01
1.336071938276290894e-01 4.472301807254552841e-04 -2.794559299945831299e-01
-1.117813587188720703e-01 5.010661482810974121e-02 -7.241076976060867310e-02
2.164542824029922485e-01 -5.318045616149902344e-02 -1.455906629562377930e-01
-9.250260889530181885e-02 -3.426940366625785828e-02 -2.295729070901870728e-01
1.396694183349609375e-01 -7.515017688274383545e-02 1.367887705564498901e-01
-1.831797510385513306e-02 3.543667122721672058e-02 2.395742982625961304e-01
2.218479812145233154e-01 7.078473269939422607e-02 -1.662205904722213745e-02
4.605264216661453247e-02 -8.453933149576187134e-02 7.615120615810155869e-03
3.680730462074279785e-01 1.899856328964233398e-02 8.961000293493270874e-02
-8.246912062168121338e-02 -7.475799322128295898e-02 -3.345368057489395142e-02
2.826924622058868408e-02 -2.621363103389739990e-02 2.982536852359771729e-01
-1.253139674663543701e-01 2.422615326941013336e-02 1.657610386610031128e-01
2.801504731178283691e-01 -2.057386003434658051e-02 2.449844628572463989e-01
-9.597417712211608887e-02 -7.185376435518264771e-02 4.784078896045684814e-02
-1.840508729219436646e-01 -1.448300853371620178e-02 -1.489533334970474243e-01
-9.972667694091796875e-02 3.966711089015007019e-02 -1.675237268209457397e-01
2.952816784381866455e-01 2.608959935605525970e-02 -1.533532589673995972e-01
2.765597105026245117e-01 -3.498181002214550972e-03 2.629522085189819336e-01
-6.286890804767608643e-02 -3.816081956028938293e-02 2.397614121437072754e-01
3.359056115150451660e-01 -1.139623019844293594e-02 1.850737035274505615e-01
2.452855855226516724e-01 6.812269985675811768e-02 5.111122876405715942e-02
5.250818282365798950e-02 2.049342729151248932e-02 2.972708046436309814e-01
8.503971248865127563e-02 4.500778764486312866e-02 -2.330697327852249146e-01
-1.706152111291885376e-01 -5.002564191818237305e-02 4.714966565370559692e-02
2.934569120407104492e-01 -4.842010512948036194e-02 1.267874687910079956e-01
4.873165115714073181e-02 2.883805427700281143e-04 3.121146857738494873e-01
1.276214420795440674e-01 -8.170974999666213989e-02 3.407480567693710327e-02
2.946687638759613037e-01 9.941350668668746948e-03 -1.704035997390747070e-01
2.603513896465301514e-01 3.739888966083526611e-02 2.322182208299636841e-01
-1.311907619237899780e-01 -6.321254372596740723e-02 -6.788371503353118896e-02
2.487517893314361572e-01 -4.605244845151901245e-02 -1.381254643201828003e-01
8.447095751762390137e-04 7.198631018400192261e-02 1.085134968161582947e-02
-3.811329603195190430e-03 7.046471536159515381e-02 -4.970321804285049438e-02
2.647263407707214355e-01 -3.508571535348892212e-02 -1.552037596702575684e-01
3.370981216430664062e-01 2.117655239999294281e-02 -9.469991177320480347e-02
6.134393066167831421e-02 6.690699607133865356e-02 -1.381666511297225952e-01
4.778552055358886719e-02 -7.431282103061676025e-02 1.636295765638351440e-01
8.653759211301803589e-02 2.551498124375939369e-03 3.177114129066467285e-01
3.541740179061889648e-01 1.748750545084476471e-02 -5.976185202598571777e-02
1.247801557183265686e-01 6.340973079204559326e-02 -1.580244004726409912e-01
-5.810485780239105225e-02 -6.771256774663925171e-02 -1.398584097623825073e-01
-2.105026692152023315e-01 -2.422834187746047974e-02 -3.629585728049278259e-03
3.008541464805603027e-01 3.918520733714103699e-02 1.858176589012145996e-01
2.653110623359680176e-01 3.739571571350097656e-02 -1.643107980489730835e-01
1.124919503927230835e-01 4.803179576992988586e-02 2.489835768938064575e-01
1.010531410574913025e-01 -7.948079705238342285e-02 -7.078620046377182007e-02
-1.551007181406021118e-01 -3.695360198616981506e-02 -1.628914624452590942e-01
-1.238681375980377197e-02 5.202684551477432251e-02 1.874803304672241211e-01
-5.602192878723144531e-02 4.599652811884880066e-02 1.744667291641235352e-01
9.206565469503402710e-02 7.698733359575271606e-02 4.801313579082489014e-02
-1.646381467580795288e-01 4.190315492451190948e-03 1.451817750930786133e-01
-7.449249923229217529e-02 -7.654427736997604370e-02 2.927578985691070557e-03
-1.491823792457580566e-02 7.008780539035797119e-02 -2.098005823791027069e-02
2.263026833534240723e-01 -6.932970136404037476e-02 2.377047017216682434e-02
1.688280701637268066e-01 -4.500956460833549500e-02 2.651892006397247314e-01
3.047672510147094727e-01 -8.446501567959785461e-03 -1.531923264265060425e-01
2.397674471139907837e-01 -5.182639509439468384e-02 1.962380707263946533e-01
1.546626687049865723e-01 2.394799888134002686e-02 -2.584783732891082764e-01
-9.152519702911376953e-02 -4.455471038818359375e-02 -2.084814459085464478e-01
-1.346319019794464111e-01 -6.429350376129150391e-02 2.249391749501228333e-02
4.691555351018905640e-02 4.119510203599929810e-02 -2.420223355293273926e-01
-6.696812808513641357e-03 5.995113775134086609e-02 -1.519797146320343018e-01
1.585245877504348755e-01 6.953760981559753418e-02 -1.061532273888587952e-01
2.853065729141235352e-03 -5.025825649499893188e-02 2.492589205503463745e-01
2.530521154403686523e-01 3.438042849302291870e-02 -1.831010878086090088e-01
2.814577221870422363e-01 4.151459783315658569e-02 -1.339789330959320068e-01
1.638938188552856445e-01 -6.947321444749832153e-02 -1.078379005193710327e-01
-2.510605752468109131e-02 -8.170801401138305664e-02 -7.460737600922584534e-03
-6.211277842521667480e-02 -7.103595882654190063e-02 -1.137059256434440613e-01
1.176391094923019409e-01 -6.948197633028030396e-02 -1.412619203329086304e-01
2.993153631687164307e-01 -2.507449500262737274e-02 -1.343773603439331055e-01
4.735279083251953125e-02 6.021270528435707092e-02 -1.741266995668411255e-01
-1.457992494106292725e-01 -2.286684885621070862e-02 1.784696429967880249e-01
-7.078993320465087891e-02 4.819387197494506836e-02 1.468447744846343994e-01
1.430359780788421631e-01 7.081092149019241333e-02 1.341537088155746460e-01
-1.607057750225067139e-01 -5.483114719390869141e-02 -5.982311815023422241e-02
1.246120035648345947e-01 7.774489372968673706e-02 9.439725428819656372e-03
9.704683721065521240e-02 -4.905499517917633057e-02 2.684936821460723877e-01
2.225635945796966553e-01 6.466003507375717163e-02 -8.969859033823013306e-02
-1.864712983369827271e-01 -4.331118240952491760e-02 -5.741860717535018921e-02
-1.540204584598541260e-01 -1.475755870342254639e-02 -1.953988373279571533e-01
1.669261753559112549e-01 7.229922711849212646e-02 1.111622601747512817e-01
1.545455306768417358e-01 4.188561439514160156e-02 2.647801339626312256e-01
7.278780639171600342e-02 7.600514590740203857e-02 5.745229125022888184e-02
2.149792611598968506e-01 7.224740833044052124e-02 4.696927964687347412e-03
-1.396127194166183472e-01 -3.593124682083725929e-03 1.899643242359161377e-01
-1.956751197576522827e-01 -2.907201834022998810e-02 6.748243421316146851e-02
2.710511088371276855e-01 -5.286856740713119507e-02 1.449076682329177856e-01
1.459766328334808350e-01 3.904103487730026245e-02 -2.361800968647003174e-01
2.592955827713012695e-01 -2.901338599622249603e-02 2.489657849073410034e-01
-7.525573670864105225e-02 5.507967621088027954e-02 -1.101954132318496704e-01
1.810522228479385376e-01 2.030752599239349365e-02 -2.515543997287750244e-01
1.724719107151031494e-01 7.567938417196273804e-02 4.619794338941574097e-02
-4.587957262992858887e-02 5.715288221836090088e-02 1.255078017711639404e-01
2.367802560329437256e-01 -6.212707608938217163e-02 1.355544179677963257e-01
3.641875982284545898e-01 -1.625888422131538391e-02 7.607197016477584839e-02
1.139324530959129333e-01 -1.200129278004169464e-02 -2.817075848579406738e-01
1.361718326807022095e-01 -4.246576130390167236e-02 2.798586487770080566e-01
6.189730018377304077e-02 1.416932139545679092e-02 -2.853546738624572754e-01
2.690891027450561523e-01 -6.005854532122612000e-02 3.385071828961372375e-02
3.376371264457702637e-01 4.319909214973449707e-02 1.423890981823205948e-02
1.528330296277999878e-01 -7.555756717920303345e-02 -6.574679166078567505e-02
6.291418522596359253e-02 -8.449369668960571289e-02 2.049319818615913391e-02
3.114314675331115723e-01 5.356931686401367188e-02 4.683759063482284546e-02
-1.868502348661422729e-01 -4.327019676566123962e-02 2.860859036445617676e-02
1.154667884111404419e-01 2.807290852069854736e-02 -2.639335691928863525e-01
1.731287539005279541e-01 7.464262098073959351e-02 7.263487577438354492e-02
5.807574838399887085e-02 6.563870608806610107e-02 1.582950055599212646e-01
1.150472313165664673e-01 -7.256527245044708252e-02 1.694822460412979126e-01
7.294110953807830811e-03 -8.341233432292938232e-02 -1.407786831259727478e-02
-3.657242655754089355e-02 -4.498724639415740967e-02 -2.353901565074920654e-01
-2.345311641693115234e-02 -5.906939879059791565e-02 2.104567736387252808e-01
3.953076899051666260e-03 -8.298420906066894531e-02 4.723627865314483643e-02
1.238653510808944702e-01 -1.508143730461597443e-02 3.168858289718627930e-01
1.265939474105834961e-01 -7.780615240335464478e-02 1.190433129668235779e-01
-3.957267105579376221e-02 -7.914177328348159790e-02 6.093887984752655029e-02
-1.686520874500274658e-03 -8.319570869207382202e-02 2.583091892302036285e-02
2.890504598617553711e-01 -4.162411764264106750e-02 1.770727038383483887e-01
-1.493263542652130127e-01 3.076700493693351746e-02 9.773372113704681396e-02
6.400218605995178223e-02 4.387493059039115906e-02 2.533797025680541992e-01
-3.977493196725845337e-02 6.231358274817466736e-02 -1.005714610219001770e-01
-1.558984816074371338e-02 -5.059566348791122437e-02 -2.272294610738754272e-01
9.540842473506927490e-02 6.661141663789749146e-02 -1.433946490287780762e-01
2.466688156127929688e-01 7.959780283272266388e-03 2.825155556201934814e-01
-1.481193751096725464e-01 -4.129656031727790833e-02 1.424255967140197754e-01
2.452814131975173950e-01 -4.396535456180572510e-02 2.218632847070693970e-01
1.476643681526184082e-01 7.619734853506088257e-02 6.306362152099609375e-02
8.417183905839920044e-02 2.387658692896366119e-02 -2.741817533969879150e-01
-5.365219712257385254e-02 -2.852038852870464325e-02 2.594096064567565918e-01
-2.141626179218292236e-02 -8.146183937788009644e-02 -2.842973731458187103e-02
3.189460039138793945e-01 7.179982028901576996e-03 2.194443345069885254e-01
9.934546798467636108e-02 6.269311904907226562e-02 1.879376471042633057e-01
-7.348667085170745850e-02 -7.360059022903442383e-02 7.855971902608871460e-02
2.639320865273475647e-02 7.262721657752990723e-02 -6.116805225610733032e-02
-2.035945653915405273e-04 4.495388641953468323e-02 -2.205850780010223389e-01
-1.318122893571853638e-01 -5.214704945683479309e-02 1.304574310779571533e-01
2.811581790447235107e-01 -3.977733105421066284e-02 1.964306086301803589e-01
-3.314390778541564941e-02 -6.258267164230346680e-02 -1.799688041210174561e-01
3.747434616088867188e-01 6.253651808947324753e-04 6.650593876838684082e-02
-1.929904073476791382e-01 -1.551156397908926010e-02 -1.287544369697570801e-01
-6.020928919315338135e-02 3.072684630751609802e-02 2.206888645887374878e-01
7.136651873588562012e-02 -8.266162127256393433e-02 -4.304153472185134888e-02
-3.393644839525222778e-02 -6.806227564811706543e-02 1.644101291894912720e-01
2.722347974777221680e-01 6.331180781126022339e-02 5.341068655252456665e-02
1.280406415462493896e-01 -6.080058217048645020e-02 -1.790049970149993896e-01
-1.045997291803359985e-01 2.822235599160194397e-02 -2.009592801332473755e-01
-7.822296023368835449e-02 4.589676856994628906e-02 -1.643673181533813477e-01
7.181059569120407104e-02 -7.345585525035858154e-02 1.709293425083160400e-01
3.600882291793823242e-01 3.023240715265274048e-02 6.206522881984710693e-02
3.395714759826660156e-01 -3.100724704563617706e-02 -1.612875424325466156e-02
1.388983279466629028e-01 -7.548505812883377075e-02 -8.188790827989578247e-02
4.039024561643600464e-02 -8.089854568243026733e-02 1.051978841423988342e-01
8.816242218017578125e-03 6.049224361777305603e-02 1.601635962724685669e-01
-1.169937103986740112e-01 4.557853192090988159e-02 -1.047340109944343567e-01
-1.538137048482894897e-01 -5.873303115367889404e-02 -3.288604319095611572e-02
1.879112720489501953e-01 6.052705273032188416e-02 -1.455775052309036255e-01
2.103383839130401611e-02 -7.615749537944793701e-02 1.435775458812713623e-01
1.186023876070976257e-01 4.643665999174118042e-02 -2.249348312616348267e-01
2.710734605789184570e-01 6.071649119257926941e-02 -4.215598106384277344e-02
1.302795857191085815e-02 5.402280390262603760e-02 1.961003839969635010e-01
-5.749419331550598145e-02 -5.862170830368995667e-02 -1.845780611038208008e-01
2.452142238616943359e-01 6.282895058393478394e-02 -7.330150902271270752e-02
1.601043343544006348e-01 -7.697302103042602539e-02 9.271533787250518799e-02
2.172121405601501465e-01 5.810786411166191101e-02 -1.356338262557983398e-01
-4.428660869598388672e-02 9.046758525073528290e-03 -2.700721919536590576e-01
-6.350958347320556641e-02 1.482845935970544815e-02 2.479090541601181030e-01
2.806167006492614746e-01 6.181047484278678894e-02 3.435037657618522644e-02
2.899685502052307129e-01 -5.397986993193626404e-02 2.074529975652694702e-02
1.877501308917999268e-01 7.262822985649108887e-02 9.079503268003463745e-02
1.055827364325523376e-01 -5.926897004246711731e-02 -1.943516582250595093e-01
2.359644025564193726e-01 6.855548173189163208e-02 7.522363215684890747e-02
-2.693138271570205688e-02 6.666737049818038940e-02 -6.884554028511047363e-02
4.622089490294456482e-02 6.069153919816017151e-02 1.819181293249130249e-01
8.161911368370056152e-02 -8.236574381589889526e-02 8.288238942623138428e-02
-3.203841298818588257e-02 5.569984018802642822e-02 -1.578411012887954712e-01
-4.560782015323638916e-02 -7.008415460586547852e-02 1.431429088115692139e-01
-1.549686789512634277e-01 3.521854802966117859e-02 4.916051030158996582e-02
2.540282011032104492e-01 6.496962904930114746e-02 8.955116569995880127e-02
1.647975444793701172e-01 -6.527538597583770752e-02 1.905171573162078857e-01
-1.438288241624832153e-01 -6.056918576359748840e-02 4.250730574131011963e-02
-8.059078454971313477e-02 5.842703580856323242e-02 3.754276782274246216e-02
1.762934178113937378e-01 7.575077563524246216e-02 9.434194304049015045e-03
2.801590412855148315e-02 -1.187678659334778786e-03 3.069303333759307861e-01
2.686663568019866943e-01 -5.724962428212165833e-02 -3.164248913526535034e-02
9.061410278081893921e-02 7.073350995779037476e-02 1.324593573808670044e-01
3.007659316062927246e-01 1.750520430505275726e-02 2.327831238508224487e-01
8.232362568378448486e-03 5.197323113679885864e-02 -1.987740844488143921e-01
4.155844449996948242e-03 6.893642991781234741e-02 -8.668859302997589111e-02
2.994642257690429688e-01 -2.986209467053413391e-02 2.035225182771682739e-01
-1.127841621637344360e-01 -3.173434175550937653e-03 2.206153571605682373e-01
3.597328439354896545e-02 7.511969655752182007e-02 -4.820225760340690613e-03
2.541674375534057617e-01 -2.435267902910709381e-02 -1.904247254133224487e-01
-9.118616580963134766e-02 4.372514784336090088e-02 1.413526087999343872e-01
2.452189624309539795e-01 -6.556867063045501709e-02 5.016193538904190063e-02
2.184777110815048218e-01 -4.687433689832687378e-02 2.340300381183624268e-01
3.158876895904541016e-01 3.677735105156898499e-02 -9.633095562458038330e-02
2.663475871086120605e-01 -4.986651614308357239e-02 1.719788759946823120e-01
1.431363224983215332e-01 7.725200057029724121e-02 3.044888004660606384e-02
2.246584445238113403e-01 8.508935570716857910e-03 -2.344813495874404907e-01
1.029969602823257446e-01 7.290324568748474121e-02 1.149124130606651306e-01
1.365087330341339111e-01 7.569296658039093018e-02 -4.965005069971084595e-02
9.108525514602661133e-02 2.776202373206615448e-02 2.938889861106872559e-01
2.574155852198600769e-02 -8.421378582715988159e-02 -4.359791055321693420e-04
1.614058017730712891e-01 -7.871341705322265625e-02 3.048480115830898285e-02
3.461081385612487793e-01 3.732253238558769226e-02 -5.893448367714881897e-03
-1.709766685962677002e-02 6.415072828531265259e-02 -1.123342588543891907e-01
-6.777212023735046387e-02 3.684102371335029602e-02 1.965358853340148926e-01
-1.945041567087173462e-01 1.583042927086353302e-02 -5.800922960042953491e-02
2.225462347269058228e-01 -6.828577816486358643e-02 -2.458808757364749908e-02
-1.460231095552444458e-01 3.277331590652465820e-02 -1.241026297211647034e-01
1.148126572370529175e-01 -8.108357340097427368e-02 8.231826871633529663e-02
1.469491720199584961e-01 -4.108936339616775513e-02 -2.317225337028503418e-01
2.664304971694946289e-01 5.386829376220703125e-02 1.640060245990753174e-01
7.760061323642730713e-02 5.836757272481918335e-02 -1.866814196109771729e-01
5.921460688114166260e-02 -3.809226304292678833e-02 -2.607237100601196289e-01
3.462284803390502930e-01 6.262763403356075287e-03 1.761566549539566040e-01
1.355325579643249512e-01 -7.990471273660659790e-02 7.855671644210815430e-02
5.613049864768981934e-02 7.546127587556838989e-02 -4.052010178565979004e-02
-1.042567938566207886e-02 -7.258406281471252441e-02 -1.354374140501022339e-01
-1.232251524925231934e-03 -8.213075343519449234e-04 -2.872219085693359375e-01
1.613872796297073364e-01 -7.116563618183135986e-02 1.542653441429138184e-01
-2.035975456237792969e-02 5.470671132206916809e-02 1.680259555578231812e-01
3.007634878158569336e-01 5.614014714956283569e-02 6.628242880105972290e-02
-1.194239556789398193e-01 -3.295357152819633484e-02 1.982802003622055054e-01
-1.234738230705261230e-01 -6.757104396820068359e-02 -7.531538605690002441e-03
-1.233738809823989868e-01 -4.223239421844482422e-02 1.750173717737197876e-01
1.617186665534973145e-01 2.264256961643695831e-02 2.999826669692993164e-01
2.005269825458526611e-01 -6.682799011468887329e-02 1.497269868850708008e-01
2.997372299432754517e-02 7.462902367115020752e-02 1.530817151069641113e-02
-1.529883891344070435e-01 -5.239946395158767700e-02 8.671630173921585083e-02
1.927356123924255371e-01 -7.189448922872543335e-02 -4.625850915908813477e-02
-6.552840769290924072e-02 1.614447683095932007e-02 -2.527707219123840332e-01
3.156495094299316406e-01 -3.768345713615417480e-02 -5.607342720031738281e-02
2.810772061347961426e-01 6.114865466952323914e-02 1.303809694945812225e-03
-1.135647296905517578e-02 -7.635077089071273804e-02 -1.066056638956069946e-01
1.896778941154479980e-01 -6.545162945985794067e-02 -1.086454391479492188e-01
-1.194380521774291992e-01 4.539375007152557373e-02 7.527157664299011230e-02
2.452476173639297485e-01 5.413922294974327087e-02 -1.274310350418090820e-01
2.580833733081817627e-01 2.826486900448799133e-02 2.536078691482543945e-01
8.402255177497863770e-02 -5.114640668034553528e-02 -2.270056307315826416e-01
-2.105745226144790649e-01 5.901993717998266220e-04 -6.957799196243286133e-03
-1.225142329931259155e-01 -6.269627064466476440e-02 8.543927967548370361e-02
-6.051549315452575684e-02 -5.309330765157938004e-03 -2.689548134803771973e-01
1.819126904010772705e-01 5.067356303334236145e-02 2.326741218566894531e-01
2.835955470800399780e-02 -7.309473305940628052e-02 -1.403497755527496338e-01
-1.103872060775756836e-01 5.056131631135940552e-02 4.752457886934280396e-02
5.065436288714408875e-02 6.804050505161285400e-02 1.372364312410354614e-01
-5.436870455741882324e-02 6.179999187588691711e-02 6.721890717744827271e-02
-1.226112842559814453e-01 1.427325699478387833e-02 1.913781911134719849e-01
-2.956076711416244507e-02 -5.554798245429992676e-02 -2.081029266119003296e-01
2.299919575452804565e-01 6.541602313518524170e-02 1.252704858779907227e-01
-1.669700294733047485e-01 -3.819011151790618896e-02 -1.399746686220169067e-01
-1.127817183732986450e-01 -5.195501074194908142e-02 1.585650146007537842e-01
-1.877744942903518677e-01 6.341045722365379333e-03 9.024921059608459473e-02
2.237754464149475098e-01 -6.304558366537094116e-02 -7.918505370616912842e-02
-1.788772195577621460e-01 2.748096920549869537e-02 -1.608046889305114746e-02
2.173633575439453125e-01 6.868212670087814331e-02 -5.882699042558670044e-02
9.921053797006607056e-02 6.299512833356857300e-02 -1.640559732913970947e-01
-2.865716814994812012e-03 -3.836946189403533936e-02 -2.575905621051788330e-01
7.551413029432296753e-02 -6.982748210430145264e-02 1.921102404594421387e-01
5.171030759811401367e-02 -8.108703792095184326e-02 -7.163682579994201660e-02
1.890406608581542969e-01 -7.159591466188430786e-02 1.199776232242584229e-01
-5.161245167255401611e-02 -7.802453637123107910e-02 -4.787600785493850708e-02
1.616604924201965332e-01 -4.663377627730369568e-02 -2.102990299463272095e-01
1.000399142503738403e-02 -7.981962710618972778e-02 -8.140472322702407837e-02
2.473802715539932251e-01 -6.441564112901687622e-02 -4.701558500528335571e-04
2.073498070240020752e-01 -2.361652441322803497e-03 -2.462598085403442383e-01
6.650638580322265625e-02 -4.414037615060806274e-02 2.786742150783538818e-01
2.113182470202445984e-02 -6.587442755699157715e-02 2.026943713426589966e-01
-6.037604808807373047e-02 -3.337165340781211853e-02 -2.485394775867462158e-01
2.846263647079467773e-01 1.504400279372930527e-02 2.507395744323730469e-01
1.473265588283538818e-01 7.292749732732772827e-02 -8.075428009033203125e-02
1.839051544666290283e-01 -3.759759664535522461e-02 -2.198114693164825439e-01
-8.285616338253021240e-02 -5.276070535182952881e-02 1.884027421474456787e-01
1.665686666965484619e-01 -5.757781118154525757e-02 -1.698612868785858154e-01
-7.173828780651092529e-03 -5.560315027832984924e-02 2.300684601068496704e-01
2.591323852539062500e-01 1.145396195352077484e-02 -2.063554227352142334e-01
2.504772320389747620e-02 6.473988294601440430e-02 1.448611021041870117e-01
-5.482017993927001953e-02 -7.887995988130569458e-02 -1.297871023416519165e-02
3.006207644939422607e-01 -5.045099556446075439e-02 6.747766584157943726e-02
3.253518640995025635e-01 -2.913677133619785309e-02 -7.286988943815231323e-02
5.137882381677627563e-02 -8.408282697200775146e-02 5.033843964338302612e-02
6.620191037654876709e-02 -8.143445849418640137e-02 1.006346195936203003e-01
9.857476502656936646e-02 7.608012109994888306e-02 -5.138282477855682373e-02
-7.605855166912078857e-02 -7.361752539873123169e-02 -7.029397785663604736e-02
-1.275749355554580688e-01 3.147927299141883850e-02 1.383262425661087036e-01
3.220613300800323486e-01 4.711767658591270447e-02 -2.374215610325336456e-02
1.087411046028137207e-01 -8.244355022907257080e-02 5.723963677883148193e-02
-2.127765864133834839e-02 -2.712921798229217529e-02 -2.703480124473571777e-01
2.285419106483459473e-01 -6.861612945795059204e-02 6.284956634044647217e-02
2.400465309619903564e-01 5.954406782984733582e-02 -1.041948124766349792e-01
1.137145608663558960e-01 -3.592867031693458557e-02 2.950305938720703125e-01
1.496778130531311035e-01 5.937341228127479553e-02 -1.702824532985687256e-01
1.353438794612884521e-01 -6.814290583133697510e-02 1.892316192388534546e-01
2.045014202594757080e-01 -3.264759108424186707e-02 -2.165456712245941162e-01
-1.847802251577377319e-01 1.009650807827711105e-02 -1.233651265501976013e-01
-1.122483462095260620e-01 -6.188421323895454407e-02 -1.185014918446540833e-01
-3.071004152297973633e-02 -7.720167934894561768e-02 9.972390532493591309e-02
3.334325551986694336e-01 -3.653357550501823425e-02 7.750914897769689560e-03
3.737176209688186646e-02 7.127596437931060791e-02 9.713502228260040283e-02
6.364713609218597412e-02 -7.692454382777214050e-03 -2.910156250000000000e-01
1.044716387987136841e-01 -8.317717164754867554e-02 2.121775783598423004e-02
-6.196297705173492432e-03 4.835758358240127563e-02 2.070056647062301636e-01
2.039339393377304077e-02 -6.141128949820995331e-03 -2.904634177684783936e-01
1.905189752578735352e-01 -5.271342396736145020e-02 -1.712162345647811890e-01
-1.477406620979309082e-01 2.721648290753364563e-02 -1.463108509778976440e-01
2.546373903751373291e-01 -5.235881358385086060e-02 -1.002248004078865051e-01
-7.775536179542541504e-02 -2.445057965815067291e-02 2.465990483760833740e-01
1.578382402658462524e-01 7.627683877944946289e-02 -1.731535978615283966e-02
2.478411495685577393e-01 5.421606823801994324e-02 1.816431581974029541e-01
8.946193009614944458e-02 6.635712832212448120e-02 1.645619869232177734e-01
9.724182635545730591e-02 -8.327164500951766968e-02 -1.983385533094406128e-03
2.055988013744354248e-01 1.111565623432397842e-02 2.998234927654266357e-01
2.000608593225479126e-01 2.665474452078342438e-02 2.850324809551239014e-01
-1.190717369318008423e-01 4.977161437273025513e-02 1.584064587950706482e-02
3.028259426355361938e-02 -8.359476178884506226e-02 5.689713358879089355e-02
2.765701711177825928e-01 5.093376711010932922e-02 -1.026979014277458191e-01
-1.453084349632263184e-01 2.230817079544067383e-02 -1.669895350933074951e-01
2.120558768510818481e-01 -6.842525303363800049e-02 1.172368675470352173e-01
-9.460219740867614746e-02 -5.847507715225219727e-02 -1.578754186630249023e-01
2.430669665336608887e-01 4.834030568599700928e-02 -1.535189598798751831e-01
-1.256799697875976562e-02 -8.075308054685592651e-02 7.370208948850631714e-02
3.735540509223937988e-01 -4.532830789685249329e-04 1.618870906531810760e-02
1.887935996055603027e-01 -6.493132561445236206e-02 1.751209795475006104e-01
-9.021531045436859131e-02 8.261275477707386017e-03 -2.463482916355133057e-01
-5.993038415908813477e-03 2.664736844599246979e-02 2.656240463256835938e-01
-3.059931099414825439e-02 4.182342439889907837e-02 -2.168286293745040894e-01
-1.742217987775802612e-01 -2.087269909679889679e-02 1.346401572227478027e-01
-2.637553215026855469e-02 -7.404777407646179199e-02 1.319232434034347534e-01
4.333707690238952637e-02 5.601311102509498596e-02 2.032192200422286987e-01
-1.635956466197967529e-01 -5.488218367099761963e-02 2.281031385064125061e-02
-8.089937269687652588e-02 -6.426230818033218384e-02 1.414662301540374756e-01
-3.762558102607727051e-03 -8.204261213541030884e-02 -3.970564901828765869e-02
1.944814622402191162e-01 6.983881443738937378e-02 1.184969544410705566e-01
-1.405259668827056885e-01 -4.987210780382156372e-02 -1.407301276922225952e-01
-1.031006425619125366e-01 -7.112900167703628540e-02 -3.795610368251800537e-02
-3.589918464422225952e-02 6.741809844970703125e-02 -1.332709565758705139e-03
1.594318747520446777e-01 -2.734861802309751511e-03 -2.702310383319854736e-01
2.454917877912521362e-02 -7.752202451229095459e-02 -1.074059680104255676e-01
8.587626367807388306e-02 -1.986609399318695068e-02 3.135915994644165039e-01
3.490738272666931152e-01 2.877125889062881470e-02 1.292456239461898804e-01
-1.770135760307312012e-02 -3.721302002668380737e-02 2.673978209495544434e-01
-2.119014114141464233e-01 -1.841404289007186890e-02 -4.827086627483367920e-02
6.220364570617675781e-02 -5.940044298768043518e-02 2.364212870597839355e-01
1.401595324277877808e-01 1.133529841899871826e-02 3.137133717536926270e-01
-1.798356622457504272e-01 -3.806389123201370239e-02 -1.126516982913017273e-01
1.663981080055236816e-01 6.889148801565170288e-02 1.433821469545364380e-01
2.219845205545425415e-01 6.027281656861305237e-02 1.702671051025390625e-01
-7.857203483581542969e-03 -8.295189589262008667e-02 4.192620515823364258e-03
1.438125967979431152e-02 -6.752531975507736206e-02 -1.701126396656036377e-01
-8.683273196220397949e-02 2.878519520163536072e-02 2.005256563425064087e-01
1.737745106220245361e-01 -5.106291547417640686e-02 -1.893139630556106567e-01
-1.007330715656280518e-01 4.455530643463134766e-02 -1.422154903411865234e-01
4.447434097528457642e-02 7.060313969850540161e-02 -1.018302291631698608e-01
2.773922085762023926e-01 -3.944861143827438354e-02 -1.241587623953819275e-01
1.571422070264816284e-01 6.298118829727172852e-02 -1.494914591312408447e-01
6.730458885431289673e-02 -7.432343810796737671e-02 -1.294450312852859497e-01
1.083735376596450806e-02 7.302533835172653198e-02 -7.821738719940185547e-03
-7.036440074443817139e-02 -6.256720423698425293e-02 1.614362597465515137e-01
1.957194507122039795e-01 -6.803581118583679199e-02 -8.148125559091567993e-02
3.007902204990386963e-02 -8.176887035369873047e-02 -6.218481063842773438e-02
3.669490218162536621e-01 -1.468592043966054916e-02 4.372017085552215576e-02
3.488630056381225586e-03 7.102216780185699463e-02 5.304748564958572388e-02
1.843753904104232788e-01 4.219371825456619263e-03 3.096622526645660400e-01
-1.115019917488098145e-01 -4.379800707101821899e-02 -1.946564912796020508e-01
1.151917129755020142e-02 -6.065356731414794922e-02 2.205275297164916992e-01
4.357204958796501160e-02 7.508189231157302856e-02 3.999958187341690063e-02
3.227252364158630371e-01 4.874328896403312683e-02 7.534232735633850098e-02
-2.087157219648361206e-01 -9.572694078087806702e-03 3.998801112174987793e-02
2.601879835128784180e-01 4.568614065647125244e-02 2.069224715232849121e-01
3.508546948432922363e-01 -4.080148879438638687e-03 -7.324343919754028320e-02
-1.955063790082931519e-01 -3.975335136055946350e-02 -1.537342555820941925e-02
-2.579993009567260742e-02 4.607283044606447220e-04 -2.809610068798065186e-01
1.763765811920166016e-01 4.197413474321365356e-02 2.605119347572326660e-01
-3.722772002220153809e-02 4.883383959531784058e-02 -1.873776614665985107e-01
-1.415169090032577515e-01 4.302936792373657227e-02 -3.514381498098373413e-02
-2.044880539178848267e-01 -3.012288175523281097e-02 1.845521479845046997e-02
-1.147535890340805054e-01 -8.796754293143749237e-03 -2.357639372348785400e-01
-1.247909516096115112e-01 3.629040345549583435e-02 -1.470187902450561523e-01
3.401851058006286621e-01 -1.861565187573432922e-02 1.616207808256149292e-01
1.017882674932479858e-02 6.540924310684204102e-02 -1.259756982326507568e-01
5.822826176881790161e-02 3.375851735472679138e-02 2.765803039073944092e-01
1.779252290725708008e-01 -2.847001701593399048e-02 2.943985462188720703e-01
-1.027777642011642456e-01 -7.192024588584899902e-02 7.182303816080093384e-04
1.366120576858520508e-02 6.081452593207359314e-02 -1.588121056556701660e-01
2.420919090509414673e-01 6.064077094197273254e-02 1.496507972478866577e-01
3.340175151824951172e-01 -3.704350814223289490e-02 6.765377521514892578e-02
2.881717383861541748e-01 -4.907728731632232666e-02 -5.296774953603744507e-02
3.822000324726104736e-02 -5.823897942900657654e-02 -2.098644971847534180e-01
3.646878004074096680e-01 -1.247590128332376480e-02 9.790125489234924316e-02
-1.686469316482543945e-01 -1.947532035410404205e-02 -1.723376363515853882e-01
-5.469194054603576660e-02 6.412931531667709351e-02 1.891613379120826721e-02
2.212683111429214478e-01 -6.228174641728401184e-02 1.581223607063293457e-01
2.710559964179992676e-01 4.789840057492256165e-02 1.878545582294464111e-01
2.277637422084808350e-01 4.284263029694557190e-02 2.384995967149734497e-01
4.355045780539512634e-02 -6.448956578969955444e-02 -1.854153573513031006e-01
2.139991819858551025e-01 -7.041474431753158569e-02 8.259402215480804443e-02
1.288885325193405151e-01 -5.110939964652061462e-02 -2.131805568933486938e-01
-2.793225646018981934e-02 -7.676901668310165405e-02 -9.261425584554672241e-02
1.691014468669891357e-01 -5.917829275131225586e-02 2.178850620985031128e-01
7.883465290069580078e-02 7.721194624900817871e-02 -8.070416748523712158e-03
-1.793414205312728882e-01 -4.338965192437171936e-02 -8.791063725948333740e-02
1.535864770412445068e-01 -7.722603529691696167e-02 -4.288480430841445923e-02
2.038185447454452515e-01 4.195736348628997803e-02 -2.027502357959747314e-01
-1.306124776601791382e-02 -6.790542602539062500e-02 -1.619998812675476074e-01
3.242690861225128174e-01 4.123747348785400391e-02 -5.894596874713897705e-02
1.057781055569648743e-01 -4.479426890611648560e-02 -2.382336258888244629e-01
-1.868598610162734985e-01 -1.538618747144937515e-02 1.116289198398590088e-01
1.300013512372970581e-01 -7.985303550958633423e-02 -3.645688295364379883e-02
1.404715776443481445e-01 -7.259310781955718994e-02 1.577230691909790039e-01
3.142955899238586426e-02 -8.305989205837249756e-02 -4.075364768505096436e-02
3.459393233060836792e-02 -8.252645283937454224e-02 8.072749525308609009e-02
-8.941523730754852295e-02 5.666279420256614685e-02 -5.321645736694335938e-02
2.081004530191421509e-01 7.005327939987182617e-02 1.022462397813796997e-01
5.959764868021011353e-02 5.470975488424301147e-02 -2.006083726882934570e-01
2.157627344131469727e-01 4.815361276268959045e-02 -1.769580096006393433e-01
1.254659295082092285e-01 -7.455921918153762817e-02 -1.014411151409149170e-01
2.528867423534393311e-01 6.637582927942276001e-02 -1.051271706819534302e-02
-1.759857684373855591e-01 -5.034600570797920227e-02 5.787427537143230438e-03
1.153781712055206299e-01 5.685082823038101196e-02 -1.903229206800460815e-01
-8.991982042789459229e-02 3.780462592840194702e-02 -1.857852339744567871e-01
1.313734054565429688e-01 6.750219315290451050e-02 -1.320310533046722412e-01
1.600747704505920410e-01 -7.830418646335601807e-02 -6.065469235181808472e-03
1.951596587896347046e-01 -7.315506041049957275e-02 -2.058159001171588898e-02
2.821695208549499512e-01 -8.078693412244319916e-03 -1.813984662294387817e-01
-5.360937118530273438e-02 -7.650177925825119019e-02 -6.875170022249221802e-02
2.946261167526245117e-01 5.156078189611434937e-02 -6.673194468021392822e-02
3.376488685607910156e-01 -2.549742907285690308e-02 -5.490003526210784912e-02
3.656569495797157288e-02 4.650961607694625854e-02 2.361947894096374512e-01
1.232043206691741943e-01 7.193265110254287720e-02 1.261183172464370728e-01
-2.006781250238418579e-01 -2.008984796702861786e-02 -1.023830175399780273e-01
3.492713570594787598e-01 -1.976672187447547913e-02 1.331202983856201172e-01
1.387022286653518677e-01 -2.660301513969898224e-02 -2.607979476451873779e-01
3.624345064163208008e-01 -2.645050408318638802e-03 -3.997781872749328613e-02
9.351983666419982910e-02 5.104032158851623535e-02 -2.143324464559555054e-01
-1.171557009220123291e-01 3.169427439570426941e-02 -1.764362454414367676e-01
1.758070588111877441e-01 7.059267163276672363e-02 -8.544865995645523071e-02
5.103422701358795166e-02 -7.725954055786132812e-02 1.424945443868637085e-01
-3.493336588144302368e-02 6.008273735642433167e-02 -1.263907253742218018e-01
-1.164977401494979858e-01 -5.009937286376953125e-02 -1.702489107847213745e-01
3.640180230140686035e-01 2.647973969578742981e-02 1.983937434852123260e-02
3.604993224143981934e-03 -8.075282722711563110e-02 8.913458883762359619e-02
-5.823408067226409912e-02 6.362769752740859985e-02 -2.739308960735797882e-02
-9.556919336318969727e-02 1.213099574670195580e-03 2.348344027996063232e-01
2.106462568044662476e-01 -6.328803300857543945e-02 -9.725688397884368896e-02
-9.204815328121185303e-02 -4.066806286573410034e-02 2.117275595664978027e-01
-1.092901378870010376e-01 -6.782978028059005737e-02 -7.233086973428726196e-02
2.770372629165649414e-01 -4.967829957604408264e-02 -7.508862018585205078e-02
2.214006334543228149e-01 -3.958332538604736328e-02 -1.874133646488189697e-01
-8.043892681598663330e-03 6.526059657335281372e-02 1.092346757650375366e-01
1.206499859690666199e-01 2.997173368930816650e-02 2.920814454555511475e-01
-5.867986381053924561e-02 -4.589119926095008850e-02 -2.242394238710403442e-01
3.231395483016967773e-01 -3.190422803163528442e-02 1.541026830673217773e-01
-2.314799278974533081e-02 6.794597208499908447e-02 4.842921346426010132e-02
7.314376533031463623e-03 7.227526605129241943e-02 3.101362474262714386e-02
6.790616363286972046e-02 -7.963321357965469360e-02 1.215456724166870117e-01
2.080310136079788208e-01 6.459376215934753418e-02 -1.057572960853576660e-01
7.824733853340148926e-02 7.514298707246780396e-02 7.770574837923049927e-02
1.721952855587005615e-01 7.362318038940429688e-02 -5.350492894649505615e-02
-1.371953338384628296e-01 -2.812354266643524170e-02 -2.019522935152053833e-01
2.993265986442565918e-01 -4.311753436923027039e-02 1.498459428548812866e-01
-1.142548173666000366e-01 -3.240563720464706421e-02 -2.166896462440490723e-01
2.766100317239761353e-02 7.242994755506515503e-02 7.050862908363342285e-02
-1.954194754362106323e-01 1.106039620935916901e-02 -8.443851023912429810e-02
1.499732881784439087e-01 -1.019921805709600449e-02 3.163733482360839844e-01
-1.360216140747070312e-01 1.163069717586040497e-02 -2.020611315965652466e-01
4.359933733940124512e-02 7.294487208127975464e-02 -7.390205562114715576e-02
-3.887741267681121826e-02 -8.030575513839721680e-02 3.339791297912597656e-02
-1.976842731237411499e-01 -3.732338920235633850e-02 -4.036936908960342407e-02
-1.216926723718643188e-01 4.899862036108970642e-02 -4.229737073183059692e-02
1.685788482427597046e-02 -6.275687366724014282e-02 -1.918521970510482788e-01
1.035162359476089478e-01 7.732728868722915649e-02 -2.216749452054500580e-02
3.555516526103019714e-02 1.156084891408681870e-02 -2.866475284099578857e-01
2.926251888275146484e-01 5.657147988677024841e-02 9.471934288740158081e-02
2.308473736047744751e-01 -3.663052618503570557e-02 2.540251016616821289e-01
-1.932644397020339966e-01 1.820613257586956024e-02 5.871476605534553528e-04
3.330687880516052246e-01 -1.105470117181539536e-02 -1.038529127836227417e-01
1.339452564716339111e-01 -5.505303665995597839e-02 2.462124675512313843e-01
2.338138669729232788e-01 3.094780817627906799e-02 -2.055870443582534790e-01
1.601305305957794189e-01 -7.848834991455078125e-02 5.701318383216857910e-02
-1.316228508949279785e-01 -6.220739334821701050e-02 6.654988974332809448e-02
-4.978680610656738281e-02 6.318870931863784790e-02 -7.080397754907608032e-02
-1.308531016111373901e-01 -6.126432120800018311e-02 -8.897858858108520508e-02
2.088873386383056641e-01 3.792210668325424194e-02 2.601908147335052490e-01
1.187694966793060303e-01 -3.282610699534416199e-02 -2.583109438419342041e-01
-8.608259260654449463e-03 -5.769639834761619568e-02 -2.067379802465438843e-01
2.885328978300094604e-02 -5.317592993378639221e-02 2.498223483562469482e-01
1.814778894186019897e-01 -6.234059482812881470e-02 -1.355925947427749634e-01
1.604163199663162231e-01 6.132981553673744202e-02 1.930286288261413574e-01
1.189341321587562561e-01 5.555796623229980469e-02 2.226400822401046753e-01
-1.101403832435607910e-01 -6.181152164936065674e-02 1.154296025633811951e-01
4.452520981431007385e-02 -6.708782166242599487e-02 2.029994875192642212e-01
-7.672411203384399414e-02 5.692902952432632446e-02 7.203258574008941650e-02
6.042420864105224609e-03 -7.535748928785324097e-02 -1.210843697190284729e-01
3.330242037773132324e-01 1.323623489588499069e-02 1.954054683446884155e-01
1.898241341114044189e-01 -5.097818002104759216e-02 2.382933944463729858e-01
-9.774862229824066162e-02 4.985968023538589478e-02 -1.117384061217308044e-01
-1.729021519422531128e-01 2.920150384306907654e-02 -5.665434151887893677e-02
2.094001471996307373e-01 5.509356409311294556e-02 -1.558092534542083740e-01
1.008918210864067078e-01 7.773147523403167725e-02 1.987609267234802246e-02
9.830334037542343140e-02 -2.236966043710708618e-01 -3.944649174809455872e-02
1.613796055316925049e-01 1.058384776115417480e-03 1.861779205501079559e-02
-1.211517602205276489e-01 -2.114802300930023193e-01 -3.377576917409896851e-02
1.845105290412902832e-01 -1.940754055976867676e-01 6.158428639173507690e-02
-1.811443567276000977e-01 -1.353307515382766724e-01 -1.448588222265243530e-01
-3.259629011154174805e-02 5.027413368225097656e-02 5.180966854095458984e-02
1.886416971683502197e-01 -2.062486559152603149e-01 1.542911678552627563e-02
1.496940851211547852e-02 -7.137760519981384277e-03 1.578885167837142944e-01
2.789904773235321045e-01 -9.427940100431442261e-02 1.898177340626716614e-02
1.520823538303375244e-01 6.229855120182037354e-03 -2.334398683160543442e-03
-7.727196067571640015e-02 3.615844249725341797e-02 1.198813542723655701e-01
1.288861632347106934e-01 -7.324863225221633911e-02 -1.670195907354354858e-01
-3.697302937507629395e-02 -1.148472726345062256e-02 1.759610623121261597e-01
1.153052225708961487e-01 -2.160080671310424805e-01 -7.032883167266845703e-02
-2.836443483829498291e-01 3.421891480684280396e-02 -3.589731454849243164e-02
-2.557707130908966064e-01 -1.182666271924972534e-01 -1.196306645870208740e-01
-3.052043914794921875e-01 -1.499157696962356567e-01 -1.962336525321006775e-02
-2.098548114299774170e-01 -1.750146448612213135e-01 1.068868413567543030e-01
-2.339234352111816406e-01 -1.672433316707611084e-01 -7.174747437238693237e-02
8.322753757238388062e-02 -9.380906820297241211e-03 -1.293124705553054810e-01
-1.072036176919937134e-01 4.906399548053741455e-02 9.233402460813522339e-02
-2.058992683887481689e-01 5.437622964382171631e-02 6.562043726444244385e-02
1.821952760219573975e-01 -1.541813015937805176e-01 1.152479723095893860e-01
1.038381978869438171e-01 -2.096144109964370728e-01 -9.373457729816436768e-02
-1.356986612081527710e-01 -1.215217262506484985e-01 -1.685182452201843262e-01
2.781236171722412109e-01 -9.469433128833770752e-02 -5.753179639577865601e-02
-1.374953687191009521e-01 -1.238543838262557983e-01 1.911407858133316040e-01
-3.493178635835647583e-02 -1.506721228361129761e-02 -1.603311598300933838e-01
-6.200719997286796570e-02 -9.753996878862380981e-02 -1.885259449481964111e-01
-1.811536252498626709e-01 -1.402491480112075806e-01 1.702861785888671875e-01
-1.110529527068138123e-01 -1.879637837409973145e-01 1.256353110074996948e-01
-9.959217160940170288e-03 -2.261506915092468262e-01 2.572361379861831665e-02
-1.832411885261535645e-01 -1.604274213314056396e-01 1.466474235057830811e-01
4.887919872999191284e-02 -2.268999963998794556e-01 2.171496488153934479e-02
-8.625454455614089966e-02 5.744867026805877686e-02 -8.961826562881469727e-03
-1.120056509971618652e-01 -1.995237767696380615e-01 9.969102591276168823e-02
-1.816703081130981445e-01 4.668766260147094727e-02 1.020181998610496521e-01
-1.694558411836624146e-01 2.840220928192138672e-03 -1.334547996520996094e-01
-1.329321265220642090e-01 3.491867333650588989e-02 1.305015683174133301e-01
-3.560806214809417725e-01 -2.394071966409683228e-02 -5.644091218709945679e-02
-2.251985967159271240e-01 -1.877089440822601318e-01 3.271917626261711121e-02
-3.868341073393821716e-02 -1.798168569803237915e-01 -1.433738768100738525e-01
7.667466253042221069e-02 -1.792440712451934814e-01 -1.478543579578399658e-01
3.163723647594451904e-02 -2.285644859075546265e-01 -8.247170597314834595e-03
-1.021523997187614441e-01 3.548954427242279053e-02 1.261612474918365479e-01
-2.465725243091583252e-01 5.190618336200714111e-02 4.635024443268775940e-02
4.836993664503097534e-02 3.287588804960250854e-02 5.935341864824295044e-02
2.274996340274810791e-01 -1.163029447197914124e-01 9.859022498130798340e-02
2.909523248672485352e-02 -1.907344162464141846e-01 1.292825639247894287e-01
2.484008371829986572e-01 -1.820964217185974121e-01 -3.255254775285720825e-02
-2.140811383724212646e-01 -1.832105368375778198e-01 7.957632094621658325e-02
-2.575963437557220459e-01 -4.133341088891029358e-02 1.817888468503952026e-01
1.985480785369873047e-01 -1.235115379095077515e-01 1.196642145514488220e-01
1.271723210811614990e-02 -1.164100766181945801e-01 -1.887876838445663452e-01
-2.606963515281677246e-01 -1.627895832061767578e-01 -5.309143662452697754e-02
-7.609418034553527832e-02 -2.129983007907867432e-01 7.169245928525924683e-02
-2.783258557319641113e-01 -4.066914319992065430e-02 1.744198203086853027e-01
5.773634463548660278e-02 -2.218338102102279663e-01 5.011263489723205566e-02
-2.045863866806030273e-01 -1.254545450210571289e-01 1.758726388216018677e-01
-1.466954648494720459e-01 5.136983096599578857e-02 -4.855528473854064941e-02
2.018212974071502686e-01 -3.940520063042640686e-02 -9.465847909450531006e-02
