1.405573934316635132e-01 -2.610415518283843994e-01 -1.903996318578720093e-01
4.895566403865814209e-02 -2.662546932697296143e-01 -1.060083806514739990e-01
1.703269481658935547e-01 -2.394584268331527710e-01 -2.615454792976379395e-01
2.073835730552673340e-01 -2.179654985666275024e-01 -1.155781298875808716e-01
2.006323635578155518e-02 -2.170370221138000488e-01 2.937607765197753906e-01
1.035842746496200562e-01 -2.766556143760681152e-01 -1.455223560333251953e-02
1.641317158937454224e-01 -2.110546529293060303e-01 7.065888643264770508e-01
1.670350134372711182e-01 -2.553345859050750732e-01 5.474190711975097656e-01
4.501538723707199097e-02 -2.622798085212707520e-01 -1.449709087610244751e-01
8.993634581565856934e-02 -2.786821126937866211e-01 3.019963800907135010e-01
2.125739753246307373e-01 -2.177813649177551270e-01 4.694784283638000488e-01
2.094420790672302246e-01 -1.968781799077987671e-01 -9.359313547611236572e-02
4.981291294097900391e-02 -1.892325133085250854e-01 -2.170324176549911499e-01
2.190088629722595215e-01 -1.914786547422409058e-01 2.369494140148162842e-01
7.805190980434417725e-02 -1.725440323352813721e-01 -1.456622928380966187e-01
2.003778666257858276e-01 -2.111368477344512939e-01 -1.912959367036819458e-01
7.446209341287612915e-02 -1.698392033576965332e-01 7.931652665138244629e-02
1.213949546217918396e-01 -2.779098451137542725e-01 2.889459729194641113e-01
9.857331216335296631e-02 -2.739493846893310547e-01 4.461551308631896973e-01
1.339218020439147949e-01 -2.414836734533309937e-01 7.204498648643493652e-01
1.847438812255859375e-01 -2.585976719856262207e-01 2.617332935333251953e-01
1.058272793889045715e-01 -2.506194710731506348e-01 -3.596129417419433594e-01
4.944582283496856689e-02 -2.108234316110610962e-01 5.232395529747009277e-01
1.551493704319000244e-01 -1.729117035865783691e-01 -2.377896755933761597e-01
1.386207491159439087e-01 -2.712973952293395996e-01 4.295580983161926270e-01
1.247993484139442444e-01 -2.625788450241088867e-01 5.948489904403686523e-01
2.179163694381713867e-01 -1.996680498123168945e-01 3.730658888816833496e-01
1.898753643035888672e-02 -2.502064406871795654e-01 2.391060441732406616e-01
1.293318271636962891e-01 -1.949769705533981323e-01 6.741508841514587402e-01
1.328999996185302734e-01 -1.665549576282501221e-01 3.805299699306488037e-01
1.836501955986022949e-01 -1.766269057989120483e-01 4.401917457580566406e-01
4.985596984624862671e-02 -2.434005290269851685e-01 5.556458234786987305e-01
2.237334996461868286e-01 -2.079532593488693237e-01 1.384450346231460571e-01
1.446427255868911743e-01 -2.737084031105041504e-01 2.876349091529846191e-01
6.332972645759582520e-02 -2.721405029296875000e-01 3.697002828121185303e-01
2.049486637115478516e-01 -1.809971928596496582e-01 -5.348652601242065430e-03
1.404548585414886475e-01 -1.599880456924438477e-01 1.663703173398971558e-01
1.970023065805435181e-01 -2.316391617059707642e-01 -1.392862051725387573e-01
1.623120307922363281e-01 -1.624003946781158447e-01 2.188559174537658691e-01
1.711466014385223389e-01 -2.489913254976272583e-01 5.899624228477478027e-01
7.048080861568450928e-02 -2.753721177577972412e-01 3.324588537216186523e-01
1.364518404006958008e-01 -2.737201154232025146e-01 3.732827901840209961e-01
5.295488238334655762e-02 -2.521352469921112061e-01 5.347475409507751465e-01
2.215867638587951660e-01 -2.208464294672012329e-01 2.783308029174804688e-01
1.654872298240661621e-01 -1.674677878618240356e-01 3.621735572814941406e-01
4.381110519170761108e-02 -2.653707861900329590e-01 3.474609255790710449e-01
9.936206042766571045e-02 -1.997902244329452515e-01 6.602247953414916992e-01
1.808651983737945557e-01 -1.780800074338912964e-01 4.720104932785034180e-01
4.635740816593170166e-02 -2.163675874471664429e-01 -3.594738841056823730e-01
9.628567099571228027e-02 -1.683904528617858887e-01 -1.585260778665542603e-01
2.037853002548217773e-01 -2.441224008798599243e-01 3.306135833263397217e-01
1.899076849222183228e-01 -1.905309408903121948e-01 -2.229563444852828979e-01
2.127765417098999023e-01 -1.847226172685623169e-01 2.666518092155456543e-01
1.526537686586380005e-01 -1.697898954153060913e-01 4.339150190353393555e-01
2.021635323762893677e-01 -2.416784763336181641e-01 4.152786731719970703e-01
1.122377440333366394e-01 -1.691074669361114502e-01 3.882903456687927246e-01
1.654767245054244995e-01 -2.615386247634887695e-01 -3.673475980758666992e-02
3.205996751785278320e-02 -1.924805492162704468e-01 9.164746105670928955e-02
1.728256344795227051e-01 -1.792231500148773193e-01 5.140138268470764160e-01
1.917314529418945312e-02 -2.123797833919525146e-01 2.375662922859191895e-01
1.407083719968795776e-01 -2.560855448246002197e-01 -2.465014010667800903e-01
1.740873754024505615e-01 -2.522900998592376709e-01 -1.178015321493148804e-01
2.019156515598297119e-01 -1.790159791707992554e-01 3.336614966392517090e-01
4.384475946426391602e-02 -2.703851461410522461e-01 2.034769654273986816e-01
1.429670304059982300e-01 -1.756094992160797119e-01 5.198209881782531738e-01
1.613997668027877808e-01 -1.779863983392715454e-01 -2.699218988418579102e-01
5.351463705301284790e-02 -2.596757709980010986e-01 4.842062592506408691e-01
1.250954270362854004e-01 -1.599816977977752686e-01 1.159455701708793640e-01
1.201524585485458374e-02 -2.365916073322296143e-01 1.981080323457717896e-01
8.395033329725265503e-02 -2.759843468666076660e-01 -3.391391038894653320e-02
4.592601209878921509e-02 -2.213570773601531982e-01 5.398666858673095703e-01
1.819170415401458740e-01 -2.598951756954193115e-01 2.843518853187561035e-01
7.530076056718826294e-02 -2.683432996273040771e-01 -1.716883331537246704e-01
6.770931184291839600e-02 -2.316517382860183716e-01 -4.194824695587158203e-01
3.168486803770065308e-02 -2.044065445661544800e-01 3.351520597934722900e-01
9.619238972663879395e-02 -1.662955880165100098e-01 -1.005623787641525269e-01
1.305509507656097412e-01 -1.596447378396987915e-01 8.820410072803497314e-02
2.056673616170883179e-01 -2.096957564353942871e-01 -1.487499624490737915e-01
3.275790810585021973e-02 -2.078186422586441040e-01 -2.458841949701309204e-01
9.786822646856307983e-02 -2.726427614688873291e-01 -1.147482842206954956e-01
1.563571989536285400e-01 -2.439919561147689819e-01 -2.926122546195983887e-01
4.021304845809936523e-02 -1.976444721221923828e-01 3.529958724975585938e-01
1.050259992480278015e-01 -1.720038950443267822e-01 4.153788089752197266e-01
3.335896879434585571e-02 -2.339622229337692261e-01 -2.849197387695312500e-01
2.973469346761703491e-02 -2.566885948181152344e-01 3.242118358612060547e-01
1.036920920014381409e-01 -2.730494737625122070e-01 4.655324220657348633e-01
1.851726174354553223e-01 -2.400971502065658569e-01 -1.669222265481948853e-01
8.629684150218963623e-02 -2.516317665576934814e-01 -3.535045385360717773e-01
1.965302079916000366e-01 -2.508556544780731201e-01 1.633714139461517334e-01
1.870089471340179443e-01 -2.151859402656555176e-01 -2.737253904342651367e-01
1.474787741899490356e-01 -2.678886055946350098e-01 -4.216848313808441162e-02
1.974468529224395752e-01 -2.260552942752838135e-01 -1.692981570959091187e-01
9.469769895076751709e-02 -1.641761064529418945e-01 7.917214930057525635e-02
1.127873808145523071e-01 -2.127346992492675781e-01 7.289263010025024414e-01
1.141130626201629639e-01 -1.769856363534927368e-01 5.088918209075927734e-01
2.225033044815063477e-01 -2.198593318462371826e-01 2.140715420246124268e-01
1.110960990190505981e-01 -1.629247516393661499e-01 -6.428572535514831543e-02
2.814855426549911499e-02 -1.999545395374298096e-01 2.231358587741851807e-01
2.951964735984802246e-02 -2.602953314781188965e-01 2.625064551830291748e-01
1.174679771065711975e-01 -1.606690585613250732e-01 3.770716488361358643e-02
2.179561257362365723e-01 -2.294653952121734619e-01 2.323116958141326904e-01
3.398654609918594360e-02 -1.909019201993942261e-01 1.283894479274749756e-02
3.599131107330322266e-02 -1.963671594858169556e-01 2.869005203247070312e-01
1.130153089761734009e-01 -2.548800706863403320e-01 6.615161299705505371e-01
2.215454578399658203e-01 -1.955910623073577881e-01 2.091440558433532715e-01
3.889423608779907227e-02 -2.226060926914215088e-01 4.982474446296691895e-01
2.049930244684219360e-01 -2.085049748420715332e-01 5.371623635292053223e-01
1.107823401689529419e-01 -2.687957584857940674e-01 -1.658532470464706421e-01
1.851985156536102295e-01 -1.683836132287979126e-01 2.511726021766662598e-01
1.426669061183929443e-01 -2.729522585868835449e-01 6.731079518795013428e-02
1.947911828756332397e-01 -2.131843268871307373e-01 -2.288811653852462769e-01
9.273328632116317749e-02 -1.771285384893417358e-01 4.456782341003417969e-01
7.312998175621032715e-02 -1.995095759630203247e-01 -4.047122001647949219e-01
1.615562438964843750e-01 -1.983014196157455444e-01 -3.738182187080383301e-01
1.344130933284759521e-02 -2.180210947990417480e-01 -4.106882214546203613e-02
1.454606652259826660e-02 -2.435259521007537842e-01 -4.022367298603057861e-02
1.450917422771453857e-01 -2.516929209232330322e-01 -2.732169628143310547e-01
9.156358987092971802e-02 -2.799477875232696533e-01 1.462615132331848145e-01
1.854194998741149902e-01 -2.296735048294067383e-01 -2.353948205709457397e-01
8.720561861991882324e-02 -1.717923879623413086e-01 3.257706165313720703e-01
1.364531964063644409e-01 -2.683332264423370361e-01 4.972885847091674805e-01
1.080054789781570435e-01 -2.588158249855041504e-01 6.324295997619628906e-01
1.387619674205780029e-01 -1.848448812961578369e-01 -3.702310919761657715e-01
1.442992836236953735e-01 -2.336231768131256104e-01 -3.884078264236450195e-01
2.163438349962234497e-01 -2.268621772527694702e-01 3.631590604782104492e-01
1.520844697952270508e-01 -1.743909120559692383e-01 4.996540546417236328e-01
1.184767857193946838e-01 -2.789070904254913330e-01 2.009693980216979980e-01
1.881435811519622803e-01 -2.119603008031845093e-01 6.356571316719055176e-01
1.181183010339736938e-01 -1.855908036231994629e-01 -3.898660540580749512e-01
1.056121736764907837e-01 -1.628089696168899536e-01 1.680529266595840454e-01
1.521810144186019897e-02 -2.472937703132629395e-01 -1.513123512268066406e-03
2.219363152980804443e-01 -2.073299437761306763e-01 7.478579133749008179e-02
2.240322232246398926e-01 -2.091771811246871948e-01 1.574413627386093140e-01
3.332770615816116333e-02 -2.099258303642272949e-01 3.986329436302185059e-01
1.329544484615325928e-01 -1.637576818466186523e-01 3.164823353290557861e-01
1.960132718086242676e-01 -2.355344444513320923e-01 -1.177019923925399780e-01
1.446006149053573608e-01 -2.622032761573791504e-01 -1.577501446008682251e-01
2.144514024257659912e-01 -1.881254166364669800e-01 3.038445115089416504e-01
1.114283576607704163e-01 -1.908129304647445679e-01 -4.182000160217285156e-01
3.649280965328216553e-02 -1.936046779155731201e-01 2.459665834903717041e-01
1.537687331438064575e-01 -2.687312662601470947e-01 3.197959065437316895e-02
1.945120394229888916e-01 -2.334809750318527222e-01 5.635308623313903809e-01
1.690722405910491943e-01 -1.712251454591751099e-01 4.202669262886047363e-01
6.242996826767921448e-02 -2.675580382347106934e-01 4.429361224174499512e-01
7.383659482002258301e-02 -1.817099153995513916e-01 4.136749505996704102e-01
1.114022135734558105e-01 -2.677341401576995850e-01 5.452663302421569824e-01
2.090902328491210938e-01 -2.384152561426162720e-01 1.052480265498161316e-01
5.140492320060729980e-02 -2.272324115037918091e-01 -3.817467093467712402e-01
1.109042018651962280e-01 -2.756478190422058105e-01 4.073505997657775879e-01
1.949662417173385620e-01 -1.893130838871002197e-01 5.121715068817138672e-01
1.369826048612594604e-01 -2.679139077663421631e-01 -1.007662564516067505e-01
1.738520264625549316e-01 -2.322559952735900879e-01 -2.861763238906860352e-01
1.558365523815155029e-01 -2.609724402427673340e-01 -1.169047504663467407e-01
1.833514124155044556e-02 -2.108005285263061523e-01 1.986928731203079224e-01
1.750262826681137085e-02 -2.388047426939010620e-01 2.988167405128479004e-01
8.966244757175445557e-02 -1.653476655483245850e-01 5.707593262195587158e-02
1.523875892162322998e-01 -1.865763813257217407e-01 6.164036393165588379e-01
1.635990589857101440e-01 -2.681387662887573242e-01 1.731846630573272705e-01
1.453412026166915894e-01 -1.603818237781524658e-01 1.273559033870697021e-02
3.829669207334518433e-02 -2.096779346466064453e-01 -2.967383265495300293e-01
1.455003172159194946e-01 -1.604120284318923950e-01 1.887962222099304199e-01
1.633672416210174561e-01 -1.615829169750213623e-01 1.100224554538726807e-01
5.476953834295272827e-02 -2.714509069919586182e-01 3.215538263320922852e-01
1.818083226680755615e-01 -1.736478507518768311e-01 4.049537181854248047e-01
7.827979326248168945e-02 -1.954826116561889648e-01 5.717525482177734375e-01
1.135671436786651611e-01 -2.443613857030868530e-01 7.132186293601989746e-01
1.502400040626525879e-01 -2.431756854057312012e-01 -3.205736279487609863e-01
1.739750951528549194e-01 -2.570568919181823730e-01 4.789882898330688477e-01
9.408421069383621216e-02 -2.657002806663513184e-01 5.583823919296264648e-01
1.165012121200561523e-01 -2.349487394094467163e-01 -4.325072765350341797e-01
1.289242804050445557e-01 -1.617964357137680054e-01 2.484810650348663330e-01
1.950141936540603638e-01 -1.804541945457458496e-01 -1.105048209428787231e-01
1.628030836582183838e-01 -1.796635985374450684e-01 5.428299903869628906e-01
1.919450163841247559e-01 -2.296026796102523804e-01 -1.921571344137191772e-01
9.887717664241790771e-03 -2.365829348564147949e-01 8.404056727886199951e-02
1.708984524011611938e-01 -1.633249819278717041e-01 1.805496513843536377e-01
1.735075563192367554e-02 -2.452013194561004639e-01 2.612822055816650391e-01
2.216193377971649170e-01 -2.029703259468078613e-01 3.191311955451965332e-01
8.486976474523544312e-02 -2.795012593269348145e-01 2.251850068569183350e-01
1.854079216718673706e-02 -2.434983551502227783e-01 -1.111312210559844971e-01
1.165986508131027222e-01 -1.933440119028091431e-01 6.536733508110046387e-01
9.068294614553451538e-02 -2.448954284191131592e-01 -3.967090249061584473e-01
1.459652036428451538e-01 -1.654575765132904053e-01 -1.483585089445114136e-01
2.110814899206161499e-01 -2.313335239887237549e-01 2.369584143161773682e-02
8.625503629446029663e-02 -1.724815368652343750e-01 -1.957009881734848022e-01
2.024867087602615356e-01 -2.465962916612625122e-01 1.908884942531585693e-01
1.434530764818191528e-01 -2.744809091091156006e-01 2.119089961051940918e-01
7.071527093648910522e-02 -2.581441402435302734e-01 5.697093009948730469e-01
1.409505307674407959e-02 -2.246855944395065308e-01 -9.774483740329742432e-02
5.228627473115921021e-02 -1.899081915616989136e-01 3.689081370830535889e-01
3.293380886316299438e-02 -2.150603830814361572e-01 4.254098534584045410e-01
7.739081978797912598e-02 -1.722606718540191650e-01 2.583584189414978027e-01
9.243844449520111084e-02 -1.810909211635589600e-01 4.944452047348022461e-01
2.002142518758773804e-01 -1.854515969753265381e-01 4.424368739128112793e-01
2.402845770120620728e-02 -2.123816013336181641e-01 -1.860624998807907104e-01
2.158812135457992554e-01 -2.313982993364334106e-01 2.975274920463562012e-01
1.073279082775115967e-01 -1.628528833389282227e-01 1.878253370523452759e-01
1.073703318834304810e-01 -2.798049449920654297e-01 1.719565689563751221e-01
3.470722585916519165e-02 -2.618595361709594727e-01 -6.668682396411895752e-02
1.059783622622489929e-01 -1.745027899742126465e-01 -2.852634787559509277e-01
2.203724384307861328e-01 -2.248373627662658691e-01 1.891497075557708740e-01
1.818875670433044434e-01 -1.796818375587463379e-01 -1.952632218599319458e-01
1.648490428924560547e-01 -2.678663134574890137e-01 2.278937697410583496e-01
4.395116120576858521e-02 -1.990723907947540283e-01 -2.725527882575988770e-01
1.469320505857467651e-01 -2.693776786327362061e-01 -1.025024056434631348e-02
2.149997055530548096e-01 -2.293062508106231689e-01 7.472580671310424805e-02
1.636983156204223633e-01 -2.484281063079833984e-01 -2.238210886716842651e-01
1.117272675037384033e-02 -2.400643974542617798e-01 1.379218995571136475e-01
1.629073619842529297e-01 -1.628367900848388672e-01 -6.110817193984985352e-03
1.697193980216979980e-01 -2.658963501453399658e-01 2.011042833328247070e-01
1.133661717176437378e-01 -2.659890055656433105e-01 -2.019480913877487183e-01
1.313369423151016235e-01 -2.717731595039367676e-01 4.491430521011352539e-01
2.196046710014343262e-01 -2.229484766721725464e-01 1.064923182129859924e-01
1.159414201974868774e-01 -2.773030996322631836e-01 3.461049795150756836e-01
1.084506735205650330e-01 -1.616885066032409668e-01 9.848178923130035400e-02
1.151641458272933960e-01 -2.762899696826934814e-01 4.385188221931457520e-03
2.650592476129531860e-02 -2.595634460449218750e-01 2.190190553665161133e-01
5.542488023638725281e-02 -1.791085302829742432e-01 1.761461794376373291e-01
1.122457906603813171e-01 -1.676261276006698608e-01 3.590763211250305176e-01
1.897733509540557861e-01 -2.329763472080230713e-01 5.958530902862548828e-01
1.080979406833648682e-01 -2.730234563350677490e-01 -9.558707475662231445e-02
2.009158134460449219e-01 -2.448318004608154297e-01 7.000172883272171021e-02
4.076720774173736572e-02 -2.269745022058486938e-01 -3.369766473770141602e-01
7.294827699661254883e-02 -2.614592909812927246e-01 -2.543236017227172852e-01
6.693470478057861328e-02 -2.774274647235870361e-01 1.350633800029754639e-01
1.210561394691467285e-01 -2.545329928398132324e-01 -3.111063838005065918e-01
2.085386514663696289e-01 -2.361537218093872070e-01 4.683812707662582397e-02
1.028210148215293884e-01 -2.756188511848449707e-01 -4.448054730892181396e-02
1.671709865331649780e-01 -2.652539014816284180e-01 3.560566902160644531e-01
1.192787438631057739e-01 -2.774522304534912109e-01 6.838574260473251343e-02
2.074778676033020020e-01 -1.869866698980331421e-01 -4.978890717029571533e-02
7.570513337850570679e-02 -2.714562416076660156e-01 -1.204805821180343628e-01
8.492758125066757202e-02 -1.910751163959503174e-01 -3.895553946495056152e-01
1.038631945848464966e-01 -1.763283312320709229e-01 4.747357368469238281e-01
5.155652016401290894e-02 -1.804120689630508423e-01 1.428478658199310303e-01
1.664155572652816772e-01 -2.661675214767456055e-01 3.298522233963012695e-01
2.197777628898620605e-01 -2.028954476118087769e-01 3.285799920558929443e-02
1.357176303863525391e-01 -1.781353354454040527e-01 5.472256541252136230e-01
1.200729683041572571e-01 -1.816295832395553589e-01 5.683408975601196289e-01
5.088174343109130859e-02 -2.734367847442626953e-01 1.561456322669982910e-01
1.348244994878768921e-01 -2.323372364044189453e-01 -4.149683117866516113e-01
1.878862679004669189e-01 -2.475388050079345703e-01 4.969755411148071289e-01
1.190930604934692383e-01 -2.787478566169738770e-01 2.320714592933654785e-01
9.625355899333953857e-02 -2.626458406448364258e-01 -2.586365342140197754e-01
1.961202174425125122e-01 -2.516249418258666992e-01 2.182627320289611816e-01
1.408915668725967407e-01 -2.717471420764923096e-01 9.594008326530456543e-03
1.959552019834518433e-01 -2.498455494642257690e-01 3.504480123519897461e-01
1.347367316484451294e-01 -2.759487032890319824e-01 1.329986900091171265e-01
1.652386337518692017e-01 -2.540330886840820312e-01 -1.556174606084823608e-01
1.018906608223915100e-01 -2.060851603746414185e-01 -4.650352597236633301e-01
1.542483270168304443e-02 -2.489241957664489746e-01 1.577247679233551025e-01
1.984594017267227173e-01 -2.439950108528137207e-01 1.115846633911132812e-02
7.806451618671417236e-02 -1.715073138475418091e-01 -1.179524511098861694e-01
1.788668334484100342e-02 -2.079595625400543213e-01 1.213522702455520630e-01
2.000070363283157349e-02 -2.417495101690292358e-01 -1.423449367284774780e-01
1.294038444757461548e-01 -1.664271801710128784e-01 -1.851557344198226929e-01
1.005218327045440674e-01 -2.784665226936340332e-01 3.250077366828918457e-01
2.426122128963470459e-02 -2.589627504348754883e-01 5.177187174558639526e-02
4.291453957557678223e-02 -2.672294080257415771e-01 3.005162477493286133e-01
5.377225577831268311e-02 -1.906480044126510620e-01 3.909006714820861816e-01
1.349882334470748901e-01 -2.753360867500305176e-01 3.177434206008911133e-01
4.968456923961639404e-02 -1.860449165105819702e-01 -1.667622774839401245e-01
1.617356836795806885e-01 -1.619680374860763550e-01 2.878841012716293335e-02
7.755124568939208984e-02 -2.676053941249847412e-01 5.015995502471923828e-01
7.310954481363296509e-02 -1.750610917806625366e-01 -1.653000265359878540e-01
9.714408963918685913e-02 -1.812452673912048340e-01 -3.406614065170288086e-01
1.662541925907135010e-01 -1.718537211418151855e-01 -1.859503239393234253e-01
2.062136530876159668e-01 -2.429836094379425049e-01 2.857257425785064697e-01
3.537986427545547485e-02 -2.165297865867614746e-01 4.525321125984191895e-01
9.770362079143524170e-02 -1.827404797077178955e-01 5.300256013870239258e-01
1.279479265213012695e-01 -1.703173071146011353e-01 -2.470226138830184937e-01
7.757309079170227051e-02 -2.735256254673004150e-01 -8.258956670761108398e-02
2.600533515214920044e-02 -2.037274390459060669e-01 -1.340062171220779419e-01
1.524077653884887695e-01 -2.583301365375518799e-01 5.777381062507629395e-01
1.495630741119384766e-01 -1.619677245616912842e-01 -4.672257602214813232e-02
6.552135944366455078e-02 -2.121493816375732422e-01 6.090040802955627441e-01
1.930568218231201172e-01 -2.528831660747528076e-01 3.115629553794860840e-01
4.872857779264450073e-02 -1.824303269386291504e-01 -6.010384857654571533e-02
2.005541324615478516e-01 -2.394796609878540039e-01 4.647842645645141602e-01
1.526087820529937744e-01 -2.719486355781555176e-01 1.916658133268356323e-01
2.672615647315979004e-02 -2.434186041355133057e-01 3.929387927055358887e-01
1.467510759830474854e-01 -2.720531225204467773e-01 3.486711382865905762e-01
5.145805329084396362e-02 -2.715153992176055908e-01 -5.751848220825195312e-05
1.092710569500923157e-01 -1.917277127504348755e-01 6.321678757667541504e-01
5.302622914314270020e-02 -2.234494835138320923e-01 5.823056101799011230e-01
2.133454382419586182e-01 -2.354743331670761108e-01 1.730115711688995361e-01
1.827234625816345215e-01 -1.747707128524780273e-01 -1.354330033063888550e-01
1.224737316370010376e-01 -2.174979746341705322e-01 -4.644164443016052246e-01
1.907762587070465088e-01 -2.426566481590270996e-01 5.249122977256774902e-01
1.105001568794250488e-02 -2.207950651645660400e-01 3.666198253631591797e-02
6.988310813903808594e-02 -2.777847349643707275e-01 1.135442033410072327e-01
1.605364978313446045e-01 -1.818709522485733032e-01 -3.031619787216186523e-01
2.685754001140594482e-02 -2.567184865474700928e-01 2.842528223991394043e-01
2.330340445041656494e-02 -2.185384929180145264e-01 3.455817699432373047e-01
1.741337031126022339e-02 -2.526146769523620605e-01 9.455851465463638306e-02
1.407132595777511597e-01 -2.749419510364532471e-01 1.629919111728668213e-01
3.846541047096252441e-02 -1.910845041275024414e-01 -1.180512756109237671e-01
2.567575871944427490e-02 -1.979914605617523193e-01 6.615825742483139038e-02
1.748946756124496460e-01 -2.609802186489105225e-01 3.869913220405578613e-01
1.936406493186950684e-01 -1.703843176364898682e-01 1.397006213665008545e-01
1.845951676368713379e-01 -2.317583113908767700e-01 6.279698014259338379e-01
1.616203784942626953e-01 -1.637905985116958618e-01 2.802548408508300781e-01
1.864147633314132690e-01 -2.521765828132629395e-01 -2.079412341117858887e-03
2.351239323616027832e-02 -2.401821762323379517e-01 3.709831833839416504e-01
1.156251877546310425e-01 -1.618826091289520264e-01 -3.951524198055267334e-02
7.922063022851943970e-02 -2.320938855409622192e-01 -4.373612999916076660e-01
9.924647957086563110e-02 -2.780031263828277588e-01 2.472170442342758179e-02
2.097957134246826172e-01 -2.171966433525085449e-01 -9.298844635486602783e-02
6.918703019618988037e-02 -2.450828850269317627e-01 6.308327317237854004e-01
5.697344988584518433e-02 -2.440355420112609863e-01 -3.487967848777770996e-01
8.313664793968200684e-02 -2.489292919635772705e-01 6.552706360816955566e-01
5.345403403043746948e-02 -1.790951788425445557e-01 1.231901496648788452e-01
2.929709851741790771e-02 -2.047184407711029053e-01 3.092820942401885986e-01
6.709681451320648193e-02 -2.432432472705841064e-01 -3.775625228881835938e-01
-2.832196950912475586e-01 -2.818673476576805115e-02 2.203298956155776978e-01
-2.102842479944229126e-01 7.780976593494415283e-03 -1.186221390962600708e-01
-2.424126118421554565e-01 -3.896305337548255920e-03 6.412566900253295898e-01
-2.567166388034820557e-01 7.328291237354278564e-02 5.166437029838562012e-01
-2.468815743923187256e-01 7.254981994628906250e-02 -5.128946900367736816e-01
-2.381752878427505493e-01 8.614164590835571289e-02 -3.910921216011047363e-01
-2.959429621696472168e-01 1.480381749570369720e-02 -1.539929360151290894e-01
-2.314601242542266846e-01 1.014729514718055725e-01 1.402786970138549805e-01
-2.823356389999389648e-01 5.906669422984123230e-02 4.144667387008666992e-01
-2.263759523630142212e-01 8.948748558759689331e-02 -8.472092449665069580e-02
-2.210046052932739258e-01 -7.500464469194412231e-02 5.409199595451354980e-01
-2.515163719654083252e-01 -2.889468893408775330e-02 6.122439503669738770e-01
-2.754254341125488281e-01 9.263611584901809692e-02 -5.621086955070495605e-01
-2.588914334774017334e-01 1.316696405410766602e-01 -3.920569419860839844e-01
-2.047363072633743286e-01 -7.359408587217330933e-02 2.616049051284790039e-01
-2.049988806247711182e-01 -7.711872458457946777e-02 2.255856394767761230e-01
-2.902461588382720947e-01 1.511958241462707520e-01 -1.083678752183914185e-01
-2.916433513164520264e-01 8.621339499950408936e-02 -4.750852584838867188e-01
-2.701890766620635986e-01 -7.171604037284851074e-02 1.310720294713973999e-01
-2.651937603950500488e-01 1.489577293395996094e-01 -3.006203174591064453e-01
-2.927271425724029541e-01 7.368731498718261719e-02 2.657325565814971924e-01
-2.978462278842926025e-01 3.719957172870635986e-02 -2.607396245002746582e-01
-2.171114534139633179e-01 -1.098698750138282776e-01 1.592728793621063232e-01
-2.032180130481719971e-01 -5.627423524856567383e-02 1.298781186342239380e-01
-2.084162831306457520e-01 -9.064982831478118896e-02 2.851179540157318115e-01
-3.014606237411499023e-01 7.011356949806213379e-02 -2.642881274223327637e-01
-2.992599606513977051e-01 8.045162260532379150e-02 -3.507029116153717041e-01
-2.159192264080047607e-01 -2.711625769734382629e-03 -2.590030431747436523e-01
-2.448838502168655396e-01 3.328124061226844788e-02 -5.349077582359313965e-01
-2.681922316551208496e-01 -6.946387887001037598e-02 -1.177392154932022095e-01
-2.948189675807952881e-01 6.854536943137645721e-03 1.825456693768501282e-02
-2.937377989292144775e-01 1.231943666934967041e-01 -3.919957876205444336e-01
-2.691438794136047363e-01 -3.107915073633193970e-02 -3.936027288436889648e-01
-2.204286456108093262e-01 7.083038985729217529e-02 1.653971225023269653e-01
-2.568016052246093750e-01 -4.735925793647766113e-02 -3.895235061645507812e-01
-2.186891883611679077e-01 3.160888329148292542e-02 4.333276748657226562e-01
-2.241486012935638428e-01 3.850778192281723022e-02 -3.353431224822998047e-01
-2.288636565208435059e-01 -1.453084871172904968e-03 -4.177031517028808594e-01
-2.178452163934707642e-01 -9.891143441200256348e-02 -1.531562395393848419e-02
-2.117727994918823242e-01 3.739482164382934570e-02 9.393250569701194763e-03
-2.668723165988922119e-01 4.796817153692245483e-02 5.399467349052429199e-01
-2.798354327678680420e-01 5.018021538853645325e-02 4.458091557025909424e-01
-3.034284710884094238e-01 8.058795332908630371e-02 -1.026546508073806763e-01
-2.177562713623046875e-01 6.227838620543479919e-02 -3.086428157985210419e-02
-2.691837251186370850e-01 1.014955118298530579e-01 4.053536057472229004e-01
-3.012103736400604248e-01 5.904803052544593811e-02 3.232853859663009644e-02
-2.331536114215850830e-01 5.016620457172393799e-02 -4.301106631755828857e-01
-2.029746919870376587e-01 -4.484783113002777100e-02 1.113037019968032837e-01
-2.076022624969482422e-01 -4.277575016021728516e-02 4.272447526454925537e-01
-2.168666124343872070e-01 -4.990096390247344971e-02 -2.297345995903015137e-01
-2.289068847894668579e-01 3.978511691093444824e-02 -3.982285559177398682e-01
-2.284420579671859741e-01 1.968000829219818115e-02 5.714616775512695312e-01
-2.035285532474517822e-01 -1.812239736318588257e-02 1.864100843667984009e-01
-2.253271639347076416e-01 8.143608272075653076e-02 -1.520990729331970215e-01
-2.370466887950897217e-01 1.084840595722198486e-01 2.042898386716842651e-01
-2.755522131919860840e-01 6.855710595846176147e-02 4.600533843040466309e-01
-2.232660353183746338e-01 5.144009739160537720e-02 4.085957705974578857e-01
-2.227934598922729492e-01 7.994443923234939575e-02 1.223196312785148621e-01
-2.583587467670440674e-01 -8.952119946479797363e-02 -4.655607789754867554e-02
-2.082802504301071167e-01 1.848875917494297028e-02 3.434122726321220398e-02
-2.117892801761627197e-01 1.037764456123113632e-02 3.949881494045257568e-01
-2.667852342128753662e-01 8.594578504562377930e-02 4.634865522384643555e-01
-3.022441267967224121e-01 1.079596579074859619e-01 -2.067878097295761108e-01
-2.322518825531005859e-01 -7.174261659383773804e-02 5.776112079620361328e-01
-2.890989780426025391e-01 -8.985633030533790588e-03 1.703904420137405396e-01
-2.035533636808395386e-01 -2.006734907627105713e-02 2.172777056694030762e-01
-2.869747281074523926e-01 -2.335053682327270508e-02 1.088222861289978027e-01
-2.938259243965148926e-01 1.504767313599586487e-02 1.560116261243820190e-01
-2.850284278392791748e-01 1.420427262783050537e-01 1.072439551353454590e-01
-2.268969565629959106e-01 -1.091876253485679626e-01 1.756513491272926331e-03
-2.108320295810699463e-01 3.527868539094924927e-02 9.802379459142684937e-02
-2.232785969972610474e-01 -4.592705518007278442e-02 5.970069766044616699e-01
-2.065402120351791382e-01 -4.071282222867012024e-03 3.058291077613830566e-01
-2.997744381427764893e-01 3.479091823101043701e-02 -1.034307926893234253e-01
-2.706747949123382568e-01 2.748978510499000549e-02 -5.568944811820983887e-01
-2.460609972476959229e-01 -8.584298193454742432e-02 -2.095499932765960693e-01
-2.110210210084915161e-01 -4.945846647024154663e-02 4.865063130855560303e-01
-2.727286219596862793e-01 -6.672751158475875854e-02 6.566742807626724243e-02
-3.031536340713500977e-01 8.528801053762435913e-02 -5.848295241594314575e-02
-2.153507471084594727e-01 1.891112513840198517e-02 -2.188612222671508789e-01
-2.949583530426025391e-01 1.397964060306549072e-01 -5.512227863073348999e-02
-2.559219896793365479e-01 -4.466821253299713135e-02 5.595467090606689453e-01
-2.909617424011230469e-01 1.300125196576118469e-02 2.353411316871643066e-01
-2.292484045028686523e-01 7.012085616588592529e-02 -3.204290568828582764e-01
-2.719891667366027832e-01 5.334104597568511963e-02 -5.797587037086486816e-01
-2.356022149324417114e-01 8.253366500139236450e-02 -3.700382113456726074e-01
-2.484503835439682007e-01 1.133569031953811646e-01 3.115068078041076660e-01
-2.651888430118560791e-01 -7.651587575674057007e-02 -9.113655239343643188e-02
-2.855331897735595703e-01 -2.966967225074768066e-02 8.901631832122802734e-02
-2.822747826576232910e-01 -8.327905088663101196e-03 -3.618394434452056885e-01
-2.958984375000000000e-01 7.881706207990646362e-02 -4.164685010910034180e-01
-2.298440337181091309e-01 5.567626282572746277e-02 -3.776319921016693115e-01
-2.573982775211334229e-01 -5.227503180503845215e-02 5.267417430877685547e-01
-2.057252377271652222e-01 -2.560273930430412292e-02 3.575663566589355469e-01
-2.820337116718292236e-01 3.587686270475387573e-02 -5.108933448791503906e-01
-2.191364467144012451e-01 5.892204493284225464e-02 -1.387227624654769897e-01
-2.329320758581161499e-01 -1.117178425192832947e-01 3.416427969932556152e-01
-2.031618207693099976e-01 -3.477712720632553101e-02 2.591564655303955078e-01
-2.841111719608306885e-01 -1.027890667319297791e-02 3.051625192165374756e-01
-2.698965072631835938e-01 -5.565045773983001709e-02 -2.321607470512390137e-01
-2.845243215560913086e-01 -3.231916949152946472e-02 -8.993011713027954102e-02
-2.831640839576721191e-01 -2.578168362379074097e-02 -2.275695800781250000e-01
-2.699286639690399170e-01 -9.569291025400161743e-03 -4.728415012359619141e-01
-2.992978394031524658e-01 3.570528328418731689e-02 -1.764873862266540527e-01
-2.972828745841979980e-01 1.359918117523193359e-01 -2.055830359458923340e-01
-2.524706721305847168e-01 4.890435934066772461e-02 -5.652338266372680664e-01
-2.054545879364013672e-01 1.849483698606491089e-03 1.581519395112991333e-01
-2.825678288936614990e-01 5.698349326848983765e-02 -5.373682379722595215e-01
-3.021552860736846924e-01 6.484198570251464844e-02 -8.657952770590782166e-03
-2.660233676433563232e-01 -5.483496189117431641e-02 -2.879741191864013672e-01
-2.719402611255645752e-01 1.590164005756378174e-01 -1.769697964191436768e-01
-2.480448186397552490e-01 7.757732272148132324e-02 4.924007654190063477e-01
-2.896279990673065186e-01 8.321474492549896240e-02 -4.955604076385498047e-01
-2.168302983045578003e-01 5.198498070240020752e-02 2.588301002979278564e-01
-2.098971903324127197e-01 8.363668806850910187e-03 3.563511967658996582e-01
-2.766717672348022461e-01 -1.623388007283210754e-02 4.171292781829833984e-01
-2.332265228033065796e-01 4.363898187875747681e-03 6.203123331069946289e-01
-2.803925275802612305e-01 1.100884750485420227e-01 3.183757364749908447e-01
-2.105696350336074829e-01 -1.309743896126747131e-02 -1.605673432350158691e-01
-2.748353481292724609e-01 -3.785997256636619568e-02 -2.940238714218139648e-01
-2.984901666641235352e-01 4.666036739945411682e-02 1.167888939380645752e-01
-2.775513529777526855e-01 3.615482151508331299e-02 4.725485146045684814e-01
-2.673341035842895508e-01 -6.364172697067260742e-02 3.423749804496765137e-01
-2.667161524295806885e-01 -7.914568483829498291e-02 4.062315076589584351e-02
-2.285699695348739624e-01 -1.151826009154319763e-01 9.413274377584457397e-02
-2.911806702613830566e-01 -9.526876732707023621e-03 3.872057050466537476e-02
-2.736940681934356689e-01 1.437687426805496216e-01 1.593634635210037231e-01
-2.885635197162628174e-01 2.891713753342628479e-03 2.566477656364440918e-01
-2.211975008249282837e-01 2.381850779056549072e-02 4.967815577983856201e-01
-2.894446849822998047e-01 4.630354791879653931e-02 3.264277279376983643e-01
-2.428441494703292847e-01 1.289303749799728394e-01 -3.022112138569355011e-02
-2.039366960525512695e-01 -6.929503381252288818e-02 1.919495463371276855e-01
-2.860580682754516602e-01 9.168294817209243774e-02 3.244165778160095215e-01
-2.383305430412292480e-01 1.196532174944877625e-01 -8.948834985494613647e-02
-2.747544944286346436e-01 7.492015510797500610e-02 -5.761140584945678711e-01
-2.038097828626632690e-01 -4.302970319986343384e-02 3.106945157051086426e-01
-2.119106054306030273e-01 -5.019530653953552246e-04 -1.785417646169662476e-01
-2.901566326618194580e-01 1.506277024745941162e-01 -2.266106605529785156e-01
-2.876803576946258545e-01 6.572942435741424561e-02 -5.060323476791381836e-01
-2.854972779750823975e-01 7.476714998483657837e-02 3.626695871353149414e-01
-2.046700417995452881e-01 -6.996742635965347290e-02 1.150610744953155518e-01
-2.503646016120910645e-01 1.351764947175979614e-01 1.134536340832710266e-01
-2.211096882820129395e-01 1.325370743870735168e-03 -3.345613181591033936e-01
-2.642148733139038086e-01 1.545218825340270996e-01 -3.101797588169574738e-02
-2.467859685420989990e-01 1.330687701702117920e-01 6.295257806777954102e-02
-2.972500324249267578e-01 4.642674326896667480e-02 1.578501611948013306e-01
-2.030970156192779541e-01 -3.064589202404022217e-02 2.380184978246688843e-01
-2.026614695787429810e-01 -4.952394962310791016e-02 2.036965936422348022e-01
-2.906778752803802490e-01 2.300985902547836304e-02 2.728278338909149170e-01
-2.356490492820739746e-01 1.110290139913558960e-01 -1.527991741895675659e-01
-2.619271278381347656e-01 -8.471295237541198730e-02 2.386664748191833496e-01
-2.087767422199249268e-01 -6.537783145904541016e-02 4.315987527370452881e-01
-2.935763001441955566e-01 1.931099779903888702e-02 1.854521334171295166e-01
-2.911795973777770996e-01 1.501277089118957520e-01 -1.924222260713577271e-01
-2.676858603954315186e-01 -1.987426728010177612e-02 5.161072611808776855e-01
-2.672679126262664795e-01 -7.429151237010955811e-02 -6.774585694074630737e-02
-2.861406505107879639e-01 8.245070278644561768e-02 -5.239726305007934570e-01
-2.032401859760284424e-01 -3.048283234238624573e-02 9.318968653678894043e-02
-2.437519729137420654e-01 1.252619773149490356e-01 -2.097964286804199219e-01
-2.525608837604522705e-01 6.464621424674987793e-02 5.403591990470886230e-01
-2.910663783550262451e-01 8.988093584775924683e-03 2.156291753053665161e-01
-2.264930456876754761e-01 8.475381135940551758e-02 2.143404930830001831e-01
-2.942319214344024658e-01 4.059385508298873901e-02 2.279490530490875244e-01
-2.721181511878967285e-01 -3.775030001997947693e-02 4.085486531257629395e-01
-3.007093667984008789e-01 8.721024543046951294e-02 6.687467545270919800e-02
-2.880963683128356934e-01 1.117892637848854065e-01 -4.802829027175903320e-01
-2.060711681842803955e-01 -7.662104070186614990e-02 3.175107836723327637e-01
-2.669016122817993164e-01 7.734237611293792725e-02 4.862498939037322998e-01
-2.180112600326538086e-01 -1.854507625102996826e-02 -2.895898818969726562e-01
-2.244592159986495972e-01 7.275573909282684326e-02 -2.011749893426895142e-01
-2.724337875843048096e-01 -1.331493631005287170e-02 -4.433621764183044434e-01
-2.866069674491882324e-01 3.861305490136146545e-02 -4.751565456390380859e-01
-2.773281931877136230e-01 -5.048494040966033936e-02 1.937628835439682007e-01
-2.921358048915863037e-01 4.595700651407241821e-03 -2.285300791263580322e-01
-2.890751957893371582e-01 2.777846716344356537e-02 3.145759701728820801e-01
-2.487569153308868408e-01 -1.064953133463859558e-01 1.487860381603240967e-01
-2.898645699024200439e-01 -1.267256215214729309e-02 -1.261658370494842529e-01
-2.129094451665878296e-01 -9.905711561441421509e-02 8.177647739648818970e-02
-2.651270627975463867e-01 -8.001003414392471313e-02 2.060742974281311035e-01
-2.506608963012695312e-01 -4.559805244207382202e-02 5.891747474670410156e-01
-2.417470514774322510e-01 6.218076124787330627e-02 5.239772796630859375e-01
-2.179909795522689819e-01 -3.492164611816406250e-02 5.644124150276184082e-01
-2.801068723201751709e-01 1.426408439874649048e-01 -4.007566273212432861e-01
-2.319350093603134155e-01 9.277836419641971588e-03 -4.476479887962341309e-01
-2.921687364578247070e-01 1.463455259799957275e-01 -2.498273253440856934e-01
-2.252693325281143188e-01 -8.781620860099792480e-02 -1.635308712720870972e-01
-2.048906087875366211e-01 -4.148790612816810608e-03 9.955375641584396362e-02
-2.370105385780334473e-01 1.161240786314010620e-01 7.170486450195312500e-02
-2.631337046623229980e-01 1.547832190990447998e-01 -1.074988096952438354e-01
-2.703867256641387939e-01 -2.447036653757095337e-02 -4.136649966239929199e-01
-2.796336412429809570e-01 7.869358360767364502e-02 4.115604758262634277e-01
-2.583894729614257812e-01 1.498686075210571289e-01 -1.529441326856613159e-01
-2.563551962375640869e-01 -8.316469937562942505e-02 -1.607261896133422852e-01
-2.997945249080657959e-01 5.847661942243576050e-02 9.521184861660003662e-02
-2.857721149921417236e-01 2.312568202614784241e-02 3.640303313732147217e-01
-3.025094568729400635e-01 9.876250475645065308e-02 -2.304079532623291016e-01
-2.105172723531723022e-01 2.186008915305137634e-02 2.934973835945129395e-01
-2.322672158479690552e-01 -1.130335554480552673e-01 4.226785898208618164e-02
-2.251470983028411865e-01 -1.141818240284919739e-01 3.012184500694274902e-01
-3.005416691303253174e-01 1.143057867884635925e-01 -2.697384059429168701e-01
-2.547293305397033691e-01 1.372363865375518799e-01 1.501073241233825684e-01
-2.565239965915679932e-01 -4.711855202913284302e-03 6.094956398010253906e-01
-2.450309246778488159e-01 1.269178986549377441e-01 1.316259503364562988e-01
-2.487275749444961548e-01 8.337336778640747070e-02 4.722889661788940430e-01
-2.524951994419097900e-01 -8.715732023119926453e-03 -5.150703787803649902e-01
-2.290931195020675659e-01 9.730734676122665405e-02 1.106329709291458130e-01
-2.613410055637359619e-01 2.056600525975227356e-02 5.877540707588195801e-01
-2.379898577928543091e-01 1.196160838007926941e-01 2.920627593994140625e-05
-2.126501947641372681e-01 3.804072365164756775e-02 -4.225050657987594604e-02
-2.320134341716766357e-01 1.012329161167144775e-01 1.653535664081573486e-01
-2.204222679138183594e-01 1.368559058755636215e-02 -3.177596926689147949e-01
-2.757677137851715088e-01 1.290208250284194946e-01 -4.742542505264282227e-01
-2.285701930522918701e-01 -1.171354576945304871e-01 1.794406622648239136e-01
-2.079662680625915527e-01 -7.812532037496566772e-02 3.729571700096130371e-01
-2.173521220684051514e-01 4.779761284589767456e-02 -1.574500799179077148e-01
-2.172956168651580811e-01 3.330159932374954224e-02 4.012719690799713135e-01
-2.269268780946731567e-01 7.485160976648330688e-02 -2.501859366893768311e-01
-2.573579549789428711e-01 -2.763871103525161743e-02 5.836994647979736328e-01
-2.470031678676605225e-01 1.085296422243118286e-01 3.338052332401275635e-01
-2.461395114660263062e-01 9.658291935920715332e-02 3.996200263500213623e-01
-2.316390573978424072e-01 -7.317891716957092285e-02 -2.718555629253387451e-01
-2.727966606616973877e-01 -4.058296605944633484e-02 3.844754993915557861e-01
-2.481282055377960205e-01 -1.525248214602470398e-02 -4.967211484909057617e-01
-2.150451838970184326e-01 -2.841847762465476990e-02 5.326389074325561523e-01
-2.144436389207839966e-01 5.059429258108139038e-02 1.433956474065780640e-01
-2.133270651102066040e-01 -9.911883622407913208e-02 3.482787311077117920e-01
-2.943160235881805420e-01 9.993219375610351562e-02 1.919819861650466919e-01
-2.696153819561004639e-01 3.686537966132164001e-03 -5.127679705619812012e-01
-2.025824636220932007e-01 -4.270543158054351807e-02 1.683131605386734009e-01
-2.966380417346954346e-01 1.576679758727550507e-02 -7.824921980500221252e-03
-2.829205989837646484e-01 7.625260949134826660e-02 -5.446165204048156738e-01
-2.573013007640838623e-01 -8.906318992376327515e-02 -7.643377035856246948e-02
-2.430272102355957031e-01 -1.080977544188499451e-01 1.636097207665443420e-02
-2.973352670669555664e-01 1.226734220981597900e-01 3.468795493245124817e-02
-2.673560976982116699e-01 1.404666602611541748e-01 1.901915222406387329e-01
-2.290107905864715576e-01 -6.268915534019470215e-02 -3.006537556648254395e-01
-2.250178009271621704e-01 3.333342447876930237e-02 -3.579182624816894531e-01
-2.828038632869720459e-01 -4.799868911504745483e-04 -3.919777572154998779e-01
-2.152035385370254517e-01 -6.084416806697845459e-02 -1.786328107118606567e-01
-2.282230854034423828e-01 9.258521348237991333e-02 -1.278178393840789795e-01
-2.941313982009887695e-01 1.112495064735412598e-01 -4.204786419868469238e-01
-2.823084890842437744e-01 1.550523638725280762e-01 -2.741902768611907959e-01
-3.012086451053619385e-01 9.222979843616485596e-02 3.956814110279083252e-02
-2.224112600088119507e-01 -6.147194653749465942e-02 -2.566894590854644775e-01
-3.032167255878448486e-01 9.080476313829421997e-02 -1.883433163166046143e-01
-2.274055629968643188e-01 7.316136360168457031e-02 -2.704720795154571533e-01
-2.490107864141464233e-01 1.388236135244369507e-01 -8.813586831092834473e-02
-2.534623444080352783e-01 -8.316916972398757935e-02 4.191565513610839844e-01
-2.064539641141891479e-01 5.054980516433715820e-03 2.322786003351211548e-01
-2.868765294551849365e-01 1.282333880662918091e-01 1.804976016283035278e-01
-2.479004114866256714e-01 1.205048188567161560e-01 -3.404422402381896973e-01
-2.038678824901580811e-01 -4.359284788370132446e-02 5.006159096956253052e-02
-2.403991222381591797e-01 8.649609982967376709e-02 -4.175029695034027100e-01
-2.990607321262359619e-01 1.161607280373573303e-01 -3.125917911529541016e-01
-2.790461182594299316e-01 1.612263172864913940e-02 4.479006528854370117e-01
-2.059044837951660156e-01 -3.991853445768356323e-03 2.749529480934143066e-01
-3.008838593959808350e-01 4.506173729896545410e-02 -1.458922177553176880e-01
-2.314202338457107544e-01 9.674087911844253540e-02 -1.942140012979507446e-01
-2.562649250030517578e-01 1.081889197230339050e-01 3.808422982692718506e-01
-3.016021847724914551e-01 9.054665267467498779e-02 -2.840687632560729980e-01
-2.133146226406097412e-01 3.622379153966903687e-02 -8.937300741672515869e-02
-2.140824645757675171e-01 4.749358445405960083e-02 -1.231040991842746735e-02
-2.985365092754364014e-01 3.581070154905319214e-02 -2.223215401172637939e-01
-2.137722671031951904e-01 4.883244633674621582e-02 7.720848172903060913e-02
-3.022582232952117920e-01 5.730272457003593445e-02 -1.244198977947235107e-01
-2.599687278270721436e-01 -9.152394533157348633e-02 1.048534661531448364e-01
-2.300101816654205322e-01 1.015909314155578613e-01 2.221955545246601105e-02
-2.929925322532653809e-01 4.563557356595993042e-02 2.617998123168945312e-01
-2.998137772083282471e-01 1.225169375538825989e-01 -2.471496462821960449e-01
-2.148578315973281860e-01 2.898071147501468658e-02 -1.768524050712585449e-01
-2.311152964830398560e-01 9.045825898647308350e-02 2.701865732669830322e-01
-2.077804058790206909e-01 3.658352419734001160e-03 -4.361738264560699463e-02
-2.595898509025573730e-01 -9.200846403837203979e-02 1.367045640945434570e-01
-2.812040150165557861e-01 3.146990761160850525e-02 4.333684742450714111e-01
-2.626052796840667725e-01 -8.687806129455566406e-02 6.415940076112747192e-02
-2.525742053985595703e-01 1.285283863544464111e-01 2.217866033315658569e-01
-2.066233754158020020e-01 -2.795321121811866760e-02 -6.276718527078628540e-02
-2.881644964218139648e-01 1.389966011047363281e-01 -3.800093233585357666e-01
-2.046822905540466309e-01 -1.178463548421859741e-02 5.248779803514480591e-02
-2.086646556854248047e-01 6.133518181741237640e-03 -6.928738206624984741e-02
-2.358639389276504517e-01 -8.753252029418945312e-02 5.168532133102416992e-01
-2.677205801010131836e-01 2.156898565590381622e-02 5.522090196609497070e-01
-2.912943363189697266e-01 4.765975102782249451e-02 -4.388076066970825195e-01
-2.953388690948486328e-01 1.225641742348670959e-01 -3.694933652877807617e-01
-2.500362098217010498e-01 -7.264393568038940430e-02 5.099506378173828125e-01
-2.598119676113128662e-01 -2.901696041226387024e-02 -4.516012966632843018e-01
-2.405035793781280518e-01 3.970642015337944031e-02 -5.067052841186523438e-01
-2.244183123111724854e-01 8.616100251674652100e-02 -2.268053591251373291e-03
-2.642506361007690430e-01 1.476837992668151855e-01 1.030758619308471680e-01
-2.821780443191528320e-01 -3.366926684975624084e-02 -1.743027865886688232e-01
-2.982794046401977539e-01 7.258887588977813721e-02 1.513705253601074219e-01
-2.119749784469604492e-01 -6.785729527473449707e-02 -1.054009050130844116e-01
-2.997595965862274170e-01 3.895449638366699219e-02 1.471783127635717392e-02
-2.064672261476516724e-01 -5.404779314994812012e-02 3.978065252304077148e-01
-2.893270552158355713e-01 7.156428694725036621e-02 3.193779289722442627e-01
-2.684524059295654297e-01 1.188234761357307434e-01 -5.031419396400451660e-01
-2.288497686386108398e-01 5.231855064630508423e-02 4.733146131038665771e-01
-2.340087592601776123e-01 3.907819837331771851e-02 -4.541475772857666016e-01
-2.878327965736389160e-01 7.036776281893253326e-03 -3.499730229377746582e-01
-2.155083566904067993e-01 3.180342540144920349e-02 3.726910352706909180e-01
-2.972524464130401611e-01 4.081214219331741333e-02 -2.992594242095947266e-01
-2.227783501148223877e-01 5.886427313089370728e-02 3.564414381980895996e-01
-2.528162896633148193e-01 -8.835303783416748047e-02 3.875028491020202637e-01
-2.082778811454772949e-01 -1.165880635380744934e-02 3.923252224922180176e-01
-2.142824977636337280e-01 3.637337312102317810e-02 3.115101754665374756e-01
-2.890514135360717773e-01 9.554165601730346680e-02 2.805917263031005859e-01
-2.307106107473373413e-01 6.835281848907470703e-02 -3.513904213905334473e-01
-2.218658030033111572e-01 -7.386533170938491821e-02 -2.059103995561599731e-01
-2.931300401687622070e-01 9.388507902622222900e-02 -4.554759263992309570e-01
-2.873938381671905518e-01 -2.415801212191581726e-02 5.356046557426452637e-02
-2.982931435108184814e-01 1.018273532390594482e-01 -3.669564127922058105e-01
-2.860398292541503906e-01 6.705752573907375336e-03 3.254330456256866455e-01
