-2.910395860671997070e-01 -4.972657561302185059e-01 2.585876882076263428e-01
-2.829061746597290039e-01 -4.662700891494750977e-01 2.638491392135620117e-01
-2.451340854167938232e-01 -6.722959876060485840e-01 3.200978338718414307e-01
-2.609855234622955322e-01 -4.837480783462524414e-01 3.149692714214324951e-01
-2.389359623193740845e-01 -4.593017101287841797e-01 3.003656268119812012e-01
-2.390624284744262695e-01 -4.690667390823364258e-01 2.462853938341140747e-01
-2.836207747459411621e-01 -5.415890812873840332e-01 2.463210374116897583e-01
-2.843111455440521240e-01 -7.091197371482849121e-01 3.466062843799591064e-01
-2.996096909046173096e-01 -5.774020552635192871e-01 2.529711127281188965e-01
-3.168027997016906738e-01 -5.487061738967895508e-01 3.109863996505737305e-01
-2.550066411495208740e-01 -6.919220089912414551e-01 3.280718922615051270e-01
-2.992918789386749268e-01 -5.650163888931274414e-01 3.333908021450042725e-01
-2.267172336578369141e-01 -5.924351811408996582e-01 3.081027269363403320e-01
-2.324581295251846313e-01 -4.719551801681518555e-01 3.011482357978820801e-01
-2.847223877906799316e-01 -7.538726329803466797e-01 3.371936082839965820e-01
-2.630055248737335205e-01 -6.198506355285644531e-01 2.492839545011520386e-01
-3.447789847850799561e-01 -7.238004207611083984e-01 3.180844187736511230e-01
-2.562983632087707520e-01 -6.840229034423828125e-01 3.315894007682800293e-01
-2.940134108066558838e-01 -5.178769230842590332e-01 2.556904852390289307e-01
-3.175889849662780762e-01 -6.553704738616943359e-01 2.663738131523132324e-01
-3.374403119087219238e-01 -7.641278505325317383e-01 3.306826055049896240e-01
-3.100653290748596191e-01 -6.968688368797302246e-01 2.681219577789306641e-01
-2.423026710748672485e-01 -6.476098299026489258e-01 2.676888704299926758e-01
-3.269597291946411133e-01 -6.597599387168884277e-01 3.398991823196411133e-01
-2.559321224689483643e-01 -5.815631151199340820e-01 2.447756677865982056e-01
-2.791341245174407959e-01 -7.339231967926025391e-01 3.395068645477294922e-01
-2.663079500198364258e-01 -6.582616567611694336e-01 2.568599581718444824e-01
-2.358112633228302002e-01 -5.127394795417785645e-01 3.140796124935150146e-01
-3.010516762733459473e-01 -5.325791835784912109e-01 3.210605978965759277e-01
-3.372384309768676758e-01 -6.812500357627868652e-01 3.332487940788269043e-01
-3.054793775081634521e-01 -5.056506991386413574e-01 2.953595519065856934e-01
-2.804213166236877441e-01 -5.307486057281494141e-01 3.288226425647735596e-01
-3.057930171489715576e-01 -5.582151412963867188e-01 2.590619325637817383e-01
-3.031610250473022461e-01 -5.025871396064758301e-01 2.754850089550018311e-01
-2.337014079093933105e-01 -5.451691746711730957e-01 2.486877292394638062e-01
-2.529708445072174072e-01 -5.797094106674194336e-01 3.330701291561126709e-01
-3.334181010723114014e-01 -6.220203638076782227e-01 3.213900625705718994e-01
-3.205525279045104980e-01 -7.934110760688781738e-01 3.120091259479522705e-01
-2.409091740846633911e-01 -6.120260953903198242e-01 3.253682553768157959e-01
-2.359744459390640259e-01 -6.612635254859924316e-01 3.007420301437377930e-01
-2.687952816486358643e-01 -5.302721858024597168e-01 2.422163486480712891e-01
-2.294541597366333008e-01 -5.865287780761718750e-01 3.133108317852020264e-01
-2.617126405239105225e-01 -7.356609106063842773e-01 3.029823303222656250e-01
-2.462096214294433594e-01 -6.355104446411132812e-01 3.288457393646240234e-01
-2.922503650188446045e-01 -7.601491808891296387e-01 3.398965299129486084e-01
-2.978391945362091064e-01 -6.293470263481140137e-01 2.538810372352600098e-01
-3.362630605697631836e-01 -7.451044321060180664e-01 2.984864413738250732e-01
-3.062835931777954102e-01 -6.872654557228088379e-01 3.503594696521759033e-01
-3.183376491069793701e-01 -5.979179739952087402e-01 2.669696509838104248e-01
-2.775014936923980713e-01 -4.594094455242156982e-01 2.968822419643402100e-01
-2.508222758769989014e-01 -6.963813900947570801e-01 3.197252750396728516e-01
-2.214758694171905518e-01 -5.059714913368225098e-01 2.983122467994689941e-01
-2.250183224678039551e-01 -5.113946199417114258e-01 2.522347867488861084e-01
-2.904090881347656250e-01 -7.447603940963745117e-01 3.433847427368164062e-01
-2.869978249073028564e-01 -6.262691617012023926e-01 2.505268454551696777e-01
-2.451874464750289917e-01 -6.889009475708007812e-01 2.897085845470428467e-01
-2.768144011497497559e-01 -6.373748779296875000e-01 2.511175572872161865e-01
-2.341547757387161255e-01 -5.578101277351379395e-01 3.185637593269348145e-01
-2.875055968761444092e-01 -5.598707199096679688e-01 2.472823560237884521e-01
-2.689821422100067139e-01 -7.464931607246398926e-01 2.975883483886718750e-01
-2.842521369457244873e-01 -5.733453631401062012e-01 2.460975497961044312e-01
-2.255994379520416260e-01 -5.687922239303588867e-01 2.603986859321594238e-01
-3.440561890602111816e-01 -7.254822254180908203e-01 3.098106086254119873e-01
-2.994244396686553955e-01 -5.612695217132568359e-01 2.537053525447845459e-01
-2.538579106330871582e-01 -7.153931856155395508e-01 2.965027391910552979e-01
-2.385644465684890747e-01 -5.561771988868713379e-01 2.473236173391342163e-01
-3.266507387161254883e-01 -5.798401236534118652e-01 3.115459680557250977e-01
-2.367633581161499023e-01 -4.394710063934326172e-01 2.547630965709686279e-01
-3.417882919311523438e-01 -7.516027688980102539e-01 3.244849443435668945e-01
-3.413760662078857422e-01 -6.668970584869384766e-01 3.211604654788970947e-01
-2.544627487659454346e-01 -4.284820556640625000e-01 2.816595137119293213e-01
-3.239068686962127686e-01 -7.854819297790527344e-01 3.064594566822052002e-01
-2.520628869533538818e-01 -4.996597766876220703e-01 2.418510019779205322e-01
-2.178398072719573975e-01 -5.665411353111267090e-01 2.859647274017333984e-01
-2.683546245098114014e-01 -6.506437063217163086e-01 2.545417249202728271e-01
-2.927927672863006592e-01 -7.790099382400512695e-01 3.304298222064971924e-01
-3.059324920177459717e-01 -7.757651805877685547e-01 2.945840954780578613e-01
-2.898450791835784912e-01 -4.689638614654541016e-01 2.841872572898864746e-01
-3.252474069595336914e-01 -6.451308131217956543e-01 2.723776996135711670e-01
-2.503732442855834961e-01 -5.256212353706359863e-01 2.415307164192199707e-01
-2.395490705966949463e-01 -5.247296690940856934e-01 3.187149763107299805e-01
-2.894660532474517822e-01 -5.328396558761596680e-01 3.272364139556884766e-01
-2.783755660057067871e-01 -5.048937797546386719e-01 3.207832276821136475e-01
-3.423585891723632812e-01 -6.751117706298828125e-01 3.210388123989105225e-01
-2.757387161254882812e-01 -5.379190444946289062e-01 2.436766028404235840e-01
-3.444652557373046875e-01 -6.872840523719787598e-01 3.131217658519744873e-01
-2.347248345613479614e-01 -6.547639369964599609e-01 2.872550189495086670e-01
-3.282824456691741943e-01 -6.532306671142578125e-01 2.757551074028015137e-01
-2.527953684329986572e-01 -4.328066706657409668e-01 2.586111128330230713e-01
-2.763555347919464111e-01 -4.586029052734375000e-01 2.604370713233947754e-01
-2.595339417457580566e-01 -6.999139785766601562e-01 3.311117887496948242e-01
-2.349270880222320557e-01 -4.546316862106323242e-01 2.503512799739837646e-01
-3.340906500816345215e-01 -6.048706173896789551e-01 3.014753162860870361e-01
-2.194643616676330566e-01 -5.120543837547302246e-01 2.590462863445281982e-01
-2.703740298748016357e-01 -5.379175543785095215e-01 3.311279714107513428e-01
-2.877628505229949951e-01 -5.142586231231689453e-01 3.211807608604431152e-01
-2.955110669136047363e-01 -5.144328474998474121e-01 3.168146610260009766e-01
-3.412941098213195801e-01 -6.905305385589599609e-01 3.280689418315887451e-01
-2.187889814376831055e-01 -5.712562799453735352e-01 2.775307297706604004e-01
-2.877134382724761963e-01 -4.877010583877563477e-01 2.585948705673217773e-01
-3.129143118858337402e-01 -7.127854228019714355e-01 3.497858047485351562e-01
-2.965618968009948730e-01 -5.392600893974304199e-01 3.264465034008026123e-01
-2.490367740392684937e-01 -6.881019473075866699e-01 2.804520130157470703e-01
-3.082712590694427490e-01 -7.270709276199340820e-01 2.748346030712127686e-01
-2.332809418439865112e-01 -4.811427295207977295e-01 3.046864271163940430e-01
-2.658376097679138184e-01 -5.803290605545043945e-01 3.379193544387817383e-01
-2.790925502777099609e-01 -4.519160091876983643e-01 2.848432064056396484e-01
-2.695500552654266357e-01 -7.025852799415588379e-01 2.697885632514953613e-01
-2.932238876819610596e-01 -6.616666316986083984e-01 3.495129644870758057e-01
-3.262960016727447510e-01 -7.717522978782653809e-01 2.994447648525238037e-01
-2.668752968311309814e-01 -4.374342560768127441e-01 2.835113406181335449e-01
-3.081060051918029785e-01 -6.476668119430541992e-01 2.600410282611846924e-01
-3.010253608226776123e-01 -5.906611084938049316e-01 2.535752654075622559e-01
-3.107467889785766602e-01 -7.257122993469238281e-01 3.495690822601318359e-01
-2.587317526340484619e-01 -7.237934470176696777e-01 3.180619478225708008e-01
-3.091235458850860596e-01 -6.841826438903808594e-01 2.653891742229461670e-01
-2.568597197532653809e-01 -4.941670894622802734e-01 3.180847465991973877e-01
-2.490542083978652954e-01 -5.172824263572692871e-01 3.219955563545227051e-01
-2.221626937389373779e-01 -4.571030735969543457e-01 2.610614001750946045e-01
-2.628857791423797607e-01 -4.317936301231384277e-01 2.779225707054138184e-01
-2.947806715965270996e-01 -5.698121190071105957e-01 2.504788935184478760e-01
-3.147916793823242188e-01 -5.321227312088012695e-01 2.996779978275299072e-01
-3.058299124240875244e-01 -7.627342939376831055e-01 2.875548303127288818e-01
-2.437367439270019531e-01 -4.575408995151519775e-01 2.475741952657699585e-01
-2.457472383975982666e-01 -4.325888156890869141e-01 2.872161269187927246e-01
-2.612888514995574951e-01 -7.171558737754821777e-01 2.832460999488830566e-01
-3.168976604938507080e-01 -5.967517495155334473e-01 3.325789570808410645e-01
-2.474957853555679321e-01 -4.852902889251708984e-01 3.131202161312103271e-01
-3.043470680713653564e-01 -7.485362887382507324e-01 2.813051342964172363e-01
-2.864598333835601807e-01 -4.625390172004699707e-01 2.803373336791992188e-01
-3.275794088840484619e-01 -6.066886782646179199e-01 2.782248258590698242e-01
-3.090363144874572754e-01 -5.130680799484252930e-01 2.912362515926361084e-01
-2.735899686813354492e-01 -5.813757777214050293e-01 2.442083954811096191e-01
-2.166384160518646240e-01 -4.946197569370269775e-01 2.860096991062164307e-01
-2.755209207534790039e-01 -5.034068822860717773e-01 2.464005053043365479e-01
-3.063359558582305908e-01 -6.362670063972473145e-01 2.581551671028137207e-01
-3.359977304935455322e-01 -7.709842324256896973e-01 3.111472129821777344e-01
-2.534517645835876465e-01 -5.978320837020874023e-01 2.477206289768218994e-01
-3.051923811435699463e-01 -6.231263875961303711e-01 3.442399501800537109e-01
-3.170255422592163086e-01 -7.538977265357971191e-01 3.459768593311309814e-01
-2.160190939903259277e-01 -5.365127325057983398e-01 2.717173695564270020e-01
-2.390303760766983032e-01 -6.496118903160095215e-01 3.171618878841400146e-01
-2.422054708003997803e-01 -5.284751653671264648e-01 2.433898001909255981e-01
-3.119728267192840576e-01 -7.523402571678161621e-01 2.842255532741546631e-01
-2.944115698337554932e-01 -6.020363569259643555e-01 3.429239094257354736e-01
-2.793589830398559570e-01 -7.439786195755004883e-01 3.365433216094970703e-01
-3.307348489761352539e-01 -5.895482301712036133e-01 3.042337596416473389e-01
-2.938841283321380615e-01 -6.010632514953613281e-01 2.504229843616485596e-01
-2.815074622631072998e-01 -4.579030871391296387e-01 2.691123187541961670e-01
-3.121690750122070312e-01 -5.315735340118408203e-01 2.757918238639831543e-01
-2.423488646745681763e-01 -6.434069871902465820e-01 3.235472142696380615e-01
-2.845665812492370605e-01 -6.418973803520202637e-01 2.522884309291839600e-01
-2.149399220943450928e-01 -5.272659659385681152e-01 2.747626602649688721e-01
-2.149416804313659668e-01 -4.930512309074401855e-01 2.759593725204467773e-01
-2.565410435199737549e-01 -6.878657341003417969e-01 2.718069255352020264e-01
-2.305868715047836304e-01 -6.274073719978332520e-01 3.070639967918395996e-01
-3.148036301136016846e-01 -5.641677975654602051e-01 2.679421603679656982e-01
-3.122926056385040283e-01 -6.705111265182495117e-01 3.483082056045532227e-01
-2.866449356079101562e-01 -5.955253243446350098e-01 3.425020575523376465e-01
-3.162724971771240234e-01 -5.554165840148925781e-01 2.726770937442779541e-01
-2.348764836788177490e-01 -4.269147515296936035e-01 2.703557014465332031e-01
-2.702049016952514648e-01 -7.277668714523315430e-01 3.337399065494537354e-01
-3.262062072753906250e-01 -7.580633759498596191e-01 3.425745964050292969e-01
-2.253780066967010498e-01 -5.708208680152893066e-01 3.080643415451049805e-01
-2.533966898918151855e-01 -7.111424207687377930e-01 3.152300417423248291e-01
-2.208640873432159424e-01 -4.962371885776519775e-01 2.953850328922271729e-01
-2.235464304685592651e-01 -4.461727738380432129e-01 2.760632038116455078e-01
-3.397827148437500000e-01 -7.096378207206726074e-01 3.332045674324035645e-01
-2.469826638698577881e-01 -5.067200660705566406e-01 2.419852018356323242e-01
-2.577876150608062744e-01 -5.290848612785339355e-01 2.411343902349472046e-01
-2.193808704614639282e-01 -5.795699954032897949e-01 2.834760546684265137e-01
-2.692879140377044678e-01 -6.678335070610046387e-01 2.585954070091247559e-01
-2.642309069633483887e-01 -4.549794495105743408e-01 3.012698590755462646e-01
-3.048088550567626953e-01 -5.252448320388793945e-01 2.655255794525146484e-01
-3.137397468090057373e-01 -7.198209762573242188e-01 2.747330665588378906e-01
-3.336956799030303955e-01 -7.330620884895324707e-01 2.917559444904327393e-01
-2.937728166580200195e-01 -7.170822620391845703e-01 3.487757444381713867e-01
-2.489170581102371216e-01 -5.357653498649597168e-01 3.255153298377990723e-01
-2.906284332275390625e-01 -7.707985639572143555e-01 2.955018281936645508e-01
-2.477593272924423218e-01 -6.663051843643188477e-01 2.701036632061004639e-01
-3.204711377620697021e-01 -6.772809028625488281e-01 2.705721259117126465e-01
-2.912084460258483887e-01 -6.188740730285644531e-01 2.507641911506652832e-01
-2.210063487291336060e-01 -4.698778390884399414e-01 2.872107625007629395e-01
-2.628425061702728271e-01 -6.359186768531799316e-01 3.405306935310363770e-01
-2.445038706064224243e-01 -5.104601383209228516e-01 3.185879886150360107e-01
-3.222686648368835449e-01 -7.581928372383117676e-01 2.907006144523620605e-01
-2.346759438514709473e-01 -6.162006855010986328e-01 2.639950811862945557e-01
-2.198307216167449951e-01 -5.242227315902709961e-01 2.597076594829559326e-01
-2.159072905778884888e-01 -5.404842495918273926e-01 2.862697541713714600e-01
-2.753331661224365234e-01 -7.245151996612548828e-01 2.763807475566864014e-01
-3.324452340602874756e-01 -6.441890001296997070e-01 3.310340642929077148e-01
-3.211506903171539307e-01 -7.114019393920898438e-01 3.476915359497070312e-01
-2.279717773199081421e-01 -6.230096817016601562e-01 2.804374098777770996e-01
-3.384663760662078857e-01 -6.855292320251464844e-01 2.907666862010955811e-01
-2.884235680103302002e-01 -4.830452203750610352e-01 3.046320378780364990e-01
-2.423165887594223022e-01 -4.467193782329559326e-01 2.506691217422485352e-01
-3.007078170776367188e-01 -7.316058874130249023e-01 3.486672043800354004e-01
-2.398727834224700928e-01 -4.723277390003204346e-01 3.058170378208160400e-01
-3.235188424587249756e-01 -5.596656799316406250e-01 2.997264564037322998e-01
-2.262602150440216064e-01 -5.446437001228332520e-01 3.092299699783325195e-01
-2.584627270698547363e-01 -5.527335405349731445e-01 3.318570852279663086e-01
-2.294527292251586914e-01 -5.596764683723449707e-01 2.541269063949584961e-01
-2.930543422698974609e-01 -7.074484825134277344e-01 3.493404090404510498e-01
-3.152548670768737793e-01 -5.746942758560180664e-01 2.664538025856018066e-01
-3.305236399173736572e-01 -6.342437267303466797e-01 2.791983187198638916e-01
-2.829555869102478027e-01 -6.891157031059265137e-01 2.620927989482879639e-01
-2.493468523025512695e-01 -6.701817512512207031e-01 3.268234729766845703e-01
-3.137511909008026123e-01 -6.963535547256469727e-01 3.494849205017089844e-01
-3.096902072429656982e-01 -5.558727979660034180e-01 3.239724040031433105e-01
-2.873886525630950928e-01 -5.143178105354309082e-01 2.512892186641693115e-01
-3.391118049621582031e-01 -6.550651192665100098e-01 3.228746652603149414e-01
-2.467524260282516479e-01 -6.774893403053283691e-01 2.771227061748504639e-01
-2.983823418617248535e-01 -7.216005325317382812e-01 2.714390754699707031e-01
-3.085670471191406250e-01 -5.244298577308654785e-01 3.080745637416839600e-01
-2.216465026140213013e-01 -5.280852913856506348e-01 3.014961779117584229e-01
-3.287057578563690186e-01 -6.719100475311279297e-01 2.770354747772216797e-01
-2.169874757528305054e-01 -5.072075724601745605e-01 2.897558808326721191e-01
-2.357002347707748413e-01 -6.539126634597778320e-01 3.075095713138580322e-01
-2.449539303779602051e-01 -5.831925272941589355e-01 2.483440935611724854e-01
-2.563921511173248291e-01 -6.789939403533935547e-01 2.680999934673309326e-01
-3.312881290912628174e-01 -7.203481197357177734e-01 3.425083458423614502e-01
-2.310220599174499512e-01 -5.029314160346984863e-01 3.084297776222229004e-01
-2.878338098526000977e-01 -6.430084705352783203e-01 3.479872345924377441e-01
-2.719118893146514893e-01 -4.503758549690246582e-01 2.938523292541503906e-01
-2.532116770744323730e-01 -6.315597295761108398e-01 3.348534107208251953e-01
-3.059692382812500000e-01 -5.335103273391723633e-01 2.643725574016571045e-01
-2.691185772418975830e-01 -4.393281340599060059e-01 2.685595750808715820e-01
-3.213815093040466309e-01 -5.730319023132324219e-01 2.758582234382629395e-01
-3.091916441917419434e-01 -5.701283812522888184e-01 2.606896162033081055e-01
-3.074633479118347168e-01 -5.190109014511108398e-01 2.730722427368164062e-01
-2.811158001422882080e-01 -5.391635298728942871e-01 3.310619294643402100e-01
-2.712387144565582275e-01 -4.945150017738342285e-01 2.459055632352828979e-01
-3.411304950714111328e-01 -7.016211152076721191e-01 3.301178216934204102e-01
-3.387098312377929688e-01 -7.515772581100463867e-01 3.325372040271759033e-01
-2.872052490711212158e-01 -7.297397255897521973e-01 3.449784815311431885e-01
-2.225293815135955811e-01 -5.896565914154052734e-01 2.744103670120239258e-01
-3.123450279235839844e-01 -7.858676910400390625e-01 3.018676936626434326e-01
-3.251857459545135498e-01 -5.713735818862915039e-01 2.861841022968292236e-01
-2.718205153942108154e-01 -7.545291185379028320e-01 3.184877634048461914e-01
-2.428067922592163086e-01 -5.752477049827575684e-01 3.266752660274505615e-01
-3.292520344257354736e-01 -5.820701122283935547e-01 3.003523647785186768e-01
-2.542020976543426514e-01 -6.195641756057739258e-01 3.356593847274780273e-01
-2.609372735023498535e-01 -7.317907214164733887e-01 3.155488967895507812e-01
-2.617138624191284180e-01 -5.519129633903503418e-01 2.417564243078231812e-01
-2.678322792053222656e-01 -7.054221034049987793e-01 3.376507461071014404e-01
-3.124421536922454834e-01 -5.869590044021606445e-01 3.328323364257812500e-01
-2.703926265239715576e-01 -5.635983943939208984e-01 3.363081216812133789e-01
-2.429211735725402832e-01 -6.862331628799438477e-01 2.997561097145080566e-01
-2.727454900741577148e-01 -5.567402243614196777e-01 2.429242134094238281e-01
-3.273387849330902100e-01 -6.636469960212707520e-01 2.751253843307495117e-01
-3.046876788139343262e-01 -5.462685227394104004e-01 2.599166929721832275e-01
-3.023277223110198975e-01 -6.608901023864746094e-01 2.591625154018402100e-01
-2.500019371509552002e-01 -6.803706884384155273e-01 3.249329328536987305e-01
-3.318577408790588379e-01 -7.584350109100341797e-01 2.982341647148132324e-01
-2.596305310726165771e-01 -5.074956417083740234e-01 2.417556345462799072e-01
-2.360636889934539795e-01 -4.449926614761352539e-01 2.917459309101104736e-01
-2.503667473793029785e-01 -4.418331384658813477e-01 2.527668476104736328e-01
-3.161016106605529785e-01 -7.109580039978027344e-01 2.737078666687011719e-01
-2.986726164817810059e-01 -5.048009157180786133e-01 2.650654017925262451e-01
-3.215433955192565918e-01 -7.287203669548034668e-01 3.473069667816162109e-01
-2.272930741310119629e-01 -4.366495609283447266e-01 2.729275822639465332e-01
-2.766015827655792236e-01 -6.293496489524841309e-01 3.452479541301727295e-01
-3.400323390960693359e-01 -7.211759090423583984e-01 2.978751361370086670e-01
-3.181308805942535400e-01 -6.357009410858154297e-01 2.657164037227630615e-01
-3.434171378612518311e-01 -6.748856902122497559e-01 3.064739108085632324e-01
-2.374998629093170166e-01 -6.508175730705261230e-01 2.760787904262542725e-01
-3.132399618625640869e-01 -5.255652070045471191e-01 2.866304814815521240e-01
-2.192361652851104736e-01 -5.560917854309082031e-01 2.964747548103332520e-01
-3.260290622711181641e-01 -7.410658001899719238e-01 2.871771454811096191e-01
-3.207437992095947266e-01 -5.496271848678588867e-01 2.982079386711120605e-01
-2.749544680118560791e-01 -5.833598971366882324e-01 3.400803804397583008e-01
-2.637360692024230957e-01 -4.724508523941040039e-01 2.471783012151718140e-01
-3.263642787933349609e-01 -6.437968611717224121e-01 3.372569978237152100e-01
-2.700522840023040771e-01 -5.051326751708984375e-01 3.221383094787597656e-01
-2.187168151140213013e-01 -4.783399403095245361e-01 2.614548504352569580e-01
-2.693732380867004395e-01 -6.116291284561157227e-01 2.472651600837707520e-01
-2.784152030944824219e-01 -5.201746821403503418e-01 3.259672522544860840e-01
-3.169910013675689697e-01 -7.296491861343383789e-01 2.787168622016906738e-01
-3.279675543308258057e-01 -6.260182857513427734e-01 2.762121558189392090e-01
-2.768778800964355469e-01 -6.960273385047912598e-01 2.650021016597747803e-01
-3.423105776309967041e-01 -7.211810350418090820e-01 3.289782702922821045e-01
-2.663451433181762695e-01 -6.920573115348815918e-01 2.672770619392395020e-01
-2.338601648807525635e-01 -4.914398193359375000e-01 3.079507350921630859e-01
-2.330805659294128418e-01 -5.728068947792053223e-01 2.535808086395263672e-01
-2.251732200384140015e-01 -6.148941516876220703e-01 2.918155491352081299e-01
-2.852857410907745361e-01 -5.029984712600708008e-01 2.520349323749542236e-01
-3.077311813831329346e-01 -6.068472266197204590e-01 2.576891779899597168e-01
-2.260615974664688110e-01 -5.131990313529968262e-01 3.055121302604675293e-01
-3.290552496910095215e-01 -6.351451873779296875e-01 3.325512409210205078e-01
-2.523171007633209229e-01 -5.947713255882263184e-01 3.338098526000976562e-01
-3.199428617954254150e-01 -6.328028440475463867e-01 3.395920991897583008e-01
-3.029623925685882568e-01 -7.899188399314880371e-01 3.069720566272735596e-01
-2.150475829839706421e-01 -5.324241518974304199e-01 2.816277742385864258e-01
-2.629163861274719238e-01 -5.155616402626037598e-01 2.417500466108322144e-01
-2.762708067893981934e-01 -6.290270090103149414e-01 2.497579902410507202e-01
-2.600401937961578369e-01 -5.254054069519042969e-01 3.269505500793457031e-01
-2.651177048683166504e-01 -4.688585698604583740e-01 3.085144460201263428e-01
-2.969848811626434326e-01 -7.621344327926635742e-01 2.876635491847991943e-01
-2.620544135570526123e-01 -5.118474364280700684e-01 3.238938152790069580e-01
-3.345855176448822021e-01 -7.282826900482177734e-01 3.397819101810455322e-01
-2.257185876369476318e-01 -5.785660743713378906e-01 2.630410790443420410e-01
-2.309619337320327759e-01 -6.380136013031005859e-01 2.835236489772796631e-01
-2.869918644428253174e-01 -5.666059851646423340e-01 3.369883298873901367e-01
-2.560286223888397217e-01 -7.086904644966125488e-01 2.843144536018371582e-01
-2.699328660964965820e-01 -5.107133984565734863e-01 2.435550838708877563e-01
-2.255828976631164551e-01 -4.979796409606933594e-01 3.020674884319305420e-01
-2.335191369056701660e-01 -4.324148297309875488e-01 2.611762881278991699e-01
-2.691258192062377930e-01 -7.286473512649536133e-01 2.826091349124908447e-01
-2.448288798332214355e-01 -5.386143326759338379e-01 2.431990355253219604e-01
-2.405350953340530396e-01 -6.727940440177917480e-01 3.090958297252655029e-01
-2.410127222537994385e-01 -6.784912347793579102e-01 2.923778295516967773e-01
-2.900619208812713623e-01 -5.231840610504150391e-01 3.236182928085327148e-01
-2.833472490310668945e-01 -4.763861894607543945e-01 3.046337664127349854e-01
-2.384135276079177856e-01 -6.725851297378540039e-01 -3.021129071712493896e-01
-2.189846634864807129e-01 -5.621902346611022949e-01 -2.901996672153472900e-01
-2.565830945968627930e-01 -5.922869443893432617e-01 -2.468972653150558472e-01
-2.216193079948425293e-01 -5.096330642700195312e-01 -2.664914727210998535e-01
-2.239319384098052979e-01 -5.298504233360290527e-01 -3.188940286636352539e-01
-2.663664221763610840e-01 -3.679552674293518066e-01 -2.681380212306976318e-01
-3.329199552536010742e-01 -5.246257781982421875e-01 -2.930035293102264404e-01
-2.897848486900329590e-01 -4.312724471092224121e-01 -3.043805062770843506e-01
-3.287262916564941406e-01 -6.482949256896972656e-01 -3.330549597740173340e-01
-2.481865286827087402e-01 -5.002001523971557617e-01 -3.320832252502441406e-01
-2.354583591222763062e-01 -6.528732180595397949e-01 -2.924073040485382080e-01
-3.016500174999237061e-01 -4.103279709815979004e-01 -2.674469649791717529e-01
-2.872374951839447021e-01 -6.855372786521911621e-01 -3.532278239727020264e-01
-3.102768361568450928e-01 -4.466394186019897461e-01 -2.906127572059631348e-01
-2.211083173751831055e-01 -5.758678913116455078e-01 -3.106365501880645752e-01
-3.055147826671600342e-01 -4.186445474624633789e-01 -2.658702433109283447e-01
-3.388434350490570068e-01 -6.530306339263916016e-01 -2.713685631752014160e-01
-3.167064785957336426e-01 -7.709068059921264648e-01 -3.221812248229980469e-01
-2.508571743965148926e-01 -4.969521164894104004e-01 -2.361806482076644897e-01
-2.635285258293151855e-01 -5.554732084274291992e-01 -2.370953410863876343e-01
-2.230129241943359375e-01 -6.002929806709289551e-01 -3.057920038700103760e-01
-3.163007497787475586e-01 -4.813094437122344971e-01 -3.023678660392761230e-01
-2.568821310997009277e-01 -4.606799483299255371e-01 -3.238544762134552002e-01
-3.162782788276672363e-01 -6.727052330970764160e-01 -2.580739855766296387e-01
-2.427830547094345093e-01 -6.506302356719970703e-01 -2.770468890666961670e-01
-2.213336080312728882e-01 -4.974889755249023438e-01 -3.102433085441589355e-01
-3.167027235031127930e-01 -7.318587899208068848e-01 -2.788066864013671875e-01
-2.794771492481231689e-01 -5.356309413909912109e-01 -2.312173545360565186e-01
-2.384611219167709351e-01 -3.861666023731231689e-01 -2.819504737854003906e-01
-3.263495266437530518e-01 -5.490164756774902344e-01 -2.482289075851440430e-01
-2.319288700819015503e-01 -5.168582201004028320e-01 -3.262405991554260254e-01
-2.394814193248748779e-01 -3.999223113059997559e-01 -2.938583493232727051e-01
-2.903985381126403809e-01 -6.487542390823364258e-01 -3.529292643070220947e-01
-3.385121226310729980e-01 -6.721678376197814941e-01 -2.755159139633178711e-01
-2.606846392154693604e-01 -7.334101200103759766e-01 -3.270739912986755371e-01
-3.409623205661773682e-01 -6.994625329971313477e-01 -2.919381856918334961e-01
-2.854867577552795410e-01 -4.311938583850860596e-01 -2.337501645088195801e-01
-2.824181616306304932e-01 -6.982988119125366211e-01 -3.522268235683441162e-01
-2.787228822708129883e-01 -3.968007564544677734e-01 -2.410016357898712158e-01
-2.761683464050292969e-01 -4.790247380733489990e-01 -3.280289173126220703e-01
-2.611299753189086914e-01 -4.665878415107727051e-01 -2.311921864748001099e-01
-2.922152280807495117e-01 -4.045258760452270508e-01 -2.845977246761322021e-01
-2.927320301532745361e-01 -4.234992265701293945e-01 -2.977991700172424316e-01
-2.625484466552734375e-01 -3.840829730033874512e-01 -2.436578720808029175e-01
-2.500490248203277588e-01 -4.512667655944824219e-01 -3.198525905609130859e-01
-3.219433426856994629e-01 -6.497324109077453613e-01 -3.392685055732727051e-01
-2.830144166946411133e-01 -3.993541598320007324e-01 -2.902843356132507324e-01
-2.943307757377624512e-01 -6.317719817161560059e-01 -2.449900358915328979e-01
-2.160089313983917236e-01 -4.882872998714447021e-01 -2.873758077621459961e-01
-2.273607701063156128e-01 -4.459337294101715088e-01 -2.551306188106536865e-01
-2.535358071327209473e-01 -3.901779055595397949e-01 -2.936800420284271240e-01
-2.539277076721191406e-01 -4.428393244743347168e-01 -2.342405617237091064e-01
-3.199726939201354980e-01 -5.539598464965820312e-01 -3.247389495372772217e-01
-2.447849065065383911e-01 -5.512829422950744629e-01 -3.390235602855682373e-01
-2.398012280464172363e-01 -4.693616628646850586e-01 -3.214187026023864746e-01
-2.187247723340988159e-01 -4.857461452484130859e-01 -3.020070791244506836e-01
-2.737370729446411133e-01 -6.638991832733154297e-01 -3.530822694301605225e-01
-2.255383133888244629e-01 -4.336539506912231445e-01 -2.964717745780944824e-01
-2.652531862258911133e-01 -4.879523515701293945e-01 -3.316944837570190430e-01
-2.762957215309143066e-01 -3.734470307826995850e-01 -2.635183334350585938e-01
-2.224233299493789673e-01 -4.622145295143127441e-01 -2.624932229518890381e-01
-3.148313164710998535e-01 -7.323871254920959473e-01 -3.415723443031311035e-01
-2.826839387416839600e-01 -6.927312016487121582e-01 -2.638672292232513428e-01
-3.342854082584381104e-01 -7.274644374847412109e-01 -3.209260702133178711e-01
-3.082696795463562012e-01 -7.400147914886474609e-01 -3.432730436325073242e-01
-2.483174204826354980e-01 -3.965870440006256104e-01 -2.437557876110076904e-01
-2.995837330818176270e-01 -6.860439181327819824e-01 -3.514652550220489502e-01
-2.327980697154998779e-01 -4.665096402168273926e-01 -2.478625178337097168e-01
-2.285141646862030029e-01 -5.800502300262451172e-01 -2.709071934223175049e-01
-2.563815712928771973e-01 -5.191993713378906250e-01 -2.354714870452880859e-01
-2.770567834377288818e-01 -5.143309235572814941e-01 -2.298210561275482178e-01
-2.735850811004638672e-01 -7.321842908859252930e-01 -2.869995832443237305e-01
-3.146764039993286133e-01 -5.819076299667358398e-01 -2.413929253816604614e-01
-2.689943909645080566e-01 -6.248752474784851074e-01 -2.485200166702270508e-01
-3.115102350711822510e-01 -6.948114633560180664e-01 -3.469030857086181641e-01
-2.691729068756103516e-01 -5.510556697845458984e-01 -3.445694148540496826e-01
-2.925760149955749512e-01 -7.641978263854980469e-01 -2.977898716926574707e-01
-2.804309129714965820e-01 -6.106474995613098145e-01 -2.420074045658111572e-01
-2.730159461498260498e-01 -3.748102784156799316e-01 -2.527783513069152832e-01
-3.146359026432037354e-01 -6.951898336410522461e-01 -2.640467584133148193e-01
-2.742832303047180176e-01 -6.905503273010253906e-01 -3.516010642051696777e-01
-3.197607398033142090e-01 -6.465916633605957031e-01 -2.534193694591522217e-01
-2.176903933286666870e-01 -5.493320822715759277e-01 -3.009591400623321533e-01
-2.630865573883056641e-01 -5.457122325897216797e-01 -2.359066903591156006e-01
-2.603471279144287109e-01 -6.043583154678344727e-01 -2.475810050964355469e-01
-2.628595829010009766e-01 -6.489138007164001465e-01 -3.507591187953948975e-01
-3.183142542839050293e-01 -7.026416659355163574e-01 -2.678228616714477539e-01
-2.241130024194717407e-01 -6.021992564201354980e-01 -2.929527163505554199e-01
-3.039400577545166016e-01 -5.127608776092529297e-01 -2.335730940103530884e-01
-3.436721265316009521e-01 -6.151888966560363770e-01 -2.778772115707397461e-01
-3.214766979217529297e-01 -4.957030117511749268e-01 -2.485508471727371216e-01
-3.392146527767181396e-01 -5.500172972679138184e-01 -2.813400030136108398e-01
-2.229775488376617432e-01 -4.433075785636901855e-01 -2.963617742061614990e-01
-3.311657905578613281e-01 -5.076572299003601074e-01 -2.663438916206359863e-01
-2.638783156871795654e-01 -4.131723642349243164e-01 -2.349615395069122314e-01
-2.605233192443847656e-01 -6.605974435806274414e-01 -3.493221402168273926e-01
-3.097601532936096191e-01 -4.995723962783813477e-01 -2.370214909315109253e-01
-2.866664528846740723e-01 -3.913273513317108154e-01 -2.501902282238006592e-01
-2.305552959442138672e-01 -4.243413507938385010e-01 -2.989193201065063477e-01
-3.427280783653259277e-01 -6.953558325767517090e-01 -3.011234998703002930e-01
-2.722105681896209717e-01 -7.568359971046447754e-01 -3.185194432735443115e-01
-2.188576906919479370e-01 -5.429793000221252441e-01 -3.083162605762481689e-01
-3.155610561370849609e-01 -4.490494430065155029e-01 -2.796838283538818359e-01
-3.181947171688079834e-01 -7.144967317581176758e-01 -2.720708250999450684e-01
-3.065989911556243896e-01 -4.231610298156738281e-01 -2.742435634136199951e-01
-2.442539185285568237e-01 -5.611984133720397949e-01 -2.486286759376525879e-01
-2.695474326610565186e-01 -4.609304070472717285e-01 -2.296437025070190430e-01
-3.129782676696777344e-01 -5.093935728073120117e-01 -3.178568482398986816e-01
-2.894259989261627197e-01 -6.247138977050781250e-01 -3.516710996627807617e-01
-2.532588839530944824e-01 -6.397607326507568359e-01 -3.468415439128875732e-01
-3.269268870353698730e-01 -4.923018217086791992e-01 -2.870312929153442383e-01
-2.925906181335449219e-01 -7.762940526008605957e-01 -3.154083192348480225e-01
-2.513408660888671875e-01 -5.293039083480834961e-01 -3.384610414505004883e-01
-2.639999985694885254e-01 -6.554098129272460938e-01 -2.595938146114349365e-01
-3.384439051151275635e-01 -7.223781347274780273e-01 -3.066987991333007812e-01
-3.300563991069793701e-01 -6.326082348823547363e-01 -2.575359940528869629e-01
-2.394768744707107544e-01 -6.417795419692993164e-01 -2.777573168277740479e-01
-2.466581314802169800e-01 -4.248617291450500488e-01 -3.095127940177917480e-01
-2.506118118762969971e-01 -4.050294160842895508e-01 -2.404018640518188477e-01
-2.711434960365295410e-01 -7.527639865875244141e-01 -3.094784915447235107e-01
-3.279038965702056885e-01 -6.804804205894470215e-01 -2.663473188877105713e-01
-2.189268916845321655e-01 -5.155278444290161133e-01 -2.738158106803894043e-01
-2.694137692451477051e-01 -6.085873842239379883e-01 -2.445875704288482666e-01
-3.042905628681182861e-01 -6.325517296791076660e-01 -2.458831369876861572e-01
-2.320835739374160767e-01 -4.781806468963623047e-01 -2.489096224308013916e-01
-2.360228598117828369e-01 -6.496373414993286133e-01 -3.272961378097534180e-01
-3.113209307193756104e-01 -5.641330480575561523e-01 -2.383961081504821777e-01
-3.166221678256988525e-01 -4.481334388256072998e-01 -2.688478827476501465e-01
-2.513692677021026611e-01 -5.877070426940917969e-01 -3.451926708221435547e-01
-2.832970023155212402e-01 -6.393045186996459961e-01 -2.478148341178894043e-01
-2.593366503715515137e-01 -6.251152157783508301e-01 -2.533279657363891602e-01
-2.836796045303344727e-01 -4.231654703617095947e-01 -3.041689395904541016e-01
-2.236342430114746094e-01 -5.252583622932434082e-01 -2.652562558650970459e-01
-2.203187346458435059e-01 -4.638109207153320312e-01 -2.991561293601989746e-01
-2.630549967288970947e-01 -7.415086627006530762e-01 -3.173725605010986328e-01
-2.248434424400329590e-01 -6.123250722885131836e-01 -3.070619702339172363e-01
-3.280250728130340576e-01 -6.070869565010070801e-01 -3.283188045024871826e-01
-2.866315841674804688e-01 -3.857037425041198730e-01 -2.581375241279602051e-01
-2.972610592842102051e-01 -4.124692082405090332e-01 -2.843493521213531494e-01
-3.260211944580078125e-01 -7.597230672836303711e-01 -3.144687414169311523e-01
-2.468356639146804810e-01 -6.842823624610900879e-01 -2.895198762416839600e-01
-2.192522287368774414e-01 -5.455383062362670898e-01 -2.807082533836364746e-01
-2.427426576614379883e-01 -5.883058309555053711e-01 -2.558773458003997803e-01
-3.116506040096282959e-01 -7.712976932525634766e-01 -3.039019107818603516e-01
-2.281683385372161865e-01 -4.867129921913146973e-01 -3.171738088130950928e-01
-2.800963521003723145e-01 -5.955421328544616699e-01 -3.501289784908294678e-01
-2.965739965438842773e-01 -4.646856188774108887e-01 -3.145583271980285645e-01
-2.999441623687744141e-01 -7.570329308509826660e-01 -2.902122139930725098e-01
-3.318223655223846436e-01 -5.146061182022094727e-01 -2.890770137310028076e-01
-2.497382313013076782e-01 -5.406159162521362305e-01 -2.414597421884536743e-01
-2.775507271289825439e-01 -5.895134806632995605e-01 -2.386088222265243530e-01
-2.250839620828628540e-01 -4.887570440769195557e-01 -2.583079040050506592e-01
-2.859691083431243896e-01 -4.554526507854461670e-01 -2.306383997201919556e-01
-3.259350657463073730e-01 -7.295816540718078613e-01 -3.331549465656280518e-01
-3.021685779094696045e-01 -4.467059075832366943e-01 -2.394335716962814331e-01
-2.331723868846893311e-01 -5.496827960014343262e-01 -2.566949129104614258e-01
-3.001559972763061523e-01 -6.847018599510192871e-01 -2.585693001747131348e-01
-2.344893962144851685e-01 -6.262752413749694824e-01 -3.307861685752868652e-01
-2.551289200782775879e-01 -4.851696491241455078e-01 -2.335878908634185791e-01
-3.311236798763275146e-01 -7.458098530769348145e-01 -3.171523213386535645e-01
-2.414286732673645020e-01 -6.819196343421936035e-01 -3.224033117294311523e-01
-2.609958052635192871e-01 -5.698195695877075195e-01 -2.403680086135864258e-01
-2.714611291885375977e-01 -7.139695882797241211e-01 -3.471091687679290771e-01
-2.927906513214111328e-01 -3.977798521518707275e-01 -2.535851597785949707e-01
-2.583981156349182129e-01 -5.383571386337280273e-01 -3.415550291538238525e-01
-2.300227582454681396e-01 -5.640414953231811523e-01 -3.288477659225463867e-01
-3.319711685180664062e-01 -5.750589370727539062e-01 -2.543480992317199707e-01
-2.655754983425140381e-01 -6.112897396087646484e-01 -3.507679402828216553e-01
-2.497945576906204224e-01 -4.101119041442871094e-01 -3.039165735244750977e-01
-2.921707332134246826e-01 -4.180040359497070312e-01 -2.404356449842453003e-01
-2.337418198585510254e-01 -5.879988670349121094e-01 -2.655885219573974609e-01
-2.971705198287963867e-01 -7.514910697937011719e-01 -3.427748382091522217e-01
-2.835618257522583008e-01 -6.226007938385009766e-01 -2.439447045326232910e-01
-2.350023239850997925e-01 -4.403171539306640625e-01 -2.464769631624221802e-01
-2.759459614753723145e-01 -3.783742785453796387e-01 -2.768470346927642822e-01
-3.308870196342468262e-01 -6.871880292892456055e-01 -3.321788311004638672e-01
-2.709681093692779541e-01 -7.368694543838500977e-01 -3.394826054573059082e-01
-2.324053645133972168e-01 -4.739479720592498779e-01 -3.179158270359039307e-01
-3.240711092948913574e-01 -6.546730995178222656e-01 -2.574212551116943359e-01
-2.899800539016723633e-01 -7.317824959754943848e-01 -3.479594290256500244e-01
-3.338889777660369873e-01 -7.054032087326049805e-01 -3.269849121570587158e-01
-2.451492846012115479e-01 -6.083610653877258301e-01 -2.591060698032379150e-01
-3.178528249263763428e-01 -6.298372745513916016e-01 -2.493520379066467285e-01
-2.583600878715515137e-01 -4.302661716938018799e-01 -2.337289750576019287e-01
-2.973289787769317627e-01 -6.641822457313537598e-01 -3.520268797874450684e-01
-3.219871222972869873e-01 -4.671256244182586670e-01 -2.651675939559936523e-01
-2.859324812889099121e-01 -6.731184124946594238e-01 -2.564942538738250732e-01
-2.632959187030792236e-01 -4.443635344505310059e-01 -3.187296688556671143e-01
-3.444141745567321777e-01 -6.418945789337158203e-01 -3.039066493511199951e-01
-3.199024200439453125e-01 -7.691089510917663574e-01 -3.126658499240875244e-01
-2.621929049491882324e-01 -3.967164754867553711e-01 -2.976988554000854492e-01
-2.334904223680496216e-01 -5.383488535881042480e-01 -3.303647041320800781e-01
-3.156377375125885010e-01 -6.067844629287719727e-01 -3.389244973659515381e-01
-3.413595259189605713e-01 -5.705151557922363281e-01 -2.774091064929962158e-01
-2.501675486564636230e-01 -4.679005146026611328e-01 -2.353564053773880005e-01
-3.305294513702392578e-01 -5.011537075042724609e-01 -2.791013717651367188e-01
-2.454115301370620728e-01 -6.387525796890258789e-01 -3.415345549583435059e-01
-2.374176234006881714e-01 -5.280425548553466797e-01 -3.319481015205383301e-01
-3.068235516548156738e-01 -6.092581748962402344e-01 -3.443801403045654297e-01
-3.434748053550720215e-01 -6.746367812156677246e-01 -3.078836202621459961e-01
-2.297508716583251953e-01 -4.276711344718933105e-01 -2.541339397430419922e-01
-2.721939980983734131e-01 -4.177561998367309570e-01 -3.064818680286407471e-01
-3.372850120067596436e-01 -5.439870953559875488e-01 -2.697172164916992188e-01
-2.496174573898315430e-01 -3.749777376651763916e-01 -2.535876631736755371e-01
-2.999716997146606445e-01 -4.399716258049011230e-01 -3.002695143222808838e-01
-2.581366896629333496e-01 -3.689056038856506348e-01 -2.742062509059906006e-01
-2.566153407096862793e-01 -6.722176074981689453e-01 -3.461101055145263672e-01
-3.384103477001190186e-01 -5.558300614356994629e-01 -2.691036462783813477e-01
-2.883563637733459473e-01 -4.844128787517547607e-01 -3.258285522460937500e-01
-3.382372558116912842e-01 -5.882172584533691406e-01 -2.639614641666412354e-01
-3.362672626972198486e-01 -7.317600846290588379e-01 -3.057160377502441406e-01
-2.240645140409469604e-01 -4.718302786350250244e-01 -2.592578828334808350e-01
-2.588047981262207031e-01 -5.364903211593627930e-01 -2.363752424716949463e-01
-2.249555587768554688e-01 -5.400912165641784668e-01 -3.212047815322875977e-01
-2.377763092517852783e-01 -4.528065323829650879e-01 -3.155387639999389648e-01
-2.631363570690155029e-01 -3.811551332473754883e-01 -2.869367897510528564e-01
-2.161983549594879150e-01 -4.976143240928649902e-01 -2.945304811000823975e-01
-2.867321074008941650e-01 -5.333071947097778320e-01 -3.389815390110015869e-01
-2.941375970840454102e-01 -6.738313436508178711e-01 -3.527798354625701904e-01
-3.378370702266693115e-01 -6.843841075897216797e-01 -2.782066166400909424e-01
-3.056300282478332520e-01 -7.266530990600585938e-01 -2.739712595939636230e-01
-3.389798998832702637e-01 -7.149916291236877441e-01 -3.125898838043212891e-01
-2.509769797325134277e-01 -5.109804272651672363e-01 -3.350799381732940674e-01
-3.081093430519104004e-01 -7.605239152908325195e-01 -2.927919030189514160e-01
-3.398155570030212402e-01 -6.042948365211486816e-01 -2.671427726745605469e-01
-2.778352200984954834e-01 -3.870953917503356934e-01 -2.845441997051239014e-01
-3.090900480747222900e-01 -6.235995888710021973e-01 -3.449544310569763184e-01
-2.886438071727752686e-01 -7.479773163795471191e-01 -3.434472084045410156e-01
-2.744987308979034424e-01 -6.028663516044616699e-01 -3.510255217552185059e-01
-2.301388531923294067e-01 -6.172434091567993164e-01 -2.830887436866760254e-01
-2.447620034217834473e-01 -5.946984887123107910e-01 -3.421860039234161377e-01
-2.904319167137145996e-01 -5.994836688041687012e-01 -3.489794433116912842e-01
-2.193814665079116821e-01 -4.858387708663940430e-01 -2.692901492118835449e-01
-2.346363663673400879e-01 -5.727672576904296875e-01 -2.602733075618743896e-01
-3.450269699096679688e-01 -6.257978677749633789e-01 -2.970131635665893555e-01
-3.166960775852203369e-01 -4.732912182807922363e-01 -2.477789670228958130e-01
-2.299025207757949829e-01 -6.224615573883056641e-01 -3.229528665542602539e-01
-3.422025442123413086e-01 -6.844431757926940918e-01 -3.113727271556854248e-01
-3.258837461471557617e-01 -4.993507862091064453e-01 -2.953385114669799805e-01
-3.262548148632049561e-01 -5.567163825035095215e-01 -3.186599016189575195e-01
-3.209599852561950684e-01 -5.373072028160095215e-01 -2.434671968221664429e-01
-2.844498753547668457e-01 -4.207470417022705078e-01 -2.356006503105163574e-01
-3.043526113033294678e-01 -7.154381275177001953e-01 -2.692888081073760986e-01
-2.491040229797363281e-01 -6.234210133552551270e-01 -2.601104676723480225e-01
-2.651461660861968994e-01 -4.732041358947753906e-01 -3.277358114719390869e-01
-2.604588866233825684e-01 -3.678041398525238037e-01 -2.570399940013885498e-01
-2.449580729007720947e-01 -5.501461625099182129e-01 -2.460983693599700928e-01
-2.254292964935302734e-01 -4.223727583885192871e-01 -2.894835174083709717e-01
-3.285456001758575439e-01 -6.109287738800048828e-01 -2.532308697700500488e-01
-3.411513864994049072e-01 -7.071431279182434082e-01 -3.018425703048706055e-01
-2.339291274547576904e-01 -6.583008766174316406e-01 -3.082779943943023682e-01
-2.396840453147888184e-01 -3.992694616317749023e-01 -2.494799494743347168e-01
-2.488277256488800049e-01 -6.649708747863769531e-01 -2.759163081645965576e-01
-2.363216280937194824e-01 -3.915556073188781738e-01 -2.573094666004180908e-01
-2.656352221965789795e-01 -6.770423650741577148e-01 -3.501587212085723877e-01
-3.158859312534332275e-01 -4.518600702285766602e-01 -2.570319473743438721e-01
-2.429811060428619385e-01 -4.787068963050842285e-01 -2.397743612527847290e-01
-2.527823150157928467e-01 -6.082059741020202637e-01 -2.530262470245361328e-01
-3.350087404251098633e-01 -7.182175517082214355e-01 -3.225731253623962402e-01
-2.391159236431121826e-01 -4.813561141490936279e-01 -3.240989446640014648e-01
-2.443566024303436279e-01 -6.741575002670288086e-01 -3.335171639919281006e-01
-2.892672121524810791e-01 -6.099117398262023926e-01 -3.503731489181518555e-01
-2.583390474319458008e-01 -5.082213282585144043e-01 -2.337066978216171265e-01
-2.834399640560150146e-01 -7.622011899948120117e-01 -3.023447990417480469e-01
-3.058455586433410645e-01 -6.574329733848571777e-01 -2.516115307807922363e-01
-2.594332993030548096e-01 -7.214046716690063477e-01 -2.959203720092773438e-01
-2.796126902103424072e-01 -4.394097626209259033e-01 -3.134197592735290527e-01
-2.930899560451507568e-01 -7.173200845718383789e-01 -2.707315683364868164e-01
-3.094486892223358154e-01 -6.484450101852416992e-01 -3.469570577144622803e-01
-2.251019179821014404e-01 -6.040296554565429688e-01 -3.155512511730194092e-01
-3.045687079429626465e-01 -4.548999071121215820e-01 -3.034077584743499756e-01
-3.023321628570556641e-01 -4.899536669254302979e-01 -3.198832273483276367e-01
-2.228072136640548706e-01 -5.426586866378784180e-01 -2.705905437469482422e-01
-3.441065549850463867e-01 -6.669352650642395020e-01 -2.879704236984252930e-01
-2.957220971584320068e-01 -4.365260601043701172e-01 -2.373476177453994751e-01
-2.261602580547332764e-01 -5.892659425735473633e-01 -2.789383232593536377e-01
-3.295705020427703857e-01 -7.080781459808349609e-01 -2.768441140651702881e-01
-2.242100238800048828e-01 -5.901750326156616211e-01 -3.172256052494049072e-01
-3.061916828155517578e-01 -7.503260970115661621e-01 -2.858767509460449219e-01
-3.282521069049835205e-01 -6.994332671165466309e-01 -2.725377678871154785e-01
-2.452218085527420044e-01 -5.076225399971008301e-01 -2.402751743793487549e-01
-2.912172079086303711e-01 -6.044339537620544434e-01 -2.397365868091583252e-01
-2.158197462558746338e-01 -5.087920427322387695e-01 -2.891970276832580566e-01
-2.993844151496887207e-01 -5.899650454521179199e-01 -3.449639081954956055e-01
-2.920456826686859131e-01 -6.990786790847778320e-01 -2.638921439647674561e-01
-3.373998105525970459e-01 -5.379624366760253906e-01 -2.767150998115539551e-01
-2.920876145362854004e-01 -3.928482532501220703e-01 -2.618183791637420654e-01
-3.227122426033020020e-01 -4.864231646060943604e-01 -2.533127069473266602e-01
-3.202326297760009766e-01 -6.307292580604553223e-01 -3.387666642665863037e-01
-3.299346268177032471e-01 -7.341417670249938965e-01 -2.899623215198516846e-01
-3.373143672943115234e-01 -6.082868576049804688e-01 -3.157888352870941162e-01
-2.830030322074890137e-01 -4.954988360404968262e-01 -3.309251070022583008e-01
-2.608205378055572510e-01 -7.226073741912841797e-01 -3.359385728836059570e-01
-2.582561373710632324e-01 -4.351735115051269531e-01 -3.154442310333251953e-01
-2.286313772201538086e-01 -5.425761938095092773e-01 -2.608989775180816650e-01
-3.370724320411682129e-01 -6.159385442733764648e-01 -2.631782293319702148e-01
-2.717799544334411621e-01 -7.509834170341491699e-01 -3.308036625385284424e-01
-3.081834316253662109e-01 -6.835598945617675781e-01 -3.486205637454986572e-01
-3.395651876926422119e-01 -6.249048113822937012e-01 -3.148182332515716553e-01
-2.189734876155853271e-01 -4.637156724929809570e-01 -2.714672386646270752e-01
-2.305368632078170776e-01 -6.283432245254516602e-01 -2.886423170566558838e-01
-2.882830798625946045e-01 -5.100324153900146484e-01 -2.296894043684005737e-01
-3.292927742004394531e-01 -5.472136139869689941e-01 -3.114098906517028809e-01
-3.323436379432678223e-01 -5.384868979454040527e-01 -2.575790882110595703e-01
-2.847299575805664062e-01 -7.688882946968078613e-01 -3.101314604282379150e-01
-3.392795622348785400e-01 -6.735413670539855957e-01 -3.197420537471771240e-01
