-3.759749233722686768e-01 1.683451831340789795e-01 -5.050402879714965820e-02
-2.491294145584106445e-01 5.034627765417098999e-02 3.807313442230224609e-01
-2.893018126487731934e-01 1.152688264846801758e-01 2.686851918697357178e-01
-2.158237993717193604e-01 1.600985974073410034e-02 -9.027713537216186523e-02
-3.080867826938629150e-01 1.008936315774917603e-01 -3.857232332229614258e-01
-4.231254458427429199e-01 2.303502857685089111e-01 -3.894382715225219727e-01
-2.895703315734863281e-01 8.221941441297531128e-02 1.382409483194351196e-01
-3.289108872413635254e-01 1.204927414655685425e-01 -3.373925387859344482e-01
-4.111152291297912598e-01 2.083020210266113281e-01 -2.978830039501190186e-01
-2.194621711969375610e-01 3.939866274595260620e-02 2.426038235425949097e-01
-2.658638954162597656e-01 9.198700636625289917e-02 -2.014851011335849762e-02
-2.043158560991287231e-01 9.645856916904449463e-03 -1.297676116228103638e-01
-3.732432126998901367e-01 1.938737034797668457e-01 -3.584790229797363281e-01
-2.461840510368347168e-01 6.260389834642410278e-02 4.712884128093719482e-01
-3.353386521339416504e-01 1.261460781097412109e-01 -2.617823481559753418e-01
-3.875274062156677246e-01 2.100007236003875732e-01 7.637093961238861084e-02
-3.247370719909667969e-01 1.513057351112365723e-01 1.881713718175888062e-01
-3.347216844558715820e-01 1.616011261940002441e-01 -2.203972265124320984e-02
-3.757700026035308838e-01 1.801800131797790527e-01 -5.937111973762512207e-01
-2.774845957756042480e-01 1.042569950222969055e-01 1.422948837280273438e-01
-3.142234385013580322e-01 1.114373505115509033e-01 3.643141388893127441e-01
-2.318405210971832275e-01 4.226925224065780640e-02 -3.893224895000457764e-01
-3.176032304763793945e-01 1.118901669979095459e-01 -4.639703035354614258e-01
-3.609031736850738525e-01 1.863640099763870239e-01 3.563512489199638367e-02
-2.903276681900024414e-01 1.165017187595367432e-01 -1.443398743867874146e-01
-3.725596070289611816e-01 1.644423753023147583e-01 -9.724433720111846924e-02
-2.696923613548278809e-01 9.381830692291259766e-02 -2.174431085586547852e-01
-2.240063548088073730e-01 4.510534554719924927e-02 -6.695282459259033203e-02
-2.179060131311416626e-01 2.796784788370132446e-02 -3.028606772422790527e-01
-3.835660219192504883e-01 2.052459716796875000e-01 -2.505954504013061523e-01
-2.510548233985900879e-01 6.919635832309722900e-02 -3.656319677829742432e-01
-2.770107388496398926e-01 9.613639861345291138e-02 -4.249983131885528564e-01
-3.059986829757690430e-01 1.288190186023712158e-01 4.146994352340698242e-01
-2.876858115196228027e-01 1.113569885492324829e-01 -2.934973239898681641e-01
-2.757308781147003174e-01 1.025205254554748535e-01 1.197151243686676025e-01
-3.245544731616973877e-01 1.437005102634429932e-01 4.809398949146270752e-01
-2.106867879629135132e-01 1.196380704641342163e-02 4.655257984995841980e-02
-3.350760340690612793e-01 1.434499174356460571e-01 5.208818316459655762e-01
-2.300831675529479980e-01 4.757054895162582397e-02 -2.741215825080871582e-01
-3.332127630710601807e-01 1.566687822341918945e-01 -3.285337388515472412e-01
-3.381951749324798584e-01 1.476352661848068237e-01 -6.246619820594787598e-01
-3.381319046020507812e-01 1.543867588043212891e-01 -5.424627661705017090e-01
-2.996023297309875488e-01 1.270119845867156982e-01 9.201544523239135742e-02
-3.056946396827697754e-01 9.938640892505645752e-02 2.272946387529373169e-01
-3.644238114356994629e-01 1.894637644290924072e-01 -8.140470087528228760e-02
-4.041985869407653809e-01 2.039833664894104004e-01 1.665556579828262329e-01
-3.363432884216308594e-01 1.372472345829010010e-01 4.328378438949584961e-01
-2.592930793762207031e-01 5.253145098686218262e-02 -5.504732578992843628e-02
-3.749645352363586426e-01 1.988037228584289551e-01 -1.337844878435134888e-01
-3.895958065986633301e-01 1.853857934474945068e-01 -4.077346324920654297e-01
-3.549834191799163818e-01 1.750198155641555786e-01 3.936958909034729004e-01
-2.799451649188995361e-01 1.066411435604095459e-01 1.720204055309295654e-01
-3.590736985206604004e-01 1.841558218002319336e-01 -1.350670158863067627e-01
-3.246578872203826904e-01 1.149991527199745178e-01 -1.750320345163345337e-01
-2.558104097843170166e-01 5.817812681198120117e-02 -4.745894968509674072e-01
-3.466915190219879150e-01 1.721332222223281860e-01 1.933690011501312256e-01
-3.683623671531677246e-01 1.909059882164001465e-01 -2.854906022548675537e-01
-3.166468441486358643e-01 1.384473443031311035e-01 -4.006475210189819336e-01
-2.842294871807098389e-01 7.771636545658111572e-02 1.809965521097183228e-01
-3.723018169403076172e-01 1.965339779853820801e-01 -1.112292706966400146e-01
-2.371743023395538330e-01 4.777678847312927246e-02 -4.157109260559082031e-01
-4.123868048191070557e-01 2.141088247299194336e-01 -4.351851344108581543e-01
-2.195493727922439575e-01 2.006196230649948120e-02 -1.839779615402221680e-01
-2.048993855714797974e-01 2.105129510164260864e-02 2.061821222305297852e-01
-3.520103096961975098e-01 1.448848545551300049e-01 -4.000661075115203857e-01
-3.947273790836334229e-01 2.164965271949768066e-01 -9.750372916460037231e-02
-3.038492202758789062e-01 9.590252488851547241e-02 -3.300987184047698975e-01
-2.819033563137054443e-01 1.057354509830474854e-01 3.736578524112701416e-01
-3.180369734764099121e-01 1.428597867488861084e-01 -2.664396762847900391e-01
-2.402092218399047852e-01 4.555543512105941772e-02 4.313754439353942871e-01
-2.886333763599395752e-01 8.029530942440032959e-02 -2.260013371706008911e-01
-3.395270109176635742e-01 1.653414517641067505e-01 -1.630333811044692993e-01
-3.566221296787261963e-01 1.476814895868301392e-01 -2.184019237756729126e-01
-2.848954200744628906e-01 1.073664575815200806e-01 -3.382573425769805908e-01
-3.386906385421752930e-01 1.340883076190948486e-01 -5.084927082061767578e-01
-4.230564236640930176e-01 2.382031232118606567e-01 2.847814187407493591e-02
-3.413337469100952148e-01 1.351352483034133911e-01 2.085639536380767822e-01
-2.663968801498413086e-01 6.013932079076766968e-02 1.224173307418823242e-01
-2.500657141208648682e-01 7.531283050775527954e-02 8.168171346187591553e-02
-3.394776582717895508e-01 1.316381841897964478e-01 1.175121814012527466e-01
-3.680733442306518555e-01 1.599886417388916016e-01 -2.672948837280273438e-01
-3.896688818931579590e-01 1.963096559047698975e-01 3.580207824707031250e-01
-2.685572504997253418e-01 6.574563682079315186e-02 3.158403337001800537e-01
-3.485990762710571289e-01 1.406807899475097656e-01 -3.582579493522644043e-01
-2.848598062992095947e-01 7.901062071323394775e-02 2.213858813047409058e-01
-3.144985139369964600e-01 1.336969882249832153e-01 -4.774050414562225342e-01
-3.830836415290832520e-01 2.057324349880218506e-01 1.230718791484832764e-01
-3.571869432926177979e-01 1.542525440454483032e-01 2.976266443729400635e-01
-3.178569972515106201e-01 1.451420783996582031e-01 1.001860946416854858e-01
-2.700076103210449219e-01 9.551112353801727295e-02 -1.235225796699523926e-01
-2.824863195419311523e-01 1.095652580261230469e-01 9.935073554515838623e-02
-3.159902989864349365e-01 1.403269320726394653e-01 -2.930831015110015869e-01
-3.096136748790740967e-01 1.365760564804077148e-01 -9.055541455745697021e-02
-4.128062725067138672e-01 2.100725471973419189e-01 -2.774328291416168213e-01
-3.948868513107299805e-01 1.889040768146514893e-01 -9.341825544834136963e-02
-3.661938309669494629e-01 1.575967818498611450e-01 -1.770788282155990601e-01
-2.901079058647155762e-01 8.142799884080886841e-02 -7.719248533248901367e-03
-2.320007681846618652e-01 5.182348936796188354e-02 -2.117384672164916992e-01
-3.652893900871276855e-01 1.618589162826538086e-01 -5.126276016235351562e-01
-3.518510758876800537e-01 1.430364251136779785e-01 -1.471749134361743927e-02
-2.081267982721328735e-01 1.815970242023468018e-02 -2.175628691911697388e-01
-3.620092570781707764e-01 1.836353838443756104e-01 3.214856386184692383e-01
-2.689230144023895264e-01 8.175986260175704956e-02 -5.142410397529602051e-01
-3.268232345581054688e-01 1.172293424606323242e-01 -1.962899714708328247e-01
-3.552245497703552246e-01 1.614712625741958618e-01 -6.255196332931518555e-01
-2.060734629631042480e-01 1.952549815177917480e-02 -1.588417142629623413e-01
-2.676233947277069092e-01 6.196514517068862915e-02 1.740801632404327393e-01
-4.030111134052276611e-01 2.044803351163864136e-01 2.177960723638534546e-01
-2.642180621623992920e-01 8.918821811676025391e-02 2.729012668132781982e-01
-2.595979273319244385e-01 5.289001762866973877e-02 -1.189910918474197388e-01
-2.213977873325347900e-01 2.001045644283294678e-02 1.297645643353462219e-02
-2.917190492153167725e-01 8.390837162733078003e-02 1.072289794683456421e-01
-2.932123541831970215e-01 1.179983690381050110e-01 3.408922851085662842e-01
-3.756411373615264893e-01 1.700614839792251587e-01 1.221813559532165527e-01
-2.851485908031463623e-01 7.974638044834136963e-02 2.450191527605056763e-01
-3.246532976627349854e-01 1.275762170553207397e-01 -6.226702928543090820e-01
1.555022746324539185e-01 -1.509527713060379028e-01 -3.484838008880615234e-01
5.014562606811523438e-02 -1.234917715191841125e-01 -2.710711359977722168e-01
9.568633139133453369e-02 -1.031448096036911011e-01 -4.159650802612304688e-01
1.347668766975402832e-01 -1.267983764410018921e-01 -1.614692062139511108e-01
4.801756441593170166e-01 -1.766413450241088867e-01 -5.633182525634765625e-01
3.020143508911132812e-01 -8.840741217136383057e-02 -2.628509998321533203e-01
2.645185887813568115e-01 -8.698065578937530518e-02 -2.418590933084487915e-01
4.421462118625640869e-01 -1.175247058272361755e-01 -2.135673612356185913e-01
1.257831603288650513e-01 -1.454385817050933838e-01 -4.255549013614654541e-01
2.661271691322326660e-01 -1.428013890981674194e-01 -1.892479360103607178e-01
8.914105594158172607e-02 -1.364680975675582886e-01 -4.018450081348419189e-01
3.371794223785400391e-01 -8.990219235420227051e-02 -3.269298076629638672e-01
2.502402961254119873e-01 -1.270529031753540039e-01 -1.334460675716400146e-01
4.339676499366760254e-01 -1.759032309055328369e-01 -5.736348628997802734e-01
1.850324571132659912e-01 -1.527851670980453491e-01 -3.120791316032409668e-01
2.782606780529022217e-01 -1.657425165176391602e-01 -5.399656891822814941e-01
2.212661802768707275e-01 -1.459132432937622070e-01 -2.184130251407623291e-01
5.790773630142211914e-01 -1.346007585525512695e-01 -6.056148409843444824e-01
1.792064160108566284e-01 -9.099332988262176514e-02 -3.986648619174957275e-01
1.914148479700088501e-01 -9.511859714984893799e-02 -4.449983239173889160e-01
4.709896445274353027e-02 -1.211665570735931396e-01 -3.479235768318176270e-01
2.638993263244628906e-01 -1.514574587345123291e-01 -2.405789196491241455e-01
9.097096323966979980e-02 -1.185240224003791809e-01 -4.566978514194488525e-01
4.621795415878295898e-01 -1.131418421864509583e-01 -5.666355490684509277e-01
4.463909864425659180e-01 -1.230627447366714478e-01 -6.365024447441101074e-01
2.155504524707794189e-01 -1.411781013011932373e-01 -1.921328008174896240e-01
1.317026168107986450e-01 -1.390027254819869995e-01 -2.359390258789062500e-01
3.267959654331207275e-01 -1.659159511327743530e-01 -3.514002859592437744e-01
1.200182437896728516e-01 -1.334872543811798096e-01 -4.934006333351135254e-01
2.942233979701995850e-01 -9.919806569814682007e-02 -5.050463676452636719e-01
5.787000656127929688e-01 -1.646648198366165161e-01 -4.514706432819366455e-01
1.120921075344085693e-01 -1.228292882442474365e-01 -1.617342084646224976e-01
1.772197335958480835e-01 -8.506549894809722900e-02 -2.752901911735534668e-01
1.903975754976272583e-01 -1.002675592899322510e-01 -4.821840226650238037e-01
2.376944571733474731e-01 -1.632778495550155640e-01 -4.697337150573730469e-01
1.007514744997024536e-01 -1.391335874795913696e-01 -4.167956113815307617e-01
7.703876495361328125e-02 -1.016898676753044128e-01 -3.802725076675415039e-01
5.692793726921081543e-01 -1.270923465490341187e-01 -3.721908926963806152e-01
1.813987344503402710e-01 -8.603142946958541870e-02 -2.158285379409790039e-01
2.441104352474212646e-01 -1.536725461483001709e-01 -2.661242485046386719e-01
2.816699743270874023e-01 -1.290695220232009888e-01 -6.362651586532592773e-01
1.952032744884490967e-01 -1.224016845226287842e-01 -5.726901292800903320e-01
1.626712381839752197e-01 -8.910433948040008545e-02 -1.747981011867523193e-01
1.323495358228683472e-01 -1.332604289054870605e-01 -5.128569602966308594e-01
5.802591443061828613e-01 -1.244750395417213440e-01 -4.653351604938507080e-01
2.221312969923019409e-01 -1.608877182006835938e-01 -3.935856819152832031e-01
5.241035819053649902e-01 -1.751194596290588379e-01 -5.881874561309814453e-01
4.881091713905334473e-01 -1.743973195552825928e-01 -4.684863984584808350e-01
2.449914664030075073e-01 -1.474543511867523193e-01 -2.195319831371307373e-01
4.989297986030578613e-01 -1.121911033987998962e-01 -3.138158619403839111e-01
1.868108659982681274e-01 -1.406069397926330566e-01 -2.015320062637329102e-01
2.191024124622344971e-01 -9.759613126516342163e-02 -4.770323038101196289e-01
4.931119084358215332e-02 -1.243596076965332031e-01 -3.279746472835540771e-01
3.523802459239959717e-01 -1.663567423820495605e-01 -3.480453491210937500e-01
2.848667800426483154e-01 -1.628231257200241089e-01 -3.365688323974609375e-01
1.737371385097503662e-01 -1.049715280532836914e-01 -4.986552894115447998e-01
5.963253378868103027e-01 -1.678737998008728027e-01 -5.368767976760864258e-01
4.168994426727294922e-01 -1.760773658752441406e-01 -5.152526497840881348e-01
4.375732541084289551e-01 -1.414906978607177734e-01 -2.251694649457931519e-01
5.735855698585510254e-01 -1.273441612720489502e-01 -5.570554733276367188e-01
1.551427692174911499e-01 -1.238763704895973206e-01 -1.407612860202789307e-01
3.888069987297058105e-01 -1.670729815959930420e-01 -6.479347348213195801e-01
3.854691088199615479e-01 -1.044043749570846558e-01 -5.334882736206054688e-01
1.612083464860916138e-01 -1.528914421796798706e-01 -3.964338004589080811e-01
4.323685169219970703e-01 -1.099063158035278320e-01 -5.584827065467834473e-01
3.419151604175567627e-01 -1.051298677921295166e-01 -1.618320792913436890e-01
2.141398489475250244e-01 -1.102103590965270996e-01 -5.470547080039978027e-01
2.076505422592163086e-01 -8.491747081279754639e-02 -2.861519455909729004e-01
1.534754335880279541e-01 -9.150715917348861694e-02 -3.867419362068176270e-01
5.487854480743408203e-01 -1.726793050765991211e-01 -5.043774247169494629e-01
7.245188951492309570e-02 -1.233476623892784119e-01 -2.087476849555969238e-01
1.994738280773162842e-01 -1.577701121568679810e-01 -3.761089742183685303e-01
2.122414410114288330e-01 -8.491416275501251221e-02 -2.669019103050231934e-01
4.886295795440673828e-01 -1.764139682054519653e-01 -5.243327021598815918e-01
3.177846670150756836e-01 -1.435152441263198853e-01 -1.924101561307907104e-01
3.827759623527526855e-01 -9.591482579708099365e-02 -4.309672117233276367e-01
3.354184627532958984e-01 -1.558298319578170776e-01 -2.596033215522766113e-01
4.696497917175292969e-01 -1.036801785230636597e-01 -3.653181493282318115e-01
2.278208434581756592e-01 -1.573260426521301270e-01 -3.169022798538208008e-01
4.188415408134460449e-01 -1.405010670423507690e-01 -6.924426555633544922e-01
4.576047360897064209e-01 -1.587143987417221069e-01 -3.063633143901824951e-01
1.644889563322067261e-01 -1.507897377014160156e-01 -3.197190165519714355e-01
2.461386024951934814e-01 -9.408412873744964600e-02 -4.546029269695281982e-01
4.658561944961547852e-01 -1.768108904361724854e-01 -5.380730628967285156e-01
3.861576914787292480e-01 -9.512126445770263672e-02 -4.079612791538238525e-01
6.183071136474609375e-01 -1.381978839635848999e-01 -4.889741539955139160e-01
4.182257652282714844e-01 -1.058657094836235046e-01 -2.278140187263488770e-01
5.212032794952392578e-01 -1.261488646268844604e-01 -6.157687902450561523e-01
1.413994580507278442e-01 -1.473458409309387207e-01 -3.165876567363739014e-01
2.415286004543304443e-01 -1.638371348381042480e-01 -4.394985437393188477e-01
2.827273309230804443e-01 -1.535071581602096558e-01 -2.500669360160827637e-01
3.718259334564208984e-01 -1.743572056293487549e-01 -5.149322748184204102e-01
2.518285512924194336e-01 -8.748087286949157715e-02 -2.188221067190170288e-01
5.769537687301635742e-01 -1.597030460834503174e-01 -4.140451252460479736e-01
3.172816634178161621e-01 -1.652544140815734863e-01 -6.027144193649291992e-01
3.563641905784606934e-01 -1.695293635129928589e-01 -6.036246418952941895e-01
2.895286083221435547e-01 -1.685262620449066162e-01 -4.954910874366760254e-01
4.053998589515686035e-01 -1.700724512338638306e-01 -6.365820169448852539e-01
3.868748843669891357e-01 -1.163315847516059875e-01 -6.135126352310180664e-01
1.608523130416870117e-01 -1.461701989173889160e-01 -5.125182271003723145e-01
4.184792339801788330e-01 -1.735555082559585571e-01 -4.358702003955841064e-01
4.333249330520629883e-01 -1.632403284311294556e-01 -3.261864781379699707e-01
4.407550096511840820e-01 -1.657019853591918945e-01 -6.759701967239379883e-01
6.160508990287780762e-01 -1.402594596147537231e-01 -5.639344453811645508e-01
5.131397843360900879e-01 -1.284817457199096680e-01 -6.344981789588928223e-01
2.587930858135223389e-01 -1.149266809225082397e-01 -5.866824984550476074e-01
3.396802544593811035e-01 -1.495460271835327148e-01 -2.229076772928237915e-01
2.770163714885711670e-01 -1.092514470219612122e-01 -5.675168633460998535e-01
2.808124125003814697e-01 -1.646945476531982422e-01 -3.670212626457214355e-01
2.479659914970397949e-01 -8.743118494749069214e-02 -3.650533258914947510e-01
1.224517375230789185e-01 -9.127926826477050781e-02 -1.714910268783569336e-01
3.369115591049194336e-01 -1.341203451156616211e-01 -1.641710549592971802e-01
4.768161177635192871e-01 -1.094231903553009033e-01 -5.151408314704895020e-01
6.182310581207275391e-01 -1.625357866287231445e-01 -5.669096112251281738e-01
2.809161841869354248e-01 -8.692355453968048096e-02 -2.726872563362121582e-01
5.170233845710754395e-01 -1.753104925155639648e-01 -5.180264115333557129e-01
4.245434999465942383e-01 -9.950687736272811890e-02 -2.980760633945465088e-01
4.805429577827453613e-01 -1.323120743036270142e-01 -6.656978130340576172e-01
2.128381282091140747e-01 -1.600491255521774292e-01 -4.664144515991210938e-01
3.129867911338806152e-01 -8.894895017147064209e-02 -3.561517000198364258e-01
3.392503857612609863e-01 -9.081803262233734131e-02 -3.731552362442016602e-01
2.617609500885009766e-01 -9.809406101703643799e-02 -4.927720129489898682e-01
5.562304258346557617e-01 -1.611502319574356079e-01 -3.961841464042663574e-01
5.047703385353088379e-01 -1.742401719093322754e-01 -6.191551089286804199e-01
5.472347140312194824e-02 -9.819713234901428223e-02 -2.970881462097167969e-01
2.340105324983596802e-01 -1.621375381946563721e-01 -4.946415126323699951e-01
1.551489979028701782e-01 -1.061731576919555664e-01 -4.907931089401245117e-01
1.688318103551864624e-01 -9.438966214656829834e-02 -4.256763756275177002e-01
2.308030724525451660e-01 -9.234090894460678101e-02 -4.336902201175689697e-01
5.178920030593872070e-01 -1.723125427961349487e-01 -4.587544500827789307e-01
2.708350419998168945e-01 -1.482351422309875488e-01 -2.179287970066070557e-01
3.305061459541320801e-01 -1.064535975456237793e-01 -5.586794614791870117e-01
2.956072390079498291e-01 -8.910031616687774658e-02 -2.365797162055969238e-01
2.338133156299591064e-01 -1.259193271398544312e-01 -6.051831245422363281e-01
5.578086972236633301e-01 -1.655743569135665894e-01 -6.618229150772094727e-01
4.036813378334045410e-01 -1.724251955747604370e-01 -6.124452352523803711e-01
5.602195858955383301e-01 -1.373808085918426514e-01 -3.326346576213836670e-01
5.880409479141235352e-01 -1.272455900907516479e-01 -5.039462447166442871e-01
2.838979363441467285e-01 -9.404543042182922363e-02 -1.739517748355865479e-01
2.920883893966674805e-01 -1.605008840560913086e-01 -6.093300580978393555e-01
3.142943382263183594e-01 -1.569711416959762573e-01 -6.442676782608032227e-01
3.068130314350128174e-01 -1.696651726961135864e-01 -4.437210261821746826e-01
3.760081231594085693e-01 -1.672967225313186646e-01 -3.546218276023864746e-01
1.951646655797958374e-01 -1.273228079080581665e-01 -1.391083002090454102e-01
3.844083845615386963e-01 -9.377527236938476562e-02 -3.309106826782226562e-01
5.455407500267028809e-01 -1.176523938775062561e-01 -4.944986104965209961e-01
3.683952391147613525e-01 -1.718857586383819580e-01 -5.867050886154174805e-01
4.144189953804016113e-01 -1.720474064350128174e-01 -4.116873741149902344e-01
2.026991546154022217e-01 -1.371301412582397461e-01 -1.756863594055175781e-01
3.792669773101806641e-01 -1.037080511450767517e-01 -1.969752311706542969e-01
2.831740379333496094e-01 -1.162719577550888062e-01 -6.005760431289672852e-01
5.257191658020019531e-01 -1.699894219636917114e-01 -6.542837023735046387e-01
4.380080103874206543e-01 -9.983843564987182617e-02 -3.360339403152465820e-01
5.387367606163024902e-01 -1.566015779972076416e-01 -3.532996475696563721e-01
4.515081346035003662e-01 -1.704950928688049316e-01 -6.525706648826599121e-01
5.153578519821166992e-01 -1.147224977612495422e-01 -3.288108706474304199e-01
4.775923490524291992e-01 -1.495870947837829590e-01 -2.751961946487426758e-01
3.704022765159606934e-01 -9.834361821413040161e-02 -4.782989025115966797e-01
5.172144174575805664e-01 -1.696598231792449951e-01 -4.260933399200439453e-01
3.004772663116455078e-01 -9.730815887451171875e-02 -1.654767990112304688e-01
5.300841927528381348e-01 -1.618167459964752197e-01 -3.737497031688690186e-01
4.980382323265075684e-01 -1.087999641895294189e-01 -4.615110754966735840e-01
4.333308935165405273e-01 -9.911114722490310669e-02 -3.979851007461547852e-01
3.552755713462829590e-01 -9.360378980636596680e-02 -4.189662039279937744e-01
3.951060175895690918e-01 -1.133109107613563538e-01 -5.955199599266052246e-01
2.053311467170715332e-01 -1.350373327732086182e-01 -5.925620794296264648e-01
1.858190149068832397e-01 -1.545702964067459106e-01 -3.396292924880981445e-01
8.327002823352813721e-02 -9.745705127716064453e-02 -3.602344393730163574e-01
5.712462663650512695e-01 -1.362862586975097656e-01 -6.250435709953308105e-01
1.598186194896697998e-01 -1.441645324230194092e-01 -2.483800053596496582e-01
4.971022009849548340e-01 -1.371748298406600952e-01 -2.598394751548767090e-01
7.260355353355407715e-02 -1.267493665218353271e-01 -2.308609783649444580e-01
3.979196548461914062e-01 -1.664983928203582764e-01 -3.463341593742370605e-01
3.109616637229919434e-01 -8.838421106338500977e-02 -3.337765038013458252e-01
3.535397946834564209e-01 -1.727505922317504883e-01 -4.580557942390441895e-01
4.896664023399353027e-01 -1.756778806447982788e-01 -4.979242980480194092e-01
2.064592242240905762e-01 -1.558991372585296631e-01 -3.243260085582733154e-01
2.329263389110565186e-01 -1.607729643583297729e-01 -3.639841973781585693e-01
4.554405212402343750e-01 -1.385094523429870605e-01 -6.884922385215759277e-01
5.337435007095336914e-01 -1.733476817607879639e-01 -6.167520284652709961e-01
4.040539264678955078e-01 -9.801246225833892822e-02 -2.753402590751647949e-01
2.927384078502655029e-01 -1.064842492341995239e-01 -5.557261705398559570e-01
3.794672489166259766e-01 -1.070358231663703918e-01 -5.567613244056701660e-01
4.686181545257568359e-01 -1.761384308338165283e-01 -4.992610812187194824e-01
2.447419762611389160e-01 -1.066903769969940186e-01 -5.440614819526672363e-01
2.784752547740936279e-01 -1.644361913204193115e-01 -5.591030120849609375e-01
5.303851366043090820e-01 -1.293453723192214966e-01 -2.956496477127075195e-01
5.862026214599609375e-01 -1.601898372173309326e-01 -4.309805631637573242e-01
1.405437588691711426e-01 -1.375342309474945068e-01 -2.151425033807754517e-01
1.273107379674911499e-01 -1.433439701795578003e-01 -4.589475095272064209e-01
1.066363602876663208e-01 -8.848004043102264404e-02 -2.456992566585540771e-01
5.720371007919311523e-02 -9.627179801464080811e-02 -2.697120308876037598e-01
3.237474262714385986e-01 -9.132925420999526978e-02 -4.045422077178955078e-01
2.531619668006896973e-01 -1.641985625028610229e-01 -5.070140957832336426e-01
2.270658314228057861e-01 -1.490187793970108032e-01 -2.375004887580871582e-01
3.074124455451965332e-01 -8.801420032978057861e-02 -3.087852597236633301e-01
2.246905565261840820e-01 -1.527906656265258789e-01 -5.737367868423461914e-01
5.537657737731933594e-01 -1.240675225853919983e-01 -5.624434947967529297e-01
5.654472112655639648e-01 -1.207741871476173401e-01 -4.430532753467559814e-01
2.823248207569122314e-01 -1.680143773555755615e-01 -4.776902198791503906e-01
2.981411218643188477e-01 -9.182395040988922119e-02 -2.030161321163177490e-01
2.858084142208099365e-01 -1.675064861774444580e-01 -5.210266709327697754e-01
4.615179002285003662e-01 -1.734870821237564087e-01 -6.283808350563049316e-01
3.816498816013336182e-01 -1.332709640264511108e-01 -1.781008392572402954e-01
5.457874536514282227e-01 -1.250434517860412598e-01 -3.304127156734466553e-01
1.676307618618011475e-01 -8.692593872547149658e-02 -3.317995071411132812e-01
5.954438447952270508e-01 -1.622845232486724854e-01 -4.620618820190429688e-01
1.641892939805984497e-01 -1.426630020141601562e-01 -5.345473289489746094e-01
3.623498380184173584e-01 -1.709924340248107910e-01 -4.082433581352233887e-01
4.610856771469116211e-01 -1.766337603330612183e-01 -5.186917185783386230e-01
4.526554346084594727e-01 -1.576446741819381714e-01 -6.990382671356201172e-01
3.737008571624755859e-02 -1.088798120617866516e-01 -2.375332415103912354e-01
2.964643537998199463e-01 -1.484494805335998535e-01 -6.513291597366333008e-01
4.279007613658905029e-01 -1.577284783124923706e-01 -2.879323959350585938e-01
3.283601403236389160e-01 -1.717496514320373535e-01 -4.946976602077484131e-01
6.796178221702575684e-02 -1.092506125569343567e-01 -3.994415998458862305e-01
4.705235958099365234e-01 -1.084928214550018311e-01 -2.881690859794616699e-01
1.131792068481445312e-01 -1.323338299989700317e-01 -2.082681953907012939e-01
6.162459850311279297e-01 -1.617368757724761963e-01 -5.932374000549316406e-01
4.933724701404571533e-01 -1.552689820528030396e-01 -3.095089793205261230e-01
3.636629879474639893e-01 -9.684488922357559204e-02 -2.252421975135803223e-01
3.388370573520660400e-01 -9.065737575292587280e-02 -2.796426415443420410e-01
3.141950666904449463e-01 -1.378228217363357544e-01 -6.625183820724487305e-01
4.624565541744232178e-01 -1.755900084972381592e-01 -4.813770055770874023e-01
2.824647724628448486e-01 -9.677955508232116699e-02 -4.837348759174346924e-01
3.067576885223388672e-01 -9.265932440757751465e-02 -4.352079033851623535e-01
3.743303716182708740e-01 -1.683092266321182251e-01 -6.300605535507202148e-01
4.029349088668823242e-01 -1.535414010286331177e-01 -6.942027807235717773e-01
2.224409282207489014e-01 -1.372091919183731079e-01 -1.704481542110443115e-01
4.764921069145202637e-01 -1.166356727480888367e-01 -5.842435359954833984e-01
2.421740889549255371e-01 -1.401813179254531860e-01 -6.208094358444213867e-01
5.814454555511474609e-01 -1.536184698343276978e-01 -3.919395804405212402e-01
3.749006986618041992e-01 -1.691943705081939697e-01 -3.772096931934356689e-01
1.955919712781906128e-01 -1.577374935150146484e-01 -4.562165141105651855e-01
3.210325241088867188e-01 -8.901005983352661133e-02 -2.914834022521972656e-01
3.500422537326812744e-01 -1.255105584859848022e-01 -6.490070819854736328e-01
3.021629452705383301e-01 -1.697298139333724976e-01 -4.714159667491912842e-01
4.852850437164306641e-01 -1.734344661235809326e-01 -6.318580508232116699e-01
1.935271620750427246e-01 -1.075577288866043091e-01 -1.112771034240722656e-01
5.269799828529357910e-01 -1.398582756519317627e-01 -6.723755598068237305e-01
3.977581858634948730e-01 -1.014432162046432495e-01 -4.973376095294952393e-01
3.368468582630157471e-01 -8.997216820716857910e-02 -3.043842315673828125e-01
2.077850401401519775e-01 -1.570784449577331543e-01 -5.112475156784057617e-01
2.441761046648025513e-01 -1.605148017406463623e-01 -3.427849411964416504e-01
2.248964607715606689e-01 -1.617214828729629517e-01 -4.162748456001281738e-01
2.017099708318710327e-01 -1.482082754373550415e-01 -2.463064193725585938e-01
4.146372079849243164e-01 -1.706224381923675537e-01 -3.924350738525390625e-01
2.445790469646453857e-01 -1.426918208599090576e-01 -1.921288967132568359e-01
4.442854523658752441e-01 -1.734139472246170044e-01 -4.348392486572265625e-01
4.904137849807739258e-01 -1.668549329042434692e-01 -6.769840121269226074e-01
2.980299592018127441e-01 -1.649909913539886475e-01 -5.820209980010986328e-01
2.181622684001922607e-01 -8.545463532209396362e-02 -3.159555792808532715e-01
5.970060229301452637e-01 -1.358709335327148438e-01 -4.064458906650543213e-01
3.536671102046966553e-01 -1.644938141107559204e-01 -3.282693922519683838e-01
5.519037246704101562e-01 -1.212645173072814941e-01 -5.347115397453308105e-01
5.435514450073242188e-01 -1.702796071767807007e-01 -6.434470415115356445e-01
2.350258827209472656e-01 -1.153215467929840088e-01 -1.142775714397430420e-01
5.146862864494323730e-01 -1.509099602699279785e-01 -3.079636096954345703e-01
5.027897357940673828e-01 -1.100332066416740417e-01 -3.500989079475402832e-01
2.559565603733062744e-01 -8.597041666507720947e-02 -3.156445920467376709e-01
4.646370410919189453e-01 -1.036763191223144531e-01 -4.375658035278320312e-01
6.864967942237854004e-02 -1.308117210865020752e-01 -2.867588698863983154e-01
5.530031323432922363e-01 -1.200921684503555298e-01 -3.819425702095031738e-01
2.866267263889312744e-01 -1.612843722105026245e-01 -3.173074722290039062e-01
1.251183450222015381e-01 -1.451816409826278687e-01 -3.265893161296844482e-01
2.064344137907028198e-01 -8.597894757986068726e-02 -2.202424854040145874e-01
2.413519024848937988e-01 -1.626994609832763672e-01 -3.899900019168853760e-01
1.658043712377548218e-01 -9.154902398586273193e-02 -1.549857854843139648e-01
4.377500712871551514e-01 -1.472971439361572266e-01 -2.435222417116165161e-01
5.325086116790771484e-01 -1.142356321215629578e-01 -3.953110873699188232e-01
3.988924026489257812e-01 -9.622120857238769531e-02 -2.957975268363952637e-01
3.336052000522613525e-01 -9.728962928056716919e-02 -1.905264556407928467e-01
2.136796265840530396e-01 -1.203466057777404785e-01 -1.199187338352203369e-01
1.750090420246124268e-01 -9.492905437946319580e-02 -1.367161273956298828e-01
2.548510134220123291e-01 -1.030739918351173401e-01 -5.265200138092041016e-01
3.453361392021179199e-01 -1.599389761686325073e-01 -2.891237437725067139e-01
1.166061311960220337e-01 -9.015771746635437012e-02 -3.300715088844299316e-01
1.571810245513916016e-01 -1.478847265243530273e-01 -2.913696765899658203e-01
5.608663558959960938e-01 -1.722940206527709961e-01 -5.223276019096374512e-01
6.105579137802124023e-01 -1.472567617893218994e-01 -4.299192726612091064e-01
3.195015788078308105e-01 -1.221305876970291138e-01 -6.317660808563232422e-01
1.413530111312866211e-01 -1.436679810285568237e-01 -2.670064568519592285e-01
3.082741796970367432e-01 -1.700916439294815063e-01 -5.047520995140075684e-01
1.843830794095993042e-01 -1.549464762210845947e-01 -4.788436889648437500e-01
4.416611790657043457e-01 -1.682272255420684814e-01 -3.710938692092895508e-01
4.144508242607116699e-01 -1.745839864015579224e-01 -5.884349942207336426e-01
5.280326604843139648e-01 -1.224665790796279907e-01 -5.837667584419250488e-01
1.312108337879180908e-01 -8.706770092248916626e-02 -2.255869954824447632e-01
8.531387150287628174e-02 -9.084421396255493164e-02 -2.536357641220092773e-01
1.101730018854141235e-01 -1.431990712881088257e-01 -3.698098361492156982e-01
2.935958802700042725e-01 -1.107912138104438782e-01 -5.792791843414306641e-01
2.319411635398864746e-01 -9.027769416570663452e-02 -4.099193811416625977e-01
3.721306622028350830e-01 -1.204030662775039673e-01 -6.328681707382202148e-01
2.106607407331466675e-01 -1.050704419612884521e-01 -5.207934975624084473e-01
6.126930713653564453e-01 -1.544356346130371094e-01 -4.535368680953979492e-01
5.703521370887756348e-01 -1.702463328838348389e-01 -5.018549561500549316e-01
3.016320168972015381e-01 -9.057280421257019043e-02 -4.051535129547119141e-01
5.819395780563354492e-01 -1.268117725849151611e-01 -4.155754745006561279e-01
3.245992064476013184e-01 -1.712839603424072266e-01 -5.148453712463378906e-01
3.514206409454345703e-01 -1.732152402400970459e-01 -5.117812156677246094e-01
6.139219999313354492e-01 -1.368110477924346924e-01 -4.695540368556976318e-01
2.195191383361816406e-01 -1.586624383926391602e-01 -3.482097983360290527e-01
2.025715261697769165e-01 -8.506155014038085938e-02 -2.483717501163482666e-01
3.193525075912475586e-01 -1.329589784145355225e-01 -1.568709909915924072e-01
5.264471173286437988e-01 -1.125685870647430420e-01 -4.284818172454833984e-01
1.602952480316162109e-01 -1.153910756111145020e-01 -5.287127494812011719e-01
9.070500731468200684e-02 -9.558779746294021606e-02 -1.690192967653274536e-01
4.591276645660400391e-01 -1.705684363842010498e-01 -4.013913571834564209e-01
1.183933317661285400e-01 -8.848822116851806641e-02 -2.096558362245559692e-01
1.365324109792709351e-01 -1.325652897357940674e-01 -1.876736581325531006e-01
2.639490365982055664e-01 -1.099537909030914307e-01 -1.188747584819793701e-01
3.399073481559753418e-01 -1.645471006631851196e-01 -6.291201114654541016e-01
3.301022350788116455e-01 -1.273216158151626587e-01 -6.497617959976196289e-01
6.051850318908691406e-02 -1.253560781478881836e-01 -2.495248615741729736e-01
4.162532091140747070e-01 -9.710308909416198730e-02 -3.843344449996948242e-01
2.122898846864700317e-01 -8.736996352672576904e-02 -3.624634146690368652e-01
3.562445640563964844e-01 -9.242871403694152832e-02 -3.909000456333160400e-01
1.110805720090866089e-01 -9.266307950019836426e-02 -3.552932441234588623e-01
5.106012821197509766e-01 -1.219214200973510742e-01 -2.831794023513793945e-01
4.380329251289367676e-01 -1.131283640861511230e-01 -5.805753469467163086e-01
6.542047858238220215e-02 -9.854997694492340088e-02 -3.341909348964691162e-01
6.026884317398071289e-01 -1.627513468265533447e-01 -4.822363257408142090e-01
4.048690795898437500e-01 -1.337056607007980347e-01 -1.900459676980972290e-01
4.123038351535797119e-01 -1.067273169755935669e-01 -5.419206023216247559e-01
4.583766460418701172e-01 -1.501199156045913696e-01 -2.653562426567077637e-01
5.780104398727416992e-01 -1.709984540939331055e-01 -5.796449184417724609e-01
9.622439742088317871e-02 -1.069490760564804077e-01 -4.343842566013336182e-01
2.526050209999084473e-01 -1.609404981136322021e-01 -5.551714897155761719e-01
4.466473460197448730e-01 -1.027402281761169434e-01 -4.605463147163391113e-01
2.150903344154357910e-01 -1.286462843418121338e-01 -1.396316885948181152e-01
5.286116600036621094e-01 -1.589361429214477539e-01 -6.908857822418212891e-01
1.596600860357284546e-01 -9.898950159549713135e-02 -4.542694091796875000e-01
3.261395990848541260e-01 -1.705996990203857422e-01 -4.340811073780059814e-01
4.959059953689575195e-01 -1.149307787418365479e-01 -5.527760386466979980e-01
4.276197552680969238e-01 -1.226090639829635620e-01 -1.959140002727508545e-01
3.404699265956878662e-01 -9.382373094558715820e-02 -2.270390689373016357e-01
3.947859108448028564e-01 -1.603195220232009888e-01 -2.953475117683410645e-01
3.427547216415405273e-01 -9.633041918277740479e-02 -4.682587683200836182e-01
3.660214841365814209e-01 -9.216484427452087402e-02 -3.217459321022033691e-01
5.158267021179199219e-01 -1.412567794322967529e-01 -2.834332287311553955e-01
1.567932963371276855e-01 -1.519208550453186035e-01 -3.752282261848449707e-01
5.926049351692199707e-01 -1.569020897150039673e-01 -6.515115499496459961e-01
4.205637276172637939e-01 -1.054027080535888672e-01 -5.244593024253845215e-01
3.666268289089202881e-01 -1.044197604060173035e-01 -5.396025180816650391e-01
3.994376957416534424e-01 -1.731117516756057739e-01 -4.312793016433715820e-01
8.740429580211639404e-02 -1.376144587993621826e-01 -3.612662553787231445e-01
2.275798320770263672e-01 -8.675469458103179932e-02 -2.146520912647247314e-01
6.032549142837524414e-01 -1.326079815626144409e-01 -5.256726741790771484e-01
2.524706125259399414e-01 -1.362710446119308472e-01 -1.620841622352600098e-01
3.507004082202911377e-01 -1.479350775480270386e-01 -6.801442503929138184e-01
9.901705384254455566e-02 -9.069578349590301514e-02 -3.070941567420959473e-01
1.418457776308059692e-01 -9.583453834056854248e-02 -1.381352543830871582e-01
3.648758232593536377e-01 -1.294590532779693604e-01 -6.628219485282897949e-01
3.466947674751281738e-01 -1.720956861972808838e-01 -5.494322180747985840e-01
3.119525313377380371e-01 -1.083223298192024231e-01 -5.691083073616027832e-01
4.574087858200073242e-01 -1.021703332662582397e-01 -4.143049716949462891e-01
5.629479289054870605e-01 -1.696449816226959229e-01 -6.327220201492309570e-01
3.747213482856750488e-01 -1.743499040603637695e-01 -4.892202019691467285e-01
5.127164721488952637e-01 -1.127964854240417480e-01 -5.007472038269042969e-01
5.282052755355834961e-01 -1.730755269527435303e-01 -4.814057350158691406e-01
2.317980676889419556e-01 -1.489813029766082764e-01 -5.970598459243774414e-01
2.106696665287017822e-01 -9.544713795185089111e-02 -4.565413296222686768e-01
4.048547148704528809e-01 -1.753294318914413452e-01 -5.573238134384155273e-01
1.475977599620819092e-01 -8.599350601434707642e-02 -2.401114553213119507e-01
2.948057949542999268e-01 -8.792440593242645264e-02 -3.474673628807067871e-01
7.032477855682373047e-02 -1.326238662004470825e-01 -3.463183939456939697e-01
4.883138537406921387e-01 -1.155240610241889954e-01 -2.740175724029541016e-01
2.442656159400939941e-01 -9.376630932092666626e-02 -1.551120281219482422e-01
1.734472960233688354e-01 -1.544623672962188721e-01 -4.429876804351806641e-01
6.083954572677612305e-01 -1.602765321731567383e-01 -6.225224733352661133e-01
6.090836524963378906e-01 -1.448161154985427856e-01 -6.090196967124938965e-01
3.262514173984527588e-01 -1.538161635398864746e-01 -6.606901884078979492e-01
4.586608409881591797e-01 -1.765990704298019409e-01 -5.641193389892578125e-01
2.332076132297515869e-01 -8.563855290412902832e-02 -2.460694760084152222e-01
2.402512133121490479e-01 -8.592717349529266357e-02 -3.273454606533050537e-01
4.768503904342651367e-01 -1.437410116195678711e-01 -6.959979534149169922e-01
5.363624691963195801e-01 -1.744577735662460327e-01 -5.265011787414550781e-01
2.191320061683654785e-01 -1.573524326086044312e-01 -5.322101116180419922e-01
9.849913418292999268e-02 -9.902560710906982422e-02 -1.490237116813659668e-01
8.153831958770751953e-02 -9.270758181810379028e-02 -2.071018964052200317e-01
4.098802208900451660e-01 -1.297582834959030151e-01 -6.673616170883178711e-01
4.191696047782897949e-01 -1.683799773454666138e-01 -3.675119578838348389e-01
1.383412182331085205e-01 -1.488802284002304077e-01 -3.800702095031738281e-01
4.371519386768341064e-01 -1.748201251029968262e-01 -6.005187630653381348e-01
3.070715963840484619e-01 -1.529748588800430298e-01 -2.423481941223144531e-01
1.676050573587417603e-01 -1.225218996405601501e-01 -5.505657196044921875e-01
5.059772729873657227e-02 -1.010551303625106812e-01 -2.095558047294616699e-01
3.365451693534851074e-01 -1.178292036056518555e-01 -6.190588474273681641e-01
4.816220402717590332e-01 -1.730002462863922119e-01 -4.421629011631011963e-01
1.133362203836441040e-01 -9.490855783224105835e-02 -3.807394802570343018e-01
1.104589104652404785e-01 -8.877630531787872314e-02 -2.901418805122375488e-01
3.085452914237976074e-01 -9.680664539337158203e-02 -4.828028976917266846e-01
4.689649939537048340e-01 -1.619565486907958984e-01 -3.321838378906250000e-01
1.043663620948791504e-01 -1.397761702537536621e-01 -2.961951494216918945e-01
1.856079101562500000e-01 -9.024937450885772705e-02 -1.637724339962005615e-01
3.814161121845245361e-01 -9.631340205669403076e-02 -2.567534446716308594e-01
4.351700842380523682e-01 -1.704049259424209595e-01 -3.925517201423645020e-01
3.780018091201782227e-01 -1.514103561639785767e-01 -2.388983666896820068e-01
9.918656945228576660e-02 -8.960898220539093018e-02 -2.239176779985427856e-01
3.152367770671844482e-01 -1.564114689826965332e-01 -2.651187479496002197e-01
6.212164759635925293e-01 -1.408718675374984741e-01 -5.450512170791625977e-01
4.770293235778808594e-01 -1.045443117618560791e-01 -3.836429417133331299e-01
4.633696079254150391e-01 -1.041649580001831055e-01 -3.237451910972595215e-01
1.187031716108322144e-01 -1.129807531833648682e-01 -1.326155364513397217e-01
4.493117332458496094e-01 -1.060073822736740112e-01 -5.060123801231384277e-01
4.110408723354339600e-01 -1.623438298702239990e-01 -6.792393326759338379e-01
2.950949370861053467e-01 -1.382701992988586426e-01 -1.696966737508773804e-01
3.615209758281707764e-01 -1.012697964906692505e-01 -5.135847330093383789e-01
5.492605566978454590e-01 -1.732975542545318604e-01 -5.988471508026123047e-01
3.462157249450683594e-01 -1.727853715419769287e-01 -4.783618152141571045e-01
2.154059261083602905e-01 -1.195532456040382385e-01 -5.797770619392395020e-01
5.713976621627807617e-01 -1.685248613357543945e-01 -4.789190888404846191e-01
5.742720961570739746e-01 -1.459014564752578735e-01 -3.605260550975799561e-01
2.528705596923828125e-01 -9.177508205175399780e-02 -4.307561516761779785e-01
5.494794249534606934e-01 -1.425365507602691650e-01 -6.673701405525207520e-01
4.667274355888366699e-01 -1.123938262462615967e-01 -2.573770880699157715e-01
2.058781385421752930e-01 -1.592856049537658691e-01 -4.048070311546325684e-01
2.711848914623260498e-01 -1.589909642934799194e-01 -5.956943631172180176e-01
1.565802693367004395e-01 -8.632184565067291260e-02 -3.062175512313842773e-01
3.461233973503112793e-01 -9.923230111598968506e-02 -4.987669587135314941e-01
1.815988272428512573e-01 -1.358672231435775757e-01 -5.696999430656433105e-01
5.011584758758544922e-01 -1.604378372430801392e-01 -6.946222782135009766e-01
4.612448811531066895e-01 -1.182552874088287354e-01 -2.313561439514160156e-01
5.047250986099243164e-01 -1.725356876850128174e-01 -6.393489837646484375e-01
2.814896702766418457e-01 -1.665045619010925293e-01 -4.018017649650573730e-01
2.936107814311981201e-01 -9.484320878982543945e-02 -4.643223881721496582e-01
4.884520173072814941e-02 -1.243407726287841797e-01 -3.015423715114593506e-01
3.723238706588745117e-01 -9.275782108306884766e-02 -3.570278882980346680e-01
4.019384682178497314e-01 -1.104664728045463562e-01 -5.754221677780151367e-01
5.534890294075012207e-01 -1.374192088842391968e-01 -6.471506357192993164e-01
2.051561474800109863e-01 -1.524448692798614502e-01 -5.481649637222290039e-01
5.403363704681396484e-01 -1.746606230735778809e-01 -5.613828897476196289e-01
5.108845233917236328e-02 -1.103745996952056885e-01 -3.661336302757263184e-01
3.030178546905517578e-01 -1.668131053447723389e-01 -3.801364004611968994e-01
1.682735830545425415e-01 -1.471377462148666382e-01 -2.673057913780212402e-01
5.912014245986938477e-01 -1.675139069557189941e-01 -6.098264455795288086e-01
2.673767805099487305e-01 -1.663805544376373291e-01 -4.371792078018188477e-01
2.648083269596099854e-01 -9.558071196079254150e-02 -1.543528139591217041e-01
4.604576230049133301e-01 -1.391313225030899048e-01 -2.339788675308227539e-01
5.333389639854431152e-01 -1.518495082855224609e-01 -3.283076286315917969e-01
1.786227524280548096e-01 -8.568087965250015259e-02 -3.089545369148254395e-01
2.574068903923034668e-01 -1.634135842323303223e-01 -3.745158910751342773e-01
1.019150167703628540e-01 -1.328407675027847290e-01 -2.264502048492431641e-01
3.266967236995697021e-01 -9.027479588985443115e-02 -2.622313499450683594e-01
8.040896058082580566e-02 -1.293327659368515015e-01 -4.257298111915588379e-01
4.134311079978942871e-01 -1.750869154930114746e-01 -4.715015292167663574e-01
2.203816473484039307e-01 -9.037557244300842285e-02 -1.694207489490509033e-01
1.720973402261734009e-01 -8.530786633491516113e-02 -2.422073781490325928e-01
3.024532198905944824e-01 -1.598428189754486084e-01 -2.960622906684875488e-01
3.219697475433349609e-01 -9.493941068649291992e-02 -4.594593048095703125e-01
5.256254076957702637e-01 -1.144433617591857910e-01 -3.605012297630310059e-01
3.895130455493927002e-01 -9.457831084728240967e-02 -3.808971643447875977e-01
3.883335888385772705e-01 -1.742464005947113037e-01 -4.635922908782958984e-01
2.601154148578643799e-01 -9.162236005067825317e-02 -1.771976053714752197e-01
2.678057253360748291e-01 -1.659321039915084839e-01 -4.161415100097656250e-01
2.559215128421783447e-01 -9.963499754667282104e-02 -1.343559920787811279e-01
2.577394545078277588e-01 -1.343099623918533325e-01 -6.305240988731384277e-01
6.073775887489318848e-01 -1.646263599395751953e-01 -5.192428231239318848e-01
4.489997625350952148e-01 -1.007787734270095825e-01 -3.658437132835388184e-01
5.607943534851074219e-01 -1.200061365962028503e-01 -4.231421053409576416e-01
3.752660751342773438e-01 -1.415840685367584229e-01 -6.865979433059692383e-01
3.920296728610992432e-01 -1.231307461857795715e-01 -6.441619396209716797e-01
2.814577519893646240e-01 -8.966039866209030151e-02 -3.980141282081604004e-01
5.198887586593627930e-01 -1.756510436534881592e-01 -5.409667491912841797e-01
3.107481300830841064e-01 -1.632810831069946289e-01 -3.275542557239532471e-01
5.293799042701721191e-01 -1.217839121818542480e-01 -3.135496377944946289e-01
4.255164563655853271e-01 -1.041279956698417664e-01 -2.484649866819381714e-01
1.832271516323089600e-01 -8.797729760408401489e-02 -3.610791862010955811e-01
2.096981108188629150e-01 -9.549047797918319702e-02 -1.369286775588989258e-01
3.903060555458068848e-01 -1.751699745655059814e-01 -5.278199315071105957e-01
3.354014456272125244e-01 -1.107689514756202698e-01 -5.848002433776855469e-01
3.223253786563873291e-01 -9.234756231307983398e-02 -2.221478521823883057e-01
2.817169427871704102e-01 -1.561985611915588379e-01 -2.711388468742370605e-01
1.915378272533416748e-01 -1.512841433286666870e-01 -5.337138175964355469e-01
3.376484215259552002e-01 -1.621546745300292969e-01 -3.086334466934204102e-01
3.854728639125823975e-01 -9.955251216888427734e-02 -2.293769121170043945e-01
3.567557930946350098e-01 -9.182201325893402100e-02 -2.939243316650390625e-01
1.916535794734954834e-01 -8.664789795875549316e-02 -3.413333892822265625e-01
4.078748226165771484e-01 -9.626621752977371216e-02 -3.287437260150909424e-01
2.094377428293228149e-01 -1.530442386865615845e-01 -2.852815091609954834e-01
1.213861256837844849e-01 -1.454356908798217773e-01 -3.950438499450683594e-01
5.444914102554321289e-02 -1.052674204111099243e-01 -1.895827353000640869e-01
3.178892135620117188e-01 -1.697947978973388672e-01 -5.451259613037109375e-01
4.291594028472900391e-01 -1.709592640399932861e-01 -6.413465738296508789e-01
4.464312493801116943e-01 -1.767019629478454590e-01 -5.410482883453369141e-01
1.064283698797225952e-01 -1.366923302412033081e-01 -4.545628130435943604e-01
1.718289107084274292e-01 -1.359768509864807129e-01 -1.832067966461181641e-01
5.161154270172119141e-01 -1.112393885850906372e-01 -3.830825984477996826e-01
4.002990126609802246e-01 -1.139770895242691040e-01 -1.837072968482971191e-01
3.398775458335876465e-01 -1.690158396959304810e-01 -3.880313932895660400e-01
3.653467893600463867e-01 -1.596278697252273560e-01 -6.677379608154296875e-01
8.663551509380340576e-02 -1.366986036300659180e-01 -3.112992048263549805e-01
9.495714306831359863e-02 -1.284514069557189941e-01 -2.058037221431732178e-01
4.892498850822448730e-01 -1.687432229518890381e-01 -3.970782160758972168e-01
1.451771855354309082e-01 -9.008647501468658447e-02 -3.627793192863464355e-01
5.966395735740661621e-01 -1.302851140499114990e-01 -4.455763697624206543e-01
3.062654137611389160e-01 -1.475306004285812378e-01 -2.107819169759750366e-01
4.800917506217956543e-01 -1.339610815048217773e-01 -2.413803786039352417e-01
1.447154283523559570e-01 -1.144706830382347107e-01 -1.234282553195953369e-01
3.653678297996520996e-02 -1.162472888827323914e-01 -2.868450284004211426e-01
6.977564692497253418e-01 -1.674454808235168457e-01 -4.225628972053527832e-01
2.480610609054565430e-01 -9.445014595985412598e-02 -8.538874983787536621e-02
5.760820508003234863e-01 -1.386226713657379150e-01 -1.235605776309967041e-01
4.472267329692840576e-01 -1.660564839839935303e-01 -2.427992820739746094e-01
1.453006565570831299e-01 -1.335273683071136475e-01 -2.222973108291625977e-02
2.885007858276367188e-01 -1.004036739468574524e-01 -3.428573906421661377e-01
6.790465116500854492e-01 -1.712672412395477295e-01 -4.498758316040039062e-01
