-1.834945082664489746e-01 1.303922683000564575e-01 -9.105485677719116211e-02
-3.294284269213676453e-02 8.758483082056045532e-02 1.324824690818786621e-01
-1.070941388607025146e-01 1.642891764640808105e-02 -9.140059351921081543e-02
-2.256726101040840149e-02 1.963477879762649536e-01 1.443340629339218140e-02
7.967224717140197754e-02 4.401847720146179199e-03 -5.218923464417457581e-02
9.057466685771942139e-02 7.277384400367736816e-02 -1.320087313652038574e-01
-1.333400607109069824e-02 1.954731941223144531e-01 8.702240884304046631e-04
-2.154409885406494141e-02 9.411326050758361816e-02 1.247622519731521606e-01
-1.989043056964874268e-01 8.526472002267837524e-02 -2.391781099140644073e-02
-1.744296401739120483e-02 -2.203411608934402466e-02 -7.876333594322204590e-02
-4.042975977063179016e-02 -2.755805104970932007e-02 7.431518286466598511e-03
7.503639161586761475e-02 1.122188121080398560e-01 -1.419377923011779785e-01
-9.077148139476776123e-02 1.039832830429077148e-03 -7.873219251632690430e-02
7.555587589740753174e-02 2.414818108081817627e-02 9.462084621191024780e-03
-9.231446683406829834e-02 2.111479640007019043e-02 1.162195652723312378e-01
6.324078887701034546e-03 3.724505379796028137e-02 -1.784776598215103149e-01
4.960307851433753967e-02 6.799593567848205566e-03 -1.328668594360351562e-01
-1.499063074588775635e-01 2.157724052667617798e-01 -4.806819558143615723e-02
-1.760795116424560547e-01 4.247327521443367004e-02 1.766150817275047302e-02
3.832929953932762146e-02 9.375340491533279419e-02 -1.902027130126953125e-01
3.314812108874320984e-02 1.388231515884399414e-01 4.088277742266654968e-02
-1.366829276084899902e-01 1.731737554073333740e-01 1.121171712875366211e-01
-1.351605355739593506e-02 -1.725766807794570923e-02 5.237029120326042175e-02
-1.279020160436630249e-01 1.821172535419464111e-01 -1.340360194444656372e-01
2.473449334502220154e-02 1.777526885271072388e-01 -1.099229902029037476e-01
6.740611791610717773e-02 1.391502916812896729e-01 -4.671924561262130737e-02
-1.617569476366043091e-02 2.192385494709014893e-02 1.069107651710510254e-01
-1.059236675500869751e-01 -6.265796720981597900e-03 -1.953990384936332703e-02
-1.668118685483932495e-01 9.536844491958618164e-02 -1.040242761373519897e-01
6.496816873550415039e-02 6.378442794084548950e-02 -1.696478575468063354e-01
1.232698559761047363e-04 -2.943161875009536743e-02 -3.880919516086578369e-02
4.262854531407356262e-02 1.137345209717750549e-01 -1.820061951875686646e-01
2.665394917130470276e-02 4.342583194375038147e-02 -1.804319769144058228e-01
-9.618598222732543945e-02 1.458823680877685547e-04 7.830084860324859619e-02
-1.344986110925674438e-01 8.009135723114013672e-03 6.054900586605072021e-03
-1.865426748991012573e-01 2.000104933977127075e-01 -6.611779332160949707e-03
-1.611507385969161987e-01 2.136706411838531494e-01 1.178295537829399109e-02
-2.084640115499496460e-01 1.733978092670440674e-01 2.763908356428146362e-03
-1.675344258546829224e-01 1.878959238529205322e-01 -8.659380674362182617e-02
5.014472082257270813e-02 1.478686034679412842e-01 -1.378921419382095337e-01
-1.415573656558990479e-01 1.254405081272125244e-02 2.478996664285659790e-02
1.716831699013710022e-02 -2.773501724004745483e-02 -2.454250678420066833e-02
-1.198790594935417175e-01 2.493109554052352905e-02 1.079873740673065186e-01
-9.924152493476867676e-02 2.240733504295349121e-01 -1.288648042827844620e-02
3.929833695292472839e-02 5.322208628058433533e-02 7.636395096778869629e-02
8.331398665904998779e-02 4.304643720388412476e-02 3.982666879892349243e-03
-1.519211083650588989e-01 2.084355950355529785e-01 -7.101909816265106201e-02
-6.536258757114410400e-02 3.033055365085601807e-02 1.272517293691635132e-01
-2.005673199892044067e-01 1.218856200575828552e-01 -5.475666373968124390e-02
-8.422442525625228882e-02 1.688747406005859375e-01 -1.680996865034103394e-01
4.808766022324562073e-02 9.803724288940429688e-02 5.575986579060554504e-02
-8.295337855815887451e-02 1.451001167297363281e-01 1.301656663417816162e-01
-1.328883022069931030e-01 2.226236462593078613e-01 -1.100740116089582443e-02
-5.532965809106826782e-02 2.182093858718872070e-01 -6.364936381578445435e-02
-1.394934654235839844e-01 1.373678445816040039e-02 5.061379447579383850e-02
-1.902278959751129150e-01 1.575051546096801758e-01 -7.497330009937286377e-02
-2.034339904785156250e-01 9.574753791093826294e-02 7.700693607330322266e-02
-2.738570049405097961e-02 1.769914031028747559e-01 -1.639919728040695190e-01
9.251202642917633057e-02 1.005080565810203552e-01 -7.253901660442352295e-02
5.628336220979690552e-03 1.936980485916137695e-01 -5.199659988284111023e-02
8.787961304187774658e-02 2.102820575237274170e-02 -3.215270489454269409e-02
-1.156835332512855530e-01 2.212180793285369873e-01 1.201116293668746948e-02
-7.607531547546386719e-02 1.577000766992568970e-01 -1.778164356946945190e-01
9.416265785694122314e-02 4.167507588863372803e-02 -1.097498089075088501e-01
-3.168869763612747192e-02 1.887498497962951660e-01 4.539309069514274597e-02
-5.835979804396629333e-02 4.496283829212188721e-03 -1.184169650077819824e-01
-1.254265606403350830e-01 7.477358728647232056e-02 -1.407847106456756592e-01
7.054682821035385132e-03 -8.288025856018066406e-03 5.894734337925910950e-02
-2.277677878737449646e-02 1.620202809572219849e-01 7.932527363300323486e-02
-9.484910219907760620e-02 -8.686542510986328125e-03 5.011522397398948669e-02
-1.064711511135101318e-01 1.466503441333770752e-01 -1.684751957654953003e-01
3.813419863581657410e-02 1.682582497596740723e-02 6.106748059391975403e-02
-1.261865347623825073e-01 9.658847004175186157e-02 1.489637494087219238e-01
-8.380773663520812988e-02 1.137748658657073975e-01 1.455869525671005249e-01
-1.772049963474273682e-01 9.176409244537353516e-02 1.201691925525665283e-01
-1.206191778182983398e-01 1.512321829795837402e-01 -1.577924191951751709e-01
-1.366213858127593994e-01 4.094641655683517456e-02 1.165833622217178345e-01
-2.154518514871597290e-01 1.531081199645996094e-01 4.925440996885299683e-03
-7.699632644653320312e-02 -1.920107007026672363e-02 -1.295288465917110443e-02
-6.264027953147888184e-02 -1.729430258274078369e-02 5.001901462674140930e-02
4.845355823636054993e-02 1.561708748340606689e-01 -1.209609508514404297e-01
-1.740018129348754883e-01 9.402195364236831665e-02 -9.186288714408874512e-02
-1.433983296155929565e-01 1.834995150566101074e-01 9.868618845939636230e-02
4.713451489806175232e-02 1.499753594398498535e-01 -5.734436213970184326e-03
-4.044854268431663513e-02 2.184308320283889771e-02 1.161260604858398438e-01
-1.031913831830024719e-01 -2.802312374114990234e-03 -4.559870809316635132e-02
6.130885332822799683e-03 1.576988101005554199e-01 5.361786112189292908e-02
5.153440311551094055e-02 2.643942087888717651e-02 5.178904160857200623e-02
-1.961353048682212830e-02 5.551502108573913574e-03 -1.398372650146484375e-01
-2.057284563779830933e-01 1.216440424323081970e-01 8.596806228160858154e-02
-1.981345266103744507e-01 7.563982903957366943e-02 -3.939993679523468018e-03
-1.555110663175582886e-01 2.019728124141693115e-01 6.206439808011054993e-02
-1.927176713943481445e-01 1.890910714864730835e-01 4.339769110083580017e-02
-2.135152965784072876e-01 1.451674699783325195e-01 -1.536419149488210678e-02
9.764666855335235596e-02 5.676665529608726501e-02 -4.144852608442306519e-02
-7.512314617633819580e-02 -1.840142905712127686e-02 2.971572801470756531e-02
3.035126999020576477e-02 6.456124782562255859e-02 8.665710687637329102e-02
5.263109132647514343e-02 1.587816774845123291e-01 -7.214064896106719971e-02
5.291224643588066101e-02 1.339010000228881836e-01 1.164108142256736755e-02
-1.707938015460968018e-01 2.000528872013092041e-01 -6.027621775865554810e-02
8.759539574384689331e-03 1.094137951731681824e-01 9.541292488574981689e-02
-8.530333638191223145e-02 1.867859363555908203e-01 -1.514804512262344360e-01
-2.105553895235061646e-01 1.681821346282958984e-01 3.234178572893142700e-02
6.300872564315795898e-02 1.443378180265426636e-01 -1.094423979520797729e-01
-6.944863498210906982e-02 6.810981035232543945e-02 1.450402438640594482e-01
1.296326145529747009e-02 7.070773094892501831e-02 -1.957892924547195435e-01
8.240635693073272705e-02 1.823189854621887207e-02 -1.610708795487880707e-02
-6.094190478324890137e-02 2.162180840969085693e-01 -8.747681230306625366e-02
-2.045055776834487915e-01 1.502445936203002930e-01 -4.553132131695747375e-02
-8.008360117673873901e-02 1.878397911787033081e-02 -1.243140399456024170e-01
-9.949237108230590820e-03 1.988522410392761230e-01 -2.220397256314754486e-02
-1.265105903148651123e-01 4.463436827063560486e-02 1.269633769989013672e-01
-8.665861934423446655e-02 8.481167256832122803e-03 1.005237698554992676e-01
-2.091817110776901245e-01 1.517348587512969971e-01 -3.009941801428794861e-02
-1.377288699150085449e-01 2.214189916849136353e-01 -3.406259790062904358e-02
5.030182376503944397e-02 7.999954372644424438e-02 6.057482585310935974e-02
-1.133889704942703247e-01 2.225896716117858887e-01 -5.976851284503936768e-02
-8.303795754909515381e-02 1.291687935590744019e-01 1.394442617893218994e-01
6.553694605827331543e-02 1.449248939752578735e-01 -7.598558068275451660e-02
-1.506651639938354492e-01 4.511288553476333618e-02 1.086688190698623657e-01
-9.142395853996276855e-02 3.362008184194564819e-02 -1.343223899602890015e-01
-4.955902695655822754e-04 7.499361783266067505e-02 1.133622527122497559e-01
6.623028218746185303e-02 7.843285799026489258e-02 3.653058037161827087e-02
2.766290679574012756e-02 -2.175075560808181763e-02 -7.338882982730865479e-02
-1.265285164117813110e-01 1.450300067663192749e-01 1.357123106718063354e-01
-1.658077538013458252e-01 1.761492192745208740e-01 -1.011953353881835938e-01
-5.152479559183120728e-02 2.151835560798645020e-01 -1.465816702693700790e-02
4.447871074080467224e-02 1.645675301551818848e-01 -4.888842999935150146e-02
-3.639847785234451294e-02 1.893784999847412109e-01 -1.486366242170333862e-01
-3.808216005563735962e-02 -2.164610475301742554e-02 -6.739461421966552734e-02
-2.441351488232612610e-02 -2.851296216249465942e-02 9.554240852594375610e-03
-1.007720381021499634e-01 8.686192333698272705e-03 9.373161196708679199e-02
1.354054734110832214e-02 9.436234831809997559e-03 7.751516997814178467e-02
-4.073290899395942688e-02 2.144857645034790039e-01 -5.898570641875267029e-02
4.931112751364707947e-02 7.138325273990631104e-02 -1.830762624740600586e-01
-2.374084293842315674e-02 1.087817102670669556e-01 1.214485168457031250e-01
-1.091663837432861328e-01 1.973652243614196777e-01 7.814271748065948486e-02
5.508627742528915405e-03 1.872496306896209717e-01 -1.101621519774198532e-02
-1.462783515453338623e-01 1.070574447512626648e-01 -1.353831291198730469e-01
2.757996693253517151e-02 1.524999439716339111e-01 2.995219454169273376e-02
6.183520331978797913e-02 1.189096346497535706e-01 1.370377466082572937e-02
-5.123477429151535034e-03 2.715470641851425171e-02 -1.691052168607711792e-01
-2.749473042786121368e-02 2.716287970542907715e-03 9.253646433353424072e-02
-3.595669195055961609e-02 1.214211434125900269e-02 1.059358417987823486e-01
-4.655098170042037964e-02 9.442508965730667114e-02 1.379318386316299438e-01
-2.788081765174865723e-03 6.803669035434722900e-03 -1.452133506536483765e-01
-1.590466946363449097e-01 1.281528770923614502e-01 1.348426491022109985e-01
-1.279298663139343262e-01 9.586840867996215820e-03 -3.459942340850830078e-02
-5.447534099221229553e-02 -7.806576788425445557e-03 7.886213064193725586e-02
-6.920287013053894043e-02 2.132911235094070435e-01 -1.034953594207763672e-01
8.636483550071716309e-02 1.410538703203201294e-02 -7.946048676967620850e-02
-8.143251389265060425e-02 1.874985396862030029e-01 8.509428799152374268e-02
-4.932831227779388428e-02 8.292049169540405273e-03 1.042701750993728638e-01
-5.963356420397758484e-02 1.679476797580718994e-01 9.953837096691131592e-02
-1.993989050388336182e-01 1.028072759509086609e-01 9.292997419834136963e-02
-1.667555421590805054e-01 3.305736184120178223e-02 3.146995976567268372e-02
-6.976999342441558838e-02 2.218226492404937744e-01 -4.694194719195365906e-02
-1.028667092323303223e-01 -9.587556123733520508e-03 1.287956163287162781e-02
3.521921113133430481e-02 1.951362937688827515e-02 -1.572405099868774414e-01
8.145265281200408936e-02 5.798180401325225830e-02 1.092812418937683105e-02
-6.807155907154083252e-02 4.537877440452575684e-02 -1.631098836660385132e-01
-1.412099003791809082e-01 5.564196035265922546e-02 1.277431249618530273e-01
1.780663058161735535e-02 -2.539008855819702148e-02 -8.115638047456741333e-04
7.402223348617553711e-02 8.626099675893783569e-02 -1.600097864866256714e-01
7.360223680734634399e-03 1.436142772436141968e-01 6.979162991046905518e-02
-1.914895325899124146e-01 6.342890113592147827e-02 5.287856236100196838e-02
-1.659646481275558472e-01 1.227372288703918457e-01 -1.158235073089599609e-01
-7.572851330041885376e-02 2.062539011240005493e-01 -1.228132247924804688e-01
2.484507858753204346e-04 5.710317194461822510e-02 1.120962053537368774e-01
-4.221096634864807129e-03 7.755682617425918579e-02 -1.989704519510269165e-01
-6.862549483776092529e-02 -2.056720107793807983e-02 -2.848860621452331543e-02
-1.826405674219131470e-01 8.377923071384429932e-02 -6.665062904357910156e-02
-1.933772489428520203e-02 2.469018101692199707e-02 -1.640909761190414429e-01
-1.437341868877410889e-01 2.192090749740600586e-01 6.706785410642623901e-03
-1.613534390926361084e-01 3.593841940164566040e-02 -2.986751683056354523e-02
8.459229767322540283e-02 1.023026555776596069e-02 -6.489951163530349731e-02
5.066928640007972717e-02 5.172032490372657776e-02 -1.756204366683959961e-01
-1.183177083730697632e-01 1.655749380588531494e-01 1.203522533178329468e-01
-1.288035511970520020e-01 8.100237697362899780e-02 1.461482197046279907e-01
-1.067982763051986694e-01 1.235666796565055847e-01 1.456570476293563843e-01
2.601413056254386902e-02 2.271013706922531128e-02 7.790681719779968262e-02
-1.129097193479537964e-01 7.087925076484680176e-02 -1.498463600873947144e-01
-2.112370580434799194e-01 1.033454686403274536e-01 1.413973048329353333e-03
4.519419744610786438e-02 1.240823939442634583e-01 3.895500674843788147e-02
-7.467578351497650146e-02 3.937205299735069275e-02 1.341342628002166748e-01
7.018001377582550049e-02 3.775435686111450195e-02 2.911468967795372009e-02
-1.758488267660140991e-01 1.279349923133850098e-01 1.246005594730377197e-01
8.406257629394531250e-02 1.087414249777793884e-01 -3.585771843791007996e-02
-1.655435711145401001e-01 3.232817351818084717e-02 1.033857464790344238e-02
-1.890690773725509644e-01 1.445214450359344482e-01 1.065143048763275146e-01
8.471864461898803711e-02 9.835483133792877197e-02 -2.087108045816421509e-02
3.997742012143135071e-02 3.880791366100311279e-03 4.525161907076835632e-02
-1.063682660460472107e-01 1.623433828353881836e-01 -1.620253026485443115e-01
-1.965600252151489258e-01 6.845477968454360962e-02 3.335871174931526184e-02
-1.568503677845001221e-01 1.078394576907157898e-01 -1.234233677387237549e-01
-1.836197078227996826e-01 7.445609569549560547e-02 9.873230755329132080e-02
1.969875022768974304e-02 6.603059172630310059e-02 9.700082242488861084e-02
-2.139844447374343872e-01 1.093552261590957642e-01 4.545435681939125061e-02
-6.449304521083831787e-03 -2.485645562410354614e-02 2.521885186433792114e-02
2.155362442135810852e-02 1.831074655055999756e-01 -4.859781265258789062e-02
6.088392063975334167e-02 1.405099481344223022e-01 -1.287579983472824097e-01
-8.371178060770034790e-03 -1.456409692764282227e-03 -1.312762051820755005e-01
-1.873597949743270874e-01 9.957189857959747314e-02 -7.129615545272827148e-02
2.634793147444725037e-02 1.219216734170913696e-01 6.791910529136657715e-02
-6.494148075580596924e-02 7.150584459304809570e-02 -1.821927726268768311e-01
-6.656619161367416382e-02 2.208798080682754517e-01 -3.154812753200531006e-02
2.369833365082740784e-02 -2.733506262302398682e-03 -1.285761594772338867e-01
-5.611845850944519043e-02 -1.517527550458908081e-02 -7.369430363178253174e-02
-1.883554831147193909e-02 2.019636183977127075e-01 -1.020807772874832153e-01
-9.255929291248321533e-02 2.525060623884201050e-02 -1.223627030849456787e-01
6.129470840096473694e-02 -6.327584385871887207e-03 -1.232719328254461288e-02
-6.802245974540710449e-03 1.746446490287780762e-01 4.279388114809989929e-02
-7.481529563665390015e-02 1.947596073150634766e-01 -1.434507071971893311e-01
-1.925217211246490479e-01 1.126843318343162537e-01 1.079949438571929932e-01
-4.133522510528564453e-03 1.601447612047195435e-01 -1.748803853988647461e-01
-3.389474749565124512e-02 1.658110320568084717e-01 -1.771905869245529175e-01
-1.289022266864776611e-01 2.573462575674057007e-02 -7.756561040878295898e-02
7.412108778953552246e-02 4.113904386758804321e-02 -1.493945419788360596e-01
-1.248732209205627441e-01 2.188508361577987671e-01 -6.929611414670944214e-02
7.503516972064971924e-02 1.198527365922927856e-01 -2.331632934510707855e-02
-2.084383666515350342e-01 1.554906219244003296e-01 6.573785841464996338e-02
-9.574189782142639160e-02 1.586775481700897217e-02 -1.041876375675201416e-01
-6.332908570766448975e-02 8.072133362293243408e-02 1.449648588895797729e-01
-1.752465069293975830e-01 1.410220712423324585e-01 -1.038581430912017822e-01
-1.873293071985244751e-01 5.559389665722846985e-02 3.535150364041328430e-02
-6.415556371212005615e-02 -1.906977593898773193e-02 -4.740113765001296997e-02
-7.111741602420806885e-02 1.767634004354476929e-01 -1.653216630220413208e-01
-7.120926678180694580e-02 -1.346379518508911133e-03 8.833962678909301758e-02
-2.161040008068084717e-01 1.159153804183006287e-01 1.923708617687225342e-02
-1.090793162584304810e-01 2.045429646968841553e-01 6.403402984142303467e-02
8.772486448287963867e-02 5.991231650114059448e-02 -1.377225071191787720e-01
-2.624583989381790161e-02 2.081487327814102173e-01 -3.288495168089866638e-02
-5.723366513848304749e-02 1.322661042213439941e-01 1.284405887126922607e-01
3.322402015328407288e-02 -1.133035123348236084e-02 -1.060522496700286865e-01
-5.228329449892044067e-02 2.068612575531005859e-01 -1.169809252023696899e-01
-3.786727786064147949e-03 1.043484658002853394e-01 1.087819039821624756e-01
-7.484947144985198975e-02 -9.323135018348693848e-04 -9.299126267433166504e-02
-4.962794855237007141e-02 3.055343031883239746e-02 -1.590420752763748169e-01
-1.831874698400497437e-01 1.141587719321250916e-01 -8.744990825653076172e-02
-1.964951306581497192e-01 1.809177696704864502e-01 5.538331344723701477e-02
-9.271789342164993286e-03 2.014852166175842285e-01 -4.685388505458831787e-02
-1.806670278310775757e-01 5.532342940568923950e-02 7.288898527622222900e-02
8.048209547996520996e-02 6.856912374496459961e-02 -1.520542204380035400e-01
4.957737401127815247e-02 -1.422177255153656006e-02 -7.841364294290542603e-02
-1.602560132741928101e-01 2.988143265247344971e-02 5.414314195513725281e-02
-2.117142677307128906e-01 1.219444349408149719e-01 6.916102766990661621e-02
-6.288820505142211914e-02 1.444227695465087891e-01 -1.877203732728958130e-01
-1.809759736061096191e-01 1.778835356235504150e-01 -7.675185799598693848e-02
-2.027143985033035278e-01 1.469245254993438721e-01 8.571800589561462402e-02
-1.968399435281753540e-01 1.574007570743560791e-01 -6.138497591018676758e-02
-1.778604537248611450e-01 1.549737304449081421e-01 -9.685640037059783936e-02
-2.008290439844131470e-01 9.606667608022689819e-02 -3.380427882075309753e-02
3.909709677100181580e-02 1.545246094465255737e-01 -1.446999013423919678e-01
3.908919915556907654e-02 1.040252447128295898e-01 6.456497311592102051e-02
-1.156409457325935364e-01 1.597674936056137085e-02 -7.817272841930389404e-02
-9.015604853630065918e-02 7.479385286569595337e-02 1.489038467407226562e-01
-1.304102092981338501e-01 1.312255561351776123e-01 -1.539202034473419189e-01
-3.429367020726203918e-02 -2.444736659526824951e-03 -1.205439269542694092e-01
-1.367857307195663452e-01 1.345769464969635010e-01 1.397304236888885498e-01
-9.456822276115417480e-02 7.654604315757751465e-02 -1.675630062818527222e-01
9.060074388980865479e-02 7.397184520959854126e-02 -1.785197108983993530e-02
-1.195801049470901489e-01 4.125019535422325134e-02 -1.151503622531890869e-01
-1.214026957750320435e-01 8.683659136295318604e-03 -4.773306101560592651e-02
-1.557740867137908936e-01 1.237132176756858826e-01 -1.285162568092346191e-01
2.457103505730628967e-02 3.279946744441986084e-03 6.115388497710227966e-02
-1.279755830764770508e-01 5.914991348981857300e-02 1.371962279081344604e-01
-1.214143037796020508e-01 -1.824349164962768555e-04 1.075934246182441711e-02
-1.108522713184356689e-01 1.545347124338150024e-01 1.290512233972549438e-01
-1.932814717292785645e-01 8.099228143692016602e-02 8.663885295391082764e-02
-1.275211125612258911e-01 3.498090431094169617e-02 -9.614001214504241943e-02
-1.576090604066848755e-01 1.632553040981292725e-01 -1.196107119321823120e-01
-1.184270828962326050e-01 8.598536998033523560e-02 -1.538276225328445435e-01
9.705340862274169922e-02 8.101982623338699341e-02 -5.483980849385261536e-02
-5.389902740716934204e-03 -2.017404139041900635e-02 -8.853554725646972656e-02
4.524930194020271301e-02 -1.146924495697021484e-02 8.616674691438674927e-03
5.093764886260032654e-02 1.513574272394180298e-01 -2.042632922530174255e-02
8.613023906946182251e-03 1.612802594900131226e-01 -1.666049510240554810e-01
7.137717306613922119e-02 7.741726934909820557e-03 -3.130206838250160217e-03
-6.599810719490051270e-02 1.599707901477813721e-01 1.113050878047943115e-01
-7.936175167560577393e-02 2.205130159854888916e-01 -7.570479810237884521e-02
-6.762442737817764282e-02 1.379489898681640625e-02 1.115439832210540771e-01
-1.925315707921981812e-03 -8.118160068988800049e-03 -1.197158545255661011e-01
-1.933243125677108765e-03 -3.642603754997253418e-03 7.226218283176422119e-02
-1.401668488979339600e-01 1.607392430305480957e-01 1.231487393379211426e-01
-8.610859513282775879e-04 1.964036822319030762e-01 -8.729860186576843262e-02
-1.694844514131546021e-01 7.122424989938735962e-02 1.157100945711135864e-01
1.732170581817626953e-03 1.311875581741333008e-01 8.754979074001312256e-02
-9.285801649093627930e-02 1.998147666454315186e-01 -1.315976679325103760e-01
-7.712306082248687744e-02 1.448781490325927734e-01 -1.831205487251281738e-01
-3.891273587942123413e-02 1.979195773601531982e-01 -1.331760436296463013e-01
-3.468679264187812805e-02 6.815156340599060059e-02 -1.916966140270233154e-01
-1.398459076881408691e-02 1.936113536357879639e-01 -1.253712773323059082e-01
-3.575304150581359863e-02 5.243529751896858215e-02 1.310531497001647949e-01
-9.381895512342453003e-02 1.482151150703430176e-01 -1.748289018869400024e-01
-1.919015049934387207e-01 7.299028337001800537e-02 -2.526743337512016296e-02
-7.856403291225433350e-02 2.189915180206298828e-01 3.849720582365989685e-03
3.886830434203147888e-02 1.686075925827026367e-01 -1.035672873258590698e-01
-2.170156836509704590e-01 1.414793729782104492e-01 4.023696109652519226e-02
-1.450456976890563965e-01 2.067446708679199219e-02 6.522238254547119141e-02
-1.254043132066726685e-01 1.831105351448059082e-01 1.012814491987228394e-01
-3.585605323314666748e-02 1.117262169718742371e-01 -2.001252472400665283e-01
-1.282468289136886597e-01 1.406481117010116577e-02 7.771030068397521973e-02
3.365090116858482361e-02 1.655546128749847412e-01 -1.298598498106002808e-01
1.558801904320716858e-02 -2.216590940952301025e-02 1.747469231486320496e-02
-6.810059398412704468e-02 2.127770930528640747e-01 1.982494443655014038e-02
-1.472204029560089111e-01 7.213920354843139648e-02 1.349126547574996948e-01
7.269674539566040039e-02 -2.499446272850036621e-04 -8.007033914327621460e-02
-1.916511058807373047e-01 1.903854608535766602e-01 -3.113628737628459930e-02
-3.052116744220256805e-02 1.337857395410537720e-01 1.122141033411026001e-01
9.186825156211853027e-02 9.496543556451797485e-02 -1.111710071563720703e-01
-1.589876264333724976e-01 7.634245604276657104e-02 -1.012099236249923706e-01
-1.699695736169815063e-01 7.296568155288696289e-02 -7.962083816528320312e-02
6.578513979911804199e-02 1.582992821931838989e-02 -1.320141255855560303e-01
9.860618412494659424e-02 7.279869168996810913e-02 -9.963972866535186768e-02
-7.261221855878829956e-02 1.988220363855361938e-01 6.032154336571693420e-02
2.167711779475212097e-02 1.005207821726799011e-01 8.695800602436065674e-02
-2.104845046997070312e-01 1.382695436477661133e-01 7.217386364936828613e-02
-8.320556581020355225e-02 9.488815814256668091e-02 1.490378528833389282e-01
-2.559936419129371643e-02 4.294391721487045288e-02 -1.789147257804870605e-01
-4.144997894763946533e-02 2.139833867549896240e-01 -3.290797397494316101e-02
-1.272796392440795898e-01 2.220853418111801147e-01 -4.897024855017662048e-02
-5.342385172843933105e-02 1.782573610544204712e-01 8.244644105434417725e-02
-8.482848852872848511e-02 5.657513067126274109e-02 1.433976441621780396e-01
-6.499169021844863892e-02 1.168005168437957764e-01 -1.925945132970809937e-01
3.038826212286949158e-02 -2.471344918012619019e-02 -4.156711325049400330e-02
7.364809513092041016e-02 1.251967102289199829e-01 -1.252570897340774536e-01
9.535220265388488770e-02 4.127697274088859558e-02 -3.700116276741027832e-02
9.661404788494110107e-02 8.889362961053848267e-02 -7.995393872261047363e-02
-8.206980675458908081e-02 1.084402501583099365e-01 -1.849757134914398193e-01
-2.940111607313156128e-02 1.425836086273193359e-01 -1.926573216915130615e-01
6.377382874488830566e-01 1.138097643852233887e-01 1.014284193515777588e-01
7.087709903717041016e-01 2.638910412788391113e-01 4.192025586962699890e-02
8.698396682739257812e-01 1.050662845373153687e-01 7.505301386117935181e-02
7.708866596221923828e-01 -4.861357063055038452e-02 6.736610084772109985e-02
7.953293323516845703e-01 2.392174005508422852e-01 6.366469897329807281e-04
6.127160787582397461e-01 3.121708333492279053e-02 8.579830825328826904e-02
7.433511018753051758e-01 1.978429853916168213e-01 9.123257547616958618e-02
6.542338728904724121e-01 1.647228598594665527e-01 9.961501508951187134e-02
5.732713341712951660e-01 9.571267664432525635e-02 8.534075319766998291e-02
5.618236064910888672e-01 2.254052758216857910e-01 -4.073460400104522705e-02
5.096336603164672852e-01 4.174238070845603943e-02 4.499305784702301025e-02
6.342462301254272461e-01 4.085399210453033447e-03 8.245588093996047974e-02
6.474679708480834961e-01 6.576239317655563354e-02 9.940239042043685913e-02
8.149547576904296875e-01 2.315117418766021729e-01 2.162867784500122070e-02
7.396649122238159180e-01 8.454576134681701660e-03 -1.108248755335807800e-01
6.760784387588500977e-01 -8.329363912343978882e-02 4.268253967165946960e-02
5.280140042304992676e-01 2.170671224594116211e-01 3.144405409693717957e-02
4.942702054977416992e-01 1.714282631874084473e-01 3.163433447480201721e-02
8.352097272872924805e-01 1.871742308139801025e-01 6.716897338628768921e-02
7.692647576332092285e-01 -8.889643102884292603e-02 -7.510460913181304932e-02
5.313692092895507812e-01 2.292394638061523438e-01 -2.521114191040396690e-03
6.322365403175354004e-01 1.882468909025192261e-01 -8.159115910530090332e-02
7.306824326515197754e-01 -5.782043188810348511e-02 6.469593197107315063e-02
8.187302350997924805e-01 -9.895839542150497437e-02 5.714077502489089966e-03
6.966767907142639160e-01 1.699066162109375000e-01 1.015179827809333801e-01
5.430476069450378418e-01 1.891214773058891296e-02 -9.342409670352935791e-02
8.327072262763977051e-01 5.778163671493530273e-02 -8.657844364643096924e-02
8.334150910377502441e-01 1.074834614992141724e-01 9.032124280929565430e-02
7.504153251647949219e-01 -1.043694689869880676e-01 2.484736591577529907e-02
7.203197479248046875e-01 -9.365651756525039673e-02 3.782239928841590881e-02
5.817373394966125488e-01 2.484327256679534912e-01 -2.025628462433815002e-02
6.154704093933105469e-01 -1.877921819686889648e-02 6.893379241228103638e-02
6.269476413726806641e-01 7.527134567499160767e-02 -1.126413494348526001e-01
5.363556742668151855e-01 1.680281311273574829e-01 -6.993900239467620850e-02
5.853986740112304688e-01 2.684846520423889160e-03 6.862356513738632202e-02
8.380672931671142578e-01 -7.738182693719863892e-02 2.538051083683967590e-02
7.448124289512634277e-01 -2.291712909936904907e-02 8.155658841133117676e-02
4.807693660259246826e-01 1.163458675146102905e-01 -5.459450557827949524e-02
7.719273567199707031e-01 1.685859262943267822e-01 -7.614603638648986816e-02
6.116698384284973145e-01 2.509130835533142090e-01 -2.926046401262283325e-02
8.411514759063720703e-01 6.750476360321044922e-02 8.727098256349563599e-02
8.021211624145507812e-01 1.120352298021316528e-01 -8.762364834547042847e-02
8.362144827842712402e-01 1.576565057039260864e-01 -5.586400255560874939e-02
5.462046861648559570e-01 1.930395960807800293e-01 6.176447868347167969e-02
8.468523621559143066e-01 1.318619772791862488e-02 -8.112511783838272095e-02
5.092414617538452148e-01 2.084387540817260742e-01 1.423263642936944962e-02
5.725368261337280273e-01 7.819373160600662231e-02 -1.039528846740722656e-01
8.076042532920837402e-01 5.318077653646469116e-02 -9.586579352617263794e-02
5.000801682472229004e-01 2.505717799067497253e-02 3.036336600780487061e-02
7.481601834297180176e-01 2.566752135753631592e-01 -3.157564904540777206e-03
6.532375812530517578e-01 -1.066533103585243225e-01 -6.209644675254821777e-02
8.096600770950317383e-01 -1.943437755107879639e-02 7.456409186124801636e-02
6.797909736633300781e-01 1.190626621246337891e-01 -1.066052019596099854e-01
7.454968094825744629e-01 -3.396150469779968262e-02 -1.034796983003616333e-01
5.644367337226867676e-01 1.923733353614807129e-01 -6.729776412248611450e-02
5.219178795814514160e-01 1.542304456233978271e-01 -6.950374692678451538e-02
7.889252901077270508e-01 -7.876690477132797241e-02 4.402334615588188171e-02
8.403938412666320801e-01 2.069483399391174316e-01 4.365434497594833374e-02
6.700073480606079102e-01 -6.377957016229629517e-02 5.631282180547714233e-02
6.226999759674072266e-01 -7.980117946863174438e-02 -8.053898066282272339e-02
7.407141923904418945e-01 1.213720291852951050e-01 -9.991686791181564331e-02
5.658954381942749023e-01 -8.035851269960403442e-02 -3.849930316209793091e-02
8.541951179504394531e-01 1.608171164989471436e-01 6.960333883762359619e-02
6.120434403419494629e-01 2.392999231815338135e-01 -4.332585260272026062e-02
6.040203571319580078e-01 -4.772309958934783936e-02 -9.404338151216506958e-02
8.199218511581420898e-01 7.938446849584579468e-02 -8.860567212104797363e-02
8.005298376083374023e-01 -8.608915656805038452e-02 -6.622663140296936035e-02
8.215065002441406250e-01 1.696195900440216064e-01 -5.682513117790222168e-02
6.382490992546081543e-01 9.524753689765930176e-02 1.009293273091316223e-01
6.200296282768249512e-01 4.440590739250183105e-03 -1.109987348318099976e-01
6.639254093170166016e-01 -9.540881961584091187e-02 -7.704824954271316528e-02
9.211000800132751465e-01 1.006674766540527344e-02 -5.415687337517738342e-05
7.641249299049377441e-01 -1.531768590211868286e-02 8.327035605907440186e-02
7.945158481597900391e-01 3.023796156048774719e-02 9.287936985492706299e-02
5.298051834106445312e-01 1.183018386363983154e-01 -8.453884720802307129e-02
7.351324558258056641e-01 1.138479486107826233e-01 1.069411337375640869e-01
7.436947226524353027e-01 2.376707494258880615e-01 -3.580341488122940063e-02
7.453408837318420410e-01 1.001187339425086975e-01 1.063987910747528076e-01
7.133588790893554688e-01 2.887462452054023743e-02 -1.146175488829612732e-01
8.194913864135742188e-01 9.874601662158966064e-02 9.476500749588012695e-02
8.458112478256225586e-01 -3.392972052097320557e-03 -7.973194122314453125e-02
8.797708153724670410e-01 1.005559414625167847e-01 -5.315052717924118042e-02
6.466673612594604492e-01 2.649428844451904297e-01 -1.244687009602785110e-02
5.200384855270385742e-01 4.264198243618011475e-03 -7.808282226324081421e-02
5.506859421730041504e-01 1.422991156578063965e-01 -8.530978858470916748e-02
8.489515781402587891e-01 -7.689601927995681763e-02 -4.247796908020973206e-02
8.444730043411254883e-01 -3.415076434612274170e-02 -7.304234057664871216e-02
6.997101902961730957e-01 1.344111859798431396e-01 1.063904315233230591e-01
8.625116348266601562e-01 1.603047251701354980e-01 -3.650262579321861267e-02
5.243958234786987305e-01 7.319431751966476440e-02 -8.864702284336090088e-02
8.538324236869812012e-01 1.257866472005844116e-01 -6.087497994303703308e-02
8.297315835952758789e-01 -2.521942555904388428e-02 6.658397614955902100e-02
6.910061240196228027e-01 -9.157530218362808228e-02 3.750782459974288940e-02
5.016366839408874512e-01 1.480409055948257446e-01 4.736397042870521545e-02
6.066843271255493164e-01 2.598726376891136169e-02 -1.111683472990989685e-01
4.892891347408294678e-01 1.018547490239143372e-01 4.113263264298439026e-02
8.524705171585083008e-01 1.804913431406021118e-01 -2.854244410991668701e-02
6.392709612846374512e-01 -1.087401583790779114e-01 -5.229769274592399597e-02
5.830036401748657227e-01 2.068336606025695801e-01 -6.349614262580871582e-02
6.568130850791931152e-01 -1.184956505894660950e-01 -2.328908070921897888e-02
7.950515747070312500e-01 2.106566429138183594e-01 -4.040564969182014465e-02
7.811945080757141113e-01 -3.476784378290176392e-02 7.304386794567108154e-02
4.816830754280090332e-01 1.374073028564453125e-01 3.046593442559242249e-02
6.673614382743835449e-01 1.884755492210388184e-01 9.560392051935195923e-02
6.407483220100402832e-01 1.540493369102478027e-01 -9.636355191469192505e-02
6.973951458930969238e-01 2.059311568737030029e-01 -7.074234634637832642e-02
5.310276746749877930e-01 1.560359001159667969e-01 6.496869027614593506e-02
6.272137165069580078e-01 1.239590048789978027e-01 -1.043998971581459045e-01
7.289624214172363281e-01 2.527287602424621582e-01 -2.155421674251556396e-02
7.642582058906555176e-01 2.352580726146697998e-01 -3.013440594077110291e-02
5.832237005233764648e-01 -6.584265083074569702e-02 2.513993531465530396e-02
6.191391944885253906e-01 -9.901664406061172485e-02 4.096530377864837646e-03
7.413301467895507812e-01 2.978287637233734131e-03 9.097056835889816284e-02
8.787178993225097656e-01 1.762331128120422363e-01 6.009198725223541260e-03
8.111767172813415527e-01 -7.686369866132736206e-02 3.915051370859146118e-02
9.142102599143981934e-01 2.010378614068031311e-02 -2.872412651777267456e-02
7.608628869056701660e-01 -4.055274277925491333e-02 -9.914842993021011353e-02
7.169901728630065918e-01 1.871851384639739990e-01 9.702551364898681641e-02
6.081812381744384766e-01 -5.008026957511901855e-02 4.940968379378318787e-02
8.029351234436035156e-01 -1.043128296732902527e-01 -4.314005747437477112e-02
7.064288258552551270e-01 5.727144330739974976e-02 1.033824309706687927e-01
9.140540957450866699e-01 -6.852030754089355469e-03 9.674242697656154633e-03
7.632316350936889648e-01 1.251623779535293579e-01 -9.450921416282653809e-02
4.991604685783386230e-01 3.620108217000961304e-02 -7.204304635524749756e-02
8.752032518386840820e-01 -1.791495829820632935e-02 -5.911802873015403748e-02
6.765654087066650391e-01 2.700667679309844971e-01 1.693805679678916931e-03
7.278347611427307129e-01 -4.267289489507675171e-02 -1.034440249204635620e-01
6.123481988906860352e-01 6.776946038007736206e-02 9.310065209865570068e-02
5.528643727302551270e-01 7.713117450475692749e-02 -9.883379191160202026e-02
5.294992327690124512e-01 -1.117819547653198242e-02 -7.818687707185745239e-02
6.252214908599853516e-01 2.092714011669158936e-01 -6.919638812541961670e-02
5.649720430374145508e-01 4.868393391370773315e-02 7.546196132898330688e-02
6.701096296310424805e-01 -4.790530353784561157e-02 6.595583260059356689e-02
7.940806746482849121e-01 -1.103251203894615173e-01 -9.966564830392599106e-04
6.114835143089294434e-01 1.560854613780975342e-01 9.373721480369567871e-02
8.014011383056640625e-01 1.420449614524841309e-01 9.550376236438751221e-02
7.299542427062988281e-01 8.094375580549240112e-02 -1.095843687653541565e-01
7.877231836318969727e-01 -3.748934715986251831e-02 -9.378856420516967773e-02
9.118115305900573730e-01 1.199588105082511902e-01 -1.933128107339143753e-03
7.382811903953552246e-01 2.481223046779632568e-01 5.850928276777267456e-02
7.066589593887329102e-01 7.621598243713378906e-02 1.057372540235519409e-01
5.806022286415100098e-01 2.248886525630950928e-01 6.094721704721450806e-02
4.894081354141235352e-01 -5.799852311611175537e-03 -2.858755365014076233e-02
8.054173588752746582e-01 -4.245054721832275391e-02 6.463499367237091064e-02
8.878629803657531738e-01 1.607986986637115479e-01 -3.431516699492931366e-03
5.889062881469726562e-01 -5.038531869649887085e-02 -8.811973035335540771e-02
5.685976147651672363e-01 2.084342017769813538e-02 -1.024407744407653809e-01
8.772839903831481934e-01 1.782008707523345947e-01 2.603259310126304626e-02
6.879074573516845703e-01 -1.082079485058784485e-01 -6.681352108716964722e-02
9.154105782508850098e-01 9.615217894315719604e-02 -1.521365251392126083e-02
6.834651827812194824e-01 -1.172852888703346252e-01 -5.205708742141723633e-02
5.192083120346069336e-01 5.677117407321929932e-02 -8.641739934682846069e-02
7.568269371986389160e-01 2.469840049743652344e-01 5.298890545964241028e-02
5.476115345954895020e-01 5.373517423868179321e-02 6.951805204153060913e-02
6.334371566772460938e-01 4.636754468083381653e-02 -1.148029416799545288e-01
8.265203237533569336e-01 1.390220820903778076e-01 -6.942205131053924561e-02
7.750186324119567871e-01 -1.111458167433738708e-01 8.551781997084617615e-03
5.601421594619750977e-01 7.380452752113342285e-02 7.836037129163742065e-02
8.503296971321105957e-01 8.644451946020126343e-02 8.485337346792221069e-02
7.767171859741210938e-01 -1.083196476101875305e-01 -5.275546759366989136e-02
4.668621420860290527e-01 1.051533222198486328e-01 1.374902110546827316e-02
6.622584462165832520e-01 4.717562720179557800e-02 -1.161916106939315796e-01
8.974490165710449219e-01 1.450557410717010498e-01 -5.855128169059753418e-03
6.437108516693115234e-01 -5.043150484561920166e-02 -1.005312278866767883e-01
4.635058641433715820e-01 1.230332329869270325e-01 -2.319656312465667725e-02
5.838507413864135742e-01 6.345459818840026855e-02 -1.074092388153076172e-01
5.747542381286621094e-01 1.641754209995269775e-01 -8.389587700366973877e-02
8.618672490119934082e-01 6.013680994510650635e-02 7.868545502424240112e-02
8.116922974586486816e-01 -1.367218047380447388e-02 -9.179642051458358765e-02
8.435941338539123535e-01 4.241621494293212891e-02 8.320477604866027832e-02
5.696055889129638672e-01 2.508623600006103516e-01 1.670545339584350586e-02
9.104870557785034180e-01 5.351898074150085449e-02 -3.553499653935432434e-02
8.700172901153564453e-01 7.465451210737228394e-02 7.593102008104324341e-02
6.457286477088928223e-01 2.698616087436676025e-01 3.902995958924293518e-03
7.042894959449768066e-01 7.902026921510696411e-02 -1.124827489256858826e-01
7.030844092369079590e-01 -1.169569119811058044e-01 5.865925922989845276e-03
8.107768893241882324e-01 8.082382380962371826e-02 9.656200557947158813e-02
5.371128916740417480e-01 1.721524149179458618e-01 6.434518098831176758e-02
6.523369550704956055e-01 -8.362103253602981567e-02 -8.449544757604598999e-02
9.235103726387023926e-01 3.748101368546485901e-02 2.012960612773895264e-02
6.053951978683471680e-01 2.088855803012847900e-01 7.808764278888702393e-02
7.043840289115905762e-01 -1.070072278380393982e-01 -6.886005401611328125e-02
6.102929711341857910e-01 2.022951543331146240e-01 -7.168652117252349854e-02
6.039303541183471680e-01 -9.213503450155258179e-02 4.989159293472766876e-03
6.998522281646728516e-01 2.353383600711822510e-02 9.636201709508895874e-02
6.190295219421386719e-01 -1.073339954018592834e-01 -2.220587804913520813e-02
7.429959177970886230e-01 -8.094059675931930542e-02 -8.577686548233032227e-02
7.536290884017944336e-01 -1.069601848721504211e-01 -6.268925219774246216e-02
6.106896996498107910e-01 2.557763457298278809e-01 4.323914647102355957e-02
4.603829979896545410e-01 7.881317287683486938e-02 -2.276789769530296326e-02
9.260914921760559082e-01 6.656003743410110474e-02 1.307213958352804184e-02
5.091965198516845703e-01 -2.842595428228378296e-02 -7.079210598021745682e-03
8.611953854560852051e-01 1.947529166936874390e-01 5.857222713530063629e-03
5.509585142135620117e-01 -3.877957910299301147e-02 -7.707180827856063843e-02
4.844671487808227539e-01 1.045298576354980469e-02 -1.332910032942891121e-03
7.426115274429321289e-01 2.148092985153198242e-01 -5.668169632554054260e-02
7.232326269149780273e-01 5.725349485874176025e-02 -1.128658279776573181e-01
4.861181974411010742e-01 1.221186667680740356e-01 3.777629137039184570e-02
7.196370363235473633e-01 1.253218650817871094e-01 1.070194616913795471e-01
6.317631602287292480e-01 1.398194730281829834e-01 9.947810322046279907e-02
7.813902497291564941e-01 1.861840039491653442e-01 -6.388285011053085327e-02
7.984487414360046387e-01 1.598945707082748413e-01 -7.166101783514022827e-02
8.111405372619628906e-01 -9.021570533514022827e-02 2.501775324344635010e-02
5.878247022628784180e-01 2.573581635951995850e-01 2.175273373723030090e-02
8.971257805824279785e-01 4.378117620944976807e-02 -5.000702664256095886e-02
6.008453965187072754e-01 1.096993535757064819e-01 -1.046422645449638367e-01
5.663630962371826172e-01 -5.659929662942886353e-02 2.343884855508804321e-02
6.253662705421447754e-01 2.629008889198303223e-01 -1.194685790687799454e-02
5.294890403747558594e-01 -4.689926654100418091e-02 -2.065726090222597122e-03
7.558929920196533203e-01 2.469125017523765564e-02 9.615192562341690063e-02
5.646109580993652344e-01 2.225784659385681152e-01 5.481230095028877258e-02
5.478039979934692383e-01 -6.607825309038162231e-02 -4.370212927460670471e-02
8.666714429855346680e-01 1.796458065509796143e-01 -1.348988246172666550e-02
9.150838255882263184e-01 6.767489016056060791e-02 -2.706667408347129822e-02
7.616610527038574219e-01 1.662111133337020874e-01 9.837869554758071899e-02
7.062526941299438477e-01 2.543964982032775879e-01 -2.596514299511909485e-02
8.570345044136047363e-01 3.613307699561119080e-02 -7.685277611017227173e-02
8.601909875869750977e-01 1.919280290603637695e-01 3.837481886148452759e-02
8.548550605773925781e-01 -2.118729799985885620e-02 -7.135183364152908325e-02
7.339476346969604492e-01 -1.139632239937782288e-01 1.240392681211233139e-02
6.214740276336669922e-01 -8.660880476236343384e-02 2.317978814244270325e-02
7.192116975784301758e-01 -7.359462231397628784e-02 5.435960367321968079e-02
7.675462365150451660e-01 2.048831284046173096e-01 8.388905227184295654e-02
4.664098918437957764e-01 1.244715750217437744e-01 9.250028058886528015e-03
7.047360539436340332e-01 1.532655656337738037e-01 -9.484358876943588257e-02
7.366896867752075195e-01 4.145980998873710632e-02 -1.119872555136680603e-01
7.439376115798950195e-01 -4.887101054191589355e-02 6.940206140279769897e-02
6.753140091896057129e-01 2.334737181663513184e-01 7.662536948919296265e-02
4.736469388008117676e-01 4.110679402947425842e-02 5.489889532327651978e-03
7.148630619049072266e-01 2.422894835472106934e-01 -3.899569809436798096e-02
8.554909825325012207e-01 -6.730289012193679810e-02 2.427383512258529663e-02
6.477123498916625977e-01 1.398283541202545166e-01 -1.011994779109954834e-01
7.168648242950439453e-01 9.082607924938201904e-02 -1.096260473132133484e-01
7.192162275314331055e-01 9.496320784091949463e-02 1.071514561772346497e-01
8.158978223800659180e-01 1.772756874561309814e-02 -9.373938292264938354e-02
8.207468390464782715e-01 3.667712211608886719e-02 -9.229534864425659180e-02
6.582369208335876465e-01 -3.009221702814102173e-02 7.315540313720703125e-02
5.879986882209777832e-01 1.977968811988830566e-01 7.736924290657043457e-02
6.855657100677490234e-01 1.503376513719558716e-01 1.043171584606170654e-01
7.261041998863220215e-01 1.819036155939102173e-01 -7.998764514923095703e-02
5.228583812713623047e-01 -4.692250490188598633e-02 -1.973006129264831543e-02
8.496277332305908203e-01 -8.599003404378890991e-02 -5.688868463039398193e-03
7.781027555465698242e-01 2.214867174625396729e-01 7.067676633596420288e-02
6.514197587966918945e-01 -6.948264688253402710e-02 -9.294253587722778320e-02
5.569075942039489746e-01 -6.335101276636123657e-02 7.513950578868389130e-03
6.186145544052124023e-01 1.819342970848083496e-01 9.025852382183074951e-02
5.889819860458374023e-01 1.983097940683364868e-02 7.588425278663635254e-02
5.861368179321289062e-01 -3.840263187885284424e-02 4.832644015550613403e-02
5.828255414962768555e-01 4.174366220831871033e-02 -1.074379980564117432e-01
8.614284992218017578e-01 1.341287344694137573e-01 7.451041042804718018e-02
5.392391085624694824e-01 2.091295421123504639e-01 4.871031269431114197e-02
5.358324646949768066e-01 -2.720654755830764771e-02 2.699566259980201721e-02
7.310785055160522461e-01 1.488378942012786865e-01 1.044640392065048218e-01
6.367166042327880859e-01 -1.117034181952476501e-01 -1.311918348073959351e-02
6.626047492027282715e-01 1.259692013263702393e-01 -1.052288934588432312e-01
6.059077978134155273e-01 -6.589636951684951782e-02 -8.498492836952209473e-02
8.083887100219726562e-01 1.746686249971389771e-01 8.518563956022262573e-02
8.726000785827636719e-01 -4.966212809085845947e-02 -4.519531503319740295e-02
5.165596604347229004e-01 -2.380351722240447998e-02 1.146571431308984756e-02
9.037334322929382324e-01 1.274863928556442261e-01 3.829172998666763306e-02
8.201012015342712402e-01 1.048079878091812134e-01 -8.322536945343017578e-02
5.097246766090393066e-01 9.332785010337829590e-02 -7.974087446928024292e-02
8.595628738403320312e-01 -4.910744726657867432e-02 3.897971659898757935e-02
7.474043965339660645e-01 1.543414294719696045e-01 1.024296879768371582e-01
5.280274152755737305e-01 2.208943963050842285e-01 -2.020773291587829590e-02
6.478524804115295410e-01 -5.116483569145202637e-02 6.000876426696777344e-02
7.461502552032470703e-01 6.050100550055503845e-02 1.033622473478317261e-01
6.669794917106628418e-01 2.248160168528556824e-02 9.328193962574005127e-02
6.427333950996398926e-01 2.075643241405487061e-01 -7.150308042764663696e-02
7.846202850341796875e-01 1.497080326080322266e-01 -8.062392473220825195e-02
7.818380594253540039e-01 1.952972263097763062e-02 9.225991368293762207e-02
5.970796942710876465e-01 1.809276938438415527e-01 -8.100852370262145996e-02
6.847862601280212402e-01 -2.340098470449447632e-02 -1.104714199900627136e-01
7.022276520729064941e-01 2.644506990909576416e-01 -8.843386545777320862e-03
5.647062063217163086e-01 -8.986398577690124512e-03 5.524970218539237976e-02
7.432480454444885254e-01 9.185460209846496582e-02 -1.059422269463539124e-01
5.017929077148437500e-01 -2.309302985668182373e-02 -3.217816725373268127e-02
7.272018790245056152e-01 2.343333959579467773e-01 7.373040169477462769e-02
7.121794819831848145e-01 -2.134123444557189941e-02 -1.098173558712005615e-01
8.972992897033691406e-01 4.078899323940277100e-02 5.536933243274688721e-02
8.843439221382141113e-01 -2.046490460634231567e-02 4.141263291239738464e-02
6.515693664550781250e-01 1.179585233330726624e-02 8.809204399585723877e-02
6.215587258338928223e-01 1.541265398263931274e-01 -9.504346549510955811e-02
5.601307153701782227e-01 -5.883970111608505249e-02 -6.791584193706512451e-02
5.923873186111450195e-01 -9.259339421987533569e-02 -4.770925268530845642e-02
5.863182544708251953e-01 2.316337823867797852e-01 -4.429491236805915833e-02
6.803137660026550293e-01 1.744613200426101685e-01 -8.831630647182464600e-02
4.844036400318145752e-01 1.684314906597137451e-01 -2.952243760228157043e-02
7.042365074157714844e-01 2.695442438125610352e-01 1.321980077773332596e-02
8.450822830200195312e-01 6.759912520647048950e-02 -8.017241954803466797e-02
7.117006778717041016e-01 -4.054420441389083862e-02 7.369202375411987305e-02
7.532762289047241211e-01 4.910109564661979675e-02 -1.091289743781089783e-01
7.649074792861938477e-01 1.899539977312088013e-01 9.082437306642532349e-02
7.848951816558837891e-01 6.018333137035369873e-02 -1.016601026058197021e-01
8.086187839508056641e-01 1.296189278364181519e-01 -8.010091632604598999e-02
6.802175045013427734e-01 4.840090870857238770e-03 8.960284292697906494e-02
8.854286074638366699e-01 1.475913822650909424e-01 5.050678178668022156e-02
7.100728750228881836e-01 1.705716401338577271e-01 -8.747263252735137939e-02
7.180221676826477051e-01 -8.223354071378707886e-02 -8.789689093828201294e-02
8.017036318778991699e-01 9.513752162456512451e-02 9.894769638776779175e-02
