6.270125508308410645e-01 -2.037482857704162598e-01 3.748466446995735168e-02
9.297099709510803223e-01 9.854869544506072998e-02 -2.534944117069244385e-01
3.133001327514648438e-01 -2.389921806752681732e-02 3.971219360828399658e-01
1.058277964591979980e+00 1.118654981255531311e-01 7.881743460893630981e-02
5.923919677734375000e-01 2.569460570812225342e-01 -1.865066029131412506e-02
7.965482473373413086e-01 -1.589730679988861084e-01 1.097825095057487488e-01
9.732478857040405273e-02 1.281349062919616699e-01 6.005704402923583984e-02
8.626339435577392578e-01 -1.433768123388290405e-01 1.837996020913124084e-02
2.382357716560363770e-01 3.871787339448928833e-02 3.665232360363006592e-01
9.535113573074340820e-01 -7.490642368793487549e-02 1.514397561550140381e-01
5.256823301315307617e-01 2.397009432315826416e-01 1.660186797380447388e-01
7.614753246307373047e-01 2.487964183092117310e-01 -3.515000641345977783e-02
4.545160531997680664e-01 -1.015106216073036194e-02 4.222169816493988037e-01
8.167922496795654297e-01 1.923388540744781494e-01 -2.116657197475433350e-01
5.812411308288574219e-01 -6.931814551353454590e-02 3.894706666469573975e-01
2.422571182250976562e-03 -6.591167300939559937e-02 7.354253530502319336e-02
7.581260204315185547e-01 -1.705022752285003662e-01 -7.263936847448348999e-02
4.424794018268585205e-01 2.447114437818527222e-01 5.223421752452850342e-02
2.787911891937255859e-01 2.054238617420196533e-01 -2.755670435726642609e-02
8.739045858383178711e-01 1.293646395206451416e-01 -2.666900753974914551e-01
6.920833587646484375e-01 -1.747197061777114868e-01 1.706210076808929443e-01
4.690667390823364258e-01 -1.840745508670806885e-01 2.332238703966140747e-01
3.848123252391815186e-01 -6.075237691402435303e-02 3.973608911037445068e-01
7.995814085006713867e-02 -1.234230250120162964e-01 -6.495503336191177368e-02
9.855332374572753906e-01 1.628539711236953735e-01 1.369571685791015625e-01
2.025520503520965576e-01 -2.757158316671848297e-02 -2.716257870197296143e-01
1.330678462982177734e-01 8.211112022399902344e-02 2.639611065387725830e-01
2.647365331649780273e-01 1.989205330610275269e-01 1.183934509754180908e-01
7.227426767349243164e-01 -8.518805354833602905e-02 3.341039717197418213e-01
4.293190836906433105e-01 -5.226760357618331909e-02 -3.429581522941589355e-01
3.312693834304809570e-01 2.107065469026565552e-01 -8.927913010120391846e-02
5.957316160202026367e-01 -2.016910463571548462e-01 -6.631982326507568359e-02
4.754841029644012451e-01 1.101426109671592712e-01 -3.335360884666442871e-01
6.899285316467285156e-01 -7.417042553424835205e-02 3.579761087894439697e-01
1.018958687782287598e+00 1.331169754266738892e-01 1.383676975965499878e-01
3.324387371540069580e-01 -1.915167123079299927e-01 1.921617090702056885e-01
7.760831117630004883e-01 9.195984154939651489e-02 -3.297370672225952148e-01
9.572271704673767090e-01 1.694482713937759399e-01 -1.473925113677978516e-01
4.764344096183776855e-01 -2.152833789587020874e-01 7.485005259513854980e-02
1.399134695529937744e-01 -1.378866732120513916e-01 -1.187807396054267883e-01
3.637159764766693115e-01 1.374118179082870483e-01 3.415358662605285645e-01
9.032765030860900879e-01 -2.287203632295131683e-02 -2.579832673072814941e-01
3.763559758663177490e-01 2.330894321203231812e-01 5.486864596605300903e-02
3.628036081790924072e-01 -2.137353569269180298e-01 7.932256907224655151e-03
6.662853956222534180e-01 1.029916629195213318e-01 -3.457624316215515137e-01
7.835727930068969727e-01 -1.336312741041183472e-01 -1.836194545030593872e-01
2.217677235603332520e-01 1.420708149671554565e-01 2.544663548469543457e-01
1.543563008308410645e-01 -1.225513815879821777e-01 -1.629558056592941284e-01
7.828271389007568359e-01 2.480275034904479980e-01 5.098018795251846313e-03
4.382146894931793213e-01 -6.245041266083717346e-03 -3.593905866146087646e-01
5.833735466003417969e-01 -1.965512186288833618e-01 1.560653746128082275e-01
9.343841671943664551e-02 -1.433135271072387695e-01 1.122761443257331848e-01
6.538014411926269531e-01 -4.598923772573471069e-02 -3.451896309852600098e-01
8.070402145385742188e-01 6.957644224166870117e-02 3.576912581920623779e-01
7.283385992050170898e-01 2.531743943691253662e-01 -2.211076207458972931e-02
9.867081046104431152e-01 1.715188026428222656e-01 -9.602938592433929443e-02
7.534136176109313965e-01 2.281232625246047974e-01 1.837591379880905151e-01
2.143299877643585205e-01 1.071851029992103577e-01 -2.222455143928527832e-01
4.184043407440185547e-02 -1.119280457496643066e-01 6.392719224095344543e-03
6.403915882110595703e-01 1.278931647539138794e-01 3.747623264789581299e-01
7.001317143440246582e-01 2.006044983863830566e-01 2.705247104167938232e-01
1.327930688858032227e-01 -1.477395445108413696e-01 -8.315208554267883301e-02
7.603570222854614258e-01 -1.751374900341033936e-01 -2.583127282559871674e-02
9.254704117774963379e-01 1.015264466404914856e-01 2.749922871589660645e-01
6.535116434097290039e-01 -8.347156643867492676e-02 -3.162372112274169922e-01
9.518235921859741211e-01 1.886329352855682373e-01 -1.021610125899314880e-01
5.364446640014648438e-01 -2.121682912111282349e-01 -1.845077984035015106e-02
1.702544093132019043e-01 -1.785631328821182251e-01 8.229877799749374390e-02
5.430124998092651367e-01 1.903488300740718842e-02 -3.718052804470062256e-01
6.315823197364807129e-01 2.364057898521423340e-01 1.902309507131576538e-01
1.653017401695251465e-01 5.653198808431625366e-02 3.147935271263122559e-01
6.638392806053161621e-01 2.489657551050186157e-01 -8.883893489837646484e-02
7.256017327308654785e-01 -2.480370737612247467e-02 -3.407064378261566162e-01
9.301105737686157227e-01 1.513698399066925049e-01 -2.054083943367004395e-01
7.044198513031005859e-01 1.435316950082778931e-01 3.486286401748657227e-01
9.391857385635375977e-01 2.083468586206436157e-01 2.181371487677097321e-02
8.062087297439575195e-01 2.423112839460372925e-01 6.418479979038238525e-02
6.040013432502746582e-01 2.282607555389404297e-01 -1.719565391540527344e-01
7.397609353065490723e-01 2.502073347568511963e-01 7.983358204364776611e-02
3.847293853759765625e-01 2.189889699220657349e-01 -1.100113913416862488e-01
1.068040013313293457e+00 1.001739427447319031e-01 -5.428312718868255615e-02
-7.390975952148437500e-04 -3.755625337362289429e-02 -1.551103778183460236e-02
3.033955097198486328e-01 -1.871550530195236206e-01 -1.195430681109428406e-01
9.180788993835449219e-01 3.441844880580902100e-02 -2.730582058429718018e-01
1.078378915786743164e+00 5.400968343019485474e-02 -4.209189116954803467e-02
4.590579271316528320e-01 2.528722025454044342e-02 4.242623746395111084e-01
8.595716953277587891e-01 2.091522961854934692e-01 -1.451284736394882202e-01
1.585679650306701660e-01 -2.945349924266338348e-02 -2.422182410955429077e-01
9.510750770568847656e-01 -8.716895431280136108e-02 -9.938511997461318970e-02
6.891500949859619141e-01 1.825189590454101562e-01 -2.648246586322784424e-01
3.579126000404357910e-01 -2.046648710966110229e-01 -7.242068648338317871e-02
1.483821570873260498e-01 1.259943544864654541e-01 2.080711424350738525e-01
5.426605343818664551e-01 -1.539180576801300049e-01 2.924267351627349854e-01
9.350248575210571289e-01 5.996751040220260620e-02 2.814740240573883057e-01
5.731532573699951172e-01 2.454402595758438110e-01 -1.020398214459419250e-01
2.196466922760009766e-01 6.191173195838928223e-02 3.459665775299072266e-01
3.993037641048431396e-01 -1.861429214477539062e-01 2.257757633924484253e-01
7.436082363128662109e-01 4.271114990115165710e-02 -3.503844738006591797e-01
2.395586669445037842e-01 -8.949740231037139893e-02 3.387831151485443115e-01
9.209321141242980957e-01 1.444131880998611450e-01 2.416299283504486084e-01
7.342049479484558105e-01 1.225235909223556519e-01 -3.224354684352874756e-01
2.797493636608123779e-01 -1.939310431480407715e-01 -7.499538362026214600e-02
8.251564502716064453e-01 -8.403162658214569092e-02 2.769982218742370605e-01
9.383127689361572266e-01 -1.060367673635482788e-01 -3.695899248123168945e-02
7.210603356361389160e-01 -1.393637657165527344e-01 -2.115504592657089233e-01
7.335388064384460449e-01 2.367818355560302734e-01 -1.267696619033813477e-01
5.418083071708679199e-01 -1.713761836290359497e-01 -1.998970806598663330e-01
1.344715058803558350e-01 1.497203558683395386e-01 1.786551624536514282e-02
6.934643983840942383e-01 2.512185573577880859e-01 -6.644752621650695801e-02
6.956985592842102051e-01 2.484123855829238892e-01 1.224013864994049072e-01
8.278540372848510742e-01 2.333025187253952026e-01 1.030420288443565369e-01
3.998584747314453125e-01 -9.904431551694869995e-02 3.709611594676971436e-01
3.676593303680419922e-03 -3.617523610591888428e-02 1.327641457319259644e-01
8.722114562988281250e-01 -3.602065891027450562e-02 2.950067818164825439e-01
1.124867498874664307e-01 2.703362330794334412e-02 -1.986348628997802734e-01
3.183828592300415039e-01 -1.022618785500526428e-01 3.535751402378082275e-01
2.879350185394287109e-01 1.535088866949081421e-01 -2.089164853096008301e-01
5.773980617523193359e-01 2.480979412794113159e-01 1.370091885328292847e-01
6.300836801528930664e-02 -7.293178141117095947e-02 -1.244251504540443420e-01
9.501661062240600586e-01 6.227963417768478394e-02 -2.499106377363204956e-01
5.690001845359802246e-01 1.959391385316848755e-01 -2.438865751028060913e-01
9.380558133125305176e-02 1.154012829065322876e-01 1.354939341545104980e-01
9.119064807891845703e-01 -1.219635009765625000e-01 8.743168786168098450e-03
7.004481554031372070e-01 2.201116383075714111e-01 2.268259078264236450e-01
7.321789860725402832e-02 -1.351965963840484619e-01 6.962787359952926636e-03
8.709042072296142578e-01 2.254208028316497803e-01 8.566693216562271118e-02
6.717001199722290039e-01 -1.798279732465744019e-01 -1.231723949313163757e-01
3.225734233856201172e-01 -1.648651957511901855e-01 -1.891293227672576904e-01
5.158304572105407715e-01 2.464947402477264404e-01 1.250412762165069580e-01
9.866681694984436035e-02 9.502100944519042969e-02 2.011876106262207031e-01
9.587285518646240234e-01 -2.868082560598850250e-02 -2.030065953731536865e-01
1.807243525981903076e-01 -1.219449192285537720e-01 2.710443735122680664e-01
4.267849922180175781e-01 1.459760367870330811e-01 -2.872967123985290527e-01
1.910685598850250244e-01 1.204727143049240112e-01 -1.835152357816696167e-01
7.358508706092834473e-01 -1.282085925340652466e-01 2.647923827171325684e-01
4.609267711639404297e-01 2.438558340072631836e-01 1.002970561385154724e-01
5.026026964187622070e-01 1.971566081047058105e-01 -2.293329387903213501e-01
8.200185298919677734e-01 -7.470497861504554749e-03 -3.150194287300109863e-01
1.779869794845581055e-01 1.703111082315444946e-01 2.945415675640106201e-03
3.511869907379150391e-01 8.787477761507034302e-02 3.834670186042785645e-01
2.178166806697845459e-01 1.841979771852493286e-01 -2.632097713649272919e-02
4.114438891410827637e-01 -2.160339653491973877e-01 6.296209990978240967e-02
4.792889952659606934e-02 8.765266835689544678e-02 7.438618689775466919e-03
2.962620258331298828e-01 -1.958987563848495483e-01 1.550703644752502441e-01
1.516523361206054688e-01 1.088180840015411377e-01 2.457200586795806885e-01
5.786664485931396484e-01 1.650435850024223328e-02 -3.719395995140075684e-01
4.735984206199645996e-01 2.108427137136459351e-01 2.464549690485000610e-01
2.704756855964660645e-01 1.924861371517181396e-01 -8.867751806974411011e-02
2.705523669719696045e-01 -2.033832669258117676e-01 5.446571856737136841e-02
5.503637790679931641e-01 2.563477754592895508e-01 2.966653183102607727e-02
2.139325737953186035e-01 -1.074589937925338745e-01 3.092250227928161621e-01
6.312316656112670898e-02 7.998823374509811401e-02 -7.307725399732589722e-02
9.027861952781677246e-01 6.430541723966598511e-02 3.051382005214691162e-01
3.872509598731994629e-01 2.217206954956054688e-01 1.648152172565460205e-01
6.052795648574829102e-01 1.759602427482604980e-01 3.252913057804107666e-01
4.025123417377471924e-01 5.012582987546920776e-02 -3.482138216495513916e-01
1.077831864356994629e+00 4.840141534805297852e-02 5.003442615270614624e-02
6.028075218200683594e-01 2.525362074375152588e-01 1.120411083102226257e-01
2.628579437732696533e-01 2.037045657634735107e-01 2.012560144066810608e-02
4.734717309474945068e-01 1.630497872829437256e-01 -2.785421609878540039e-01
3.081188201904296875e-01 7.778359949588775635e-02 -3.035364747047424316e-01
5.932813882827758789e-01 2.515304982662200928e-01 -7.129932194948196411e-02
6.952933073043823242e-01 2.331039458513259888e-01 1.897841095924377441e-01
1.794701218605041504e-01 -1.690381169319152832e-01 1.597503572702407837e-01
5.441848635673522949e-01 -1.240883171558380127e-01 3.398105204105377197e-01
4.450996220111846924e-01 4.689452797174453735e-02 -3.583234846591949463e-01
8.548102378845214844e-01 2.259351909160614014e-01 -8.394625037908554077e-02
9.064803123474121094e-01 1.856434531509876251e-02 2.998488843441009521e-01
5.307362675666809082e-01 7.880976796150207520e-02 4.127746820449829102e-01
3.295546770095825195e-01 2.190389335155487061e-01 1.038240492343902588e-01
1.070723772048950195e+00 1.355783175677061081e-02 2.518673986196517944e-02
3.823323249816894531e-01 -2.124629318714141846e-01 9.742026776075363159e-02
3.678231239318847656e-01 -1.907091587781906128e-01 2.058986574411392212e-01
4.246449470520019531e-01 -1.241134554147720337e-01 -2.810489833354949951e-01
8.877750635147094727e-01 1.964717358350753784e-01 1.786632984876632690e-01
1.522640287876129150e-01 -9.702039510011672974e-02 2.825974822044372559e-01
1.002544403076171875e+00 1.767549961805343628e-01 1.602548733353614807e-02
2.744124233722686768e-01 -9.055825322866439819e-02 3.511790633201599121e-01
2.733504772186279297e-01 -1.245223432779312134e-01 -2.371915429830551147e-01
3.564326763153076172e-01 -1.908733397722244263e-01 -1.313727349042892456e-01
4.019584357738494873e-01 -1.408685147762298584e-01 3.208477795124053955e-01
5.356693267822265625e-02 9.333463013172149658e-02 8.299543708562850952e-02
8.681118488311767578e-03 3.117148578166961670e-02 -1.230893842875957489e-02
1.950148344039916992e-01 1.730595529079437256e-01 1.198426261544227600e-01
6.430314779281616211e-01 1.582269370555877686e-01 -3.011159896850585938e-01
2.090531885623931885e-01 -8.010144531726837158e-02 -2.498507648706436157e-01
1.011725187301635742e+00 -5.933880805969238281e-02 -9.379459545016288757e-03
7.612169981002807617e-01 1.009311061352491379e-02 3.775601983070373535e-01
8.307144045829772949e-02 -4.168461263179779053e-02 2.631736695766448975e-01
5.824883580207824707e-01 2.377915233373641968e-01 -1.373567581176757812e-01
6.086550354957580566e-01 -1.826698184013366699e-01 -1.490610688924789429e-01
6.057116389274597168e-01 1.960375159978866577e-01 2.927197813987731934e-01
7.545763850212097168e-01 -1.717994958162307739e-01 1.073799282312393188e-01
5.139300823211669922e-01 2.274449020624160767e-01 2.095820456743240356e-01
8.631588816642761230e-01 2.325658351182937622e-01 1.296414248645305634e-02
1.043646812438964844e+00 -2.737160213291645050e-02 -2.031672187149524689e-02
4.568318128585815430e-01 2.246613502502441406e-01 1.984933316707611084e-01
3.123909235000610352e-02 -6.668733805418014526e-02 -7.654700428247451782e-02
5.084089040756225586e-01 -1.907927393913269043e-01 -1.488363146781921387e-01
7.021284103393554688e-01 -1.226328760385513306e-01 2.931484878063201904e-01
8.551324605941772461e-01 -1.283034682273864746e-03 -3.005661368370056152e-01
8.001114130020141602e-01 -6.718139350414276123e-02 -2.812888026237487793e-01
1.857097148895263672e-01 2.576866373419761658e-02 -2.595047354698181152e-01
3.130066394805908203e-02 -9.276472032070159912e-02 1.270736753940582275e-01
8.523874282836914062e-01 5.655419081449508667e-02 3.375130295753479004e-01
6.484408378601074219e-01 7.512813806533813477e-02 -3.601098358631134033e-01
8.247827291488647461e-01 1.937083601951599121e-01 2.327833324670791626e-01
4.582097530364990234e-01 -2.054800838232040405e-01 1.543972343206405640e-01
4.315077662467956543e-01 1.974340379238128662e-01 2.649930119514465332e-01
4.038713872432708740e-01 -1.971405893564224243e-01 1.894458234310150146e-01
2.544776499271392822e-01 -4.688192903995513916e-02 3.710202872753143311e-01
8.163064718246459961e-01 1.652585864067077637e-01 2.838790714740753174e-01
8.017255067825317383e-01 2.215134203433990479e-01 -1.476948112249374390e-01
7.354259490966796875e-02 -1.368245780467987061e-01 7.186421006917953491e-02
1.035401225090026855e-01 -5.444283783435821533e-02 -1.860960423946380615e-01
5.949061512947082520e-01 -2.060586661100387573e-01 -2.724137343466281891e-02
3.956266939640045166e-01 2.112473994493484497e-01 -1.471191793680191040e-01
5.401908159255981445e-01 1.299655884504318237e-01 3.791796267032623291e-01
4.102173447608947754e-01 -2.165922820568084717e-01 2.341494522988796234e-02
4.991204738616943359e-01 -2.094085961580276489e-01 -6.379757076501846313e-02
4.708471298217773438e-01 -1.688307821750640869e-01 -2.100795805454254150e-01
6.106270551681518555e-01 -1.442553400993347168e-01 -2.436986714601516724e-01
6.620791554450988770e-02 8.767236769199371338e-02 1.545178294181823730e-01
1.018165588378906250e+00 -3.895097970962524414e-02 -8.830393850803375244e-02
5.718964338302612305e-01 -1.822436600923538208e-01 -1.635605096817016602e-01
6.785321831703186035e-01 -1.929728835821151733e-01 -3.278402984142303467e-02
8.609496355056762695e-01 -1.375463604927062988e-01 9.737347811460494995e-02
4.383046329021453857e-01 2.300141602754592896e-01 -1.065015122294425964e-01
3.968963027000427246e-01 2.341917008161544800e-01 9.717078506946563721e-02
5.205876231193542480e-01 -2.143383324146270752e-01 5.450988560914993286e-02
7.197158932685852051e-01 1.075018644332885742e-01 3.727716803550720215e-01
6.258624196052551270e-01 -6.778243184089660645e-02 -3.347653448581695557e-01
4.777537882328033447e-01 7.559350132942199707e-02 -3.541800677776336670e-01
6.739933490753173828e-01 -1.908785253763198853e-01 1.044973284006118774e-01
4.930748641490936279e-01 -1.942323446273803711e-01 1.978631019592285156e-01
9.877903461456298828e-01 8.386176079511642456e-02 -2.105582207441329956e-01
9.763649106025695801e-01 1.217849180102348328e-01 2.125747203826904297e-01
3.153896331787109375e-02 -1.048737168312072754e-01 7.041846215724945068e-02
2.173494398593902588e-01 -1.396077126264572144e-01 2.657103538513183594e-01
6.353994011878967285e-01 1.278571933507919312e-01 -3.310726284980773926e-01
8.315210342407226562e-01 4.474453628063201904e-03 3.434099555015563965e-01
9.005545377731323242e-01 2.218231856822967529e-01 -7.237179204821586609e-03
4.052499234676361084e-01 1.730540394783020020e-01 -2.405614405870437622e-01
7.737182974815368652e-01 -1.649687066674232483e-03 -3.353845775127410889e-01
3.881627321243286133e-02 7.160699367523193359e-02 -2.453670091927051544e-02
7.302024364471435547e-01 2.260558605194091797e-01 -1.650132536888122559e-01
8.828799128532409668e-01 1.459197402000427246e-01 2.686266601085662842e-01
6.979854106903076172e-01 5.595324933528900146e-02 3.984047770500183105e-01
1.047255873680114746e+00 5.406919121742248535e-02 1.452746093273162842e-01
9.149087667465209961e-01 -6.278970837593078613e-02 2.273536175489425659e-01
6.690629124641418457e-01 -1.565627753734588623e-01 2.421444952487945557e-01
2.372486889362335205e-01 -1.672639846801757812e-01 -1.370269805192947388e-01
9.511884450912475586e-01 1.576121300458908081e-01 1.940151751041412354e-01
4.727580547332763672e-01 -9.459290653467178345e-02 -3.180695176124572754e-01
1.030732274055480957e+00 2.430251985788345337e-02 -1.535735279321670532e-01
8.182686567306518555e-01 2.275707423686981201e-01 -1.141210272908210754e-01
1.515966951847076416e-01 -1.734596937894821167e-01 2.444117330014705658e-02
8.866444826126098633e-01 -1.208983957767486572e-01 -9.952796250581741333e-02
1.292191147804260254e-01 -1.648479402065277100e-01 6.687596440315246582e-02
5.065557360649108887e-01 1.638002544641494751e-01 3.397735953330993652e-01
1.418712437152862549e-01 5.324967950582504272e-02 -2.119552940130233765e-01
3.632013201713562012e-01 1.718479543924331665e-01 -2.225924134254455566e-01
5.019385814666748047e-01 2.139098048210144043e-01 -1.911578625440597534e-01
9.197879433631896973e-01 -9.281137585639953613e-02 -1.388717740774154663e-01
6.579399704933166504e-01 2.537756264209747314e-01 9.825916588306427002e-02
2.147731184959411621e-01 -1.852917373180389404e-01 -4.557942599058151245e-02
3.475049734115600586e-01 1.787218153476715088e-01 2.682111859321594238e-01
1.637049615383148193e-01 -1.710570007562637329e-01 1.255096346139907837e-01
1.742623448371887207e-01 -1.079721897840499878e-01 -1.997698694467544556e-01
2.541835904121398926e-01 1.462878137826919556e-01 2.725389897823333740e-01
3.843426704406738281e-03 3.237873688340187073e-02 7.384066283702850342e-02
7.191867828369140625e-01 2.399593144655227661e-01 1.551042050123214722e-01
8.434630632400512695e-01 1.675847172737121582e-01 -2.395498007535934448e-01
2.248103320598602295e-01 1.688506901264190674e-01 -1.124345585703849792e-01
1.929014325141906738e-01 -1.671300381422042847e-01 -9.745839238166809082e-02
4.149018526077270508e-01 1.091124489903450012e-01 -3.201422691345214844e-01
2.142609655857086182e-01 -1.921911835670471191e-01 4.750204086303710938e-02
8.014548420906066895e-01 -1.632820367813110352e-01 5.973037332296371460e-02
8.964209556579589844e-01 -5.608736723661422729e-02 -2.307184189558029175e-01
4.999027848243713379e-01 4.585066437721252441e-02 4.231299459934234619e-01
9.970840811729431152e-02 4.412738978862762451e-02 2.656821906566619873e-01
-6.445050239562988281e-03 -3.495402634143829346e-04 1.722178421914577484e-02
6.548405885696411133e-01 -1.697201281785964966e-01 -1.690368056297302246e-01
5.042909979820251465e-01 1.867977529764175415e-01 3.040609657764434814e-01
9.046906232833862305e-01 2.074958980083465576e-01 -1.027289256453514099e-01
2.942523360252380371e-01 1.314561367034912109e-01 3.196845650672912598e-01
7.235850691795349121e-01 -3.260176628828048706e-02 3.757322132587432861e-01
6.819006204605102539e-01 3.251473233103752136e-02 -3.633242547512054443e-01
5.434124469757080078e-01 -4.620730876922607422e-02 4.084900319576263428e-01
4.421842694282531738e-01 -1.384416669607162476e-01 3.267513811588287354e-01
1.276945471763610840e-01 1.457284539937973022e-01 7.323514670133590698e-02
5.433948636054992676e-01 2.486811429262161255e-01 -7.266204059123992920e-02
2.606847286224365234e-01 2.027790695428848267e-01 6.145870685577392578e-02
6.964177489280700684e-01 2.442729622125625610e-01 -1.063430532813072205e-01
5.255664587020874023e-01 1.181796565651893616e-01 -3.349637985229492188e-01
3.855709135532379150e-01 -1.603605002164840698e-01 -2.172019034624099731e-01
5.937209129333496094e-01 7.498778402805328369e-02 4.112723767757415771e-01
5.182542204856872559e-01 8.826894313097000122e-02 -3.534131050109863281e-01
9.633284807205200195e-01 -9.301337599754333496e-02 4.002887383103370667e-02
1.023680210113525391e+00 1.386311352252960205e-01 -1.070223376154899597e-01
1.402617096900939941e-01 3.127181529998779297e-02 3.098212778568267822e-01
3.455252051353454590e-01 2.124229222536087036e-01 1.665646582841873169e-01
1.169692575931549072e-01 -1.499389857053756714e-01 -4.724919795989990234e-02
1.070059835910797119e-01 -1.544879935681819916e-02 2.915439009666442871e-01
8.386044502258300781e-01 6.515343487262725830e-02 -3.156942725181579590e-01
1.034070611000061035e+00 1.983536407351493835e-02 1.566851437091827393e-01
8.925538063049316406e-01 -1.288108527660369873e-01 -3.360338509082794189e-02
1.441718935966491699e-01 1.497294157743453979e-01 1.162085160613059998e-01
1.009836554527282715e+00 -6.054951250553131104e-02 2.996932156383991241e-02
9.698936939239501953e-01 -6.179904937744140625e-02 -1.356716305017471313e-01
6.840420365333557129e-01 8.336184546351432800e-03 4.022576212882995605e-01
6.366282105445861816e-01 -1.955036222934722900e-01 1.190683022141456604e-01
8.128997683525085449e-01 1.009618341922760010e-01 -3.132441341876983643e-01
8.850061893463134766e-01 6.376098841428756714e-02 -2.931582629680633545e-01
8.232907056808471680e-01 -1.576952338218688965e-01 6.696918979287147522e-03
3.294476866722106934e-01 -1.270608454942703247e-01 3.282133042812347412e-01
6.608275771141052246e-01 2.236517816781997681e-01 2.261225730180740356e-01
2.669864892959594727e-01 -1.005442813038825989e-03 3.850970268249511719e-01
8.281310796737670898e-01 -1.115357726812362671e-01 2.279381752014160156e-01
1.997352242469787598e-01 8.812172710895538330e-02 3.131667077541351318e-01
8.158042430877685547e-01 1.318467259407043457e-01 -2.911334633827209473e-01
4.992799162864685059e-01 -2.027156203985214233e-01 1.613181531429290771e-01
5.706592798233032227e-01 1.509179323911666870e-01 -3.086162805557250977e-01
2.015697956085205078e-01 1.194066181778907776e-01 2.762064635753631592e-01
5.776153206825256348e-01 -1.373132504522800446e-02 4.174905121326446533e-01
8.503034114837646484e-01 -1.347437947988510132e-01 1.339906901121139526e-01
3.847842812538146973e-01 -2.110203951597213745e-01 -4.284375905990600586e-02
4.482990205287933350e-01 -2.157945334911346436e-01 -1.078309677541255951e-02
1.925850212574005127e-01 -1.333337277173995972e-01 -1.767063885927200317e-01
4.967928826808929443e-01 -1.419017165899276733e-01 3.196174502372741699e-01
9.675549268722534180e-01 1.093315891921520233e-02 -2.252445369958877563e-01
3.321499228477478027e-01 2.183049768209457397e-01 -4.592563956975936890e-02
6.973623633384704590e-01 2.176542580127716064e-01 -1.956059038639068604e-01
9.741153717041015625e-01 -4.658947139978408813e-02 1.764963269233703613e-01
8.375853300094604492e-01 -4.622181504964828491e-02 3.103311657905578613e-01
5.036411881446838379e-01 1.357621252536773682e-01 3.719796836376190186e-01
5.847768783569335938e-01 2.220551371574401855e-01 2.354605644941329956e-01
1.910908520221710205e-01 1.481818109750747681e-01 2.089310884475708008e-01
5.237938761711120605e-01 2.323871850967407227e-01 -1.422408670186996460e-01
1.320028305053710938e-02 -2.474060095846652985e-02 -6.498208642005920410e-02
5.699372887611389160e-01 1.656580716371536255e-01 3.405177295207977295e-01
1.006159186363220215e+00 1.092247292399406433e-01 1.874811649322509766e-01
7.742092609405517578e-01 9.005197137594223022e-02 3.641429245471954346e-01
7.640239000320434570e-01 2.401402443647384644e-01 -9.601749479770660400e-02
3.178788423538208008e-01 -6.503719091415405273e-02 3.819828331470489502e-01
1.056321382522583008e+00 -2.937441691756248474e-03 -5.586771667003631592e-02
8.986628055572509766e-01 9.309446066617965698e-02 -2.764205634593963623e-01
4.881499111652374268e-01 2.377687692642211914e-01 1.595279723405838013e-01
8.510294556617736816e-01 -5.671142786741256714e-02 -2.632229328155517578e-01
6.365861892700195312e-01 8.215271681547164917e-02 4.031518697738647461e-01
8.830586075782775879e-01 1.147107109427452087e-01 2.966377139091491699e-01
4.149547815322875977e-01 1.179755777120590210e-01 3.758608996868133545e-01
4.883330464363098145e-01 2.575854584574699402e-02 -3.677898049354553223e-01
6.937046647071838379e-01 -1.864732205867767334e-01 -6.512408703565597534e-02
1.468753814697265625e-02 -8.670580387115478516e-02 3.859888762235641479e-02
8.729693293571472168e-01 -1.184006780385971069e-01 1.581034809350967407e-01
3.459812998771667480e-01 6.957057863473892212e-02 -3.233606815338134766e-01
5.962896347045898438e-01 -1.377763599157333374e-01 3.083665370941162109e-01
4.434565007686614990e-01 1.762173920869827271e-01 3.099534809589385986e-01
7.987076640129089355e-01 -1.491704881191253662e-01 -1.206584349274635315e-01
7.171675562858581543e-02 -4.382538050413131714e-02 -1.562290042638778687e-01
7.424817085266113281e-01 2.530464529991149902e-01 2.338738366961479187e-02
6.905449032783508301e-01 9.274400025606155396e-02 3.881036639213562012e-01
2.631783485412597656e-03 1.494436897337436676e-02 1.134613528847694397e-01
7.300803065299987793e-01 1.719828099012374878e-01 -2.728636562824249268e-01
7.519316077232360840e-01 -1.051357835531234741e-01 2.941737473011016846e-01
8.304652571678161621e-01 2.396507710218429565e-01 3.042664565145969391e-02
2.403674423694610596e-01 1.671491265296936035e-01 2.143219262361526489e-01
6.626767516136169434e-01 -4.540722817182540894e-02 3.877074122428894043e-01
3.489867150783538818e-01 -1.060419380664825439e-01 -2.857999801635742188e-01
8.435434103012084961e-01 1.355239748954772949e-01 3.030295670032501221e-01
2.483982145786285400e-01 1.811085045337677002e-01 1.792267709970474243e-01
3.710792660713195801e-01 -1.766289770603179932e-01 -1.776189208030700684e-01
4.028899371623992920e-01 -6.603097543120384216e-03 -3.526035249233245850e-01
4.635155200958251953e-01 -1.180919408798217773e-01 3.538860380649566650e-01
2.408187389373779297e-01 9.266392886638641357e-02 -2.562140822410583496e-01
2.312082052230834961e-02 5.086353793740272522e-02 1.227129697799682617e-01
1.002145648002624512e+00 -5.486749857664108276e-02 9.938049316406250000e-02
2.344618141651153564e-01 -1.417769640684127808e-01 -1.905266791582107544e-01
3.417480885982513428e-01 -2.097020000219345093e-01 9.683273732662200928e-02
6.473201513290405273e-01 -8.695793151855468750e-02 3.595591485500335693e-01
9.194944500923156738e-01 1.308835297822952271e-01 -2.369910329580307007e-01
9.983329176902770996e-01 -6.601490825414657593e-02 6.338769942522048950e-02
8.390522599220275879e-01 -1.501703858375549316e-01 6.336753815412521362e-02
7.285137176513671875e-01 -1.652484089136123657e-01 -1.337975114583969116e-01
2.764160335063934326e-01 7.314483076333999634e-02 3.665812611579895020e-01
7.886193990707397461e-01 -1.687177568674087524e-01 2.498406916856765747e-02
2.375453710556030273e-02 6.372328847646713257e-03 -8.363001048564910889e-02
4.899643361568450928e-01 1.403118818998336792e-01 -3.094862401485443115e-01
6.470881104469299316e-01 2.427989095449447632e-01 -1.211039945483207703e-01
7.705334424972534180e-01 1.603062152862548828e-01 -2.774643599987030029e-01
6.432439088821411133e-01 1.678056865930557251e-01 3.327882587909698486e-01
6.504356861114501953e-01 -1.555698812007904053e-01 -2.081179171800613403e-01
5.294601917266845703e-01 -7.659489661455154419e-02 3.905122578144073486e-01
5.020973682403564453e-01 -6.241340190172195435e-02 -3.445728421211242676e-01
3.211788535118103027e-01 2.193172574043273926e-01 -7.413910701870918274e-03
2.606741487979888916e-01 1.045055985450744629e-01 3.336066007614135742e-01
2.635931670665740967e-01 -1.644175052642822266e-01 -1.616639643907546997e-01
5.208017826080322266e-01 3.791723400354385376e-03 4.250442981719970703e-01
7.351518869400024414e-01 -1.053573191165924072e-01 -2.647660374641418457e-01
7.568793296813964844e-01 -1.760625243186950684e-01 6.272840499877929688e-02
5.391467809677124023e-01 1.960372775793075562e-01 2.912949919700622559e-01
6.244844794273376465e-01 -1.119313202798366547e-02 4.110938310623168945e-01
8.188800811767578125e-01 -1.047003120183944702e-01 -2.180754542350769043e-01
8.218282461166381836e-02 1.149327829480171204e-01 9.398870915174484253e-02
1.540520489215850830e-01 1.424548923969268799e-01 1.710684448480606079e-01
7.787282466888427734e-01 1.488075852394104004e-01 3.199450075626373291e-01
2.679403424263000488e-01 -9.842886030673980713e-02 -2.642502784729003906e-01
5.802168846130371094e-01 -1.028211414813995361e-01 3.592960238456726074e-01
1.059918403625488281e+00 1.239325031638145447e-01 2.800627052783966064e-02
7.829875946044921875e-01 -8.470129221677780151e-02 3.038735091686248779e-01
4.325453042984008789e-01 2.318837344646453857e-01 1.533660739660263062e-01
7.809463143348693848e-02 1.810101233422756195e-02 -1.643532067537307739e-01
7.999548912048339844e-01 2.136751115322113037e-01 2.013087421655654907e-01
1.000216484069824219e+00 -1.635127700865268707e-02 -1.644083410501480103e-01
8.280907273292541504e-01 -1.263434886932373047e-01 -1.622357219457626343e-01
9.248533844947814941e-01 -2.184403389692306519e-01 -3.317352384328842163e-02
1.405242681503295898e-01 -8.566802740097045898e-02 3.164364397525787354e-01
3.677725195884704590e-01 1.089346259832382202e-01 3.833026289939880371e-01
6.084271669387817383e-01 -6.731449812650680542e-02 -4.837107658386230469e-01
4.340297579765319824e-01 -2.595928907394409180e-01 -1.017494648694992065e-01
2.771905660629272461e-01 -2.208413183689117432e-01 1.444911491125822067e-02
-6.208929419517517090e-02 4.723177850246429443e-02 -8.320158720016479492e-02
1.251878142356872559e-01 1.936914324760437012e-01 8.801588416099548340e-02
7.872468233108520508e-02 -1.255709379911422729e-01 -2.329108491539955139e-02
5.499475002288818359e-01 1.449562609195709229e-01 1.836569756269454956e-01
6.512243151664733887e-01 -2.479903027415275574e-02 4.412124454975128174e-01
3.645002543926239014e-01 2.276130765676498413e-02 4.725789427757263184e-01
6.965126991271972656e-01 -2.862290740013122559e-01 7.235249131917953491e-02
1.937189996242523193e-01 2.007289528846740723e-01 9.690501540899276733e-02
2.208320796489715576e-01 2.073729187250137329e-01 -9.957614541053771973e-02
3.010972738265991211e-01 8.191556483507156372e-02 4.187474846839904785e-01
8.655878305435180664e-01 -2.241594642400741577e-01 2.000073194503784180e-01
7.157099246978759766e-01 -2.139548063278198242e-01 -3.304615616798400879e-01
7.993578910827636719e-02 9.458154439926147461e-02 3.012818694114685059e-01
2.668271362781524658e-01 -1.988539248704910278e-01 -1.940056681632995605e-01
5.929405689239501953e-01 -2.812080383300781250e-01 -1.012859046459197998e-01
8.795311450958251953e-01 -2.299299687147140503e-01 -1.387878358364105225e-01
8.843156099319458008e-01 -2.454431354999542236e-01 -3.408176451921463013e-02
2.257124185562133789e-01 4.413456469774246216e-02 4.278284311294555664e-01
7.364308834075927734e-02 -6.576144695281982422e-02 -2.797789275646209717e-01
4.225561320781707764e-01 -8.940438926219940186e-02 -4.947581887245178223e-01
6.819248795509338379e-01 -1.600978374481201172e-01 -4.157658219337463379e-01
8.564513921737670898e-01 -6.755038350820541382e-02 -2.869662642478942871e-01
4.625481665134429932e-01 -1.778568923473358154e-01 -4.053810834884643555e-01
1.028815209865570068e-01 1.971233189105987549e-01 -5.843576416373252869e-02
5.487874150276184082e-02 1.486288011074066162e-01 -2.410510182380676270e-01
6.443631052970886230e-01 -7.230897247791290283e-02 4.623930752277374268e-01
1.882247328758239746e-01 -1.330376863479614258e-01 2.868933379650115967e-01
5.010091066360473633e-01 -1.629167944192886353e-01 4.337661266326904297e-01
6.872882843017578125e-01 1.127139776945114136e-01 6.759622693061828613e-02
6.473870277404785156e-01 1.270511001348495483e-01 8.682209998369216919e-02
3.632057905197143555e-01 1.468415409326553345e-01 3.052823543548583984e-01
2.291637659072875977e-02 -7.464975118637084961e-02 9.450908005237579346e-02
3.645943701267242432e-01 -1.931534558534622192e-01 -3.265831172466278076e-01
2.816328406333923340e-01 -1.882208585739135742e-01 2.547823190689086914e-01
3.606030344963073730e-02 1.575942486524581909e-01 1.318365782499313354e-01
8.273144960403442383e-01 -3.167920559644699097e-02 -2.933945953845977783e-01
7.398384809494018555e-01 -2.210932075977325439e-01 3.189784884452819824e-01
8.430334329605102539e-01 2.816636860370635986e-02 4.921511188149452209e-02
7.652436494827270508e-01 4.768984019756317139e-02 -2.318905889987945557e-01
1.220473051071166992e-01 -1.493677198886871338e-01 -7.280692458152770996e-02
4.517340362071990967e-01 -2.623500227928161621e-01 1.180296018719673157e-01
5.730128288269042969e-01 1.573591530323028564e-01 -4.555425792932510376e-02
-3.457695245742797852e-02 1.300181746482849121e-01 -8.688350766897201538e-02
3.266345262527465820e-01 1.624823510646820068e-01 -3.151670396327972412e-01
7.622432112693786621e-01 7.537092268466949463e-02 -1.031105145812034607e-01
2.560099661350250244e-01 -1.299282610416412354e-01 -3.785032331943511963e-01
2.557371854782104492e-01 2.100136429071426392e-01 -3.599376976490020752e-02
3.855049610137939453e-03 6.768680363893508911e-02 -2.736732959747314453e-01
2.758210301399230957e-01 -1.337187923491001129e-02 4.607946872711181641e-01
8.496198654174804688e-01 -1.065893694758415222e-01 -3.142070770263671875e-01
4.036626517772674561e-01 -1.273743510246276855e-01 4.496369063854217529e-01
4.140760600566864014e-01 2.320514619350433350e-02 -5.007301568984985352e-01
2.586012482643127441e-01 -2.087349444627761841e-01 -1.079825237393379211e-01
8.549747467041015625e-01 -2.115329653024673462e-01 2.423147410154342651e-01
7.025651931762695312e-01 4.974579066038131714e-02 3.034747540950775146e-01
8.774456381797790527e-02 1.647744625806808472e-01 1.791087239980697632e-01
3.376438617706298828e-01 -7.624531537294387817e-02 4.659656584262847900e-01
3.255701959133148193e-01 1.662451326847076416e-01 2.572752237319946289e-01
9.506275653839111328e-01 -1.843040585517883301e-01 -4.650160297751426697e-02
6.047192811965942383e-01 7.279340177774429321e-02 -3.753530979156494141e-01
1.210700869560241699e-01 1.902238875627517700e-01 -1.624624729156494141e-01
1.758088469505310059e-01 1.348234415054321289e-01 3.100762069225311279e-01
2.145533263683319092e-01 -9.812201559543609619e-02 3.752761781215667725e-01
7.558405399322509766e-03 1.641612201929092407e-01 5.053550936281681061e-03
6.591989994049072266e-01 -1.863729022443294525e-02 -4.458207488059997559e-01
3.788221478462219238e-01 2.001926153898239136e-01 -3.271937835961580276e-03
7.703801393508911133e-01 -2.639248073101043701e-01 -1.581633538007736206e-01
4.765958487987518311e-01 -2.447234392166137695e-01 -2.381553351879119873e-01
5.494253039360046387e-01 -2.572918534278869629e-01 2.358004450798034668e-01
6.964098811149597168e-01 -2.484777122735977173e-01 2.720921039581298828e-01
6.008602976799011230e-01 3.761783242225646973e-02 -4.307045340538024902e-01
6.798131465911865234e-01 -2.692988812923431396e-01 -1.836659610271453857e-01
6.051517128944396973e-01 1.457812786102294922e-01 -7.527258992195129395e-02
6.709129810333251953e-01 -2.885578274726867676e-01 -2.040624618530273438e-02
2.304616272449493408e-01 1.153416782617568970e-01 -4.057275354862213135e-01
9.191443920135498047e-01 -5.072194337844848633e-02 1.031588688492774963e-01
6.219329833984375000e-01 -1.727187335491180420e-01 -4.190747439861297607e-01
1.143388748168945312e-01 1.819396317005157471e-01 1.416446119546890259e-01
2.329565286636352539e-01 -1.728136837482452393e-01 -2.472623437643051147e-01
6.569269299507141113e-01 5.540931224822998047e-02 3.393073081970214844e-01
5.770614743232727051e-02 -9.695133566856384277e-02 1.287273317575454712e-01
7.887113094329833984e-01 4.273641109466552734e-02 1.804532259702682495e-01
4.605885148048400879e-01 -1.244524046778678894e-01 -4.732216000556945801e-01
4.256691336631774902e-01 9.538181126117706299e-02 3.956147134304046631e-01
7.628177404403686523e-01 1.450257375836372375e-02 -3.145654797554016113e-01
1.270469129085540771e-01 -2.691920101642608643e-02 3.621989786624908447e-01
9.368553161621093750e-01 -1.927449852228164673e-01 1.102982684969902039e-01
4.806346297264099121e-01 -2.482734173536300659e-01 2.339482158422470093e-01
2.240905910730361938e-01 1.481532156467437744e-01 -3.484994769096374512e-01
7.061945199966430664e-01 -2.818943262100219727e-01 1.151331365108489990e-01
7.803614139556884766e-01 1.443633064627647400e-02 2.762684822082519531e-01
5.452727079391479492e-01 -2.585164904594421387e-01 -2.173327356576919556e-01
8.253476619720458984e-01 -2.691614329814910889e-01 2.486710622906684875e-02
7.673871517181396484e-02 -1.044021695852279663e-01 -1.812479197978973389e-01
1.734760701656341553e-01 2.066408842802047729e-01 1.235176343470811844e-02
8.345511555671691895e-01 -2.592867612838745117e-01 1.135220155119895935e-01
3.251366019248962402e-01 -1.295716762542724609e-01 -4.246262013912200928e-01
5.897635221481323242e-02 -1.083022654056549072e-01 6.388688832521438599e-02
6.462894678115844727e-01 1.308454424142837524e-01 4.475033283233642578e-02
6.234189271926879883e-01 1.410309970378875732e-01 -1.200524810701608658e-02
5.394008755683898926e-02 1.094575673341751099e-01 2.583012282848358154e-01
8.412967920303344727e-01 -4.813626036047935486e-02 2.881713211536407471e-01
2.929826378822326660e-01 -5.024727806448936462e-02 4.604849219322204590e-01
4.330762922763824463e-01 -2.406220734119415283e-01 -2.214414328336715698e-01
1.097255051136016846e-01 -1.250517964363098145e-01 -1.862640976905822754e-01
7.125241756439208984e-01 8.857074379920959473e-02 -1.853467971086502075e-01
3.223094046115875244e-01 -1.444791257381439209e-02 4.757851660251617432e-01
8.055087327957153320e-01 5.194628983736038208e-02 -8.237158507108688354e-02
4.344590008258819580e-01 -2.061390876770019531e-01 -3.363723158836364746e-01
8.311232328414916992e-01 3.014528751373291016e-02 -1.180956512689590454e-01
1.311945021152496338e-01 -1.482200920581817627e-01 1.136318966746330261e-01
2.195361256599426270e-02 1.498989760875701904e-01 -1.872637569904327393e-01
3.198837935924530029e-01 2.031245082616806030e-01 -1.145909801125526428e-01
5.956307053565979004e-01 -2.868378162384033203e-01 2.899309992790222168e-02
5.250315666198730469e-01 1.592811197042465210e-01 -1.801690459251403809e-01
8.869389295578002930e-01 -2.039506435394287109e-01 -1.931477338075637817e-01
7.048061490058898926e-02 1.377199888229370117e-01 2.298811972141265869e-01
2.393464893102645874e-01 1.213827133178710938e-01 3.547478318214416504e-01
5.345169305801391602e-01 -1.248507127165794373e-01 -4.756849110126495361e-01
5.564600229263305664e-02 -1.259687915444374084e-02 2.890409827232360840e-01
9.022060036659240723e-02 -1.668934710323810577e-02 3.298805952072143555e-01
8.310675621032714844e-03 1.556682586669921875e-01 7.646457850933074951e-02
2.118068039417266846e-01 2.070358693599700928e-01 4.496915638446807861e-02
1.451761126518249512e-01 1.486345529556274414e-01 -3.175379633903503418e-01
-1.962351799011230469e-02 1.429641395807266235e-01 3.807938843965530396e-02
-4.764842987060546875e-02 -1.433603465557098389e-03 -5.465973168611526489e-02
1.405957937240600586e-01 -6.756684184074401855e-02 -3.659275174140930176e-01
-5.558517575263977051e-02 1.067025512456893921e-01 -2.771345525979995728e-02
4.740798473358154297e-01 1.833619177341461182e-01 -4.226054996252059937e-02
7.879039645195007324e-01 -1.946409046649932861e-01 3.313563466072082520e-01
5.930300951004028320e-01 1.459467709064483643e-01 8.941765874624252319e-02
1.908986568450927734e-01 1.069160401821136475e-01 -4.037938416004180908e-01
7.210528850555419922e-01 -1.807732135057449341e-01 -3.773429691791534424e-01
5.941253304481506348e-01 -2.363834530115127563e-01 3.142248392105102539e-01
4.521698951721191406e-01 1.305344402790069580e-01 3.154740333557128906e-01
8.726111054420471191e-02 1.019051820039749146e-01 -3.474284708499908447e-01
7.315521240234375000e-01 -1.924064904451370239e-01 3.672714829444885254e-01
2.915609478950500488e-01 1.742366701364517212e-01 2.350109815597534180e-01
1.422954797744750977e-01 2.041415274143218994e-01 -1.851700432598590851e-02
4.148650765419006348e-01 1.917530745267868042e-01 -1.072873398661613464e-01
3.987130820751190186e-01 1.557098925113677979e-01 2.684260308742523193e-01
2.759096026420593262e-01 1.996620595455169678e-01 -1.680918931961059570e-01
6.682872772216796875e-03 -6.987972557544708252e-02 -2.803212776780128479e-02
2.923077344894409180e-01 -1.637146770954132080e-01 3.324662446975708008e-01
4.067372679710388184e-01 1.818389594554901123e-01 -1.990022808313369751e-01
8.452697992324829102e-01 2.096163481473922729e-02 9.775769710540771484e-02
9.073578119277954102e-01 -1.633815765380859375e-01 2.242593169212341309e-01
7.119671106338500977e-01 -2.494397163391113281e-01 -2.480197995901107788e-01
5.958204269409179688e-01 -1.622636616230010986e-01 4.369889199733734131e-01
8.739156723022460938e-01 -1.037807762622833252e-01 -2.800416350364685059e-01
9.935384988784790039e-02 -1.384390592575073242e-01 8.850949816405773163e-03
9.083760976791381836e-01 -2.267681658267974854e-01 8.921825140714645386e-02
9.293296933174133301e-02 -1.211747527122497559e-01 1.343379616737365723e-01
1.807717084884643555e-01 -1.806022375822067261e-01 -5.232857167720794678e-02
9.476811885833740234e-01 -1.757159084081649780e-01 -8.783940970897674561e-02
6.488811969757080078e-01 9.242732822895050049e-02 -2.835499048233032227e-01
5.321434736251831055e-01 -1.966039240360260010e-01 3.899053037166595459e-01
1.832347512245178223e-01 -1.776046007871627808e-01 9.469761699438095093e-02
7.915428876876831055e-01 -2.229850888252258301e-01 -2.676035761833190918e-01
6.868596076965332031e-01 -2.857385575771331787e-01 -6.537064164876937866e-02
9.454010725021362305e-01 -1.981581300497055054e-01 2.194188907742500305e-02
7.041592597961425781e-01 -5.708008259534835815e-02 4.282809197902679443e-01
6.970272660255432129e-01 6.460470706224441528e-02 -2.962008118629455566e-01
9.598766565322875977e-01 -1.500541567802429199e-01 6.969720125198364258e-02
6.925084590911865234e-01 1.052238792181015015e-01 -1.423340141773223877e-01
4.695104360580444336e-01 -2.707049548625946045e-01 -3.795500472187995911e-02
6.194858551025390625e-01 7.263343781232833862e-03 -4.501900374889373779e-01
8.446632027626037598e-01 -1.447316706180572510e-01 -3.131198287010192871e-01
7.248640060424804688e-01 -2.812603712081909180e-01 -8.743720501661300659e-02
2.831762135028839111e-01 1.301546245813369751e-01 -3.908315002918243408e-01
8.146182894706726074e-01 -2.642978727817535400e-01 -9.862390160560607910e-02
5.199910402297973633e-01 1.122135519981384277e-01 -3.564919829368591309e-01
4.422768950462341309e-02 6.588441878557205200e-02 -3.291809558868408203e-01
9.154543876647949219e-01 -2.070076465606689453e-01 1.426083445549011230e-01
5.117880702018737793e-01 9.551978111267089844e-02 3.638870120048522949e-01
4.967768490314483643e-01 -7.907523214817047119e-02 4.914142787456512451e-01
4.488394558429718018e-01 -2.578332424163818359e-01 -1.422866582870483398e-01
5.734744071960449219e-01 1.008082032203674316e-01 -3.420975804328918457e-01
3.867885768413543701e-01 -1.016872227191925049e-01 -4.788045287132263184e-01
1.993904262781143188e-01 -5.639366805553436279e-02 -4.285156726837158203e-01
8.422595262527465820e-01 1.353740692138671875e-03 -2.002660781145095825e-01
3.663480579853057861e-01 -2.384465187788009644e-01 1.486568003892898560e-01
1.577221751213073730e-01 -4.530394822359085083e-02 3.782633244991302490e-01
3.948796391487121582e-01 1.955506950616836548e-01 5.103167891502380371e-02
7.154489755630493164e-01 9.950473904609680176e-02 -1.005051806569099426e-01
1.217150688171386719e-01 -1.515499651432037354e-01 -2.019399963319301605e-02
8.489013910293579102e-01 -2.248560339212417603e-01 -2.041296064853668213e-01
6.619416475296020508e-01 -1.875191032886505127e-01 -3.908746242523193359e-01
2.471167743206024170e-01 1.754497736692428589e-01 -2.806403338909149170e-01
6.718271970748901367e-01 -2.198828458786010742e-01 3.452418446540832520e-01
4.444326162338256836e-01 -9.118910133838653564e-02 4.842901229858398438e-01
4.794733822345733643e-01 1.774032711982727051e-01 8.290772140026092529e-02
7.026395797729492188e-01 -1.819727718830108643e-01 3.917770981788635254e-01
-1.418563723564147949e-02 -2.987006679177284241e-02 1.124471798539161682e-01
4.678382277488708496e-01 1.846276372671127319e-01 2.145330421626567841e-03
2.893731594085693359e-01 2.080654352903366089e-01 -6.780563294887542725e-02
2.187244147062301636e-01 -1.848852783441543579e-01 1.576647013425827026e-01
-2.711904048919677734e-02 -2.743487432599067688e-02 5.427613854408264160e-02
-1.509338617324829102e-02 -4.315963014960289001e-02 -8.396739512681961060e-02
1.752889156341552734e-01 -1.328008770942687988e-01 -2.856124937534332275e-01
7.968111038208007812e-01 -2.495510131120681763e-01 -1.911517232656478882e-01
1.911047995090484619e-01 -1.126857548952102661e-01 3.311002254486083984e-01
4.635555744171142578e-01 1.839718520641326904e-01 4.141679033637046814e-02
6.425324678421020508e-01 7.652163505554199219e-02 -3.328026831150054932e-01
2.388978153467178345e-01 8.912438154220581055e-02 -4.380926191806793213e-01
2.299588024616241455e-01 1.698790788650512695e-01 2.452735155820846558e-01
-8.933544158935546875e-03 -5.388639867305755615e-02 1.070928666740655899e-02
6.727483272552490234e-01 9.645253419876098633e-03 3.966506123542785645e-01
6.705678701400756836e-01 8.503048866987228394e-02 2.507653534412384033e-01
