1.693030893802642822e-01 -7.094025611877441406e-01 -5.916702747344970703e-01
5.288144201040267944e-02 -3.110699355602264404e-01 -5.926172137260437012e-01
-1.229980587959289551e-02 -4.660806953907012939e-01 -6.099536418914794922e-01
4.007058590650558472e-02 -5.407734513282775879e-01 -5.513410568237304688e-01
-8.859440684318542480e-02 -6.474075913429260254e-01 -5.585947036743164062e-01
-3.750377893447875977e-02 -7.139512300491333008e-01 -5.877206325531005859e-01
9.737834334373474121e-03 -6.666225790977478027e-01 -5.990072488784790039e-01
-2.286529541015625000e-02 -5.993680357933044434e-01 -6.047496199607849121e-01
3.786366581916809082e-01 -5.044396519660949707e-01 -5.632115602493286133e-01
2.449681609869003296e-02 -4.973002374172210693e-01 -6.115465164184570312e-01
1.219086572527885437e-01 -3.025419414043426514e-01 -5.983587503433227539e-01
6.794488430023193359e-02 -5.380022525787353516e-01 -6.114163994789123535e-01
6.904482841491699219e-02 -7.184297442436218262e-01 -5.914791822433471680e-01
1.141062006354331970e-01 -6.673274040222167969e-01 -6.003327369689941406e-01
2.200511991977691650e-01 -6.329202651977539062e-01 -5.511544942855834961e-01
1.138755977153778076e-01 -7.456196546554565430e-01 -5.837004184722900391e-01
3.256408125162124634e-02 -4.864842593669891357e-01 -5.547741055488586426e-01
3.756026625633239746e-01 -4.295505881309509277e-01 -6.010195612907409668e-01
-1.091427803039550781e-01 -4.624929428100585938e-01 -6.004908680915832520e-01
-1.051834374666213989e-01 -6.044945120811462402e-01 -5.979886054992675781e-01
-2.712389826774597168e-02 -5.947961211204528809e-01 -5.529060363769531250e-01
1.380470842123031616e-01 -7.341686487197875977e-01 -5.581336617469787598e-01
3.302625417709350586e-01 -4.465015828609466553e-01 -5.619977116584777832e-01
-4.598295688629150391e-02 -5.762458443641662598e-01 -5.544213056564331055e-01
1.637371033430099487e-01 -6.201530694961547852e-01 -6.052423715591430664e-01
9.464956074953079224e-02 -6.297064423561096191e-01 -5.491039156913757324e-01
2.383021563291549683e-01 -4.602890610694885254e-01 -5.558732748031616211e-01
2.841563820838928223e-01 -6.948232650756835938e-01 -5.626481175422668457e-01
4.166245460510253906e-01 -4.724608957767486572e-01 -5.716816782951354980e-01
3.829978704452514648e-01 -5.654724836349487305e-01 -5.943653583526611328e-01
-7.593479752540588379e-02 -5.153176784515380859e-01 -5.596672296524047852e-01
3.330287933349609375e-01 -3.955968916416168213e-01 -6.045793294906616211e-01
8.034206926822662354e-03 -7.278039455413818359e-01 -5.874038338661193848e-01
1.900852173566818237e-01 -4.535368680953979492e-01 -5.553348064422607422e-01
-4.332606494426727295e-02 -4.934743642807006836e-01 -5.585492849349975586e-01
3.264883458614349365e-01 -3.744201064109802246e-01 -5.710532665252685547e-01
9.344264864921569824e-03 -7.060319185256958008e-01 -5.555045604705810547e-01
1.402676552534103394e-01 -5.254435539245605469e-01 -5.504333972930908203e-01
1.789963245391845703e-01 -5.549491643905639648e-01 -6.102380752563476562e-01
-2.697454392910003662e-02 -5.767260789871215820e-01 -5.531911849975585938e-01
3.268905878067016602e-01 -6.521288752555847168e-01 -5.615378618240356445e-01
-8.535020053386688232e-02 -6.577847003936767578e-01 -5.939155220985412598e-01
7.864721119403839111e-02 -4.101715087890625000e-01 -5.607556700706481934e-01
1.518301069736480713e-01 -7.155418992042541504e-01 -5.910037755966186523e-01
4.824267327785491943e-02 -3.238818049430847168e-01 -5.807840228080749512e-01
1.711069047451019287e-01 -3.982557952404022217e-01 -6.125252842903137207e-01
1.917562186717987061e-01 -7.491393089294433594e-01 -5.697092413902282715e-01
1.992506682872772217e-01 -6.824183464050292969e-01 -5.533168911933898926e-01
3.747983276844024658e-01 -3.756632506847381592e-01 -5.781005024909973145e-01
-1.709036529064178467e-02 -4.622375369071960449e-01 -5.595188140869140625e-01
2.180952280759811401e-01 -3.764532804489135742e-01 -6.104601025581359863e-01
3.771517872810363770e-01 -6.048499941825866699e-01 -5.895521640777587891e-01
1.855081170797348022e-01 -4.408988654613494873e-01 -6.133511066436767578e-01
3.022968471050262451e-01 -6.198335886001586914e-01 -5.978258252143859863e-01
9.187343716621398926e-02 -7.032707929611206055e-01 -5.946384072303771973e-01
3.460168838500976562e-01 -4.646695256233215332e-01 -5.618818402290344238e-01
1.080872416496276855e-01 -5.313397645950317383e-01 -6.121131181716918945e-01
1.217218264937400818e-01 -6.985035538673400879e-01 -5.952602028846740723e-01
7.649654150009155273e-02 -7.522186040878295898e-01 -5.815231204032897949e-01
4.270524978637695312e-01 -4.340353012084960938e-01 -5.872960686683654785e-01
-1.228407770395278931e-01 -5.893596410751342773e-01 -5.617787241935729980e-01
-1.400534361600875854e-01 -4.559229314327239990e-01 -5.926103591918945312e-01
2.786587178707122803e-02 -6.199336051940917969e-01 -6.049320101737976074e-01
1.554455161094665527e-01 -5.520155429840087891e-01 -6.108280420303344727e-01
2.420960962772369385e-01 -5.735974907875061035e-01 -5.512250065803527832e-01
2.616374492645263672e-01 -6.442920565605163574e-01 -5.539768934249877930e-01
-1.826064288616180420e-02 -7.200252413749694824e-01 -5.877629518508911133e-01
2.658424377441406250e-01 -5.585933327674865723e-01 -5.524672269821166992e-01
1.837219893932342529e-01 -7.215582728385925293e-01 -5.577203035354614258e-01
-1.802024096250534058e-01 -5.818353295326232910e-01 -5.819553732872009277e-01
-1.522692292928695679e-01 -6.224166154861450195e-01 -5.678085684776306152e-01
2.716894745826721191e-01 -6.182579398155212402e-01 -5.533879399299621582e-01
5.367150157690048218e-02 -3.521715402603149414e-01 -5.717070102691650391e-01
1.038357466459274292e-01 -6.899437308311462402e-01 -5.969504117965698242e-01
5.995856970548629761e-02 -3.891284465789794922e-01 -5.644323825836181641e-01
6.906747072935104370e-02 -3.431101441383361816e-01 -5.728752017021179199e-01
1.099735200405120850e-01 -6.266498565673828125e-01 -6.052568554878234863e-01
-9.022510051727294922e-02 -4.766045808792114258e-01 -6.036503314971923828e-01
2.605272531509399414e-01 -4.045873880386352539e-01 -5.621929168701171875e-01
3.951254487037658691e-01 -5.798870921134948730e-01 -5.666559338569641113e-01
2.656276226043701172e-01 -6.481752395629882812e-01 -5.969123840332031250e-01
-1.726746112108230591e-01 -5.528376698493957520e-01 -5.885113477706909180e-01
2.469576895236968994e-01 -6.972439885139465332e-01 -5.583654046058654785e-01
2.393329739570617676e-01 -3.617082536220550537e-01 -6.085706353187561035e-01
-1.756809204816818237e-01 -5.998616814613342285e-01 -5.754485130310058594e-01
3.101316690444946289e-01 -3.563748300075531006e-01 -5.730759501457214355e-01
-3.766432404518127441e-03 -7.186289429664611816e-01 -5.579168796539306641e-01
-1.495367139577865601e-01 -5.095853805541992188e-01 -5.949690937995910645e-01
2.393534779548645020e-01 -3.129574060440063477e-01 -6.007784008979797363e-01
2.334146499633789062e-01 -6.618235707283020020e-01 -5.970725417137145996e-01
8.267854154109954834e-02 -5.181108713150024414e-01 -5.513092279434204102e-01
3.578985333442687988e-01 -5.744167566299438477e-01 -5.600497126579284668e-01
1.173179671168327332e-01 -4.268896579742431641e-01 -5.579074621200561523e-01
-5.921950936317443848e-02 -6.391915082931518555e-01 -5.986760854721069336e-01
-1.691245883703231812e-01 -4.988674521446228027e-01 -5.808237791061401367e-01
-1.568968594074249268e-02 -4.440717697143554688e-01 -5.613997578620910645e-01
-5.142228305339813232e-02 -4.818430840969085693e-01 -6.074436306953430176e-01
2.212538719177246094e-01 -4.511945247650146484e-01 -5.561282634735107422e-01
4.373271763324737549e-02 -3.304937183856964111e-01 -6.014052629470825195e-01
1.678546369075775146e-01 -6.095165610313415527e-01 -5.491386055946350098e-01
1.392344385385513306e-02 -3.314946889877319336e-01 -5.828682184219360352e-01
2.068526744842529297e-01 -4.333200454711914062e-01 -6.128309369087219238e-01
5.693405866622924805e-02 -7.322793602943420410e-01 -5.879511833190917969e-01
2.521495521068572998e-01 -4.716950953006744385e-01 -6.111844182014465332e-01
3.615544736385345459e-01 -3.776496052742004395e-01 -5.991665720939636230e-01
2.973973453044891357e-01 -4.779246151447296143e-01 -6.085967421531677246e-01
1.037869453430175781e-01 -5.982722640037536621e-01 -5.488009452819824219e-01
2.708691358566284180e-01 -4.356402158737182617e-01 -6.104165911674499512e-01
8.394145965576171875e-02 -3.225921392440795898e-01 -5.777850151062011719e-01
3.091245293617248535e-01 -5.225033164024353027e-01 -5.558738112449645996e-01
2.572102844715118408e-01 -4.872907400131225586e-01 -5.547013878822326660e-01
1.775183975696563721e-01 -7.007724642753601074e-01 -5.543051362037658691e-01
-2.035866677761077881e-02 -4.360425472259521484e-01 -6.086876988410949707e-01
1.395045965909957886e-01 -6.347956061363220215e-01 -6.041159629821777344e-01
1.696073263883590698e-02 -6.047408580780029297e-01 -6.059581041336059570e-01
3.366225957870483398e-01 -5.251276493072509766e-01 -5.579677224159240723e-01
4.117090702056884766e-01 -5.914158821105957031e-01 -5.792387127876281738e-01
3.304994851350784302e-02 -5.458303689956665039e-01 -6.102676391601562500e-01
-6.227795779705047607e-02 -4.646763801574707031e-01 -5.629590153694152832e-01
1.648467928171157837e-01 -6.414725184440612793e-01 -6.028314232826232910e-01
3.683167397975921631e-01 -4.368815124034881592e-01 -5.667707920074462891e-01
2.483717799186706543e-01 -6.666867136955261230e-01 -5.547328591346740723e-01
-1.735016703605651855e-02 -6.543485522270202637e-01 -5.531629920005798340e-01
1.999116539955139160e-01 -6.148899197578430176e-01 -6.047396659851074219e-01
2.934018969535827637e-01 -4.602939486503601074e-01 -6.091229915618896484e-01
8.579313009977340698e-02 -6.468891501426696777e-01 -5.496180057525634766e-01
9.092454612255096436e-02 -6.397159099578857422e-01 -6.038537025451660156e-01
1.503001153469085693e-01 -7.582589983940124512e-01 -5.729271769523620605e-01
-1.076968312263488770e-01 -4.058927297592163086e-01 -5.906416177749633789e-01
1.308246403932571411e-01 -3.135761618614196777e-01 -5.783591270446777344e-01
-5.802547931671142578e-02 -5.993072986602783203e-01 -6.026370525360107422e-01
1.291317492723464966e-01 -6.500707268714904785e-01 -5.496383905410766602e-01
1.439508199691772461e-01 -5.863777399063110352e-01 -6.086315512657165527e-01
-7.805901765823364258e-02 -6.239264607429504395e-01 -5.567724704742431641e-01
2.187519520521163940e-01 -6.937531828880310059e-01 -5.921862125396728516e-01
2.356830388307571411e-01 -5.429524779319763184e-01 -5.514864921569824219e-01
9.602165967226028442e-02 -5.513084530830383301e-01 -6.110805869102478027e-01
-6.841912865638732910e-03 -5.302138328552246094e-01 -6.094173192977905273e-01
-1.509544104337692261e-01 -5.214980244636535645e-01 -5.699571371078491211e-01
1.497989594936370850e-01 -3.433588147163391113e-01 -5.700269341468811035e-01
2.599812746047973633e-01 -3.610594868659973145e-01 -6.075176596641540527e-01
1.573346555233001709e-01 -4.085158407688140869e-01 -5.596879720687866211e-01
3.194353580474853516e-01 -6.742182970046997070e-01 -5.845558643341064453e-01
9.922847151756286621e-03 -7.448281049728393555e-01 -5.819157361984252930e-01
5.489104986190795898e-02 -6.253920793533325195e-01 -6.050077080726623535e-01
-5.831028521060943604e-02 -3.796295523643493652e-01 -5.983972549438476562e-01
-1.030892580747604370e-01 -6.303396224975585938e-01 -5.596093535423278809e-01
4.648143798112869263e-02 -3.735985755920410156e-01 -5.677549839019775391e-01
4.015123248100280762e-01 -6.071444749832153320e-01 -5.745952725410461426e-01
7.213950157165527344e-02 -5.987946391105651855e-01 -5.491891503334045410e-01
3.673946112394332886e-02 -7.453953027725219727e-01 -5.832729935646057129e-01
9.336674213409423828e-02 -6.691228151321411133e-01 -5.505025386810302734e-01
3.469484746456146240e-01 -6.345806121826171875e-01 -5.625431537628173828e-01
1.850364804267883301e-01 -6.363272666931152344e-01 -6.028610467910766602e-01
3.505672812461853027e-01 -4.340341985225677490e-01 -5.650694966316223145e-01
-4.741632938385009766e-02 -5.762559771537780762e-01 -6.049878597259521484e-01
-1.043866276741027832e-01 -4.298036992549896240e-01 -5.742234587669372559e-01
2.548164725303649902e-01 -6.048102378845214844e-01 -6.032110452651977539e-01
-4.365892708301544189e-02 -6.298499703407287598e-01 -5.540928244590759277e-01
2.665652036666870117e-01 -7.012186050415039062e-01 -5.854098796844482422e-01
3.192137479782104492e-01 -6.378767490386962891e-01 -5.931611657142639160e-01
1.249757334589958191e-01 -4.873809516429901123e-01 -5.525876283645629883e-01
2.199804633855819702e-01 -5.240712165832519531e-01 -6.107735633850097656e-01
4.132739305496215820e-01 -5.449168682098388672e-01 -5.902414917945861816e-01
3.518860340118408203e-01 -3.968706130981445312e-01 -6.025148630142211914e-01
2.851507663726806641e-01 -6.689076423645019531e-01 -5.582218766212463379e-01
8.543904870748519897e-02 -3.893478512763977051e-01 -5.634060502052307129e-01
1.078158617019653320e-03 -3.865117430686950684e-01 -6.069252490997314453e-01
2.890601158142089844e-01 -4.126066267490386963e-01 -5.626541972160339355e-01
-1.331793218851089478e-01 -6.169044375419616699e-01 -5.635739564895629883e-01
3.152652382850646973e-01 -3.353636264801025391e-01 -5.985941886901855469e-01
-1.578073203563690186e-02 -5.327420234680175781e-01 -5.541654229164123535e-01
3.086600899696350098e-01 -3.785783350467681885e-01 -6.056550145149230957e-01
2.127190232276916504e-01 -3.265482187271118164e-01 -6.051024198532104492e-01
1.215507835149765015e-02 -4.266577363014221191e-01 -5.616908669471740723e-01
8.047078549861907959e-02 -3.059899210929870605e-01 -5.863726139068603516e-01
1.344960182905197144e-01 -3.452197909355163574e-01 -6.084276437759399414e-01
2.873171865940093994e-01 -5.758086442947387695e-01 -6.039190888404846191e-01
2.606642544269561768e-01 -3.852043151855468750e-01 -5.647823214530944824e-01
3.732232749462127686e-01 -6.406438350677490234e-01 -5.800118446350097656e-01
-3.140084445476531982e-02 -3.488314151763916016e-01 -5.854705572128295898e-01
5.628654360771179199e-02 -5.821999311447143555e-01 -5.496912002563476562e-01
1.947990059852600098e-01 -6.160619854927062988e-01 -5.498255491256713867e-01
3.723944723606109619e-01 -6.008144617080688477e-01 -5.635992884635925293e-01
-6.684391200542449951e-02 -4.054623544216156006e-01 -5.727214813232421875e-01
3.116037249565124512e-01 -6.019517779350280762e-01 -5.992211699485778809e-01
-5.203579366207122803e-02 -5.308092832565307617e-01 -5.566536188125610352e-01
2.465449571609497070e-01 -7.264010906219482422e-01 -5.666651129722595215e-01
5.732913315296173096e-02 -6.795377135276794434e-01 -5.516037940979003906e-01
2.372744530439376831e-01 -4.396101236343383789e-01 -6.119457483291625977e-01
-5.385971069335937500e-02 -6.703485846519470215e-01 -5.949068665504455566e-01
2.563718706369400024e-02 -6.423280239105224609e-01 -6.025497913360595703e-01
-1.201217621564865112e-01 -6.885719895362854004e-01 -5.691593885421752930e-01
-5.721822381019592285e-03 -4.485654234886169434e-01 -6.100304126739501953e-01
1.429338008165359497e-02 -6.366272568702697754e-01 -5.511156916618347168e-01
2.841325998306274414e-01 -5.119841098785400391e-01 -6.083166599273681641e-01
2.485222369432449341e-02 -4.701479375362396240e-01 -5.564333200454711914e-01
3.671360909938812256e-01 -5.248097777366638184e-01 -5.611423254013061523e-01
1.960440278053283691e-01 -6.529859900474548340e-01 -6.003193855285644531e-01
2.533481121063232422e-01 -3.026077151298522949e-01 -5.944562554359436035e-01
-9.428347647190093994e-02 -5.701542496681213379e-01 -5.587167739868164062e-01
3.968816995620727539e-02 -5.253263115882873535e-01 -6.112984418869018555e-01
9.493005275726318359e-02 -5.716082453727722168e-01 -5.491932034492492676e-01
2.916882038116455078e-01 -3.833514153957366943e-01 -5.667339563369750977e-01
-9.281131625175476074e-02 -5.577645897865295410e-01 -6.023846268653869629e-01
3.925161957740783691e-01 -4.710396826267242432e-01 -5.670574307441711426e-01
1.916893422603607178e-01 -7.179402709007263184e-01 -5.883367657661437988e-01
8.551672101020812988e-03 -5.089447498321533203e-01 -6.106992959976196289e-01
-6.206473708152770996e-02 -4.528950750827789307e-01 -6.058762669563293457e-01
2.897518873214721680e-01 -4.389503002166748047e-01 -5.599225759506225586e-01
-5.816118419170379639e-02 -7.148793935775756836e-01 -5.624423623085021973e-01
8.344803750514984131e-02 -7.566035389900207520e-01 -5.637971758842468262e-01
3.037495613098144531e-01 -3.306319713592529297e-01 -5.794726610183715820e-01
-9.135253727436065674e-02 -5.174469351768493652e-01 -6.037484407424926758e-01
3.498505949974060059e-01 -5.535642504692077637e-01 -5.588575601577758789e-01
9.042870253324508667e-02 -4.753802716732025146e-01 -5.539054870605468750e-01
-1.124113649129867554e-01 -4.390248060226440430e-01 -5.977560281753540039e-01
8.985313773155212402e-02 -6.115790605545043945e-01 -5.489377975463867188e-01
1.921768486499786377e-01 -5.786705017089843750e-01 -6.082572340965270996e-01
2.264550924301147461e-01 -7.189121246337890625e-01 -5.849190950393676758e-01
3.707873225212097168e-01 -6.208036541938781738e-01 -5.655147433280944824e-01
6.558943539857864380e-02 -4.350528120994567871e-01 -6.127207875251770020e-01
3.919912576675415039e-01 -3.750876188278198242e-01 -5.872379541397094727e-01
1.040881723165512085e-01 -5.475367903709411621e-01 -5.497432947158813477e-01
3.892200589179992676e-01 -3.982927799224853516e-01 -5.758532285690307617e-01
-4.681453108787536621e-02 -3.748696446418762207e-01 -5.773030519485473633e-01
2.286204993724822998e-01 -4.788342118263244629e-01 -5.542421340942382812e-01
2.051557004451751709e-01 -3.636235594749450684e-01 -6.098490357398986816e-01
1.612773239612579346e-01 -3.000237941741943359e-01 -5.833262205123901367e-01
1.916552186012268066e-01 -5.289983749389648438e-01 -5.507656335830688477e-01
-3.534048795700073242e-03 -6.408643126487731934e-01 -5.519981980323791504e-01
-8.589874207973480225e-02 -4.949326217174530029e-01 -5.623326897621154785e-01
1.452160179615020752e-01 -4.448383450508117676e-01 -6.137856245040893555e-01
3.563811779022216797e-01 -5.028585195541381836e-01 -5.606530904769897461e-01
-1.319947987794876099e-01 -4.394651353359222412e-01 -5.798457860946655273e-01
-2.992746233940124512e-02 -5.464138984680175781e-01 -5.543630719184875488e-01
3.160502612590789795e-01 -4.970026910305023193e-01 -5.574208498001098633e-01
4.600058495998382568e-02 -4.645512402057647705e-01 -6.125035881996154785e-01
-8.327054977416992188e-02 -4.213551580905914307e-01 -6.010257005691528320e-01
-6.304553896188735962e-02 1.240609660744667053e-01 -3.050495982170104980e-01
-2.843069285154342651e-02 -1.182047575712203979e-01 2.792609333992004395e-01
2.877949476242065430e-01 2.960458584129810333e-02 2.665485739707946777e-01
-1.138603016734123230e-01 -6.312102079391479492e-02 8.468917757272720337e-02
-1.350072622299194336e-01 2.610010094940662384e-03 5.660539120435714722e-02
2.969859242439270020e-01 -2.142406813800334930e-02 -5.411006808280944824e-01
2.289355844259262085e-01 -1.453946344554424286e-03 -6.313993334770202637e-01
2.055365741252899170e-01 -1.399609744548797607e-01 -4.727015495300292969e-01
7.181465625762939453e-02 2.006350159645080566e-01 1.529467403888702393e-01
2.989157736301422119e-01 1.385323554277420044e-01 -2.750498652458190918e-01
1.204240545630455017e-01 1.166710257530212402e-01 3.988827466964721680e-01
3.376617431640625000e-01 2.508477307856082916e-02 1.041246876120567322e-01
1.005640998482704163e-01 2.202035188674926758e-01 -6.116515398025512695e-02
-9.719679504632949829e-02 -9.029798954725265503e-02 8.538370579481124878e-02
3.944160044193267822e-02 3.419440612196922302e-02 4.850802421569824219e-01
-1.009389683604240417e-01 4.774709045886993408e-02 2.787283360958099365e-01
-4.891277104616165161e-02 1.142731234431266785e-01 3.157009780406951904e-01
-4.767661541700363159e-02 -1.378313153982162476e-01 -1.346437484025955200e-01
-1.334741711616516113e-01 3.778331913053989410e-03 9.022628515958786011e-02
-8.254089206457138062e-02 6.936407089233398438e-02 3.131144940853118896e-01
3.216472268104553223e-01 -1.110333204269409180e-01 2.039413154125213623e-02
2.069514393806457520e-01 -1.843007951974868774e-01 7.356912642717361450e-02
1.914640069007873535e-01 8.181334286928176880e-02 -6.152721047401428223e-01
-8.282972127199172974e-02 -1.024552136659622192e-01 -1.318979561328887939e-01
2.409550249576568604e-01 5.162678658962249756e-02 3.479945361614227295e-01
2.323214709758758545e-01 1.811869740486145020e-01 -2.907634675502777100e-01
1.143674552440643311e-01 -1.886558532714843750e-01 -2.789866626262664795e-01
-9.845847636461257935e-02 -5.236228555440902710e-02 2.336771786212921143e-01
1.207944154739379883e-01 8.035877346992492676e-02 4.477058053016662598e-01
-3.371218591928482056e-02 1.866058558225631714e-01 -6.241346150636672974e-02
9.936515241861343384e-02 9.389447420835494995e-02 -6.004027128219604492e-01
2.710885405540466309e-01 -8.218973875045776367e-02 2.635406851768493652e-01
3.646085858345031738e-01 -2.023898996412754059e-03 -2.871443927288055420e-01
6.196565926074981689e-03 1.513862013816833496e-01 -4.056999683380126953e-01
1.240926310420036316e-01 2.039783298969268799e-01 1.168595924973487854e-01
1.813808381557464600e-01 -1.997832357883453369e-01 -1.409607827663421631e-01
9.741099923849105835e-02 2.077932059764862061e-01 -2.809951007366180420e-01
1.722299158573150635e-01 -1.794244796037673950e-01 1.647794246673583984e-01
3.198235332965850830e-01 3.278703987598419189e-02 1.692414283752441406e-01
3.462458550930023193e-01 3.896657377481460571e-02 4.331028461456298828e-02
8.546181023120880127e-03 3.741905838251113892e-02 4.682027697563171387e-01
-1.175384894013404846e-01 9.890873730182647705e-02 -5.815660580992698669e-02
6.132048368453979492e-02 -1.897574514150619507e-01 -1.826839894056320190e-01
1.554061025381088257e-01 -7.331197708845138550e-02 4.320009946823120117e-01
2.522994875907897949e-01 -1.342734247446060181e-01 -4.370118677616119385e-01
3.690589964389801025e-01 -1.923690922558307648e-02 -1.386347115039825439e-01
-3.167330473661422729e-02 1.259936988353729248e-01 -3.893070220947265625e-01
-1.269918084144592285e-01 3.548239171504974365e-02 -1.450989693403244019e-01
1.075747162103652954e-01 1.428803354501724243e-01 -5.265347361564636230e-01
9.411043673753738403e-02 -1.822514086961746216e-01 1.813212037086486816e-01
3.052916377782821655e-02 1.912083029747009277e-01 -3.003258705139160156e-01
-1.043669506907463074e-01 1.230879053473472595e-01 -3.900990262627601624e-02
-7.995935529470443726e-02 1.524360030889511108e-01 -1.056529581546783447e-02
3.581547737121582031e-02 -1.319151818752288818e-01 -4.170408546924591064e-01
-6.503988057374954224e-02 6.591942906379699707e-02 3.575168550014495850e-01
1.579201966524124146e-01 1.583642214536666870e-01 2.778812050819396973e-01
2.183358222246170044e-01 -9.629409760236740112e-02 -5.597532987594604492e-01
2.845177054405212402e-01 -1.547662317752838135e-01 -2.400008738040924072e-01
1.421120315790176392e-01 1.472354028373956680e-02 4.757138490676879883e-01
3.295185565948486328e-01 -1.728415489196777344e-02 -4.634257853031158447e-01
3.092609345912933350e-01 6.645277142524719238e-02 1.647015810012817383e-01
2.877234220504760742e-01 1.508986204862594604e-01 -5.751341581344604492e-02
-1.347665488719940186e-01 -5.182052031159400940e-03 8.825272321701049805e-03
1.057467982172966003e-01 2.175641357898712158e-01 -1.842558979988098145e-01
-4.498004168272018433e-02 2.921828441321849823e-02 4.146496653556823730e-01
-1.164404675364494324e-01 8.198791742324829102e-02 -1.512604504823684692e-01
7.225625216960906982e-03 1.985386908054351807e-01 8.056297153234481812e-02
-1.297326385974884033e-01 6.942941248416900635e-02 3.941021114587783813e-02
-3.682003170251846313e-02 -1.525457054376602173e-01 -1.894180849194526672e-02
1.673782020807266235e-01 1.998413950204849243e-01 8.238949626684188843e-02
5.920939892530441284e-02 -1.832569837570190430e-01 1.425600349903106689e-01
-1.143641397356987000e-01 2.914597280323505402e-02 -2.302800416946411133e-01
8.954755216836929321e-02 -1.524098515510559082e-01 -4.224855303764343262e-01
-5.914004892110824585e-02 9.151907265186309814e-02 3.369718492031097412e-01
-1.163983568549156189e-01 6.408383697271347046e-02 -1.898693144321441650e-01
2.784724235534667969e-01 -1.531854420900344849e-01 -2.859998345375061035e-01
4.396885633468627930e-04 -1.699055433273315430e-01 -1.338079422712326050e-01
2.827512919902801514e-01 3.646561410278081894e-03 -5.709115862846374512e-01
2.876105010509490967e-01 1.239709705114364624e-01 1.001010462641716003e-01
3.357104063034057617e-01 9.332404285669326782e-02 -5.074770003557205200e-02
1.502840518951416016e-01 5.252860486507415771e-02 -6.464026570320129395e-01
-5.031346529722213745e-02 -8.197163045406341553e-02 3.231913149356842041e-01
6.696829199790954590e-02 -1.813644915819168091e-01 -2.639409601688385010e-01
1.169624179601669312e-01 1.876733452081680298e-01 -3.954098522663116455e-01
1.411486864089965820e-01 -1.826314777135848999e-01 1.752310097217559814e-01
3.210689127445220947e-01 -9.750360995531082153e-02 7.322689145803451538e-02
2.576131522655487061e-01 6.458067148923873901e-02 -5.766744017601013184e-01
2.130399942398071289e-01 -6.236522644758224487e-02 3.857687115669250488e-01
1.198493018746376038e-01 2.110228836536407471e-01 -2.582880854606628418e-01
-5.011803656816482544e-02 -1.119206622242927551e-01 2.423714697360992432e-01
2.992448806762695312e-01 1.449715942144393921e-01 -1.508918404579162598e-01
-4.198635369539260864e-02 -1.064953058958053589e-01 -3.111574053764343262e-01
-8.115788549184799194e-02 9.858351200819015503e-02 -2.983947992324829102e-01
1.338949501514434814e-01 -1.025623232126235962e-01 4.069429934024810791e-01
-9.369424730539321899e-02 2.817194908857345581e-02 3.120699524879455566e-01
2.842885255813598633e-01 -1.557031422853469849e-01 -2.951136603951454163e-02
2.887852191925048828e-01 1.512110680341720581e-01 -2.346351146697998047e-01
3.351312279701232910e-01 9.092461317777633667e-02 -3.013030290603637695e-01
-5.946872383356094360e-02 8.544328063726425171e-02 -3.879320025444030762e-01
8.998081088066101074e-02 1.428388208150863647e-01 3.582415282726287842e-01
2.249674201011657715e-01 -1.709758490324020386e-01 1.141901835799217224e-01
2.677265703678131104e-01 -7.089430093765258789e-02 -5.463678836822509766e-01
3.525946736335754395e-01 -1.690356805920600891e-02 -3.702072501182556152e-01
2.919581532478332520e-01 -1.044422686100006104e-01 -4.415616691112518311e-01
3.439731895923614502e-01 8.747895807027816772e-02 -2.168501317501068115e-01
2.174874842166900635e-01 1.803998798131942749e-01 8.139263838529586792e-02
2.581513822078704834e-01 1.756665855646133423e-01 -1.786497682332992554e-01
2.024425268173217773e-01 -6.096328049898147583e-02 -6.144335269927978516e-01
-6.635639816522598267e-02 -1.244083046913146973e-01 -1.007081195712089539e-01
5.655230954289436340e-02 7.880540192127227783e-02 4.590979814529418945e-01
1.633673459291458130e-01 -9.151306003332138062e-03 4.617651700973510742e-01
-1.258369386196136475e-01 7.483819127082824707e-02 -7.763092964887619019e-02
1.668199151754379272e-02 -1.111925989389419556e-01 -4.380084276199340820e-01
1.248604804277420044e-01 1.684227436780929565e-01 2.755400836467742920e-01
6.595644354820251465e-02 -1.952147632837295532e-01 2.862460911273956299e-02
2.738757133483886719e-01 -1.658677458763122559e-01 -1.768670976161956787e-01
-5.027033388614654541e-03 1.981975585222244263e-01 3.091188520193099976e-02
2.502908110618591309e-01 1.754358261823654175e-01 -2.401331812143325806e-02
1.617863178253173828e-01 -1.720651686191558838e-01 2.101733684539794922e-01
1.597034931182861328e-01 2.042737603187561035e-01 -2.841602861881256104e-01
1.642288267612457275e-01 8.854544162750244141e-02 4.090165495872497559e-01
1.735451519489288330e-01 -8.544901013374328613e-02 4.042553603649139404e-01
2.491364479064941406e-01 -9.501197934150695801e-02 -5.336388349533081055e-01
4.997301846742630005e-02 -1.463709473609924316e-01 3.042369484901428223e-01
7.882937788963317871e-04 1.228144168853759766e-01 -4.601798355579376221e-01
3.039838373661041260e-02 1.678761094808578491e-01 -3.961694836616516113e-01
1.234060004353523254e-01 1.985523253679275513e-01 -3.434823751449584961e-01
1.308047771453857422e-01 1.878736764192581177e-01 1.979424655437469482e-01
2.780478298664093018e-01 1.622479707002639771e-01 -1.216608211398124695e-01
2.682234942913055420e-01 -1.442671269178390503e-01 1.170596852898597717e-01
3.249581158161163330e-01 -1.175740212202072144e-01 -4.291160404682159424e-02
-1.103873029351234436e-01 5.676496028900146484e-02 2.327593266963958740e-01
6.956976652145385742e-02 2.774021402001380920e-02 4.929422736167907715e-01
2.417708933353424072e-01 -1.569850295782089233e-01 -3.698409199714660645e-01
1.259728074073791504e-01 -1.038231998682022095e-01 -5.604876279830932617e-01
3.726534545421600342e-02 -1.488055437803268433e-01 -3.653005361557006836e-01
3.076095879077911377e-01 1.232131421566009521e-01 -3.203516602516174316e-01
2.331655174493789673e-01 -3.815840184688568115e-02 3.741093575954437256e-01
2.295317351818084717e-01 -1.173071563243865967e-01 -5.102133750915527344e-01
8.656165003776550293e-02 -7.249380648136138916e-02 -5.845673084259033203e-01
3.151380419731140137e-01 4.362535476684570312e-02 -4.869251251220703125e-01
3.411858677864074707e-01 -9.659595042467117310e-02 -2.458010613918304443e-01
2.561715543270111084e-01 5.987324565649032593e-02 3.121181726455688477e-01
3.416749238967895508e-01 -4.447473585605621338e-02 7.882330566644668579e-02
1.229215413331985474e-02 -1.738156527280807495e-01 9.785035997629165649e-02
1.516532748937606812e-01 -1.474995166063308716e-01 -4.674459397792816162e-01
3.558952510356903076e-01 2.160568162798881531e-02 3.609344363212585449e-03
2.422668784856796265e-02 -1.269931904971599579e-02 4.805822968482971191e-01
-9.533143788576126099e-02 -3.342037647962570190e-02 2.782192826271057129e-01
2.615375220775604248e-01 -1.265503317117691040e-01 1.961392760276794434e-01
2.229399681091308594e-01 1.417592167854309082e-01 2.268558442592620850e-01
-1.002039760351181030e-02 8.553294092416763306e-02 4.157273173332214355e-01
2.288795858621597290e-01 -1.821205168962478638e-01 -2.379295825958251953e-01
3.876005858182907104e-02 1.691375672817230225e-01 2.773526310920715332e-01
2.156165838241577148e-01 9.455888718366622925e-02 -5.851800441741943359e-01
3.523671925067901611e-01 -5.238010734319686890e-02 2.322658896446228027e-03
3.605370819568634033e-01 -3.323146700859069824e-02 -3.018217086791992188e-01
1.183179616928100586e-01 2.151198238134384155e-01 2.477733045816421509e-02
2.132145166397094727e-01 1.195999160408973694e-01 2.986864149570465088e-01
1.757883280515670776e-02 1.955626606941223145e-01 -2.452401220798492432e-01
3.151534795761108398e-01 9.448045492172241211e-02 -3.978298008441925049e-01
-6.777147203683853149e-02 1.428400166332721710e-02 3.772214949131011963e-01
-1.390341669321060181e-02 -1.637279838323593140e-01 6.892801076173782349e-02
3.211675882339477539e-01 1.203668639063835144e-01 -1.103617995977401733e-01
-4.450030624866485596e-03 1.828249245882034302e-01 1.662256121635437012e-01
-1.092473417520523071e-02 1.266043931245803833e-01 -4.320225119590759277e-01
2.029842734336853027e-01 1.784867793321609497e-01 -3.794246613979339600e-01
3.213673233985900879e-01 -1.252570301294326782e-01 -7.445137202739715576e-02
2.354182302951812744e-02 -1.770208328962326050e-01 -1.760729402303695679e-01
-5.646360665559768677e-02 1.278551071882247925e-01 2.660667896270751953e-01
-4.530965536832809448e-02 8.977581560611724854e-02 3.648347258567810059e-01
7.236015796661376953e-02 -1.325419247150421143e-01 -4.633887410163879395e-01
2.926771640777587891e-01 1.327451169490814209e-01 3.960993140935897827e-02
2.433209717273712158e-01 -1.686130762100219727e-01 -3.037629425525665283e-01
3.553847372531890869e-01 -6.672333180904388428e-02 -2.572865784168243408e-01
6.267827749252319336e-02 2.170351296663284302e-01 -1.316192597150802612e-01
-4.808124154806137085e-02 9.198763407766819000e-03 -4.524095654487609863e-01
-5.369596928358078003e-02 -1.391130387783050537e-01 3.439921140670776367e-02
1.227461844682693481e-01 -1.924484223127365112e-01 1.202479824423789978e-01
2.406259775161743164e-01 1.048550903797149658e-01 2.782994210720062256e-01
-6.304267793893814087e-02 -8.258162438869476318e-02 2.898346483707427979e-01
-9.282649308443069458e-02 1.019644215703010559e-01 2.211182415485382080e-01
3.319652974605560303e-01 -1.154680177569389343e-01 -1.390589773654937744e-01
-1.239026561379432678e-01 8.751998096704483032e-02 -1.410466432571411133e-02
1.306793838739395142e-01 -1.310942620038986206e-01 3.547725677490234375e-01
2.167015969753265381e-01 -2.493874542415142059e-02 4.029157459735870361e-01
1.662212610244750977e-01 1.936454027891159058e-01 -3.481993973255157471e-01
1.512520760297775269e-01 -1.941863447427749634e-01 -2.501877546310424805e-01
-7.558726519346237183e-02 1.453834623098373413e-01 1.268734633922576904e-01
2.409369945526123047e-01 1.706742793321609497e-01 5.998293310403823853e-02
1.582533866167068481e-02 1.977868527173995972e-01 1.102413460612297058e-01
2.267019301652908325e-01 1.245850548148155212e-01 -5.222716927528381348e-01
2.511847913265228271e-01 -4.848267138004302979e-02 -5.900657773017883301e-01
2.616647481918334961e-01 9.492287784814834595e-02 2.513161003589630127e-01
-6.408054381608963013e-02 4.036276787519454956e-02 -4.110324680805206299e-01
3.434680402278900146e-01 -1.351101137697696686e-02 -4.147123992443084717e-01
-7.428134232759475708e-02 8.656330406665802002e-02 -3.425353169441223145e-01
2.956692576408386230e-01 -1.202886700630187988e-01 -3.845748901367187500e-01
3.403387963771820068e-03 1.788672208786010742e-01 2.016444206237792969e-01
2.843274921178817749e-02 1.764208674430847168e-01 2.430490553379058838e-01
7.706038653850555420e-02 1.094036698341369629e-01 4.220575094223022461e-01
3.708083927631378174e-02 2.126944363117218018e-01 -1.357981562614440918e-02
-4.208069294691085815e-02 7.166641950607299805e-02 3.918180763721466064e-01
5.362231284379959106e-02 -2.669095806777477264e-02 4.870415925979614258e-01
2.006167918443679810e-01 1.707398742437362671e-01 -4.171085655689239502e-01
3.237170577049255371e-01 -3.637311607599258423e-02 1.623560190200805664e-01
3.167013227939605713e-01 -1.085979864001274109e-01 -3.498134315013885498e-01
2.493007183074951172e-01 -1.459875702857971191e-01 1.648437976837158203e-01
9.191161394119262695e-02 6.106265634298324585e-02 4.741755723953247070e-01
-2.523387223482131958e-02 1.808719933032989502e-01 -2.014098018407821655e-01
-6.525506824254989624e-02 -8.427510410547256470e-02 -2.938803434371948242e-01
1.333394199609756470e-01 -5.510338395833969116e-02 4.609054327011108398e-01
-8.939640969038009644e-02 -1.048965938389301300e-02 3.183391094207763672e-01
-1.756092160940170288e-02 5.413027107715606689e-02 4.371113181114196777e-01
-7.179494947195053101e-02 1.572832316160202026e-01 5.249709635972976685e-02
3.621968626976013184e-02 4.956600069999694824e-02 -5.845605731010437012e-01
-1.033323034644126892e-01 1.211179941892623901e-01 -8.592052012681961060e-02
3.650297820568084717e-01 2.207097783684730530e-02 -8.884342014789581299e-02
7.186734676361083984e-02 -1.405157893896102905e-01 3.337678313255310059e-01
3.680368959903717041e-01 -1.612576656043529510e-02 -1.064033433794975281e-01
4.241278022527694702e-02 -4.989793151617050171e-02 -5.677371621131896973e-01
5.534622073173522949e-02 -1.874542832374572754e-01 9.980046004056930542e-02
8.921658992767333984e-02 -1.924237310886383057e-01 1.076147779822349548e-01
2.331965565681457520e-01 -1.457002013921737671e-01 2.025344371795654297e-01
-9.604064375162124634e-02 7.698523253202438354e-02 -2.757613956928253174e-01
3.587280511856079102e-01 5.069334059953689575e-02 -9.756541252136230469e-02
5.626466125249862671e-02 1.574671566486358643e-01 -4.582769870758056641e-01
-7.472269237041473389e-03 1.427882462739944458e-01 3.136007189750671387e-01
2.605040073394775391e-01 -1.743500977754592896e-01 -1.011576429009437561e-01
3.130325376987457275e-01 1.196413859724998474e-01 -1.429746299982070923e-02
-9.204853326082229614e-02 -4.165130853652954102e-02 -2.791112959384918213e-01
-1.246981695294380188e-01 6.552401185035705566e-02 -1.223033517599105835e-01
1.712651401758193970e-01 -1.881871372461318970e-01 1.140590086579322815e-01
1.354016512632369995e-01 -1.364599019289016724e-01 -4.948322474956512451e-01
-3.078193217515945435e-02 -1.329744234681129456e-02 -4.814036190509796143e-01
-4.355069249868392944e-02 1.641197502613067627e-01 1.620962917804718018e-01
3.601176440715789795e-01 -5.837305635213851929e-02 -9.828128665685653687e-02
3.630897700786590576e-01 -3.019494935870170593e-03 -3.849366679787635803e-02
2.009332925081253052e-01 5.721116065979003906e-02 -6.320105195045471191e-01
-9.841621667146682739e-02 1.310373097658157349e-01 2.586496621370315552e-02
2.117914259433746338e-01 1.885312795639038086e-01 4.413828253746032715e-02
-8.627863973379135132e-02 1.294088065624237061e-01 1.541494727134704590e-01
4.961129277944564819e-02 1.034088656306266785e-01 -5.532889366149902344e-01
-4.631026834249496460e-02 1.469381749629974365e-01 2.305288016796112061e-01
2.302362620830535889e-01 -1.862410306930541992e-01 -4.237752035260200500e-02
2.292074561119079590e-01 -3.149927407503128052e-02 -6.212757825851440430e-01
2.980585098266601562e-01 -1.306265890598297119e-01 5.915195494890213013e-02
3.032740205526351929e-02 -1.626719683408737183e-01 -2.923040986061096191e-01
1.000816524028778076e-01 -1.986797600984573364e-01 5.229521542787551880e-02
3.336669504642486572e-01 1.321115531027317047e-02 -4.506946206092834473e-01
3.398639261722564697e-01 -7.638942450284957886e-02 3.046015650033950806e-02
-1.325573921203613281e-01 4.816452413797378540e-02 8.312954753637313843e-02
3.432659208774566650e-01 3.125619888305664062e-02 -4.011576771736145020e-01
6.062720343470573425e-02 -1.666246354579925537e-01 -3.325816690921783447e-01
-1.424246281385421753e-02 -1.280750483274459839e-01 -3.232663869857788086e-01
2.286106348037719727e-01 1.841260343790054321e-01 1.207661628723144531e-02
3.237491846084594727e-01 1.169596612453460693e-01 -2.207892835140228271e-01
3.566033244132995605e-01 6.246244907379150391e-02 -1.924253106117248535e-01
1.600089818239212036e-01 1.825257986783981323e-01 1.896005868911743164e-01
-2.354421466588973999e-02 -1.605489850044250488e-01 -5.746859684586524963e-02
-1.734361797571182251e-02 1.512143760919570923e-01 -3.581072390079498291e-01
2.446698546409606934e-01 -1.729656308889389038e-01 3.825045377016067505e-02
1.226135492324829102e-01 1.279287636280059814e-01 -5.598234534263610840e-01
3.325967788696289062e-01 -7.875073701143264771e-02 -3.732258081436157227e-01
8.085856586694717407e-02 -3.072545863687992096e-02 -6.177563071250915527e-01
1.861157864332199097e-01 -1.973390877246856689e-01 -6.117045879364013672e-03
3.238045275211334229e-01 -4.918815195560455322e-02 -4.563415646553039551e-01
-2.223546057939529419e-02 1.699616461992263794e-01 -2.751766741275787354e-01
-2.992532402276992798e-02 -2.405579201877117157e-02 4.275429844856262207e-01
3.478357791900634766e-01 -8.386807516217231750e-03 6.832774728536605835e-02
3.365475535392761230e-01 9.469177573919296265e-02 -2.656004130840301514e-01
-6.811805069446563721e-03 1.723102331161499023e-01 -3.077607452869415283e-01
9.252533316612243652e-02 -2.017991989850997925e-01 -7.701076567173004150e-02
4.308783262968063354e-02 -2.243378199636936188e-02 -5.884479880332946777e-01
-7.265829294919967651e-02 -1.015576422214508057e-01 1.966570019721984863e-01
-1.187171265482902527e-01 -5.636318773031234741e-02 -3.214877843856811523e-02
-4.696042090654373169e-02 -1.414851844310760498e-01 8.263831585645675659e-02
4.589781165122985840e-02 -1.582951247692108154e-01 2.580952942371368408e-01
1.411273479461669922e-01 2.093559503555297852e-01 5.399269610643386841e-02
-6.229252368211746216e-02 -4.342237114906311035e-02 3.572242259979248047e-01
1.701649278402328491e-01 2.072063237428665161e-01 -2.369104027748107910e-01
-8.352225273847579956e-02 5.155244469642639160e-02 -3.481350243091583252e-01
3.559226542711257935e-02 -1.631964296102523804e-01 2.241005599498748779e-01
-6.620742380619049072e-03 -1.703527122735977173e-01 9.046651422977447510e-03
1.959854662418365479e-01 1.599528044462203979e-01 -4.612133800983428955e-01
1.752907931804656982e-01 -1.533502340316772461e-01 2.652986049652099609e-01
-1.352646946907043457e-01 4.317815601825714111e-02 -1.417917013168334961e-02
2.200680077075958252e-01 -1.448318213224411011e-01 2.301371395587921143e-01
-7.770106941461563110e-02 -4.598166793584823608e-02 3.165541887283325195e-01
-1.165883913636207581e-01 2.298631705343723297e-03 -2.118531167507171631e-01
1.762158274650573730e-01 1.507740914821624756e-01 -5.028492808341979980e-01
1.208491623401641846e-03 -8.608093112707138062e-02 -4.611240029335021973e-01
2.558685243129730225e-01 -1.741335988044738770e-01 -2.020229101181030273e-01
-1.112099960446357727e-01 -6.245867908000946045e-02 -1.051343381404876709e-01
1.615327447652816772e-01 -1.342264413833618164e-01 3.293716013431549072e-01
1.582770794630050659e-01 2.144960165023803711e-01 -1.435639262199401855e-01
5.568925663828849792e-02 1.232952401041984558e-01 3.973997533321380615e-01
1.538560837507247925e-01 1.741535216569900513e-01 2.305266559123992920e-01
1.152605786919593811e-01 7.479447871446609497e-02 -6.251178979873657227e-01
-1.283253431320190430e-01 2.798038907349109650e-02 1.528857648372650146e-01
2.734069824218750000e-01 -3.552790731191635132e-02 3.022974431514739990e-01
3.670493364334106445e-01 2.622411772608757019e-02 -1.845315694808959961e-01
3.614305257797241211e-01 -4.581792652606964111e-02 -6.787808984518051147e-02
9.877468645572662354e-02 1.971442252397537231e-01 1.719670593738555908e-01
1.365400850772857666e-02 -1.795903593301773071e-01 -7.429654151201248169e-02
-5.321163684129714966e-02 1.745319664478302002e-01 -1.890233904123306274e-02
1.653390824794769287e-01 3.215366601943969727e-02 4.539658427238464355e-01
1.534425169229507446e-01 -2.038961946964263916e-01 -6.649217754602432251e-02
3.369957208633422852e-03 -1.487081199884414673e-01 2.338562905788421631e-01
1.920247972011566162e-01 1.449233293533325195e-01 2.720184624195098877e-01
-4.459732025861740112e-02 1.501832455396652222e-01 -2.854317724704742432e-01
2.078305780887603760e-01 -1.620423346757888794e-01 -3.953601121902465820e-01
-9.923256188631057739e-02 1.181728914380073547e-01 -1.470526754856109619e-01
3.134419023990631104e-01 6.587792932987213135e-02 -4.643588364124298096e-01
-1.236984506249427795e-01 1.550077833235263824e-02 -1.729259639978408813e-01
3.027368783950805664e-01 -1.459686160087585449e-01 -1.197579652070999146e-01
2.011589705944061279e-02 1.221366822719573975e-01 3.846471905708312988e-01
2.792368829250335693e-01 1.515079289674758911e-01 1.907549798488616943e-03
5.061775445938110352e-02 -7.792615890502929688e-02 4.443131685256958008e-01
3.397344350814819336e-01 6.069642305374145508e-02 -3.720850348472595215e-01
2.780869603157043457e-01 -5.469303578138351440e-02 2.788947820663452148e-01
2.598750293254852295e-01 -1.668878495693206787e-01 -2.607196569442749023e-01
3.381877243518829346e-01 -8.267509192228317261e-02 -3.338923454284667969e-01
-1.644582301378250122e-02 -1.634193509817123413e-01 -9.078196436166763306e-02
2.796702980995178223e-01 -8.789237588644027710e-02 2.343987226486206055e-01
-1.204348355531692505e-02 1.853883415460586548e-01 1.309469640254974365e-01
1.243150830268859863e-01 -6.172033399343490601e-02 -6.164079308509826660e-01
3.250780701637268066e-01 -1.206181645393371582e-01 -2.239944338798522949e-01
-8.475176990032196045e-03 -9.408715367317199707e-02 3.724717497825622559e-01
3.534243106842041016e-01 -6.463191658258438110e-02 -3.850197046995162964e-02
2.793936729431152344e-01 -1.500627100467681885e-01 4.442765563726425171e-02
1.680646538734436035e-01 -1.652091294527053833e-01 -4.063023030757904053e-01
-1.146444305777549744e-01 4.053925164043903351e-03 2.332772016525268555e-01
3.699620068073272705e-01 -3.422059118747711182e-03 -1.690461635589599609e-01
3.571625947952270508e-01 6.130873411893844604e-02 -1.613212674856185913e-01
3.091405928134918213e-01 -1.328128576278686523e-01 -1.986225321888923645e-02
9.975831210613250732e-02 2.139632999897003174e-01 -2.285583019256591797e-01
-9.855144470930099487e-02 -7.828785479068756104e-02 1.508746445178985596e-01
2.685815840959548950e-02 1.584166586399078369e-01 3.034395277500152588e-01
-2.825878560543060303e-03 -3.228195011615753174e-02 4.524611234664916992e-01
9.608155488967895508e-02 1.618398427963256836e-01 -4.759668707847595215e-01
9.311795234680175781e-02 -8.019968867301940918e-03 4.942880272865295410e-01
2.517964243888854980e-01 1.067920401692390442e-01 -5.251331329345703125e-01
3.697685897350311279e-02 2.099797725677490234e-01 -1.676303744316101074e-01
7.723426073789596558e-02 1.818928122520446777e-01 -4.001318216323852539e-01
3.030287027359008789e-01 -5.606873333454132080e-02 -5.019798278808593750e-01
1.653654128313064575e-01 1.534126698970794678e-02 -6.570301055908203125e-01
-9.102138131856918335e-02 -1.022459268569946289e-01 -1.291778683662414551e-02
1.133259385824203491e-01 -2.034548521041870117e-01 -1.054287850856781006e-01
4.332346469163894653e-02 2.077459841966629028e-01 -2.114909887313842773e-01
-8.170647174119949341e-02 1.053751856088638306e-01 2.528719604015350342e-01
-9.759367257356643677e-02 1.297937631607055664e-01 6.027764827013015747e-02
5.540674924850463867e-02 -1.844070702791213989e-01 -2.162238359451293945e-01
1.810518503189086914e-01 1.971127688884735107e-01 -3.061807453632354736e-01
2.130979001522064209e-01 -1.932822912931442261e-01 -1.244700700044631958e-01
-1.293565630912780762e-01 -2.834515832364559174e-02 4.411172121763229370e-02
-6.074231117963790894e-02 -7.222882658243179321e-02 -3.373774588108062744e-01
-3.884709626436233521e-02 -4.479245841503143311e-02 3.988927602767944336e-01
1.416996270418167114e-01 1.926819682121276855e-01 -3.698202669620513916e-01
-6.479136645793914795e-03 1.945385634899139404e-01 -1.685093045234680176e-01
2.213588804006576538e-01 1.772184669971466064e-01 -3.501332700252532959e-01
1.389646381139755249e-01 -1.545907258987426758e-01 2.890604436397552490e-01
-7.975412160158157349e-02 1.493691653013229370e-01 -9.770231693983078003e-02
-7.285460829734802246e-03 -1.133269295096397400e-01 3.322308659553527832e-01
2.413752973079681396e-01 1.833650097250938416e-02 3.663521707057952881e-01
1.911132335662841797e-01 8.127620071172714233e-02 3.899474442005157471e-01
-1.076837852597236633e-01 4.890807718038558960e-02 -2.545126378536224365e-01
4.182728379964828491e-02 -1.711176335811614990e-01 1.927582621574401855e-01
5.573167279362678528e-02 1.382134109735488892e-01 3.677654862403869629e-01
9.079357981681823730e-02 -1.569775342941284180e-01 2.892180085182189941e-01
1.679933667182922363e-01 -1.985740214586257935e-01 2.417110651731491089e-02
-4.523486644029617310e-02 1.267337203025817871e-01 -3.530820310115814209e-01
8.960835635662078857e-02 1.706200987100601196e-01 2.829144001007080078e-01
-7.908927649259567261e-02 -1.159193888306617737e-01 2.340950816869735718e-02
1.729744672775268555e-01 -1.039354503154754639e-01 3.787523210048675537e-01
3.519182503223419189e-01 4.409560561180114746e-02 -3.346466720104217529e-01
2.860365509986877441e-01 6.663179397583007812e-02 -5.289087891578674316e-01
2.163071036338806152e-01 -1.799046695232391357e-01 -2.890880703926086426e-01
2.006365060806274414e-01 1.190778985619544983e-01 -5.573638081550598145e-01
-1.082582697272300720e-01 1.711552217602729797e-02 2.637981772422790527e-01
1.823074370622634888e-02 -1.359745860099792480e-01 3.046222329139709473e-01
8.822172135114669800e-02 -1.719532459974288940e-01 -3.455676436424255371e-01
1.837566494941711426e-02 -1.710908859968185425e-01 -2.068536579608917236e-01
1.174211129546165466e-01 -1.212493926286697388e-01 -5.234947204589843750e-01
-9.509266167879104614e-02 1.293379664421081543e-01 9.301581233739852905e-02
-1.329240798950195312e-01 5.248625576496124268e-02 -4.598517343401908875e-02
2.592106908559799194e-02 5.066785030066967010e-03 -5.783021450042724609e-01
