-2.740858495235443115e-02 2.043022029101848602e-02 -7.631405591964721680e-01
1.224038600921630859e-01 -3.084119223058223724e-02 -6.389453411102294922e-01
5.883875116705894470e-02 4.311423003673553467e-02 -7.543061375617980957e-01
1.152016073465347290e-01 -6.057462841272354126e-02 -7.008478045463562012e-01
7.943937182426452637e-02 -6.958629004657268524e-03 -9.863586425781250000e-01
1.577786207199096680e-01 1.306784152984619141e-02 -8.534188270568847656e-01
2.039522528648376465e-01 -2.911935560405254364e-03 -7.416094541549682617e-01
-7.797583937644958496e-03 4.162053018808364868e-02 -8.558243513107299805e-01
8.097673952579498291e-02 3.683507442474365234e-02 -7.141336798667907715e-01
1.779372692108154297e-01 1.388600096106529236e-03 -8.483837246894836426e-01
-2.698488533496856689e-02 9.342448785901069641e-03 -7.511776089668273926e-01
1.601734459400177002e-01 2.190748788416385651e-02 -7.852057218551635742e-01
4.592393711209297180e-02 -1.465041749179363251e-02 -1.004800319671630859e+00
2.188962101936340332e-01 -2.443673647940158844e-02 -7.671711444854736328e-01
5.480360239744186401e-02 -5.800395458936691284e-02 -9.591913223266601562e-01
1.344972848892211914e-01 8.433006703853607178e-03 -9.094430208206176758e-01
1.460901349782943726e-01 -4.059229046106338501e-02 -9.398741126060485840e-01
1.941835582256317139e-01 -6.443561613559722900e-02 -7.884315848350524902e-01
1.500496268272399902e-02 4.359605908393859863e-02 -7.875602245330810547e-01
1.309673190116882324e-01 -4.722373187541961670e-02 -9.497094154357910156e-01
1.298135519027709961e-02 -4.058169573545455933e-02 -9.852937459945678711e-01
1.833494305610656738e-01 -3.758085519075393677e-02 -8.884393572807312012e-01
7.459983974695205688e-02 -5.573138594627380371e-02 -7.125606536865234375e-01
-1.136992871761322021e-02 3.734222054481506348e-02 -7.865305542945861816e-01
1.095149666070938110e-01 -7.542013376951217651e-02 -7.879870533943176270e-01
1.868104934692382812e-02 -5.955480039119720459e-02 -9.174100160598754883e-01
3.706600517034530640e-02 -1.833838410675525665e-03 -9.988417625427246094e-01
1.938678324222564697e-01 -5.638983845710754395e-02 -7.097730636596679688e-01
8.409510552883148193e-02 -5.364941060543060303e-02 -9.683907628059387207e-01
2.870002388954162598e-02 -5.481312423944473267e-02 -7.692635655403137207e-01
1.030768454074859619e-01 3.368983417749404907e-02 -8.577991127967834473e-01
7.929347455501556396e-02 -6.799565255641937256e-02 -7.608970403671264648e-01
-6.250507384538650513e-02 -2.044373191893100739e-03 -8.646678924560546875e-01
1.491548418998718262e-01 2.561399154365062714e-02 -7.974277138710021973e-01
-5.636116117238998413e-02 -1.529884617775678635e-02 -8.606310486793518066e-01
2.851016074419021606e-02 -3.673498332500457764e-02 -9.969829320907592773e-01
1.899836212396621704e-01 -3.838498890399932861e-02 -6.643600463867187500e-01
7.997373491525650024e-02 -2.965108491480350494e-02 -6.548029780387878418e-01
3.149620071053504944e-02 3.261754661798477173e-02 -7.141859531402587891e-01
1.096322908997535706e-01 -4.464318603277206421e-02 -6.624091267585754395e-01
1.596869826316833496e-01 3.811324015259742737e-03 -8.805263042449951172e-01
6.304208189249038696e-02 -4.859857261180877686e-02 -7.025886178016662598e-01
5.132824555039405823e-02 -4.076253250241279602e-02 -6.955636739730834961e-01
1.031075119972229004e-01 -7.276608049869537354e-02 -8.959892988204956055e-01
1.666015014052391052e-02 -1.234792824834585190e-02 -6.933268308639526367e-01
1.493521779775619507e-01 2.548290602862834930e-02 -7.253638505935668945e-01
1.080404072999954224e-01 -7.145416736602783203e-02 -7.550804018974304199e-01
4.407684877514839172e-02 -1.892997696995735168e-02 -6.706672310829162598e-01
6.198196113109588623e-02 4.506920278072357178e-02 -8.067738413810729980e-01
1.042809188365936279e-01 -7.517752051353454590e-02 -8.752293586730957031e-01
9.674468636512756348e-02 3.780241310596466064e-02 -8.382180929183959961e-01
4.751673340797424316e-02 -2.264735288918018341e-03 -6.609562635421752930e-01
9.921562671661376953e-02 2.331428229808807373e-03 -6.376059651374816895e-01
1.805004328489303589e-01 -1.239196397364139557e-02 -8.756159543991088867e-01
-5.582975596189498901e-02 -1.311576552689075470e-02 -9.294441342353820801e-01
2.067158222198486328e-01 -4.956787824630737305e-02 -8.212751150131225586e-01
-5.922492593526840210e-02 2.702420577406883240e-03 -8.386322259902954102e-01
2.189989984035491943e-01 -3.326983004808425903e-02 -7.214288115501403809e-01
2.176639139652252197e-01 -3.090396523475646973e-02 -7.901954650878906250e-01
4.213580116629600525e-02 -6.799170374870300293e-02 -8.808303475379943848e-01
4.756460338830947876e-02 -5.694836378097534180e-02 -7.480990886688232422e-01
1.903839707374572754e-01 -6.041730940341949463e-02 -7.218846082687377930e-01
2.157860398292541504e-01 -4.525242373347282410e-02 -7.298406362533569336e-01
1.017818897962570190e-01 3.897572308778762817e-02 -8.102813363075256348e-01
-4.459336400032043457e-03 -8.607684634625911713e-03 -7.179100513458251953e-01
1.874667853116989136e-01 -5.437772721052169800e-02 -8.631910085678100586e-01
1.559385061264038086e-01 -4.881582409143447876e-02 -6.640540957450866699e-01
1.019281893968582153e-02 4.465610533952713013e-02 -8.257757425308227539e-01
1.113659739494323730e-01 3.595986217260360718e-02 -8.203573822975158691e-01
1.801161468029022217e-01 -4.879655689001083374e-02 -8.863857984542846680e-01
1.110413968563079834e-01 -4.160587489604949951e-02 -9.703320860862731934e-01
3.037378191947937012e-03 -4.734794050455093384e-02 -7.882564663887023926e-01
2.179330587387084961e-01 -4.507587477564811707e-02 -7.676640748977661133e-01
-6.341821700334548950e-02 -1.376779749989509583e-03 -8.993002772331237793e-01
1.133335381746292114e-01 -7.594899833202362061e-02 -8.647046685218811035e-01
4.151712357997894287e-02 3.178972750902175903e-02 -9.271768927574157715e-01
2.934099733829498291e-02 -3.463708981871604919e-02 -7.075176239013671875e-01
-1.925984770059585571e-02 3.201429545879364014e-02 -7.771102786064147949e-01
4.183383285999298096e-02 4.243926703929901123e-02 -8.694959282875061035e-01
1.420245170593261719e-01 2.913621999323368073e-02 -7.824124097824096680e-01
1.139301806688308716e-02 -5.282221734523773193e-02 -7.960601449012756348e-01
2.062622904777526855e-01 -5.478099733591079712e-02 -8.049424886703491211e-01
1.238205432891845703e-01 3.492876887321472168e-03 -9.339660406112670898e-01
-2.096244692802429199e-02 3.850814700126647949e-02 -8.283129334449768066e-01
1.057583466172218323e-01 -7.667135447263717651e-02 -8.126271963119506836e-01
1.848386824131011963e-01 -7.578222081065177917e-03 -8.565248847007751465e-01
3.030466288328170776e-02 3.037199936807155609e-02 -9.363929629325866699e-01
-3.209033608436584473e-02 3.467622399330139160e-02 -8.729487657546997070e-01
6.005563586950302124e-02 -3.663202375173568726e-02 -9.967812895774841309e-01
-3.421964496374130249e-02 3.297937661409378052e-02 -8.260900974273681641e-01
-6.875105202198028564e-03 -4.356907308101654053e-02 -9.582782983779907227e-01
1.971205174922943115e-01 -6.002442538738250732e-02 -8.176755905151367188e-01
2.572471275925636292e-02 -3.757200390100479126e-02 -7.182687520980834961e-01
-3.876333683729171753e-02 -1.049870625138282776e-02 -7.832648158073425293e-01
9.082889556884765625e-02 4.147106409072875977e-02 -8.026085495948791504e-01
3.327321633696556091e-02 1.874460466206073761e-02 -9.682512283325195312e-01
1.539461910724639893e-01 2.231835387647151947e-02 -8.108894824981689453e-01
1.692083328962326050e-01 1.593011431396007538e-02 -8.031272292137145996e-01
1.079583168029785156e-01 -5.878835916519165039e-03 -9.643063545227050781e-01
1.799665689468383789e-01 -5.530295521020889282e-02 -6.902658939361572266e-01
1.132400333881378174e-01 2.598428912460803986e-02 -8.820965886116027832e-01
1.485904157161712646e-01 -7.347936183214187622e-02 -7.631077766418457031e-01
9.501318633556365967e-02 -2.166463620960712433e-02 -6.398079395294189453e-01
1.679308414459228516e-01 -6.809382885694503784e-02 -8.552210330963134766e-01
1.842397004365921021e-01 -6.481067836284637451e-02 -7.366244792938232422e-01
1.320427954196929932e-01 -2.739180997014045715e-02 -9.565230011940002441e-01
-3.471975773572921753e-02 2.848800458014011383e-02 -8.008047342300415039e-01
1.457671225070953369e-01 1.529410667717456818e-02 -6.669598221778869629e-01
9.094962477684020996e-02 1.683433167636394501e-02 -6.549441814422607422e-01
-3.651560097932815552e-02 -3.096147999167442322e-02 -8.317376971244812012e-01
1.395339816808700562e-01 -6.537471711635589600e-02 -7.125766873359680176e-01
1.597744524478912354e-01 -5.814588814973831177e-02 -6.885645985603332520e-01
1.740958392620086670e-01 -7.052328437566757202e-02 -8.185412287712097168e-01
9.284345805644989014e-02 1.672685705125331879e-02 -9.370943307876586914e-01
9.583123028278350830e-02 4.044710099697113037e-02 -7.609395980834960938e-01
1.024902909994125366e-01 9.809792041778564453e-03 -9.440044760704040527e-01
5.853357911109924316e-02 3.110822290182113647e-04 -6.537421941757202148e-01
1.399089395999908447e-02 3.850997239351272583e-02 -7.526831030845642090e-01
2.739708498120307922e-02 7.206840440630912781e-03 -9.901769161224365234e-01
1.004506871104240417e-01 -6.478521972894668579e-02 -9.344414472579956055e-01
1.266937404870986938e-01 3.194817155599594116e-02 -7.255234718322753906e-01
8.948753029108047485e-02 4.047743976116180420e-02 -7.475878596305847168e-01
2.057250142097473145e-01 -1.592789404094219208e-02 -8.159161210060119629e-01
2.376386523246765137e-02 1.788698323071002960e-02 -6.917278170585632324e-01
6.860168278217315674e-02 -9.119130671024322510e-03 -9.939265251159667969e-01
5.686706304550170898e-02 -1.113406009972095490e-02 -6.557115316390991211e-01
1.293222904205322266e-01 -2.351212128996849060e-02 -6.323624253273010254e-01
3.464877605438232422e-02 2.291909046471118927e-02 -6.898438930511474609e-01
7.213963568210601807e-02 3.856305778026580811e-02 -8.709641695022583008e-01
6.459352374076843262e-02 -6.423437595367431641e-02 -7.585337758064270020e-01
7.150381803512573242e-03 4.374260455369949341e-02 -8.060519695281982422e-01
5.680610239505767822e-02 3.409302234649658203e-02 -7.046824693679809570e-01
6.740825623273849487e-02 -6.010036170482635498e-02 -9.545367956161499023e-01
1.558236777782440186e-03 3.052776865661144257e-02 -7.387415766716003418e-01
-4.251212626695632935e-02 1.473866030573844910e-02 -9.484291076660156250e-01
1.135054305195808411e-01 -7.729610800743103027e-02 -8.317146301269531250e-01
1.246591508388519287e-01 -5.599477328360080719e-03 -6.309989094734191895e-01
9.357869625091552734e-02 2.205649204552173615e-02 -9.212242364883422852e-01
8.518133312463760376e-02 -6.713739782571792603e-02 -7.494722008705139160e-01
3.260903060436248779e-02 -6.469652056694030762e-02 -9.007954597473144531e-01
2.844356000423431396e-03 -5.555139482021331787e-02 -9.047802090644836426e-01
-2.898073941469192505e-02 7.727546617388725281e-03 -9.750791788101196289e-01
-2.708572149276733398e-02 -4.048814624547958374e-02 -9.214161634445190430e-01
7.771736383438110352e-02 2.108262293040752411e-02 -6.649404764175415039e-01
-1.503125578165054321e-02 -1.072509214282035828e-02 -9.958776235580444336e-01
6.652269512414932251e-02 3.358838707208633423e-02 -9.036624431610107422e-01
1.446132808923721313e-01 -4.689249396324157715e-02 -6.593034863471984863e-01
1.192888468503952026e-01 -6.664542853832244873e-02 -9.184482097625732422e-01
-5.928222090005874634e-02 -1.342163421213626862e-02 -8.993844985961914062e-01
7.664827257394790649e-02 -7.447332143783569336e-02 -8.378392457962036133e-01
2.091071605682373047e-01 -8.286054246127605438e-03 -7.325604557991027832e-01
9.890525788068771362e-02 -5.288510024547576904e-02 -6.861732006072998047e-01
1.639494299888610840e-01 1.996169798076152802e-02 -7.245666384696960449e-01
1.543902009725570679e-01 -5.702832713723182678e-03 -6.373052597045898438e-01
2.602886781096458435e-02 4.139448702335357666e-02 -7.562500834465026855e-01
5.744913220405578613e-02 4.472572356462478638e-02 -8.283005356788635254e-01
-7.774636149406433105e-03 -5.030148476362228394e-02 -8.428573012351989746e-01
1.160691231489181519e-01 2.308355644345283508e-03 -9.446946978569030762e-01
1.532760262489318848e-01 1.652878709137439728e-02 -6.790652275085449219e-01
1.304174065589904785e-01 1.289596408605575562e-02 -6.520411968231201172e-01
7.993487268686294556e-02 2.537619136273860931e-02 -9.236841201782226562e-01
-4.955075681209564209e-03 -4.700312763452529907e-02 -9.473665952682495117e-01
6.598749011754989624e-02 -6.649716943502426147e-02 -9.283001422882080078e-01
1.783232986927032471e-01 8.567631244659423828e-03 -8.171701431274414062e-01
9.692858159542083740e-02 -4.240001551806926727e-03 -9.715468883514404297e-01
-4.936841875314712524e-02 7.302740588784217834e-03 -8.018145561218261719e-01
1.724099963903427124e-01 -4.528842866420745850e-03 -6.504645347595214844e-01
-8.606359362602233887e-03 4.186002165079116821e-02 -8.409011960029602051e-01
-1.061995327472686768e-02 3.284865617752075195e-02 -9.222977757453918457e-01
1.788827776908874512e-01 -2.399220690131187439e-02 -8.925696611404418945e-01
1.052105948328971863e-01 3.917255997657775879e-02 -7.787538170814514160e-01
8.303517103195190430e-02 -7.326596975326538086e-02 -7.975082397460937500e-01
9.600752592086791992e-02 2.258441038429737091e-02 -6.658196449279785156e-01
3.327339887619018555e-02 -6.256683170795440674e-02 -9.225435256958007812e-01
2.039627432823181152e-01 -4.867652058601379395e-02 -7.023066282272338867e-01
-8.024483919143676758e-03 -1.622996293008327484e-02 -7.303032279014587402e-01
1.317463815212249756e-03 -5.173199623823165894e-02 -8.180661797523498535e-01
7.646901905536651611e-02 -1.622666232287883759e-02 -6.455951929092407227e-01
4.432324320077896118e-02 8.923858404159545898e-03 -9.834055304527282715e-01
-4.112614691257476807e-02 -3.106734901666641235e-02 -9.217168688774108887e-01
1.465043127536773682e-01 3.752997145056724548e-03 -9.030137658119201660e-01
1.257929205894470215e-01 -4.504369571805000305e-02 -6.580362915992736816e-01
1.355146616697311401e-01 -6.432745605707168579e-02 -9.133600592613220215e-01
8.300457149744033813e-02 3.414569050073623657e-02 -8.842207789421081543e-01
6.008362025022506714e-02 2.574501000344753265e-02 -9.377399086952209473e-01
1.521586030721664429e-01 -7.539065927267074585e-02 -8.092656135559082031e-01
1.662473976612091064e-01 -4.524056613445281982e-02 -6.598770618438720703e-01
1.276525855064392090e-01 -7.714805006980895996e-02 -8.117818832397460938e-01
1.311914622783660889e-02 -5.579726397991180420e-02 -8.104403018951416016e-01
1.748520880937576294e-01 1.467480696737766266e-02 -7.862873077392578125e-01
9.834848344326019287e-02 -7.666547596454620361e-02 -8.368133306503295898e-01
1.078828424215316772e-01 3.480241447687149048e-02 -8.403362631797790527e-01
1.935793161392211914e-01 -3.256591968238353729e-03 -8.188694715499877930e-01
-2.783809602260589600e-02 3.399559110403060913e-02 -8.087876439094543457e-01
-5.155723541975021362e-02 8.441841229796409607e-03 -9.433642625808715820e-01
9.699556976556777954e-02 2.980658970773220062e-02 -8.879632949829101562e-01
7.317279279232025146e-02 5.627024918794631958e-03 -9.746828079223632812e-01
1.342242062091827393e-01 2.992953918874263763e-02 -8.110627532005310059e-01
9.982307255268096924e-02 3.573239594697952271e-02 -7.170347571372985840e-01
8.784592151641845703e-03 -5.860624462366104126e-02 -8.792122602462768555e-01
2.129549384117126465e-01 -5.200368911027908325e-02 -7.592803239822387695e-01
1.245559751987457275e-01 1.803923584520816803e-02 -6.609718203544616699e-01
2.248854935169219971e-02 -4.165251553058624268e-02 -7.328438758850097656e-01
-2.238947153091430664e-02 -1.949694007635116577e-03 -9.886654615402221680e-01
1.137533262372016907e-01 1.376838423311710358e-02 -9.226434230804443359e-01
3.839031234383583069e-02 3.882043063640594482e-02 -7.327726483345031738e-01
1.682461500167846680e-01 -2.222610823810100555e-02 -6.390123367309570312e-01
9.308755397796630859e-03 -5.825087428092956543e-02 -8.528591394424438477e-01
2.079763114452362061e-01 -9.303856641054153442e-03 -7.140910625457763672e-01
8.026580512523651123e-02 -7.073694467544555664e-02 -7.783198356628417969e-01
8.089917153120040894e-02 -3.938072919845581055e-02 -6.683170795440673828e-01
3.652704879641532898e-02 -6.200648844242095947e-02 -7.941206693649291992e-01
6.653814762830734253e-02 1.527882367372512817e-02 -9.608937501907348633e-01
1.956496089696884155e-01 -4.763944447040557861e-02 -8.564317822456359863e-01
2.830385044217109680e-02 4.561728984117507935e-02 -8.323377370834350586e-01
1.646482348442077637e-01 1.355818659067153931e-02 -8.337537050247192383e-01
6.369860470294952393e-02 4.111280292272567749e-02 -8.618437051773071289e-01
2.036158442497253418e-01 -4.027771204710006714e-02 -6.842074990272521973e-01
-2.872407436370849609e-02 -4.014670848846435547e-02 -8.583742380142211914e-01
-1.873373985290527344e-04 -5.319551378488540649e-02 -9.192414879798889160e-01
9.493198990821838379e-02 -4.753193259239196777e-02 -6.755545139312744141e-01
-1.589598506689071655e-02 2.128016017377376556e-02 -7.442594170570373535e-01
1.649188548326492310e-01 -7.301540672779083252e-02 -7.822409272193908691e-01
8.104156702756881714e-02 -6.454022228717803955e-02 -9.393886923789978027e-01
1.916468441486358643e-01 -3.969815373420715332e-02 -8.717670440673828125e-01
1.703065633773803711e-01 -5.898814648389816284e-02 -6.956241130828857422e-01
1.671673208475112915e-01 1.681323535740375519e-02 -7.080749869346618652e-01
1.900826841592788696e-01 7.504377514123916626e-03 -7.467420697212219238e-01
1.840130239725112915e-01 -4.793584346771240234e-02 -6.748454570770263672e-01
-5.456132441759109497e-02 -1.307983696460723877e-02 -8.408506512641906738e-01
1.616305559873580933e-01 -9.227545931935310364e-03 -9.044023156166076660e-01
6.893485784530639648e-02 1.402135379612445831e-02 -6.574490666389465332e-01
-4.697628319263458252e-03 -5.356368608772754669e-03 -9.993489980697631836e-01
2.406582981348037720e-02 -5.625680834054946899e-02 -7.858301997184753418e-01
-2.279830724000930786e-02 -4.108710587024688721e-02 -9.344011545181274414e-01
-4.332377016544342041e-02 2.916825376451015472e-02 -8.833677768707275391e-01
-2.195642143487930298e-02 -2.814494073390960693e-02 -7.782136201858520508e-01
-1.618248969316482544e-02 -6.250183098018169403e-03 -7.343546152114868164e-01
2.066986858844757080e-01 -5.745383352041244507e-02 -7.691527605056762695e-01
1.442451924085617065e-01 -2.224038168787956238e-02 -6.320060491561889648e-01
1.331731379032135010e-01 2.571381069719791412e-02 -8.466916680335998535e-01
4.732764139771461487e-02 -6.272517144680023193e-02 -7.770655751228332520e-01
4.379625990986824036e-02 -6.730854511260986328e-02 -8.983685970306396484e-01
-2.387501299381256104e-03 4.818974062800407410e-03 -7.118269205093383789e-01
8.468718826770782471e-02 7.708853110671043396e-03 -9.633474349975585938e-01
6.203559041023254395e-02 3.902956843376159668e-02 -7.249400615692138672e-01
7.576424628496170044e-02 4.376205056905746460e-02 -8.002264499664306641e-01
6.388254463672637939e-03 4.323749989271163940e-02 -8.588306903839111328e-01
6.180042400956153870e-02 4.437539726495742798e-02 -7.714821696281433105e-01
4.757874086499214172e-02 4.588736593723297119e-02 -8.050936460494995117e-01
1.438399404287338257e-02 -2.017366141080856323e-02 -7.034161090850830078e-01
1.367755234241485596e-03 -4.133634269237518311e-02 -9.749442934989929199e-01
-3.127351403236389160e-02 -4.856720566749572754e-03 -7.609664201736450195e-01
1.066630333662033081e-01 -3.281869739294052124e-02 -9.776865243911743164e-01
1.257441043853759766e-01 -7.416436821222305298e-02 -8.750463724136352539e-01
1.398840993642807007e-01 1.969858817756175995e-02 -8.632117509841918945e-01
3.287936374545097351e-02 3.476050496101379395e-02 -9.183849096298217773e-01
-5.455624312162399292e-02 8.074712008237838745e-03 -8.196386694908142090e-01
-2.139292657375335693e-03 -3.288789838552474976e-02 -7.501164078712463379e-01
1.220259517431259155e-01 2.282836474478244781e-02 -6.731512546539306641e-01
2.396225184202194214e-02 1.552089676260948181e-02 -9.769052267074584961e-01
1.052753850817680359e-01 3.881558030843734741e-02 -7.974998950958251953e-01
1.533970236778259277e-01 -7.455396652221679688e-02 -7.819620966911315918e-01
3.478020429611206055e-03 -5.649030208587646484e-02 -8.898460865020751953e-01
5.363588035106658936e-02 1.797138713300228119e-02 -9.621332883834838867e-01
-2.794032543897628784e-02 -2.856086380779743195e-02 -7.942665219306945801e-01
8.609724044799804688e-02 3.972981870174407959e-02 -7.361232042312622070e-01
1.436796784400939941e-01 -7.451589405536651611e-02 -8.515499830245971680e-01
6.188435852527618408e-02 4.502334445714950562e-02 -7.882866263389587402e-01
1.198711544275283813e-01 3.574410080909729004e-02 -7.839692234992980957e-01
1.170703768730163574e-01 2.096503414213657379e-02 -8.963783979415893555e-01
-1.889642328023910522e-02 9.438026696443557739e-03 -7.373179197311401367e-01
6.583577394485473633e-02 -2.112325653433799744e-02 -1.000188589096069336e+00
1.458528339862823486e-01 -5.108100920915603638e-02 -9.306266307830810547e-01
1.203352361917495728e-01 3.445905447006225586e-02 -7.373819947242736816e-01
-1.559945195913314819e-02 -4.405158758163452148e-02 -8.249792456626892090e-01
1.321394741535186768e-01 3.147237747907638550e-02 -7.358824014663696289e-01
1.876675486564636230e-01 -2.844390459358692169e-02 -6.542312502861022949e-01
5.259696021676063538e-02 -6.411046534776687622e-02 -9.336118698120117188e-01
1.184869408607482910e-01 3.020589612424373627e-02 -8.508496880531311035e-01
-3.089993447065353394e-02 3.404310345649719238e-02 -8.860937952995300293e-01
-4.315536469221115112e-02 2.474548481404781342e-02 -9.154066443443298340e-01
1.786788403987884521e-01 -6.981524825096130371e-02 -7.754569649696350098e-01
1.766696423292160034e-01 1.313934847712516785e-02 -7.141222953796386719e-01
1.420065462589263916e-01 1.533393375575542450e-02 -8.767036795616149902e-01
-5.050892382860183716e-02 -2.401540428400039673e-02 -8.720965981483459473e-01
5.114412680268287659e-02 4.136709868907928467e-02 -7.411510944366455078e-01
5.548991262912750244e-03 -1.275674253702163696e-02 -1.004508733749389648e+00
1.808888465166091919e-01 -5.548937618732452393e-02 -8.740199804306030273e-01
5.934444814920425415e-02 2.099648118019104004e-03 -9.870772361755371094e-01
9.616876393556594849e-02 -6.046261638402938843e-02 -9.489632844924926758e-01
-5.723492056131362915e-02 1.880320720374584198e-02 -8.658866286277770996e-01
1.934021115303039551e-01 -1.479100249707698822e-02 -6.636145710945129395e-01
4.639543592929840088e-03 -4.058513045310974121e-02 -7.591849565505981445e-01
1.054191961884498596e-01 3.128027170896530151e-02 -6.963829994201660156e-01
8.044592291116714478e-02 4.325313121080398560e-02 -7.887964844703674316e-01
-1.687157899141311646e-02 -4.679583013057708740e-02 -9.114667177200317383e-01
-1.893080025911331177e-02 -3.870322555303573608e-02 -8.069357872009277344e-01
1.413744091987609863e-01 -6.675302982330322266e-02 -8.994194269180297852e-01
1.858673393726348877e-01 6.431803107261657715e-03 -7.024686932563781738e-01
1.861234605312347412e-01 8.287187665700912476e-03 -7.835351824760437012e-01
1.126560568809509277e-02 -5.593353509902954102e-02 -9.288141727447509766e-01
1.023247838020324707e-01 2.857934497296810150e-02 -6.840994358062744141e-01
-3.969345241785049438e-02 -2.142930962145328522e-02 -8.073331117630004883e-01
-9.552560746669769287e-03 -5.048396438360214233e-02 -8.563125729560852051e-01
1.435878276824951172e-01 -7.120484858751296997e-02 -8.766238689422607422e-01
1.922943294048309326e-01 -5.704808048903942108e-03 -8.315899968147277832e-01
-5.208767205476760864e-02 2.393995039165019989e-02 -8.769403696060180664e-01
-2.185032516717910767e-02 -1.428962778300046921e-02 -7.517883181571960449e-01
1.334606558084487915e-01 -6.950846314430236816e-02 -7.330902218818664551e-01
7.408680021762847900e-02 4.143497347831726074e-02 -8.451137542724609375e-01
-1.385800540447235107e-02 -4.928225278854370117e-02 -8.848395943641662598e-01
2.152653634548187256e-01 -3.001148998737335205e-02 -8.020486831665039062e-01
1.647232472896575928e-01 9.841768071055412292e-03 -6.715002059936523438e-01
1.378555297851562500e-01 2.981318719685077667e-02 -7.967353463172912598e-01
8.907162398099899292e-02 -7.434561103582382202e-02 -8.803809285163879395e-01
2.908610925078392029e-02 -5.449689179658889771e-02 -9.586888551712036133e-01
-1.882864534854888916e-02 -4.654598236083984375e-02 -8.992310762405395508e-01
1.678187698125839233e-01 3.001650795340538025e-03 -8.666658997535705566e-01
3.713222965598106384e-02 -8.837692439556121826e-03 -6.706058382987976074e-01
8.770538866519927979e-02 -5.271568149328231812e-02 -6.929473876953125000e-01
5.350276827812194824e-03 1.940808258950710297e-02 -7.126436829566955566e-01
1.390710175037384033e-01 -7.647693157196044922e-02 -8.012044429779052734e-01
8.689031004905700684e-03 -4.723236709833145142e-02 -7.752078771591186523e-01
1.111637055873870850e-01 -7.704991847276687622e-02 -8.441005945205688477e-01
1.589874923229217529e-02 2.779261581599712372e-02 -7.156316041946411133e-01
9.482476860284805298e-02 3.685880452394485474e-02 -8.500019907951354980e-01
7.789436727762222290e-02 2.824692241847515106e-02 -6.812772154808044434e-01
1.935348808765411377e-01 4.670331254601478577e-03 -7.298536300659179688e-01
5.432227253913879395e-02 -2.339158952236175537e-02 -6.661423444747924805e-01
1.754519939422607422e-01 -3.813474625349044800e-02 -9.017372131347656250e-01
7.480377703905105591e-02 -7.417748868465423584e-02 -8.595686554908752441e-01
5.241047590970993042e-02 -6.960844993591308594e-02 -8.885520100593566895e-01
5.700764805078506470e-02 -6.893112510442733765e-02 -8.047149777412414551e-01
5.981802195310592651e-02 3.897964954376220703e-02 -8.808915019035339355e-01
2.788089215755462646e-02 -2.048362419009208679e-02 -6.880484819412231445e-01
1.027389317750930786e-01 -1.464818697422742844e-02 -6.337890625000000000e-01
-4.597883671522140503e-02 -2.819180302321910858e-02 -9.112496376037597656e-01
-2.695499360561370850e-02 -2.842275984585285187e-02 -9.696891307830810547e-01
1.492943614721298218e-02 2.961090765893459320e-02 -9.413986206054687500e-01
5.388744175434112549e-02 -6.627669185400009155e-02 -7.884849309921264648e-01
-1.473762094974517822e-03 3.625336289405822754e-02 -9.105069637298583984e-01
1.893128752708435059e-01 -6.532524526119232178e-02 -7.545325756072998047e-01
-5.333962291479110718e-02 1.622023619711399078e-02 -9.209772944450378418e-01
1.348875164985656738e-01 2.219180576503276825e-02 -6.801799535751342773e-01
4.516665637493133545e-02 3.482399135828018188e-02 -7.124520540237426758e-01
6.490310281515121460e-02 -6.924633681774139404e-02 -7.910879850387573242e-01
3.691038116812705994e-02 2.307674102485179901e-02 -9.566178321838378906e-01
1.537424325942993164e-02 -5.406751483678817749e-02 -9.465724825859069824e-01
2.108101546764373779e-01 -1.788808964192867279e-02 -6.987013816833496094e-01
1.138469129800796509e-01 -7.289996743202209473e-02 -8.914955258369445801e-01
9.820165485143661499e-02 -4.627176374197006226e-02 -9.737302660942077637e-01
1.342680454254150391e-01 -3.509084135293960571e-02 -6.418433189392089844e-01
4.501836746931076050e-02 4.478260874748229980e-02 -7.740198373794555664e-01
7.741857320070266724e-02 -6.956501305103302002e-02 -9.150185585021972656e-01
1.951588094234466553e-01 -4.915961623191833496e-02 -6.891120672225952148e-01
-4.646445065736770630e-02 1.945849321782588959e-02 -8.082192540168762207e-01
1.936606764793395996e-01 -7.668723352253437042e-03 -6.740001440048217773e-01
4.695358127355575562e-02 -6.617069989442825317e-02 -9.151548147201538086e-01
1.082951873540878296e-01 -2.912019193172454834e-02 -6.409670114517211914e-01
9.254302829504013062e-02 -7.582181692123413086e-02 -8.597309589385986328e-01
5.590680986642837524e-02 -7.004012167453765869e-02 -8.210726380348205566e-01
1.539309322834014893e-01 2.509563229978084564e-02 -7.725133895874023438e-01
1.871444880962371826e-01 4.614418372511863708e-03 -8.058346509933471680e-01
1.051569953560829163e-01 -6.902892142534255981e-02 -9.160941243171691895e-01
2.092493474483489990e-01 -1.285262871533632278e-02 -7.901800870895385742e-01
1.290355771780014038e-01 1.863851957023143768e-02 -8.867787122726440430e-01
8.308395743370056152e-03 8.252955973148345947e-03 -6.997881531715393066e-01
8.102389425039291382e-02 -2.924885042011737823e-02 -9.933837056159973145e-01
-4.183711111545562744e-02 -3.090386092662811279e-02 -8.605301380157470703e-01
2.047135233879089355e-01 -5.861464887857437134e-02 -7.817207574844360352e-01
2.089770138263702393e-01 -8.742056787014007568e-03 -7.664574980735778809e-01
1.179009824991226196e-01 -5.691719055175781250e-02 -6.881981492042541504e-01
1.968082487583160400e-01 1.907402649521827698e-03 -7.711006402969360352e-01
1.485163718461990356e-02 -5.946909636259078979e-02 -9.062549471855163574e-01
1.383865475654602051e-01 3.064576350152492523e-02 -7.594987750053405762e-01
1.557841449975967407e-01 -6.457208096981048584e-02 -7.109001874923706055e-01
1.221539676189422607e-01 -7.343821972608566284e-02 -7.616028189659118652e-01
-5.384781211614608765e-02 -1.045057363808155060e-02 -9.419378638267517090e-01
4.233856871724128723e-02 -6.811096519231796265e-02 -8.456895351409912109e-01
1.839048117399215698e-01 -1.285026501864194870e-02 -6.532779932022094727e-01
5.885802954435348511e-02 -7.179274410009384155e-02 -8.529375195503234863e-01
-4.584725201129913330e-02 -3.449967131018638611e-03 -9.633879661560058594e-01
2.335849776864051819e-02 2.626554854214191437e-02 -9.511492848396301270e-01
4.776178672909736633e-02 4.576501995325088501e-02 -8.170452117919921875e-01
1.703672483563423157e-02 4.097206145524978638e-02 -8.865376114845275879e-01
1.898347735404968262e-01 -5.988221615552902222e-02 -8.418819308280944824e-01
1.489172428846359253e-01 -3.691537678241729736e-02 -6.440249085426330566e-01
6.939221918582916260e-02 1.938330195844173431e-02 -9.493979215621948242e-01
9.680380672216415405e-02 4.387745633721351624e-03 -9.594036340713500977e-01
1.240108907222747803e-01 -5.650297552347183228e-02 -9.419701099395751953e-01
6.256314367055892944e-02 -5.477683991193771362e-02 -9.690813422203063965e-01
-3.469858318567276001e-02 -3.759972751140594482e-02 -8.882643580436706543e-01
1.124865710735321045e-01 -6.379474699497222900e-02 -9.319960474967956543e-01
1.303189396858215332e-01 -5.959089100360870361e-02 -6.926421523094177246e-01
1.479719579219818115e-01 -6.021309643983840942e-02 -9.117367267608642578e-01
-4.653433710336685181e-02 -2.115794271230697632e-02 -9.438368678092956543e-01
1.414870768785476685e-01 1.058507524430751801e-02 -8.930634856224060059e-01
1.562144160270690918e-01 -7.078444212675094604e-02 -8.609713315963745117e-01
1.748154014348983765e-01 -3.727487474679946899e-02 -6.520699858665466309e-01
-1.523717492818832397e-02 -2.687497064471244812e-02 -7.607631683349609375e-01
1.492277979850769043e-01 7.896836847066879272e-03 -6.520888209342956543e-01
1.555588841438293457e-01 -6.542745977640151978e-02 -8.871565461158752441e-01
1.484840363264083862e-01 2.716452442109584808e-02 -7.504903078079223633e-01
-4.233676940202713013e-02 -1.315938495099544525e-02 -7.967295050621032715e-01
-3.437231481075286865e-02 -7.960112765431404114e-03 -9.795880913734436035e-01
-2.163790166378021240e-03 3.428403288125991821e-02 -7.559376955032348633e-01
2.183159068226814270e-02 -7.583703845739364624e-04 -9.998489618301391602e-01
1.161608695983886719e-01 3.673805296421051025e-02 -7.680131196975708008e-01
2.152310907840728760e-01 -1.846574805676937103e-02 -7.190195322036743164e-01
1.551369130611419678e-01 -4.583671689033508301e-02 -9.257551431655883789e-01
1.371483504772186279e-01 -5.951246246695518494e-03 -6.319310665130615234e-01
1.578933149576187134e-01 1.850959099829196930e-02 -8.255103230476379395e-01
1.291902661323547363e-01 -1.228657364845275879e-02 -9.505881667137145996e-01
1.146682202816009521e-01 -1.539890281856060028e-02 -9.673196673393249512e-01
8.005790412425994873e-02 1.453825645148754120e-02 -9.531807899475097656e-01
2.073614299297332764e-02 -1.071600243449211121e-03 -6.845970749855041504e-01
1.574307680130004883e-04 1.512727141380310059e-02 -9.773128628730773926e-01
1.506549865007400513e-01 2.197005786001682281e-02 5.321577191352844238e-01
1.078969165682792664e-01 -1.133412867784500122e-01 7.459409832954406738e-01
1.062806919217109680e-01 1.104430109262466431e-01 9.703768491744995117e-01
-1.053231805562973022e-01 2.966401726007461548e-02 6.759857535362243652e-01
2.176507264375686646e-01 -4.916680976748466492e-02 6.167599558830261230e-01
8.620378375053405762e-02 1.044360101222991943e-01 5.748062133789062500e-01
-1.642187386751174927e-01 1.117396950721740723e-01 8.124248981475830078e-01
1.540226340293884277e-01 -1.110969930887222290e-01 6.802253723144531250e-01
-1.528201103210449219e-01 1.119996160268783569e-01 7.426453232765197754e-01
-5.319582670927047729e-02 8.106059581041336060e-02 5.578741431236267090e-01
1.082109361886978149e-01 -5.172875151038169861e-02 1.003967285156250000e+00
2.092884033918380737e-01 -9.313981235027313232e-02 7.971013784408569336e-01
2.311389893293380737e-01 -7.299342751502990723e-02 7.130349278450012207e-01
-1.639583557844161987e-01 1.419734805822372437e-01 8.605397343635559082e-01
-1.888230070471763611e-02 -4.826867952942848206e-02 9.394957423210144043e-01
1.761616021394729614e-01 7.154509425163269043e-02 6.686509847640991211e-01
1.069414168596267700e-01 8.675111830234527588e-02 1.013430595397949219e+00
-1.175641715526580811e-01 3.775075823068618774e-02 9.585620164871215820e-01
-8.511025458574295044e-02 9.197978675365447998e-02 5.947607755661010742e-01
-1.300714313983917236e-01 7.248169928789138794e-02 9.871791601181030273e-01
-8.141042292118072510e-02 1.248797923326492310e-01 1.061015605926513672e+00
6.118753924965858459e-03 -7.947602868080139160e-02 8.105664253234863281e-01
4.935656487941741943e-02 1.697632968425750732e-01 7.782449722290039062e-01
-1.017416268587112427e-01 8.419860154390335083e-03 9.197028875350952148e-01
-1.200174689292907715e-01 8.926254510879516602e-02 6.527715921401977539e-01
6.781030446290969849e-02 -9.413294494152069092e-02 6.564640998840332031e-01
-2.151375636458396912e-02 3.012378886342048645e-02 1.079754114151000977e+00
-7.834275811910629272e-02 7.326215505599975586e-02 1.067433714866638184e+00
1.377915591001510620e-01 1.178082078695297241e-01 7.830008864402770996e-01
-1.184204667806625366e-01 1.099655628204345703e-01 6.508418321609497070e-01
-1.509387791156768799e-01 6.661179661750793457e-02 8.067302703857421875e-01
-1.697224378585815430e-02 -6.409019231796264648e-02 7.266191244125366211e-01
-2.383030951023101807e-02 -5.296027287840843201e-02 9.065959453582763672e-01
-1.146975457668304443e-01 1.730095148086547852e-01 9.686875939369201660e-01
2.091943174600601196e-01 3.979963809251785278e-02 7.104493379592895508e-01
1.668126732110977173e-01 9.140077233314514160e-02 8.133721351623535156e-01
1.680624037981033325e-01 -1.817233115434646606e-02 5.351907610893249512e-01
4.376741871237754822e-02 1.731009483337402344e-01 8.237576484680175781e-01
-2.518728747963905334e-02 3.013638406991958618e-02 5.384687185287475586e-01
1.479941606521606445e-01 -5.884189531207084656e-02 9.713625907897949219e-01
-1.321380138397216797e-01 3.748993575572967529e-02 7.787956595420837402e-01
-5.295347422361373901e-02 1.727722138166427612e-01 9.976621270179748535e-01
6.480383872985839844e-02 1.380267143249511719e-01 9.770867228507995605e-01
1.501443088054656982e-01 -1.154863685369491577e-01 7.303428053855895996e-01
1.075218319892883301e-01 1.358657628297805786e-01 7.316882610321044922e-01
-6.104656308889389038e-02 -3.483715280890464783e-02 8.668686151504516602e-01
1.974850147962570190e-01 -5.120999738574028015e-02 5.791604518890380859e-01
4.258473590016365051e-02 -7.461123168468475342e-02 9.366561770439147949e-01
-1.606964617967605591e-01 9.159013628959655762e-02 8.793294429779052734e-01
1.456083059310913086e-01 -1.651732251048088074e-02 1.010838985443115234e+00
3.364710509777069092e-02 1.686413288116455078e-01 7.132806181907653809e-01
1.319184154272079468e-02 1.289389282464981079e-01 5.777779221534729004e-01
1.215111762285232544e-01 6.501846015453338623e-03 1.040646314620971680e+00
7.630280405282974243e-02 1.506707370281219482e-01 7.121859788894653320e-01
4.393894225358963013e-02 1.091853380203247070e-01 1.056040167808532715e+00
-4.365649074316024780e-02 1.716245561838150024e-01 6.696237921714782715e-01
1.042927205562591553e-01 -7.163323462009429932e-03 1.048442959785461426e+00
-5.360879749059677124e-02 1.004010140895843506e-01 5.660341978073120117e-01
1.814799606800079346e-01 3.158388286828994751e-02 9.415624141693115234e-01
7.639925926923751831e-03 -3.280854597687721252e-02 1.015389561653137207e+00
7.068802416324615479e-02 6.232368946075439453e-02 5.120636224746704102e-01
-1.611367762088775635e-01 1.497057676315307617e-01 8.399844765663146973e-01
1.219605356454849243e-01 -3.173946216702461243e-02 1.020435333251953125e+00
2.180904597043991089e-01 2.847351878881454468e-02 7.768589854240417480e-01
1.550173014402389526e-01 6.090624630451202393e-02 9.637410640716552734e-01
8.944353461265563965e-02 -1.073562353849411011e-01 8.198899030685424805e-01
-1.517481356859207153e-01 6.703408807516098022e-02 8.650836348533630371e-01
2.038832455873489380e-01 -7.735699415206909180e-02 8.645224571228027344e-01
4.488856345415115356e-02 2.998630888760089874e-02 4.991225898265838623e-01
1.100913658738136292e-01 -6.105850264430046082e-02 5.413768291473388672e-01
1.849177181720733643e-01 -1.047724783420562744e-01 6.760422587394714355e-01
1.296576112508773804e-01 7.709944993257522583e-02 5.743255019187927246e-01
2.060382962226867676e-01 3.284876793622970581e-02 8.569062352180480957e-01
-9.247420728206634521e-02 -9.823095053434371948e-03 7.755807042121887207e-01
-7.930001616477966309e-02 3.602448850870132446e-03 9.741134643554687500e-01
-1.343143731355667114e-01 6.310654431581497192e-02 9.598541259765625000e-01
-3.299433737993240356e-03 1.130659133195877075e-03 1.060868263244628906e+00
1.741225272417068481e-01 2.191852778196334839e-03 9.749494791030883789e-01
-5.635397881269454956e-02 1.449987739324569702e-01 1.050329327583312988e+00
2.085439860820770264e-01 -9.562730789184570312e-02 6.919097900390625000e-01
1.324460804462432861e-01 9.624556452035903931e-02 6.232348084449768066e-01
7.261064648628234863e-02 1.582080572843551636e-01 8.489411473274230957e-01
4.027448594570159912e-03 -6.236297264695167542e-02 9.282978773117065430e-01
-9.490458667278289795e-02 1.930965185165405273e-01 9.045005440711975098e-01
-1.120840907096862793e-01 4.554598033428192139e-02 9.902826547622680664e-01
5.554199218750000000e-02 -8.588467538356781006e-02 9.065643548965454102e-01
2.262895405292510986e-01 -1.817241311073303223e-03 6.722717881202697754e-01
-5.764883011579513550e-02 1.900974512100219727e-01 9.345251917839050293e-01
1.902693063020706177e-01 -2.884257957339286804e-02 9.442153573036193848e-01
-2.459644153714179993e-02 -4.679382964968681335e-02 6.594839692115783691e-01
1.006801053881645203e-01 1.195747852325439453e-01 6.316103339195251465e-01
7.055385410785675049e-02 -8.867487311363220215e-03 1.060950994491577148e+00
2.277737855911254883e-01 -6.934420764446258545e-02 8.024578690528869629e-01
5.132082849740982056e-03 1.508993506431579590e-01 6.210260987281799316e-01
2.193800956010818481e-01 -7.979376614093780518e-02 6.659407019615173340e-01
2.262880280613899231e-02 9.625899046659469604e-02 1.081562757492065430e+00
3.920852392911911011e-02 1.695981472730636597e-01 7.329725027084350586e-01
-1.803895831108093262e-02 8.905324339866638184e-02 1.093863606452941895e+00
5.686793476343154907e-02 -5.258576199412345886e-02 5.521503686904907227e-01
3.178427368402481079e-02 1.281782090663909912e-01 1.039736270904541016e+00
-6.261629611253738403e-02 -1.409753039479255676e-02 9.617881774902343750e-01
1.687513105571269989e-02 -7.745152711868286133e-02 6.844443082809448242e-01
1.551066339015960693e-01 8.147874474525451660e-02 9.212318658828735352e-01
-1.328796148300170898e-01 1.351021975278854370e-01 6.958501935005187988e-01
-2.659495174884796143e-02 9.916515648365020752e-02 5.483638048171997070e-01
-1.094563156366348267e-01 1.928067803382873535e-01 8.358104825019836426e-01
-1.574312150478363037e-01 9.543111175298690796e-02 7.759963870048522949e-01
1.903488337993621826e-01 -1.014031618833541870e-01 8.147082924842834473e-01
1.303690969944000244e-01 2.956270612776279449e-02 1.029894948005676270e+00
7.015019655227661133e-02 -8.143216371536254883e-02 6.047517657279968262e-01
-1.016515120863914490e-02 1.629383862018585205e-01 1.002987384796142578e+00
1.827220469713211060e-01 7.588023692369461060e-02 7.959325909614562988e-01
1.568656265735626221e-01 9.462238848209381104e-02 8.646808266639709473e-01
-1.116437166929244995e-01 1.810646504163742065e-01 9.469738602638244629e-01
6.550571322441101074e-02 -2.430242672562599182e-02 1.047069787979125977e+00
1.190593913197517395e-01 1.214637905359268188e-01 6.842609047889709473e-01
1.012355983257293701e-01 -1.095214486122131348e-01 7.007670402526855469e-01
1.545591652393341064e-01 -1.125115603208541870e-01 8.030648827552795410e-01
-7.892148196697235107e-02 -2.363233640789985657e-02 8.211989998817443848e-01
-4.742722958326339722e-02 1.974579840898513794e-01 8.429531455039978027e-01
1.922467350959777832e-01 5.967925488948822021e-02 8.356170654296875000e-01
1.231071203947067261e-01 -7.806730270385742188e-02 5.679972767829895020e-01
-1.004543006420135498e-01 3.069851547479629517e-03 8.993029594421386719e-01
1.972921751439571381e-02 -8.426626026630401611e-02 7.276922464370727539e-01
1.214713081717491150e-01 -6.833761930465698242e-02 9.718202352523803711e-01
-1.484607756137847900e-01 1.468706130981445312e-01 7.536113262176513672e-01
8.709568530321121216e-02 2.284129895269870758e-02 1.068337202072143555e+00
-1.278656125068664551e-01 1.781687885522842407e-01 9.272763133049011230e-01
3.685842454433441162e-02 7.142869383096694946e-02 1.088419914245605469e+00
-4.180077463388442993e-02 1.473574936389923096e-01 6.127929687500000000e-01
-9.076546132564544678e-02 1.125342547893524170e-01 6.099324822425842285e-01
1.446956545114517212e-01 -1.143937408924102783e-01 7.080187201499938965e-01
4.220332950353622437e-02 -9.390015900135040283e-02 8.244593143463134766e-01
2.297259569168090820e-01 -2.066638320684432983e-02 8.297801017761230469e-01
-6.021219491958618164e-02 -3.834432736039161682e-02 8.281281590461730957e-01
-1.011679619550704956e-01 1.390193104743957520e-01 6.462241411209106445e-01
-1.298898458480834961e-01 1.829155832529067993e-01 8.180111050605773926e-01
1.743256896734237671e-01 -8.178827166557312012e-02 9.050222635269165039e-01
8.032688498497009277e-02 1.303580850362777710e-01 6.318196654319763184e-01
1.472910940647125244e-01 5.935948714613914490e-02 5.693912506103515625e-01
-2.425302192568778992e-02 1.474604569375514984e-02 1.064095497131347656e+00
-3.604368865489959717e-02 -4.873017594218254089e-02 8.894377350807189941e-01
-1.470842808485031128e-01 1.356622129678726196e-01 9.673954248428344727e-01
1.931511014699935913e-01 2.354818396270275116e-02 6.001167297363281250e-01
8.442865312099456787e-02 -5.709086731076240540e-02 5.430275201797485352e-01
-7.848715037107467651e-02 3.467299044132232666e-03 6.554867029190063477e-01
1.351137459278106689e-01 -1.133843958377838135e-01 8.047438859939575195e-01
-6.052251905202865601e-03 1.898403018712997437e-01 8.115236163139343262e-01
-2.013043686747550964e-02 1.400503814220428467e-01 5.953060984611511230e-01
-4.250305891036987305e-02 1.851486712694168091e-01 9.513262510299682617e-01
-1.411772891879081726e-02 -3.695570304989814758e-02 6.076892018318176270e-01
2.596863359212875366e-02 1.799955070018768311e-01 8.341830372810363770e-01
1.000496149063110352e-01 1.439731568098068237e-01 8.089038133621215820e-01
6.598147749900817871e-02 -8.801077306270599365e-02 6.321697831153869629e-01
-1.412247568368911743e-01 8.831096440553665161e-02 7.096489071846008301e-01
1.311495900154113770e-03 1.640948355197906494e-01 6.567484736442565918e-01
1.680696159601211548e-01 2.381866984069347382e-02 9.767261743545532227e-01
-3.421592712402343750e-02 -2.451398596167564392e-02 9.866204261779785156e-01
1.935458183288574219e-01 3.781605511903762817e-03 5.784703493118286133e-01
-1.071172058582305908e-01 1.647296398878097534e-01 6.970277428627014160e-01
-8.720587939023971558e-02 1.609551757574081421e-01 6.659911274909973145e-01
7.170771062374114990e-02 -1.004518419504165649e-01 8.472953438758850098e-01
-5.961980670690536499e-03 1.852761507034301758e-01 7.511557340621948242e-01
7.197973132133483887e-02 -6.838218867778778076e-02 5.704230070114135742e-01
1.200263760983943939e-02 1.797915101051330566e-01 9.033480286598205566e-01
2.178205698728561401e-01 -9.714562445878982544e-03 8.739610910415649414e-01
5.389307811856269836e-02 -9.899032115936279297e-02 7.342434525489807129e-01
6.933853030204772949e-02 1.071563363075256348e-01 1.033879637718200684e+00
-3.999856114387512207e-02 1.662695258855819702e-01 1.010810136795043945e+00
-1.420336961746215820e-02 1.914566606283187866e-01 8.577261567115783691e-01
2.228557914495468140e-01 -6.569527089595794678e-02 8.325474262237548828e-01
-1.053888201713562012e-01 1.672350242733955383e-02 9.376252293586730957e-01
2.141671180725097656e-01 -2.854795381426811218e-02 6.050114631652832031e-01
-5.696117877960205078e-02 3.453809767961502075e-03 6.070422530174255371e-01
-1.213919222354888916e-01 8.548602461814880371e-02 1.018070220947265625e+00
-4.140765219926834106e-02 2.660721540451049805e-03 1.033109784126281738e+00
8.654959499835968018e-02 9.687320888042449951e-02 1.027572870254516602e+00
-6.852200627326965332e-02 1.654076427221298218e-01 6.616981625556945801e-01
1.793797314167022705e-01 -1.020003557205200195e-01 8.345637917518615723e-01
-1.513386964797973633e-01 9.458249807357788086e-02 9.465252161026000977e-01
1.460170745849609375e-01 1.013392359018325806e-01 8.836175203323364258e-01
1.385011970996856689e-01 1.017373502254486084e-01 6.569731235504150391e-01
-3.189276158809661865e-02 1.939893811941146851e-01 7.926651835441589355e-01
1.124262884259223938e-01 4.943717271089553833e-02 1.041721343994140625e+00
-1.522116661071777344e-01 1.131360381841659546e-01 9.565324783325195312e-01
7.655552029609680176e-02 9.422093629837036133e-02 5.495955348014831543e-01
-5.393844842910766602e-02 4.686383903026580811e-02 1.072312116622924805e+00
1.265661716461181641e-01 1.240763217210769653e-01 7.398664951324462891e-01
2.356058657169342041e-01 -2.094673737883567810e-02 7.003289461135864258e-01
5.466857179999351501e-02 1.457462310791015625e-01 6.458588838577270508e-01
2.217896282672882080e-01 2.210283651947975159e-02 7.376461625099182129e-01
-8.651923388242721558e-02 1.040846556425094604e-01 1.065254330635070801e+00
2.450763061642646790e-02 1.004619672894477844e-01 5.392626523971557617e-01
-1.110764294862747192e-01 1.544767767190933228e-01 1.009483575820922852e+00
-1.153741180896759033e-01 1.683180220425128937e-02 8.871863484382629395e-01
-2.789538353681564331e-02 -6.009081378579139709e-02 7.613927125930786133e-01
-1.577945947647094727e-01 1.103409230709075928e-01 9.322901964187622070e-01
-1.414249688386917114e-01 1.042257100343704224e-01 9.853605628013610840e-01
2.139716446399688721e-01 -9.365604817867279053e-02 7.656867504119873047e-01
-7.324307411909103394e-02 1.957562416791915894e-01 8.973577022552490234e-01
1.561035662889480591e-01 8.421752601861953735e-03 1.001809120178222656e+00
-7.079622894525527954e-02 1.984585523605346680e-01 8.436502218246459961e-01
3.376147150993347168e-02 1.739337444305419922e-01 8.822988867759704590e-01
1.106941923499107361e-01 -9.646479785442352295e-02 6.201232671737670898e-01
3.919862210750579834e-04 5.872480198740959167e-02 1.097060322761535645e+00
1.999916732311248779e-01 4.127551615238189697e-02 6.600348949432373047e-01
4.023594409227371216e-02 1.737494170665740967e-01 8.498038649559020996e-01
7.630012929439544678e-03 -1.577384397387504578e-02 5.436790585517883301e-01
1.209665536880493164e-01 1.116943806409835815e-01 6.474953889846801758e-01
6.356013566255569458e-02 1.708242483437061310e-02 1.077734112739562988e+00
