-1.746176183223724365e-01 8.785578608512878418e-01 -1.978277266025543213e-01
-1.883940994739532471e-01 7.557322382926940918e-01 -3.505509197711944580e-01
-1.669672429561614990e-01 4.031144976615905762e-01 -7.254344224929809570e-02
-1.790660023689270020e-01 8.402066230773925781e-01 2.083847373723983765e-01
-1.600850373506546021e-01 7.917773723602294922e-01 2.347800880670547485e-03
-2.371102720499038696e-01 6.564422249794006348e-01 -2.585605084896087646e-01
-1.758195459842681885e-01 4.042170345783233643e-01 -1.930690854787826538e-01
-1.632372885942459106e-01 6.354342699050903320e-01 -2.365802079439163208e-01
-2.458663135766983032e-01 5.575274229049682617e-01 4.508594423532485962e-02
-2.296756803989410400e-01 8.629595041275024414e-01 -2.586603462696075439e-01
-2.159494161605834961e-01 8.764069080352783203e-01 2.552275657653808594e-01
-2.021256238222122192e-01 1.010410308837890625e+00 5.425072461366653442e-02
-2.191154062747955322e-01 9.035326242446899414e-01 -2.718085050582885742e-01
-2.406985610723495483e-01 4.946876168251037598e-01 -7.447368651628494263e-02
-2.317712306976318359e-01 9.673345088958740234e-01 5.299384146928787231e-02
-2.239490449428558350e-01 4.076523184776306152e-01 1.360025256872177124e-01
-1.716351658105850220e-01 5.351113080978393555e-01 -2.777703404426574707e-01
-2.329012751579284668e-01 6.627141833305358887e-01 2.604642808437347412e-01
-1.674928814172744751e-01 7.377040386199951172e-01 1.874738484621047974e-01
-1.784847974777221680e-01 9.026865959167480469e-01 -1.991084665060043335e-01
-2.411098182201385498e-01 5.180262327194213867e-01 -1.178246140480041504e-01
-1.648051887750625610e-01 4.293369650840759277e-01 -1.054294928908348083e-01
-2.131353616714477539e-01 5.456395149230957031e-01 -3.364392220973968506e-01
-1.545004993677139282e-01 6.534240245819091797e-01 -3.380735218524932861e-02
-1.767075955867767334e-01 9.212030172348022461e-01 7.536891102790832520e-02
-2.275513708591461182e-01 9.932120442390441895e-01 -3.963266313076019287e-02
-1.743091344833374023e-01 7.502438426017761230e-01 2.340926229953765869e-01
-2.269467711448669434e-01 5.848534107208251953e-01 -3.019830286502838135e-01
-2.465669512748718262e-01 6.923186182975769043e-01 -1.606723517179489136e-01
-1.564806699752807617e-01 6.847894191741943359e-01 -1.207520663738250732e-01
-2.430940121412277222e-01 5.112330913543701172e-01 -5.665663629770278931e-04
-1.635490208864212036e-01 8.194687366485595703e-01 -1.247416809201240540e-01
-2.158040851354598999e-01 3.462851643562316895e-01 4.476925730705261230e-02
-2.400860488414764404e-01 5.009901523590087891e-01 8.842671662569046021e-02
-2.382615208625793457e-01 9.200534224510192871e-01 7.896473258733749390e-02
-1.585647016763687134e-01 6.755326390266418457e-01 -1.706601232290267944e-01
-1.665901988744735718e-01 7.817569971084594727e-01 1.501212865114212036e-01
-2.448038458824157715e-01 7.971016764640808105e-01 1.360510140657424927e-01
-2.508990168571472168e-01 7.394094467163085938e-01 1.121476851403713226e-02
-2.408345341682434082e-01 7.593845725059509277e-01 -2.251705825328826904e-01
-1.712726950645446777e-01 4.551903605461120605e-01 1.682450175285339355e-01
-1.769940257072448730e-01 9.405971765518188477e-01 6.779763847589492798e-03
-2.229624092578887939e-01 3.689583241939544678e-01 2.322928793728351593e-02
-2.096188068389892578e-01 7.891175150871276855e-01 3.083095550537109375e-01
-1.592857539653778076e-01 4.979570508003234863e-01 -1.139991357922554016e-01
-1.891705691814422607e-01 7.852653264999389648e-01 2.860811352729797363e-01
-2.404503971338272095e-01 9.228779077529907227e-01 -3.814951330423355103e-02
-1.597751080989837646e-01 7.750496864318847656e-01 -1.072791814804077148e-01
-1.718552559614181519e-01 7.229607105255126953e-01 2.282998561859130859e-01
-1.638218015432357788e-01 7.631965279579162598e-01 1.307080537080764771e-01
-1.552980989217758179e-01 6.916553378105163574e-01 -5.694794654846191406e-02
-1.643442064523696899e-01 4.610957801342010498e-01 -1.565546393394470215e-01
-1.794026792049407959e-01 5.079064369201660156e-01 -3.021133840084075928e-01
-1.549247503280639648e-01 6.091932058334350586e-01 1.900068856775760651e-02
-2.501286864280700684e-01 7.628259658813476562e-01 3.866149485111236572e-02
-1.975819319486618042e-01 3.260238170623779297e-01 7.543676346540451050e-02
-2.496390640735626221e-01 6.453753113746643066e-01 -6.645659357309341431e-02
-1.970432996749877930e-01 3.144088089466094971e-01 6.234450265765190125e-03
-2.423892915248870850e-01 5.240228772163391113e-01 8.114821463823318481e-02
-1.628672927618026733e-01 8.239347934722900391e-01 -9.180460870265960693e-02
-2.312202155590057373e-01 8.919155597686767578e-01 -2.256407439708709717e-01
-2.289323359727859497e-01 6.213751435279846191e-01 2.743757367134094238e-01
-1.879635304212570190e-01 8.633797168731689453e-01 -2.942118346691131592e-01
-1.629369556903839111e-01 8.214795589447021484e-01 3.088173083961009979e-02
-2.496493458747863770e-01 7.980903387069702148e-01 -1.028721872717142105e-02
-2.346775084733963013e-01 4.560326337814331055e-01 -1.181744709610939026e-01
-2.380816042423248291e-01 7.518687844276428223e-01 -2.511365413665771484e-01
-1.564795523881912231e-01 7.157481312751770020e-01 -8.798951655626296997e-02
-2.095181792974472046e-01 3.708408474922180176e-01 1.569327265024185181e-01
-2.341073751449584961e-01 4.844221472740173340e-01 1.533711701631546021e-01
-2.325053513050079346e-01 8.771020174026489258e-01 1.929569095373153687e-01
-2.188424617052078247e-01 4.161925315856933594e-01 1.850610077381134033e-01
-1.579664498567581177e-01 6.946195363998413086e-01 -1.509878635406494141e-01
-2.467685639858245850e-01 7.676472663879394531e-01 -1.473563015460968018e-01
-2.492987215518951416e-01 7.735815644264221191e-01 6.127257645130157471e-02
-2.270444631576538086e-01 5.407519340515136719e-01 2.528420388698577881e-01
-1.663489937782287598e-01 4.033749103546142578e-01 -3.727360069751739502e-02
-2.498870790004730225e-01 6.918110847473144531e-01 -8.790075033903121948e-02
-1.881757080554962158e-01 4.081637263298034668e-01 -2.498622983694076538e-01
-1.669206768274307251e-01 4.970579147338867188e-01 -2.213576883077621460e-01
-2.246003150939941406e-01 4.034899473190307617e-01 -1.444665193557739258e-01
-2.416032850742340088e-01 9.138455390930175781e-01 -7.711848244071006775e-03
-1.737527400255203247e-01 8.012032508850097656e-01 2.018015980720520020e-01
-2.266847193241119385e-01 4.619140625000000000e-01 1.924445331096649170e-01
-1.786754429340362549e-01 7.151596546173095703e-01 2.699225246906280518e-01
-2.325330674648284912e-01 4.206608533859252930e-01 -4.639737308025360107e-02
-1.593434512615203857e-01 5.637058019638061523e-01 1.107916459441184998e-01
-1.775923967361450195e-01 3.457196354866027832e-01 2.254458144307136536e-03
-1.754059642553329468e-01 5.015805959701538086e-01 2.286591231822967529e-01
-2.158864736557006836e-01 3.746787011623382568e-01 1.333618909120559692e-01
-2.095498144626617432e-01 5.774426460266113281e-01 -3.554397821426391602e-01
-2.483692765235900879e-01 6.533880829811096191e-01 -1.133840903639793396e-01
-2.252962440252304077e-01 3.955910801887512207e-01 -1.161798313260078430e-01
-1.736795753240585327e-01 4.050667285919189453e-01 1.281235814094543457e-01
-2.254624366760253906e-01 9.898736476898193359e-01 -1.031193882226943970e-01
-2.123969644308090210e-01 1.017665624618530273e+00 3.204026073217391968e-02
-1.547200083732604980e-01 5.936194658279418945e-01 -6.490973383188247681e-02
-1.777623146772384644e-01 5.908042788505554199e-01 2.708538770675659180e-01
-1.837686002254486084e-01 8.727056980133056641e-01 -2.690201401710510254e-01
-1.871140450239181519e-01 8.455106019973754883e-01 2.448059320449829102e-01
-1.709538102149963379e-01 8.055508136749267578e-01 -2.417203783988952637e-01
-1.670715808868408203e-01 7.110813856124877930e-01 1.947422623634338379e-01
-2.193103432655334473e-01 4.399128556251525879e-01 2.112117856740951538e-01
-1.644646674394607544e-01 7.653316259384155273e-01 -2.057700604200363159e-01
-1.879675388336181641e-01 3.951087296009063721e-01 1.920169889926910400e-01
-1.621919274330139160e-01 4.393671751022338867e-01 -3.566858172416687012e-02
-2.500427067279815674e-01 7.181043624877929688e-01 6.359567493200302124e-02
-1.565329581499099731e-01 7.311763167381286621e-01 -4.076290130615234375e-02
-1.680994331836700439e-01 4.408774077892303467e-01 -1.763489544391632080e-01
-1.566416919231414795e-01 6.857503652572631836e-01 5.538823455572128296e-02
-1.852892488241195679e-01 9.804357290267944336e-01 -5.599033087491989136e-02
-2.207337468862533569e-01 5.664505362510681152e-01 2.905772030353546143e-01
-2.235457450151443481e-01 9.909169673919677734e-01 7.316100597381591797e-02
-1.611652523279190063e-01 7.984895110130310059e-01 -1.020528674125671387e-01
-2.139431983232498169e-01 3.362986743450164795e-01 -4.923751577734947205e-03
-2.184363901615142822e-01 4.942750930786132812e-01 -2.909952104091644287e-01
-1.569200605154037476e-01 6.641411185264587402e-01 -1.419273614883422852e-01
-1.561256349086761475e-01 6.934820413589477539e-01 3.212618827819824219e-02
-1.696443110704421997e-01 8.952345848083496094e-01 -4.551826417446136475e-02
-1.548846662044525146e-01 5.803173184394836426e-01 -4.692479968070983887e-03
-2.464521825313568115e-01 6.393762230873107910e-01 1.246934011578559875e-01
-1.800881475210189819e-01 4.658530652523040771e-01 2.294154167175292969e-01
-1.578591167926788330e-01 7.330420017242431641e-01 -1.149419322609901428e-01
-1.587114632129669189e-01 6.052749156951904297e-01 -1.778292655944824219e-01
-1.666549295186996460e-01 6.129882931709289551e-01 2.042192816734313965e-01
-1.803308278322219849e-01 3.719613850116729736e-01 1.238025501370429993e-01
-2.484108507633209229e-01 7.823431491851806641e-01 -1.047345101833343506e-01
-1.554825752973556519e-01 6.174510717391967773e-01 4.247350990772247314e-02
-2.476229518651962280e-01 5.780575275421142578e-01 -1.577131450176239014e-02
-1.842495501041412354e-01 5.988044142723083496e-01 2.970497608184814453e-01
-1.952565759420394897e-01 3.273697495460510254e-01 -1.145728006958961487e-01
-2.422909289598464966e-01 6.468283534049987793e-01 1.839243024587631226e-01
-1.749232262372970581e-01 8.983404040336608887e-01 -1.688480675220489502e-01
-1.615735590457916260e-01 5.748136043548583984e-01 1.461924463510513306e-01
-1.657433956861495972e-01 6.393470168113708496e-01 1.968628019094467163e-01
-1.699712127447128296e-01 6.896420121192932129e-01 2.242575585842132568e-01
-1.555222272872924805e-01 5.960043072700500488e-01 -1.052325218915939331e-01
-1.765825003385543823e-01 4.574525952339172363e-01 2.057688832283020020e-01
-1.650782972574234009e-01 6.909372806549072266e-01 -2.475498616695404053e-01
-1.809562891721725464e-01 9.535040855407714844e-01 4.484334588050842285e-02
-2.472997158765792847e-01 6.908804178237915039e-01 1.257324218750000000e-01
-1.812984645366668701e-01 4.876973628997802734e-01 2.484029233455657959e-01
-1.568100750446319580e-01 5.989881157875061035e-01 7.523435354232788086e-02
-1.615372896194458008e-01 5.208635330200195312e-01 1.189755424857139587e-01
-1.727564483880996704e-01 8.516729474067687988e-01 1.467245817184448242e-01
-2.335720658302307129e-01 8.535491824150085449e-01 2.050037533044815063e-01
-1.801670640707015991e-01 5.487903356552124023e-01 2.709808647632598877e-01
-1.597588658332824707e-01 5.391335487365722656e-01 -1.662825942039489746e-01
-2.362903356552124023e-01 4.520156979560852051e-01 -6.725541502237319946e-02
-1.843615472316741943e-01 9.197276234626770020e-01 1.546276211738586426e-01
-1.737453937530517578e-01 6.347944736480712891e-01 2.541908621788024902e-01
-2.424845844507217407e-01 7.322854399681091309e-01 1.869371086359024048e-01
-1.957212388515472412e-01 7.228389382362365723e-01 3.198049962520599365e-01
-1.775469630956649780e-01 7.985095977783203125e-01 2.290094792842864990e-01
-1.616068333387374878e-01 7.909351587295532227e-01 -1.302458792924880981e-01
-2.351247966289520264e-01 8.996270895004272461e-01 -1.863471865653991699e-01
-2.494541704654693604e-01 7.712107896804809570e-01 -8.239887654781341553e-02
-2.471519410610198975e-01 6.639563441276550293e-01 1.224248036742210388e-01
-1.626643240451812744e-01 5.375160574913024902e-01 -2.046368718147277832e-01
-2.367431223392486572e-01 9.485728144645690918e-01 1.102256588637828827e-02
-1.992293596267700195e-01 3.787595629692077637e-01 -2.218955010175704956e-01
-2.230515778064727783e-01 1.002438545227050781e+00 -7.687734067440032959e-02
-1.546830236911773682e-01 6.538743972778320312e-01 -6.496847420930862427e-02
-2.452286779880523682e-01 8.381593227386474609e-01 -1.216187030076980591e-01
-1.545429527759552002e-01 5.928387641906738281e-01 -2.700273506343364716e-02
-1.640093922615051270e-01 4.318436980247497559e-01 3.618122637271881104e-02
-1.569053232669830322e-01 5.907424688339233398e-01 -1.406640708446502686e-01
-2.006511986255645752e-01 9.854073524475097656e-01 1.211597695946693420e-01
-2.208805978298187256e-01 5.666449666023254395e-01 -3.215469717979431152e-01
-1.761321574449539185e-01 9.381844997406005859e-01 -4.962295293807983398e-02
-1.683001518249511719e-01 3.899410068988800049e-01 -1.428046077489852905e-02
-2.319807857275009155e-01 7.144473195075988770e-01 2.658761441707611084e-01
-1.784398704767227173e-01 6.154881119728088379e-01 -3.322975933551788330e-01
-1.926290839910507202e-01 3.444815576076507568e-01 1.215108558535575867e-01
-1.668256521224975586e-01 6.824751496315002441e-01 2.007609456777572632e-01
-2.467770129442214966e-01 7.528815269470214844e-01 1.275428235530853271e-01
-2.376336157321929932e-01 9.445322751998901367e-01 -2.337784878909587860e-02
-2.359027266502380371e-01 9.093057513236999512e-01 1.292886435985565186e-01
-1.721355020999908447e-01 8.929983973503112793e-01 6.993602961301803589e-02
-2.264560163021087646e-01 9.682553410530090332e-01 -1.529765278100967407e-01
-1.818760335445404053e-01 3.415102660655975342e-01 -1.001880094408988953e-01
-2.491673231124877930e-01 6.117787957191467285e-01 -1.514402218163013458e-02
-1.791501492261886597e-01 4.526332020759582520e-01 -2.639367580413818359e-01
-2.493421286344528198e-01 7.963117957115173340e-01 -5.510514974594116211e-02
-1.862801760435104370e-01 9.804997444152832031e-01 2.124102599918842316e-02
-1.613327860832214355e-01 7.698857188224792480e-01 -1.536738872528076172e-01
-2.376092821359634399e-01 9.369685053825378418e-01 -7.981783896684646606e-02
-2.373371422290802002e-01 5.872943997383117676e-01 -2.318187654018402100e-01
-2.444555461406707764e-01 5.508732795715332031e-01 7.833567261695861816e-02
-1.613407582044601440e-01 6.549320220947265625e-01 1.490001678466796875e-01
-1.994381695985794067e-01 4.717063903808593750e-01 2.751461267471313477e-01
-1.617903560400009155e-01 6.842849850654602051e-01 -2.143770307302474976e-01
-1.732366532087326050e-01 4.771277904510498047e-01 -2.531673610210418701e-01
-2.315776497125625610e-01 7.457729578018188477e-01 2.634210288524627686e-01
-1.884203702211380005e-01 8.151638507843017578e-01 2.689116597175598145e-01
-1.703231930732727051e-01 7.589548230171203613e-01 -2.661649286746978760e-01
-2.374538183212280273e-01 4.578258991241455078e-01 2.854786626994609833e-02
-1.780347824096679688e-01 7.083715796470642090e-01 -3.274995684623718262e-01
-1.608499437570571899e-01 5.586950778961181641e-01 -1.932536363601684570e-01
-2.285335958003997803e-01 8.123241662979125977e-01 -2.925387024879455566e-01
-1.597100347280502319e-01 6.671397089958190918e-01 1.241137906908988953e-01
-1.786764413118362427e-01 9.361984729766845703e-01 -1.320272833108901978e-01
-1.712458580732345581e-01 7.608307003974914551e-01 2.075305879116058350e-01
-1.676539778709411621e-01 8.306955099105834961e-01 -1.809092611074447632e-01
-2.416791319847106934e-01 5.984390974044799805e-01 1.705133169889450073e-01
-2.413779199123382568e-01 5.411044359207153320e-01 -1.465058028697967529e-01
-2.506871521472930908e-01 6.983756422996520996e-01 -5.643264204263687134e-02
-2.083192616701126099e-01 4.972345829010009766e-01 -3.213267326354980469e-01
-2.123939692974090576e-01 3.876322805881500244e-01 -2.029242515563964844e-01
-2.341752052307128906e-01 5.919022560119628906e-01 -2.601733207702636719e-01
-2.105650603771209717e-01 3.992449045181274414e-01 -2.268965542316436768e-01
-1.598315536975860596e-01 5.022022724151611328e-01 7.207167893648147583e-02
-2.396398186683654785e-01 6.974936127662658691e-01 -2.423391789197921753e-01
-2.253300398588180542e-01 9.067944884300231934e-01 -2.451281845569610596e-01
-1.757414489984512329e-01 8.010006546974182129e-01 -2.797698974609375000e-01
-1.835369467735290527e-01 8.822264671325683594e-01 1.958975493907928467e-01
-1.773783713579177856e-01 5.651798844337463379e-01 -3.175626397132873535e-01
-2.063172906637191772e-01 9.456518292427062988e-01 1.946040540933609009e-01
-2.425127178430557251e-01 7.913585901260375977e-01 -1.964091211557388306e-01
-2.468563914299011230e-01 5.925325751304626465e-01 7.718332111835479736e-02
-2.143799662590026855e-01 6.954454183578491211e-01 3.234738111495971680e-01
-1.587162762880325317e-01 7.171058058738708496e-01 8.238101005554199219e-02
-2.255826294422149658e-01 7.412027716636657715e-01 2.900162041187286377e-01
-2.385696470737457275e-01 6.558925509452819824e-01 2.208056300878524780e-01
-1.564790904521942139e-01 5.416287183761596680e-01 2.796692214906215668e-02
-1.668888479471206665e-01 5.571271181106567383e-01 -2.538825571537017822e-01
-1.842278838157653809e-01 9.333490133285522461e-01 1.318091601133346558e-01
-2.487589120864868164e-01 6.099237799644470215e-01 3.265544772148132324e-02
-2.060492336750030518e-01 3.229633867740631104e-01 2.893604151904582977e-02
-1.668558418750762939e-01 8.684838414192199707e-01 -7.768758386373519897e-02
-1.742397993803024292e-01 4.247826933860778809e-01 1.591767966747283936e-01
-1.545640230178833008e-01 6.284913420677185059e-01 -6.808981299400329590e-02
-2.386737763881683350e-01 6.396244168281555176e-01 -2.413308918476104736e-01
-2.459433823823928833e-01 8.648716211318969727e-01 -3.981299325823783875e-02
-2.473502755165100098e-01 5.742223262786865234e-01 1.070144213736057281e-02
-1.797740012407302856e-01 9.555436372756958008e-01 -7.065808027982711792e-02
-2.494885921478271484e-01 7.893125414848327637e-01 3.492391854524612427e-02
-2.200778126716613770e-01 3.791926205158233643e-01 -1.352446228265762329e-01
-2.315611988306045532e-01 4.947336316108703613e-01 1.894357204437255859e-01
-1.707451045513153076e-01 9.018375873565673828e-01 -3.419285640120506287e-03
-2.366648912429809570e-01 8.104560375213623047e-01 2.103983461856842041e-01
-2.476101666688919067e-01 8.275460004806518555e-01 4.589446634054183960e-02
-1.568179875612258911e-01 7.193022966384887695e-01 2.682351879775524139e-02
-1.657554209232330322e-01 4.306705892086029053e-01 7.280350476503372192e-02
-2.324838042259216309e-01 5.125991106033325195e-01 -2.216365784406661987e-01
-1.693353950977325439e-01 6.562020778656005859e-01 -2.863914668560028076e-01
-2.371951788663864136e-01 9.369362592697143555e-01 5.327320098876953125e-02
-1.663819551467895508e-01 4.061380624771118164e-01 1.207707636058330536e-02
-1.819940060377120972e-01 3.609351515769958496e-01 -1.564137935638427734e-01
-1.655099987983703613e-01 4.752175211906433105e-01 -1.881137639284133911e-01
-1.713168025016784668e-01 9.006618857383728027e-01 2.705726958811283112e-02
-2.386954128742218018e-01 7.854374051094055176e-01 2.062560915946960449e-01
-1.599141061305999756e-01 7.252768874168395996e-01 -1.685648113489151001e-01
-2.297232449054718018e-01 6.269451975822448730e-01 -3.007985949516296387e-01
-1.692479997873306274e-01 6.599712967872619629e-01 2.237931191921234131e-01
-2.422201484441757202e-01 6.470788121223449707e-01 -2.080879658460617065e-01
-1.693686842918395996e-01 3.890649080276489258e-01 2.984028495848178864e-02
-2.231719940900802612e-01 5.489408373832702637e-01 -3.040290772914886475e-01
-2.425866127014160156e-01 8.915154337882995605e-01 -8.860202878713607788e-02
-2.197338342666625977e-01 8.303964138031005859e-01 2.761621475219726562e-01
-2.443215847015380859e-01 8.663465976715087891e-01 -9.917581081390380859e-02
-2.504329979419708252e-01 7.681736946105957031e-01 9.399792179465293884e-03
-1.725517064332962036e-01 9.094674587249755859e-01 -9.646775573492050171e-02
-2.335177361965179443e-01 4.250261187553405762e-01 -1.719393022358417511e-02
-1.665796190500259399e-01 8.694087266921997070e-01 -4.831479862332344055e-02
-2.392688989639282227e-01 7.037189006805419922e-01 2.187448441982269287e-01
-2.309540510177612305e-01 9.770781993865966797e-01 2.406378649175167084e-02
-1.597159355878829956e-01 6.315407752990722656e-01 1.293781548738479614e-01
-2.479756921529769897e-01 8.331860899925231934e-01 -3.592910245060920715e-02
-2.145126610994338989e-01 3.755477070808410645e-01 -1.707645654678344727e-01
-2.327021956443786621e-01 6.704300642013549805e-01 -2.914477586746215820e-01
-1.628474593162536621e-01 5.328595638275146484e-01 1.437596380710601807e-01
-2.388431429862976074e-01 8.638589978218078613e-01 1.536356359720230103e-01
-2.462494820356369019e-01 5.541843175888061523e-01 -5.224579945206642151e-03
-1.934080123901367188e-01 9.029708504676818848e-01 2.179975509643554688e-01
-2.452519685029983521e-01 8.157058954238891602e-01 1.155120208859443665e-01
-2.440678626298904419e-01 8.510319590568542480e-01 9.809751808643341064e-02
-1.630337983369827271e-01 5.008816719055175781e-01 -1.829004585742950439e-01
-2.395079433917999268e-01 9.263731241226196289e-01 2.960673533380031586e-02
-1.586075127124786377e-01 7.489484548568725586e-01 4.491423815488815308e-02
-2.331678271293640137e-01 4.619197249412536621e-01 1.317567378282546997e-01
-1.566523015499114990e-01 6.616007089614868164e-01 6.809083372354507446e-02
-2.428703755140304565e-01 8.987532854080200195e-01 2.042725495994091034e-02
-1.602638959884643555e-01 5.919504761695861816e-01 -1.973792612552642822e-01
-1.970812976360321045e-01 5.320220589637756348e-01 -3.471071422100067139e-01
-2.322188764810562134e-01 9.513010978698730469e-01 -1.330207884311676025e-01
-2.437638491392135620e-01 7.824916839599609375e-01 1.576011180877685547e-01
-2.511176168918609619e-01 7.035038471221923828e-01 -7.563956081867218018e-03
-2.289308607578277588e-01 9.474815130233764648e-01 1.307810992002487183e-01
-2.482897341251373291e-01 5.964248180389404297e-01 -4.408973455429077148e-02
-2.060811966657638550e-01 8.889606595039367676e-01 -3.032701313495635986e-01
-2.502052187919616699e-01 6.573256850242614746e-01 3.213054686784744263e-02
-1.670651882886886597e-01 7.849686145782470703e-01 -2.205292284488677979e-01
-2.495155036449432373e-01 7.423992753028869629e-01 7.375944405794143677e-02
-1.705149412155151367e-01 7.354260087013244629e-01 -2.778489291667938232e-01
-1.612659692764282227e-01 7.896541953086853027e-01 5.294284224510192871e-02
-2.283588200807571411e-01 6.510174274444580078e-01 -3.128952980041503906e-01
-1.990736275911331177e-01 6.572970151901245117e-01 -3.760525286197662354e-01
-2.448028773069381714e-01 7.804946899414062500e-01 -1.723170727491378784e-01
-1.630698144435882568e-01 7.995573282241821289e-01 7.853219658136367798e-02
-1.946746557950973511e-01 1.004818558692932129e+00 2.044471912086009979e-02
-2.445039302110671997e-01 7.398631572723388672e-01 -1.886158883571624756e-01
-2.430273741483688354e-01 5.724576711654663086e-01 1.335647106170654297e-01
-2.505351305007934570e-01 7.342822551727294922e-01 -6.220468878746032715e-02
-1.632476449012756348e-01 5.913109779357910156e-01 1.693356037139892578e-01
-1.851519793272018433e-01 9.493391513824462891e-01 -1.730452924966812134e-01
-2.406185865402221680e-01 4.840033650398254395e-01 -1.032710261642932892e-02
-1.551148444414138794e-01 6.422036886215209961e-01 2.659653313457965851e-02
-2.257201075553894043e-01 9.995179176330566406e-01 -1.481729000806808472e-02
-2.408844232559204102e-01 4.987903535366058350e-01 6.256758421659469604e-02
-2.198395431041717529e-01 3.743616938591003418e-01 1.002844497561454773e-01
-2.119561433792114258e-01 3.541305661201477051e-01 1.103284135460853577e-01
-1.975797712802886963e-01 7.226629853248596191e-01 -3.717853426933288574e-01
-1.681733876466751099e-01 7.615153193473815918e-01 1.808734834194183350e-01
-2.393461763858795166e-01 7.264930605888366699e-01 -2.442209571599960327e-01
-1.842759549617767334e-01 9.699584245681762695e-01 -1.023238077759742737e-01
-1.559085845947265625e-01 5.383803844451904297e-01 -4.861760511994361877e-02
-1.889327317476272583e-01 9.476318359375000000e-01 -2.022399157285690308e-01
-1.603804081678390503e-01 6.964681744575500488e-01 -1.916170865297317505e-01
-1.555011719465255737e-01 6.686238646507263184e-01 2.920539118349552155e-02
-2.360444962978363037e-01 5.124719142913818359e-01 -1.862645596265792847e-01
-1.543547362089157104e-01 6.238974928855895996e-01 -4.345880821347236633e-02
-1.613791882991790771e-01 8.120986223220825195e-01 -6.095163524150848389e-02
-1.683342456817626953e-01 8.410448431968688965e-01 1.070061251521110535e-01
-2.486397922039031982e-01 7.368695735931396484e-01 9.738887846469879150e-02
-2.326709479093551636e-01 7.395147085189819336e-01 -2.906742691993713379e-01
-1.706124246120452881e-01 7.034834623336791992e-01 -2.882142961025238037e-01
-1.624253988265991211e-01 8.266568183898925781e-01 -4.175218194723129272e-02
-2.276452928781509399e-01 3.960250020027160645e-01 -7.405075430870056152e-02
-1.870620846748352051e-01 5.892577171325683594e-01 -3.534634113311767578e-01
-2.502824366092681885e-01 6.468451023101806641e-01 -2.978835254907608032e-04
-2.446169704198837280e-01 6.426883339881896973e-01 1.543745249509811401e-01
-2.003896683454513550e-01 6.238740086555480957e-01 -3.731625378131866455e-01
-1.765235513448715210e-01 3.487245440483093262e-01 -3.229277580976486206e-02
-2.009981125593185425e-01 1.017907023429870605e+00 -8.887965232133865356e-04
-1.560306996107101440e-01 5.881872773170471191e-01 5.174643546342849731e-02
-1.635044217109680176e-01 4.303751885890960693e-01 -6.791084259748458862e-02
-2.267770618200302124e-01 3.872441649436950684e-01 -4.891547933220863342e-02
-2.379098534584045410e-01 7.290291190147399902e-01 2.272209823131561279e-01
-1.701555848121643066e-01 8.754687905311584473e-01 -1.442435085773468018e-01
-1.623311936855316162e-01 7.358104586601257324e-01 1.303266435861587524e-01
-2.404645979404449463e-01 8.773192167282104492e-01 1.195946708321571350e-01
-2.435376346111297607e-01 6.720249056816101074e-01 -1.991886049509048462e-01
-1.654944717884063721e-01 5.632158517837524414e-01 1.844212114810943604e-01
-2.253027260303497314e-01 6.076246500015258789e-01 -3.176183700561523438e-01
-1.708137392997741699e-01 4.128356873989105225e-01 -1.633695214986801147e-01
-2.483762204647064209e-01 8.263108134269714355e-01 3.750499337911605835e-03
-1.611867547035217285e-01 6.257137060165405273e-01 -2.138490974903106689e-01
-2.325015813112258911e-01 4.259558320045471191e-01 5.607699602842330933e-02
-2.471288740634918213e-01 8.312201499938964844e-01 -8.353868126869201660e-02
-1.841552406549453735e-01 4.725391864776611328e-01 -2.963508963584899902e-01
-2.000106275081634521e-01 6.642473340034484863e-01 3.305445909500122070e-01
-1.785377264022827148e-01 6.491907238960266113e-01 -3.348987996578216553e-01
-1.666808277368545532e-01 8.484354615211486816e-01 6.516478955745697021e-02
-2.387511134147644043e-01 6.117777824401855469e-01 2.067683488130569458e-01
-2.428338825702667236e-01 5.896207094192504883e-01 -1.710710972547531128e-01
-1.699236631393432617e-01 8.329726457595825195e-01 -2.060155719518661499e-01
-2.341006100177764893e-01 5.689450502395629883e-01 2.245225459337234497e-01
-2.057318091392517090e-01 3.424429297447204590e-01 -1.401408165693283081e-01
-2.509950101375579834e-01 7.330249547958374023e-01 -2.871304377913475037e-02
-2.320380508899688721e-01 4.251125156879425049e-01 -8.494449406862258911e-02
-2.428769171237945557e-01 5.147846341133117676e-01 -5.860176682472229004e-02
-2.461403310298919678e-01 6.121540665626525879e-01 -1.333084553480148315e-01
-1.731186658143997192e-01 5.568851828575134277e-01 -2.947086691856384277e-01
-1.693305373191833496e-01 7.787045836448669434e-01 -2.468267232179641724e-01
-2.426376342773437500e-01 8.625798225402832031e-01 -1.385156363248825073e-01
-2.206192463636398315e-01 4.483366906642913818e-01 -2.408360093832015991e-01
-2.239068299531936646e-01 9.128913283348083496e-01 2.027284502983093262e-01
-2.401646077632904053e-01 5.627230405807495117e-01 1.642307639122009277e-01
-2.481605261564254761e-01 8.072071075439453125e-01 6.045057624578475952e-02
-2.456363886594772339e-01 6.651735305786132812e-01 1.471091657876968384e-01
-1.599573791027069092e-01 7.646405696868896484e-01 -1.300736069679260254e-01
-1.764344722032546997e-01 8.239672183990478516e-01 -2.684295475482940674e-01
-2.465533018112182617e-01 6.060285568237304688e-01 9.967434406280517578e-02
-1.837231814861297607e-01 7.322320938110351562e-01 2.867813408374786377e-01
-2.349439710378646851e-01 5.365002155303955078e-01 -2.199832648038864136e-01
-1.702961623668670654e-01 5.106342434883117676e-01 2.011236697435379028e-01
-2.446285486221313477e-01 5.832079648971557617e-01 -1.362695246934890747e-01
-2.491164207458496094e-01 6.392555832862854004e-01 6.130120903253555298e-02
-2.095209360122680664e-01 7.593305110931396484e-01 -3.624370694160461426e-01
-2.100027203559875488e-01 4.939247965812683105e-01 2.817223966121673584e-01
-1.646214872598648071e-01 7.175259590148925781e-01 -2.345193326473236084e-01
-1.877480447292327881e-01 9.085321426391601562e-01 -2.507122159004211426e-01
-2.439983636140823364e-01 8.847519159317016602e-01 -6.133843958377838135e-02
-1.706184446811676025e-01 3.777615725994110107e-01 -5.750781297683715820e-02
-2.509564757347106934e-01 6.968991160392761230e-01 1.569131948053836823e-02
-1.575030982494354248e-01 5.122917294502258301e-01 1.881113462150096893e-02
-2.216592729091644287e-01 2.054507285356521606e-01 -2.748765945434570312e-01
-1.554188281297683716e-01 2.429884523153305054e-01 -7.974658906459808350e-02
-1.772034913301467896e-01 8.683284372091293335e-02 6.960530579090118408e-02
-1.573980897665023804e-01 2.202666699886322021e-01 -2.642286419868469238e-01
-2.276270985603332520e-01 1.090694293379783630e-01 -7.156443595886230469e-02
-2.281735241413116455e-01 1.728410720825195312e-01 -1.818101704120635986e-01
-2.295934557914733887e-01 2.093165814876556396e-01 -1.418427526950836182e-01
-2.143951952457427979e-01 2.797060608863830566e-01 -1.102943271398544312e-01
-1.970243155956268311e-01 1.684083342552185059e-01 -3.231633603572845459e-01
-1.705849170684814453e-01 3.430922925472259521e-01 -3.481468558311462402e-01
-2.327020764350891113e-01 1.503379344940185547e-01 3.220072388648986816e-02
-1.877835690975189209e-01 3.449454009532928467e-01 -2.887005805969238281e-01
-2.160866409540176392e-01 2.495746165513992310e-01 -5.643844604492187500e-03
-2.277131676673889160e-01 8.466045558452606201e-02 3.198362886905670166e-02
-2.050020694732666016e-01 2.617407739162445068e-01 2.303887158632278442e-02
-1.736518889665603638e-01 1.018986478447914124e-01 9.691534936428070068e-02
-1.732608377933502197e-01 2.617171704769134521e-01 -4.237293601036071777e-01
-2.163171917200088501e-01 1.454885751008987427e-01 -2.350556701421737671e-01
-2.017735838890075684e-01 3.253767490386962891e-01 -2.582207918167114258e-01
-1.541941910982131958e-01 2.640859484672546387e-01 -2.733637690544128418e-01
-2.182128131389617920e-01 2.157720923423767090e-01 -3.084287345409393311e-01
-2.095192074775695801e-01 3.071660995483398438e-01 -2.553405761718750000e-01
-1.678988337516784668e-01 3.403514921665191650e-01 -3.292615711688995361e-01
-2.239457815885543823e-01 7.282491028308868408e-02 1.501917392015457153e-01
-1.814693808555603027e-01 1.336244642734527588e-01 2.015324085950851440e-01
-2.265348583459854126e-01 8.549099415540695190e-02 1.442083418369293213e-01
-1.598925143480300903e-01 1.859761178493499756e-01 -2.106745392084121704e-01
-1.673704981803894043e-01 1.347413659095764160e-01 8.709953725337982178e-02
-2.083667367696762085e-01 2.947316765785217285e-01 -3.538999557495117188e-01
-1.899589151144027710e-01 7.497381418943405151e-02 1.988310962915420532e-01
-2.324154973030090332e-01 1.469748318195343018e-01 4.630514979362487793e-02
-1.699874252080917358e-01 1.116565540432929993e-01 -2.330756187438964844e-02
-1.695221960544586182e-01 2.521036863327026367e-01 2.954019606113433838e-02
-1.769116371870040894e-01 1.290554851293563843e-01 1.762279421091079712e-01
-1.805308610200881958e-01 1.821320801973342896e-01 1.698643118143081665e-01
-2.188965231180191040e-01 1.625507473945617676e-01 1.679972261190414429e-01
-1.946714222431182861e-01 3.226427137851715088e-01 -1.567685306072235107e-01
-1.552780568599700928e-01 2.016496062278747559e-01 -7.075351476669311523e-02
-2.153819650411605835e-01 2.799245715141296387e-01 -1.271067410707473755e-01
-2.095430642366409302e-01 1.504554152488708496e-01 -2.695639133453369141e-01
-2.162679135799407959e-01 2.815939784049987793e-01 -2.683676481246948242e-01
-1.766319125890731812e-01 9.069547057151794434e-02 5.227625370025634766e-04
-2.287077605724334717e-01 1.047318428754806519e-01 -4.250621423125267029e-02
-2.040835916996002197e-01 1.222300082445144653e-01 -2.212608456611633301e-01
-1.666053682565689087e-01 2.426843047142028809e-01 -3.776942491531372070e-01
-1.890837252140045166e-01 2.127480953931808472e-01 1.469326168298721313e-01
-2.010925710201263428e-01 2.843922972679138184e-01 -4.146896004676818848e-01
-2.249054014682769775e-01 2.115428447723388672e-01 2.228523045778274536e-02
-2.063267827033996582e-01 2.984847724437713623e-01 -1.155833154916763306e-01
-2.096025943756103516e-01 1.835825741291046143e-01 1.735021024942398071e-01
-2.181106507778167725e-01 6.659586727619171143e-02 1.077219843864440918e-03
-2.250938415527343750e-01 2.434757947921752930e-01 -1.337433159351348877e-01
-1.592213660478591919e-01 2.662556767463684082e-01 -7.046727836132049561e-02
-2.199889570474624634e-01 2.574881017208099365e-01 -8.175684511661529541e-02
-1.540238559246063232e-01 2.170407325029373169e-01 -1.799349933862686157e-01
-2.132916897535324097e-01 1.892133951187133789e-01 1.519498378038406372e-01
-1.978292018175125122e-01 2.755832374095916748e-01 6.703011691570281982e-03
-1.973831057548522949e-01 3.280868530273437500e-01 -2.097321450710296631e-01
-1.772371232509613037e-01 1.773855984210968018e-01 -3.140534162521362305e-01
-1.601753234863281250e-01 2.363578230142593384e-01 -9.008757770061492920e-03
-1.737773120403289795e-01 2.135321497917175293e-01 -3.675529956817626953e-01
-2.095004767179489136e-01 3.056306242942810059e-01 -2.115926742553710938e-01
-1.579888164997100830e-01 2.917471230030059814e-01 -1.525122672319412231e-01
-1.674966067075729370e-01 2.508116364479064941e-01 -3.915628790855407715e-01
-2.334069609642028809e-01 1.456350386142730713e-01 -4.582665860652923584e-03
-1.599203944206237793e-01 2.063728719949722290e-01 1.851665228605270386e-02
-1.618031561374664307e-01 3.245315253734588623e-01 -3.332014083862304688e-01
-2.186297625303268433e-01 1.216687187552452087e-01 2.109543830156326294e-01
-2.281090915203094482e-01 8.575692772865295410e-02 1.094450503587722778e-01
-1.878032088279724121e-01 3.153675794601440430e-01 -1.048712953925132751e-01
-2.293325513601303101e-01 2.111055254936218262e-01 -6.745664775371551514e-02
-2.326301038265228271e-01 1.234337687492370605e-01 4.569596052169799805e-02
-1.812610924243927002e-01 1.616888642311096191e-01 -2.932643592357635498e-01
-2.255393117666244507e-01 1.878624260425567627e-01 7.509687542915344238e-02
-2.293844819068908691e-01 9.010157734155654907e-02 7.173147797584533691e-02
-2.128117978572845459e-01 2.959512770175933838e-01 -2.689689099788665771e-01
-1.987160593271255493e-01 2.530780434608459473e-01 -4.195778965950012207e-01
-2.277073562145233154e-01 8.133109658956527710e-02 8.788368105888366699e-02
-1.605568230152130127e-01 1.945010423660278320e-01 -2.436008751392364502e-01
-1.938129067420959473e-01 2.355427145957946777e-01 1.072874516248703003e-01
-1.976463943719863892e-01 2.571470141410827637e-01 5.557237565517425537e-02
-1.681639701128005981e-01 1.954937279224395752e-01 -3.092749118804931641e-01
-1.791047453880310059e-01 9.675130993127822876e-02 -7.717930525541305542e-02
-1.881577819585800171e-01 9.823931008577346802e-02 -1.376647651195526123e-01
-2.256247103214263916e-01 2.391726076602935791e-01 -1.832022666931152344e-01
-1.619388759136199951e-01 2.269118875265121460e-01 -3.244282007217407227e-01
-2.264622747898101807e-01 1.725829094648361206e-01 -2.022516727447509766e-01
-1.633227169513702393e-01 2.130590677261352539e-01 4.709355533123016357e-02
-1.985587924718856812e-01 3.297237455844879150e-01 -3.365702331066131592e-01
-2.196246832609176636e-01 1.792082339525222778e-01 1.381269991397857666e-01
-1.717625111341476440e-01 1.341274976730346680e-01 1.384913921356201172e-01
-1.925500929355621338e-01 3.249586820602416992e-01 -4.084964990615844727e-01
-1.737642139196395874e-01 1.052624881267547607e-01 -5.935762822628021240e-02
-2.160397171974182129e-01 1.713810861110687256e-01 -2.781618833541870117e-01
-2.020535916090011597e-01 2.838961780071258545e-01 -3.252690285444259644e-02
-1.602283567190170288e-01 2.057710736989974976e-01 -2.673141956329345703e-01
-1.659543365240097046e-01 1.947714090347290039e-01 -2.933903038501739502e-01
-2.230959236621856689e-01 2.102566063404083252e-01 4.601640999317169189e-02
-2.070895582437515259e-01 3.075627088546752930e-01 -1.774226576089859009e-01
-2.140422910451889038e-01 2.345030456781387329e-01 -3.450105488300323486e-01
-1.603334695100784302e-01 1.593813896179199219e-01 -6.974093616008758545e-03
-2.316090017557144165e-01 1.115630120038986206e-01 7.266719639301300049e-02
-2.312963455915451050e-01 1.630296260118484497e-01 -1.209500357508659363e-01
-2.306414991617202759e-01 1.314284503459930420e-01 -8.443178236484527588e-02
-1.747183799743652344e-01 2.841878831386566162e-01 -2.102144807577133179e-02
-2.091481685638427734e-01 3.078730702400207520e-01 -2.356695681810379028e-01
-2.278175950050354004e-01 1.543721854686737061e-01 -1.645046025514602661e-01
-2.250826507806777954e-01 2.394019812345504761e-01 -9.488938003778457642e-02
-2.027647048234939575e-01 2.456129640340805054e-01 7.182030379772186279e-02
-1.562592089176177979e-01 2.007422000169754028e-01 -4.117134958505630493e-02
-1.568522453308105469e-01 1.806112080812454224e-01 -1.001531258225440979e-01
-1.672339886426925659e-01 2.752031385898590088e-01 -4.106774330139160156e-01
-2.136201262474060059e-01 1.995615065097808838e-01 -3.240884840488433838e-01
-1.891665160655975342e-01 2.903925776481628418e-01 -2.243751287460327148e-02
-2.280103564262390137e-01 1.023218408226966858e-01 1.428454965353012085e-01
-2.046222984790802002e-01 3.197252154350280762e-01 -2.727514505386352539e-01
-1.652297228574752808e-01 1.400420516729354858e-01 -1.128206923604011536e-01
-1.966291666030883789e-01 5.635768175125122070e-02 1.764678806066513062e-01
-1.542641967535018921e-01 2.505155503749847412e-01 -2.632296383380889893e-01
-1.624137759208679199e-01 3.043339252471923828e-01 -1.440652459859848022e-01
-1.607976257801055908e-01 2.868837118148803711e-01 -1.049369201064109802e-01
-2.179238498210906982e-01 1.750644892454147339e-01 1.543680876493453979e-01
-2.274369597434997559e-01 2.282909750938415527e-01 -1.561350524425506592e-01
-1.573133915662765503e-01 1.775425076484680176e-01 -5.986849963665008545e-02
-1.992757767438888550e-01 3.241830468177795410e-01 -3.612976074218750000e-01
-1.574563086032867432e-01 1.805005073547363281e-01 -3.753299266099929810e-02
-2.318134456872940063e-01 1.740492433309555054e-01 6.045803427696228027e-03
-2.268248349428176880e-01 2.181279510259628296e-01 -2.071982324123382568e-01
-2.322051376104354858e-01 1.722760945558547974e-01 -9.921552240848541260e-02
-1.791616231203079224e-01 9.187453985214233398e-02 1.471328139305114746e-01
-2.295708358287811279e-01 9.980192035436630249e-02 -6.427243351936340332e-03
-1.848383396863937378e-01 3.323459625244140625e-01 -4.176893830299377441e-01
-2.329843491315841675e-01 1.553153395652770996e-01 -6.313361227512359619e-02
-2.322902381420135498e-01 1.315134763717651367e-01 6.335993111133575439e-02
-2.324863970279693604e-01 1.386189013719558716e-01 -5.723276734352111816e-02
-2.019953727722167969e-01 2.996071875095367432e-01 -9.005727618932723999e-02
-2.098141908645629883e-01 2.016709595918655396e-01 -3.431503772735595703e-01
-1.605630218982696533e-01 2.467965185642242432e-01 -3.419007956981658936e-01
-1.783360391855239868e-01 1.493405252695083618e-01 -2.538098692893981934e-01
-1.764349937438964844e-01 3.451841473579406738e-01 -3.728092312812805176e-01
-1.681860387325286865e-01 2.882043421268463135e-01 -4.205021262168884277e-01
-2.133136391639709473e-01 2.954514026641845703e-01 -2.446069717407226562e-01
-2.145316004753112793e-01 1.259671151638031006e-01 -2.034028768539428711e-01
-2.085892409086227417e-01 4.711493849754333496e-02 1.033435016870498657e-01
-2.120801508426666260e-01 2.200750112533569336e-01 9.698514640331268311e-02
-2.204972654581069946e-01 1.488385349512100220e-01 1.769621521234512329e-01
-1.596716642379760742e-01 1.705348491668701172e-01 5.363397300243377686e-03
-2.031546533107757568e-01 5.238795280456542969e-02 4.077102243900299072e-02
-1.552415788173675537e-01 2.465652376413345337e-01 -2.776549756526947021e-01
-1.659228056669235229e-01 1.264532208442687988e-01 -1.635476201772689819e-02
-1.731667071580886841e-01 1.578767895698547363e-01 1.526422947645187378e-01
-1.852552294731140137e-01 9.105641394853591919e-02 1.988388746976852417e-01
-2.077245265245437622e-01 5.839841067790985107e-02 2.101543694734573364e-01
-1.795634180307388306e-01 3.233903050422668457e-01 -1.354572772979736328e-01
-1.788187026977539062e-01 8.258175849914550781e-02 4.431924223899841309e-02
-2.129583209753036499e-01 8.657156676054000854e-02 -1.033198013901710510e-01
-2.242418825626373291e-01 9.676483273506164551e-02 1.817636936902999878e-01
-2.213612198829650879e-01 2.610811293125152588e-01 -1.375046372413635254e-01
-2.233401685953140259e-01 2.412246763706207275e-01 -2.432811856269836426e-01
-1.630395650863647461e-01 1.407039910554885864e-01 -8.418686687946319580e-03
-1.555407047271728516e-01 2.955797910690307617e-01 -2.289312332868576050e-01
-2.171934992074966431e-01 2.805129587650299072e-01 -1.807490140199661255e-01
-2.292293310165405273e-01 2.088121026754379272e-01 -4.982351139187812805e-02
-1.567008793354034424e-01 2.183460593223571777e-01 -3.380477428436279297e-02
-1.634739041328430176e-01 2.575614750385284424e-01 -1.628308743238449097e-02
-2.301433384418487549e-01 1.706316173076629639e-01 5.190698802471160889e-02
-1.665069907903671265e-01 3.013815581798553467e-01 -4.128364920616149902e-01
-2.016911655664443970e-01 3.260208666324615479e-01 -2.897238135337829590e-01
-1.594094634056091309e-01 1.880866587162017822e-01 1.569864898920059204e-02
-2.098179608583450317e-01 2.290023565292358398e-01 -3.661620616912841797e-01
-1.660663187503814697e-01 3.237788081169128418e-01 -1.913695037364959717e-01
-1.718801259994506836e-01 3.148555457592010498e-01 -4.298629760742187500e-01
-1.826424300670623779e-01 7.329291850328445435e-02 6.398108601570129395e-02
-2.122401893138885498e-01 2.492782026529312134e-01 2.270695567131042480e-02
-1.961432695388793945e-01 1.255929470062255859e-01 -2.328602820634841919e-01
-1.718750447034835815e-01 2.103915363550186157e-01 1.046888679265975952e-01
-2.260223180055618286e-01 1.395374685525894165e-01 -1.590559333562850952e-01
-2.259258031845092773e-01 2.258217930793762207e-01 -4.372851550579071045e-02
-1.784145087003707886e-01 3.488075733184814453e-01 -3.182375431060791016e-01
-2.297245413064956665e-01 1.669347584247589111e-01 6.628245115280151367e-02
-2.167428880929946899e-01 5.904807150363922119e-02 3.537195920944213867e-02
-1.783607602119445801e-01 2.598097622394561768e-01 4.474529623985290527e-02
-1.644430160522460938e-01 3.192487359046936035e-01 -3.848571181297302246e-01
-1.704537868499755859e-01 2.401403188705444336e-01 5.503451824188232422e-02
-1.881145387887954712e-01 3.450318872928619385e-01 -3.311774134635925293e-01
-2.309181988239288330e-01 1.967108398675918579e-01 -1.184138059616088867e-01
-1.672013550996780396e-01 2.129717767238616943e-01 -3.367065787315368652e-01
-1.673370003700256348e-01 1.203226074576377869e-01 1.254034787416458130e-02
-1.860335171222686768e-01 1.082295253872871399e-01 -1.643552184104919434e-01
-1.896060258150100708e-01 3.187332749366760254e-01 -1.214638203382492065e-01
-2.230148017406463623e-01 1.673206835985183716e-01 -2.282623499631881714e-01
-2.301176637411117554e-01 1.042079478502273560e-01 1.065280139446258545e-01
-2.315862029790878296e-01 1.511343419551849365e-01 6.075175106525421143e-02
-1.610541641712188721e-01 3.234143257141113281e-01 -2.645413279533386230e-01
-1.735054850578308105e-01 1.638097018003463745e-01 -2.676693499088287354e-01
-1.575536578893661499e-01 2.849231362342834473e-01 -3.377144932746887207e-01
-1.715815961360931396e-01 1.086080893874168396e-01 -4.123440384864807129e-02
-2.317462563514709473e-01 1.234299317002296448e-01 -4.027515277266502380e-02
-1.546441763639450073e-01 2.832078635692596436e-01 -1.929661035537719727e-01
-1.553932577371597290e-01 2.845915853977203369e-01 -2.991837859153747559e-01
-1.756963282823562622e-01 9.446851909160614014e-02 -1.426651328802108765e-02
-2.305898368358612061e-01 1.501945406198501587e-01 8.083318173885345459e-02
-1.560566872358322144e-01 2.397067397832870483e-01 -6.458368897438049316e-02
-2.235135734081268311e-01 1.232719570398330688e-01 -1.473047286272048950e-01
-2.192979604005813599e-01 5.750131607055664062e-02 8.348228037357330322e-02
-2.021664083003997803e-01 2.769793868064880371e-01 -1.082380861043930054e-02
-2.173408269882202148e-01 1.911285519599914551e-01 1.298122107982635498e-01
-1.627009958028793335e-01 3.186035454273223877e-01 -3.686006665229797363e-01
-1.901432722806930542e-01 3.295589685440063477e-01 -1.741502732038497925e-01
-2.262165695428848267e-01 2.356928586959838867e-01 -1.124163120985031128e-01
-2.145355790853500366e-01 2.751899361610412598e-01 -8.942176401615142822e-02
-1.708051860332489014e-01 3.426100611686706543e-01 -2.765188217163085938e-01
-2.156492173671722412e-01 2.811472415924072266e-01 -2.858493924140930176e-01
-2.264690697193145752e-01 8.883519470691680908e-02 -1.541506499052047729e-02
-2.237443625926971436e-01 1.556000262498855591e-01 -2.058963775634765625e-01
-2.040091007947921753e-01 3.177219331264495850e-01 -3.275621235370635986e-01
-1.607653796672821045e-01 1.789665967226028442e-01 3.389371931552886963e-02
-1.850774735212326050e-01 2.831651568412780762e-01 -1.577265560626983643e-03
-2.331752777099609375e-01 1.357423067092895508e-01 -1.782328635454177856e-02
-1.853438019752502441e-01 7.485929876565933228e-02 -1.048471033573150635e-02
-1.637300252914428711e-01 1.646136939525604248e-01 6.884166598320007324e-02
-2.029365003108978271e-01 1.374389380216598511e-01 -2.572694122791290283e-01
-2.177710533142089844e-01 2.784718275070190430e-01 -2.359433025121688843e-01
-1.570962518453598022e-01 3.057183027267456055e-01 -2.956137657165527344e-01
-2.332435548305511475e-01 1.339865624904632568e-01 7.790707051753997803e-03
-1.693160086870193481e-01 1.182303950190544128e-01 -6.276057660579681396e-02
-1.624911129474639893e-01 1.686983406543731689e-01 5.422745645046234131e-02
-2.045548856258392334e-01 8.172321319580078125e-02 2.452821582555770874e-01
-1.932390183210372925e-01 9.194551408290863037e-02 2.352501302957534790e-01
-1.894542723894119263e-01 6.034684181213378906e-02 9.836862981319427490e-02
-1.753002405166625977e-01 2.860239148139953613e-01 -4.424136281013488770e-01
-2.107664793729782104e-01 2.802946567535400391e-01 -7.293787598609924316e-02
-2.045967280864715576e-01 3.186894059181213379e-01 -3.037704825401306152e-01
-2.210846096277236938e-01 7.779624313116073608e-02 1.921517997980117798e-01
-1.798078417778015137e-01 2.678444683551788330e-01 3.015175461769104004e-02
-1.544957756996154785e-01 2.286542505025863647e-01 -2.300610393285751343e-01
-2.279957234859466553e-01 1.852129548788070679e-01 -1.930833309888839722e-01
-1.554726958274841309e-01 1.989208012819290161e-01 -1.598393619060516357e-01
-1.600804924964904785e-01 2.455081045627593994e-01 -2.354756742715835571e-02
