4.502916336059570312e-01 2.633403986692428589e-02 -6.631269454956054688e-01
2.823663353919982910e-01 9.165948629379272461e-02 -1.181172728538513184e-01
2.007007449865341187e-01 6.515960395336151123e-02 5.279692411422729492e-01
3.460776805877685547e-01 2.970356866717338562e-02 -9.136986732482910156e-01
3.860287964344024658e-01 1.860368065536022186e-02 -7.770032882690429688e-01
3.439743220806121826e-01 8.878068625926971436e-02 1.431359052658081055e-01
1.071544885635375977e-01 2.012770622968673706e-02 -3.777285814285278320e-01
1.457167118787765503e-01 6.632990390062332153e-02 -3.855240345001220703e-01
1.465974748134613037e-01 7.290953397750854492e-02 8.744396269321441650e-02
3.734942376613616943e-01 -1.617662608623504639e-03 -2.258934974670410156e-01
2.830487191677093506e-01 5.830800905823707581e-02 6.412984132766723633e-01
4.034601449966430664e-01 8.591563999652862549e-02 6.935368478298187256e-02
4.408255219459533691e-01 6.852741539478302002e-02 -7.147651910781860352e-01
3.424316644668579102e-01 -3.144521266222000122e-03 -3.875223398208618164e-01
7.974986732006072998e-02 2.736411988735198975e-02 -1.707823723554611206e-01
3.818580806255340576e-01 2.078616619110107422e-02 -8.090204000473022461e-01
4.399667382240295410e-01 8.299098908901214600e-02 -3.994334936141967773e-01
9.778544306755065918e-02 5.713558942079544067e-02 -5.510453134775161743e-02
2.121789157390594482e-01 -7.492519915103912354e-03 9.071032702922821045e-02
2.184644043445587158e-01 6.242942810058593750e-02 5.841015577316284180e-01
2.425889670848846436e-01 -5.455274134874343872e-03 -4.038444757461547852e-01
1.638187319040298462e-01 4.434423521161079407e-02 6.062498092651367188e-01
4.064106643199920654e-01 3.499772399663925171e-03 -2.158981859683990479e-01
3.513569235801696777e-01 6.022080779075622559e-03 3.189508020877838135e-01
1.113280802965164185e-01 5.572623759508132935e-02 -3.163874745368957520e-01
2.699733078479766846e-01 -6.910584867000579834e-03 -3.592357337474822998e-01
3.732685446739196777e-01 9.593680500984191895e-03 -6.698123216629028320e-01
4.459322094917297363e-01 1.911332271993160248e-02 -5.641340017318725586e-01
3.806197345256805420e-01 2.774947509169578552e-02 4.994246661663055420e-01
2.394030690193176270e-01 1.010993495583534241e-02 -7.197051048278808594e-01
3.729953765869140625e-01 8.995274454355239868e-02 -3.872869014739990234e-01
2.934052646160125732e-01 8.351064473390579224e-02 -5.851806402206420898e-01
1.985602378845214844e-01 -2.954050898551940918e-03 -3.900364041328430176e-01
1.800166368484497070e-01 -5.139235407114028931e-03 1.100166290998458862e-01
1.549142748117446899e-01 1.011826097965240479e-03 -3.212366700172424316e-01
4.907769560813903809e-01 7.016020268201828003e-02 -2.571166157722473145e-01
1.201001405715942383e-01 6.312014162540435791e-02 2.032807171344757080e-01
1.796515285968780518e-01 7.456474751234054565e-02 2.986900210380554199e-01
4.423906207084655762e-01 6.291216611862182617e-02 3.031898140907287598e-01
2.652928829193115234e-01 8.916510641574859619e-02 -3.082205355167388916e-01
2.240282446146011353e-01 -1.757547259330749512e-03 3.311803936958312988e-01
1.681164205074310303e-01 7.634913921356201172e-02 1.592290103435516357e-01
3.086544573307037354e-01 8.085630834102630615e-02 3.786852657794952393e-01
2.260433584451675415e-01 7.723701745271682739e-02 3.853715360164642334e-01
2.414376288652420044e-01 8.404202759265899658e-02 2.408089339733123779e-01
3.180256783962249756e-01 -6.277710199356079102e-03 2.082993090152740479e-02
2.145421057939529419e-01 -6.371311843395233154e-03 1.629746556282043457e-01
3.404037356376647949e-01 8.047553151845932007e-02 3.605281710624694824e-01
1.158207952976226807e-01 4.824738949537277222e-03 7.302069664001464844e-02
3.725696802139282227e-01 -1.832392066717147827e-03 -1.867979019880294800e-01
4.842004776000976562e-01 2.600874193012714386e-02 -2.957676947116851807e-01
1.435431241989135742e-01 5.899138748645782471e-03 3.339515328407287598e-01
4.585936665534973145e-01 7.404921948909759521e-02 7.728075981140136719e-02
2.927097976207733154e-01 7.196742296218872070e-02 -7.787576913833618164e-01
-3.889273107051849365e-01 -2.162827551364898682e-01 -1.061682105064392090e-01
-4.492560923099517822e-01 -2.429998070001602173e-01 -3.804689645767211914e-01
-3.667356073856353760e-01 -2.091489136219024658e-01 5.143017172813415527e-01
-4.070752263069152832e-01 -2.246457189321517944e-01 -3.012647032737731934e-01
-4.500480592250823975e-01 -1.473617255687713623e-01 2.075030505657196045e-01
-3.914365768432617188e-01 -1.720796525478363037e-01 2.365541607141494751e-01
-4.760910272598266602e-01 -2.304131388664245605e-01 4.628173112869262695e-01
-4.417764246463775635e-01 -1.889217197895050049e-01 1.026201963424682617e+00
-4.020154476165771484e-01 -1.481167078018188477e-01 6.448420882225036621e-01
-3.766292333602905273e-01 -3.120547533035278320e-01 -1.635540127754211426e-01
-4.606561064720153809e-01 -2.816088199615478516e-01 6.581612825393676758e-01
-3.884682953357696533e-01 -3.630148172378540039e-01 -4.341092705726623535e-02
-4.375549256801605225e-01 -1.438557505607604980e-01 7.840787768363952637e-01
-3.869090378284454346e-01 -1.700140833854675293e-01 3.966372311115264893e-01
-3.682027161121368408e-01 -2.815485000610351562e-01 9.599956870079040527e-01
-3.602446913719177246e-01 -3.263232707977294922e-01 5.657693147659301758e-01
-4.391195476055145264e-01 -1.940049529075622559e-01 1.056029796600341797e+00
-3.561693131923675537e-01 -2.558189034461975098e-01 5.558450222015380859e-01
-4.755841493606567383e-01 -2.317596673965454102e-01 -1.110842823982238770e-02
-4.137621819972991943e-01 -1.559092700481414795e-01 1.317476034164428711e-01
-3.644369542598724365e-01 -2.611644268035888672e-01 9.395736455917358398e-02
-3.811935782432556152e-01 -3.268789649009704590e-01 -1.873252391815185547e-01
-4.586167037487030029e-01 -1.535204052925109863e-01 2.314659655094146729e-01
-3.561288714408874512e-01 -2.733907103538513184e-01 6.837348937988281250e-01
-3.663632869720458984e-01 -2.737338244915008545e-01 1.463744044303894043e-02
-4.527684152126312256e-01 -2.428294122219085693e-01 9.258915781974792480e-01
-4.751029014587402344e-01 -1.934490650892257690e-01 1.740630716085433960e-01
-4.499957263469696045e-01 -1.406449079513549805e-01 4.701493680477142334e-01
-3.872881531715393066e-01 -3.707702159881591797e-01 4.136141538619995117e-01
-4.742147326469421387e-01 -2.600016593933105469e-01 -1.481428742408752441e-02
-3.899810016155242920e-01 -3.653531968593597412e-01 5.534622669219970703e-01
-4.042625427246093750e-01 -1.515893936157226562e-01 8.160917162895202637e-01
-3.880342543125152588e-01 -1.646005511283874512e-01 5.343201756477355957e-01
-4.564710259437561035e-01 -2.793464958667755127e-01 7.481059432029724121e-01
-3.673491775989532471e-01 -3.179821670055389404e-01 -5.572140216827392578e-04
-3.573676645755767822e-01 -2.858475744724273682e-01 2.446667104959487915e-01
-3.837889432907104492e-01 -3.502875566482543945e-01 7.150979042053222656e-01
-4.223190248012542725e-01 -2.372246235609054565e-01 -4.016306400299072266e-01
-3.734666407108306885e-01 -1.959719061851501465e-01 3.911986649036407471e-01
-4.426543712615966797e-01 -1.366293132305145264e-01 5.301470756530761719e-01
-4.620656073093414307e-01 -1.929611563682556152e-01 -1.236747503280639648e-01
-4.723688960075378418e-01 -2.227714806795120239e-01 -8.583903312683105469e-02
-3.848629295825958252e-01 -3.483675718307495117e-01 -1.316270828247070312e-01
-4.350454211235046387e-01 -1.940088272094726562e-01 1.081579327583312988e+00
-4.098486602306365967e-01 -1.465705335140228271e-01 3.370336890220642090e-01
-4.460064768791198730e-01 -2.104960530996322632e-01 1.020477414131164551e+00
-4.733735620975494385e-01 -1.813339889049530029e-01 3.352564573287963867e-01
-4.535311162471771240e-01 -2.918913364410400391e-01 7.248944044113159180e-01
-3.745586574077606201e-01 -3.347492516040802002e-01 -6.921023130416870117e-02
-3.587275445461273193e-01 -2.995593249797821045e-01 7.279746532440185547e-01
-4.546539485454559326e-01 -3.124450147151947021e-01 5.370042324066162109e-01
-4.334563016891479492e-01 -2.249983400106430054e-01 1.114576816558837891e+00
-4.271019697189331055e-01 -1.509566307067871094e-01 1.080442667007446289e-01
-3.696775734424591064e-01 -2.220135033130645752e-01 1.934965550899505615e-01
-3.690624833106994629e-01 -3.218696415424346924e-01 8.102612495422363281e-01
-4.762572050094604492e-01 -2.070778012275695801e-01 4.450584948062896729e-01
-3.754313886165618896e-01 -3.482501506805419922e-01 7.409453392028808594e-04
-4.411493837833404541e-01 -2.564716935157775879e-01 1.016389966011047363e+00
-4.435219466686248779e-01 -2.347289770841598511e-01 1.034202694892883301e+00
-4.203636348247528076e-01 -2.247478961944580078e-01 -3.598978519439697266e-01
-4.683653712272644043e-01 -1.824998259544372559e-01 6.261414289474487305e-01
-4.165242910385131836e-01 -3.681011795997619629e-01 4.179481565952301025e-01
-4.502031505107879639e-01 -2.401985377073287964e-01 9.604365229606628418e-01
-4.178484082221984863e-01 -3.652299344539642334e-01 -9.898141026496887207e-02
-4.062640666961669922e-01 -1.747494339942932129e-01 1.048415899276733398e-03
-3.771328032016754150e-01 -1.999929100275039673e-01 2.138537168502807617e-01
-3.670789003372192383e-01 -2.140933126211166382e-01 7.811681032180786133e-01
-3.590644896030426025e-01 -2.376512140035629272e-01 5.413466095924377441e-01
-4.165156781673431396e-01 -1.673317253589630127e-01 1.036600112915039062e+00
-4.607548117637634277e-01 -2.026729136705398560e-01 -1.865563988685607910e-01
-3.794615268707275391e-01 -3.671156167984008789e-01 3.501972854137420654e-01
-3.755461573600769043e-01 -2.737161219120025635e-01 1.049632549285888672e+00
-4.778974056243896484e-01 -2.188521474599838257e-01 1.350419521331787109e-01
-3.854100108146667480e-01 -1.681484431028366089e-01 5.820266604423522949e-01
-3.675567209720611572e-01 -2.492640316486358643e-01 9.639903306961059570e-01
-4.606736302375793457e-01 -1.815898716449737549e-01 7.881405353546142578e-01
-4.399415850639343262e-01 -1.423279494047164917e-01 7.415142059326171875e-01
-4.121770262718200684e-01 -3.466528058052062988e-01 7.449475526809692383e-01
-3.687493503093719482e-01 -2.047649472951889038e-01 4.657301902770996094e-01
-3.578268885612487793e-01 -3.133543431758880615e-01 6.017630696296691895e-01
-4.322838485240936279e-01 -2.132217437028884888e-01 -3.383570909500122070e-01
-4.087367653846740723e-01 -1.426695883274078369e-01 5.128528475761413574e-01
-3.789374232292175293e-01 -3.048297166824340820e-01 -2.004641294479370117e-01
-3.606041669845581055e-01 -2.394850552082061768e-01 7.507393360137939453e-01
-3.954335749149322510e-01 -1.764446496963500977e-01 1.001591205596923828e+00
-4.044846296310424805e-01 -1.758033335208892822e-01 1.056107282638549805e+00
-3.591400086879730225e-01 -2.618445456027984619e-01 7.919007539749145508e-01
-4.640423059463500977e-01 -1.880497634410858154e-01 -6.912374496459960938e-02
-3.620724976062774658e-01 -2.410575002431869507e-01 2.759677171707153320e-01
-3.681603670120239258e-01 -2.952110469341278076e-01 -4.384154081344604492e-02
-4.546404480934143066e-01 -1.465668976306915283e-01 3.107257485389709473e-01
-3.675606846809387207e-01 -3.244518041610717773e-01 7.710952162742614746e-01
-3.812744021415710449e-01 -2.946259975433349609e-01 -2.310162782669067383e-01
-3.757975697517395020e-01 -2.445280402898788452e-01 -6.112015247344970703e-02
-3.639533519744873047e-01 -2.402858436107635498e-01 2.164752781391143799e-01
-4.766028821468353271e-01 -2.101460844278335571e-01 1.008011996746063232e-01
-4.740619957447052002e-01 -1.857806444168090820e-01 2.329214364290237427e-01
-4.069157838821411133e-01 -3.765431344509124756e-01 2.150574177503585815e-01
-3.603522479534149170e-01 -3.193578124046325684e-01 1.963203549385070801e-01
-3.750960826873779297e-01 -1.939175426959991455e-01 3.594035804271697998e-01
-4.521771967411041260e-01 -1.981990337371826172e-01 9.464933276176452637e-01
-4.209928512573242188e-01 -2.694918215274810791e-01 1.113058567047119141e+00
-3.580365180969238281e-01 -3.195226490497589111e-01 5.352385640144348145e-01
-3.550415635108947754e-01 -2.931861579418182373e-01 5.801409482955932617e-01
-4.042458236217498779e-01 -1.871795654296875000e-01 -8.083131909370422363e-02
-4.122264087200164795e-01 -3.279899358749389648e-01 8.922616243362426758e-01
-3.987856805324554443e-01 -3.603540360927581787e-01 -1.508495807647705078e-01
-4.618472456932067871e-01 -2.575383186340332031e-01 -2.871697545051574707e-01
-3.676243126392364502e-01 -2.092028856277465820e-01 7.330877780914306641e-01
-4.000592827796936035e-01 -3.620993494987487793e-01 6.157541871070861816e-01
-4.633009433746337891e-01 -3.108707964420318604e-01 2.049762755632400513e-01
-4.197228252887725830e-01 -1.395593285560607910e-01 7.305536270141601562e-01
-3.576204180717468262e-01 -3.049083948135375977e-01 6.602104902267456055e-01
-3.883272707462310791e-01 -1.963875144720077515e-01 1.056383371353149414e+00
-3.819591104984283447e-01 -3.383891880512237549e-01 -1.533163189888000488e-01
-4.683341383934020996e-01 -2.297409921884536743e-01 6.975029110908508301e-01
-3.720181882381439209e-01 -3.432735204696655273e-01 6.717673540115356445e-01
-4.714463353157043457e-01 -2.694094479084014893e-01 -7.509544491767883301e-02
-3.701266050338745117e-01 -2.541817426681518555e-01 -1.256644725799560547e-03
-4.621697068214416504e-01 -2.463793903589248657e-01 7.816960811614990234e-01
-3.693178892135620117e-01 -2.418897897005081177e-01 6.928154826164245605e-02
-3.744718730449676514e-01 -3.570369482040405273e-01 1.245857924222946167e-01
-3.697046041488647461e-01 -2.163534611463546753e-01 2.456619590520858765e-01
-4.733720719814300537e-01 -2.081586271524429321e-01 -7.792055606842041016e-03
-4.599001109600067139e-01 -3.149286508560180664e-01 3.343746960163116455e-01
-4.658481478691101074e-01 -2.851222157478332520e-01 -1.533532142639160156e-01
-4.351728856563568115e-01 -3.035311400890350342e-01 8.863061070442199707e-01
-3.582946658134460449e-01 -2.895018458366394043e-01 7.509632110595703125e-01
-3.708206713199615479e-01 -2.060481607913970947e-01 3.327163755893707275e-01
-3.757748305797576904e-01 -3.198163509368896484e-01 -1.375679373741149902e-01
-4.737116098403930664e-01 -2.702169716358184814e-01 3.180471658706665039e-01
-4.424378275871276855e-01 -1.780911982059478760e-01 9.896606206893920898e-01
-3.614057898521423340e-01 -2.605850994586944580e-01 1.786234080791473389e-01
-3.625746965408325195e-01 -3.236872851848602295e-01 1.417442262172698975e-01
-4.427311718463897705e-01 -2.619056403636932373e-01 9.877384901046752930e-01
-4.018835723400115967e-01 -3.341131210327148438e-01 -3.217090368270874023e-01
-3.711825907230377197e-01 -3.563486039638519287e-01 2.428741455078125000e-01
-4.159840345382690430e-01 -1.543711125850677490e-01 9.374660849571228027e-01
-4.564650952816009521e-01 -3.136604130268096924e-01 4.765687286853790283e-01
-4.751808047294616699e-01 -2.638729810714721680e-01 2.922978401184082031e-01
-4.337108135223388672e-01 -1.343296170234680176e-01 4.978827536106109619e-01
-4.540220499038696289e-01 -3.095636963844299316e-01 -2.417240142822265625e-01
-4.467575550079345703e-01 -3.133909702301025391e-01 -3.120405673980712891e-01
-4.519013762474060059e-01 -1.621230542659759521e-01 2.251482009887695312e-02
-3.766506910324096680e-01 -2.012019902467727661e-01 9.287635684013366699e-01
-4.762045443058013916e-01 -2.608515918254852295e-01 1.919098049402236938e-01
-4.622918367385864258e-01 -2.531218230724334717e-01 7.594843506813049316e-01
-4.619516134262084961e-01 -2.835207879543304443e-01 -2.392922639846801758e-01
-3.910341262817382812e-01 -2.363060563802719116e-01 -2.196524143218994141e-01
-4.492848515510559082e-01 -2.051234245300292969e-01 9.854278564453125000e-01
-4.712415933609008789e-01 -2.380352020263671875e-01 6.100599765777587891e-01
-3.655677437782287598e-01 -3.264698386192321777e-01 7.111331820487976074e-02
-4.472274482250213623e-01 -1.749803274869918823e-01 -1.145392060279846191e-01
-3.570975363254547119e-01 -2.510333061218261719e-01 6.252815723419189453e-01
-4.467980265617370605e-01 -3.261352479457855225e-01 5.567504167556762695e-01
-4.771567881107330322e-01 -2.530890703201293945e-01 2.255553603172302246e-01
-4.540872573852539062e-01 -2.748931050300598145e-01 -3.545609116554260254e-01
-4.602078795433044434e-01 -1.560479700565338135e-01 5.911978483200073242e-01
-3.749334514141082764e-01 -2.409895509481430054e-01 1.052182674407958984e+00
-4.212804436683654785e-01 -3.531880974769592285e-01 6.089624762535095215e-01
-3.555717468261718750e-01 -2.886698544025421143e-01 3.358533382415771484e-01
-4.329235255718231201e-01 -3.615535199642181396e-01 1.822318285703659058e-01
-4.643119573593139648e-01 -3.036005496978759766e-01 -3.467285633087158203e-02
-4.440689384937286377e-01 -3.411478400230407715e-01 4.054230153560638428e-01
-4.086428582668304443e-01 -2.592759132385253906e-01 -4.027112126350402832e-01
-3.570049405097961426e-01 -2.676235437393188477e-01 3.162314891815185547e-01
-3.678923547267913818e-01 -3.425672650337219238e-01 6.012852787971496582e-01
-4.490063488483428955e-01 -2.667349874973297119e-01 9.062128663063049316e-01
-4.290401637554168701e-01 -1.368177235126495361e-01 3.649242818355560303e-01
-3.920239508152008057e-01 -3.326702117919921875e-01 -2.695381045341491699e-01
-4.584105908870697021e-01 -1.626765131950378418e-01 8.324676752090454102e-02
-4.133563637733459473e-01 -1.606568694114685059e-01 9.855738878250122070e-01
-4.591893255710601807e-01 -3.097809553146362305e-01 -1.365252733230590820e-01
-3.622026145458221436e-01 -3.049978017807006836e-01 9.194710850715637207e-02
-4.434208869934082031e-01 -3.458143472671508789e-01 3.230635523796081543e-01
-3.654042184352874756e-01 -2.644275724887847900e-01 9.376311302185058594e-01
-4.475888013839721680e-01 -1.992778480052947998e-01 -2.562456130981445312e-01
-4.181860983371734619e-01 -3.310554921627044678e-01 -3.669730424880981445e-01
-4.135557711124420166e-01 -3.462589979171752930e-01 -2.908773422241210938e-01
-4.705186486244201660e-01 -2.886188030242919922e-01 1.181636601686477661e-01
-4.595645666122436523e-01 -3.185680508613586426e-01 1.341852545738220215e-02
-3.706201612949371338e-01 -2.681368887424468994e-01 1.008139848709106445e+00
-3.601071834564208984e-01 -2.444162368774414062e-01 3.311905264854431152e-01
-4.432422518730163574e-01 -3.068225979804992676e-01 -3.684366941452026367e-01
-4.699067473411560059e-01 -2.199496775865554810e-01 -1.284412145614624023e-01
-3.718372881412506104e-01 -1.954216659069061279e-01 6.730885505676269531e-01
-3.816688358783721924e-01 -2.658788561820983887e-01 -2.047315239906311035e-01
-3.992875814437866211e-01 -2.309437245130538940e-01 1.184908866882324219e+00
-4.314574599266052246e-01 -1.919004917144775391e-01 -2.393642067909240723e-01
-4.199730753898620605e-01 -1.752113401889801025e-01 -9.852015972137451172e-02
-4.285822510719299316e-01 -3.618710339069366455e-01 3.533197343349456787e-01
-4.642451405525207520e-01 -3.086880445480346680e-01 1.822689026594161987e-01
-4.559137821197509766e-01 -3.254781961441040039e-01 -1.807886362075805664e-02
-4.548545479774475098e-01 -1.840960234403610229e-01 8.828614354133605957e-01
-4.428496062755584717e-01 -3.473980128765106201e-01 -2.285319566726684570e-02
-4.617758095264434814e-01 -3.074299991130828857e-01 -8.428460359573364258e-02
-3.751301765441894531e-01 -2.670278847217559814e-01 -1.216776371002197266e-01
-4.269926249980926514e-01 -2.101198136806488037e-01 1.142549276351928711e+00
-4.336832165718078613e-01 -3.427205681800842285e-01 5.869996547698974609e-01
-4.206074774265289307e-01 -1.577681005001068115e-01 5.861961841583251953e-02
-4.468709826469421387e-01 -3.211036324501037598e-01 6.085203886032104492e-01
-3.755849897861480713e-01 -1.954134702682495117e-01 8.497475981712341309e-01
-3.767299354076385498e-01 -1.866808235645294189e-01 7.501389980316162109e-01
-4.519505798816680908e-01 -3.082629144191741943e-01 6.331065893173217773e-01
-3.735376596450805664e-01 -2.246402502059936523e-01 9.986736774444580078e-01
-4.271175265312194824e-01 -3.499668240547180176e-01 -2.251943349838256836e-01
-4.311752617359161377e-01 -2.264468222856521606e-01 -3.828393816947937012e-01
-4.649393558502197266e-01 -2.744645774364471436e-01 -2.160775661468505859e-01
-4.455437362194061279e-01 -2.903409004211425781e-01 8.462704420089721680e-01
-3.554584383964538574e-01 -2.714753746986389160e-01 6.357359886169433594e-01
-4.534181952476501465e-01 -2.970214486122131348e-01 6.930389404296875000e-01
-4.074820578098297119e-01 -1.432794481515884399e-01 6.034597158432006836e-01
-3.615347146987915039e-01 -3.238773941993713379e-01 6.449713706970214844e-01
-3.912164270877838135e-01 -1.622886955738067627e-01 7.482663393020629883e-01
-4.297608733177185059e-01 -3.203881382942199707e-01 8.309102058410644531e-01
-4.726404845714569092e-01 -2.484001070261001587e-01 5.329775810241699219e-01
-4.071964323520660400e-01 -1.517319530248641968e-01 8.546304702758789062e-01
-3.580277264118194580e-01 -2.636856138706207275e-01 7.553119063377380371e-01
-3.902881145477294922e-01 -2.373988777399063110e-01 1.159846425056457520e+00
-3.546095192432403564e-01 -2.744463980197906494e-01 5.057346224784851074e-01
-4.511855840682983398e-01 -1.461280733346939087e-01 6.456470489501953125e-01
-3.558145463466644287e-01 -2.618456780910491943e-01 4.498381912708282471e-01
-3.669378161430358887e-01 -2.153576910495758057e-01 3.601996004581451416e-01
-3.912972509860992432e-01 -2.042810022830963135e-01 -6.295388936996459961e-02
-4.117487967014312744e-01 -2.128592133522033691e-01 -2.789938449859619141e-01
-4.539857506752014160e-01 -1.734454035758972168e-01 8.529924750328063965e-01
-3.550346195697784424e-01 -3.004770278930664062e-01 4.315778315067291260e-01
-3.760685324668884277e-01 -2.187958508729934692e-01 7.309257984161376953e-02
-4.525377452373504639e-01 -1.826177090406417847e-01 9.067399501800537109e-01
-4.470277726650238037e-01 -3.440359234809875488e-01 1.612952500581741333e-01
-4.485266804695129395e-01 -2.358892112970352173e-01 9.848943352699279785e-01
-3.591199815273284912e-01 -2.720360159873962402e-01 2.091880887746810913e-01
-4.619477987289428711e-01 -2.097961604595184326e-01 8.259624242782592773e-01
-4.734838008880615234e-01 -2.109827399253845215e-01 5.694651603698730469e-01
-3.615181446075439453e-01 -3.346161246299743652e-01 3.072076439857482910e-01
-3.881660401821136475e-01 -3.347289264202117920e-01 8.657732009887695312e-01
-4.633509516716003418e-01 -1.775751113891601562e-01 7.309615612030029297e-04
-3.778378367424011230e-01 -2.449419349431991577e-01 -9.367400407791137695e-02
-4.688346982002258301e-01 -2.924488484859466553e-01 2.734620273113250732e-01
-3.701048493385314941e-01 -2.472395002841949463e-01 2.744731307029724121e-02
-4.605590105056762695e-01 -1.774711459875106812e-01 -3.551983833312988281e-02
-4.054448008537292480e-01 -3.722738623619079590e-01 -9.891480207443237305e-03
-4.763459861278533936e-01 -2.513738870620727539e-01 5.457919836044311523e-02
-4.175070524215698242e-01 -1.398145109415054321e-01 3.913727104663848877e-01
-4.288958311080932617e-01 -3.645767271518707275e-01 2.427863478660583496e-01
-3.717344701290130615e-01 -3.578202724456787109e-01 2.698380649089813232e-01
-4.357599914073944092e-01 -2.644709050655364990e-01 1.039771437644958496e+00
-4.249914884567260742e-01 -3.578799068927764893e-01 4.995760321617126465e-01
-4.494807124137878418e-01 -2.956822216510772705e-01 7.640949487686157227e-01
-4.494143426418304443e-01 -3.384888768196105957e-01 6.409883499145507812e-03
-4.358593821525573730e-01 -3.251994252204895020e-01 7.322186231613159180e-01
-3.677874803543090820e-01 -2.272368669509887695e-01 9.045607447624206543e-01
-4.482195675373077393e-01 -2.900043129920959473e-01 8.141649961471557617e-01
-4.717536270618438721e-01 -2.718820273876190186e-01 -4.921251535415649414e-02
-4.531908035278320312e-01 -2.632234096527099609e-01 8.658087253570556641e-01
-4.101887643337249756e-01 -1.539500206708908081e-01 1.963618248701095581e-01
-4.552792310714721680e-01 -3.185036480426788330e-01 4.470866024494171143e-01
-4.294840693473815918e-01 -2.839937508106231689e-01 -4.572626352310180664e-01
-3.643746376037597656e-01 -3.207301199436187744e-01 7.414476871490478516e-01
-4.658623635768890381e-01 -2.548823654651641846e-01 6.835300922393798828e-01
-4.549583196640014648e-01 -2.032252252101898193e-01 9.199437499046325684e-01
-3.676901161670684814e-01 -3.501737117767333984e-01 4.379000365734100342e-01
-4.028394818305969238e-01 -3.767894804477691650e-01 2.534718811511993408e-01
-4.066465497016906738e-01 -3.255093097686767578e-01 9.266832470893859863e-01
-3.610078990459442139e-01 -2.598017156124114990e-01 8.436579704284667969e-01
-4.335831403732299805e-01 -3.598170280456542969e-01 3.370404243469238281e-02
-3.561159372329711914e-01 -2.970477938652038574e-01 6.351821422576904297e-01
-4.774669408798217773e-01 -2.270141243934631348e-01 8.053672313690185547e-02
-4.261557757854461670e-01 -2.520146667957305908e-01 -4.380373358726501465e-01
-3.844662010669708252e-01 -3.681885600090026855e-01 4.471899867057800293e-01
-3.549228310585021973e-01 -2.689300477504730225e-01 5.338459610939025879e-01
-4.661647975444793701e-01 -2.965517640113830566e-01 3.608622252941131592e-01
-4.229269027709960938e-01 -3.226725757122039795e-01 8.689828515052795410e-01
-3.584015071392059326e-01 -3.097874522209167480e-01 2.306369096040725708e-01
-3.673651218414306641e-01 -2.772793769836425781e-01 -1.235571503639221191e-02
-4.516783058643341064e-01 -3.339310288429260254e-01 2.839348912239074707e-01
-4.132030606269836426e-01 -3.599152863025665283e-01 -1.824265122413635254e-01
-4.286647140979766846e-01 -3.523618578910827637e-01 5.323485136032104492e-01
-4.750704467296600342e-01 -2.037807106971740723e-01 4.931081831455230713e-01
-4.419807195663452148e-01 -3.372993767261505127e-01 5.147141814231872559e-01
-3.892571032047271729e-01 -1.973461806774139404e-01 1.281070709228515625e-02
-4.674742221832275391e-01 -1.683281064033508301e-01 5.188890099525451660e-01
-3.696245551109313965e-01 -3.069956898689270020e-01 8.968436121940612793e-01
-4.573330283164978027e-01 -2.562626004219055176e-01 8.303871750831604004e-01
-3.815828561782836914e-01 -3.030711710453033447e-01 1.009105920791625977e+00
-4.066726267337799072e-01 -1.439248621463775635e-01 5.472582578659057617e-01
-4.450702071189880371e-01 -2.782971262931823730e-01 -4.142310023307800293e-01
-4.232525229454040527e-01 -1.362809985876083374e-01 6.462681293487548828e-01
-4.073062241077423096e-01 -1.653382778167724609e-01 8.386430144309997559e-02
-3.880826532840728760e-01 -3.666596412658691406e-01 1.085823774337768555e-02
-4.624603688716888428e-01 -1.567792594432830811e-01 2.758829593658447266e-01
-3.752102553844451904e-01 -1.918526887893676758e-01 7.867156267166137695e-01
-3.635795712471008301e-01 -2.213668972253799438e-01 6.973669528961181641e-01
-4.047730565071105957e-01 -1.486647427082061768e-01 7.611141800880432129e-01
-4.568553864955902100e-01 -1.491595655679702759e-01 5.555060505867004395e-01
-3.642514050006866455e-01 -2.479406297206878662e-01 1.593483090400695801e-01
-4.130588769912719727e-01 -3.356015980243682861e-01 8.342730998992919922e-01
-4.515138864517211914e-01 -3.315432071685791016e-01 3.514088392257690430e-01
-4.008924961090087891e-01 -3.758039474487304688e-01 1.012486815452575684e-01
-3.600209057331085205e-01 -3.082125782966613770e-01 1.633629351854324341e-01
-4.221346378326416016e-01 -1.405531764030456543e-01 3.130002319812774658e-01
-3.811055719852447510e-01 -2.403014302253723145e-01 -1.210275292396545410e-01
-4.650426506996154785e-01 -2.736774981021881104e-01 6.097425222396850586e-01
-3.862905204296112061e-01 -1.676236987113952637e-01 6.881456971168518066e-01
-3.561100363731384277e-01 -3.113933801651000977e-01 4.619227945804595947e-01
-3.687620162963867188e-01 -3.420912921428680420e-01 6.273347735404968262e-01
-4.382044672966003418e-01 -1.616168171167373657e-01 -2.439478039741516113e-02
-4.631599187850952148e-01 -3.099193572998046875e-01 2.578310370445251465e-01
-4.471811950206756592e-01 -3.321993947029113770e-01 -1.679223775863647461e-01
-4.745135009288787842e-01 -2.365629225969314575e-01 -5.018937587738037109e-02
-4.467258751392364502e-01 -1.917428076267242432e-01 -2.216514348983764648e-01
-4.636552929878234863e-01 -2.564978301525115967e-01 7.222738265991210938e-01
-4.119991958141326904e-01 -3.111307322978973389e-01 9.913553595542907715e-01
-4.421383142471313477e-01 -3.314281702041625977e-01 -2.489395737648010254e-01
-3.646330833435058594e-01 -2.730439901351928711e-01 5.354478955268859863e-02
-3.871809840202331543e-01 -1.663033515214920044e-01 5.069496631622314453e-01
-4.118710160255432129e-01 -3.185275197029113770e-01 -4.004064202308654785e-01
-4.361688494682312012e-01 -2.347765117883682251e-01 1.091341972351074219e+00
-4.343634247779846191e-01 -2.960807085037231445e-01 9.323552846908569336e-01
-4.453626573085784912e-01 -3.455977439880371094e-01 2.324874997138977051e-01
-4.604962170124053955e-01 -1.967542767524719238e-01 -1.606495380401611328e-01
-3.548827767372131348e-01 -2.984047234058380127e-01 5.091543197631835938e-01
-3.585025966167449951e-01 -2.959308922290802002e-01 1.973492503166198730e-01
-3.770091831684112549e-01 -2.657125294208526611e-01 1.071923971176147461e+00
-3.838053047657012939e-01 -2.497469782829284668e-01 -1.879905462265014648e-01
-4.382551014423370361e-01 -3.311933875083923340e-01 6.470521092414855957e-01
-3.809975683689117432e-01 -1.835029125213623047e-01 3.286257684230804443e-01
-4.440052211284637451e-01 -1.527761071920394897e-01 8.296698331832885742e-01
-4.116331338882446289e-01 -2.685253024101257324e-01 1.145242452621459961e+00
-3.898946642875671387e-01 -3.487529456615447998e-01 7.562699913978576660e-01
-4.252880513668060303e-01 -3.339610099792480469e-01 7.668539285659790039e-01
-4.315500259399414062e-01 -2.623424232006072998e-01 1.074800372123718262e+00
-3.549298644065856934e-01 -2.926807999610900879e-01 3.931139111518859863e-01
-3.751675486564636230e-01 -1.878659725189208984e-01 5.120619535446166992e-01
-3.727821111679077148e-01 -3.380185365676879883e-01 -2.209925651550292969e-02
-4.655713140964508057e-01 -2.243423014879226685e-01 7.601311206817626953e-01
-4.679491817951202393e-01 -2.885929346084594727e-01 3.912138342857360840e-01
-4.437917172908782959e-01 -3.353479504585266113e-01 -1.916670203208923340e-01
-3.617060482501983643e-01 -2.423641532659530640e-01 8.123804926872253418e-01
-3.639274835586547852e-01 -2.189133614301681519e-01 6.702006459236145020e-01
-3.853304982185363770e-01 -3.391714096069335938e-01 8.225374221801757812e-01
-4.302820563316345215e-01 -3.590434193611145020e-01 3.842064738273620605e-01
-3.575388491153717041e-01 -2.603897750377655029e-01 7.249910235404968262e-01
-4.180400073528289795e-01 -3.534303009510040283e-01 6.350918412208557129e-01
-4.608019292354583740e-01 -1.648250818252563477e-01 6.839719414710998535e-01
-4.703753888607025146e-01 -2.036505341529846191e-01 6.494606733322143555e-01
-4.036293029785156250e-01 -2.042444050312042236e-01 1.159963607788085938e+00
-4.182181060314178467e-01 -1.456031501293182373e-01 2.456314563751220703e-01
-4.121656119823455811e-01 -2.769108712673187256e-01 -4.357491135597229004e-01
-4.770548641681671143e-01 -2.095556259155273438e-01 4.040949940681457520e-01
-4.525825083255767822e-01 -2.946889400482177734e-01 -3.268867731094360352e-01
-4.084451198577880859e-01 -2.932665348052978516e-01 1.078879594802856445e+00
-4.732525944709777832e-01 -2.767733037471771240e-01 2.209490388631820679e-01
-4.228131771087646484e-01 -3.079102933406829834e-01 9.569473862648010254e-01
-4.644170403480529785e-01 -2.881896197795867920e-01 5.195635557174682617e-01
-3.747577071189880371e-01 -3.265049457550048828e-01 8.435710668563842773e-01
-4.136998057365417480e-01 -1.411538422107696533e-01 4.187819361686706543e-01
-4.645436108112335205e-01 -2.085868120193481445e-01 7.807471752166748047e-01
-4.142179191112518311e-01 -2.507944703102111816e-01 1.171198844909667969e+00
-3.728039264678955078e-01 -3.594426810741424561e-01 3.739086985588073730e-01
-4.174047410488128662e-01 -3.470037877559661865e-01 7.097661495208740234e-01
-3.949145376682281494e-01 -3.500134944915771484e-01 -2.075477838516235352e-01
-4.009774625301361084e-01 -3.743632435798645020e-01 5.047518014907836914e-02
-3.619129061698913574e-01 -2.859891951084136963e-01 8.498626947402954102e-01
-4.786615073680877686e-01 -2.233746647834777832e-01 2.199015617370605469e-01
-3.763089478015899658e-01 -1.976071596145629883e-01 8.912548422813415527e-01
-4.470191597938537598e-01 -1.404064744710922241e-01 3.408250510692596436e-01
-4.568761587142944336e-01 -1.476513445377349854e-01 4.961710870265960693e-01
-3.911213278770446777e-01 -2.826538980007171631e-01 1.110243797302246094e+00
-4.497826695442199707e-01 -2.310857325792312622e-01 -3.556259274482727051e-01
-4.214338362216949463e-01 -3.477201461791992188e-01 6.705280542373657227e-01
-4.531885385513305664e-01 -3.039195239543914795e-01 -2.840090990066528320e-01
-3.563090562820434570e-01 -2.621788084506988525e-01 6.605507135391235352e-01
-4.278231561183929443e-01 -3.660916090011596680e-01 1.063342392444610596e-01
-4.592407345771789551e-01 -2.702491283416748047e-01 -3.076392412185668945e-01
-4.745542407035827637e-01 -2.525928914546966553e-01 4.382460117340087891e-01
-3.796206712722778320e-01 -1.983698010444641113e-01 1.724876612424850464e-01
-4.715419411659240723e-01 -1.859166920185089111e-01 5.435971021652221680e-01
-4.027708172798156738e-01 -3.679199516773223877e-01 -8.049494028091430664e-02
-3.939397931098937988e-01 -1.705020368099212646e-01 9.339137077331542969e-01
-4.242662489414215088e-01 -1.375470757484436035e-01 7.007057666778564453e-01
-3.803639113903045654e-01 -1.900038570165634155e-01 2.505898177623748779e-01
-4.073036611080169678e-01 -3.757223188877105713e-01 2.858108878135681152e-01
-3.927702605724334717e-01 -1.728728711605072021e-01 1.995380371809005737e-01
-4.307496249675750732e-01 -2.853740453720092773e-01 1.007352113723754883e+00
-4.778968691825866699e-01 -2.124767005443572998e-01 3.426973521709442139e-01
-4.656199514865875244e-01 -1.884531080722808838e-01 7.201859354972839355e-01
-3.949216306209564209e-01 -3.452493250370025635e-01 -2.351038455963134766e-01
-3.845141530036926270e-01 -1.695849001407623291e-01 6.219577789306640625e-01
-4.575630426406860352e-01 -1.478851437568664551e-01 4.294124245643615723e-01
-3.889764845371246338e-01 -2.064472734928131104e-01 1.101234197616577148e+00
-3.639306724071502686e-01 -2.174791395664215088e-01 5.581414699554443359e-01
-3.615076541900634766e-01 -3.073592782020568848e-01 1.152106821537017822e-01
-4.720897078514099121e-01 -1.771509945392608643e-01 3.789688646793365479e-01
-4.775125682353973389e-01 -2.435746490955352783e-01 3.184401988983154297e-01
-3.734731078147888184e-01 -2.177042961120605469e-01 1.353330761194229126e-01
-3.621512651443481445e-01 -3.315923511981964111e-01 2.196335047483444214e-01
-4.741583466529846191e-01 -2.465342283248901367e-01 4.873580336570739746e-01
-4.683677554130554199e-01 -2.784266173839569092e-01 4.818162620067596436e-01
-4.472163021564483643e-01 -3.369567394256591797e-01 -1.044420003890991211e-01
-4.681878983974456787e-01 -1.663882732391357422e-01 4.189443588256835938e-01
-4.264544546604156494e-01 -1.657965481281280518e-01 -4.691138863563537598e-02
-4.744772613048553467e-01 -2.578523159027099609e-01 4.046893119812011719e-01
-3.615371286869049072e-01 -3.341722190380096436e-01 4.949585795402526855e-01
-4.783829450607299805e-01 -2.384538650512695312e-01 1.987821161746978760e-01
-4.612701535224914551e-01 -1.914305090904235840e-01 8.099821805953979492e-01
-3.692627549171447754e-01 -2.133148759603500366e-01 2.939533889293670654e-01
-4.767721891403198242e-01 -2.362460047006607056e-01 4.115930795669555664e-01
-4.644790291786193848e-01 -1.637496352195739746e-01 1.889583170413970947e-01
-4.769164025783538818e-01 -2.402631640434265137e-01 3.853758871555328369e-01
-4.134722650051116943e-01 -1.533503681421279907e-01 1.690032929182052612e-01
-4.652631878852844238e-01 -2.451571673154830933e-01 -2.418220639228820801e-01
-4.594416320323944092e-01 -3.198774456977844238e-01 4.782935976982116699e-02
-4.583501815795898438e-01 -2.354612797498703003e-01 8.650618791580200195e-01
-3.725973665714263916e-01 -2.526978552341461182e-01 -4.006820917129516602e-02
-3.767598867416381836e-01 -3.562747836112976074e-01 5.721496939659118652e-01
-3.828456401824951172e-01 -2.576479613780975342e-01 1.118945837020874023e+00
-3.816804289817810059e-01 -3.694602251052856445e-01 2.988224327564239502e-01
-3.955005705356597900e-01 -2.927196621894836426e-01 -3.568285107612609863e-01
-4.204463660717010498e-01 -3.625853061676025391e-01 -1.226494610309600830e-01
-3.675951957702636719e-01 -2.187985032796859741e-01 8.464775085449218750e-01
-4.336432516574859619e-01 -3.609714806079864502e-01 1.504574716091156006e-01
-4.770256578922271729e-01 -2.064745128154754639e-01 1.558276116847991943e-01
-3.599260449409484863e-01 -2.798307836055755615e-01 1.625344157218933105e-01
-3.551944494247436523e-01 -2.691475450992584229e-01 5.982375741004943848e-01
-4.355608820915222168e-01 -3.501443564891815186e-01 4.485994279384613037e-01
-3.706428408622741699e-01 -2.007170319557189941e-01 4.394967555999755859e-01
-4.077148735523223877e-01 -2.936239838600158691e-01 -4.213244318962097168e-01
-4.783483147621154785e-01 -2.141511142253875732e-01 2.519471347332000732e-01
-3.830607235431671143e-01 -2.877438068389892578e-01 1.067575931549072266e+00
-3.654341697692871094e-01 -2.220964729785919189e-01 8.023686408996582031e-01
-4.033310115337371826e-01 -1.585468500852584839e-01 2.209638208150863647e-01
-4.396566748619079590e-01 -3.045364320278167725e-01 -3.972570300102233887e-01
-3.983502089977264404e-01 -1.607953310012817383e-01 2.719954550266265869e-01
-4.282129704952239990e-01 -1.349338591098785400e-01 6.080871224403381348e-01
-3.975843787193298340e-01 -3.234291970729827881e-01 9.507406949996948242e-01
-3.772514164447784424e-01 -2.124158442020416260e-01 9.701767563819885254e-02
-4.107928276062011719e-01 -2.083268761634826660e-01 -2.528424263000488281e-01
-4.643798768520355225e-01 -1.681554913520812988e-01 1.189137995243072510e-01
-3.570694029331207275e-01 -2.584489881992340088e-01 3.744363188743591309e-01
-3.621761798858642578e-01 -2.444960623979568481e-01 2.455162405967712402e-01
-4.479194581508636475e-01 -3.427263498306274414e-01 1.212460249662399292e-01
-3.672888875007629395e-01 -3.311510682106018066e-01 7.134103178977966309e-01
-4.711434543132781982e-01 -1.743001788854598999e-01 2.910883724689483643e-01
-3.970960974693298340e-01 -2.151873260736465454e-01 -1.858702898025512695e-01
-3.855182826519012451e-01 -1.968996673822402954e-01 7.363602519035339355e-02
-3.651590943336486816e-01 -2.135518044233322144e-01 6.253180503845214844e-01
-3.951863646507263184e-01 -1.920219957828521729e-01 -2.328720688819885254e-02
-3.763153254985809326e-01 -2.706168591976165771e-01 -1.460294127464294434e-01
-4.729068577289581299e-01 -2.105682790279388428e-01 -3.128260374069213867e-02
-4.097055792808532715e-01 -1.426203250885009766e-01 6.741639375686645508e-01
-3.888004422187805176e-01 -2.719995081424713135e-01 -2.893664836883544922e-01
-4.714179337024688721e-01 -2.821370363235473633e-01 3.885087370872497559e-02
-4.311370253562927246e-01 -3.219846189022064209e-01 8.070311546325683594e-01
-4.099276363849639893e-01 -1.788665950298309326e-01 1.088373184204101562e+00
-4.696095883846282959e-01 -2.352258861064910889e-01 -1.644741296768188477e-01
-3.580779135227203369e-01 -3.223677277565002441e-01 3.774485290050506592e-01
-4.683900773525238037e-01 -2.958987355232238770e-01 9.374308586120605469e-02
-3.890138864517211914e-01 -1.657773256301879883e-01 4.254435598850250244e-01
-3.824865520000457764e-01 -3.221493959426879883e-01 9.230418205261230469e-01
-3.857348561286926270e-01 -1.724457442760467529e-01 8.010042905807495117e-01
-4.316655397415161133e-01 -1.754790842533111572e-01 -1.360680460929870605e-01
-4.074152708053588867e-01 -3.748400211334228516e-01 3.272520303726196289e-01
-3.652341663837432861e-01 -3.104580938816070557e-01 2.731162309646606445e-02
-4.752721786499023438e-01 -1.898660957813262939e-01 2.726004123687744141e-01
-4.638431966304779053e-01 -3.061565160751342773e-01 3.079081177711486816e-01
-3.664725422859191895e-01 -2.411896586418151855e-01 9.288415312767028809e-01
-3.886446058750152588e-01 -3.131803870201110840e-01 -2.898908257484436035e-01
-3.924565911293029785e-01 -1.760361790657043457e-01 1.658297479152679443e-01
-4.452939331531524658e-01 -3.419092595577239990e-01 -6.954547762870788574e-02
-3.937149941921234131e-01 -2.381037324666976929e-01 -2.511555552482604980e-01
-4.778853654861450195e-01 -2.405366152524948120e-01 1.240886449813842773e-01
-4.521207213401794434e-01 -3.263486623764038086e-01 4.253371059894561768e-01
-4.025706350803375244e-01 -2.887687385082244873e-01 -3.990206122398376465e-01
-4.139929413795471191e-01 -1.515109241008758545e-01 8.998918533325195312e-01
-4.391062557697296143e-01 -1.354706883430480957e-01 4.505676031112670898e-01
-4.066899418830871582e-01 -2.085839360952377319e-01 -2.287266254425048828e-01
-4.547825753688812256e-01 -2.288492321968078613e-01 -3.213591575622558594e-01
-3.964067101478576660e-01 -1.549932956695556641e-01 7.129493951797485352e-01
-4.293193519115447998e-01 -1.472907960414886475e-01 1.504396349191665649e-01
-4.286253452301025391e-01 -1.405229568481445312e-01 2.704308331012725830e-01
-4.508196115493774414e-01 -3.378341197967529297e-01 9.799849987030029297e-02
-4.193149209022521973e-01 -1.833008974790573120e-01 -1.536959409713745117e-01
-3.659190833568572998e-01 -2.472506165504455566e-01 1.194690018892288208e-01
-4.728588759899139404e-01 -1.823439002037048340e-01 4.381653666496276855e-01
-4.751276075839996338e-01 -2.232996821403503418e-01 5.134324431419372559e-01
-3.677158653736114502e-01 -3.386832475662231445e-01 9.335631132125854492e-02
-4.322862029075622559e-01 -3.347496688365936279e-01 6.897024512290954590e-01
-3.750587999820709229e-01 -1.873860210180282593e-01 5.584448575973510742e-01
-4.694610834121704102e-01 -2.912198305130004883e-01 6.264430284500122070e-02
-4.724786281585693359e-01 -1.865294575691223145e-01 1.291553378105163574e-01
-3.835912644863128662e-01 -3.646194636821746826e-01 5.167903304100036621e-01
-4.639030098915100098e-01 -2.892560064792633057e-01 -1.762946248054504395e-01
-3.598961234092712402e-01 -2.338621467351913452e-01 6.042422056198120117e-01
-4.380642175674438477e-01 -1.807942241430282593e-01 -1.746580600738525391e-01
-4.414335787296295166e-01 -3.402357399463653564e-01 4.844980239868164062e-01
-4.639797508716583252e-01 -2.993686497211456299e-01 4.141984581947326660e-01
-4.723461270332336426e-01 -2.531106770038604736e-01 -1.014829576015472412e-01
-4.694214165210723877e-01 -1.866285800933837891e-01 3.643026947975158691e-02
-4.693042933940887451e-01 -2.318828105926513672e-01 6.720632314682006836e-01
2.772750556468963623e-01 4.704439267516136169e-02 7.202426195144653320e-01
4.371632635593414307e-01 7.420851290225982666e-02 -1.547935903072357178e-01
2.440250068902969360e-01 3.921896591782569885e-02 3.869423568248748779e-01
3.710296452045440674e-01 -1.745893806219100952e-02 -3.365173935890197754e-01
2.696802616119384766e-01 -1.814700663089752197e-04 5.339674353599548340e-01
3.339674174785614014e-01 8.268912881612777710e-02 -7.050947099924087524e-02
4.728952348232269287e-01 5.748037248849868774e-02 1.007575765252113342e-01
4.228582382202148438e-01 7.001441717147827148e-02 -3.325229883193969727e-01
3.324101567268371582e-01 -2.484946697950363159e-02 -8.960283547639846802e-02
3.830697238445281982e-01 -2.229898422956466675e-02 5.921889841556549072e-02
4.160082340240478516e-01 5.849206447601318359e-02 7.817749977111816406e-01
3.380634784698486328e-01 7.952827960252761841e-03 -6.459769606590270996e-01
2.397995293140411377e-01 9.913714602589607239e-03 1.874043643474578857e-01
2.929308414459228516e-01 -1.868034154176712036e-02 2.753127813339233398e-01
2.980686426162719727e-01 7.765847444534301758e-02 1.852699667215347290e-01
4.398311972618103027e-01 7.914805412292480469e-02 1.434163600206375122e-01
3.233793377876281738e-01 7.535250484943389893e-02 6.352222561836242676e-01
3.382577896118164062e-01 7.650417834520339966e-02 6.674162149429321289e-01
4.490986168384552002e-01 8.572429418563842773e-03 3.948169350624084473e-01
4.409797191619873047e-01 7.874257862567901611e-02 1.744202226400375366e-01
3.418641090393066406e-01 7.805408537387847900e-02 -2.456152737140655518e-01
3.791996836662292480e-01 8.847756683826446533e-02 6.239177659153938293e-02
2.880126237869262695e-01 -1.552991569042205811e-02 -1.951750516891479492e-01
3.403325378894805908e-01 7.521152496337890625e-02 6.958088874816894531e-01
4.196191132068634033e-01 -8.539825677871704102e-03 3.405414819717407227e-01
3.112518191337585449e-01 1.393090933561325073e-03 7.441612482070922852e-01
2.685157060623168945e-01 6.493838876485824585e-02 2.111354768276214600e-01
2.548216879367828369e-01 2.133965864777565002e-02 5.852490663528442383e-01
3.541825413703918457e-01 7.787749916315078735e-02 -2.824965417385101318e-01
3.464184105396270752e-01 5.839920043945312500e-02 -5.466318130493164062e-01
2.914864718914031982e-01 -2.041579410433769226e-02 9.752058982849121094e-02
2.540627121925354004e-01 7.782481610774993896e-03 -2.270910441875457764e-01
3.124552965164184570e-01 7.168749347329139709e-03 7.991577386856079102e-01
3.359270989894866943e-01 8.411504328250885010e-02 4.458513259887695312e-01
2.656034231185913086e-01 4.894172772765159607e-02 -2.372998893260955811e-01
2.471918165683746338e-01 2.372876740992069244e-02 -1.929113864898681641e-01
3.552013635635375977e-01 8.286406844854354858e-02 5.631078481674194336e-01
4.337286949157714844e-01 7.876223325729370117e-02 3.765934705734252930e-01
3.706782758235931396e-01 -1.446797326207160950e-02 5.027663707733154297e-01
4.433021247386932373e-01 4.090070724487304688e-04 2.813563048839569092e-01
3.459734916687011719e-01 8.427473902702331543e-02 4.924461245536804199e-01
4.663875102996826172e-01 1.366271637380123138e-02 -5.157314240932464600e-03
4.425213932991027832e-01 1.096624694764614105e-02 -3.883814215660095215e-01
4.077924191951751709e-01 -1.609972119331359863e-02 1.629619449377059937e-01
4.478903412818908691e-01 5.097514018416404724e-03 3.369682431221008301e-01
4.634852409362792969e-01 6.266349554061889648e-02 -7.967189699411392212e-02
2.828441858291625977e-01 6.351646780967712402e-02 -1.769996583461761475e-01
3.533066213130950928e-01 6.623883545398712158e-02 8.280623555183410645e-01
3.245813548564910889e-01 8.361827582120895386e-02 6.999848783016204834e-02
4.627356231212615967e-01 6.205821037292480469e-02 -1.084293648600578308e-01
2.467174232006072998e-01 4.591683298349380493e-02 4.033383727073669434e-02
3.699379563331604004e-01 -1.926585659384727478e-02 -2.893085777759552002e-01
3.367929458618164062e-01 -1.693399995565414429e-02 -3.768977522850036621e-01
3.218697011470794678e-01 -2.505955100059509277e-02 2.616951614618301392e-02
2.623905241489410400e-01 6.115089356899261475e-02 2.378241568803787231e-01
3.720591366291046143e-01 -1.104240119457244873e-02 5.701750516891479492e-01
4.418388009071350098e-01 5.990755558013916016e-02 -3.590829074382781982e-01
4.430898427963256836e-01 7.988797500729560852e-03 -3.472145795822143555e-01
3.053948283195495605e-01 -2.144854143261909485e-02 -1.266098618507385254e-01
3.406071960926055908e-01 -2.527571842074394226e-02 1.557872593402862549e-01
3.389626145362854004e-01 8.463190495967864990e-02 -1.852609962224960327e-02
4.456858634948730469e-01 1.830231770873069763e-02 -4.233026504516601562e-01
4.169858694076538086e-01 8.542188256978988647e-02 1.697567552328109741e-01
4.447025656700134277e-01 -1.839030534029006958e-03 1.327123045921325684e-01
2.906363010406494141e-01 -1.883360743522644043e-02 -9.279399365186691284e-02
4.133453965187072754e-01 1.811916381120681763e-02 -6.026522517204284668e-01
4.189113378524780273e-01 6.190890073776245117e-02 -4.535186290740966797e-01
3.040494322776794434e-01 -7.688619196414947510e-03 -4.397362470626831055e-01
3.660889565944671631e-01 -2.369758859276771545e-02 1.789078265428543091e-01
