-6.506178975105285645e-01 -8.105994015932083130e-02 2.614749409258365631e-02
-6.303966641426086426e-01 -8.197085559368133545e-02 1.692022830247879028e-01
-5.867896080017089844e-01 -1.267211735248565674e-01 1.481089442968368530e-01
-6.315700411796569824e-01 -1.238424628973007202e-01 -1.189048215746879578e-01
-5.538031458854675293e-01 -1.141373068094253540e-01 6.581466645002365112e-02
-6.326431632041931152e-01 -1.125261411070823669e-01 -1.558449566364288330e-01
-5.964934229850769043e-01 -4.465708509087562561e-02 -1.083958521485328674e-01
-5.694495439529418945e-01 -1.308750808238983154e-01 7.095827907323837280e-02
-5.587069988250732422e-01 -5.658180639147758484e-02 -3.398698568344116211e-02
-5.987230539321899414e-01 -5.698579922318458557e-02 -1.708250790834426880e-01
-5.855935811996459961e-01 -9.333661943674087524e-02 2.133422791957855225e-01
-6.141078472137451172e-01 -1.235122233629226685e-01 -1.714732348918914795e-01
-5.464091300964355469e-01 -9.428720176219940186e-02 4.332870617508888245e-02
-6.220780611038208008e-01 -5.921248719096183777e-02 -1.526169478893280029e-01
-6.195045113563537598e-01 -4.290591180324554443e-02 4.633098468184471130e-02
-6.040798425674438477e-01 -1.410169154405593872e-01 -7.518678903579711914e-02
-6.102870106697082520e-01 -4.218647256493568420e-02 8.002747595310211182e-02
-5.554566383361816406e-01 -1.186411455273628235e-01 5.156196281313896179e-02
-5.824414491653442383e-01 -1.346237957477569580e-01 9.579720348119735718e-02
-5.903850197792053223e-01 -3.889491036534309387e-02 -3.508752584457397461e-02
-5.619598627090454102e-01 -6.010287627577781677e-02 1.056512370705604553e-01
-6.102688908576965332e-01 -1.418621987104415894e-01 -4.235534369945526123e-02
-6.287409663200378418e-01 -1.125293225049972534e-01 -1.693819314241409302e-01
-6.487576961517333984e-01 -9.958711266517639160e-02 5.820397287607192993e-02
-5.694873332977294922e-01 -1.337282806634902954e-01 3.417012467980384827e-02
-5.600512027740478516e-01 -1.264412850141525269e-01 1.943428255617618561e-02
-6.448112726211547852e-01 -1.098119765520095825e-01 6.780993938446044922e-02
-6.202547550201416016e-01 -1.110631749033927917e-01 -1.930432170629501343e-01
-5.524518489837646484e-01 -7.849881052970886230e-02 1.037842035293579102e-01
-6.282699108123779297e-01 -4.862476885318756104e-02 -5.966026708483695984e-02
-5.565585494041442871e-01 -6.288459151983261108e-02 7.965893298387527466e-02
-6.035326719284057617e-01 -1.223305016756057739e-01 -1.844785809516906738e-01
-5.725070834159851074e-01 -1.113873571157455444e-01 -1.742712110280990601e-01
-6.002764105796813965e-01 -1.428453475236892700e-01 -4.644735157489776611e-02
-5.513373613357543945e-01 -9.117412567138671875e-02 1.051881387829780579e-01
-6.299011707305908203e-01 -6.112605333328247070e-02 -1.349164247512817383e-01
-6.507507562637329102e-01 -1.020774766802787781e-01 8.187226951122283936e-03
-6.035556793212890625e-01 -1.425536125898361206e-01 2.875120006501674652e-02
-5.605841279029846191e-01 -5.360738560557365417e-02 3.039309941232204437e-02
-6.077671647071838379e-01 -4.719942063093185425e-02 1.243032142519950867e-01
-6.457867026329040527e-01 -8.825946599245071411e-02 9.594870358705520630e-02
-6.351646780967712402e-01 -1.045787036418914795e-01 1.421474516391754150e-01
-5.610596537590026855e-01 -8.658436685800552368e-02 1.590965390205383301e-01
-5.911961197853088379e-01 -1.226638481020927429e-01 1.675302982330322266e-01
-5.869656205177307129e-01 -4.706717282533645630e-02 -1.140032857656478882e-01
-5.994004607200622559e-01 -1.435747444629669189e-01 -1.157406251877546310e-02
-6.454951167106628418e-01 -6.569662690162658691e-02 -3.089681640267372131e-02
-5.902261734008789062e-01 -3.967053815722465515e-02 5.923267081379890442e-02
-6.163240671157836914e-01 -1.405805200338363647e-01 -2.799832820892333984e-02
-6.028367280960083008e-01 -1.100440993905067444e-01 -2.119023501873016357e-01
-6.365820169448852539e-01 -1.204838901758193970e-01 8.333160728216171265e-02
-5.510399341583251953e-01 -7.446920126676559448e-02 8.007980883121490479e-02
-6.197482943534851074e-01 -6.125704571604728699e-02 1.613639891147613525e-01
-6.230981349945068359e-01 -1.378473937511444092e-01 -4.156797658652067184e-03
-6.382598876953125000e-01 -6.963276863098144531e-02 1.153525039553642273e-01
-5.721259117126464844e-01 -8.214285224676132202e-02 -1.875879466533660889e-01
-6.024547219276428223e-01 -3.803405165672302246e-02 3.363963589072227478e-02
-5.528528690338134766e-01 -1.172760501503944397e-01 5.185448564589023590e-03
-6.253942251205444336e-01 -1.313444972038269043e-01 -1.017904132604598999e-01
-5.583628416061401367e-01 -1.084650605916976929e-01 1.237029805779457092e-01
-6.299568414688110352e-01 -1.271662861108779907e-01 8.390633016824722290e-02
-5.488860011100769043e-01 -7.244373857975006104e-02 3.305501863360404968e-02
-6.103691458702087402e-01 -7.345913350582122803e-02 2.024324834346771240e-01
-5.736241936683654785e-01 -4.500384256243705750e-02 5.531292781233787537e-02
-6.183065772056579590e-01 -9.989839792251586914e-02 -2.098680585622787476e-01
-6.075668931007385254e-01 -6.234763935208320618e-02 1.842257380485534668e-01
-6.242102384567260742e-01 -1.193424314260482788e-01 -1.641933023929595947e-01
-5.915264487266540527e-01 -5.373321846127510071e-02 -1.546838432550430298e-01
-6.408333182334899902e-01 -6.361293792724609375e-02 -8.189353346824645996e-02
-5.979444384574890137e-01 -1.048334762454032898e-01 2.090930938720703125e-01
-5.773478150367736816e-01 -5.285259336233139038e-02 -1.244729459285736084e-01
-6.502072811126708984e-01 -8.130149543285369873e-02 -5.375379323959350586e-02
-6.158702373504638672e-01 -1.382069289684295654e-01 5.615001171827316284e-02
-5.632335543632507324e-01 -1.187439784407615662e-01 -1.171458810567855835e-01
-6.290132403373718262e-01 -1.342369019985198975e-01 3.912279382348060608e-03
-5.480090975761413574e-01 -1.018840894103050232e-01 5.077215284109115601e-02
-6.437203288078308105e-01 -1.162776947021484375e-01 -6.707144528627395630e-02
-6.380364298820495605e-01 -7.059046626091003418e-02 -1.305711567401885986e-01
-5.804054737091064453e-01 -5.036728084087371826e-02 1.291493475437164307e-01
-5.923635363578796387e-01 -6.577152758836746216e-02 -1.936397403478622437e-01
-6.434664726257324219e-01 -1.059059351682662964e-01 -1.148092597723007202e-01
-5.515582561492919922e-01 -1.126474589109420776e-01 4.462029784917831421e-02
-5.935619473457336426e-01 -3.929671272635459900e-02 -5.068943649530410767e-02
-6.390134096145629883e-01 -6.848376989364624023e-02 -1.181898340582847595e-01
-5.750534534454345703e-01 -7.126477360725402832e-02 -1.794165372848510742e-01
-5.477365255355834961e-01 -1.032393351197242737e-01 -3.334346786141395569e-02
-6.329251527786254883e-01 -1.262259036302566528e-01 7.169300317764282227e-02
-5.828896164894104004e-01 -4.124308377504348755e-02 -4.592774808406829834e-02
-5.520161390304565430e-01 -6.623676419258117676e-02 4.409401863813400269e-02
-6.112086176872253418e-01 -4.186993464827537537e-02 -7.020034641027450562e-02
-6.082715392112731934e-01 -3.888236731290817261e-02 -3.022213652729988098e-02
-6.414608955383300781e-01 -6.424686312675476074e-02 6.937123835086822510e-02
-6.303080320358276367e-01 -6.693986803293228149e-02 1.452340930700302124e-01
-5.736194849014282227e-01 -1.366307288408279419e-01 2.408367022871971130e-02
-6.118649840354919434e-01 -4.986114427447319031e-02 -1.312212198972702026e-01
-6.055256724357604980e-01 -1.387576162815093994e-01 7.824971526861190796e-02
-5.686548352241516113e-01 -5.653552711009979248e-02 1.224099472165107727e-01
-5.777541995048522949e-01 -5.477389693260192871e-02 -1.350199580192565918e-01
-6.391406059265136719e-01 -1.018664613366127014e-01 -1.476934999227523804e-01
-5.913134813308715820e-01 -1.402770280838012695e-01 6.153181195259094238e-02
-6.470553874969482422e-01 -6.802999973297119141e-02 -6.308543495833873749e-03
-6.122015714645385742e-01 -4.152483865618705750e-02 6.602632254362106323e-02
5.342003107070922852e-01 -2.656477876007556915e-02 1.129593700170516968e-01
5.904430747032165527e-01 1.047741621732711792e-02 1.099323853850364685e-02
4.863779842853546143e-01 1.015661284327507019e-03 8.924946188926696777e-03
5.174978375434875488e-01 -3.137667104601860046e-02 4.168168827891349792e-02
6.108840703964233398e-01 -1.683290302753448486e-02 1.302331984043121338e-01
5.943347215652465820e-01 -2.050697430968284607e-02 1.592524163424968719e-02
5.780795216560363770e-01 1.682249829173088074e-02 5.222762003540992737e-02
5.785827636718750000e-01 1.609966345131397247e-02 3.917377814650535583e-02
5.386057496070861816e-01 1.275161281228065491e-02 -2.383938431739807129e-02
5.005726814270019531e-01 -2.017084881663322449e-02 -8.805982768535614014e-02
5.746952891349792480e-01 -2.680662460625171661e-02 1.184884011745452881e-01
5.407262444496154785e-01 -3.186190500855445862e-02 -5.881365388631820679e-03
5.039795041084289551e-01 -3.011501766741275787e-02 1.572080515325069427e-02
5.654637217521667480e-01 1.500709354877471924e-02 1.252051591873168945e-01
6.171544790267944336e-01 7.716617546975612640e-03 1.313809454441070557e-01
6.051636338233947754e-01 -1.884673908352851868e-02 4.859913140535354614e-02
5.649693012237548828e-01 -2.781979739665985107e-02 1.158063635230064392e-01
5.684610605239868164e-01 1.590788178145885468e-02 2.086034789681434631e-02
5.630029439926147461e-01 -2.950105257332324982e-02 9.759668260812759399e-02
6.093508601188659668e-01 9.581688791513442993e-03 1.461268365383148193e-01
5.599442720413208008e-01 -1.438797265291213989e-02 -7.156996428966522217e-02
5.629562735557556152e-01 -2.244074270129203796e-02 -4.629049450159072876e-02
5.475061535835266113e-01 -1.856466382741928101e-02 -7.786016166210174561e-02
5.718882083892822266e-01 1.016912423074245453e-02 1.619561612606048584e-01
5.160343647003173828e-01 -3.177596628665924072e-02 -9.742129594087600708e-03
6.100274324417114258e-01 1.048287935554981232e-02 7.357690483331680298e-02
6.030169129371643066e-01 5.103694275021553040e-04 1.859418004751205444e-01
5.554195046424865723e-01 1.231695339083671570e-02 1.366740167140960693e-01
6.085171103477478027e-01 -1.420234143733978271e-02 3.355621173977851868e-02
4.855493903160095215e-01 -1.178160309791564941e-03 2.805748954415321350e-02
5.313423871994018555e-01 -1.424085907638072968e-02 -9.670546650886535645e-02
5.633704662322998047e-01 -2.817055955529212952e-02 -9.957369416952133179e-03
4.821942150592803955e-01 -2.312779612839221954e-02 -1.644470170140266418e-02
5.185779333114624023e-01 -2.368291467428207397e-02 -8.054742217063903809e-02
6.127672791481018066e-01 4.950984381139278412e-03 4.574406147003173828e-02
5.829268693923950195e-01 2.173461019992828369e-03 -3.368598222732543945e-02
5.562728047370910645e-01 -3.188551962375640869e-02 4.245656356215476990e-02
5.084139108657836914e-01 -3.037388809025287628e-02 3.153939917683601379e-02
5.214676856994628906e-01 -2.929229475557804108e-02 7.615251839160919189e-02
4.950514137744903564e-01 -1.687390264123678207e-03 7.309310138225555420e-02
6.187849640846252441e-01 6.625845097005367279e-03 8.863046765327453613e-02
4.956261217594146729e-01 -2.832911536097526550e-02 4.619564861059188843e-03
5.675083398818969727e-01 3.294664435088634491e-03 1.815719157457351685e-01
5.400792956352233887e-01 -2.138625085353851318e-02 -7.720389217138290405e-02
5.320029854774475098e-01 -3.246837854385375977e-02 -1.496162265539169312e-03
5.384132266044616699e-01 1.103365793824195862e-02 -3.787404298782348633e-02
6.157085299491882324e-01 4.619611427187919617e-04 1.689800620079040527e-01
5.232139825820922852e-01 -3.189676254987716675e-02 -1.504167914390563965e-02
5.194458961486816406e-01 5.773313343524932861e-03 1.105352938175201416e-01
5.015358328819274902e-01 7.223578169941902161e-03 -2.251579612493515015e-02
5.142509937286376953e-01 -1.684532314538955688e-02 -9.842145442962646484e-02
5.723856687545776367e-01 -8.142170496284961700e-03 1.905528903007507324e-01
5.238521099090576172e-01 -1.393816992640495300e-02 -9.999708831310272217e-02
5.440676212310791016e-01 -3.195470571517944336e-02 6.574103981256484985e-02
5.335024595260620117e-01 3.935134969651699066e-03 1.438288688659667969e-01
5.752363204956054688e-01 -2.678702957928180695e-02 6.797391921281814575e-03
4.905972182750701904e-01 -1.614617649465799332e-03 5.624645575881004333e-02
5.775597095489501953e-01 -2.840662933886051178e-02 8.745688945055007935e-02
4.842158854007720947e-01 -2.079137787222862244e-02 2.888740971684455872e-02
6.109821796417236328e-01 4.317290149629116058e-03 3.684545680880546570e-02
4.748235940933227539e-01 -1.312583126127719879e-02 -3.458236157894134521e-02
5.539609789848327637e-01 -2.154613286256790161e-02 1.526711881160736084e-01
4.970168471336364746e-01 6.305943243205547333e-03 -7.778745144605636597e-03
5.245490074157714844e-01 1.395113579928874969e-02 2.377084083855152130e-02
5.314243435859680176e-01 1.459370367228984833e-02 6.289815902709960938e-02
5.961923003196716309e-01 -2.404395863413810730e-02 7.203876972198486328e-02
5.813002586364746094e-01 -2.754568867385387421e-02 4.204677790403366089e-02
5.242941975593566895e-01 4.962902516126632690e-03 1.242049485445022583e-01
5.238114595413208008e-01 -2.147584222257137299e-02 -8.665809035301208496e-02
5.741927027702331543e-01 -2.912993915379047394e-02 3.993209451436996460e-02
4.861051440238952637e-01 -2.040294185280799866e-02 3.942296653985977173e-02
6.089941859245300293e-01 -1.719749998301267624e-03 1.816469877958297729e-01
5.217804312705993652e-01 2.900104969739913940e-03 -7.845363020896911621e-02
5.665575861930847168e-01 -2.607230469584465027e-02 -2.031010389328002930e-02
4.778099954128265381e-01 -1.004905439913272858e-02 -5.492366850376129150e-02
4.790248870849609375e-01 -4.037972074002027512e-03 -1.086957752704620361e-02
5.551120638847351074e-01 -2.980960533022880554e-02 -1.012461632490158081e-02
6.069607138633728027e-01 -1.434621773660182953e-02 1.601763069629669189e-01
5.808218717575073242e-01 -7.836292497813701630e-03 1.924538314342498779e-01
5.404356122016906738e-01 -2.869185619056224823e-02 -4.134535044431686401e-02
5.956845879554748535e-01 1.524793356657028198e-02 9.998514503240585327e-02
5.403506159782409668e-01 1.473635435104370117e-02 8.973176777362823486e-02
5.515772700309753418e-01 1.429577358067035675e-02 -8.787062019109725952e-03
4.953700602054595947e-01 5.609448999166488647e-04 6.510153412818908691e-02
5.298908948898315430e-01 -3.121332451701164246e-02 -2.516691386699676514e-02
5.468469262123107910e-01 1.601452194154262543e-02 1.455509290099143982e-02
5.712310671806335449e-01 -4.453414585441350937e-03 -6.037338823080062866e-02
5.712532997131347656e-01 -1.916977763175964355e-02 1.668462455272674561e-01
4.994343519210815430e-01 3.239902667701244354e-03 -5.701598525047302246e-02
5.536084771156311035e-01 -1.467744912952184677e-02 -7.850475609302520752e-02
4.883598685264587402e-01 -1.966134179383516312e-03 -6.201033294200897217e-02
5.756342411041259766e-01 1.585782133042812347e-02 3.019817732274532318e-02
5.622304677963256836e-01 -1.863600686192512512e-02 -6.011088937520980835e-02
6.020300984382629395e-01 -1.883014105260372162e-02 1.433997899293899536e-01
5.668352842330932617e-01 1.768237724900245667e-02 6.211335957050323486e-02
5.475845336914062500e-01 -3.247007727622985840e-02 2.598311938345432281e-02
5.153319835662841797e-01 7.502185180783271790e-04 1.195433288812637329e-01
6.224666833877563477e-01 4.197558388113975525e-03 1.005922406911849976e-01
5.300883054733276367e-01 1.230060122907161713e-02 -2.366921305656433105e-02
5.433664321899414062e-01 7.522804662585258484e-03 -5.706353485584259033e-02
6.158899068832397461e-01 -1.943758223205804825e-03 4.096389934420585632e-02
4.846228361129760742e-01 -2.435574494302272797e-02 -2.551872283220291138e-02
5.959023833274841309e-01 -1.669849082827568054e-02 1.658730357885360718e-01
5.322627425193786621e-01 9.535830467939376831e-03 -4.744185507297515869e-02
4.853974580764770508e-01 -3.620036877691745758e-04 1.931362412869930267e-02
6.043080687522888184e-01 -2.121241204440593719e-02 9.157192707061767578e-02
5.130408406257629395e-01 -2.830130234360694885e-02 -5.487396568059921265e-02
5.881238579750061035e-01 -2.525522187352180481e-02 3.686483949422836304e-02
5.513302087783813477e-01 -2.325281500816345215e-02 -5.915972590446472168e-02
4.996758401393890381e-01 -2.950457669794559479e-02 -3.387972712516784668e-03
6.229970455169677734e-01 3.990584053099155426e-03 1.183899119496345520e-01
5.424719452857971191e-01 -2.370855771005153656e-02 1.357120573520660400e-01
4.978679716587066650e-01 -1.220470760017633438e-02 9.324841946363449097e-02
5.257369279861450195e-01 -2.480844035744667053e-02 1.124618425965309143e-01
4.814541637897491455e-01 -4.260147456079721451e-03 -4.878836125135421753e-02
5.277757644653320312e-01 -3.129506111145019531e-02 6.326806545257568359e-02
5.843271017074584961e-01 -2.315039001405239105e-02 2.558484673500061035e-03
4.996637403964996338e-01 7.288702763617038727e-03 1.746936142444610596e-02
5.097342133522033691e-01 -2.395299077033996582e-02 8.994466066360473633e-02
4.987235665321350098e-01 5.343769676983356476e-03 4.542361199855804443e-02
5.576277971267700195e-01 -2.867196500301361084e-02 1.096303761005401611e-01
6.140162944793701172e-01 -1.580917090177536011e-02 1.228839606046676636e-01
5.861702561378479004e-01 1.625213585793972015e-02 1.067151576280593872e-01
5.608088970184326172e-01 -3.366492222994565964e-03 1.853706687688827515e-01
6.126786470413208008e-01 1.060863211750984192e-02 1.074866056442260742e-01
5.764047503471374512e-01 -2.903028205037117004e-02 6.862796843051910400e-02
5.273011326789855957e-01 -2.134657464921474457e-02 1.290246546268463135e-01
6.123288273811340332e-01 -5.940696224570274353e-03 2.776747196912765503e-02
6.012945771217346191e-01 -2.889548894017934799e-03 -4.088856279850006104e-03
5.103350877761840820e-01 -2.360110729932785034e-02 -8.070494234561920166e-02
4.917491376399993896e-01 -2.497442252933979034e-02 3.327848762273788452e-02
5.683776736259460449e-01 1.656956598162651062e-02 3.064817562699317932e-02
5.116218924522399902e-01 1.090137287974357605e-02 1.766104251146316528e-03
5.502545237541198730e-01 1.666085235774517059e-02 8.022861182689666748e-02
5.661251544952392578e-01 -3.073837980628013611e-02 5.352502316236495972e-02
5.787208676338195801e-01 -2.440360374748706818e-02 -3.945745527744293213e-03
4.858981370925903320e-01 -2.358833327889442444e-02 -4.764011502265930176e-02
5.641610622406005859e-01 -2.994874678552150726e-02 8.928687870502471924e-02
5.153939127922058105e-01 -2.917660586535930634e-02 -4.819475859403610229e-02
5.546417236328125000e-01 8.491884917020797729e-03 1.556690931320190430e-01
5.543437600135803223e-01 1.551062613725662231e-02 5.811437964439392090e-03
6.042617559432983398e-01 -1.358069386333227158e-02 1.681737601757049561e-01
5.480061173439025879e-01 8.314732462167739868e-03 -5.124919861555099487e-02
5.325956344604492188e-01 -2.887464873492717743e-02 -4.661913961172103882e-02
5.996831655502319336e-01 9.869525209069252014e-03 1.602778732776641846e-01
5.618115663528442383e-01 1.046332158148288727e-02 -3.045878559350967407e-02
5.434668660163879395e-01 -2.676628157496452332e-02 -5.102600902318954468e-02
4.876363277435302734e-01 4.650019109249114990e-04 -4.170938581228256226e-02
4.786655902862548828e-01 -1.363038085401058197e-02 -6.164595484733581543e-02
5.938259959220886230e-01 -2.412204816937446594e-02 1.083859205245971680e-01
5.550367236137390137e-01 -3.112882003188133240e-02 7.783243805170059204e-02
6.168953180313110352e-01 -1.038976293057203293e-02 5.597968026995658875e-02
5.219378471374511719e-01 7.592067122459411621e-04 -8.557070791721343994e-02
4.934116005897521973e-01 3.028596751391887665e-03 3.963470458984375000e-02
6.019819378852844238e-01 1.285953260958194733e-02 1.310181021690368652e-01
5.119668245315551758e-01 -1.705309003591537476e-02 1.169110387563705444e-01
4.915596246719360352e-01 -1.621459424495697021e-02 7.112181186676025391e-02
6.062014102935791016e-01 1.280011609196662903e-02 9.385095536708831787e-02
5.939522385597229004e-01 -2.197376638650894165e-02 2.552882209420204163e-02
5.975571870803833008e-01 -2.368380874395370483e-02 8.435269445180892944e-02
4.827068448066711426e-01 -2.171508967876434326e-02 1.390120387077331543e-02
6.054069995880126953e-01 -1.055438164621591568e-02 1.762600690126419067e-01
5.452865958213806152e-01 -3.067886643111705780e-02 -1.668046414852142334e-02
5.539096593856811523e-01 1.078578829765319824e-02 -3.464915603399276733e-02
4.961577653884887695e-01 -2.862648665904998779e-02 -1.241189613938331604e-02
6.206852197647094727e-01 3.236599266529083252e-03 7.632619142532348633e-02
5.718744993209838867e-01 -2.320436760783195496e-02 1.479271203279495239e-01
4.774053692817687988e-01 -1.784889772534370422e-02 1.534953713417053223e-03
5.466925501823425293e-01 -4.339140374213457108e-03 -8.609637618064880371e-02
5.993931889533996582e-01 1.422177813947200775e-02 1.149540767073631287e-01
5.398559570312500000e-01 -2.589397877454757690e-02 1.222761347889900208e-01
5.776710510253906250e-01 -2.680684626102447510e-02 1.468080654740333557e-02
5.794481039047241211e-01 -2.159845083951950073e-02 1.542138755321502686e-01
5.295446515083312988e-01 -3.228116780519485474e-02 4.800735786557197571e-02
5.714589953422546387e-01 -1.702383533120155334e-02 -5.014570057392120361e-02
5.736848115921020508e-01 -2.954652532935142517e-02 5.749613046646118164e-02
6.071552038192749023e-01 1.111554168164730072e-02 1.375829279422760010e-01
5.243052840232849121e-01 -3.235893324017524719e-02 -3.921516239643096924e-03
5.673199892044067383e-01 1.310866326093673706e-02 -7.893305271863937378e-03
5.379354953765869141e-01 -7.480393163859844208e-03 1.647804379463195801e-01
5.099013447761535645e-01 -2.993235178291797638e-02 4.376468807458877563e-02
5.135610103607177734e-01 5.512925796210765839e-03 9.740491211414337158e-02
5.006986856460571289e-01 -2.077830210328102112e-02 8.316773921251296997e-02
5.773624181747436523e-01 4.392586648464202881e-03 1.837216764688491821e-01
4.886418581008911133e-01 -2.622647583484649658e-02 -1.570696383714675903e-02
5.860070586204528809e-01 -1.435617916285991669e-02 -2.930333465337753296e-02
5.358595252037048340e-01 -3.160521760582923889e-02 6.798280775547027588e-02
4.840876162052154541e-01 -1.175807043910026550e-02 5.042759329080581665e-02
6.061624288558959961e-01 -7.132585160434246063e-04 1.064946502447128296e-02
5.861212611198425293e-01 -2.463389560580253601e-02 1.245698407292366028e-01
5.713595747947692871e-01 -2.639888226985931396e-02 1.253900527954101562e-01
5.585258603096008301e-01 -2.730522118508815765e-02 -2.664871513843536377e-02
4.925230741500854492e-01 -2.698710747063159943e-02 1.247403770685195923e-02
5.776336193084716797e-01 -3.072237595915794373e-03 -5.004962533712387085e-02
4.858186542987823486e-01 -2.426895312964916229e-02 -3.918262571096420288e-02
5.060807466506958008e-01 -3.027658350765705109e-02 2.341773547232151031e-02
5.897842645645141602e-01 -2.325422689318656921e-02 1.316313892602920532e-01
5.455213189125061035e-01 -3.234312310814857483e-02 1.376413181424140930e-02
5.153629183769226074e-01 -2.946134470403194427e-02 6.299801170825958252e-02
4.855316281318664551e-01 -8.652823045849800110e-03 -7.747790217399597168e-02
5.877711176872253418e-01 -2.030500583350658417e-02 -4.856415092945098877e-03
5.011566877365112305e-01 -2.766888961195945740e-02 -4.977437853813171387e-02
5.540332198143005371e-01 -2.536392025649547577e-02 -4.580272734165191650e-02
6.168621182441711426e-01 5.816322751343250275e-03 6.850428879261016846e-02
6.242473125457763672e-01 -5.555976647883653641e-03 9.081070125102996826e-02
5.145383477210998535e-01 1.181200519204139709e-02 2.624105662107467651e-02
6.175830364227294922e-01 -1.401361543685197830e-02 9.168015420436859131e-02
5.956838726997375488e-01 1.151147671043872833e-02 1.535080671310424805e-01
5.941407084465026855e-01 -1.263771019876003265e-02 1.813652962446212769e-01
6.090406179428100586e-01 -6.856083404272794724e-03 1.754194684326648712e-02
5.264280438423156738e-01 -3.275388479232788086e-02 1.812404207885265350e-02
5.216100811958312988e-01 -3.137023746967315674e-02 -2.402526885271072388e-02
5.689173936843872070e-01 -1.045019738376140594e-02 -6.371929496526718140e-02
6.036279201507568359e-01 -2.114609442651271820e-02 7.092060148715972900e-02
5.228655338287353516e-01 -3.081716783344745636e-02 -3.195120394229888916e-02
5.521104335784912109e-01 1.729809306561946869e-02 5.124907940626144409e-02
5.324128270149230957e-01 -3.290505707263946533e-02 2.279043570160865784e-02
5.400128364562988281e-01 8.979668840765953064e-03 1.344822198152542114e-01
5.453852415084838867e-01 -2.877867221832275391e-02 -3.506767749786376953e-02
5.607339739799499512e-01 3.797650337219238281e-03 -5.848428606986999512e-02
5.384036898612976074e-01 -3.127458691596984863e-02 -1.775446534156799316e-02
5.873644351959228516e-01 4.577497951686382294e-03 -1.992453634738922119e-02
5.466417074203491211e-01 1.667295396327972412e-02 6.843464076519012451e-02
5.662339329719543457e-01 1.629869267344474792e-02 1.104419231414794922e-01
5.865398049354553223e-01 -2.629538998007774353e-02 9.843270480632781982e-02
5.103886127471923828e-01 5.547774955630302429e-03 -5.898667871952056885e-02
5.168967247009277344e-01 1.161111705005168915e-02 5.333717912435531616e-02
5.251021385192871094e-01 -2.840421348810195923e-02 -5.392624437808990479e-02
5.864848494529724121e-01 -1.344455499202013016e-02 1.827946305274963379e-01
6.052553653717041016e-01 -2.037305012345314026e-02 1.115284338593482971e-01
5.466573238372802734e-01 2.181573770940303802e-03 1.657880842685699463e-01
5.373784303665161133e-01 1.232874765992164612e-02 1.084854751825332642e-01
5.293887853622436523e-01 -3.009411692619323730e-02 7.994995266199111938e-02
5.910309553146362305e-01 -2.477511204779148102e-02 4.494526982307434082e-02
6.216695308685302734e-01 2.112396061420440674e-03 1.462894976139068604e-01
6.072618961334228516e-01 3.764928318560123444e-03 2.323461323976516724e-02
5.925422906875610352e-01 1.530649326741695404e-02 1.142197102308273315e-01
4.924149513244628906e-01 -2.557916194200515747e-02 -5.126307159662246704e-02
6.111444830894470215e-01 -1.809250935912132263e-02 1.001705527305603027e-01
5.601903796195983887e-01 -1.636703684926033020e-02 1.724443584680557251e-01
5.094500780105590820e-01 -2.887712791562080383e-02 5.518787354230880737e-02
5.173699259757995605e-01 -3.216638416051864624e-02 6.513152271509170532e-03
5.946437120437622070e-01 1.533956453204154968e-02 7.972699403762817383e-02
5.183519721031188965e-01 1.269778795540332794e-02 1.822409220039844513e-02
4.931057095527648926e-01 4.797108471393585205e-03 -3.501884639263153076e-04
5.786573886871337891e-01 -1.436679810285568237e-02 -4.349353164434432983e-02
5.247330665588378906e-01 1.222039014101028442e-02 7.691039890050888062e-02
5.534189343452453613e-01 -3.205800801515579224e-02 3.090503811836242676e-02
5.101042985916137695e-01 -3.134707361459732056e-02 7.594134658575057983e-03
5.042028427124023438e-01 -3.022549115121364594e-02 -1.619460061192512512e-02
5.008018016815185547e-01 5.769081413745880127e-03 -3.901243954896926880e-02
4.830554127693176270e-01 -2.096882462501525879e-02 2.169458195567131042e-02
5.477954149246215820e-01 -3.250469267368316650e-02 4.298979043960571289e-02
5.946685671806335449e-01 -7.198817562311887741e-03 -1.993232220411300659e-02
5.288177728652954102e-01 1.463319920003414154e-02 4.475076124072074890e-02
5.894253849983215332e-01 1.479226350784301758e-02 4.622529074549674988e-02
5.362496376037597656e-01 -1.862066425383090973e-02 -8.720789849758148193e-02
8.950238227844238281e-01 -8.052022010087966919e-02 -3.673165291547775269e-02
6.786762475967407227e-01 -5.903127044439315796e-02 7.357718423008918762e-03
6.460071206092834473e-01 -5.636544898152351379e-02 2.115382999181747437e-02
9.886180162429809570e-01 -1.017383635044097900e-01 5.280074477195739746e-02
-1.430392265319824219e-02 -5.426730215549468994e-02 4.410150274634361267e-02
6.387314200401306152e-02 -8.708184212446212769e-02 -2.978121116757392883e-02
8.329565525054931641e-01 -6.973306834697723389e-02 7.547975331544876099e-02
-3.392797708511352539e-02 -5.625232309103012085e-02 3.997553512454032898e-02
-4.551756381988525391e-02 -5.426161736249923706e-02 -5.872824229300022125e-03
3.524207472801208496e-01 -7.320706546306610107e-02 9.421933442354202271e-02
2.308644056320190430e-01 -4.614366590976715088e-02 1.789378561079502106e-02
2.860510945320129395e-01 -4.927258566021919250e-02 -6.557555869221687317e-03
8.160590529441833496e-01 -9.086964279413223267e-02 -7.153595983982086182e-02
6.470412015914916992e-01 -6.368977576494216919e-02 -2.887535840272903442e-02
9.163883924484252930e-01 -1.037298664450645447e-01 -6.364381313323974609e-02
5.200250744819641113e-01 -9.684331715106964111e-02 -9.129789471626281738e-02
7.162688970565795898e-01 -1.021100282669067383e-01 6.115718930959701538e-02
2.264311611652374268e-01 -6.896387785673141479e-02 8.592940866947174072e-02
7.405830621719360352e-01 -9.850751608610153198e-02 7.159592211246490479e-02
4.482380747795104980e-01 -9.430929273366928101e-02 6.361743062734603882e-02
8.078377246856689453e-01 -1.042022556066513062e-01 5.651236325502395630e-02
3.184735774993896484e-01 -1.031105890870094299e-01 -1.511028129607439041e-02
4.334383010864257812e-01 -5.461063235998153687e-02 8.719147741794586182e-02
2.452045381069183350e-01 -5.955634266138076782e-02 -5.225393921136856079e-02
3.414817452430725098e-01 -7.877314835786819458e-02 -8.650466054677963257e-02
1.683624088764190674e-01 -5.074834823608398438e-02 7.148789614439010620e-02
3.213423192501068115e-01 -4.875267669558525085e-02 6.911093741655349731e-02
4.147134423255920410e-01 -1.073055788874626160e-01 -1.594398170709609985e-02
9.322680234909057617e-01 -9.580808132886886597e-02 -5.852991715073585510e-02
5.319632887840270996e-01 -5.902132019400596619e-02 -2.811729535460472107e-02
9.239867925643920898e-01 -1.079394072294235229e-01 4.058790579438209534e-02
7.874231338500976562e-01 -6.979911774396896362e-02 -2.421733364462852478e-02
3.161567747592926025e-01 -4.640575870871543884e-02 3.254270926117897034e-02
4.383239746093750000e-01 -4.872601851820945740e-02 4.374719411134719849e-02
7.909106016159057617e-01 -1.059069037437438965e-01 5.070782080292701721e-02
5.081652402877807617e-01 -1.109926328063011169e-01 -3.353383764624595642e-02
4.667410254478454590e-02 -4.830054193735122681e-02 6.965811364352703094e-03
7.373718023300170898e-01 -6.221980601549148560e-02 7.067751139402389526e-02
2.178364098072052002e-01 -4.731370881199836731e-02 3.704768139868974686e-03
5.397498607635498047e-03 -7.326921820640563965e-02 3.421479463577270508e-02
2.755896449089050293e-01 -6.450000405311584473e-02 9.295848011970520020e-02
4.629712998867034912e-01 -1.033946499228477478e-01 3.047411143779754639e-02
6.400637030601501465e-01 -1.100512966513633728e-01 2.180493623018264771e-02
4.048810899257659912e-01 -7.488795369863510132e-02 -8.141250163316726685e-02
3.797227144241333008e-01 -5.923779308795928955e-02 -4.577063024044036865e-02
4.269360005855560303e-01 -8.543904125690460205e-02 8.299580961465835571e-02
8.063121438026428223e-01 -6.387276202440261841e-02 4.638835415244102478e-02
8.993682265281677246e-01 -1.156166270375251770e-01 -9.166126139461994171e-03
4.889606535434722900e-01 -1.093353182077407837e-01 -6.388708017766475677e-03
-5.404049158096313477e-02 -5.345820635557174683e-02 9.031148627400398254e-03
8.279663324356079102e-01 -1.008066311478614807e-01 6.584025174379348755e-02
5.882041454315185547e-01 -5.335811153054237366e-02 3.996285796165466309e-02
1.294008493423461914e-01 -8.709868788719177246e-02 -6.394623965024948120e-02
6.001647114753723145e-01 -1.132286489009857178e-01 -1.776536181569099426e-02
6.752519011497497559e-01 -8.431290090084075928e-02 9.523227065801620483e-02
4.690933525562286377e-01 -9.602792561054229736e-02 -9.090404212474822998e-02
7.599776983261108398e-02 -7.041461020708084106e-02 -6.355901807546615601e-02
3.525524139404296875e-01 -6.275527924299240112e-02 -5.815118923783302307e-02
5.190113782882690430e-01 -8.267672359943389893e-02 9.375493973493576050e-02
4.466554522514343262e-01 -1.071547567844390869e-01 -5.997553095221519470e-02
1.474035084247589111e-01 -8.675235509872436523e-02 3.256252408027648926e-02
9.823844432830810547e-01 -7.923536002635955811e-02 8.523510769009590149e-05
8.704081773757934570e-01 -1.137746274471282959e-01 1.280519925057888031e-02
7.646863460540771484e-01 -6.508305668830871582e-02 -6.106235086917877197e-03
4.630169868469238281e-01 -7.034002244472503662e-02 1.016894802451133728e-01
1.018756330013275146e-01 -6.392037868499755859e-02 -5.780127272009849548e-02
1.004220128059387207e+00 -9.339444339275360107e-02 -3.908496350049972534e-02
1.249640882015228271e-01 -4.590868577361106873e-02 2.929808571934700012e-02
5.168809294700622559e-01 -1.102550476789474487e-01 -6.695959717035293579e-03
5.057196617126464844e-01 -5.071178078651428223e-02 3.190815076231956482e-02
3.371885418891906738e-01 -5.556136369705200195e-02 9.033710509538650513e-02
6.713399291038513184e-02 -5.307010561227798462e-02 -2.503507956862449646e-02
4.814352393150329590e-01 -9.582618623971939087e-02 6.282408535480499268e-02
4.302155971527099609e-02 -8.320344239473342896e-02 7.732218131422996521e-03
5.417596101760864258e-01 -5.801185965538024902e-02 8.921525627374649048e-02
9.497625827789306641e-01 -1.012013927102088928e-01 5.842638760805130005e-02
1.326141357421875000e-01 -9.055601805448532104e-02 5.729677621275186539e-03
6.508539915084838867e-01 -1.145075112581253052e-01 -3.483401238918304443e-02
9.586163759231567383e-01 -8.652066439390182495e-02 -3.703998029232025146e-02
-6.112617254257202148e-02 -6.020196527242660522e-02 -2.113562077283859253e-02
3.469288945198059082e-01 -4.891299456357955933e-02 6.862408667802810669e-02
6.067345142364501953e-01 -8.022119104862213135e-02 9.888331592082977295e-02
1.613286137580871582e-01 -4.796148091554641724e-02 -2.527830190956592560e-03
1.179319322109222412e-01 -5.935424193739891052e-02 -4.896732419729232788e-02
9.375414848327636719e-01 -7.328940927982330322e-02 1.998520642518997192e-02
1.688190698623657227e-01 -4.616820067167282104e-02 4.773033410310745239e-02
4.341093897819519043e-01 -7.294991612434387207e-02 -7.727513462305068970e-02
9.363775253295898438e-01 -7.968674600124359131e-02 -2.195082604885101318e-02
7.051911950111389160e-02 -4.684755578637123108e-02 2.713254094123840332e-02
7.835584878921508789e-01 -6.716082990169525146e-02 7.933349907398223877e-02
4.860973358154296875e-01 -1.076580509543418884e-01 -6.532318890094757080e-02
9.371640086174011230e-01 -1.147548258304595947e-01 -3.081596642732620239e-02
5.026841759681701660e-01 -7.346497476100921631e-02 1.015947014093399048e-01
7.651112079620361328e-01 -7.891710102558135986e-02 -5.805085226893424988e-02
3.821257054805755615e-01 -6.615255773067474365e-02 -6.549598276615142822e-02
6.721516251564025879e-01 -1.120715737342834473e-01 1.257243473082780838e-02
1.061425209045410156e+00 -9.062054753303527832e-02 -1.091382000595331192e-02
1.094071030616760254e+00 -1.033094525337219238e-01 -1.251950021833181381e-02
2.678636610507965088e-01 -6.049303710460662842e-02 -5.458972975611686707e-02
2.063158750534057617e-01 -4.555847868323326111e-02 2.941004559397697449e-02
6.673367619514465332e-01 -1.135814338922500610e-01 -5.302703753113746643e-02
3.090400099754333496e-01 -6.629188358783721924e-02 -6.805750727653503418e-02
8.922277688980102539e-01 -8.130134642124176025e-02 8.250913769006729126e-02
9.967131614685058594e-01 -1.098517775535583496e-01 -4.088373109698295593e-02
8.538345098495483398e-01 -6.782481074333190918e-02 5.791542306542396545e-02
3.929532468318939209e-01 -8.150921761989593506e-02 8.699692785739898682e-02
1.025684714317321777e+00 -8.254397660493850708e-02 7.450854871422052383e-03
1.094947159290313721e-01 -4.804427549242973328e-02 -7.922970689833164215e-04
2.458852529525756836e-01 -6.200654804706573486e-02 9.057226032018661499e-02
5.767824053764343262e-01 -5.333527177572250366e-02 5.567615479230880737e-02
7.551128864288330078e-01 -9.499929100275039673e-02 7.931765168905258179e-02
1.967584192752838135e-01 -9.514980018138885498e-02 2.144430531188845634e-03
6.965424418449401855e-01 -8.243072777986526489e-02 -7.396418601274490356e-02
8.777834177017211914e-01 -6.855997443199157715e-02 2.622228115797042847e-02
2.752561569213867188e-01 -1.013711690902709961e-01 -2.677239105105400085e-02
6.202387809753417969e-01 -5.459738522768020630e-02 4.237184301018714905e-02
8.695739507675170898e-01 -9.135147929191589355e-02 -6.434683501720428467e-02
4.494219720363616943e-01 -1.062599793076515198e-01 9.653985500335693359e-03
6.600406169891357422e-01 -1.092889606952667236e-01 2.856628224253654480e-02
1.970409154891967773e-01 -7.201945781707763672e-02 7.893117517232894897e-02
3.664229512214660645e-01 -1.057337746024131775e-01 -2.906933426856994629e-02
7.823578715324401855e-01 -1.140025258064270020e-01 -5.464580655097961426e-02
7.551277875900268555e-01 -6.588678061962127686e-02 8.148071914911270142e-02
4.575061500072479248e-01 -1.084268093109130859e-01 -8.588826283812522888e-03
1.016691207885742188e+00 -8.051259815692901611e-02 3.614277392625808716e-02
1.089182496070861816e-01 -7.458280771970748901e-02 -7.005962729454040527e-02
3.691176772117614746e-01 -4.730973020195960999e-02 4.639828205108642578e-02
7.548908591270446777e-01 -6.896446645259857178e-02 -2.859494462609291077e-02
9.318539500236511230e-02 -8.762060105800628662e-02 -4.931953921914100647e-02
3.211981058120727539e-01 -4.957054927945137024e-02 -5.070671439170837402e-03
4.969686567783355713e-01 -5.058713257312774658e-02 5.323250219225883484e-02
6.292880177497863770e-01 -5.542347952723503113e-02 2.515125274658203125e-02
2.925279736518859863e-01 -4.660987481474876404e-02 5.302068591117858887e-02
1.236302852630615234e-01 -9.178708493709564209e-02 -1.575408130884170532e-02
2.091500163078308105e-01 -9.677669405937194824e-02 -4.795832186937332153e-02
7.109605669975280762e-01 -6.056929379701614380e-02 6.937064975500106812e-02
1.847378313541412354e-01 -8.894263207912445068e-02 3.408271819353103638e-02
3.886738121509552002e-01 -5.267864465713500977e-02 8.323732018470764160e-02
5.233399271965026855e-01 -1.057884991168975830e-01 2.856781706213951111e-02
8.250151276588439941e-01 -1.126696318387985229e-01 -5.881864205002784729e-02
7.724432349205017090e-01 -1.161248087882995605e-01 -2.702677249908447266e-02
2.583540976047515869e-01 -9.443157166242599487e-02 2.913158759474754333e-02
1.977506875991821289e-01 -6.424928456544876099e-02 -6.337191164493560791e-02
5.306653380393981934e-01 -5.161762237548828125e-02 2.882393077015876770e-02
4.071200489997863770e-01 -5.930455029010772705e-02 -4.388692602515220642e-02
9.206695556640625000e-01 -1.154606416821479797e-01 -2.507359534502029419e-02
2.398753762245178223e-01 -5.351454019546508789e-02 -3.140957280993461609e-02
7.176461219787597656e-01 -1.141019240021705627e-01 1.684511080384254456e-03
3.284004926681518555e-01 -7.991578429937362671e-02 8.330097049474716187e-02
8.626332283020019531e-01 -8.136758208274841309e-02 -4.651915654540061951e-02
7.938793897628784180e-01 -1.101807728409767151e-01 3.315847367048263550e-02
2.106480598449707031e-01 -6.405538320541381836e-02 8.696944266557693481e-02
1.987937688827514648e-01 -5.504771322011947632e-02 -3.799727931618690491e-02
7.565179467201232910e-02 -5.460241809487342834e-02 6.612187623977661133e-02
6.426871418952941895e-01 -1.127946451306343079e-01 1.439992105588316917e-03
2.703771293163299561e-01 -5.112910643219947815e-02 7.888181507587432861e-02
4.217517077922821045e-01 -1.041650176048278809e-01 -7.091337442398071289e-02
2.730127573013305664e-01 -8.609596639871597290e-02 -8.608507364988327026e-02
7.764618396759033203e-01 -6.340884417295455933e-02 6.339342892169952393e-02
5.623872280120849609e-01 -6.128343194723129272e-02 -3.328362852334976196e-02
6.412810087203979492e-02 -4.939646646380424500e-02 5.155967548489570618e-02
7.872871160507202148e-01 -9.423867613077163696e-02 8.038613945245742798e-02
4.357179999351501465e-02 -5.062855407595634460e-02 -1.033460255712270737e-02
-4.300087690353393555e-02 -7.249490171670913696e-02 -3.248381614685058594e-02
2.091066539287567139e-01 -5.060698091983795166e-02 7.442739605903625488e-02
5.450792312622070312e-01 -9.500412642955780029e-02 7.116518914699554443e-02
5.862216949462890625e-01 -6.788358837366104126e-02 -5.335351079702377319e-02
6.386706233024597168e-01 -5.728140100836753845e-02 7.050591707229614258e-02
1.483269929885864258e-01 -4.569304734468460083e-02 3.260611742734909058e-02
1.684494614601135254e-01 -8.608391135931015015e-02 4.104141518473625183e-02
1.539507508277893066e-02 -7.974955439567565918e-02 -4.404809325933456421e-02
1.460295319557189941e-01 -7.215183973312377930e-02 -7.230011373758316040e-02
4.781020283699035645e-01 -6.112211942672729492e-02 -4.361265152692794800e-02
4.879477620124816895e-01 -5.723100528120994568e-02 -2.640750631690025330e-02
4.871714413166046143e-01 -1.102717220783233643e-01 -3.704326599836349487e-02
3.370046019554138184e-01 -1.042575836181640625e-01 -2.137885242700576782e-02
6.372745633125305176e-01 -5.532951280474662781e-02 4.569162428379058838e-02
-3.732180595397949219e-02 -7.616514712572097778e-02 -1.005161553621292114e-02
2.983916103839874268e-01 -4.861963912844657898e-02 6.910639256238937378e-02
5.671226978302001953e-01 -5.742462351918220520e-02 8.476309478282928467e-02
-1.482909917831420898e-02 -6.952092051506042480e-02 3.641935437917709351e-02
5.661524534225463867e-01 -6.819491088390350342e-02 1.019068434834480286e-01
8.395220041275024414e-01 -9.094752371311187744e-02 -6.839728355407714844e-02
8.259723186492919922e-01 -1.161167025566101074e-01 -3.251300752162933350e-02
2.956517934799194336e-01 -7.553119957447052002e-02 -8.270841836929321289e-02
1.287291049957275391e-01 -4.701011255383491516e-02 5.032991245388984680e-02
7.332081794738769531e-01 -1.081798970699310303e-01 3.977646678686141968e-02
1.849720776081085205e-01 -7.868535071611404419e-02 -7.923643290996551514e-02
1.076758384704589844e+00 -9.001239389181137085e-02 3.571327030658721924e-02
1.014478683471679688e+00 -8.462893962860107422e-02 -1.138053927570581436e-02
5.166534185409545898e-01 -5.209939926862716675e-02 1.444897893816232681e-02
1.008821010589599609e+00 -1.120373085141181946e-01 -2.782136946916580200e-02
7.378914952278137207e-01 -6.853747367858886719e-02 9.038014709949493408e-02
6.125739812850952148e-01 -1.089189499616622925e-01 2.482435107231140137e-02
4.653908908367156982e-01 -4.968333244323730469e-02 2.811380103230476379e-02
2.537452876567840576e-01 -4.595619067549705505e-02 2.451853454113006592e-02
1.579829454421997070e-01 -9.051026403903961182e-02 1.759391278028488159e-02
9.151821732521057129e-01 -9.546267986297607422e-02 7.210358977317810059e-02
6.680060625076293945e-01 -9.971345216035842896e-02 6.615599244832992554e-02
2.197856605052947998e-01 -6.080119311809539795e-02 -5.572120845317840576e-02
3.208945989608764648e-01 -9.017052501440048218e-02 5.843523889780044556e-02
5.407647490501403809e-01 -7.858294993638992310e-02 -8.099668473005294800e-02
4.864007234573364258e-02 -8.586511015892028809e-02 -1.964771375060081482e-02
7.199257612228393555e-02 -7.143527269363403320e-02 5.741691589355468750e-02
8.918393850326538086e-01 -1.151240915060043335e-01 -3.780502453446388245e-02
9.133224487304687500e-01 -8.450959622859954834e-02 -4.336046427488327026e-02
1.022192478179931641e+00 -1.086208745837211609e-01 2.528470754623413086e-02
8.649731874465942383e-01 -9.163028746843338013e-02 8.098310977220535278e-02
6.841695308685302734e-01 -1.143175810575485229e-01 -4.805145785212516785e-02
5.075851082801818848e-01 -9.912121295928955078e-02 5.501614511013031006e-02
6.689270138740539551e-01 -5.862597376108169556e-02 7.032483071088790894e-02
7.008113861083984375e-01 -1.153433918952941895e-01 -3.277323022484779358e-02
8.412322998046875000e-01 -9.508680552244186401e-02 7.731887698173522949e-02
8.384668827056884766e-02 -5.006588250398635864e-02 -1.208160724490880966e-02
6.578003168106079102e-01 -8.704744279384613037e-02 9.189332276582717896e-02
5.899150371551513672e-01 -1.085994988679885864e-01 2.339999005198478699e-02
3.242191970348358154e-01 -4.670258611440658569e-02 4.876577109098434448e-02
4.395388364791870117e-01 -6.051179766654968262e-02 -4.529989510774612427e-02
3.001207709312438965e-01 -9.541147202253341675e-02 3.497710824012756348e-02
9.065026044845581055e-01 -7.053381204605102539e-02 2.789087966084480286e-02
9.748849272727966309e-02 -4.631567373871803284e-02 2.556085214018821716e-02
6.213154792785644531e-01 -5.757116526365280151e-02 7.649637758731842041e-02
6.434936523437500000e-01 -8.065252751111984253e-02 9.862083941698074341e-02
8.081572055816650391e-01 -1.162353754043579102e-01 -1.956570893526077271e-02
7.372269630432128906e-01 -1.157331541180610657e-01 -1.974531635642051697e-02
6.813590526580810547e-01 -8.650908619165420532e-02 -8.116610348224639893e-02
1.450582444667816162e-01 -4.853581264615058899e-02 -6.292000412940979004e-03
1.861407756805419922e-01 -4.580553621053695679e-02 4.406555742025375366e-02
1.123838722705841064e-01 -5.008356645703315735e-02 6.286219507455825806e-02
9.015196561813354492e-01 -7.145078480243682861e-02 9.847658686339855194e-03
8.660587072372436523e-01 -6.900936365127563477e-02 9.872265160083770752e-03
1.766436398029327393e-01 -5.360697209835052490e-02 -3.244443610310554504e-02
3.007296919822692871e-01 -1.026918441057205200e-01 -3.053741529583930969e-02
9.399269223213195801e-01 -1.116919815540313721e-01 -4.805956408381462097e-02
1.093152463436126709e-01 -5.066873878240585327e-02 -1.727402210235595703e-02
1.151084601879119873e-01 -7.768306136131286621e-02 5.381390452384948730e-02
4.231245815753936768e-01 -9.909202903509140015e-02 4.331646114587783813e-02
8.040007352828979492e-01 -1.144116893410682678e-01 6.949773058295249939e-03
4.129100739955902100e-01 -5.221199244260787964e-02 -1.030058600008487701e-02
3.238162398338317871e-01 -6.321106106042861938e-02 -6.047190353274345398e-02
6.750382184982299805e-01 -6.160459667444229126e-02 -1.206913124769926071e-02
8.640094995498657227e-01 -1.098869442939758301e-01 3.498839214444160461e-02
2.763879299163818359e-02 -8.351619541645050049e-02 -8.974073454737663269e-03
1.951313018798828125e-01 -8.367421478033065796e-02 5.493990704417228699e-02
9.467319846153259277e-01 -7.374128699302673340e-02 4.004540294408798218e-02
6.316273212432861328e-01 -5.985352396965026855e-02 -1.293082442134618759e-02
3.700079917907714844e-01 -1.050338074564933777e-01 -5.149182677268981934e-02
7.795468568801879883e-01 -8.384162932634353638e-02 9.282479435205459595e-02
2.702434062957763672e-01 -4.733722284436225891e-02 7.599502336233854294e-03
5.888988971710205078e-01 -1.092463135719299316e-01 -7.046046108007431030e-02
8.192745447158813477e-01 -1.136490032076835632e-01 1.360292825847864151e-02
3.340980410575866699e-02 -7.853396236896514893e-02 2.700788155198097229e-02
1.027443408966064453e+00 -8.959873765707015991e-02 -2.321774140000343323e-02
3.305277228355407715e-01 -1.013960540294647217e-01 9.130904451012611389e-03
9.791420698165893555e-01 -7.658743858337402344e-02 3.701167553663253784e-02
3.669490218162536621e-01 -6.870812922716140747e-02 -7.169435918331146240e-02
3.927122950553894043e-01 -5.059728771448135376e-02 -2.480507362633943558e-03
5.723320245742797852e-01 -1.127437055110931396e-01 -3.704245388507843018e-02
6.074768900871276855e-01 -1.134245991706848145e-01 -4.126711934804916382e-02
7.097010016441345215e-01 -1.112948656082153320e-01 -6.750351935625076294e-02
4.431970119476318359e-01 -4.982057213783264160e-02 6.226985156536102295e-02
3.106196522712707520e-01 -5.690953135490417480e-02 9.150300174951553345e-02
8.403618335723876953e-01 -7.120838761329650879e-02 -1.555137615650892258e-02
1.058915495872497559e+00 -1.066408157348632812e-01 2.387997508049011230e-02
9.277526140213012695e-01 -7.205268740653991699e-02 3.436566144227981567e-02
-4.388934373855590820e-02 -5.279940366744995117e-02 2.356412261724472046e-02
3.961216211318969727e-01 -5.371949821710586548e-02 -2.113899216055870056e-02
5.263133049011230469e-01 -1.115166023373603821e-01 -2.672761306166648865e-02
