4.315272569656372070e-01 6.817394495010375977e-02 3.422885835170745850e-01
-1.206933930516242981e-01 -3.497679233551025391e-01 -3.094565570354461670e-01
-2.746623456478118896e-01 -1.714262180030345917e-02 -6.605241298675537109e-01
-1.720263212919235229e-01 -2.975997924804687500e-01 -4.461981654167175293e-01
6.753318011760711670e-02 -3.803645372390747070e-01 1.066389307379722595e-01
3.422680795192718506e-01 5.604916438460350037e-02 -5.763471722602844238e-01
3.651949763298034668e-01 2.547161579132080078e-01 1.910837888717651367e-01
1.062784716486930847e-01 -2.626596987247467041e-01 5.604849457740783691e-01
2.762503027915954590e-01 3.157858848571777344e-01 -2.321428507566452026e-01
1.896418482065200806e-01 -2.299397885799407959e-01 5.552933812141418457e-01
2.480770051479339600e-01 1.904613375663757324e-01 5.897019505500793457e-01
2.279754579067230225e-01 1.928084492683410645e-01 -6.135679483413696289e-01
2.717225253582000732e-01 2.643699049949645996e-01 -4.286298453807830811e-01
1.002355106174945831e-02 -3.775309324264526367e-01 -2.022309452295303345e-01
3.065651655197143555e-01 5.323585867881774902e-02 6.173720359802246094e-01
-4.762694239616394043e-01 -3.972086682915687561e-02 1.606949865818023682e-01
-3.019004762172698975e-01 -3.120969533920288086e-01 1.626398181542754173e-03
3.546655178070068359e-01 -2.083282768726348877e-01 2.991566956043243408e-01
3.864585459232330322e-01 -1.112872064113616943e-01 -4.271612465381622314e-01
-1.919857114553451538e-01 1.291574984788894653e-01 7.087815999984741211e-01
1.704534441232681274e-01 2.982775568962097168e-01 4.744567275047302246e-01
-2.217459231615066528e-01 3.322136998176574707e-01 -2.159688323736190796e-01
2.684546411037445068e-01 -1.599214971065521240e-01 -5.858334302902221680e-01
-5.630847811698913574e-02 1.087052561342716217e-02 8.124681115150451660e-01
-1.423268318176269531e-01 1.088819503784179688e-01 -7.379903793334960938e-01
-6.383714079856872559e-02 1.528504341840744019e-01 7.519230842590332031e-01
-1.178053468465805054e-01 -3.786757290363311768e-01 -8.865161240100860596e-02
-1.882533133029937744e-01 -3.290432989597320557e-01 -3.172551989555358887e-01
-3.577802479267120361e-01 2.023898512125015259e-01 3.647474050521850586e-01
1.164177507162094116e-01 -3.739590644836425781e-01 5.584970489144325256e-02
-3.466931581497192383e-01 1.525077223777770996e-01 4.852143228054046631e-01
3.530008494853973389e-01 1.253985166549682617e-01 -5.138992667198181152e-01
1.927431374788284302e-01 2.989426851272583008e-01 -4.477762579917907715e-01
-1.638279408216476440e-01 3.579680025577545166e-01 2.224481850862503052e-01
-3.541310131549835205e-02 -3.030937314033508301e-01 -5.092796087265014648e-01
1.979268938302993774e-01 1.339942067861557007e-01 -6.990230679512023926e-01
1.166854128241539001e-01 2.661027610301971436e-01 -5.804052948951721191e-01
3.008289039134979248e-01 1.884211301803588867e-01 -5.283808708190917969e-01
-2.279445827007293701e-01 3.314261436462402344e-01 2.302298843860626221e-01
-4.627564251422882080e-01 8.030445873737335205e-02 -1.514917016029357910e-01
1.980650126934051514e-01 -1.231312155723571777e-01 -6.957867145538330078e-01
-7.672749925404787064e-04 3.906465172767639160e-01 1.774292737245559692e-01
1.647478491067886353e-01 -3.305629193782806396e-01 -3.158490657806396484e-01
1.235509291291236877e-01 3.381750313565135002e-03 7.850383520126342773e-01
-3.367299139499664307e-01 5.016449466347694397e-02 5.895340442657470703e-01
2.231708765029907227e-01 3.525678813457489014e-01 1.521638780832290649e-01
2.195879071950912476e-01 4.878054559230804443e-02 -7.247758507728576660e-01
1.449154466390609741e-01 -2.186156660318374634e-01 6.136175990104675293e-01
-7.712798565626144409e-02 3.911263048648834229e-01 7.635062932968139648e-02
-3.067882955074310303e-01 -1.787836104631423950e-02 6.419785022735595703e-01
-2.265719026327133179e-01 -2.156935036182403564e-01 5.740085840225219727e-01
-3.137309551239013672e-01 1.109014600515365601e-01 5.888747572898864746e-01
1.269642263650894165e-01 -3.577760756015777588e-01 2.104390859603881836e-01
-9.470302611589431763e-02 -3.834315836429595947e-01 6.456062197685241699e-02
-3.670395165681838989e-02 -2.093100398778915405e-01 6.825318336486816406e-01
3.267674148082733154e-01 -1.656128764152526855e-01 4.633708000183105469e-01
6.448105722665786743e-02 3.273526430130004883e-01 4.654569923877716064e-01
-3.975825905799865723e-01 2.212887108325958252e-01 3.342166915535926819e-02
2.358099818229675293e-01 1.638751178979873657e-01 6.336067318916320801e-01
1.703948527574539185e-01 3.290925920009613037e-01 -3.781751096248626709e-01
-4.186829030513763428e-01 2.516169100999832153e-02 -3.921982049942016602e-01
3.563050329685211182e-01 6.223866343498229980e-02 5.335582494735717773e-01
-2.533918917179107666e-01 -2.855604887008666992e-01 -3.678048849105834961e-01
4.510348737239837646e-01 -1.034311354160308838e-01 1.496353149414062500e-01
3.791183233261108398e-01 8.184143900871276855e-02 -4.949381351470947266e-01
-6.952010840177536011e-02 -2.944005429744720459e-01 5.222966670989990234e-01
-3.308613598346710205e-01 -2.533958554267883301e-01 3.085619509220123291e-01
-1.015729159116744995e-01 1.953101605176925659e-01 -6.812357306480407715e-01
-1.881307661533355713e-01 -3.463173806667327881e-01 -2.276235222816467285e-01
-2.906578183174133301e-01 2.272878289222717285e-01 -4.336453974246978760e-01
-5.655652657151222229e-02 -1.582836061716079712e-01 -7.350479364395141602e-01
7.843566685914993286e-02 2.823353707790374756e-01 5.709179639816284180e-01
2.051942497491836548e-01 -3.431253731250762939e-01 1.026230379939079285e-01
-9.191953390836715698e-02 -2.992048561573028564e-01 -5.012594461441040039e-01
4.187345206737518311e-01 2.132120877504348755e-01 5.549909546971321106e-03
-1.702501624822616577e-01 1.468988358974456787e-01 -6.906839609146118164e-01
-1.712702661752700806e-01 -3.173367381095886230e-01 3.912466466426849365e-01
-4.837799370288848877e-01 2.674905583262443542e-02 1.129056140780448914e-02
1.480760127305984497e-01 -1.105259507894515991e-01 7.306441068649291992e-01
-4.130788445472717285e-01 -2.124598920345306396e-01 5.016219988465309143e-02
-2.527779042720794678e-01 -2.946010529994964600e-01 3.495858609676361084e-01
-7.955451309680938721e-02 3.824084997177124023e-01 1.879109442234039307e-01
-7.060924917459487915e-02 2.882094085216522217e-01 5.585174560546875000e-01
-2.982400357723236084e-01 7.502505183219909668e-02 -6.099125742912292480e-01
-1.344637386500835419e-02 -3.894202113151550293e-01 -4.752167314291000366e-02
2.687140107154846191e-01 3.354202210903167725e-01 -1.092517524957656860e-01
-4.165738523006439209e-01 -7.520158588886260986e-02 -3.794040083885192871e-01
5.751860514283180237e-02 3.850567340850830078e-01 2.113525122404098511e-01
2.875914871692657471e-01 -1.214563399553298950e-01 5.850898623466491699e-01
1.379798650741577148e-01 3.469910919666290283e-01 3.492854237556457520e-01
-3.981371819972991943e-01 1.252516917884349823e-02 4.795925617218017578e-01
1.249701827764511108e-01 -8.689224720001220703e-02 -7.644693255424499512e-01
-4.015261530876159668e-01 2.135314345359802246e-01 -5.914083495736122131e-02
3.333605527877807617e-01 -5.717578902840614319e-02 -5.809089541435241699e-01
7.149051874876022339e-02 1.972762495279312134e-01 7.049349546432495117e-01
1.178563311696052551e-01 3.185924589633941650e-01 4.631760418415069580e-01
2.082337588071823120e-01 -3.426596522331237793e-01 -1.099885776638984680e-01
3.746058940887451172e-01 2.280861437320709229e-01 2.601939737796783447e-01
2.464008927345275879e-01 3.414161801338195801e-01 -1.613747626543045044e-01
-2.664863467216491699e-01 -3.302886486053466797e-01 -6.378328055143356323e-02
-4.040547907352447510e-01 -2.084495276212692261e-01 1.813663095235824585e-01
7.943715900182723999e-02 3.951321840286254883e-01 -4.544879496097564697e-02
-2.742370069026947021e-01 -3.122154474258422852e-01 -2.004520446062088013e-01
-2.390139847993850708e-01 -2.683643400669097900e-01 -4.404182732105255127e-01
1.305791437625885010e-01 2.923620343208312988e-01 5.218979716300964355e-01
-1.217621117830276489e-01 -1.988816261291503906e-01 -6.678664684295654297e-01
2.777613699436187744e-01 7.458281517028808594e-02 -6.590934991836547852e-01
-2.099223993718624115e-02 1.787659078836441040e-01 -7.238672971725463867e-01
4.660281836986541748e-01 1.835284009575843811e-02 2.084506601095199585e-01
2.750770151615142822e-01 -1.714994609355926514e-01 5.436350703239440918e-01
4.305006265640258789e-01 -2.812251448631286621e-02 -3.728180229663848877e-01
-2.587347328662872314e-01 1.478677541017532349e-01 -6.038655042648315430e-01
3.247130215167999268e-01 -2.471716850996017456e-01 2.642632424831390381e-01
-3.868676126003265381e-01 6.443193554878234863e-02 4.860881268978118896e-01
2.700990140438079834e-01 -2.921005710959434509e-02 6.631948947906494141e-01
-3.305612504482269287e-02 3.839267790317535400e-01 -2.036085277795791626e-01
4.273950755596160889e-01 -7.462209463119506836e-02 -3.461284637451171875e-01
-1.792444884777069092e-01 3.083910644054412842e-01 4.227512776851654053e-01
1.487854868173599243e-01 3.732575476169586182e-01 1.857311874628067017e-01
9.753520786762237549e-02 -1.889040619134902954e-01 -6.904191970825195312e-01
-2.672155201435089111e-01 2.834770381450653076e-01 -3.254766464233398438e-01
-9.065356105566024780e-02 -3.250483870506286621e-01 4.282970130443572998e-01
2.482413351535797119e-01 -2.845113575458526611e-01 3.310413658618927002e-01
5.884717404842376709e-02 -3.625821769237518311e-01 2.663125097751617432e-01
2.677544951438903809e-01 -2.275087684392929077e-01 -4.745472669601440430e-01
-2.031846344470977783e-01 -2.526849694550037384e-02 7.458978295326232910e-01
4.337662160396575928e-01 1.234595328569412231e-01 -2.945943176746368408e-01
1.900992989540100098e-01 -5.344125255942344666e-02 7.323299050331115723e-01
-7.732251286506652832e-02 -1.007918417453765869e-01 7.778643965721130371e-01
-3.184590637683868408e-01 2.763137817382812500e-01 2.289628982543945312e-01
-1.466277390718460083e-01 3.498783707618713379e-01 3.028062283992767334e-01
1.011759229004383087e-02 1.258703917264938354e-01 -7.710253000259399414e-01
3.565567731857299805e-01 -2.338960021734237671e-01 -2.167779654264450073e-01
1.733918190002441406e-01 3.728973567485809326e-01 -1.163914874196052551e-01
-9.318033605813980103e-02 3.609953224658966064e-01 3.122682571411132812e-01
1.600583046674728394e-01 -1.752777248620986938e-01 6.620268821716308594e-01
-6.470572669059038162e-03 3.632479310035705566e-01 3.467481732368469238e-01
-6.817384064197540283e-02 2.279017865657806396e-01 6.667233109474182129e-01
-3.637281954288482666e-01 -2.599709033966064453e-01 1.252255141735076904e-01
3.789536356925964355e-01 1.036451198160648346e-02 -5.157785415649414062e-01
-1.553736627101898193e-01 -3.728948831558227539e-01 2.891169302165508270e-02
-2.589545547962188721e-01 -1.638489961624145508e-01 6.101787090301513672e-01
2.127648591995239258e-01 -1.568236202001571655e-01 -6.513593792915344238e-01
-3.161199688911437988e-01 -2.959215939044952393e-01 1.406152546405792236e-01
-9.377828240394592285e-02 3.823522031307220459e-01 -1.435157507658004761e-01
-4.591395556926727295e-01 -3.791395202279090881e-02 -2.416291981935501099e-01
-1.971533596515655518e-01 -2.676533758640289307e-01 5.038224458694458008e-01
4.743138328194618225e-02 -9.910334646701812744e-02 7.795987725257873535e-01
-1.707237660884857178e-01 3.486729860305786133e-01 -2.425646781921386719e-01
4.281245917081832886e-02 2.623715400695800781e-01 6.187047958374023438e-01
-3.529701828956604004e-01 2.279980629682540894e-01 3.053915202617645264e-01
3.431452214717864990e-01 2.068854272365570068e-01 -4.180248081684112549e-01
-1.367081850767135620e-01 -2.329600602388381958e-01 6.168936491012573242e-01
-6.187716033309698105e-03 -3.263531625270843506e-01 4.406397044658660889e-01
-4.279581010341644287e-01 1.650695800781250000e-01 -1.357095539569854736e-01
1.459766924381256104e-01 2.611210346221923828e-01 5.759976506233215332e-01
-3.100435137748718262e-01 2.957983314990997314e-01 1.290480941534042358e-01
3.637063205242156982e-01 1.643898487091064453e-01 -4.450384676456451416e-01
-4.034332036972045898e-01 -2.071382254362106323e-01 -1.684723794460296631e-01
1.173340827226638794e-01 -1.535069495439529419e-01 7.122129201889038086e-01
-1.658271104097366333e-01 -1.047648638486862183e-01 7.395836114883422852e-01
8.585361391305923462e-02 -6.230117753148078918e-02 -7.895227670669555664e-01
-4.094805121421813965e-01 1.537132561206817627e-01 -2.722806930541992188e-01
-3.594748973846435547e-01 2.592322826385498047e-01 8.222268521785736084e-02
-3.691178262233734131e-01 -2.075984925031661987e-01 -3.130231201648712158e-01
-1.280110925436019897e-01 3.374800086021423340e-01 3.805147707462310791e-01
-1.242034062743186951e-01 -3.401171565055847168e-01 3.511530458927154541e-01
3.943463265895843506e-01 2.389328926801681519e-01 -1.007732227444648743e-01
3.987986594438552856e-03 3.067704141139984131e-01 5.304325222969055176e-01
-2.632845044136047363e-01 3.076817393302917480e-01 2.605472505092620850e-01
-2.127412110567092896e-01 3.540069758892059326e-01 3.981311991810798645e-02
1.073192209005355835e-01 8.207032084465026855e-02 -7.784928679466247559e-01
-1.695338487625122070e-01 3.216624259948730469e-01 -3.663968145847320557e-01
-2.844094336032867432e-01 2.952776551246643066e-01 -2.267954498529434204e-01
-2.705085575580596924e-01 -2.950599789619445801e-01 -2.973346114158630371e-01
2.197550535202026367e-01 -1.436522305011749268e-01 6.448549628257751465e-01
2.951941490173339844e-01 2.251226752996444702e-01 4.683306515216827393e-01
-2.546463608741760254e-01 2.551321387290954590e-01 4.611381888389587402e-01
1.190137565135955811e-01 3.620552718639373779e-01 -2.929918169975280762e-01
1.700927317142486572e-01 -3.362998366355895996e-01 2.615827918052673340e-01
2.957763075828552246e-01 3.062586486339569092e-01 2.140336483716964722e-01
3.261086344718933105e-01 -2.503773868083953857e-01 -2.691628038883209229e-01
4.822737574577331543e-01 3.643327578902244568e-02 -7.221045345067977905e-02
8.310501277446746826e-02 -3.758313357830047607e-01 -1.454223841428756714e-01
-6.976398080587387085e-02 3.924406468868255615e-01 -5.057815462350845337e-02
-2.615471184253692627e-02 -3.896230757236480713e-01 2.894783578813076019e-02
-4.854550585150718689e-02 -2.480640858411788940e-01 -6.218373775482177734e-01
1.128252595663070679e-01 2.189006209373474121e-01 6.622502803802490234e-01
-2.106488123536109924e-02 -3.668296635150909424e-01 2.720842063426971436e-01
-1.245490610599517822e-01 -3.713998794555664062e-01 -1.643547713756561279e-01
-1.451828517019748688e-02 9.297193586826324463e-02 7.967591285705566406e-01
2.446344867348670959e-02 -1.857081949710845947e-01 -7.122345566749572754e-01
8.258733153343200684e-02 1.848927587270736694e-01 -7.105943560600280762e-01
-4.482015967369079590e-02 2.071795314550399780e-01 -6.868562102317810059e-01
-1.911945044994354248e-01 -3.863760456442832947e-02 -7.368139624595642090e-01
1.504813730716705322e-01 3.611184060573577881e-01 2.656801044940948486e-01
2.442865371704101562e-01 -3.286980092525482178e-01 -5.985836684703826904e-02
-9.931316599249839783e-04 -1.576526276767253876e-02 -8.109654784202575684e-01
-2.700187079608440399e-02 2.884162068367004395e-01 -5.554953813552856445e-01
-2.278547734022140503e-01 -3.244219422340393066e-01 -2.638924717903137207e-01
2.099750488996505737e-01 -6.431303918361663818e-03 -7.368449568748474121e-01
3.813367187976837158e-01 1.866307854652404785e-01 3.465183973312377930e-01
-1.513245701789855957e-01 3.042470514774322510e-01 4.663139283657073975e-01
-3.798387944698333740e-01 -1.132633090019226074e-01 4.678296744823455811e-01
-7.422592956572771072e-03 3.336577415466308594e-01 4.561052918434143066e-01
-1.541145592927932739e-01 3.072312772274017334e-01 -4.322682023048400879e-01
-4.103548452258110046e-02 -3.772451877593994141e-01 1.986560523509979248e-01
-4.306249320507049561e-01 -1.760734990239143372e-02 3.910240530967712402e-01
5.097945034503936768e-02 3.623593747615814209e-01 3.444887399673461914e-01
-4.344821870326995850e-01 -1.421452760696411133e-01 2.454448193311691284e-01
-2.335242033004760742e-01 -1.039255857467651367e-01 -6.739559173583984375e-01
4.701779484748840332e-01 1.001530289649963379e-01 -1.007424071431159973e-01
-2.389743775129318237e-01 1.748294197022914886e-02 -6.980922222137451172e-01
-5.907642841339111328e-02 -4.537680372595787048e-02 -7.985160350799560547e-01
-1.973928809165954590e-01 2.031235545873641968e-01 -6.032773256301879883e-01
-4.708633422851562500e-01 -6.429423391819000244e-02 -1.448769122362136841e-01
7.103132456541061401e-02 -1.328699886798858643e-01 -7.538987994194030762e-01
-3.017407953739166260e-01 -1.488713175058364868e-01 5.719237327575683594e-01
2.693404555320739746e-01 2.236927300691604614e-01 5.122900605201721191e-01
7.489015161991119385e-02 9.053733944892883301e-02 7.862578034400939941e-01
5.974349379539489746e-02 3.484806120395660400e-01 3.975673019886016846e-01
-1.308401376008987427e-01 3.699941933155059814e-01 -1.803261041641235352e-01
1.435645818710327148e-01 -4.998465254902839661e-02 7.646234035491943359e-01
-2.777196764945983887e-01 -3.120786547660827637e-01 2.007979899644851685e-01
-6.483059376478195190e-02 1.293904781341552734e-01 -7.576257586479187012e-01
-2.059196084737777710e-01 3.283169269561767578e-01 -2.764096558094024658e-01
2.409892231225967407e-01 -1.626799404621124268e-01 6.003180742263793945e-01
3.285269439220428467e-01 2.766712307929992676e-01 2.436563372611999512e-01
2.857062220573425293e-01 -7.463010028004646301e-03 -6.624540090560913086e-01
-2.431564480066299438e-01 2.351934462785720825e-01 -4.955797195434570312e-01
-1.614420861005783081e-01 -3.453100025653839111e-01 2.855269610881805420e-01
4.970857873558998108e-02 -3.863953649997711182e-01 7.996609201654791832e-04
1.822591386735439301e-02 3.617656975984573364e-02 -8.087787628173828125e-01
-2.267354167997837067e-02 3.976736068725585938e-01 5.625556409358978271e-02
-1.635685861110687256e-01 3.721724152565002441e-01 -5.376117769628763199e-03
-1.074695661664009094e-01 5.568747594952583313e-02 7.925058603286743164e-01
-4.815485179424285889e-01 -5.139346420764923096e-02 6.980678439140319824e-02
-3.578972518444061279e-01 -6.128055229783058167e-02 5.501681566238403320e-01
-3.344123959541320801e-01 -3.729398921132087708e-02 5.984684824943542480e-01
1.084732264280319214e-01 3.772543370723724365e-01 2.213082164525985718e-01
4.655189216136932373e-01 7.626402378082275391e-02 1.753558218479156494e-01
3.040722906589508057e-01 -2.943713963031768799e-01 -9.110311511904001236e-04
-3.748973906040191650e-01 3.071074560284614563e-02 -4.983217120170593262e-01
4.648143351078033447e-01 6.358675658702850342e-02 -2.174307703971862793e-01
4.136577844619750977e-01 1.444801241159439087e-01 -3.367078304290771484e-01
1.365841329097747803e-01 -1.392403244972229004e-01 -7.231097817420959473e-01
-4.306213259696960449e-01 1.760688871145248413e-01 4.027687758207321167e-02
1.059518307447433472e-01 -3.774400353431701660e-01 4.644235596060752869e-04
2.956069707870483398e-01 -2.473568767309188843e-01 3.475181162357330322e-01
4.044557511806488037e-01 1.265196502208709717e-01 -3.920815289020538330e-01
1.547373682260513306e-01 1.818241477012634277e-01 -6.833523511886596680e-01
-3.639099597930908203e-01 -1.293361634016036987e-01 -4.622476696968078613e-01
-4.465409517288208008e-01 7.878798246383666992e-02 -2.502777576446533203e-01
2.183784395456314087e-01 -2.600879669189453125e-01 -4.733924865722656250e-01
4.121099114418029785e-01 -1.820379197597503662e-01 1.160877719521522522e-01
9.029000997543334961e-03 -3.674907386302947998e-01 -2.714996635913848877e-01
6.294933706521987915e-02 -3.824896216392517090e-01 -9.285338222980499268e-02
-4.313734471797943115e-01 1.008921563625335693e-01 3.189584910869598389e-01
8.234391361474990845e-02 -2.947115302085876465e-01 5.013316273689270020e-01
6.714368704706430435e-03 2.590283155441284180e-01 -6.169474124908447266e-01
-4.457351565361022949e-01 -1.361696124076843262e-01 1.956035047769546509e-01
-1.836798042058944702e-01 2.859592624008655548e-02 -7.432828545570373535e-01
-4.267334043979644775e-01 -1.072683334350585938e-01 -3.141130208969116211e-01
3.351947069168090820e-01 2.948091030120849609e-01 -8.891534805297851562e-02
-2.619939446449279785e-01 -3.111403882503509521e-01 2.570134699344635010e-01
3.291628062725067139e-01 -2.667845189571380615e-01 -1.621300429105758667e-01
-2.716590464115142822e-01 1.835853457450866699e-01 -5.426167845726013184e-01
-1.291957646608352661e-01 2.510676085948944092e-01 6.021784543991088867e-01
-3.799611628055572510e-01 2.240882217884063721e-01 2.021617442369461060e-01
-2.783495783805847168e-01 -3.189178109169006348e-01 -1.305483281612396240e-01
-4.288160428404808044e-02 1.897086501121520996e-01 7.205101847648620605e-01
3.804273605346679688e-01 -1.896429806947708130e-01 -2.881988286972045898e-01
7.913984358310699463e-02 -5.885761603713035583e-02 7.901473641395568848e-01
4.804384410381317139e-01 6.494217552244663239e-03 8.582003414630889893e-02
5.068710446357727051e-02 3.371757864952087402e-01 -4.287230372428894043e-01
3.877677023410797119e-01 2.337739616632461548e-01 -1.876666992902755737e-01
-4.005180895328521729e-01 1.911869496107101440e-01 -2.011435329914093018e-01
-3.077771663665771484e-01 -6.858821213245391846e-02 -6.046072840690612793e-01
2.301144003868103027e-01 -3.082158267498016357e-01 2.730794548988342285e-01
-4.254325628280639648e-01 -1.946373432874679565e-01 -4.080764576792716980e-02
1.577887833118438721e-01 6.255905330181121826e-02 -7.631023526191711426e-01
8.253183215856552124e-02 3.917393386363983154e-01 -1.069450005888938904e-01
-5.932623520493507385e-02 7.851789891719818115e-02 -7.878630757331848145e-01
1.651109457015991211e-01 3.586199283599853516e-01 -2.521752119064331055e-01
2.409423738718032837e-01 -2.654438316822052002e-01 4.067884683609008789e-01
2.731771469116210938e-01 -2.955434322357177734e-01 2.117524147033691406e-01
4.621710479259490967e-01 1.322258859872817993e-01 3.135222569108009338e-02
-3.042309284210205078e-01 2.514356672763824463e-01 -3.420129120349884033e-01
-3.365283906459808350e-01 -1.464718729257583618e-01 5.184986591339111328e-01
1.927279978990554810e-01 -7.377132773399353027e-02 -7.312445640563964844e-01
-4.024481177330017090e-01 1.389198750257492065e-01 -3.285179734230041504e-01
4.478161036968231201e-01 -1.259226500988006592e-01 -1.126624420285224915e-01
-1.828219392336905003e-03 3.383284807205200195e-01 -4.275591075420379639e-01
-4.650282263755798340e-01 8.127324283123016357e-02 1.657909303903579712e-01
4.040797054767608643e-01 -1.239611059427261353e-01 -3.567038476467132568e-01
3.755851387977600098e-01 -2.072669714689254761e-01 2.212081104516983032e-01
3.367215692996978760e-01 2.965760827064514160e-01 -1.630580425262451172e-02
-1.745440512895584106e-01 3.676033616065979004e-01 7.119293510913848877e-02
-2.567381262779235840e-01 -2.644072771072387695e-01 4.354726374149322510e-01
-1.223855465650558472e-01 1.581990271806716919e-01 -7.105203270912170410e-01
-7.622325420379638672e-02 -3.727250993251800537e-01 -2.159459292888641357e-01
4.123414158821105957e-01 1.913596540689468384e-01 -2.308917641639709473e-01
2.816987931728363037e-01 2.371049076318740845e-01 -4.743325114250183105e-01
3.934089839458465576e-01 2.416054308414459229e-01 6.924286484718322754e-02
-4.840367436408996582e-01 -3.900957480072975159e-02 6.726175080984830856e-03
3.179993629455566406e-01 2.358043566346168518e-04 6.051009297370910645e-01
2.876805961132049561e-01 -1.999344229698181152e-01 4.770215749740600586e-01
-1.631066389381885529e-02 -3.086722269654273987e-02 8.124630451202392578e-01
1.680767834186553955e-01 2.502294778823852539e-01 -5.779874324798583984e-01
1.489359587430953979e-01 -3.010544478893280029e-01 -4.445511996746063232e-01
-1.264787651598453522e-02 3.804940879344940186e-01 2.536183595657348633e-01
1.472173184156417847e-01 -3.470004796981811523e-01 -2.586300969123840332e-01
2.693290114402770996e-01 -3.033452928066253662e-01 -1.976835578680038452e-01
1.077740266919136047e-01 3.648351132869720459e-01 2.971936464309692383e-01
-1.169192567467689514e-01 -3.809017241001129150e-01 -3.426216915249824524e-02
-2.210303843021392822e-01 -3.470181226730346680e-01 -1.215486526489257812e-01
-1.625213623046875000e-01 -3.012201786041259766e-01 4.510958492755889893e-01
2.525522410869598389e-01 3.453034162521362305e-01 8.058562874794006348e-02
2.383101582527160645e-01 3.222265243530273438e-01 -2.986103892326354980e-01
2.070890814065933228e-01 -1.065267771482467651e-01 6.891479492187500000e-01
-3.035989403724670410e-01 1.745094656944274902e-01 5.337693691253662109e-01
-4.247900247573852539e-01 7.852426171302795410e-02 -3.376829326152801514e-01
-2.261400073766708374e-01 1.184037178754806519e-01 -6.664434671401977539e-01
1.059731841087341309e-01 -3.693352937698364258e-01 1.556516438722610474e-01
-8.912178128957748413e-02 2.893891334533691406e-01 -5.297051668167114258e-01
-8.909801393747329712e-02 -3.675854206085205078e-02 8.005704879760742188e-01
4.227980673313140869e-01 2.269170992076396942e-02 -4.068217277526855469e-01
4.004898965358734131e-01 3.696924541145563126e-03 -4.668403863906860352e-01
-1.826397627592086792e-01 -1.239271759986877441e-01 -7.037900090217590332e-01
-3.278682008385658264e-02 -2.757569551467895508e-01 -5.724811553955078125e-01
2.527349591255187988e-01 -5.495620891451835632e-02 -6.869428753852844238e-01
-1.865822672843933105e-01 8.186323940753936768e-02 7.417044043540954590e-01
3.612001836299896240e-01 2.752107381820678711e-01 4.836343973875045776e-02
-3.294224143028259277e-01 -2.159889489412307739e-01 4.167535901069641113e-01
2.631454765796661377e-01 9.789891541004180908e-02 6.545234322547912598e-01
-4.600830972194671631e-01 -8.171205222606658936e-02 -1.948226541280746460e-01
3.529897928237915039e-01 2.604991197586059570e-01 -2.304552495479583740e-01
-2.875431180000305176e-01 3.107877373695373535e-01 -9.846877306699752808e-02
1.448659449815750122e-01 3.834571838378906250e-01 6.849853694438934326e-02
-4.353184998035430908e-01 -1.664767265319824219e-01 -1.319757997989654541e-01
-3.585228919982910156e-01 2.492967993021011353e-01 -1.507362574338912964e-01
-4.920971393585205078e-02 3.399950563907623291e-01 -4.086945652961730957e-01
-2.083251178264617920e-01 -3.468987941741943359e-01 1.781271994113922119e-01
2.333817034959793091e-01 -5.484755337238311768e-02 6.939410567283630371e-01
-3.451595008373260498e-01 -2.563040256500244141e-01 -2.302087396383285522e-01
4.301689863204956055e-01 -7.963447272777557373e-02 3.049494624137878418e-01
3.899357318878173828e-01 6.762230396270751953e-02 4.605905115604400635e-01
-9.844495356082916260e-02 3.604969084262847900e-01 -2.888088822364807129e-01
1.803881078958511353e-01 3.739738166332244873e-01 -6.329689174890518188e-02
-3.471036851406097412e-01 -2.603004276752471924e-01 2.211547195911407471e-01
4.287389218807220459e-01 1.530203968286514282e-01 2.409583926200866699e-01
3.583269715309143066e-01 -1.778811961412429810e-01 -3.896009624004364014e-01
3.468029201030731201e-02 -3.360890448093414307e-01 -4.063764214515686035e-01
-1.497550308704376221e-01 3.741877675056457520e-01 -7.256691157817840576e-02
9.163141250610351562e-03 3.727197945117950439e-01 -2.874095737934112549e-01
-1.157111302018165588e-01 1.876566112041473389e-01 7.000429034233093262e-01
-1.501951217651367188e-01 2.561949193477630615e-01 -5.572772622108459473e-01
3.766740486025810242e-02 -9.475712478160858154e-02 -7.849374413490295410e-01
-1.514772921800613403e-01 2.272910475730895996e-01 -6.066939234733581543e-01
2.056636214256286621e-01 -2.928084433078765869e-01 3.818227946758270264e-01
1.642330177128314972e-02 1.075793523341417313e-02 8.151285648345947266e-01
-8.716940879821777344e-02 -2.504906654357910156e-01 6.086245775222778320e-01
3.661425113677978516e-01 -2.424952238798141479e-01 -6.978176534175872803e-02
-2.930639088153839111e-01 3.112085759639739990e-01 -3.421737253665924072e-02
2.583903968334197998e-01 3.468028083443641663e-02 6.808874607086181641e-01
4.649595022201538086e-01 -8.820879459381103516e-02 5.556436628103256226e-02
1.227717250585556030e-01 1.442668884992599487e-01 -7.347462177276611328e-01
-4.150323942303657532e-02 3.931917250156402588e-01 1.199575439095497131e-01
4.225867092609405518e-01 -1.700768321752548218e-01 -1.189749762415885925e-01
3.584925234317779541e-01 -8.659528195858001709e-02 4.956837594509124756e-01
-7.004246860742568970e-02 -3.424166142940521240e-01 3.751814663410186768e-01
-3.204497098922729492e-01 2.771747708320617676e-01 -1.829080134630203247e-01
-2.437185347080230713e-01 3.380860388278961182e-01 8.988869190216064453e-02
2.904343903064727783e-01 1.301035434007644653e-01 5.986320376396179199e-01
4.540871381759643555e-01 2.342723309993743896e-02 2.701999843120574951e-01
-1.824772506952285767e-01 2.718758881092071533e-01 -4.934815466403961182e-01
-2.679606378078460693e-01 2.781352996826171875e-01 3.712494075298309326e-01
3.488392233848571777e-01 2.498997896909713745e-01 -2.890025377273559570e-01
-1.713381558656692505e-01 -2.751365005970001221e-01 -5.038599967956542969e-01
4.224300980567932129e-01 -1.371848583221435547e-01 -2.555970847606658936e-01
-6.159370765089988708e-02 -3.856872022151947021e-01 -9.366199374198913574e-02
2.016204595565795898e-01 -3.319718837738037109e-01 2.143599539995193481e-01
-4.053646698594093323e-02 -3.639941811561584473e-01 -2.892950773239135742e-01
1.973231434822082520e-01 4.421892017126083374e-02 7.361816763877868652e-01
3.113471269607543945e-01 2.626947164535522461e-01 3.455579578876495361e-01
-4.133464992046356201e-01 -2.391721494495868683e-02 4.405008554458618164e-01
4.198011159896850586e-01 -6.641525030136108398e-02 3.565452992916107178e-01
-3.632028102874755859e-01 -1.640688925981521606e-01 -4.177541434764862061e-01
-1.647448688745498657e-01 -3.550482094287872314e-01 2.222371697425842285e-01
6.480418890714645386e-02 3.971924185752868652e-01 2.883415669202804565e-02
-1.316092014312744141e-01 -2.354687452316284180e-01 -6.099397540092468262e-01
1.011960655450820923e-01 -3.640371859073638916e-01 -2.216541469097137451e-01
-3.985934555530548096e-01 5.665024369955062866e-02 -4.320431351661682129e-01
3.454810082912445068e-01 2.494015265256166458e-03 -5.780802965164184570e-01
-3.502264916896820068e-01 -2.127139642834663391e-02 -5.504150390625000000e-01
2.245008200407028198e-01 3.598653376102447510e-01 -2.941394224762916565e-03
-1.989188492298126221e-01 -3.068919181823730469e-01 -3.857043385505676270e-01
1.780062615871429443e-01 -3.224807083606719971e-01 3.146283924579620361e-01
2.555665075778961182e-01 -1.958360970020294189e-01 -5.518132448196411133e-01
1.001787111163139343e-01 3.902326226234436035e-01 1.036575958132743835e-01
3.734569847583770752e-01 -2.358198761940002441e-01 3.139367699623107910e-02
-4.704596102237701416e-01 8.006586134433746338e-02 1.096636727452278137e-01
5.007489770650863647e-02 3.947890996932983398e-01 1.162328571081161499e-01
-2.295349985361099243e-01 3.407387733459472656e-01 1.478859633207321167e-01
1.433788985013961792e-01 -3.120779693126678467e-01 4.017350375652313232e-01
7.984740287065505981e-02 3.134545385837554932e-01 -4.898217618465423584e-01
-2.842770814895629883e-01 3.077983260154724121e-01 1.778924614191055298e-01
-1.461477279663085938e-01 -3.998378664255142212e-02 -7.658004164695739746e-01
1.588701158761978149e-01 -2.022072821855545044e-01 -6.392700076103210449e-01
4.639428555965423584e-01 -9.527860581874847412e-02 -4.475010931491851807e-02
1.290774047374725342e-01 2.376256436109542847e-01 -6.235594153404235840e-01
4.570869207382202148e-01 -5.294489488005638123e-02 -2.399055510759353638e-01
2.749271690845489502e-01 -8.256614208221435547e-02 6.331411600112915039e-01
-3.315272927284240723e-01 1.180963516235351562e-01 -5.254393815994262695e-01
-3.639135658740997314e-01 1.682108193635940552e-01 4.208166599273681641e-01
-4.043940901756286621e-01 2.087819874286651611e-01 1.072815060615539551e-01
-1.727007031440734863e-01 -1.817193776369094849e-01 -6.570223569869995117e-01
-3.943621739745140076e-02 -3.800816833972930908e-01 -1.790627837181091309e-01
-3.518649637699127197e-01 2.371308356523513794e-01 -2.430708259344100952e-01
1.561459004878997803e-01 -3.605082035064697266e-01 1.062071025371551514e-01
3.377836644649505615e-01 -5.725101381540298462e-02 5.551003813743591309e-01
2.364661544561386108e-01 3.019530773162841797e-01 -3.792099952697753906e-01
4.272013306617736816e-01 1.969415992498397827e-01 7.269951701164245605e-02
-5.203568562865257263e-02 -3.207977414131164551e-01 -4.566703140735626221e-01
-1.375259160995483398e-01 -3.193350434303283691e-01 -4.133820533752441406e-01
-2.989527583122253418e-01 -2.841336727142333984e-01 2.813280522823333740e-01
2.830076217651367188e-01 2.767649590969085693e-01 -3.731111586093902588e-01
-2.918902933597564697e-01 3.116420209407806396e-01 7.353516668081283569e-02
1.807461380958557129e-01 2.823582291603088379e-01 -5.019550919532775879e-01
-1.997632682323455811e-01 3.303360641002655029e-01 3.058410882949829102e-01
4.659726470708847046e-02 -1.998775005340576172e-01 6.876541376113891602e-01
2.563176862895488739e-02 -2.721422612667083740e-01 5.742023587226867676e-01
2.098773270845413208e-01 -2.168077230453491211e-01 -5.719277262687683105e-01
-1.280124485492706299e-01 2.857894003391265869e-01 5.327169299125671387e-01
2.985538840293884277e-01 -1.667896658182144165e-01 -5.327088236808776855e-01
-2.892249226570129395e-01 -2.298817783594131470e-01 -4.483957588672637939e-01
1.874001771211624146e-01 -2.771562635898590088e-01 4.538925588130950928e-01
-4.447756409645080566e-01 1.244946420192718506e-01 2.018673568964004517e-01
-1.900156289339065552e-01 -3.631613552570343018e-01 -1.839723438024520874e-02
3.319643139839172363e-01 1.116591393947601318e-01 -5.628318786621093750e-01
2.266150116920471191e-01 2.502119243144989014e-01 -5.232151746749877930e-01
-3.365604579448699951e-02 -9.015923738479614258e-02 -7.867190241813659668e-01
-4.416362196207046509e-02 2.576929032802581787e-01 -6.113080382347106934e-01
-4.580936133861541748e-01 -1.249017864465713501e-01 -1.027786284685134888e-01
3.089692890644073486e-01 7.768782973289489746e-02 -6.181485652923583984e-01
4.479413926601409912e-01 1.530698239803314209e-01 1.148182898759841919e-01
-4.552144110202789307e-01 1.302846968173980713e-01 4.192370176315307617e-02
-5.207071453332901001e-02 3.136206865310668945e-01 5.039263367652893066e-01
-3.806849569082260132e-02 -2.138241231441497803e-01 -6.758759617805480957e-01
3.141008913516998291e-01 -2.185249924659729004e-01 -4.054277837276458740e-01
4.451113641262054443e-01 -1.148956269025802612e-01 -1.851869672536849976e-01
1.628574281930923462e-01 8.867663145065307617e-02 7.466883659362792969e-01
-7.724852859973907471e-02 -1.779940873384475708e-01 7.139169573783874512e-01
-2.734244465827941895e-01 3.719378262758255005e-02 6.792857050895690918e-01
4.771431386470794678e-01 -1.024019066244363785e-02 -1.392353028059005737e-01
1.728088557720184326e-01 -3.131393492221832275e-01 -3.761616051197052002e-01
4.065992534160614014e-01 2.012533247470855713e-01 2.103014141321182251e-01
3.602836132049560547e-01 2.721819877624511719e-01 1.014993637800216675e-01
-4.573919475078582764e-01 4.113455861806869507e-02 2.721081674098968506e-01
4.853841662406921387e-02 -3.542507886886596680e-01 3.170526921749114990e-01
-4.072488248348236084e-01 -2.120448276400566101e-02 -4.280513226985931396e-01
-4.074599444866180420e-01 -1.534435749053955078e-01 3.339543938636779785e-01
2.543897368013858795e-02 2.245963364839553833e-01 -6.708288788795471191e-01
9.759658575057983398e-02 -2.825158238410949707e-01 -5.323009490966796875e-01
4.159868359565734863e-01 2.061438262462615967e-01 1.271686255931854248e-01
-1.872394382953643799e-01 3.560496866703033447e-01 -1.453020423650741577e-01
-3.635766208171844482e-01 -2.646003663539886475e-01 6.873018294572830200e-02
1.101878136396408081e-01 -3.408150970935821533e-01 -3.400416970252990723e-01
4.362460374832153320e-01 -1.523957252502441406e-01 5.042277649044990540e-02
-4.013477563858032227e-01 -2.275445908308029175e-01 -4.915163386613130569e-03
-4.282841980457305908e-01 -1.321869641542434692e-01 -2.688745856285095215e-01
3.407748639583587646e-01 -2.017968744039535522e-01 3.585399091243743896e-01
-8.933188021183013916e-02 -2.734771370887756348e-01 -5.614722371101379395e-01
-2.334934473037719727e-02 3.632912933826446533e-01 -3.269556164741516113e-01
-2.191120237112045288e-01 -2.251867353916168213e-01 -5.545627474784851074e-01
-3.087106943130493164e-01 -3.058850467205047607e-01 7.776109129190444946e-02
5.575274676084518433e-02 1.492808908224105835e-01 7.551306486129760742e-01
1.715368479490280151e-01 -3.597015738487243652e-01 1.733722165226936340e-04
-2.547346651554107666e-01 -3.377538621425628662e-01 1.402275636792182922e-02
-4.602164924144744873e-01 -1.538104377686977386e-02 2.756232321262359619e-01
-1.882145106792449951e-01 -3.613780438899993896e-01 9.057309478521347046e-02
-1.560797989368438721e-01 2.363006584346294403e-02 7.769261002540588379e-01
-3.324916362762451172e-01 -1.863302290439605713e-01 4.684074223041534424e-01
1.860118806362152100e-01 3.702062964439392090e-01 1.041121035814285278e-01
3.496820479631423950e-02 -3.563762605190277100e-01 -3.222543299198150635e-01
-2.867198586463928223e-01 3.591763228178024292e-02 -6.409800648689270020e-01
3.120893239974975586e-01 3.022640943527221680e-01 -1.761305928230285645e-01
-1.841769665479660034e-01 -1.399306505918502808e-01 7.016950249671936035e-01
-1.342385075986385345e-02 -3.847683370113372803e-01 -1.352394819259643555e-01
-4.455697834491729736e-01 -1.061070244759321213e-02 3.396338820457458496e-01
3.927922546863555908e-01 -2.038158774375915527e-01 -1.646624058485031128e-01
2.826947569847106934e-01 -2.830338478088378906e-01 -2.676365077495574951e-01
-3.590905964374542236e-01 1.927341669797897339e-01 -3.519021868705749512e-01
-4.076564908027648926e-01 1.192514002323150635e-01 3.765702545642852783e-01
-4.324400126934051514e-01 -1.557811945676803589e-01 -1.919295638799667358e-01
2.960578203201293945e-01 2.857653200626373291e-01 -3.128054738044738770e-01
-2.581423223018646240e-01 1.195654422044754028e-01 6.546501517295837402e-01
-5.309783294796943665e-02 -3.442652225494384766e-01 -3.758831322193145752e-01
4.691905900835990906e-02 -3.102708756923675537e-01 -4.840528666973114014e-01
3.006059527397155762e-01 3.118964731693267822e-01 1.550320982933044434e-01
