-3.394086146727204323e-03 6.372463107109069824e-01 -1.559793949127197266e-02
-2.998144831508398056e-03 5.959450006484985352e-01 -2.397806011140346527e-02
-1.902408082969486713e-03 6.419162154197692871e-01 -7.275376468896865845e-03
-3.055379725992679596e-03 6.009806990623474121e-01 -2.761583216488361359e-02
-6.708716973662376404e-03 6.044769883155822754e-01 -4.373308271169662476e-02
-4.968269728124141693e-03 5.861642360687255859e-01 -2.811846323311328888e-02
-2.895312150940299034e-03 6.129339337348937988e-01 -1.338411215692758560e-02
-4.130225628614425659e-03 6.174447536468505859e-01 -3.880268335342407227e-02
-2.512892009690403938e-03 6.711416840553283691e-01 -1.477279327809810638e-02
-3.085594624280929565e-03 6.556691527366638184e-01 -3.331063687801361084e-02
-4.638223908841609955e-04 6.577554941177368164e-01 -1.551293395459651947e-02
-4.662369377911090851e-03 6.036047339439392090e-01 -4.027276486158370972e-02
-1.618547714315354824e-03 6.721736788749694824e-01 -8.624025620520114899e-03
-3.556855255737900734e-03 5.934074521064758301e-01 -2.921623736619949341e-02
-4.806372337043285370e-03 6.178348660469055176e-01 -2.443176507949829102e-02
-4.045318346470594406e-04 6.684601902961730957e-01 -1.997379586100578308e-03
-3.314072499051690102e-03 6.672356128692626953e-01 -2.063103951513767242e-02
-1.739800907671451569e-03 6.502152681350708008e-01 -2.544482052326202393e-02
-1.444230903871357441e-03 6.451377868652343750e-01 -2.288749627768993378e-02
-4.813610576093196869e-03 6.398937106132507324e-01 -2.727336250245571136e-02
-2.656810451298952103e-03 6.181046366691589355e-01 -2.884509973227977753e-02
-1.964271534234285355e-03 6.392289400100708008e-01 -2.639093063771724701e-02
-3.273388370871543884e-03 6.146289110183715820e-01 -1.491260621696710587e-02
-5.716197192668914795e-03 6.112632155418395996e-01 -4.568377882242202759e-02
3.402191214263439178e-04 6.597144007682800293e-01 -5.811303853988647461e-03
-2.635219600051641464e-03 6.328306794166564941e-01 -3.066214919090270996e-02
-4.538164474070072174e-03 6.551791429519653320e-01 -3.711812570691108704e-02
-6.210708990693092346e-03 5.921111106872558594e-01 -3.616035729646682739e-02
-2.470766892656683922e-03 6.687737703323364258e-01 -1.379275228828191757e-02
-2.594826277345418930e-03 6.024224758148193359e-01 -2.313911169767379761e-02
-5.374170839786529541e-03 6.324958801269531250e-01 -3.136548772454261780e-02
-8.331403136253356934e-03 1.174377277493476868e-01 8.149854838848114014e-03
-1.076954901218414307e-01 1.505874842405319214e-01 -2.106758020818233490e-02
-2.707680165767669678e-01 7.052495330572128296e-02 -5.373340845108032227e-02
-1.292652934789657593e-01 6.728200614452362061e-02 -5.268428102135658264e-02
-2.941403537988662720e-02 1.094732880592346191e-01 6.558027118444442749e-02
-2.212122380733489990e-01 5.868115648627281189e-02 6.618687510490417480e-02
-1.564684212207794189e-01 7.475757598876953125e-02 -7.191918790340423584e-02
-1.707992404699325562e-01 1.164955869317054749e-01 7.201936095952987671e-02
-1.362330764532089233e-01 1.437151283025741577e-01 -4.852589592337608337e-02
-6.156471371650695801e-02 6.861531734466552734e-02 1.721092872321605682e-02
-9.119044244289398193e-02 6.263059377670288086e-02 6.030115485191345215e-02
-1.694738864898681641e-02 1.340616643428802490e-01 1.131732482463121414e-02
-2.540312707424163818e-01 1.160222738981246948e-01 -8.443202823400497437e-03
-1.835180073976516724e-01 4.113819077610969543e-02 4.096142016351222992e-03
-1.511011570692062378e-01 1.163379475474357605e-01 7.861534506082534790e-02
-1.638801097869873047e-01 1.269692778587341309e-01 5.960871279239654541e-02
-1.710603833198547363e-01 4.574502632021903992e-02 -1.816721074283123016e-02
-2.812866568565368652e-01 5.544093996286392212e-02 -3.540578763931989670e-04
-3.707336634397506714e-02 8.450269699096679688e-02 5.075351148843765259e-02
-3.954835236072540283e-02 1.324821263551712036e-01 5.368433520197868347e-02
-2.895516902208328247e-02 1.196491494774818420e-01 6.137540191411972046e-02
-8.964982628822326660e-02 1.441189199686050415e-01 -4.453341662883758545e-02
-2.065945863723754883e-01 4.348077625036239624e-02 4.174067452549934387e-02
-2.135256230831146240e-01 1.310184001922607422e-01 -4.007454216480255127e-02
-8.190224319696426392e-02 1.485376209020614624e-01 2.446399256587028503e-02
-1.807056367397308350e-01 4.109800234436988831e-02 2.431437745690345764e-02
-2.851441502571105957e-01 8.311181515455245972e-02 -4.175576567649841309e-02
-1.054556891322135925e-01 1.235437840223312378e-01 -7.336058467626571655e-02
-4.353650659322738647e-02 1.245864182710647583e-01 6.623329222202301025e-02
-2.215312868356704712e-01 4.064354673027992249e-02 1.581475883722305298e-02
-4.778735339641571045e-02 8.226968348026275635e-02 -1.350545324385166168e-02
-2.192680537700653076e-01 1.302395612001419067e-01 -3.288705646991729736e-02
-7.398796826601028442e-02 1.221240013837814331e-01 -6.238516792654991150e-02
-1.260186582803726196e-01 6.217353418469429016e-02 -4.136531800031661987e-02
-2.218340337276458740e-02 9.531404078006744385e-02 2.416913397610187531e-03
-8.863959461450576782e-02 9.952615946531295776e-02 -6.682615727186203003e-02
-1.283159703016281128e-01 1.432846486568450928e-01 3.629405796527862549e-02
-2.404360473155975342e-01 1.136761456727981567e-01 -5.982902273535728455e-02
-1.042480245232582092e-01 7.131859660148620605e-02 -4.569718986749649048e-02
-1.608175337314605713e-01 1.339793205261230469e-01 4.681289196014404297e-02
-7.513937354087829590e-02 1.264953911304473877e-01 7.354298233985900879e-02
-1.403009742498397827e-01 8.814799040555953979e-02 9.475415945053100586e-02
-2.893997132778167725e-01 6.399747729301452637e-02 -1.902933977544307709e-02
-2.451550364494323730e-01 8.882302045822143555e-02 5.676772445440292358e-02
-2.074978649616241455e-01 1.321402490139007568e-01 1.112190820276737213e-02
-3.987672179937362671e-02 8.434798568487167358e-02 -5.721313878893852234e-03
-5.453633517026901245e-02 1.279270350933074951e-01 6.699609011411666870e-02
-2.632549703121185303e-01 5.397605895996093750e-02 -3.435649722814559937e-02
-1.659556478261947632e-01 9.741495549678802490e-02 8.873508870601654053e-02
-1.417876332998275757e-01 1.473797708749771118e-01 8.741251192986965179e-03
-8.011715114116668701e-02 1.498299688100814819e-01 -1.972755976021289825e-02
-3.120699524879455566e-02 9.142290800809860229e-02 -7.876163348555564880e-03
-1.432584524154663086e-01 5.699795112013816833e-02 7.317525893449783325e-02
-3.562432527542114258e-02 1.390949487686157227e-01 3.573615476489067078e-02
-2.718988060951232910e-02 1.349556893110275269e-01 3.809147328138351440e-02
-1.146409213542938232e-01 1.028119027614593506e-01 -7.824210822582244873e-02
-2.959087491035461426e-02 1.297230422496795654e-01 -2.611107565462589264e-02
-2.335292398929595947e-01 1.081707626581192017e-01 -7.175754755735397339e-02
-1.229856461286544800e-01 5.798851326107978821e-02 6.900046020746231079e-02
-2.357022464275360107e-02 1.296936869621276855e-01 -1.826157607138156891e-02
-2.035165429115295410e-01 1.195066049695014954e-01 5.045273154973983765e-02
-9.140007197856903076e-02 1.018069386482238770e-01 9.182442724704742432e-02
-2.198262214660644531e-01 4.134158045053482056e-02 -5.768960341811180115e-03
-8.852803707122802734e-02 6.055700406432151794e-02 4.925052821636199951e-02
-2.490278482437133789e-01 6.281889975070953369e-02 5.464255437254905701e-02
-2.184569835662841797e-01 1.131374835968017578e-01 5.036141350865364075e-02
-2.706468105316162109e-01 5.407217890024185181e-02 -2.732730843126773834e-02
-2.796428203582763672e-01 6.280601024627685547e-02 2.411716245114803314e-02
-1.585598587989807129e-01 1.449268907308578491e-01 7.049852050840854645e-03
-1.196824088692665100e-01 7.957214862108230591e-02 -6.502287834882736206e-02
-2.704147398471832275e-01 4.987341910600662231e-02 -3.315071342512965202e-03
-7.809676975011825562e-02 1.017061546444892883e-01 -6.249138340353965759e-02
-3.353757411241531372e-02 1.380149871110916138e-01 -1.840673387050628662e-02
-6.023044884204864502e-02 1.404380053281784058e-01 -3.837551921606063843e-02
-1.206624656915664673e-01 1.290055215358734131e-01 -7.271685451269149780e-02
-2.124750316143035889e-01 7.195214927196502686e-02 -7.417834550142288208e-02
-1.115613877773284912e-01 5.766501650214195251e-02 6.204603239893913269e-02
-1.610270589590072632e-01 6.004380062222480774e-02 7.931379228830337524e-02
-1.763505637645721436e-01 1.292283535003662109e-01 -6.980291754007339478e-02
-2.566200196743011475e-01 1.134231314063072205e-01 3.272721078246831894e-04
-7.732784748077392578e-02 6.377047300338745117e-02 4.620556160807609558e-02
-2.680506110191345215e-01 5.021749064326286316e-02 -1.527827605605125427e-02
-3.042400628328323364e-02 9.213391691446304321e-02 5.583185702562332153e-02
-1.469392776489257812e-01 5.491384863853454590e-02 -3.578056022524833679e-02
-1.261198222637176514e-01 9.477907419204711914e-02 9.490610659122467041e-02
-1.334327459335327148e-02 1.070284247398376465e-01 4.291120171546936035e-02
-2.629348933696746826e-01 9.481517970561981201e-02 -6.178507581353187561e-02
-1.324880421161651611e-01 1.121186539530754089e-01 -8.290222287178039551e-02
-2.374303638935089111e-01 4.286643117666244507e-02 2.133179455995559692e-02
-5.949580669403076172e-02 1.032805591821670532e-01 8.353068679571151733e-02
-3.001134097576141357e-02 8.628214895725250244e-02 3.777664154767990112e-02
-2.904846072196960449e-01 8.653526008129119873e-02 -9.838787838816642761e-03
-7.878343760967254639e-02 6.154149398207664490e-02 2.586477063596248627e-02
-3.813946992158889771e-02 8.859124779701232910e-02 6.099557504057884216e-02
-2.106556147336959839e-01 8.094490319490432739e-02 -8.065231144428253174e-02
-6.560013443231582642e-02 7.202677428722381592e-02 -1.069918554276227951e-02
-1.259238719940185547e-01 4.915824532508850098e-02 8.111070841550827026e-03
-2.516944408416748047e-01 4.452906176447868347e-02 1.023259852081537247e-02
-1.918742209672927856e-01 9.539061039686203003e-02 -8.667215704917907715e-02
-2.133847773075103760e-02 1.278590857982635498e-01 4.533069208264350891e-02
-1.210888475179672241e-01 1.490098536014556885e-01 -2.980644442141056061e-02
-2.290190458297729492e-01 4.582457616925239563e-02 4.086228460073471069e-02
-3.340446203947067261e-02 8.587795495986938477e-02 3.789325011894106865e-03
-1.996194720268249512e-01 1.284344494342803955e-01 3.376908600330352783e-02
-2.241555899381637573e-01 1.233590021729469299e-01 -5.450531467795372009e-02
-4.934424161911010742e-02 7.420147210359573364e-02 1.930242590606212616e-02
-1.557977050542831421e-01 4.494957625865936279e-02 4.036366939544677734e-02
-1.956363022327423096e-02 1.039494797587394714e-01 -8.824274875223636627e-03
-2.600893378257751465e-01 5.418414622545242310e-02 3.633246570825576782e-02
-7.225646078586578369e-02 1.450398117303848267e-01 3.703498840332031250e-02
-1.058555096387863159e-01 1.067350506782531738e-01 9.128689020872116089e-02
-1.734969913959503174e-01 5.301327630877494812e-02 -4.190244898200035095e-02
-1.191939711570739746e-01 8.646114170551300049e-02 -7.128553837537765503e-02
-1.179585009813308716e-01 6.944902241230010986e-02 -5.057276412844657898e-02
-2.715890109539031982e-02 1.395510435104370117e-01 1.924065686762332916e-02
-9.312276542186737061e-02 9.064984321594238281e-02 9.222024679183959961e-02
-2.601341009140014648e-01 1.110505685210227966e-01 -3.816473484039306641e-02
-1.128641739487648010e-01 5.182320252060890198e-02 1.293832343071699142e-02
-1.279357969760894775e-01 5.374592170119285583e-02 -1.958679594099521637e-02
-1.120790317654609680e-01 1.166952475905418396e-01 -7.763799279928207397e-02
-1.311450153589248657e-01 8.553140610456466675e-02 9.489297121763229370e-02
-1.087866276502609253e-01 1.243103146553039551e-01 7.709418982267379761e-02
-8.342378586530685425e-02 1.097445711493492126e-01 8.800894021987915039e-02
-1.162723004817962646e-01 1.509000062942504883e-01 -1.191218942403793335e-02
-8.201383054256439209e-02 1.203991025686264038e-01 -6.653176993131637573e-02
-2.494218051433563232e-01 1.028088554739952087e-01 3.886101394891738892e-02
-2.488192170858383179e-01 1.137557625770568848e-01 1.614741608500480652e-02
-2.366538643836975098e-01 7.524386048316955566e-02 -7.276980578899383545e-02
-1.291184127330780029e-01 5.024948343634605408e-02 -5.226816982030868530e-03
-2.471136748790740967e-01 1.090547814965248108e-01 3.043617494404315948e-02
-1.250978410243988037e-01 1.427046060562133789e-01 -5.252064391970634460e-02
-4.269939661026000977e-02 1.329092383384704590e-01 -3.604067116975784302e-02
-6.960486620664596558e-02 1.328221857547760010e-01 -5.373768135905265808e-02
-1.577675938606262207e-01 6.953019648790359497e-02 8.802206069231033325e-02
-6.684973090887069702e-02 8.855026960372924805e-02 -4.436883330345153809e-02
-2.055982798337936401e-01 6.598946452140808105e-02 7.723616808652877808e-02
-1.310091316699981689e-01 5.207866057753562927e-02 5.687584355473518372e-02
-2.401720434427261353e-01 7.430176436901092529e-02 6.413128972053527832e-02
-2.051250636577606201e-01 1.042623966932296753e-01 6.960384547710418701e-02
-2.172947824001312256e-01 9.508933126926422119e-02 -8.318141102790832520e-02
-2.680147886276245117e-01 5.664681643247604370e-02 3.182069957256317139e-02
-1.439916491508483887e-01 6.168010830879211426e-02 8.034697920083999634e-02
-1.663315594196319580e-01 1.440688818693161011e-01 -2.871400676667690277e-02
-1.314510554075241089e-01 1.496919542551040649e-01 -4.539536312222480774e-03
-2.840307354927062988e-01 6.209169700741767883e-02 -2.837547101080417633e-02
-6.372666358947753906e-02 1.059160381555557251e-01 -5.588432773947715759e-02
-1.612255126237869263e-01 1.453201323747634888e-01 -1.585523830726742744e-03
-2.177570909261703491e-01 7.732830941677093506e-02 7.587376981973648071e-02
-1.757817566394805908e-01 1.407710164785385132e-01 1.141726505011320114e-02
-5.138681083917617798e-02 7.430290430784225464e-02 9.032080881297588348e-03
-9.578901529312133789e-02 1.336241513490676880e-01 6.466036289930343628e-02
-2.169612944126129150e-01 6.653147190809249878e-02 7.349503040313720703e-02
-1.433061063289642334e-02 1.117341890931129456e-01 -6.505612283945083618e-03
-1.991874277591705322e-01 9.138689190149307251e-02 8.079031109809875488e-02
-2.274206578731536865e-01 1.249186992645263672e-01 1.135820243507623672e-02
-1.600199043750762939e-01 9.142934530973434448e-02 -8.439367264509201050e-02
-1.848601996898651123e-01 1.181425005197525024e-01 6.366167962551116943e-02
-9.497874230146408081e-02 1.272571980953216553e-01 7.400398701429367065e-02
-1.472047120332717896e-01 1.182496994733810425e-01 -8.257976919412612915e-02
-9.917356818914413452e-02 7.504281401634216309e-02 8.535289764404296875e-02
-1.582891345024108887e-01 1.024378091096878052e-01 -8.672553300857543945e-02
-4.917760193347930908e-02 1.272290199995040894e-01 -4.562330618500709534e-02
-2.679470181465148926e-01 8.757887035608291626e-02 3.665135055780410767e-02
-2.155420035123825073e-01 1.299030184745788574e-01 8.713580667972564697e-03
-1.347641199827194214e-01 1.347969323396682739e-01 -6.718556582927703857e-02
-1.378166228532791138e-01 4.755462706089019775e-02 4.098796099424362183e-02
-7.723724842071533203e-02 7.189469039440155029e-02 -2.485843934118747711e-02
-7.580701261758804321e-02 6.611056625843048096e-02 -4.662241786718368530e-03
-2.759420871734619141e-01 5.365116894245147705e-02 -1.669849269092082977e-02
-1.021945327520370483e-01 1.036074310541152954e-01 -7.421331107616424561e-02
-2.502633333206176758e-01 4.517519101500511169e-02 1.947872899472713470e-02
-1.464687138795852661e-01 1.109187975525856018e-01 8.476556837558746338e-02
-8.357077836990356445e-02 1.367882788181304932e-01 -5.536470934748649597e-02
-2.052590101957321167e-01 1.103196591138839722e-01 6.301400810480117798e-02
-2.178056538105010986e-01 1.185307204723358154e-01 -6.850770115852355957e-02
-2.217928767204284668e-01 1.280848085880279541e-01 -4.089099168777465820e-02
-1.022472456097602844e-01 6.323207169771194458e-02 -2.680527605116367340e-02
-6.531540304422378540e-02 1.462778449058532715e-01 -2.691000141203403473e-02
-6.798851490020751953e-02 1.500376164913177490e-01 3.500496037304401398e-03
-2.650817036628723145e-01 1.017841100692749023e-01 -5.249984934926033020e-02
-9.263955056667327881e-02 5.973731726408004761e-02 -3.084589028730988503e-03
-1.714695990085601807e-02 1.294282078742980957e-01 3.609452769160270691e-02
-2.655712962150573730e-01 6.136061996221542358e-02 4.003563895821571350e-02
-6.891243159770965576e-02 8.091207593679428101e-02 -3.512175753712654114e-02
-5.656059086322784424e-02 1.166626363992691040e-01 7.792105525732040405e-02
-9.170275181531906128e-02 1.129565387964248657e-01 -7.150576263666152954e-02
-1.525817811489105225e-01 4.455739632248878479e-02 4.648064728826284409e-03
-1.873737871646881104e-01 6.242663040757179260e-02 -6.241701915860176086e-02
-1.969942748546600342e-01 4.879446700215339661e-02 -3.649824112653732300e-02
-1.770659089088439941e-01 1.288439333438873291e-01 4.925254359841346741e-02
-4.914049059152603149e-02 9.640417248010635376e-02 -3.801912814378738403e-02
-1.871061772108078003e-01 1.404244303703308105e-01 -1.598913967609405518e-02
-1.624606102705001831e-01 1.395007371902465820e-01 2.998858690261840820e-02
-2.649857997894287109e-01 1.100666001439094543e-01 -2.506752870976924896e-02
-3.793394565582275391e-02 1.176106482744216919e-01 -3.917080909013748169e-02
-2.816497087478637695e-01 6.714604049921035767e-02 -4.006516560912132263e-02
-2.029570341110229492e-01 4.583316296339035034e-02 5.036094412207603455e-02
-1.571121811866760254e-02 1.221708953380584717e-01 -1.097835972905158997e-02
-1.303509026765823364e-01 1.475611180067062378e-01 1.720649376511573792e-02
-2.743370532989501953e-01 5.572195723652839661e-02 2.122120745480060577e-02
-1.261239349842071533e-01 1.356556117534637451e-01 5.656422674655914307e-02
-1.360219866037368774e-01 1.116297841072082520e-01 8.614400029182434082e-02
-2.574160397052764893e-01 6.633505225181579590e-02 5.039539933204650879e-02
-9.654541313648223877e-02 1.232270896434783936e-01 -7.091378420591354370e-02
-8.052849769592285156e-02 7.770846784114837646e-02 -3.961766511201858521e-02
-9.945380687713623047e-02 1.482940912246704102e-01 2.542533725500106812e-02
-2.155788242816925049e-01 4.095786437392234802e-02 2.467893809080123901e-02
-7.217332720756530762e-02 6.581265479326248169e-02 4.081340972334146500e-03
-2.860387563705444336e-01 7.334549725055694580e-02 1.855007372796535492e-02
-1.936461329460144043e-01 4.063734784722328186e-02 3.066075732931494713e-03
-1.922789067029953003e-01 4.259667918086051941e-02 -1.195469126105308533e-02
-2.307285368442535400e-02 1.068886369466781616e-01 -1.797030679881572723e-02
-1.493372917175292969e-01 1.474740654230117798e-01 -4.941921681165695190e-03
-1.965763270854949951e-01 1.133454293012619019e-01 6.406740099191665649e-02
-1.012007072567939758e-01 8.032570034265518188e-02 -5.701746046543121338e-02
-2.735704779624938965e-01 1.036070734262466431e-01 -2.947779558598995209e-02
-2.316623032093048096e-01 1.251778155565261841e-01 -3.657457232475280762e-02
-1.801179647445678711e-01 1.314242035150527954e-01 4.135106503963470459e-02
-2.790686786174774170e-01 7.041386514902114868e-02 2.940847910940647125e-02
-2.639446854591369629e-01 7.335633039474487305e-02 4.641332849860191345e-02
-1.688304543495178223e-02 1.025179326534271240e-01 -6.413699593394994736e-04
-1.302303522825241089e-01 1.488693952560424805e-01 8.188826963305473328e-03
-1.122385784983634949e-01 5.331822857260704041e-02 4.526240006089210510e-02
-2.881223559379577637e-01 8.668925613164901733e-02 -3.191192448139190674e-02
-1.064111441373825073e-01 1.295122206211090088e-01 7.045836001634597778e-02
-9.730331599712371826e-02 1.475894153118133545e-01 -3.635913133621215820e-02
-1.490968763828277588e-01 5.288589373230934143e-02 6.615164130926132202e-02
-9.277427196502685547e-02 7.145977765321731567e-02 7.889173924922943115e-02
-9.834980964660644531e-02 5.543538928031921387e-02 3.087741695344448090e-02
-1.061471328139305115e-01 1.149612739682197571e-01 8.624361455440521240e-02
-1.603897213935852051e-01 1.353702843189239502e-01 -6.334889680147171021e-02
-1.438890397548675537e-01 1.312158405780792236e-01 5.982932820916175842e-02
-2.789581418037414551e-01 7.922154664993286133e-02 2.832513861358165741e-02
-1.656783968210220337e-01 8.146246522665023804e-02 -7.956754416227340698e-02
-1.173035204410552979e-01 1.465833038091659546e-01 2.833140082657337189e-02
-9.854581952095031738e-02 5.606210604310035706e-02 9.163375012576580048e-03
-2.795989513397216797e-01 5.591280013322830200e-02 1.043105125427246094e-02
-1.984893381595611572e-01 1.354356855154037476e-01 8.177462965250015259e-03
-1.704162806272506714e-01 1.182568147778511047e-01 -8.228246122598648071e-02
-2.301205098628997803e-01 5.689679831266403198e-02 6.041773036122322083e-02
-2.379857748746871948e-01 9.707798808813095093e-02 -7.618094980716705322e-02
-4.796602576971054077e-02 1.467739343643188477e-01 8.742387406527996063e-03
-1.684421598911285400e-01 9.992896020412445068e-02 -8.723127096891403198e-02
-2.095129638910293579e-01 1.302337944507598877e-01 -4.879792034626007080e-02
-2.420318424701690674e-01 6.414479017257690430e-02 -6.128641590476036072e-02
-2.392074465751647949e-02 1.158513501286506653e-01 -2.387930080294609070e-02
-1.779963225126266479e-01 5.433069542050361633e-02 7.099767774343490601e-02
-7.115330547094345093e-02 7.076855748891830444e-02 6.280166655778884888e-02
-1.148186177015304565e-01 9.070257097482681274e-02 9.495672583580017090e-02
-1.772958785295486450e-01 1.424050927162170410e-01 -6.096651777625083923e-03
-2.676381170749664307e-02 8.960960060358047485e-02 8.756777271628379822e-03
-1.079989448189735413e-01 1.473195403814315796e-01 2.806811034679412842e-02
-2.691668570041656494e-01 1.065283492207527161e-01 -4.597608000040054321e-03
-8.853677660226821899e-02 6.432658433914184570e-02 -1.599418744444847107e-02
-1.502739191055297852e-01 6.823677569627761841e-02 -6.235306337475776672e-02
-6.960403174161911011e-02 1.497491002082824707e-01 -1.124368142336606979e-02
-2.063594758510589600e-01 4.004073143005371094e-02 1.405477058142423630e-02
-2.702236771583557129e-01 8.613030612468719482e-02 -5.895528569817543030e-02
-1.375199407339096069e-01 6.200174987316131592e-02 -4.708016291260719299e-02
-6.455986946821212769e-02 1.301583349704742432e-01 6.694681197404861450e-02
-1.853937506675720215e-01 1.402957141399383545e-01 -2.778902882710099220e-03
-2.486014664173126221e-01 9.659092128276824951e-02 4.753597825765609741e-02
-2.567594051361083984e-01 8.371152728796005249e-02 5.025817453861236572e-02
-9.902285039424896240e-02 5.607995018362998962e-02 4.081885889172554016e-02
-1.940956115722656250e-01 7.143925130367279053e-02 -7.391236722469329834e-02
-2.335869371891021729e-01 9.500402957201004028e-02 6.067837774753570557e-02
-2.504902482032775879e-01 9.816901385784149170e-02 -6.904727220535278320e-02
-6.665050238370895386e-02 6.623534858226776123e-02 3.101778775453567505e-02
-2.383473217487335205e-01 5.731396377086639404e-02 -5.252433195710182190e-02
-1.565897166728973389e-01 1.434484720230102539e-01 1.833421178162097931e-02
-2.719672024250030518e-01 1.023454889655113220e-01 5.284199956804513931e-03
-1.164379939436912537e-01 1.198276206851005554e-01 8.134979009628295898e-02
-1.778942644596099854e-01 9.167160093784332275e-02 -8.600010722875595093e-02
-1.692262142896652222e-01 1.220376491546630859e-01 6.524074077606201172e-02
-1.185059249401092529e-01 7.223543524742126465e-02 8.764359354972839355e-02
-2.566641867160797119e-01 1.053258478641510010e-01 2.577291987836360931e-02
-2.682069242000579834e-01 9.486019611358642578e-02 2.817000262439250946e-02
-5.579619109630584717e-02 8.942893892526626587e-02 7.746016979217529297e-02
-2.347432523965835571e-01 6.743563711643218994e-02 6.567589938640594482e-02
-8.968950808048248291e-02 7.761128246784210205e-02 -4.627045243978500366e-02
-1.677336990833282471e-01 4.988649487495422363e-02 -3.146036341786384583e-02
-2.333365380764007568e-01 4.580404236912727356e-02 -2.552239596843719482e-02
-2.041851282119750977e-01 4.056850448250770569e-02 2.358865458518266678e-04
-1.513893902301788330e-01 1.391799449920654297e-01 3.808943927288055420e-02
-3.821898251771926880e-02 1.442721486091613770e-01 9.208058938384056091e-03
-2.359736561775207520e-01 1.129051297903060913e-01 3.515904769301414490e-02
-2.337685376405715942e-01 1.184820756316184998e-01 2.436438202857971191e-02
-1.060337051749229431e-01 9.829755872488021851e-02 9.396570175886154175e-02
-2.764226794242858887e-01 7.785477489233016968e-02 -5.290925130248069763e-02
-1.013139188289642334e-01 8.944553881883621216e-02 -6.621345877647399902e-02
-1.930890083312988281e-01 1.255520284175872803e-01 4.591807350516319275e-02
-2.752501070499420166e-01 9.490505605936050415e-02 1.696590520441532135e-02
-1.963900029659271240e-01 1.149055585265159607e-01 -8.048453927040100098e-02
-1.972885727882385254e-01 6.345005333423614502e-02 -6.480638682842254639e-02
-1.575940400362014771e-01 1.463607549667358398e-01 -1.437500491738319397e-02
-1.629897952079772949e-02 1.309045553207397461e-01 -2.115149283781647682e-03
-2.530261576175689697e-01 7.551055401563644409e-02 -6.724992394447326660e-02
-2.436710298061370850e-01 4.288109019398689270e-02 3.291736822575330734e-03
-1.025552898645401001e-01 8.743634074926376343e-02 9.315501153469085693e-02
-1.423355638980865479e-01 1.269126534461975098e-01 6.754848361015319824e-02
-3.522293269634246826e-02 1.349511593580245972e-01 4.604074358940124512e-02
-1.117427796125411987e-01 1.372761428356170654e-01 -6.191841140389442444e-02
-1.829831153154373169e-01 1.349100321531295776e-01 2.905791252851486206e-02
-2.167564183473587036e-01 4.640039429068565369e-02 -3.045595996081829071e-02
-2.019626498222351074e-01 5.423090979456901550e-02 6.723133474588394165e-02
-1.703854799270629883e-01 1.409783512353897095e-01 -4.317863658070564270e-02
-2.194408029317855835e-01 4.509869962930679321e-02 4.321793839335441589e-02
-2.622235417366027832e-01 7.241363078355789185e-02 -6.071404740214347839e-02
-2.624048590660095215e-01 1.064150109887123108e-01 1.389264035969972610e-02
-6.016341596841812134e-02 1.471870839595794678e-01 -1.871957629919052124e-02
-2.465528547763824463e-01 4.643195495009422302e-02 -2.176164649426937103e-02
-1.718597561120986938e-01 1.079746335744857788e-01 8.031474798917770386e-02
-1.322500705718994141e-01 5.882902815937995911e-02 7.384037971496582031e-02
-2.069327235221862793e-01 1.342258155345916748e-01 -1.406977185979485512e-03
-8.024068921804428101e-02 6.783584505319595337e-02 -1.718588918447494507e-02
-6.427413225173950195e-02 7.993481308221817017e-02 7.355607300996780396e-02
-1.629746109247207642e-01 7.804431021213531494e-02 9.128818660974502563e-02
-3.130685538053512573e-02 1.294826716184616089e-01 5.271349102258682251e-02
-2.672386765480041504e-01 5.017223581671714783e-02 1.595886051654815674e-02
-6.310725957155227661e-02 1.482461988925933838e-01 1.866726763546466827e-02
-8.327384293079376221e-02 1.371787786483764648e-01 5.810268595814704895e-02
-1.205500364303588867e-01 1.488002091646194458e-01 1.568104140460491180e-02
-8.727520704269409180e-03 1.238882318139076233e-01 2.131206542253494263e-02
-1.682541966438293457e-01 1.408891081809997559e-01 1.949329115450382233e-02
-2.484316080808639526e-01 1.192775890231132507e-01 -2.160888537764549255e-02
-2.257948815822601318e-01 9.919248521327972412e-02 -8.020746707916259766e-02
-9.250682592391967773e-02 1.300813853740692139e-01 -6.534072756767272949e-02
-1.098711788654327393e-02 1.264959722757339478e-01 6.144696846604347229e-03
-1.119534075260162354e-01 1.386490166187286377e-01 5.327558517456054688e-02
-5.516351014375686646e-02 1.409023404121398926e-01 4.383850097656250000e-02
-1.941600739955902100e-01 8.657649159431457520e-02 -8.428080379962921143e-02
-1.073593646287918091e-01 5.288445577025413513e-02 2.011601254343986511e-02
-1.996730417013168335e-01 1.368607282638549805e-01 -7.020953111350536346e-03
-2.572103738784790039e-01 4.804977402091026306e-02 2.374829165637493134e-02
-2.697368562221527100e-01 7.948856055736541748e-02 3.957830742001533508e-02
-1.192700266838073730e-01 4.996462538838386536e-02 2.573770843446254730e-02
-2.109062671661376953e-02 1.116197332739830017e-01 5.707138776779174805e-02
-2.913138270378112793e-01 8.197014778852462769e-02 -7.385963108390569687e-04
-2.281920462846755981e-01 1.143999844789505005e-01 3.995361551642417908e-02
-7.112515717744827271e-02 9.872474521398544312e-02 -5.669870227575302124e-02
-1.520884931087493896e-01 4.438006505370140076e-02 3.156913444399833679e-02
-1.036522313952445984e-01 5.650690943002700806e-02 5.078947171568870544e-02
-2.262397408485412598e-01 7.372408360242843628e-02 7.166640460491180420e-02
-1.039567813277244568e-01 1.359310597181320190e-01 5.999892577528953552e-02
-2.396426647901535034e-01 4.838450625538825989e-02 -3.213461488485336304e-02
-2.112063914537429810e-01 4.123739525675773621e-02 -6.352141499519348145e-03
-6.988108903169631958e-02 6.491182744503021240e-02 2.233321219682693481e-02
-2.433304786682128906e-01 1.209915280342102051e-01 -3.110458515584468842e-02
-1.766552776098251343e-01 4.701622948050498962e-02 -2.564868517220020294e-02
-2.433497607707977295e-01 8.235237002372741699e-02 -7.405952364206314087e-02
-6.757464259862899780e-02 9.394650906324386597e-02 8.560654520988464355e-02
-1.727609336376190186e-01 4.286802560091018677e-02 -3.333665663376450539e-03
-1.544895172119140625e-01 4.772974178194999695e-02 -1.665000990033149719e-02
-5.248084664344787598e-02 1.453731060028076172e-01 2.678580954670906067e-02
-2.331536859273910522e-01 4.149375110864639282e-02 4.841612651944160461e-03
-4.333836585283279419e-02 8.013603836297988892e-02 1.511987531557679176e-03
-1.281476616859436035e-01 1.274297833442687988e-01 7.030554115772247314e-02
-1.165735721588134766e-02 1.036026477813720703e-01 1.763427071273326874e-02
-7.983826100826263428e-02 1.507189124822616577e-01 7.461899891495704651e-03
-5.571775883436203003e-02 1.483694165945053101e-01 4.325176123529672623e-04
-1.692712008953094482e-01 4.184959083795547485e-02 2.016085572540760040e-02
-1.856489181518554688e-01 1.230832934379577637e-01 5.541015043854713440e-02
-1.540919393301010132e-01 1.465797424316406250e-01 -2.256663702428340912e-02
-1.314478963613510132e-01 5.721583962440490723e-02 -3.286544978618621826e-02
-1.270222216844558716e-01 7.463314384222030640e-02 -6.231723353266716003e-02
-1.234474256634712219e-01 1.059396266937255859e-01 -8.122172206640243530e-02
-2.377207279205322266e-01 4.403265938162803650e-02 -1.564543507993221283e-02
-1.594221591949462891e-02 9.794472903013229370e-02 3.034576214849948883e-02
-2.015140056610107422e-01 9.283231943845748901e-02 -8.557303249835968018e-02
-1.035548821091651917e-01 6.397169828414916992e-02 7.211182266473770142e-02
-1.657501459121704102e-01 6.119762361049652100e-02 -5.612569674849510193e-02
-2.897015810012817383e-01 7.337237894535064697e-02 -3.257142379879951477e-02
-2.094459235668182373e-01 1.059007868170738220e-01 -8.255755901336669922e-02
-2.196845412254333496e-01 4.043466225266456604e-02 7.350998930633068085e-03
-4.831632226705551147e-02 8.721809089183807373e-02 -2.463143691420555115e-02
-1.093496680259704590e-01 6.372804939746856689e-02 -3.384543582797050476e-02
-4.044874757528305054e-02 8.714540302753448486e-02 -1.385780051350593567e-02
-2.009380459785461426e-01 1.326471269130706787e-01 1.829687133431434631e-02
-2.039867043495178223e-01 1.359376907348632812e-01 -1.474850252270698547e-02
-2.184150516986846924e-01 4.883276298642158508e-02 5.312862619757652283e-02
-9.342148900032043457e-02 1.502590924501419067e-01 -2.251785807311534882e-02
-1.204818710684776306e-01 1.467364430427551270e-01 -4.068920761346817017e-02
-1.522554606199264526e-01 8.204775303602218628e-02 -7.753471285104751587e-02
-1.271257847547531128e-01 1.500276327133178711e-01 -1.591186970472335815e-02
-6.565387547016143799e-02 6.943122297525405884e-02 -6.927892100065946579e-04
-1.878587305545806885e-01 8.493657410144805908e-02 8.637686073780059814e-02
-2.020767629146575928e-01 7.973405718803405762e-02 8.210028707981109619e-02
-1.931332349777221680e-01 7.791693508625030518e-02 8.488874137401580811e-02
-8.859772980213165283e-02 5.890762805938720703e-02 1.161138247698545456e-02
-1.908647119998931885e-01 1.254448741674423218e-01 -7.083883881568908691e-02
-2.933495640754699707e-01 7.320529222488403320e-02 -2.682325663045048714e-03
-2.811366915702819824e-01 9.770422428846359253e-02 -9.124202653765678406e-03
-1.582995653152465820e-01 4.659639298915863037e-02 5.002507939934730530e-02
-2.098094969987869263e-01 5.157578364014625549e-02 -4.454667493700981140e-02
-4.913669824600219727e-02 8.323492109775543213e-02 6.516914814710617065e-02
-1.388328224420547485e-01 1.283387541770935059e-01 -7.494580000638961792e-02
-1.309209614992141724e-01 4.753440245985984802e-02 2.598210610449314117e-02
-2.275738418102264404e-01 5.738393962383270264e-02 -5.476335808634757996e-02
-2.362669408321380615e-01 5.330915376543998718e-02 5.266175046563148499e-02
-1.060799509286880493e-01 1.510896384716033936e-01 3.199438098818063736e-03
-2.500375211238861084e-01 5.605288594961166382e-02 -4.643313959240913391e-02
-1.736869513988494873e-01 4.558025673031806946e-02 5.036377534270286560e-02
-1.089032441377639771e-01 1.490299999713897705e-01 1.938834413886070251e-02
-1.410015225410461426e-01 7.616262137889862061e-02 9.210176020860671997e-02
-2.514785826206207275e-01 4.848214611411094666e-02 3.187126666307449341e-02
-1.199077367782592773e-01 6.375656276941299438e-02 7.831178605556488037e-02
-2.940333485603332520e-01 7.585899531841278076e-02 -1.557113230228424072e-02
-8.293756842613220215e-02 8.512260019779205322e-02 -5.183646455407142639e-02
-3.966395556926727295e-02 1.435166597366333008e-01 -8.643986657261848450e-03
-2.253903001546859741e-01 1.132895797491073608e-01 -7.101223617792129517e-02
-1.545567661523818970e-01 6.247153878211975098e-02 -5.485174432396888733e-02
-2.356184422969818115e-01 5.063360556960105896e-02 -3.954741358757019043e-02
-1.951892673969268799e-01 4.492484033107757568e-02 -2.352402918040752411e-02
-8.986821770668029785e-02 8.591939508914947510e-02 -5.699184536933898926e-02
-1.604299694299697876e-01 4.289902746677398682e-02 2.411739528179168701e-02
-1.107926592230796814e-01 7.023669779300689697e-02 8.395673334598541260e-02
-5.179395526647567749e-02 1.470976769924163818e-01 -7.608278654515743256e-03
-2.514890730381011963e-01 4.583499208092689514e-02 -1.451666094362735748e-02
-1.969105005264282227e-01 4.313565045595169067e-02 4.188671708106994629e-02
-1.335763335227966309e-01 7.077211886644363403e-02 8.849298954010009766e-02
-7.345020025968551636e-02 7.934881746768951416e-02 7.868336141109466553e-02
-2.449037134647369385e-02 1.385574191808700562e-01 4.157157614827156067e-03
-1.063859611749649048e-01 1.427823752164840698e-01 4.391073808073997498e-02
-1.407233327627182007e-01 5.006602779030799866e-02 5.521751567721366882e-02
-2.139223814010620117e-01 1.230621859431266785e-01 3.447674587368965149e-02
-2.448833286762237549e-01 1.201469749212265015e-01 -4.670214839279651642e-03
-2.007098793983459473e-01 7.698290795087814331e-02 -7.872436940670013428e-02
-1.424172520637512207e-01 7.437941431999206543e-02 -6.762180477380752563e-02
-7.919426262378692627e-02 1.005716547369956970e-01 8.978375792503356934e-02
-2.743783295154571533e-01 9.876482188701629639e-02 -4.308061674237251282e-02
-1.721283942461013794e-01 5.674326792359352112e-02 -4.966619610786437988e-02
-4.382175952196121216e-02 7.686213403940200806e-02 2.655377611517906189e-02
-2.898248434066772461e-01 6.561263650655746460e-02 4.807311110198497772e-03
-8.262986689805984497e-02 1.472092568874359131e-01 -3.325550630688667297e-02
-4.577881097793579102e-02 1.175782680511474609e-01 7.302196323871612549e-02
-5.635734647512435913e-02 7.087387144565582275e-02 3.450645506381988525e-02
-7.210355997085571289e-02 7.442548871040344238e-02 7.107312232255935669e-02
-1.149419993162155151e-01 1.432689726352691650e-01 -5.103357881307601929e-02
-2.144242823123931885e-01 1.010515689849853516e-01 6.749559938907623291e-02
-1.451785266399383545e-01 9.506275504827499390e-02 -8.342185616493225098e-02
-1.919211745262145996e-01 4.028024524450302124e-02 1.640114001929759979e-02
-1.979193240404129028e-01 5.813321098685264587e-02 -5.676682293415069580e-02
-1.230092942714691162e-01 1.120189428329467773e-01 8.751033246517181396e-02
-2.284010052680969238e-01 1.278309822082519531e-01 -1.601659506559371948e-02
-1.617268919944763184e-01 6.659996509552001953e-02 -6.337023526430130005e-02
-7.687639445066452026e-02 1.508665382862091064e-01 -2.140242839232087135e-03
-8.110150694847106934e-03 1.113181188702583313e-01 2.665399573743343353e-02
-1.937872916460037231e-01 5.452691391110420227e-02 -4.962233081459999084e-02
-2.017827779054641724e-01 1.363307386636734009e-01 -2.515210956335067749e-02
-6.041357666254043579e-02 7.009789347648620605e-02 4.356554150581359863e-02
-1.897082626819610596e-01 5.196119099855422974e-02 6.598720699548721313e-02
-2.797992229461669922e-01 9.941828250885009766e-02 -1.931085251271724701e-02
-3.610705584287643433e-02 1.188173368573188782e-01 6.698729842901229858e-02
-1.449836641550064087e-01 1.431134492158889771e-01 2.854332514107227325e-02
-2.467230856418609619e-01 5.556626617908477783e-02 4.930148646235466003e-02
-1.749576628208160400e-01 1.371753960847854614e-01 -5.369721725583076477e-02
-1.098886653780937195e-01 9.422808885574340820e-02 -7.310646772384643555e-02
-2.029777318239212036e-01 4.084825888276100159e-02 2.779816463589668274e-02
-1.812361180782318115e-01 1.098514720797538757e-01 -8.567602932453155518e-02
-2.057725340127944946e-01 5.549446120858192444e-02 -5.253507196903228760e-02
-8.265909552574157715e-02 6.045433133840560913e-02 3.376208618283271790e-02
-1.788303405046463013e-01 8.009171485900878906e-02 -8.016107976436614990e-02
-1.384626775979995728e-01 4.615079611539840698e-02 1.635071635246276855e-02
-1.154185906052589417e-01 5.997862294316291809e-02 -2.893340773880481720e-02
-2.938720583915710449e-02 1.099683195352554321e-01 -2.842096053063869476e-02
-7.870804518461227417e-02 1.428059935569763184e-01 4.482264816761016846e-02
-2.686542868614196777e-01 1.048596352338790894e-01 -3.989874944090843201e-02
-2.184891402721405029e-01 1.313956677913665771e-01 -1.668874733150005341e-02
-8.850070834159851074e-02 5.835378542542457581e-02 2.057610638439655304e-02
-4.563061147928237915e-02 1.095213741064071655e-01 -4.413275048136711121e-02
-1.595084220170974731e-01 4.487506300210952759e-02 -5.882513709366321564e-03
-8.377832919359207153e-02 7.234042137861251831e-02 7.548465579748153687e-02
-9.923662245273590088e-02 1.456578969955444336e-01 3.603992238640785217e-02
-1.425182670354843140e-01 4.545017704367637634e-02 2.536820434033870697e-02
-2.210735082626342773e-01 4.441084340214729309e-02 -2.279425226151943207e-02
-2.072527855634689331e-01 6.136590614914894104e-02 -6.223103031516075134e-02
-1.365677267313003540e-01 1.397609859704971313e-01 4.349666461348533630e-02
-9.985654056072235107e-02 1.426155567169189453e-01 -5.047503486275672913e-02
-1.644190698862075806e-01 5.220105126500129700e-02 6.708045303821563721e-02
-2.050525248050689697e-01 1.203035041689872742e-01 -7.233149558305740356e-02
-2.379808872938156128e-01 1.221587359905242920e-01 2.970356959849596024e-03
-2.452668845653533936e-01 5.157352611422538757e-02 -3.873218968510627747e-02
-2.380908429622650146e-01 4.252032935619354248e-02 -4.014353267848491669e-03
-7.440328598022460938e-03 1.135401129722595215e-01 1.834614947438240051e-02
-2.444780468940734863e-01 7.152725011110305786e-02 -6.781070679426193237e-02
-1.765044480562210083e-01 1.427950561046600342e-01 -1.755014993250370026e-02
-1.839353442192077637e-01 9.892969578504562378e-02 8.268378674983978271e-02
-2.623636126518249512e-01 5.742676928639411926e-02 -4.252862557768821716e-02
-9.178632497787475586e-02 1.424567103385925293e-01 4.624557495117187500e-02
-1.973320394754409790e-01 4.921385273337364197e-02 5.961977317929267883e-02
-2.893030643463134766e-01 8.876213431358337402e-02 -1.830662228167057037e-02
-2.134391367435455322e-01 1.102541834115982056e-01 5.806683748960494995e-02
-7.920882850885391235e-02 8.954527229070663452e-02 8.830217272043228149e-02
-2.418870627880096436e-01 4.880327358841896057e-02 4.073624685406684875e-02
-1.123342812061309814e-01 5.315453186631202698e-02 1.782994018867611885e-03
-1.889294385910034180e-01 1.387174725532531738e-01 -3.447910770773887634e-02
-2.177255451679229736e-01 5.816158279776573181e-02 -5.705050751566886902e-02
-2.539970874786376953e-01 1.030162796378135681e-01 -6.259486079216003418e-02
-1.183578446507453918e-01 5.097004026174545288e-02 3.834722191095352173e-02
-2.523405551910400391e-01 8.989004045724868774e-02 -7.077216356992721558e-02
-5.064470320940017700e-02 9.863690733909606934e-01 -2.047000825405120850e-02
1.808455586433410645e-02 9.664695858955383301e-01 -5.801911652088165283e-02
-5.886496976017951965e-02 8.986639380455017090e-01 -1.183840166777372360e-02
-2.264253050088882446e-02 8.938229084014892578e-01 -4.139538481831550598e-02
2.875607088208198547e-02 9.511479139328002930e-01 3.253540024161338806e-02
-6.160675734281539917e-02 9.368208646774291992e-01 -1.321016065776348114e-02
-5.587773397564888000e-02 9.527674913406372070e-01 2.348823100328445435e-02
2.707854285836219788e-02 8.988083600997924805e-01 -1.351455785334110260e-02
4.303637519478797913e-02 9.759682416915893555e-01 1.078757364302873611e-02
-3.645358607172966003e-02 8.548069000244140625e-01 4.264187067747116089e-03
-3.207008168101310730e-02 9.610171914100646973e-01 4.443299397826194763e-02
-1.587732508778572083e-02 9.237264394760131836e-01 -5.395559221506118774e-02
1.273750979453325272e-02 9.031783342361450195e-01 3.798134624958038330e-02
1.950315758585929871e-02 9.055200219154357910e-01 3.196091577410697937e-02
4.030838608741760254e-02 9.345139265060424805e-01 6.730494089424610138e-03
2.771310135722160339e-02 9.673926830291748047e-01 -5.249751359224319458e-02
3.138231486082077026e-02 9.894549250602722168e-01 -5.110219120979309082e-02
3.014625608921051025e-02 9.749078154563903809e-01 -5.153117701411247253e-02
-2.362449094653129578e-02 1.034848690032958984e+00 -7.273491006344556808e-03
-6.024628132581710815e-02 9.496142864227294922e-01 1.350722927600145340e-02
-1.885410957038402557e-02 1.007079243659973145e+00 3.044323250651359558e-02
4.099711775779724121e-02 1.022699475288391113e+00 -1.153444405645132065e-02
-4.043069854378700256e-02 9.617724418640136719e-01 -4.615747183561325073e-02
1.193614955991506577e-02 8.988721370697021484e-01 -3.639946877956390381e-02
-3.878153488039970398e-02 9.375886321067810059e-01 -4.710507765412330627e-02
4.494757577776908875e-02 1.009925484657287598e+00 -1.203537452965974808e-02
4.564875736832618713e-02 9.941480755805969238e-01 -8.670315146446228027e-04
1.894137635827064514e-02 8.820420503616333008e-01 6.839074194431304932e-04
4.389816895127296448e-04 9.515964984893798828e-01 4.932306334376335144e-02
-2.827553078532218933e-03 9.685501456260681152e-01 4.729273915290832520e-02
1.262899953871965408e-02 9.621882438659667969e-01 -5.953115224838256836e-02
6.985325366258621216e-03 8.847409486770629883e-01 3.366857394576072693e-02
2.242170274257659912e-03 1.028212428092956543e+00 -5.132970586419105530e-02
3.235986456274986267e-03 9.161260128021240234e-01 -5.006226524710655212e-02
2.280114963650703430e-02 1.002089262008666992e+00 2.823242545127868652e-02
-5.027578398585319519e-02 8.703628778457641602e-01 -3.621055511757731438e-03
2.093159779906272888e-02 9.579218029975891113e-01 -5.527306348085403442e-02
2.215885557234287262e-03 1.002290129661560059e+00 -6.010994687676429749e-02
-5.930180475115776062e-02 9.630897641181945801e-01 1.445899717509746552e-03
-5.965333804488182068e-02 8.874269127845764160e-01 5.437760613858699799e-03
-5.052656866610050201e-03 1.005886673927307129e+00 3.437306359410285950e-02
-4.209699854254722595e-02 9.295021891593933105e-01 -4.342208057641983032e-02
3.778799250721931458e-02 9.287427067756652832e-01 -2.221993729472160339e-02
-4.919722676277160645e-02 8.800607323646545410e-01 3.157690167427062988e-02
-3.300425410270690918e-02 9.432639479637145996e-01 4.787112399935722351e-02
-4.484819993376731873e-02 9.534142613410949707e-01 -4.228647053241729736e-02
-5.420083180069923401e-02 8.801203370094299316e-01 -7.532974239438772202e-03
3.890615329146385193e-02 1.006435036659240723e+00 9.308128617703914642e-03
4.065645858645439148e-02 9.467109441757202148e-01 1.284428220242261887e-02
-8.242475800216197968e-03 8.661442995071411133e-01 3.102593496441841125e-02
-2.847262471914291382e-02 9.859298467636108398e-01 -5.234431475400924683e-02
-8.896137587726116180e-04 8.749678730964660645e-01 -2.489846572279930115e-02
2.650575712323188782e-03 9.830607175827026367e-01 4.276372119784355164e-02
-2.123421430587768555e-02 9.882352948188781738e-01 3.931865096092224121e-02
2.364045754075050354e-02 1.044715404510498047e+00 -7.206084672361612320e-03
-4.968990013003349304e-02 9.939379096031188965e-01 -8.826995268464088440e-03
-2.069077920168638229e-03 9.205460548400878906e-01 5.013442784547805786e-02
-1.705309376120567322e-03 9.204737544059753418e-01 -5.285388603806495667e-02
3.403436392545700073e-02 9.617611169815063477e-01 -4.555846378207206726e-02
-5.240477994084358215e-02 9.866992235183715820e-01 -9.426254779100418091e-03
-4.812709614634513855e-02 8.640016317367553711e-01 6.105651147663593292e-03
4.176185280084609985e-02 9.407624006271362305e-01 6.091257557272911072e-03
3.364830836653709412e-02 9.696891903877258301e-01 -4.757724329829216003e-02
-2.278174832463264465e-02 1.024772763252258301e+00 1.311414968222379684e-02
-5.946277454495429993e-02 9.274367690086364746e-01 -1.977527141571044922e-02
-1.568971015512943268e-02 8.543294072151184082e-01 -1.507078064605593681e-03
-1.501629315316677094e-02 8.574774861335754395e-01 2.424407005310058594e-02
-3.601890057325363159e-02 9.833769798278808594e-01 3.329652175307273865e-02
-2.239792793989181519e-02 8.554010391235351562e-01 -6.644476205110549927e-03
4.526212811470031738e-02 1.009155869483947754e+00 -1.889294758439064026e-02
-1.471105031669139862e-03 8.626787662506103516e-01 1.864185929298400879e-02
1.645758748054504395e-02 9.695246815681457520e-01 4.080214351415634155e-02
-5.088433995842933655e-02 8.916276097297668457e-01 3.459266573190689087e-02
-5.506334826350212097e-02 9.403815865516662598e-01 -2.895293012261390686e-02
-5.852228775620460510e-02 9.456739425659179688e-01 -2.115631476044654846e-02
-4.994639754295349121e-02 8.758182525634765625e-01 -1.147396117448806763e-02
-2.796427533030509949e-02 9.392374753952026367e-01 5.022490024566650391e-02
1.409091893583536148e-02 8.774039745330810547e-01 1.357271615415811539e-02
2.445897459983825684e-02 1.014781236648559570e+00 2.112593501806259155e-02
-2.246624324470758438e-03 1.016812920570373535e+00 2.836514636874198914e-02
-6.159256026148796082e-02 9.242078065872192383e-01 -1.354593783617019653e-02
3.380844742059707642e-02 9.827730059623718262e-01 -4.878268018364906311e-02
-1.600307784974575043e-02 8.743147850036621094e-01 4.049820080399513245e-02
-1.797727122902870178e-02 1.037501215934753418e+00 -5.385344848036766052e-04
-6.293914467096328735e-02 9.385768771171569824e-01 -5.470969714224338531e-03
2.081383392214775085e-02 1.045228719711303711e+00 -3.354758769273757935e-02
4.582177475094795227e-02 9.691744446754455566e-01 2.599159721285104752e-03
3.570236638188362122e-02 9.729382991790771484e-01 2.365688979625701904e-02
8.686834014952182770e-03 9.540877938270568848e-01 -5.943712592124938965e-02
4.709918051958084106e-02 9.895263314247131348e-01 -2.269441634416580200e-02
-1.095505338162183762e-02 1.028293371200561523e+00 -4.651607945561408997e-02
1.523898076266050339e-02 9.042046666145324707e-01 -3.745973110198974609e-02
-2.178312838077545166e-02 9.251026511192321777e-01 5.227924138307571411e-02
-3.044160082936286926e-03 9.278321266174316406e-01 -5.541482940316200256e-02
-5.260209366679191589e-02 9.503862261772155762e-01 3.004193678498268127e-02
2.133445441722869873e-02 9.252061247825622559e-01 -4.442761093378067017e-02
