3.304234445095062256e-01 -4.573382139205932617e-01 1.543193757534027100e-01
4.433542788028717041e-01 -4.388391077518463135e-01 -2.978918552398681641e-01
4.644893407821655273e-01 -4.346818625926971436e-01 -9.087267518043518066e-02
3.386725187301635742e-01 -5.033048987388610840e-01 -1.220519393682479858e-01
4.420471489429473877e-01 -2.130841165781021118e-01 2.407183498144149780e-02
3.467032015323638916e-01 -4.790742993354797363e-01 1.922540217638015747e-01
4.326067268848419189e-01 -5.078917145729064941e-01 -2.103987783193588257e-01
3.659026026725769043e-01 -1.563818454742431641e-01 -2.300207763910293579e-01
4.657267630100250244e-01 -3.082003295421600342e-01 -6.071155890822410583e-02
4.450696408748626709e-01 -4.581940472126007080e-01 -2.607389390468597412e-01
3.226650357246398926e-01 -2.357878237962722778e-01 -2.733486890792846680e-01
4.000285565853118896e-01 -3.386878967285156250e-01 -4.488377571105957031e-01
3.486078083515167236e-01 -2.726761102676391602e-01 3.081881403923034668e-01
4.590026140213012695e-01 -3.427330553531646729e-01 1.454902291297912598e-01
4.565847516059875488e-01 -3.110232353210449219e-01 1.413669586181640625e-01
4.010011553764343262e-01 -1.774619221687316895e-01 -2.678316235542297363e-01
4.318063855171203613e-01 -4.717867970466613770e-01 2.156762629747390747e-01
3.102328777313232422e-01 -3.548857867717742920e-01 1.547998338937759399e-01
3.808130025863647461e-01 -3.483454287052154541e-01 3.657891750335693359e-01
4.629586935043334961e-01 -4.236574470996856689e-01 6.945908069610595703e-02
4.694411754608154297e-01 -3.661550879478454590e-01 -3.599453717470169067e-02
3.041365146636962891e-01 -3.927114009857177734e-01 -8.752445876598358154e-02
3.360311985015869141e-01 -2.308639883995056152e-01 -3.272078633308410645e-01
3.611697256565093994e-01 -4.631165266036987305e-01 -3.521765470504760742e-01
3.451443612575531006e-01 -4.991517066955566406e-01 1.235251724720001221e-01
3.314354717731475830e-01 -3.175095021724700928e-01 -3.696615099906921387e-01
4.621392488479614258e-01 -3.391722738742828369e-01 -2.026839554309844971e-01
3.025228083133697510e-01 -3.153292536735534668e-01 -1.723153144121170044e-01
3.126519918441772461e-01 -3.874504268169403076e-01 -2.328073680400848389e-01
4.440024197101593018e-01 -3.106206059455871582e-01 2.279381304979324341e-01
3.075014352798461914e-01 -2.512672543525695801e-01 7.685205340385437012e-02
3.736098110675811768e-01 -1.346466988325119019e-01 -1.397409103810787201e-02
4.028151929378509521e-01 -3.308605849742889404e-01 3.536247014999389648e-01
3.034324347972869873e-01 -2.677798867225646973e-01 4.834370315074920654e-02
4.355693757534027100e-01 -3.702444434165954590e-01 -3.721923232078552246e-01
4.680934846401214600e-01 -3.411866128444671631e-01 1.854337751865386963e-03
3.492326736450195312e-01 -3.108713626861572266e-01 -4.190275073051452637e-01
4.438018202781677246e-01 -2.395143359899520874e-01 1.184913814067840576e-01
3.414261937141418457e-01 -3.161120712757110596e-01 3.101692795753479004e-01
4.619519114494323730e-01 -2.908369898796081543e-01 2.687349915504455566e-02
3.321317732334136963e-01 -4.436909258365631104e-01 1.944500356912612915e-01
4.545451402664184570e-01 -3.215000331401824951e-01 -2.615723609924316406e-01
4.585931897163391113e-01 -3.250242769718170166e-01 -2.293361425399780273e-01
4.543163776397705078e-01 -4.185140430927276611e-01 1.652138382196426392e-01
3.000941276550292969e-01 -3.275575935840606689e-01 -1.266868561506271362e-01
4.443186819553375244e-01 -4.777861535549163818e-01 1.402398198843002319e-01
4.559264779090881348e-01 -2.748804688453674316e-01 -1.783749312162399292e-01
4.511282145977020264e-01 -2.407779097557067871e-01 -1.215717419981956482e-01
4.093647897243499756e-01 -1.842648684978485107e-01 1.631871163845062256e-01
3.011513352394104004e-01 -2.954404652118682861e-01 4.792719334363937378e-02
3.048549294471740723e-01 -3.931099474430084229e-01 -1.103370040655136108e-01
3.650512397289276123e-01 -5.416997671127319336e-01 -7.609380036592483521e-02
3.908685147762298584e-01 -2.378077954053878784e-01 -3.975403904914855957e-01
3.214206695556640625e-01 -1.858406662940979004e-01 -1.065660715103149414e-01
4.084603786468505859e-01 -2.883414328098297119e-01 -4.204298257827758789e-01
3.425457477569580078e-01 -4.042503237724304199e-01 2.872764468193054199e-01
3.234421610832214355e-01 -1.989192813634872437e-01 -1.965956389904022217e-01
4.478913545608520508e-01 -3.542003929615020752e-01 2.269764989614486694e-01
4.354263544082641602e-01 -3.363063633441925049e-01 2.792708873748779297e-01
4.387413859367370605e-01 -4.868724942207336426e-01 -2.375345230102539062e-01
4.282615780830383301e-01 -4.795260131359100342e-01 -2.995732426643371582e-01
3.714949786663055420e-01 -1.800505518913269043e-01 -3.054059147834777832e-01
4.325291216373443604e-01 -4.857413172721862793e-01 -2.708227634429931641e-01
3.625338971614837646e-01 -5.272279977798461914e-01 1.000321507453918457e-01
3.103241026401519775e-01 -3.904103934764862061e-01 -2.051600515842437744e-01
3.490085601806640625e-01 -2.514027953147888184e-01 2.914549708366394043e-01
3.136965930461883545e-01 -2.560363411903381348e-01 1.476831734180450439e-01
4.538866877555847168e-01 -2.473565340042114258e-01 -9.308129549026489258e-02
4.285771846771240234e-01 -2.933290302753448486e-01 -3.738010525703430176e-01
3.019332885742187500e-01 -3.689448535442352295e-01 2.380214631557464600e-02
3.156958818435668945e-01 -3.092960417270660400e-01 2.012305259704589844e-01
4.143148958683013916e-01 -5.013073682785034180e-01 -2.929499149322509766e-01
4.237151741981506348e-01 -1.725482642650604248e-01 -8.789006620645523071e-03
3.411413133144378662e-01 -1.907861828804016113e-01 1.754900217056274414e-01
3.174608349800109863e-01 -2.255009561777114868e-01 1.236878186464309692e-01
4.424133300781250000e-01 -3.592724204063415527e-01 2.547622323036193848e-01
4.601315259933471680e-01 -2.799990773200988770e-01 -1.208981722593307495e-01
3.574828803539276123e-01 -1.941990256309509277e-01 2.246228903532028198e-01
3.822917342185974121e-01 -4.951932430267333984e-01 2.419564872980117798e-01
3.689296841621398926e-01 -5.422160625457763672e-01 3.269761055707931519e-02
4.589510262012481689e-01 -3.997687399387359619e-01 -2.312006652355194092e-01
4.422054886817932129e-01 -3.373362720012664795e-01 2.513055801391601562e-01
3.089356124401092529e-01 -3.950296640396118164e-01 -1.797954887151718140e-01
3.201357722282409668e-01 -4.539752602577209473e-01 -1.468959748744964600e-01
3.355005085468292236e-01 -2.508898675441741943e-01 2.544279694557189941e-01
3.103826642036437988e-01 -4.244660437107086182e-01 -1.047653108835220337e-01
3.757053315639495850e-01 -5.421615839004516602e-01 -1.509124934673309326e-01
3.039131760597229004e-01 -3.707385063171386719e-01 -1.513893306255340576e-01
3.210864961147308350e-01 -3.297437429428100586e-01 -3.242980837821960449e-01
4.488448798656463623e-01 -3.034822940826416016e-01 -2.866727709770202637e-01
4.403398633003234863e-01 -5.163216590881347656e-01 -9.167257696390151978e-02
4.314383864402770996e-01 -3.259240984916687012e-01 -3.818704485893249512e-01
3.606022596359252930e-01 -1.376346647739410400e-01 -9.571991860866546631e-02
4.296976327896118164e-01 -2.552928030490875244e-01 2.346369177103042603e-01
4.630145728588104248e-01 -3.622916042804718018e-01 -2.017544656991958618e-01
4.388735890388488770e-01 -4.382177889347076416e-01 2.326474636793136597e-01
4.174731671810150146e-01 -4.392115473747253418e-01 -3.827065825462341309e-01
3.168847560882568359e-01 -3.527305722236633301e-01 -2.940568923950195312e-01
4.199463725090026855e-01 -4.425618052482604980e-01 2.878918647766113281e-01
3.357965648174285889e-01 -1.645185649394989014e-01 4.960867762565612793e-02
4.496241807937622070e-01 -4.434621036052703857e-01 1.688023954629898071e-01
4.689582586288452148e-01 -3.516212701797485352e-01 -1.831850036978721619e-02
3.770274221897125244e-01 -1.459614783525466919e-01 8.687867224216461182e-02
3.337914049625396729e-01 -2.348098158836364746e-01 2.292478829622268677e-01
3.208127319812774658e-01 -1.853405833244323730e-01 -8.402922749519348145e-02
3.564001321792602539e-01 -5.255837440490722656e-01 7.149146497249603271e-02
3.519591093063354492e-01 -5.236633419990539551e-01 -1.262590885162353516e-01
4.389485418796539307e-01 -2.021281272172927856e-01 -8.744190633296966553e-02
3.109865188598632812e-01 -2.130387872457504272e-01 -4.386334121227264404e-02
3.441456258296966553e-01 -2.470722794532775879e-01 -3.704347610473632812e-01
4.544083178043365479e-01 -4.336723983287811279e-01 1.470826417207717896e-01
4.602423906326293945e-01 -3.887091875076293945e-01 1.362912952899932861e-01
4.608810842037200928e-01 -4.571234583854675293e-01 -8.846968412399291992e-03
4.391458034515380859e-01 -2.037245929241180420e-01 4.366379231214523315e-03
4.432386457920074463e-01 -2.901639640331268311e-01 -3.071896433830261230e-01
4.651144444942474365e-01 -3.665467798709869385e-01 8.428202569484710693e-02
4.159915745258331299e-01 -3.878946900367736816e-01 -4.197813272476196289e-01
3.867767155170440674e-01 -3.218871653079986572e-01 -4.542384743690490723e-01
3.495991528034210205e-01 -5.254721045494079590e-01 -4.373943433165550232e-02
4.587920904159545898e-01 -2.685155868530273438e-01 -1.636389642953872681e-03
4.606453180313110352e-01 -2.780041396617889404e-01 -9.347288310527801514e-02
4.675671160221099854e-01 -3.325872719287872314e-01 -9.287102520465850830e-02
3.030176758766174316e-01 -3.409598171710968018e-01 -1.726311743259429932e-01
3.280833363533020020e-01 -3.261204957962036133e-01 2.665172815322875977e-01
3.153538107872009277e-01 -2.234908342361450195e-01 -1.949394047260284424e-01
3.729436397552490234e-01 -2.744478583335876465e-01 -4.330558776855468750e-01
4.502898454666137695e-01 -3.360591530799865723e-01 2.075515538454055786e-01
3.428439795970916748e-01 -4.198257923126220703e-01 -3.598468899726867676e-01
4.193502664566040039e-01 -2.751610875129699707e-01 -3.868713974952697754e-01
4.330928027629852295e-01 -1.881998926401138306e-01 -4.413554444909095764e-02
4.550344944000244141e-01 -3.923920989036560059e-01 -2.671427428722381592e-01
4.046383202075958252e-01 -2.449407577514648438e-01 2.927502393722534180e-01
3.285132050514221191e-01 -3.399246335029602051e-01 -3.575041294097900391e-01
3.102195858955383301e-01 -2.246623337268829346e-01 3.564897179603576660e-02
4.485460817813873291e-01 -3.688289821147918701e-01 -3.144181966781616211e-01
3.033298552036285400e-01 -3.239753842353820801e-01 9.337653219699859619e-02
3.958808481693267822e-01 -2.251777946949005127e-01 2.795592546463012695e-01
3.088904023170471191e-01 -2.800817787647247314e-01 -2.263903170824050903e-01
3.138204216957092285e-01 -4.365562498569488525e-01 3.513457626104354858e-02
4.164336025714874268e-01 -1.715213656425476074e-01 -1.740989536046981812e-01
3.057426512241363525e-01 -2.378745526075363159e-01 -9.716816246509552002e-03
4.465916752815246582e-01 -2.293215692043304443e-01 -1.428965926170349121e-01
4.326491355895996094e-01 -2.032593190670013428e-01 -1.913367956876754761e-01
4.213537871837615967e-01 -2.895184159278869629e-01 2.993098497390747070e-01
4.233240783214569092e-01 -3.922211825847625732e-01 3.137217164039611816e-01
3.031724691390991211e-01 -2.510146498680114746e-01 -3.386684507131576538e-02
4.018559455871582031e-01 -4.829511046409606934e-01 -3.469124436378479004e-01
3.272341489791870117e-01 -1.753631085157394409e-01 2.558625489473342896e-02
3.418266475200653076e-01 -1.657472103834152222e-01 9.764932096004486084e-02
3.750940561294555664e-01 -5.228864550590515137e-01 1.596426963806152344e-01
3.207700550556182861e-01 -4.649504423141479492e-01 -1.412060111761093140e-03
2.990623414516448975e-01 -3.048089742660522461e-01 -9.208941459655761719e-02
4.673831164836883545e-01 -4.109030961990356445e-01 -8.337710797786712646e-02
4.222306609153747559e-01 -4.951937794685363770e-01 2.031515538692474365e-01
3.603651225566864014e-01 -4.514885544776916504e-01 2.828549146652221680e-01
3.317973911762237549e-01 -1.887465715408325195e-01 1.263103336095809937e-01
4.146426320075988770e-01 -3.377141058444976807e-01 -4.281431436538696289e-01
3.441878259181976318e-01 -4.686055779457092285e-01 -2.886260747909545898e-01
4.427848160266876221e-01 -5.023522377014160156e-01 -1.550978124141693115e-01
3.814305961132049561e-01 -4.043039977550506592e-01 3.496122956275939941e-01
4.175681471824645996e-01 -5.439716577529907227e-01 -1.028473526239395142e-01
4.195032715797424316e-01 -1.698112785816192627e-01 -1.328084915876388550e-01
3.210568428039550781e-01 -4.449535906314849854e-01 -1.927161514759063721e-01
3.910306990146636963e-01 -1.631512045860290527e-01 -2.438874244689941406e-01
3.177743554115295410e-01 -2.509683966636657715e-01 1.703704446554183960e-01
4.116189181804656982e-01 -2.206986099481582642e-01 2.412285953760147095e-01
4.655024111270904541e-01 -4.189474582672119141e-01 3.113996237516403198e-02
3.871859908103942871e-01 -5.525484085083007812e-01 1.054411008954048157e-02
3.118529319763183594e-01 -2.155949622392654419e-01 -1.173598468303680420e-01
3.027667403221130371e-01 -2.928513884544372559e-01 -1.653564572334289551e-01
4.327475428581237793e-01 -2.104517668485641479e-01 1.199492365121841431e-01
3.768651783466339111e-01 -5.047172307968139648e-01 2.151040285825729370e-01
4.482135772705078125e-01 -2.385689020156860352e-01 -1.620532274246215820e-01
4.438394308090209961e-01 -3.867753148078918457e-01 -3.342324495315551758e-01
4.531685113906860352e-01 -3.719101548194885254e-01 -2.862221002578735352e-01
4.245771765708923340e-01 -5.061223506927490234e-01 -2.521152496337890625e-01
3.401529192924499512e-01 -2.900367081165313721e-01 -3.902626633644104004e-01
3.103226125240325928e-01 -4.173153638839721680e-01 5.248915404081344604e-02
3.904202580451965332e-01 -5.059604644775390625e-01 -3.048573136329650879e-01
3.309990763664245605e-01 -2.805086374282836914e-01 -3.555705547332763672e-01
4.583353996276855469e-01 -3.707118332386016846e-01 1.576303094625473022e-01
3.311935365200042725e-01 -3.872964382171630859e-01 -3.464320898056030273e-01
4.686987996101379395e-01 -3.663721382617950439e-01 9.630482643842697144e-03
4.101774096488952637e-01 -1.538232117891311646e-01 -7.529885321855545044e-02
3.169949948787689209e-01 -3.729797601699829102e-01 -2.818508744239807129e-01
3.746969699859619141e-01 -1.718484014272689819e-01 -2.850389480590820312e-01
3.879660367965698242e-01 -1.369313895702362061e-01 -6.041857972741127014e-02
4.527812600135803223e-01 -2.725771069526672363e-01 1.150454729795455933e-01
3.938469588756561279e-01 -1.954883337020874023e-01 2.295166701078414917e-01
3.276048898696899414e-01 -1.884908825159072876e-01 9.697282314300537109e-02
3.171154260635375977e-01 -2.076182067394256592e-01 -1.638886183500289917e-01
4.480806589126586914e-01 -2.424435019493103027e-01 8.251902461051940918e-02
3.538063764572143555e-01 -4.580754041671752930e-01 2.574967145919799805e-01
3.983501195907592773e-01 -3.836584091186523438e-01 3.551042079925537109e-01
3.417884707450866699e-01 -2.348808050155639648e-01 -3.506597280502319336e-01
3.422746062278747559e-01 -5.020003914833068848e-01 -1.713177412748336792e-01
4.563837945461273193e-01 -4.681108593940734863e-01 4.404744505882263184e-02
3.283970654010772705e-01 -2.789754569530487061e-01 2.516505122184753418e-01
3.576932847499847412e-01 -4.864756464958190918e-01 -2.987172007560729980e-01
4.637981951236724854e-01 -3.961647748947143555e-01 9.225109219551086426e-02
4.234430789947509766e-01 -1.718143969774246216e-01 -8.490063250064849854e-02
2.984943389892578125e-01 -3.235971033573150635e-01 -2.049748227000236511e-02
4.436855316162109375e-01 -2.310027629137039185e-01 -1.889868974685668945e-01
3.652495145797729492e-01 -1.949900835752487183e-01 -3.333702683448791504e-01
3.815534412860870361e-01 -4.422017037868499756e-01 3.196465969085693359e-01
3.667104542255401611e-01 -3.914966285228729248e-01 -4.334549307823181152e-01
4.061917364597320557e-01 -1.518677920103073120e-01 -1.128439158201217651e-01
4.334653019905090332e-01 -1.954185664653778076e-01 4.243245720863342285e-02
3.995807766914367676e-01 -5.012533664703369141e-01 2.300260514020919800e-01
3.621099591255187988e-01 -2.285902053117752075e-01 -3.824647068977355957e-01
4.604554772377014160e-01 -3.275910913944244385e-01 1.200790554285049438e-01
4.689035415649414062e-01 -3.832341134548187256e-01 -8.466216921806335449e-02
3.914518356323242188e-01 -4.678930342197418213e-01 -3.752405643463134766e-01
3.516303896903991699e-01 -2.843530774116516113e-01 -4.142420291900634766e-01
4.479545056819915771e-01 -2.256564795970916748e-01 -7.376608997583389282e-02
4.215922355651855469e-01 -2.026056945323944092e-01 -2.623102068901062012e-01
3.006146252155303955e-01 -2.882741689682006836e-01 2.635875344276428223e-02
3.853816092014312744e-01 -4.825495183467864990e-01 2.672867774963378906e-01
4.071022272109985352e-01 -2.084175944328308105e-01 -3.271977901458740234e-01
4.352974891662597656e-01 -4.959901273250579834e-01 1.485792398452758789e-01
3.504297435283660889e-01 -3.255603611469268799e-01 3.327065110206604004e-01
3.665797412395477295e-01 -1.704915314912796021e-01 1.787838190793991089e-01
4.302604198455810547e-01 -5.297162532806396484e-01 3.426872938871383667e-02
3.065689206123352051e-01 -4.029066264629364014e-01 2.831668406724929810e-02
3.949979245662689209e-01 -4.637007713317871094e-01 2.954683303833007812e-01
3.490209877490997314e-01 -1.887892186641693115e-01 1.952349394559860229e-01
3.337434530258178711e-01 -4.835026860237121582e-01 -1.789420843124389648e-01
3.273211717605590820e-01 -2.281973510980606079e-01 1.914441883563995361e-01
3.989890217781066895e-01 -5.512101650238037109e-01 3.262021392583847046e-02
3.086104094982147217e-01 -3.307319581508636475e-01 -2.397106140851974487e-01
3.815588057041168213e-01 -1.538609713315963745e-01 1.218530535697937012e-01
3.047776818275451660e-01 -2.458263337612152100e-01 -1.011737510561943054e-01
4.154403805732727051e-01 -5.480628609657287598e-01 -3.413852304220199585e-02
4.526830613613128662e-01 -4.342021942138671875e-01 -2.469111233949661255e-01
3.160536289215087891e-01 -2.822722792625427246e-01 1.906795203685760498e-01
3.926757276058197021e-01 -2.185619473457336426e-01 -3.699665069580078125e-01
4.030858576297760010e-01 -5.345271229743957520e-01 -2.108136564493179321e-01
3.640604317188262939e-01 -4.523712694644927979e-01 -3.736997842788696289e-01
3.396407365798950195e-01 -3.746878802776336670e-01 2.972152829170227051e-01
3.186050951480865479e-01 -2.580285072326660156e-01 -2.780130505561828613e-01
4.218397736549377441e-01 -1.863059997558593750e-01 -2.062913775444030762e-01
3.224176466464996338e-01 -3.604230284690856934e-01 2.335293740034103394e-01
3.287732005119323730e-01 -1.768777817487716675e-01 -1.525315940380096436e-01
3.309216499328613281e-01 -4.891254305839538574e-01 2.412804961204528809e-02
4.358442127704620361e-01 -3.037301301956176758e-01 -3.541036844253540039e-01
3.122962117195129395e-01 -4.152280092239379883e-01 8.994024991989135742e-02
4.053120911121368408e-01 -1.670512706041336060e-01 -2.162476480007171631e-01
4.530834257602691650e-01 -3.177274167537689209e-01 1.769487410783767700e-01
4.670700132846832275e-01 -3.752097189426422119e-01 -1.413014829158782959e-01
3.248570859432220459e-01 -1.773792207241058350e-01 -3.334507346153259277e-05
3.789558708667755127e-01 -5.323450565338134766e-01 1.311312466859817505e-01
3.152050673961639404e-01 -4.481498003005981445e-01 -5.498192459344863892e-02
3.464211523532867432e-01 -2.307468205690383911e-01 2.623724937438964844e-01
3.365829288959503174e-01 -4.950603842735290527e-01 6.858812272548675537e-02
4.067628383636474609e-01 -1.746282875537872314e-01 1.408616006374359131e-01
3.254911899566650391e-01 -4.794189929962158203e-01 -3.087748587131500244e-02
3.708921074867248535e-01 -4.265833497047424316e-01 -4.125751256942749023e-01
3.797312974929809570e-01 -3.530336916446685791e-01 -4.552868008613586426e-01
4.672985672950744629e-01 -4.130501747131347656e-01 -1.039703935384750366e-02
4.534672498703002930e-01 -3.011067807674407959e-01 -2.502871751785278320e-01
4.280911386013031006e-01 -3.146142363548278809e-01 2.955781817436218262e-01
3.331720530986785889e-01 -4.973659217357635498e-01 -4.687544703483581543e-02
3.350647985935211182e-01 -3.869401216506958008e-01 2.745594978332519531e-01
4.276692271232604980e-01 -4.693880081176757812e-01 -3.189657926559448242e-01
2.995057702064514160e-01 -2.917089164257049561e-01 -3.608446568250656128e-03
3.379188477993011475e-01 -5.056745409965515137e-01 -7.943950593471527100e-02
4.627845287322998047e-01 -3.846635222434997559e-01 1.112380623817443848e-01
4.479436576366424561e-01 -2.263735532760620117e-01 -1.067487522959709167e-02
4.521572291851043701e-01 -3.278689384460449219e-01 -2.832567095756530762e-01
4.028890728950500488e-01 -1.915014684200286865e-01 -3.008516430854797363e-01
3.101293444633483887e-01 -2.201608121395111084e-01 8.520435541868209839e-03
4.641844630241394043e-01 -3.014062345027923584e-01 6.373494863510131836e-03
3.231606483459472656e-01 -3.932980895042419434e-01 2.142026871442794800e-01
3.179734647274017334e-01 -4.144427478313446045e-01 1.505100578069686890e-01
4.242877662181854248e-01 -1.993552148342132568e-01 1.401534527540206909e-01
3.101015090942382812e-01 -2.499400824308395386e-01 1.052677482366561890e-01
4.538711309432983398e-01 -4.605283737182617188e-01 1.020305007696151733e-01
3.516398668289184570e-01 -2.112001627683639526e-01 -3.415562510490417480e-01
4.543873071670532227e-01 -4.409309327602386475e-01 -2.233819663524627686e-01
3.046917319297790527e-01 -3.641597926616668701e-01 -1.740724444389343262e-01
3.094035387039184570e-01 -3.520519137382507324e-01 -2.380388081073760986e-01
3.031921982765197754e-01 -3.721623420715332031e-01 4.669023305177688599e-02
3.102084398269653320e-01 -4.284349679946899414e-01 -4.577852040529251099e-02
3.215869665145874023e-01 -1.881193518638610840e-01 -1.274862289428710938e-01
3.455564975738525391e-01 -3.408362567424774170e-01 -4.123522639274597168e-01
4.619997143745422363e-01 -3.509012758731842041e-01 1.191417425870895386e-01
3.809874951839447021e-01 -5.459787845611572266e-01 6.016599386930465698e-02
3.353895246982574463e-01 -4.050495922565460205e-01 2.613223791122436523e-01
4.364876151084899902e-01 -4.262838065624237061e-01 -3.408574461936950684e-01
3.325572013854980469e-01 -4.737946987152099609e-01 -2.058709859848022461e-01
3.125633001327514648e-01 -2.856062650680541992e-01 1.689292341470718384e-01
3.274193406105041504e-01 -3.650884628295898438e-01 -3.442218899726867676e-01
4.422776699066162109e-01 -4.429923892021179199e-01 2.116172760725021362e-01
3.115892410278320312e-01 -3.976042568683624268e-01 1.197275519371032715e-01
4.469120502471923828e-01 -3.933361470699310303e-01 2.274229675531387329e-01
3.766185641288757324e-01 -3.098206222057342529e-01 3.588033914566040039e-01
3.969952166080474854e-01 -1.529400348663330078e-01 8.169437944889068604e-02
3.427097499370574951e-01 -1.531993001699447632e-01 2.892909198999404907e-02
4.679469466209411621e-01 -3.866498768329620361e-01 -1.146824061870574951e-01
4.365886151790618896e-01 -2.353629767894744873e-01 1.630362421274185181e-01
3.748096823692321777e-01 -5.299631953239440918e-01 -2.133439779281616211e-01
2.983830273151397705e-01 -3.246929049491882324e-01 -5.582024902105331421e-02
3.916583359241485596e-01 -2.864083051681518555e-01 -4.386820793151855469e-01
4.692055583000183105e-01 -3.597751259803771973e-01 -7.138011604547500610e-02
3.857873976230621338e-01 -5.504100322723388672e-01 -1.143354251980781555e-01
4.409894347190856934e-01 -3.677642941474914551e-01 -3.512150049209594727e-01
3.256050050258636475e-01 -2.156418263912200928e-01 1.589417606592178345e-01
3.309785127639770508e-01 -2.227204740047454834e-01 -2.950742244720458984e-01
3.428261578083038330e-01 -4.341872334480285645e-01 2.568248510360717773e-01
3.345430791378021240e-01 -3.119507133960723877e-01 2.885770797729492188e-01
3.470187485218048096e-01 -1.983184367418289185e-01 -3.076611161231994629e-01
4.582980573177337646e-01 -2.748778760433197021e-01 4.536081850528717041e-02
4.405177831649780273e-01 -2.095364183187484741e-01 -1.248823627829551697e-01
4.347729980945587158e-01 -2.229939550161361694e-01 -2.409086078405380249e-01
4.151512682437896729e-01 -4.088646471500396729e-01 -4.110711216926574707e-01
3.864711225032806396e-01 -4.144681394100189209e-01 -4.313073158264160156e-01
4.579409360885620117e-01 -4.112013578414916992e-01 1.424816250801086426e-01
3.020290136337280273e-01 -2.677333056926727295e-01 -1.087127774953842163e-01
4.652391076087951660e-01 -3.925137817859649658e-01 -1.637021005153656006e-01
3.516744375228881836e-01 -5.256603956222534180e-01 2.141395211219787598e-02
4.271894097328186035e-01 -4.201239943504333496e-01 -3.762913942337036133e-01
3.491925299167633057e-01 -4.615963995456695557e-01 2.374785095453262329e-01
4.221564233303070068e-01 -4.127160310745239258e-01 3.065999746322631836e-01
4.389920532703399658e-01 -4.049176871776580811e-01 -3.467371463775634766e-01
3.984939157962799072e-01 -2.142264991998672485e-01 2.583082914352416992e-01
4.217939078807830811e-01 -2.058947980403900146e-01 1.724373251199722290e-01
4.252090752124786377e-01 -1.893982589244842529e-01 9.627304971218109131e-02
4.550463259220123291e-01 -4.800488352775573730e-01 -2.010170370340347290e-03
4.190792441368103027e-01 -3.450163304805755615e-01 3.289314508438110352e-01
3.109900355339050293e-01 -2.136423140764236450e-01 -7.099168002605438232e-02
3.056831657886505127e-01 -2.698861360549926758e-01 8.702068030834197998e-02
4.345827698707580566e-01 -2.732327580451965332e-01 -3.317700624465942383e-01
3.416646420955657959e-01 -4.550769627094268799e-01 -3.047756552696228027e-01
4.380598962306976318e-01 -5.183714032173156738e-01 -1.123313084244728088e-01
4.215173721313476562e-01 -5.148070454597473145e-01 1.544731259346008301e-01
3.588033914566040039e-01 -1.447919011116027832e-01 -1.582901626825332642e-01
4.439761936664581299e-01 -2.684829235076904297e-01 -2.746452689170837402e-01
4.620369076728820801e-01 -4.462432265281677246e-01 2.251410484313964844e-02
3.695397377014160156e-01 -2.049425840377807617e-01 -3.545378446578979492e-01
3.724898695945739746e-01 -4.944531023502349854e-01 -3.150426149368286133e-01
4.630796611309051514e-01 -3.173685073852539062e-01 7.330542802810668945e-02
4.488869905471801758e-01 -4.235006570816040039e-01 1.967122405767440796e-01
3.022399544715881348e-01 -2.972659766674041748e-01 6.908124685287475586e-02
4.032081961631774902e-01 -1.471155136823654175e-01 -2.177198976278305054e-02
3.468560278415679932e-01 -1.755034029483795166e-01 -2.517313957214355469e-01
4.301798939704895020e-01 -5.164501667022705078e-01 1.094490438699722290e-01
3.570651113986968994e-01 -4.761637747287750244e-01 -3.188040852546691895e-01
2.993708848953247070e-01 -3.413614034652709961e-01 2.140525728464126587e-03
4.656194746494293213e-01 -3.250287771224975586e-01 -1.325546205043792725e-01
4.557826519012451172e-01 -4.600388407707214355e-01 -1.676009744405746460e-01
3.008407652378082275e-01 -3.655675053596496582e-01 -4.569321870803833008e-03
4.516276717185974121e-01 -2.833136022090911865e-01 1.464944034814834595e-01
4.632636606693267822e-01 -2.906022965908050537e-01 -2.904147468507289886e-02
4.569505453109741211e-01 -3.502085506916046143e-01 -2.574968636035919189e-01
4.102337062358856201e-01 -2.058049142360687256e-01 2.158198803663253784e-01
3.562122583389282227e-01 -4.048351645469665527e-01 3.212847709655761719e-01
3.163484334945678711e-01 -3.172957301139831543e-01 -2.975206971168518066e-01
3.021022677421569824e-01 -3.320105671882629395e-01 7.362850755453109741e-02
4.226863086223602295e-01 -1.808150261640548706e-01 7.490038126707077026e-02
3.923647999763488770e-01 -4.384498894214630127e-01 -4.104553461074829102e-01
4.423845410346984863e-01 -5.140358209609985352e-01 -6.485085934400558472e-02
3.616308867931365967e-01 -3.375447392463684082e-01 -4.423112273216247559e-01
3.081477582454681396e-01 -2.416048943996429443e-01 -1.559859812259674072e-01
3.451570868492126465e-01 -3.453268706798553467e-01 3.209739327430725098e-01
3.257436454296112061e-01 -4.794951379299163818e-01 -6.965219974517822266e-02
4.104056358337402344e-01 -4.372260570526123047e-01 3.103734254837036133e-01
3.104986548423767090e-01 -2.444971203804016113e-01 -1.929611563682556152e-01
3.798177540302276611e-01 -1.806246787309646606e-01 2.086351364850997925e-01
3.123468458652496338e-01 -3.093005418777465820e-01 1.785327196121215820e-01
3.191336691379547119e-01 -4.110997319221496582e-01 -2.516146898269653320e-01
4.516389369964599609e-01 -2.439742982387542725e-01 3.351163119077682495e-02
3.234464526176452637e-01 -2.522963285446166992e-01 -2.991738915443420410e-01
3.024049997329711914e-01 -2.569752037525177002e-01 -6.810954213142395020e-02
3.612225651741027832e-01 -5.362780094146728516e-01 -1.056372150778770447e-01
4.383305907249450684e-01 -3.171873390674591064e-01 2.592766284942626953e-01
3.072897791862487793e-01 -3.961303234100341797e-01 -1.525696516036987305e-01
3.041045963764190674e-01 -2.591436803340911865e-01 -1.337617337703704834e-01
4.303337335586547852e-01 -2.764489650726318359e-01 -3.527772426605224609e-01
3.554632961750030518e-01 -3.607508242130279541e-01 -4.293841719627380371e-01
4.520355463027954102e-01 -4.612973332405090332e-01 -2.038112133741378784e-01
3.305307924747467041e-01 -4.834563732147216797e-01 -1.420215070247650146e-01
3.310686349868774414e-01 -2.548264563083648682e-01 -3.362479209899902344e-01
4.451085329055786133e-01 -2.194760739803314209e-01 -1.040747910737991333e-01
3.160019814968109131e-01 -3.924685120582580566e-01 1.673787534236907959e-01
3.445016145706176758e-01 -5.125513076782226562e-01 4.702325910329818726e-02
4.101915657520294189e-01 -5.135739445686340332e-01 -2.701844573020935059e-01
3.078567087650299072e-01 -2.740126848220825195e-01 1.175942569971084595e-01
3.297496438026428223e-01 -4.274912774562835693e-01 2.084749788045883179e-01
3.462067246437072754e-01 -2.950997650623321533e-01 3.154886364936828613e-01
3.006188869476318359e-01 -3.007839322090148926e-01 -1.330688893795013428e-01
3.579703569412231445e-01 -1.406444609165191650e-01 -1.200969144701957703e-01
4.320436716079711914e-01 -2.259690165519714355e-01 -2.657274007797241211e-01
4.606292545795440674e-01 -4.062916338443756104e-01 1.209961026906967163e-01
4.365451335906982422e-01 -5.164482593536376953e-01 6.125668436288833618e-02
3.128963112831115723e-01 -4.372803270816802979e-01 -8.853441476821899414e-02
3.555847108364105225e-01 -3.464885354042053223e-01 3.425916433334350586e-01
4.164014458656311035e-01 -3.111089169979095459e-01 -4.171694517135620117e-01
4.430986940860748291e-01 -2.534843683242797852e-01 -2.538788914680480957e-01
3.046297430992126465e-01 -3.990949988365173340e-01 -3.283163532614707947e-02
3.135748505592346191e-01 -2.049865424633026123e-01 -1.992306858301162720e-02
4.394396245479583740e-01 -4.370065331459045410e-01 -3.182759284973144531e-01
3.247549831867218018e-01 -3.942660391330718994e-01 -3.092759847640991211e-01
3.779465854167938232e-01 -4.686247110366821289e-01 2.845836281776428223e-01
4.561076760292053223e-01 -4.781179428100585938e-01 -3.270892053842544556e-02
3.604895770549774170e-01 -2.995080351829528809e-01 3.423972129821777344e-01
3.328342139720916748e-01 -4.701034724712371826e-01 1.365117579698562622e-01
3.331710398197174072e-01 -1.609539240598678589e-01 -3.565821796655654907e-02
3.260542452335357666e-01 -3.874568641185760498e-01 2.349983304738998413e-01
3.601963222026824951e-01 -1.527218073606491089e-01 1.061677634716033936e-01
4.448506534099578857e-01 -2.764907479286193848e-01 1.862459927797317505e-01
4.419467151165008545e-01 -2.573053836822509766e-01 1.736072599887847900e-01
3.232155740261077881e-01 -2.979494631290435791e-01 -3.305305242538452148e-01
4.548462033271789551e-01 -2.489079087972640991e-01 -5.511677265167236328e-02
4.309335052967071533e-01 -2.334278821945190430e-01 -2.879209518432617188e-01
3.126298487186431885e-01 -3.595174551010131836e-01 -2.603020668029785156e-01
3.403507173061370850e-01 -4.838066697120666504e-01 -2.291217595338821411e-01
4.674144089221954346e-01 -3.238683640956878662e-01 -4.646357521414756775e-02
3.144854009151458740e-01 -3.606398999691009521e-01 1.848812848329544067e-01
3.052741289138793945e-01 -3.361277282238006592e-01 -2.043744474649429321e-01
3.178614377975463867e-01 -4.340591132640838623e-01 1.055345684289932251e-01
4.093316495418548584e-01 -2.226884067058563232e-01 -3.473693728446960449e-01
4.576742053031921387e-01 -2.668917477130889893e-01 2.281035482883453369e-02
3.195047378540039062e-01 -4.522805213928222656e-01 6.089632958173751831e-02
3.953580856323242188e-01 -5.257931351661682129e-01 -2.492049783468246460e-01
4.247717857360839844e-01 -5.393908023834228516e-01 -6.198909133672714233e-03
3.813792765140533447e-01 -5.524523258209228516e-01 -3.587671741843223572e-02
4.660722315311431885e-01 -3.296999633312225342e-01 3.859191387891769409e-02
3.432461619377136230e-01 -3.938112854957580566e-01 -3.846461176872253418e-01
3.565089106559753418e-01 -5.249560475349426270e-01 -1.575847566127777100e-01
4.620984792709350586e-01 -3.008604645729064941e-01 -1.493876874446868896e-01
4.085803925991058350e-01 -2.589656114578247070e-01 -3.963155746459960938e-01
4.437966048717498779e-01 -2.252952456474304199e-01 6.757549196481704712e-02
3.139438629150390625e-01 -3.038861751556396484e-01 -2.794674634933471680e-01
3.957770466804504395e-01 -5.441849827766418457e-01 8.866569399833679199e-02
4.609682261943817139e-01 -4.081438183784484863e-01 -2.041986733675003052e-01
4.137107431888580322e-01 -4.633709192276000977e-01 -3.614729642868041992e-01
4.181705117225646973e-01 -5.361804962158203125e-01 -1.607626676559448242e-01
4.625558853149414062e-01 -4.334434866905212402e-01 -1.420253217220306396e-01
3.422197103500366211e-01 -4.946173429489135742e-01 -2.036109715700149536e-01
4.652907252311706543e-01 -4.328028261661529541e-01 -6.103962659835815430e-02
4.604623317718505859e-01 -3.777817189693450928e-01 -2.275904268026351929e-01
4.563525915145874023e-01 -2.651053667068481445e-01 -1.390487849712371826e-01
3.253075778484344482e-01 -4.418105185031890869e-01 -2.387857586145401001e-01
4.400538802146911621e-01 -4.616999030113220215e-01 -2.820262312889099121e-01
4.519814252853393555e-01 -4.905487895011901855e-01 -7.174744457006454468e-02
4.638200700283050537e-01 -4.424994885921478271e-01 -2.455994300544261932e-02
3.613305985927581787e-01 -4.842213094234466553e-01 2.304854243993759155e-01
4.150377810001373291e-01 -2.372579723596572876e-01 2.588719725608825684e-01
3.061339557170867920e-01 -3.614556193351745605e-01 -1.963111460208892822e-01
3.365324437618255615e-01 -4.864721894264221191e-01 1.089677661657333374e-01
3.987418711185455322e-01 -5.385625958442687988e-01 1.161732226610183716e-01
3.111537694931030273e-01 -3.815182149410247803e-01 1.390729546546936035e-01
4.567693769931793213e-01 -4.411945939064025879e-01 -2.007965445518493652e-01
3.511219620704650879e-01 -1.660436540842056274e-01 1.361884325742721558e-01
3.568316400051116943e-01 -1.735914349555969238e-01 -2.722208201885223389e-01
3.372841477394104004e-01 -4.404857158660888672e-01 2.257152050733566284e-01
3.485000431537628174e-01 -4.248453974723815918e-01 2.856760621070861816e-01
4.337637722492218018e-01 -5.133868455886840820e-01 -1.822506934404373169e-01
3.058122992515563965e-01 -2.661715447902679443e-01 -1.758816391229629517e-01
3.316591382026672363e-01 -4.387629032135009766e-01 -2.857312560081481934e-01
4.261223077774047852e-01 -1.776530593633651733e-01 -1.067890077829360962e-01
4.404186904430389404e-01 -4.015668928623199463e-01 2.542379498481750488e-01
4.582837522029876709e-01 -4.680425524711608887e-01 -8.276103436946868896e-02
2.985972166061401367e-01 -3.053285479545593262e-01 -6.577543914318084717e-02
4.232197105884552002e-01 -2.269572317600250244e-01 2.138206511735916138e-01
4.154974818229675293e-01 -5.395787954330444336e-01 7.093278318643569946e-02
3.135282993316650391e-01 -2.821654081344604492e-01 -2.658665180206298828e-01
3.158023059368133545e-01 -2.031949907541275024e-01 2.694497257471084595e-02
3.237414062023162842e-01 -4.118370413780212402e-01 -2.822897434234619141e-01
3.482659459114074707e-01 -4.480735063552856445e-01 -3.409168720245361328e-01
3.087055087089538574e-01 -2.901117205619812012e-01 1.403063684701919556e-01
3.699941635131835938e-01 -5.141945481300354004e-01 -2.586380243301391602e-01
4.539417028427124023e-01 -2.476032525300979614e-01 -2.739883959293365479e-03
4.121647775173187256e-01 -3.081703782081604004e-01 3.317814469337463379e-01
3.064663112163543701e-01 -3.162483870983123779e-01 1.295835375785827637e-01
4.059346318244934082e-01 -4.759863615036010742e-01 2.698842287063598633e-01
4.677223563194274902e-01 -4.116846919059753418e-01 -4.325052350759506226e-02
3.203522562980651855e-01 -4.498983621597290039e-01 8.307766914367675781e-02
3.143113255500793457e-01 -4.291593730449676514e-01 -1.609749644994735718e-01
3.250575363636016846e-01 -4.721865653991699219e-01 4.283105581998825073e-02
3.544421195983886719e-01 -5.151797533035278320e-01 -1.958834528923034668e-01
3.462413251399993896e-01 -4.694964885711669922e-01 2.115712910890579224e-01
2.991674244403839111e-01 -3.339352309703826904e-01 -9.445494413375854492e-02
4.284457266330718994e-01 -2.415775060653686523e-01 -3.145306110382080078e-01
3.606437146663665771e-01 -4.300564229488372803e-01 3.082700967788696289e-01
3.023294806480407715e-01 -2.615796625614166260e-01 1.826278865337371826e-03
3.127386569976806641e-01 -2.667192816734313965e-01 -2.464243322610855103e-01
3.240205049514770508e-01 -1.770709007978439331e-01 -5.274247378110885620e-02
3.078429996967315674e-01 -3.623121380805969238e-01 1.263777911663055420e-01
4.622993171215057373e-01 -3.832271993160247803e-01 -2.069899141788482666e-01
3.648977577686309814e-01 -5.417977571487426758e-01 -9.961888194084167480e-03
3.229437172412872314e-01 -4.571461081504821777e-01 -1.713748574256896973e-01
-2.287704497575759888e-01 -1.950154602527618408e-01 -5.443314462900161743e-02
-1.755756139755249023e-01 -1.736596077680587769e-01 2.811757326126098633e-01
-1.863054484128952026e-01 -1.960710883140563965e-01 -2.049774490296840668e-02
-1.523530781269073486e-01 -2.795892953872680664e-02 1.840539425611495972e-01
-8.323391526937484741e-02 -1.150527521967887878e-01 1.268663853406906128e-01
-1.288091242313385010e-01 -1.353552490472793579e-01 -3.023597896099090576e-01
-2.267689704895019531e-01 -1.731117367744445801e-01 3.086369037628173828e-01
-1.709458082914352417e-01 -1.751173734664916992e-01 2.609736323356628418e-01
-7.534902542829513550e-02 -2.868237346410751343e-02 7.646691799163818359e-02
-6.857933104038238525e-02 -1.020936593413352966e-01 -4.562152177095413208e-02
-6.118463724851608276e-02 -4.660863429307937622e-02 -1.037065759301185608e-01
-1.675686836242675781e-01 -2.631052583456039429e-02 -9.056081995368003845e-03
-2.326960563659667969e-01 -7.435142248868942261e-02 3.500685840845108032e-02
-2.596179544925689697e-01 -1.201945617794990540e-01 -1.852994970977306366e-02
-9.229692816734313965e-02 -6.034806370735168457e-02 -2.971761524677276611e-01
-7.941196858882904053e-02 -1.199517101049423218e-01 -5.931017547845840454e-02
-1.485054492950439453e-01 -1.681391447782516479e-01 -1.999175697565078735e-01
-1.036064326763153076e-01 -1.319555044174194336e-01 -2.239427566528320312e-01
-2.618899345397949219e-01 -1.690418124198913574e-01 -2.952610142529010773e-02
-2.189366668462753296e-01 -1.710831820964813232e-01 -2.167202830314636230e-01
-1.926104873418807983e-01 -6.034286320209503174e-02 2.896145880222320557e-01
-7.466744631528854370e-02 -2.598179876804351807e-02 -9.957288950681686401e-02
-6.872334331274032593e-02 -4.370374977588653564e-02 -1.714007109403610229e-01
-1.223163753747940063e-01 -7.798539847135543823e-02 -3.560940325260162354e-01
-2.302766442298889160e-01 -1.982107758522033691e-01 3.181390464305877686e-03
-1.300794333219528198e-01 -1.067406609654426575e-01 3.647968471050262451e-01
-6.686392426490783691e-02 -9.802684932947158813e-02 -6.369133293628692627e-02
-1.943294405937194824e-01 -4.172119498252868652e-02 -7.892524823546409607e-03
-1.378985494375228882e-01 -2.170172333717346191e-02 -1.369088292121887207e-01
-1.567485332489013672e-01 -9.792418777942657471e-02 -3.688078522682189941e-01
-6.342949718236923218e-02 -3.755590319633483887e-02 3.936216235160827637e-04
-2.056139111518859863e-01 -5.151985958218574524e-02 1.353857070207595825e-01
-1.825564056634902954e-01 -3.403064608573913574e-02 1.653937622904777527e-03
-2.050410211086273193e-01 -8.851186186075210571e-02 -2.683405280113220215e-01
-1.790028065443038940e-01 -1.357570290565490723e-01 4.000999927520751953e-01
-2.501898407936096191e-01 -1.489890813827514648e-01 -1.499399393796920776e-01
-1.510147005319595337e-01 -1.144519746303558350e-01 -3.662482798099517822e-01
-1.819735616445541382e-01 -1.614240258932113647e-01 3.444529771804809570e-01
-1.573090106248855591e-01 -5.469150468707084656e-02 3.296340405941009521e-01
-1.589123904705047607e-01 -1.823269128799438477e-01 -1.098789349198341370e-01
-2.132493257522583008e-01 -8.370875567197799683e-02 -2.208873331546783447e-01
-2.095896899700164795e-01 -7.319279760122299194e-02 -1.944368183612823486e-01
-2.357090860605239868e-01 -9.986271709203720093e-02 2.848103642463684082e-01
-1.230688393115997314e-01 -5.436535552144050598e-02 -3.206101357936859131e-01
-2.453466951847076416e-01 -9.295090287923812866e-02 1.557908654212951660e-01
-2.680124044418334961e-01 -1.635151803493499756e-01 5.582839250564575195e-02
-2.537506520748138428e-01 -1.517245769500732422e-01 -1.271069496870040894e-01
-1.519064605236053467e-01 -2.607848495244979858e-02 1.657437235116958618e-01
-1.595037430524826050e-01 -1.290798485279083252e-01 -3.518239855766296387e-01
-1.175253838300704956e-01 -1.609724014997482300e-01 -1.673772744834423065e-02
-1.321713775396347046e-01 -2.868776023387908936e-02 2.180917114019393921e-01
-2.446614503860473633e-01 -1.544321477413177490e-01 -1.734799146652221680e-01
-8.795541524887084961e-02 -1.681517064571380615e-02 -5.936641991138458252e-02
-8.792837709188461304e-02 -5.705362558364868164e-02 -2.817524671554565430e-01
-1.217559501528739929e-01 -1.411626487970352173e-02 6.395730376243591309e-02
-1.025533676147460938e-01 -1.057111620903015137e-01 -3.078451454639434814e-01
-1.185095831751823425e-01 -3.034752607345581055e-02 -2.314012795686721802e-01
-1.608016639947891235e-01 -1.877479851245880127e-01 2.986319363117218018e-03
-9.319921582937240601e-02 -1.635329425334930420e-02 5.034828931093215942e-02
-1.600901037454605103e-01 -5.395551770925521851e-02 -2.839600443840026855e-01
-1.220192313194274902e-01 -1.637712419033050537e-01 -5.341945588588714600e-02
-1.751961261034011841e-01 -3.397760540246963501e-02 -9.339267760515213013e-02
-7.121912389993667603e-02 -9.847822785377502441e-02 -1.499674618244171143e-01
-2.331747710704803467e-01 -9.050244837999343872e-02 2.579836249351501465e-01
-2.510700523853302002e-01 -1.901543438434600830e-01 3.942652046680450439e-02
-2.213432490825653076e-01 -2.005543410778045654e-01 6.094913184642791748e-02
-1.482717990875244141e-01 -2.930535376071929932e-02 2.054197490215301514e-01
-1.124132871627807617e-01 -1.419287621974945068e-01 1.985389441251754761e-01
-2.556145787239074707e-01 -1.062837690114974976e-01 4.391454532742500305e-02
-2.118663042783737183e-01 -5.415521189570426941e-02 4.767922312021255493e-02
-1.205622255802154541e-01 -7.935572415590286255e-02 3.500950634479522705e-01
-2.052794992923736572e-01 -4.916011914610862732e-02 7.651838660240173340e-02
-1.066298559308052063e-01 -1.465528756380081177e-01 1.110016256570816040e-01
-1.810288429260253906e-01 -1.572345495223999023e-01 -2.934087216854095459e-01
-1.973000168800354004e-01 -1.523627936840057373e-01 3.786548674106597900e-01
-6.402680277824401855e-02 -6.006572395563125610e-02 -1.675934791564941406e-01
-1.455778628587722778e-01 -1.763845980167388916e-01 1.252280026674270630e-01
-1.711723953485488892e-01 -1.809650361537933350e-01 2.204258292913436890e-01
-1.704047918319702148e-01 -1.616968214511871338e-01 -2.745904624462127686e-01
-2.598856389522552490e-01 -1.141486689448356628e-01 7.019820809364318848e-02
-2.441231012344360352e-01 -9.641131013631820679e-02 -6.704342365264892578e-02
-6.795095652341842651e-02 -5.569835379719734192e-02 -1.942968815565109253e-01
-1.856254041194915771e-01 -3.947529941797256470e-02 1.526212543249130249e-01
-1.446046233177185059e-01 -1.764605939388275146e-02 -2.117227204144001007e-02
-1.098435297608375549e-01 -7.312391698360443115e-02 -3.404172956943511963e-01
-1.041215732693672180e-01 -1.414327770471572876e-01 1.364116817712783813e-01
-5.845066159963607788e-02 -7.053820788860321045e-02 -1.632401905953884125e-02
-1.474945396184921265e-01 -1.761034131050109863e-01 1.451830714941024780e-01
-1.612075418233871460e-01 -1.815648972988128662e-01 1.703897863626480103e-01
-1.451955288648605347e-01 -8.008508384227752686e-02 -3.610406816005706787e-01
-1.274352222681045532e-01 -1.528157144784927368e-01 2.210898846387863159e-01
-1.331759393215179443e-01 -2.565506845712661743e-02 1.955499649047851562e-01
-2.027318179607391357e-01 -1.984457969665527344e-01 1.175591126084327698e-01
-1.257224678993225098e-01 -1.603789627552032471e-02 -9.515447914600372314e-02
-7.883328199386596680e-02 -1.195586845278739929e-01 -2.093201316893100739e-02
-1.878375560045242310e-01 -6.057007983326911926e-02 -2.318431884050369263e-01
-1.458857357501983643e-01 -1.799915581941604614e-01 4.254761710762977600e-02
-8.372872322797775269e-02 -9.598425030708312988e-02 -2.539481222629547119e-01
-2.635840475559234619e-01 -1.573012173175811768e-01 -4.195529967546463013e-02
-1.044508218765258789e-01 -1.495330333709716797e-01 -1.790038682520389557e-02
-7.042381167411804199e-02 -9.163615107536315918e-02 -1.742761135101318359e-01
-9.736896306276321411e-02 -1.129001230001449585e-01 -2.718156874179840088e-01
-7.748218625783920288e-02 -5.168824642896652222e-02 -2.380711585283279419e-01
-1.248933300375938416e-01 -1.649746447801589966e-01 7.498427480459213257e-02
-1.679422259330749512e-01 -2.691616117954254150e-02 -2.705970592796802521e-02
-8.461999148130416870e-02 -6.825049221515655518e-02 2.349852472543716431e-01
-1.641719639301300049e-01 -1.892158836126327515e-01 3.913407772779464722e-02
-1.867664158344268799e-01 -6.430983543395996094e-02 -2.520199120044708252e-01
-1.884714365005493164e-01 -1.916208714246749878e-01 -1.059593483805656433e-01
-1.780875772237777710e-01 -1.940633058547973633e-01 7.004296034574508667e-02
-2.680767774581909180e-01 -1.520562916994094849e-01 2.202426083385944366e-02
-1.141901463270187378e-01 -8.986087888479232788e-02 3.366906940937042236e-01
-1.270379573106765747e-01 -1.552671939134597778e-01 2.025187611579895020e-01
-2.218552976846694946e-01 -1.613139808177947998e-01 3.479483425617218018e-01
-6.338152289390563965e-02 -5.893892794847488403e-02 8.911789953708648682e-02
-2.640281319618225098e-01 -1.253491342067718506e-01 4.348194599151611328e-02
-1.781881004571914673e-01 -1.459579765796661377e-01 -3.218927085399627686e-01
-6.308912485837936401e-02 -5.202528461813926697e-02 -1.473446339368820190e-01
-1.088497638702392578e-01 -1.300842314958572388e-02 3.408143669366836548e-02
-1.086466461420059204e-01 -1.131531000137329102e-01 2.903230786323547363e-01
-2.428709566593170166e-01 -1.743613481521606445e-01 2.700289487838745117e-01
-2.646603882312774658e-01 -1.739389896392822266e-01 1.043507531285285950e-01
-1.466353535652160645e-01 -1.531170010566711426e-01 -2.761915922164916992e-01
-2.464827448129653931e-01 -1.172817349433898926e-01 -1.402296572923660278e-01
-2.333473116159439087e-01 -1.983290910720825195e-01 3.182604163885116577e-02
-2.574068605899810791e-01 -1.338282823562622070e-01 2.441463172435760498e-01
-2.006245851516723633e-01 -1.873610019683837891e-01 2.406598776578903198e-01
-1.687231361865997314e-01 -1.209558099508285522e-01 4.086762964725494385e-01
-1.500008404254913330e-01 -1.655781567096710205e-01 2.484035938978195190e-01
-1.581770777702331543e-01 -4.663975536823272705e-02 2.963829338550567627e-01
-1.017625629901885986e-01 -2.159652858972549438e-02 1.417313963174819946e-01
-2.615604400634765625e-01 -1.322136372327804565e-01 2.019144892692565918e-01
-1.251360774040222168e-01 -1.636565029621124268e-01 1.026999652385711670e-01
