-1.861775219440460205e-01 2.994739636778831482e-02 -1.597248762845993042e-01
-1.971300840377807617e-01 8.702819049358367920e-02 8.061496168375015259e-02
-1.711506247520446777e-01 7.981429994106292725e-02 -1.817697882652282715e-01
1.177660152316093445e-01 9.376084059476852417e-02 3.400462865829467773e-02
1.347455382347106934e-02 4.737052693963050842e-02 -1.042452827095985413e-02
7.366728037595748901e-02 8.107507973909378052e-02 1.009831130504608154e-01
1.437325030565261841e-02 7.216912508010864258e-02 -1.551242023706436157e-01
2.354238182306289673e-02 1.183749437332153320e-01 -1.119047924876213074e-01
-3.267885744571685791e-01 3.920611739158630371e-02 -1.615556143224239349e-02
-1.640568077564239502e-01 1.039620563387870789e-01 -5.090095102787017822e-02
-3.389150649309158325e-02 9.424875676631927490e-02 1.571647226810455322e-01
-3.114765137434005737e-02 3.733258694410324097e-02 -4.551905393600463867e-02
-1.097086295485496521e-01 8.760965615510940552e-02 1.509204059839248657e-01
7.753043621778488159e-02 1.254999190568923950e-01 -2.920516580343246460e-02
-6.739608943462371826e-03 4.374907538294792175e-02 -5.335886776447296143e-02
-1.639769077301025391e-01 1.557386666536331177e-02 8.323874324560165405e-03
-1.746161580085754395e-01 1.423223316669464111e-02 -5.658041685819625854e-03
-5.573351308703422546e-02 4.039911925792694092e-02 -1.210601255297660828e-01
-7.660061120986938477e-02 1.169957891106605530e-01 4.192096740007400513e-02
-2.069002389907836914e-01 9.232331812381744385e-02 2.026928775012493134e-02
-9.983879327774047852e-02 8.650502562522888184e-02 -1.935842335224151611e-01
6.871655583381652832e-03 5.997939035296440125e-02 -1.314953118562698364e-01
-1.139511540532112122e-01 1.138056665658950806e-01 -3.474035114049911499e-02
-3.890577703714370728e-02 5.618621408939361572e-02 1.449418962001800537e-01
-1.460392773151397705e-01 6.670995801687240601e-02 -2.045526206493377686e-01
-1.108939498662948608e-01 1.143254190683364868e-01 -1.061811670660972595e-02
-1.443964540958404541e-01 4.431786760687828064e-02 -1.875249743461608887e-01
-1.197687461972236633e-01 2.502439171075820923e-02 -9.661640226840972900e-02
-3.258089721202850342e-02 3.612433746457099915e-02 -2.144307456910610199e-02
-4.755850508809089661e-02 5.005186423659324646e-02 -1.534506082534790039e-01
-1.256946325302124023e-01 1.095528155565261841e-01 3.538617491722106934e-02
-2.717971205711364746e-01 7.094397395849227905e-02 -8.611603081226348877e-02
2.336701005697250366e-02 6.440655142068862915e-02 -1.259795576333999634e-01
-1.534335017204284668e-01 3.472943603992462158e-02 1.287485808134078979e-01
-1.043292656540870667e-01 1.120089441537857056e-01 -9.245379269123077393e-02
-1.007446646690368652e-01 2.712076902389526367e-02 6.271609663963317871e-02
-2.264146357774734497e-01 7.981309294700622559e-02 -1.309325397014617920e-01
-2.571753561496734619e-01 1.378166675567626953e-02 -7.872281223535537720e-02
2.476065605878829956e-02 6.253533065319061279e-02 1.092576831579208374e-01
-1.494725346565246582e-01 8.390396833419799805e-02 1.376777738332748413e-01
-2.737902998924255371e-01 6.752740591764450073e-02 -1.041599363088607788e-01
-1.966013014316558838e-01 1.352003589272499084e-02 -5.923067033290863037e-02
6.255330890417098999e-02 1.271874457597732544e-01 -1.768473722040653229e-02
-1.707394421100616455e-02 4.641632735729217529e-02 -1.011305823922157288e-01
-2.093805521726608276e-01 1.223245635628700256e-02 -4.737783223390579224e-02
-1.997585594654083252e-01 1.541598886251449585e-02 4.276088625192642212e-02
-1.854915022850036621e-01 1.331826671957969666e-02 -3.161630034446716309e-02
-3.282005190849304199e-01 2.943243831396102905e-02 -3.760889917612075806e-02
-6.636209785938262939e-02 4.459356516599655151e-02 -1.503062844276428223e-01
-2.267644107341766357e-01 1.121434569358825684e-02 -1.567525044083595276e-02
-2.587930113077163696e-02 4.819000512361526489e-02 -1.236571297049522400e-01
1.149232909083366394e-01 1.155485659837722778e-01 -3.148960694670677185e-02
-7.323324680328369141e-02 7.630892097949981689e-02 -2.009752243757247925e-01
2.114748954772949219e-02 5.036377906799316406e-02 3.009720332920551300e-02
-1.512251049280166626e-01 3.686022385954856873e-02 -1.720825284719467163e-01
-2.639076411724090576e-01 7.356161624193191528e-02 2.317742072045803070e-02
-3.221183121204376221e-01 3.688815981149673462e-02 -8.216097950935363770e-02
-2.568418979644775391e-01 2.410204708576202393e-02 7.939571887254714966e-02
-1.734498888254165649e-01 9.513346850872039795e-02 -1.240318268537521362e-01
-2.764014601707458496e-01 2.859486266970634460e-02 -1.375008523464202881e-01
-1.828706860542297363e-01 2.236272767186164856e-02 8.598136156797409058e-02
-1.292331814765930176e-01 9.905590116977691650e-02 -1.488112956285476685e-01
-1.328129917383193970e-01 1.079591065645217896e-01 -8.574464172124862671e-02
5.100142210721969604e-02 1.175961047410964966e-01 -1.055216565728187561e-01
1.746328175067901611e-02 1.038976311683654785e-01 1.382351219654083252e-01
-2.528403103351593018e-01 7.565166056156158447e-02 3.965182602405548096e-02
8.602245897054672241e-02 7.735261321067810059e-02 -6.181256473064422607e-02
-2.284476757049560547e-01 8.682802319526672363e-02 -7.297568023204803467e-02
-1.723079532384872437e-01 8.664125204086303711e-02 1.116772592067718506e-01
4.129416495561599731e-02 1.017212569713592529e-01 1.347060352563858032e-01
-2.678493857383728027e-01 1.213156059384346008e-02 -9.679886512458324432e-03
-4.019688814878463745e-02 1.227681338787078857e-01 -5.406621098518371582e-02
-2.263244986534118652e-01 3.078744187951087952e-02 1.107774823904037476e-01
-1.261845529079437256e-01 1.974423602223396301e-02 5.091151222586631775e-03
-7.858876138925552368e-02 1.084953397512435913e-01 -1.382962316274642944e-01
7.167901843786239624e-02 1.041924059391021729e-01 -1.212816089391708374e-01
-4.355536773800849915e-02 4.078801721334457397e-02 -1.070882156491279602e-01
-4.676614701747894287e-02 3.607453405857086182e-02 -7.518401741981506348e-02
-8.085922896862030029e-02 9.900385141372680664e-02 1.360596567392349243e-01
-5.670206621289253235e-02 3.127070143818855286e-02 1.266247779130935669e-02
-2.578277289867401123e-01 6.055705621838569641e-02 8.988277614116668701e-02
-6.886716932058334351e-02 8.975725620985031128e-02 1.596904397010803223e-01
-3.374124318361282349e-02 3.576462715864181519e-02 6.042607128620147705e-05
-4.165169224143028259e-02 3.447980806231498718e-02 -3.368598967790603638e-02
-1.795363426208496094e-01 9.004639834165573120e-02 8.997911214828491211e-02
-2.237732857465744019e-01 8.898612856864929199e-02 -3.136646933853626251e-03
-2.403498589992523193e-01 1.566828787326812744e-02 4.678512364625930786e-02
1.119434162974357605e-01 1.138274222612380981e-01 -4.852873086929321289e-02
-2.399600148200988770e-01 1.296588033437728882e-02 -7.332049310207366943e-02
-1.994320154190063477e-01 1.818380877375602722e-02 6.480494886636734009e-02
5.750020593404769897e-02 6.414826214313507080e-02 -5.778027325868606567e-02
-8.437335491180419922e-03 1.124676764011383057e-01 -1.389060467481613159e-01
7.194551080465316772e-02 1.133747249841690063e-01 -1.050931587815284729e-01
-7.315368950366973877e-02 2.838573232293128967e-02 1.815301738679409027e-02
-2.110401093959808350e-01 8.845493197441101074e-02 -1.060646623373031616e-01
-1.187886521220207214e-01 9.144277125597000122e-02 1.376920789480209351e-01
9.728327393531799316e-03 1.258833110332489014e-01 -5.528181046247482300e-02
-3.556801378726959229e-02 3.847286105155944824e-02 5.873408168554306030e-02
-3.028414547443389893e-01 5.918033048510551453e-02 -1.469876617193222046e-02
4.087366908788681030e-02 1.157750785350799561e-01 1.022856757044792175e-01
-2.757298648357391357e-01 1.352003216743469238e-02 -6.204617768526077271e-02
-2.842189371585845947e-01 1.371118426322937012e-02 -5.046018958091735840e-02
7.937709242105484009e-02 1.256883889436721802e-01 1.111513562500476837e-02
6.038545817136764526e-02 7.275255769491195679e-02 9.635279327630996704e-02
7.159399241209030151e-02 6.886956095695495605e-02 4.944632947444915771e-02
-2.452752292156219482e-01 1.480203121900558472e-02 -9.095320850610733032e-02
-5.350983887910842896e-02 4.335253685712814331e-02 1.134268939495086670e-01
-1.083899140357971191e-01 2.791684865951538086e-02 7.782208174467086792e-02
-6.579362601041793823e-02 7.675436884164810181e-02 1.711235940456390381e-01
-2.569070458412170410e-01 1.160949841141700745e-02 -4.586140066385269165e-02
-1.423604786396026611e-01 9.010630100965499878e-02 1.260390579700469971e-01
3.757127374410629272e-02 1.202104985713958740e-01 -9.946691989898681641e-02
-6.968490779399871826e-03 1.109699383378028870e-01 1.206969916820526123e-01
-5.704823881387710571e-02 3.201970085501670837e-02 3.168969601392745972e-02
-9.196000546216964722e-02 1.051701903343200684e-01 1.073551923036575317e-01
-1.050037965178489685e-01 9.579655528068542480e-02 -1.729953587055206299e-01
-2.837401032447814941e-01 4.243188723921775818e-02 -1.450562477111816406e-01
-2.877429723739624023e-01 6.224566698074340820e-02 2.794779278337955475e-02
-1.282979696989059448e-01 5.630062147974967957e-02 1.644261181354522705e-01
-2.177184224128723145e-01 8.994219452142715454e-02 1.128447242081165314e-02
-1.241636872291564941e-01 4.453150928020477295e-02 -1.825027018785476685e-01
-1.562520265579223633e-01 9.071820229291915894e-02 1.124337166547775269e-01
-2.147623598575592041e-01 6.718897819519042969e-02 -1.785924583673477173e-01
-2.452374994754791260e-01 3.427359834313392639e-02 1.083055436611175537e-01
7.271497696638107300e-02 1.228027343750000000e-01 -6.389156728982925415e-02
-3.047163784503936768e-01 5.607266351580619812e-02 6.017738953232765198e-03
-1.460887044668197632e-01 1.710551604628562927e-02 -2.911668270826339722e-02
-2.368357777595520020e-01 6.930452585220336914e-02 9.478410333395004272e-02
-1.918524354696273804e-01 1.630231738090515137e-02 -8.971308171749114990e-02
9.972537308931350708e-02 1.159746795892715454e-01 6.202740222215652466e-02
1.236009970307350159e-01 9.920053929090499878e-02 2.191293425858020782e-02
1.010790988802909851e-01 8.426236361265182495e-02 -5.109957605600357056e-02
-2.935098856687545776e-02 7.415844500064849854e-02 -1.865027397871017456e-01
4.838661104440689087e-02 8.426582068204879761e-02 1.334323287010192871e-01
-1.525510102510452271e-01 9.974909573793411255e-02 -1.228195726871490479e-01
-2.686920762062072754e-01 7.338067889213562012e-02 5.910690873861312866e-03
-3.037025630474090576e-01 1.901238784193992615e-02 -7.269561290740966797e-02
-1.460248529911041260e-01 8.664737641811370850e-02 -1.792619675397872925e-01
-3.135668039321899414e-01 1.942063122987747192e-02 -3.091817721724510193e-02
-4.517556354403495789e-02 1.228537634015083313e-01 8.082065731287002563e-03
-1.238925680518150330e-01 4.228718206286430359e-02 1.436783224344253540e-01
-9.405734390020370483e-02 4.277322813868522644e-02 1.362165659666061401e-01
-5.364023521542549133e-02 1.172803789377212524e-01 6.751940399408340454e-02
-4.567859694361686707e-02 7.275307178497314453e-02 1.688659638166427612e-01
-3.281644284725189209e-01 3.350343182682991028e-02 -5.518968403339385986e-02
-1.592279970645904541e-01 9.377380460500717163e-02 9.694765508174896240e-02
4.651247709989547729e-02 6.117514148354530334e-02 -6.695951521396636963e-02
-2.312629669904708862e-02 1.249227821826934814e-01 9.065939113497734070e-03
-1.387799531221389771e-01 3.645154088735580444e-02 1.313475966453552246e-01
-1.396719962358474731e-01 1.784320548176765442e-02 -4.774657078087329865e-03
4.498507827520370483e-02 5.680077150464057922e-02 4.389636218547821045e-03
5.487259477376937866e-02 7.499977946281433105e-02 -1.154362559318542480e-01
-2.785937488079071045e-01 1.917516440153121948e-02 4.469222575426101685e-02
-2.235848605632781982e-01 7.478517293930053711e-02 9.472967684268951416e-02
-3.128966391086578369e-01 3.018791228532791138e-02 3.109811060130596161e-02
-3.019304275512695312e-01 4.961063712835311890e-02 4.163089394569396973e-02
-1.995994448661804199e-01 4.597362130880355835e-02 -1.907117664813995361e-01
1.209747418761253357e-01 9.810263663530349731e-02 -3.025284036993980408e-02
-2.424816787242889404e-02 1.235358640551567078e-01 3.412918001413345337e-02
4.273428767919540405e-02 1.276568323373794556e-01 -2.644818089902400970e-02
1.056210771203041077e-01 8.467837423086166382e-02 -3.471438586711883545e-02
-8.587366342544555664e-02 2.702532708644866943e-02 3.448267281055450439e-02
-2.252677828073501587e-01 8.896268904209136963e-02 -4.702217131853103638e-02
-1.565434634685516357e-01 1.026874482631683350e-01 4.257937520742416382e-02
-2.676267623901367188e-01 4.248070344328880310e-02 9.757622331380844116e-02
-1.085533276200294495e-01 1.114093214273452759e-01 4.873383045196533203e-02
-1.046390756964683533e-01 9.902954101562500000e-02 1.230800449848175049e-01
2.234677970409393311e-02 1.180153936147689819e-01 9.500728547573089600e-02
-8.739272505044937134e-02 2.586205303668975830e-02 -3.944645449519157410e-02
-2.991853058338165283e-01 6.161207333207130432e-02 -4.568587988615036011e-02
-9.492508322000503540e-02 1.165492013096809387e-01 3.044519573450088501e-03
-4.137520119547843933e-02 1.171043664216995239e-01 7.874146103858947754e-02
-2.000452429056167603e-01 2.338297665119171143e-02 9.252107888460159302e-02
6.986594945192337036e-02 1.180925667285919189e-01 -9.132232517004013062e-02
-1.480645835399627686e-01 1.959035173058509827e-02 -8.068900555372238159e-02
-7.653082162141799927e-02 5.974041670560836792e-02 -1.919897645711898804e-01
-8.968581259250640869e-02 1.170920431613922119e-01 -5.055913329124450684e-02
-1.544037461280822754e-02 1.249661222100257874e-01 2.243500761687755585e-02
1.196871623396873474e-01 1.065890491008758545e-01 4.527334123849868774e-02
-4.167822003364562988e-02 9.230602532625198364e-02 -1.860785484313964844e-01
-7.026368379592895508e-02 2.946015447378158569e-02 -5.052610486745834351e-02
5.885087698698043823e-02 9.472361207008361816e-02 1.298161298036575317e-01
9.044849127531051636e-02 1.243680715560913086e-01 -1.213896647095680237e-02
-1.803389489650726318e-01 9.404830634593963623e-02 6.680545210838317871e-02
-6.658690422773361206e-02 1.184761226177215576e-01 -7.668928802013397217e-02
4.057688266038894653e-02 1.216177046298980713e-01 7.497366517782211304e-02
-1.657053530216217041e-01 1.559169217944145203e-02 -4.945121705532073975e-02
-9.680633246898651123e-02 5.333541333675384521e-02 -1.899604946374893188e-01
-1.082357764244079590e-02 1.165054589509963989e-01 9.706990420818328857e-02
-3.180753886699676514e-01 5.001645535230636597e-02 -4.420848190784454346e-02
1.772551983594894409e-02 5.193114280700683594e-02 6.134253740310668945e-02
-2.930569052696228027e-01 6.338363885879516602e-02 -2.243150025606155396e-03
5.298748612403869629e-03 1.254989802837371826e-01 3.506561368703842163e-02
-9.810574352741241455e-02 2.546525374054908752e-02 -6.540471315383911133e-02
-2.940629720687866211e-01 5.389941856265068054e-02 -1.161837130784988403e-01
-1.247204840183258057e-02 1.229647248983383179e-01 5.190335214138031006e-02
-1.789129674434661865e-01 9.956750273704528809e-02 -7.353393733501434326e-02
-5.340883135795593262e-02 1.205701380968093872e-01 -6.832890212535858154e-02
-2.335928380489349365e-01 7.389418780803680420e-02 -1.452501714229583740e-01
-5.514204129576683044e-02 3.329353779554367065e-02 -6.348431855440139771e-02
4.815913736820220947e-03 4.793851077556610107e-02 5.706773698329925537e-02
-4.033923149108886719e-03 7.338578253984451294e-02 -1.712852120399475098e-01
-3.104632794857025146e-01 2.019578218460083008e-02 -5.701128393411636353e-04
-1.887246966361999512e-01 7.528087496757507324e-02 1.285479515790939331e-01
-7.680505514144897461e-04 5.840186402201652527e-02 1.228313744068145752e-01
-1.947464793920516968e-01 1.781456917524337769e-02 -1.039383560419082642e-01
-1.248296946287155151e-01 1.051522120833396912e-01 7.543552666902542114e-02
-2.149917483329772949e-01 1.173179224133491516e-02 -6.190182641148567200e-03
-3.207680284976959229e-01 4.632315039634704590e-02 -6.135698407888412476e-02
-1.019064709544181824e-01 3.257259353995323181e-02 -1.278750002384185791e-01
-8.645885437726974487e-02 4.459442943334579468e-02 -1.648094654083251953e-01
-1.201946735382080078e-01 2.808755263686180115e-02 8.888621628284454346e-02
-3.957470506429672241e-02 1.037521809339523315e-01 1.367103457450866699e-01
-3.027758747339248657e-02 4.003505781292915344e-02 -7.732385396957397461e-02
2.239390462636947632e-02 1.238194033503532410e-01 5.937235057353973389e-02
5.062987655401229858e-02 6.045880168676376343e-02 4.340195655822753906e-02
-2.036968469619750977e-01 2.152901142835617065e-02 -1.294215023517608643e-01
-3.153018653392791748e-01 4.514333605766296387e-02 1.797358132898807526e-02
1.005076393485069275e-01 8.028441667556762695e-02 -2.133729308843612671e-02
-2.748504877090454102e-01 1.236733421683311462e-02 -3.646746277809143066e-02
-7.204091548919677734e-02 1.155069023370742798e-01 -9.971281141042709351e-02
1.024634018540382385e-01 9.643969684839248657e-02 -8.091711997985839844e-02
-1.326484978199005127e-02 4.990720748901367188e-02 -1.151152327656745911e-01
-1.916781067848205566e-02 1.155556067824363708e-01 -1.255104839801788330e-01
-3.160900473594665527e-01 3.595452010631561279e-02 -9.822374582290649414e-02
3.916945308446884155e-02 5.553975105285644531e-01 -9.212890639901161194e-03
-2.717319875955581665e-04 5.311006307601928711e-01 -1.962696434929966927e-03
-4.324033856391906738e-03 6.629005074501037598e-01 -1.128503819927573204e-03
-3.294609487056732178e-03 5.896332263946533203e-01 -4.571194760501384735e-03
5.488707125186920166e-02 6.439023613929748535e-01 -4.123722668737173080e-03
5.610819160938262939e-02 6.183960437774658203e-01 -8.575578220188617706e-03
3.570880740880966187e-02 6.175875663757324219e-01 -7.614364847540855408e-03
3.943249955773353577e-02 6.729461550712585449e-01 -5.405877251178026199e-03
3.779590129852294922e-02 5.957432389259338379e-01 -2.795361913740634918e-03
4.654590040445327759e-02 5.632833242416381836e-01 -4.991267807781696320e-03
-2.277866192162036896e-02 5.665329098701477051e-01 -5.173434037715196609e-04
2.677176892757415771e-02 5.267707705497741699e-01 -8.557675406336784363e-03
3.853686898946762085e-02 5.753033161163330078e-01 -3.517002798616886139e-03
3.770343959331512451e-02 5.235390067100524902e-01 -9.166343137621879578e-03
5.712152272462844849e-02 5.919559597969055176e-01 -9.299361146986484528e-03
5.300240963697433472e-02 6.127680540084838867e-01 -4.315773025155067444e-03
3.191535174846649170e-02 6.696149110794067383e-01 -5.102925468236207962e-03
1.929161138832569122e-02 6.447451710700988770e-01 -5.069421604275703430e-05
5.473469942808151245e-02 6.051030755043029785e-01 -4.766128957271575928e-03
2.361754514276981354e-02 5.019832849502563477e-01 -5.748293828219175339e-03
4.639244079589843750e-02 6.100704073905944824e-01 -3.465246874839067459e-03
2.042102999985218048e-02 5.634636878967285156e-01 -2.069476526230573654e-03
-4.782587289810180664e-03 5.504490137100219727e-01 -8.474010974168777466e-04
5.187489092350006104e-02 6.248317360877990723e-01 -8.246351033449172974e-03
1.208090316504240036e-02 5.094193816184997559e-01 -7.121842354536056519e-03
1.893914490938186646e-02 5.324089527130126953e-01 -3.257139585912227631e-03
3.197763860225677490e-02 6.943165063858032227e-01 -1.832723384723067284e-03
1.620513200759887695e-02 5.995358824729919434e-01 -6.512933410704135895e-03
-1.449525170028209686e-02 5.725997686386108398e-01 2.344963140785694122e-04
4.328721016645431519e-02 5.691323876380920410e-01 -9.252870455384254456e-03
1.966982707381248474e-02 6.178240180015563965e-01 -4.856029991060495377e-04
1.857930794358253479e-02 6.939813494682312012e-01 -7.908237166702747345e-04
5.705810338258743286e-02 5.874308347702026367e-01 -5.676899570971727371e-03
1.998293027281761169e-02 5.087128281593322754e-01 -4.781281575560569763e-03
5.685789138078689575e-02 6.136138439178466797e-01 -8.739238604903221130e-03
1.890745200216770172e-02 5.530757904052734375e-01 -7.741990499198436737e-03
-3.019677475094795227e-03 5.560967326164245605e-01 -6.957021541893482208e-04
4.407471418380737305e-02 6.722444891929626465e-01 -2.560758963227272034e-03
2.987497672438621521e-02 5.234704017639160156e-01 -8.754853159189224243e-03
5.710920691490173340e-02 5.588333010673522949e-01 -9.656783193349838257e-03
3.744406625628471375e-02 6.844950914382934570e-01 -1.946262549608945847e-03
1.259948778897523880e-02 5.356575250625610352e-01 -7.306428160518407822e-03
5.441600829362869263e-02 5.453958511352539062e-01 -7.207754068076610565e-03
4.398705437779426575e-02 5.982410311698913574e-01 -3.463258268311619759e-03
1.788982935249805450e-02 5.833485722541809082e-01 -1.191857038065791130e-03
3.120162151753902435e-02 5.884205698966979980e-01 -8.101322688162326813e-03
-2.302986569702625275e-02 5.993496775627136230e-01 -4.603918641805648804e-04
4.095772281289100647e-03 5.384935140609741211e-01 -1.836626790463924408e-03
4.742669686675071716e-02 6.648673415184020996e-01 -6.262877490371465683e-03
7.312055677175521851e-04 5.606281161308288574e-01 -7.177488878369331360e-04
3.547426313161849976e-02 6.256061792373657227e-01 -7.327793166041374207e-03
1.402441412210464478e-02 6.559643745422363281e-01 4.162047989666461945e-04
4.556578025221824646e-02 6.778970956802368164e-01 -5.310970358550548553e-03
2.921535260975360870e-02 6.547768712043762207e-01 -8.491107728332281113e-04
1.688246056437492371e-02 5.160511136054992676e-01 -7.689338177442550659e-03
1.949268765747547150e-02 6.272594928741455078e-01 -2.995349932461977005e-04
2.494031749665737152e-02 5.408948063850402832e-01 -3.418940585106611252e-03
-1.129111088812351227e-02 6.116519570350646973e-01 -2.705733990296721458e-03
-1.331761293113231659e-02 5.603834390640258789e-01 -2.179099246859550476e-04
8.266582153737545013e-03 5.558441877365112305e-01 -1.377571374177932739e-03
6.833411753177642822e-03 5.055243968963623047e-01 -6.416041404008865356e-03
1.205157209187746048e-02 5.601676702499389648e-01 -6.978471763432025909e-03
6.456798315048217773e-02 5.917578339576721191e-01 -7.060854695737361908e-03
6.511522829532623291e-02 6.401703953742980957e-01 -6.580208893865346909e-03
1.868285797536373138e-02 6.761806011199951172e-01 -1.723878085613250732e-06
4.769469052553176880e-02 6.204513311386108398e-01 -3.408583812415599823e-03
1.687280833721160889e-02 6.676756143569946289e-01 2.062488347291946411e-04
3.592012077569961548e-02 6.630930304527282715e-01 -1.513340044766664505e-03
9.078901261091232300e-03 5.774077773094177246e-01 -6.858857814222574234e-04
2.724558115005493164e-03 6.491205692291259766e-01 1.042992807924747467e-03
6.914058700203895569e-03 6.148675680160522461e-01 -5.054565612226724625e-03
-4.739075899124145508e-03 5.992341637611389160e-01 -4.102845210582017899e-03
3.800730779767036438e-02 6.370818614959716797e-01 -7.075911387801170349e-03
2.255710028111934662e-02 5.295786857604980469e-01 -3.739829640835523605e-03
2.460085041821002960e-02 5.218821167945861816e-01 -8.377532474696636200e-03
1.535521633923053741e-02 5.435397624969482422e-01 -2.427363768219947815e-03
8.770146407186985016e-03 6.495179533958435059e-01 7.286351174116134644e-04
-5.283992737531661987e-03 5.608496665954589844e-01 -4.924138542264699936e-03
1.207710988819599152e-02 6.202947497367858887e-01 1.560216769576072693e-04
5.591035634279251099e-02 5.418148636817932129e-01 -9.426408447325229645e-03
1.775501854717731476e-02 5.126805901527404785e-01 -4.289119038730859756e-03
2.282289043068885803e-02 5.754758715629577637e-01 -1.873353030532598495e-03
4.747714102268218994e-02 6.374297738075256348e-01 -3.098750486969947815e-03
4.839582741260528564e-02 5.851734876632690430e-01 -9.202042594552040100e-03
9.274193085730075836e-03 6.700131893157958984e-01 6.425334140658378601e-04
-6.707154214382171631e-03 5.842979550361633301e-01 4.068720154464244843e-04
6.655574589967727661e-02 6.225805282592773438e-01 -8.002771995961666107e-03
-1.986356452107429504e-03 6.568447351455688477e-01 -1.992539269849658012e-03
-3.351774066686630249e-03 5.511403679847717285e-01 -5.319301504641771317e-03
1.328238844871520996e-02 5.950426459312438965e-01 -4.933248274028301239e-04
3.033268265426158905e-02 5.402593612670898438e-01 -4.011500626802444458e-03
-2.381369657814502716e-02 5.750884413719177246e-01 -6.410428322851657867e-04
5.127199366688728333e-02 6.012402772903442383e-01 -4.353731404989957809e-03
3.582856059074401855e-02 5.915035605430603027e-01 -8.359380066394805908e-03
-1.719936914741992950e-02 5.552148222923278809e-01 -4.786984063684940338e-04
2.786068059504032135e-02 6.852938532829284668e-01 -3.716259961947798729e-03
1.524259336292743683e-02 5.377973914146423340e-01 -2.677808748558163643e-03
4.767160117626190186e-02 5.492430925369262695e-01 -5.798622500151395798e-03
-4.779510200023651123e-04 5.362419486045837402e-01 -1.690045697614550591e-03
-8.804854005575180054e-03 5.510557293891906738e-01 -4.545204807072877884e-03
-1.968754455447196960e-03 6.170946359634399414e-01 -3.879461437463760376e-03
3.657140210270881653e-02 5.542237758636474609e-01 -4.094068892300128937e-03
7.414859719574451447e-03 6.648606061935424805e-01 -2.864958252757787704e-03
1.634823903441429138e-02 5.062065124511718750e-01 -7.463256362825632095e-03
5.090099573135375977e-02 6.632072329521179199e-01 -3.485862631350755692e-03
-1.109608821570873260e-02 5.278365015983581543e-01 -1.924512209370732307e-03
4.419667646288871765e-03 6.718040108680725098e-01 7.873168215155601501e-04
2.054671943187713623e-02 5.263876914978027344e-01 -8.066943846642971039e-03
1.430779229849576950e-02 6.797898411750793457e-01 2.060625702142715454e-04
-7.605133578181266785e-03 6.488211154937744141e-01 1.278584823012351990e-03
3.903219848871231079e-02 6.484282612800598145e-01 -1.933211227878928185e-03
3.325948491692543030e-02 5.756030678749084473e-01 -2.912397962063550949e-03
2.622538432478904724e-02 6.171084642410278320e-01 -6.894214078783988953e-03
2.029793709516525269e-02 5.791460275650024414e-01 -1.528274733573198318e-03
4.183712601661682129e-02 6.773897409439086914e-01 -2.338453195989131927e-03
5.487296730279922485e-03 5.679993033409118652e-01 -7.467055693268775940e-04
-7.424317300319671631e-03 6.224688291549682617e-01 -2.892508171498775482e-03
6.078002974390983582e-03 5.915590524673461914e-01 -5.664244294166564941e-03
-4.012338817119598389e-03 5.392368435859680176e-01 -1.385766780003905296e-03
-3.108184784650802612e-03 6.300619244575500488e-01 -3.208931069821119308e-03
-1.521768607199192047e-02 6.208083629608154297e-01 1.228493638336658478e-03
4.963170737028121948e-02 5.413775444030761719e-01 -9.632077068090438843e-03
1.375563442707061768e-04 6.301012635231018066e-01 1.025378238409757614e-03
4.671493917703628540e-02 6.418633460998535156e-01 -7.378606591373682022e-03
4.197658225893974304e-02 5.822828412055969238e-01 -8.947920054197311401e-03
-1.020789332687854767e-02 5.912659168243408203e-01 7.034069858491420746e-04
2.806295827031135559e-02 6.503602862358093262e-01 -7.692724466323852539e-04
2.231688424944877625e-02 6.130012273788452148e-01 -6.684644613415002823e-03
1.400642748922109604e-02 6.405014395713806152e-01 -4.861855879426002502e-03
3.184498101472854614e-02 6.763556003570556641e-01 -4.684526473283767700e-03
-5.759733170270919800e-02 2.509933114051818848e-01 -5.434085149317979813e-03
-3.394828364253044128e-02 2.468937337398529053e-01 -3.529248759150505066e-03
-6.798863410949707031e-03 2.267793118953704834e-01 -1.430605771020054817e-03
3.254289925098419189e-02 1.617182791233062744e-01 3.535745199769735336e-04
2.097170799970626831e-03 1.824102103710174561e-01 -2.386684063822031021e-03
9.530464187264442444e-03 2.013138383626937866e-01 -3.106505610048770905e-04
-4.097755625844001770e-02 2.082009166479110718e-01 -5.758193321526050568e-03
-6.731124967336654663e-02 2.140315771102905273e-01 -6.752449087798595428e-03
5.167467519640922546e-03 2.182431966066360474e-01 -5.695272702723741531e-04
-7.306652143597602844e-03 1.613263487815856934e-01 -3.027015598490834236e-03
2.616390399634838104e-02 1.866443604230880737e-01 7.607454899698495865e-04
-1.252897083759307861e-03 1.604591310024261475e-01 -2.580218017101287842e-03
-5.157839879393577576e-02 2.525694668292999268e-01 -5.814466625452041626e-03
-5.145923048257827759e-02 2.201917916536331177e-01 -5.140213295817375183e-03
2.383775450289249420e-02 1.910493075847625732e-01 6.404181476682424545e-04
-6.773785501718521118e-02 2.641269266605377197e-01 -6.484508514404296875e-03
1.214960776269435883e-02 1.612681150436401367e-01 -1.532445894554257393e-03
2.927341498434543610e-02 1.994033306837081909e-01 5.344289820641279221e-04
-7.043696939945220947e-02 2.514624893665313721e-01 -6.549112498760223389e-03
7.507218047976493835e-03 1.883554160594940186e-01 -1.851084642112255096e-03
-4.656171798706054688e-02 2.543312311172485352e-01 -5.294282920658588409e-03
-4.715699702501296997e-02 2.182437032461166382e-01 -6.146939471364021301e-03
1.556564122438430786e-03 2.212416976690292358e-01 -8.263108320534229279e-04
-1.978467032313346863e-02 2.098404318094253540e-01 -2.546338364481925964e-03
-4.955656826496124268e-02 1.995496153831481934e-01 -5.373953375965356827e-03
-4.954283684492111206e-02 2.273573577404022217e-01 -4.876831080764532089e-03
-7.518070191144943237e-02 2.278734743595123291e-01 -8.182355202734470367e-03
1.358481310307979584e-02 1.840014457702636719e-01 -1.348618417978286743e-03
-8.279461413621902466e-02 2.428597509860992432e-01 -7.771018892526626587e-03
-7.777133956551551819e-03 2.148494571447372437e-01 -1.532955328002572060e-03
-2.856800332665443420e-03 2.110212594270706177e-01 -1.178195001557469368e-03
-1.861882209777832031e-02 1.935962140560150146e-01 -2.697143703699111938e-03
-2.219340577721595764e-02 2.015216946601867676e-01 -4.283632617443799973e-03
-2.196853980422019958e-03 1.691490262746810913e-01 -2.778408117592334747e-03
2.278652228415012360e-02 1.686633378267288208e-01 -6.155523005872964859e-04
-2.436004951596260071e-02 1.824539303779602051e-01 -3.461661515757441521e-03
4.900230094790458679e-03 1.703325510025024414e-01 -2.192815300077199936e-03
-1.634430326521396637e-02 2.264122664928436279e-01 -2.142318990081548691e-03
-1.411106158047914505e-02 2.385141700506210327e-01 -2.755026333034038544e-03
-6.258020550012588501e-02 2.193980365991592407e-01 -6.177690811455249786e-03
3.548242151737213135e-03 1.858313977718353271e-01 -2.230759244412183762e-03
-5.817335844039916992e-02 2.560088932514190674e-01 -5.507764406502246857e-03
-3.112174011766910553e-02 1.977087706327438354e-01 -5.051804240792989731e-03
-1.725958101451396942e-02 2.202878296375274658e-01 -3.566356608644127846e-03
5.885796621441841125e-03 2.251577228307723999e-01 -5.901481490582227707e-04
-1.812351122498512268e-02 2.059050351381301880e-01 -3.883953206241130829e-03
-8.076071739196777344e-02 2.273123413324356079e-01 -7.824661210179328918e-03
-5.034065991640090942e-02 2.237537354230880737e-01 -4.990738350898027420e-03
-5.733318626880645752e-03 1.978078931570053101e-01 -2.912852447479963303e-03
-3.696190193295478821e-03 1.632341593503952026e-01 -2.832801779732108116e-03
-2.739986032247543335e-02 1.888811290264129639e-01 -4.798569250851869583e-03
-4.092268645763397217e-02 2.016723304986953735e-01 -5.803653970360755920e-03
-3.029521554708480835e-03 2.289825528860092163e-01 -1.184803200885653496e-03
-4.329555481672286987e-02 2.343354374170303345e-01 -4.279414191842079163e-03
-3.741893917322158813e-02 1.867370754480361938e-01 -5.561278201639652252e-03
9.410606697201728821e-03 1.758970618247985840e-01 -1.789330039173364639e-03
6.183609366416931152e-05 2.328957915306091309e-01 -1.106108771637082100e-03
2.017419971525669098e-02 1.562815159559249878e-01 -7.198688108474016190e-04
-4.703722894191741943e-02 2.456490695476531982e-01 -5.621905438601970673e-03
1.664808578789234161e-02 1.910822987556457520e-01 -9.691994637250900269e-04
2.547297440469264984e-02 1.587641239166259766e-01 -3.088319208472967148e-04
-5.277086421847343445e-02 2.170946300029754639e-01 -6.606022827327251434e-03
-3.694617375731468201e-02 1.930541694164276123e-01 -4.346766509115695953e-03
-3.323201835155487061e-02 1.937190592288970947e-01 -3.989296965301036835e-03
-7.057115435600280762e-02 2.394010275602340698e-01 -7.696021348237991333e-03
-5.913132801651954651e-03 2.120934575796127319e-01 -2.699070610105991364e-03
1.155828870832920074e-02 1.671094745397567749e-01 -1.620043534785509109e-03
-7.684735953807830811e-02 2.217612117528915405e-01 -8.326981216669082642e-03
-6.342995911836624146e-03 1.739166378974914551e-01 -2.076557371765375137e-03
6.714614108204841614e-03 2.053756117820739746e-01 -1.655580243095755577e-03
1.066581718623638153e-02 1.940089017152786255e-01 -2.964204177260398865e-04
-1.347009744495153427e-02 1.674192547798156738e-01 -3.633209969848394394e-03
-3.012225963175296783e-02 2.189223319292068481e-01 -3.305661957710981369e-03
-7.470665872097015381e-02 2.498739659786224365e-01 -7.809010334312915802e-03
-3.058326058089733124e-02 2.234526574611663818e-01 -3.300778102129697800e-03
-1.209654472768306732e-02 1.820835918188095093e-01 -3.587873419746756554e-03
-2.274498529732227325e-02 1.976438313722610474e-01 -2.979356329888105392e-03
1.660106517374515533e-02 2.177540659904479980e-01 -2.159848809242248535e-04
-8.748688548803329468e-02 2.525971233844757080e-01 -8.184375241398811340e-03
-4.135012626647949219e-02 1.850693225860595703e-01 -5.012115463614463806e-03
-1.647184044122695923e-02 2.167243063449859619e-01 -3.565220860764384270e-03
-7.485859096050262451e-03 2.313946336507797241e-01 -2.349812537431716919e-03
-1.053435914218425751e-02 1.695713102817535400e-01 -2.590779680758714676e-03
-4.498689249157905579e-02 1.862394809722900391e-01 -6.081073544919490814e-03
-5.279956758022308350e-02 2.059789746999740601e-01 -5.527711473405361176e-03
3.086068667471408844e-02 1.863605678081512451e-01 3.650782164186239243e-04
2.430867217481136322e-02 1.639526635408401489e-01 -4.728687927126884460e-04
-6.469256430864334106e-02 2.468494325876235962e-01 -7.083914242684841156e-03
-6.453461945056915283e-02 1.985310316085815430e-01 -6.990621797740459442e-03
-6.217053532600402832e-02 2.627603411674499512e-01 -6.312467157840728760e-03
-6.872249767184257507e-03 1.782920062541961670e-01 -2.008670940995216370e-03
-4.852318763732910156e-02 1.826842725276947021e-01 -6.092944648116827011e-03
1.267206855118274689e-02 1.761661171913146973e-01 -4.226854071021080017e-04
-1.066636852920055389e-02 2.253744006156921387e-01 -2.842224203050136566e-03
2.828867919743061066e-02 1.907708942890167236e-01 1.818400342017412186e-04
-5.527757853269577026e-02 2.202927768230438232e-01 -5.484312772750854492e-03
-3.448892757296562195e-02 2.154638618230819702e-01 -5.142413079738616943e-03
-5.741995945572853088e-02 2.345657795667648315e-01 -6.737580988556146622e-03
-1.792792230844497681e-03 2.141065746545791626e-01 -2.275031991302967072e-03
2.115196175873279572e-02 2.083515971899032593e-01 4.861892666667699814e-04
-2.132898569107055664e-01 -8.357363939285278320e-02 6.373027712106704712e-02
-4.038599878549575806e-02 -1.410632580518722534e-01 -3.354808688163757324e-01
1.839449703693389893e-01 -1.946229040622711182e-01 -1.378699839115142822e-01
2.929746806621551514e-01 -1.626981198787689209e-01 -1.397936046123504639e-01
1.756217777729034424e-01 -1.689575910568237305e-01 -2.839314043521881104e-01
2.366371899843215942e-01 -1.734499633312225342e-01 -2.193583846092224121e-01
3.038701228797435760e-02 -3.353124856948852539e-02 -2.963410019874572754e-01
-1.879000067710876465e-01 -1.603031158447265625e-02 -1.129071339964866638e-01
-2.229355871677398682e-01 -1.189594194293022156e-01 -1.001361981034278870e-01
-2.114658989012241364e-02 -2.780245989561080933e-02 -2.895047366619110107e-01
-1.867454312741756439e-02 -1.842054128646850586e-01 -1.712332963943481445e-01
-1.895134150981903076e-01 -1.077535748481750488e-01 -2.593933641910552979e-01
6.561936438083648682e-02 -1.870979964733123779e-01 -2.253257036209106445e-01
2.430041581392288208e-01 -7.022432982921600342e-02 -1.914924085140228271e-01
2.397042959928512573e-01 -1.854617744684219360e-01 -1.334489434957504272e-01
7.711867243051528931e-02 -2.304991334676742554e-02 3.217110782861709595e-02
5.690206587314605713e-02 -1.965373158454895020e-01 -8.680997788906097412e-02
-1.218686401844024658e-01 -6.447762250900268555e-02 1.493375003337860107e-01
-2.557761371135711670e-01 -6.704232096672058105e-02 -4.715850576758384705e-02
9.293344616889953613e-02 -1.985067725181579590e-01 -8.644666522741317749e-02
-2.469336092472076416e-01 -9.711252152919769287e-02 -6.961379945278167725e-02
2.237378954887390137e-01 -1.896549165248870850e-01 -1.210351288318634033e-01
1.564066857099533081e-01 -6.754166632890701294e-02 1.245704367756843567e-01
-1.189065724611282349e-01 -1.450137048959732056e-01 -2.597281634807586670e-01
-2.314996719360351562e-01 -1.112293899059295654e-01 -1.275096833705902100e-01
1.464857161045074463e-01 -8.331966400146484375e-02 -3.434889316558837891e-01
-9.460709989070892334e-02 -1.177609711885452271e-02 -2.110591530799865723e-01
6.662836670875549316e-02 -2.834973484277725220e-02 7.064767926931381226e-02
-1.040199398994445801e-01 -1.648858934640884399e-01 -1.762855350971221924e-01
2.670651301741600037e-03 -1.895028054714202881e-01 -4.463088512420654297e-02
-2.284775674343109131e-01 -8.941140770912170410e-02 -2.154966592788696289e-01
-2.164472937583923340e-01 -1.108201146125793457e-01 9.534306824207305908e-03
6.163966655731201172e-02 -1.259427517652511597e-02 -5.064143985509872437e-02
-8.067848533391952515e-02 -1.427287012338638306e-01 -3.057773113250732422e-01
1.262925565242767334e-01 -1.984824389219284058e-01 -6.472050398588180542e-02
2.107523381710052490e-01 -1.409865319728851318e-01 -3.106280565261840820e-01
-6.178072839975357056e-02 -5.158643797039985657e-02 -3.432219624519348145e-01
-7.225964218378067017e-04 -4.057734087109565735e-02 1.376538872718811035e-01
-4.664064198732376099e-02 -1.819684803485870361e-01 -1.271511912345886230e-01
-3.247006237506866455e-02 -1.672329306602478027e-01 7.820972055196762085e-02
-1.698108166456222534e-01 -1.409144848585128784e-01 -1.810363680124282837e-01
1.111026108264923096e-01 -2.468571811914443970e-02 -5.677364766597747803e-03
2.523794174194335938e-01 -1.371233761310577393e-01 -2.731133699417114258e-01
-1.572040617465972900e-01 -1.270242780447006226e-02 -1.619818061590194702e-01
-2.924382127821445465e-02 -3.744474798440933228e-02 -3.181986808776855469e-01
-7.918600738048553467e-02 -2.522990107536315918e-03 -8.828287571668624878e-02
-7.094900310039520264e-02 -3.430627286434173584e-03 -5.044957622885704041e-02
-8.088663965463638306e-02 -2.670812606811523438e-02 9.538800269365310669e-02
-2.447554469108581543e-01 -4.518647491931915283e-02 -1.374514102935791016e-01
1.716731637716293335e-01 -3.541678190231323242e-02 -1.079737991094589233e-01
2.396280616521835327e-01 -6.453797966241836548e-02 -1.655490845441818237e-01
-7.110145688056945801e-02 -5.797829106450080872e-02 1.634789407253265381e-01
1.165001615881919861e-01 -1.890211552381515503e-01 3.557830303907394409e-02
1.560189872980117798e-01 -1.598875820636749268e-01 1.279727220535278320e-01
-1.393499970436096191e-01 -6.724715232849121094e-03 -9.693003445863723755e-02
-1.018659174442291260e-01 -1.687760949134826660e-01 -1.338669508695602417e-01
1.686859875917434692e-01 -1.877366006374359131e-01 2.728819847106933594e-02
5.986225605010986328e-02 -1.582523435354232788e-02 -1.826662272214889526e-01
-4.685683548450469971e-02 -1.599097996950149536e-02 -2.425426542758941650e-01
-1.198476403951644897e-01 -1.114755868911743164e-02 6.025731563568115234e-03
1.237045899033546448e-01 -8.768372982740402222e-02 -3.602913320064544678e-01
-7.630789652466773987e-03 -7.209454476833343506e-02 -3.740805983543395996e-01
-8.854971081018447876e-02 -1.469482630491256714e-01 1.007472053170204163e-01
-2.967722713947296143e-03 -1.897859871387481689e-01 -7.337368279695510864e-02
2.421322762966156006e-01 -7.198870927095413208e-02 1.693346351385116577e-02
1.546679139137268066e-01 -3.125598281621932983e-02 -5.786016583442687988e-02
2.506987452507019043e-01 -6.554657220840454102e-02 -8.529139310121536255e-02
1.880430430173873901e-01 -9.035833179950714111e-02 -3.213531970977783203e-01
-1.105121821165084839e-01 -1.673333048820495605e-01 -1.003726199269294739e-01
2.147896587848663330e-01 -5.509180203080177307e-02 -7.952578365802764893e-03
6.045694649219512939e-02 -1.298032701015472412e-02 -1.460937410593032837e-01
-1.138082742691040039e-01 -1.114801764488220215e-01 1.485089957714080811e-01
3.766605257987976074e-02 -9.098596870899200439e-03 -1.279307156801223755e-01
-1.329551488161087036e-01 -1.306128948926925659e-01 9.888655692338943481e-02
1.905395686626434326e-01 -4.621074721217155457e-02 -6.446145474910736084e-03
6.762748956680297852e-02 -6.356269121170043945e-02 1.671915352344512939e-01
-2.353959977626800537e-01 -4.309338331222534180e-02 -1.674251258373260498e-01
3.988395258784294128e-02 -1.929636448621749878e-01 -3.055585175752639771e-02
-2.373652718961238861e-02 -1.750743389129638672e-01 4.797034710645675659e-02
-2.243298292160034180e-01 -2.871494740247726440e-02 -1.002440899610519409e-01
1.113283634185791016e-01 -1.436623781919479370e-01 1.670070290565490723e-01
2.671701014041900635e-01 -1.784696280956268311e-01 -8.898680657148361206e-02
-7.973786443471908569e-02 -1.228949129581451416e-01 -3.437173962593078613e-01
-3.146988898515701294e-02 -9.083941578865051270e-02 1.939897239208221436e-01
9.818099439144134521e-02 -1.635654270648956299e-01 1.323537230491638184e-01
-1.728532612323760986e-01 -1.021024063229560852e-01 1.036668792366981506e-01
2.750167548656463623e-01 -9.888377040624618530e-02 -2.146922349929809570e-01
-1.738064289093017578e-01 -1.388413459062576294e-02 -1.372860372066497803e-01
2.787762582302093506e-01 -1.727773845195770264e-01 -1.208637952804565430e-01
-1.036043018102645874e-01 -3.206606954336166382e-02 1.039685979485511780e-01
6.930828094482421875e-04 -9.050757437944412231e-02 -3.847001194953918457e-01
2.986697554588317871e-01 -1.617899835109710693e-01 -9.692689031362533569e-02
-1.504856906831264496e-02 -7.182553410530090332e-03 -1.471617817878723145e-02
2.767788767814636230e-01 -1.722283065319061279e-01 -4.682735353708267212e-02
2.515503168106079102e-01 -1.015796363353729248e-01 -2.632227838039398193e-01
-1.924730837345123291e-01 -3.782858699560165405e-02 -2.364024221897125244e-01
9.556060284376144409e-02 -3.700478374958038330e-02 -2.710675895214080811e-01
1.739070415496826172e-01 -6.368410587310791016e-02 -2.843891978263854980e-01
3.105847351253032684e-02 -1.911474764347076416e-01 -1.679697036743164062e-01
-2.543977797031402588e-01 -7.637065649032592773e-02 -1.449067592620849609e-01
-1.850939355790615082e-02 -3.560237586498260498e-03 -9.355141967535018921e-02
-4.741984605789184570e-02 -1.483268439769744873e-01 -3.154458701610565186e-01
-1.116478890180587769e-01 -1.620986461639404297e-01 -5.292966961860656738e-03
5.269088968634605408e-02 -6.235741078853607178e-02 -3.558819890022277832e-01
1.602352112531661987e-01 -1.941748559474945068e-01 -1.657325029373168945e-02
-1.108788512647151947e-02 -3.359787166118621826e-02 1.203170940279960632e-01
8.749265223741531372e-02 -1.743817329406738281e-01 -2.871923744678497314e-01
1.228275001049041748e-01 -9.189359843730926514e-02 1.779383122920989990e-01
-8.492068946361541748e-02 -3.559909760951995850e-02 1.195503696799278259e-01
1.753997057676315308e-01 -3.953274711966514587e-02 -2.288376539945602417e-02
1.143059656023979187e-01 -4.195457324385643005e-02 8.790708333253860474e-02
1.371147576719522476e-02 -5.471993982791900635e-02 -3.511277437210083008e-01
-2.099787145853042603e-01 -9.875790774822235107e-02 -2.400383353233337402e-01
1.474236547946929932e-01 -1.786029040813446045e-01 7.876125723123550415e-02
1.323202997446060181e-01 -5.218021944165229797e-02 1.061324104666709900e-01
-2.991930581629276276e-02 -3.336712718009948730e-03 -6.897170096635818481e-02
-1.232270151376724243e-01 -1.634655296802520752e-01 -7.978219538927078247e-02
1.418833136558532715e-01 -1.985764205455780029e-01 -8.340425789356231689e-02
-1.237831450998783112e-02 -4.331714287400245667e-02 -3.314367532730102539e-01
-1.636817306280136108e-01 -1.890860497951507568e-02 -1.981920897960662842e-01
-1.494279801845550537e-01 -6.928493082523345947e-02 1.345649361610412598e-01
-6.334431469440460205e-02 -1.366436332464218140e-01 -3.312739133834838867e-01
-2.071666270494461060e-01 -2.923989295959472656e-02 -1.804326623678207397e-01
2.604962699115276337e-02 -2.003147453069686890e-02 5.592563003301620483e-02
1.909021288156509399e-01 -5.491495877504348755e-02 4.485536366701126099e-02
-2.368839457631111145e-03 -1.933804899454116821e-02 6.488948315382003784e-02
3.013047389686107635e-02 -1.259467154741287231e-01 1.898070871829986572e-01
2.176935225725173950e-01 -5.710019171237945557e-02 -1.837825179100036621e-01
-3.751047700643539429e-02 -1.838268637657165527e-01 -6.262984126806259155e-02
-1.769151836633682251e-01 -1.435794234275817871e-01 -1.130033284425735474e-01
2.524000704288482666e-01 -6.901860237121582031e-02 -3.794047608971595764e-02
-7.655527442693710327e-02 -1.015114858746528625e-01 1.776401400566101074e-01
-1.990990154445171356e-02 -1.873886883258819580e-01 -8.809000253677368164e-02
8.518678694963455200e-02 -2.063513547182083130e-02 3.291800618171691895e-03
2.374641597270965576e-03 -1.359208524227142334e-01 1.737239062786102295e-01
-2.040249705314636230e-01 -1.295468807220458984e-01 -1.272156983613967896e-01
1.303442865610122681e-01 -4.533144831657409668e-02 -2.712589204311370850e-01
-1.010028831660747528e-02 -1.416419446468353271e-01 -3.472591936588287354e-01
1.339916139841079712e-01 -6.962238252162933350e-02 -3.312818408012390137e-01
7.013233751058578491e-02 -1.957391053438186646e-01 -1.489636301994323730e-01
-1.040704548358917236e-01 -1.916123181581497192e-02 -2.458055317401885986e-01
-3.790383040904998779e-02 -1.347499191761016846e-01 1.614682674407958984e-01
7.211603224277496338e-02 -1.798810958862304688e-01 -2.641444802284240723e-01
1.454352587461471558e-01 -1.976470649242401123e-01 -1.311316490173339844e-01
4.800297319889068604e-03 -6.743111461400985718e-02 1.832454800605773926e-01
1.981495767831802368e-01 -1.804215759038925171e-01 -2.301610410213470459e-01
3.125997185707092285e-01 -1.181089505553245544e-01 -7.485940307378768921e-02
-9.708096086978912354e-02 -7.090234756469726562e-02 1.662116944789886475e-01
2.931406497955322266e-01 -1.537672728300094604e-01 -1.780170649290084839e-01
2.261473685503005981e-01 -7.840023934841156006e-02 -2.560486495494842529e-01
-7.622415199875831604e-03 -2.520673722028732300e-02 9.167239814996719360e-02
-4.989398270845413208e-02 -1.790294647216796875e-01 -2.143329381942749023e-02
-1.571546494960784912e-01 -1.518527567386627197e-01 -1.046574115753173828e-01
1.166770011186599731e-01 -1.968105137348175049e-01 -1.543751358985900879e-01
8.242940530180931091e-03 -1.684202104806900024e-01 1.001529768109321594e-01
4.830111563205718994e-02 -1.363751888275146484e-01 1.802269518375396729e-01
1.328966915607452393e-01 -1.968750208616256714e-01 -3.496886789798736572e-02
1.941247582435607910e-01 -1.946999132633209229e-01 -8.027967065572738647e-02
-1.533587574958801270e-01 -1.069716438651084900e-01 -3.060354292392730713e-01
2.623210847377777100e-01 -7.641260325908660889e-02 -1.627751886844635010e-01
6.481377780437469482e-02 -1.740691661834716797e-01 -2.855643928050994873e-01
-1.793022602796554565e-01 -2.618778496980667114e-02 2.728499472141265869e-02
3.126749396324157715e-01 -1.330265998840332031e-01 -4.811576008796691895e-02
2.411481924355030060e-02 -1.896162480115890503e-01 -9.605862200260162354e-03
-1.549471169710159302e-01 -1.389456987380981445e-01 4.023166745901107788e-02
2.108090370893478394e-01 -1.903747916221618652e-01 -1.475938111543655396e-01
-2.765606530010700226e-02 -1.786290109157562256e-02 6.374751776456832886e-02
2.008944377303123474e-02 -1.928618997335433960e-01 -1.094251126050949097e-01
-1.725023239850997925e-01 -1.451851725578308105e-01 -6.539852172136306763e-02
3.083610534667968750e-01 -1.229570209980010986e-01 -3.010432422161102295e-02
7.732576131820678711e-02 -1.404964178800582886e-02 -8.906944841146469116e-02
