2.114272117614746094e-02 -2.205445021390914917e-01 -1.112028434872627258e-01
-1.013513188809156418e-02 -2.486487478017807007e-01 -7.152432203292846680e-02
-1.943425391800701618e-03 -8.350014686584472656e-02 -1.752890646457672119e-01
-1.145596895366907120e-02 -1.409449130296707153e-01 -2.591997087001800537e-01
-6.703705526888370514e-03 -9.003055095672607422e-02 -2.081790566444396973e-01
-4.203169373795390129e-04 -1.326472163200378418e-01 -9.213958680629730225e-02
5.600377917289733887e-03 -1.243697404861450195e-01 -2.193257063627243042e-01
1.780268922448158264e-02 -2.192163467407226562e-01 -1.434373557567596436e-01
8.190922439098358154e-03 -3.387008011341094971e-01 -3.783676773309707642e-02
2.264123409986495972e-02 -1.729437410831451416e-01 -8.467572927474975586e-02
-1.274234708398580551e-02 -1.932085007429122925e-01 -1.064257174730300903e-01
7.732311263680458069e-03 -3.318483829498291016e-01 -1.172081977128982544e-01
-1.026466581970453262e-02 -3.286187052726745605e-01 -8.049170672893524170e-02
1.820389553904533386e-02 -2.424205541610717773e-01 -1.285409927368164062e-01
1.454487536102533340e-02 -3.173394799232482910e-01 -8.028656989336013794e-02
1.304669771343469620e-02 -1.917384564876556396e-01 -2.639477699995040894e-02
-1.971113681793212891e-02 -2.413912266492843628e-01 -1.368362754583358765e-01
-1.244027353823184967e-02 -2.354471683502197266e-01 -8.707360923290252686e-02
-1.338790543377399445e-02 -1.318174302577972412e-01 -1.626830548048019409e-01
9.616035036742687225e-03 -3.421865403652191162e-01 -7.241860032081604004e-02
3.822419239440932870e-05 -2.121369391679763794e-01 -4.196295887231826782e-02
-1.965104416012763977e-02 -1.674362421035766602e-01 -1.830369979143142700e-01
-2.276718057692050934e-02 -2.205178886651992798e-01 -2.305686622858047485e-01
-2.071169018745422363e-02 -1.892303526401519775e-01 -1.738810539245605469e-01
-1.009023562073707581e-02 -1.268486231565475464e-01 -1.443113982677459717e-01
-2.156058885157108307e-02 -2.750666439533233643e-01 -2.083811461925506592e-01
8.449257584288716316e-04 -2.279210239648818970e-01 -3.409541398286819458e-02
-1.281745638698339462e-02 -3.438405096530914307e-01 -1.306768804788589478e-01
2.231571264564990997e-02 -2.010669112205505371e-01 -4.392836987972259521e-02
-1.310936268419027328e-02 -1.256395876407623291e-01 -1.691887974739074707e-01
-3.688749391585588455e-03 -3.252997994422912598e-01 -1.741838753223419189e-01
1.210488565266132355e-02 -3.136895895004272461e-01 -1.118694096803665161e-01
2.162743126973509789e-03 -2.777060270309448242e-01 -1.963536292314529419e-01
-6.893291138112545013e-03 -1.728558242321014404e-01 -8.788959681987762451e-02
-2.223796769976615906e-02 -2.354644984006881714e-01 -1.669910252094268799e-01
1.515842415392398834e-02 -1.346060633659362793e-01 -1.680285185575485229e-01
-1.744363084435462952e-02 -3.194086551666259766e-01 -1.377924382686614990e-01
5.266124848276376724e-03 -1.597141176462173462e-01 -5.516721308231353760e-02
-1.384723186492919922e-02 -1.885460019111633301e-01 -1.158754527568817139e-01
2.022025175392627716e-02 -2.787110507488250732e-01 -6.551879644393920898e-02
1.530912425369024277e-02 -2.914448678493499756e-01 -1.491164416074752808e-02
1.250203885138034821e-02 -1.654156446456909180e-01 -1.901166737079620361e-01
1.671065017580986023e-02 -3.081749975681304932e-01 -6.653562188148498535e-02
-1.372397597879171371e-02 -3.332722485065460205e-01 -1.671833097934722900e-01
-1.704176329076290131e-02 -1.335660815238952637e-01 -2.306849062442779541e-01
1.555932220071554184e-02 -2.781315147876739502e-01 -1.237320452928543091e-01
2.335505187511444092e-02 -1.982914805412292480e-01 -7.642053067684173584e-02
1.705007813870906830e-02 -1.364104449748992920e-01 -1.523861438035964966e-01
-3.307664766907691956e-03 -2.696826457977294922e-01 -2.186196744441986084e-01
1.434868481010198593e-02 -3.228201270103454590e-01 -6.483452022075653076e-02
1.801962591707706451e-02 -1.511982977390289307e-01 -1.491352617740631104e-01
1.469673309475183487e-02 -1.421406567096710205e-01 -1.739389002323150635e-01
6.640369538217782974e-03 -3.247638940811157227e-01 -1.339592784643173218e-01
1.457731332629919052e-02 -1.111016720533370972e-01 -1.012176871299743652e-01
9.568220935761928558e-03 -1.070553436875343323e-01 -1.909988373517990112e-01
-2.158625423908233643e-02 -2.871609032154083252e-01 -1.833441555500030518e-01
2.166698127985000610e-02 -2.029440253973007202e-01 -1.111758872866630554e-01
-1.892378553748130798e-02 -3.123539984226226807e-01 -1.702453643083572388e-01
1.036981213837862015e-02 -2.673027813434600830e-01 -1.659916937351226807e-01
-2.103604562580585480e-02 -1.879519969224929810e-01 -2.444871813058853149e-01
-2.195514179766178131e-02 -2.265114635229110718e-01 -2.369464635848999023e-01
2.070607431232929230e-02 -1.665101200342178345e-01 -5.622465908527374268e-02
1.884852722287178040e-02 -2.940887510776519775e-01 -5.139999836683273315e-02
2.679514000192284584e-04 -1.636944413185119629e-01 -6.603829562664031982e-02
-2.216422557830810547e-02 -2.771263122558593750e-01 -1.749472022056579590e-01
8.064892143011093140e-03 -1.535177230834960938e-01 -2.131341993808746338e-01
-3.429283387959003448e-03 -2.871445417404174805e-01 -2.074984014034271240e-01
4.703407466877251863e-04 -3.317160606384277344e-01 -3.793282806873321533e-02
-1.639018021523952484e-02 -1.749865710735321045e-01 -1.430371254682540894e-01
1.091281790286302567e-02 -3.076887130737304688e-01 -1.280892491340637207e-01
8.220355026423931122e-03 -3.072090446949005127e-01 -1.451026946306228638e-01
-1.996706239879131317e-02 -1.612548530101776123e-01 -1.979152858257293701e-01
-1.990509778261184692e-02 -1.897546052932739258e-01 -1.639378368854522705e-01
-2.286432124674320221e-02 -2.039233297109603882e-01 -1.973678171634674072e-01
1.178899593651294708e-02 -1.911904215812683105e-01 -1.909487992525100708e-01
-2.863429486751556396e-02 -3.348198533058166504e-01 6.930658221244812012e-02
-1.083047688007354736e-02 -3.318905234336853027e-01 1.391201466321945190e-01
-2.888093516230583191e-02 -4.468508362770080566e-01 4.528565704822540283e-02
4.968649707734584808e-03 -4.373213052749633789e-01 2.363403141498565674e-02
1.468726526945829391e-02 -3.349711000919342041e-01 -3.616269305348396301e-02
-2.918548416346311569e-03 -2.920897603034973145e-01 1.108921505510807037e-02
2.587563917040824890e-02 -3.142195641994476318e-01 5.550370365381240845e-02
1.478405948728322983e-02 -4.130090773105621338e-01 1.391451992094516754e-02
-3.607802838087081909e-02 -4.182092547416687012e-01 4.381459578871726990e-02
-7.510761730372905731e-03 -2.781417965888977051e-01 6.773866713047027588e-02
8.593364618718624115e-03 -4.138934016227722168e-01 5.708481371402740479e-02
-7.220163010060787201e-03 -2.884286046028137207e-01 2.946858666837215424e-02
-3.454935923218727112e-02 -4.291273355484008789e-01 -1.041195914149284363e-02
2.180394530296325684e-02 -3.303631246089935303e-01 8.717018365859985352e-02
2.088303118944168091e-02 -3.139609992504119873e-01 9.668821096420288086e-02
-3.598876670002937317e-02 -3.949656486511230469e-01 5.622924491763114929e-02
2.625565603375434875e-02 -3.161906003952026367e-01 4.205370321869850159e-02
1.751117780804634094e-02 -3.108686208724975586e-01 -1.123169437050819397e-02
1.748371869325637817e-02 -4.028363227844238281e-01 -1.224134489893913269e-02
-1.839296333491802216e-02 -3.005251884460449219e-01 6.188818439841270447e-02
-1.355492044240236282e-02 -2.979378104209899902e-01 3.230991587042808533e-02
-6.346110254526138306e-03 -4.455557167530059814e-01 -6.399904191493988037e-02
2.489415556192398071e-02 -3.300146460533142090e-01 6.529560685157775879e-02
-1.086723990738391876e-02 -4.673087298870086670e-01 -2.284838631749153137e-02
1.672369614243507385e-02 -3.128049671649932861e-01 1.130737215280532837e-01
1.571609079837799072e-02 -3.498173356056213379e-01 1.019134223461151123e-01
-1.847859704867005348e-03 -4.211999475955963135e-01 7.787255942821502686e-02
1.867013052105903625e-02 -3.861177265644073486e-01 4.750793427228927612e-02
-2.256011962890625000e-02 -3.296216130256652832e-01 1.147993952035903931e-01
1.875372603535652161e-02 -2.796425819396972656e-01 8.818293362855911255e-02
-6.874026730656623840e-03 -4.633632004261016846e-01 -8.546832948923110962e-03
-5.982205271720886230e-03 -3.541563153266906738e-01 1.357620060443878174e-01
-6.508206482976675034e-03 -2.907559871673583984e-01 2.203627303242683411e-02
-1.395082101225852966e-02 -4.006715416908264160e-01 1.105442047119140625e-01
-3.579796105623245239e-02 -3.872102499008178711e-01 2.479744702577590942e-02
1.557530369609594345e-02 -4.061608612537384033e-01 -2.845223993062973022e-02
4.076726734638214111e-03 -3.001164793968200684e-01 -9.017508476972579956e-03
1.339376438409090042e-03 -3.526021540164947510e-01 1.311508864164352417e-01
-3.486244007945060730e-02 -4.386337995529174805e-01 4.559516906738281250e-03
1.216395664960145950e-02 -2.748588919639587402e-01 1.072155684232711792e-01
2.130025066435337067e-03 -2.914662361145019531e-01 5.126088857650756836e-03
-2.584095299243927002e-02 -3.437938392162322998e-01 5.878115072846412659e-03
-2.152103558182716370e-02 -3.877344429492950439e-01 -5.104359611868858337e-02
2.077522687613964081e-03 -4.456266462802886963e-01 -4.081839695572853088e-02
-6.202294025570154190e-03 -3.215379118919372559e-01 1.410654485225677490e-01
1.969224214553833008e-02 -2.985382080078125000e-01 9.176442399621009827e-03
-3.338327631354331970e-02 -3.634408414363861084e-01 3.640127182006835938e-02
-1.700179651379585266e-02 -4.593898355960845947e-01 3.428190946578979492e-02
-1.809597760438919067e-02 -3.209236860275268555e-01 1.245607882738113403e-01
5.053851753473281860e-03 -3.868870735168457031e-01 -6.839793920516967773e-02
-7.329276762902736664e-03 -3.227521181106567383e-01 -2.486992627382278442e-02
2.555818110704421997e-02 -3.068200945854187012e-01 5.418578535318374634e-02
1.214070152491331100e-02 -4.179536700248718262e-01 2.706373855471611023e-02
-1.591446623206138611e-02 -2.960196733474731445e-01 5.443341284990310669e-02
-9.583031758666038513e-03 -3.148685097694396973e-01 -1.078816503286361694e-02
-2.025395259261131287e-02 -4.162556529045104980e-01 -6.370377540588378906e-02
-2.578689530491828918e-02 -3.497399985790252686e-01 -3.038883209228515625e-03
4.716896452009677887e-03 -4.438372552394866943e-01 -5.452964454889297485e-03
8.231826126575469971e-03 -4.290893077850341797e-01 -4.092903062701225281e-02
1.828432455658912659e-02 -3.864267170429229736e-01 -3.170961514115333557e-02
1.221812050789594650e-02 -4.058773219585418701e-01 5.357173085212707520e-02
2.050661295652389526e-02 -2.873270213603973389e-01 8.881025761365890503e-02
1.880419906228780746e-03 -4.474964737892150879e-01 8.908124640583992004e-03
-2.241495251655578613e-02 -4.528422951698303223e-01 -5.133484676480293274e-02
-1.746040210127830505e-02 -3.046521544456481934e-01 3.683244809508323669e-02
-3.313515335321426392e-02 -4.455254375934600830e-01 -8.472181856632232666e-03
-5.176046863198280334e-03 -3.346709012985229492e-01 -3.994844481348991394e-02
-3.915062639862298965e-03 -4.460971057415008545e-01 4.088946431875228882e-02
9.514942765235900879e-03 -4.306033253669738770e-01 -2.458085119724273682e-02
-3.264162316918373108e-02 -4.043751955032348633e-01 -1.912456005811691284e-02
2.127835154533386230e-02 -2.822701036930084229e-01 5.982654914259910583e-02
2.354110404849052429e-02 -3.662404417991638184e-01 -1.052461564540863037e-03
5.397778935730457306e-03 -4.121716618537902832e-01 7.162892818450927734e-02
-3.423258662223815918e-02 -3.833774626255035400e-01 9.486572816967964172e-03
-2.930274978280067444e-02 -3.457934558391571045e-01 8.982856571674346924e-02
-3.465117886662483215e-03 -3.072338402271270752e-01 1.393193304538726807e-01
-5.698180757462978363e-04 -3.760494291782379150e-01 1.200039833784103394e-01
1.395054254680871964e-02 -3.023670613765716553e-01 -8.107222616672515869e-03
-3.480720520019531250e-02 -4.165529310703277588e-01 5.740134418010711670e-02
-2.741228789091110229e-02 -4.630654454231262207e-01 3.447115421295166016e-03
5.736568011343479156e-03 -3.100689351558685303e-01 1.356468051671981812e-01
2.328868955373764038e-02 -3.082326948642730713e-01 8.270782232284545898e-02
2.080040797591209412e-02 -3.687626123428344727e-01 5.924134328961372375e-02
2.268192172050476074e-02 -3.695179224014282227e-01 -8.985195308923721313e-03
-2.703311666846275330e-02 -3.318284749984741211e-01 4.073357954621315002e-02
1.160155516117811203e-02 -2.883294522762298584e-01 8.971616625785827637e-03
-1.472475286573171616e-02 -3.795607984066009521e-01 -5.996396765112876892e-02
1.413761638104915619e-04 -2.908369302749633789e-01 1.325747966766357422e-01
-2.541244402527809143e-02 -3.862014412879943848e-01 -3.919044509530067444e-02
1.545759942382574081e-02 -2.937624752521514893e-01 5.481570959091186523e-03
-3.601634129881858826e-02 -4.196464121341705322e-01 3.642020747065544128e-03
-1.597207784652709961e-02 -3.884277045726776123e-01 -6.240025535225868225e-02
-1.612425222992897034e-02 -2.945871055126190186e-01 9.083818644285202026e-02
-2.974173426628112793e-02 -3.826686739921569824e-01 -1.953148841857910156e-02
1.889628916978836060e-02 -3.960916101932525635e-01 1.785911992192268372e-02
9.089615195989608765e-03 -4.283000230789184570e-01 2.118068560957908630e-02
-2.400200814008712769e-02 -3.342748880386352539e-01 1.130867004394531250e-02
2.534266561269760132e-02 -3.527931272983551025e-01 2.830856107175350189e-02
1.647920534014701843e-02 -3.421166241168975830e-01 -3.658656403422355652e-02
-3.598108422011137009e-03 -4.501876831054687500e-01 2.997391670942306519e-02
-3.011527657508850098e-02 -3.440429866313934326e-01 7.690747082233428955e-02
3.503693267703056335e-03 -4.342319667339324951e-01 3.970178589224815369e-02
1.452308427542448044e-02 -3.680544793605804443e-01 9.180313348770141602e-02
1.679886132478713989e-02 -4.069762825965881348e-01 -2.476889640092849731e-03
2.571400254964828491e-02 -3.406363725662231445e-01 1.250689104199409485e-02
1.039088610559701920e-02 -3.236074149608612061e-01 1.273211687803268433e-01
-2.254649996757507324e-02 -3.637644946575164795e-01 -3.109156712889671326e-02
-2.055773511528968811e-02 -3.422718048095703125e-01 -1.516361534595489502e-02
1.645295694470405579e-02 -2.808962166309356689e-01 1.019351631402969360e-01
5.119389854371547699e-03 -2.686067223548889160e-01 5.656756460666656494e-02
-3.682705014944076538e-02 -4.164958894252777100e-01 2.264561876654624939e-02
1.468895841389894485e-02 -3.372865021228790283e-01 1.122195422649383545e-01
2.362484112381935120e-02 -3.688116669654846191e-01 7.328882813453674316e-03
-2.643956989049911499e-02 -3.769056797027587891e-01 -2.888042479753494263e-02
7.707893848419189453e-03 -3.585096895694732666e-01 1.179108172655105591e-01
-2.790101617574691772e-02 -4.259680509567260742e-01 7.581169903278350830e-02
2.148618549108505249e-02 -3.675834536552429199e-01 -2.107696235179901123e-02
-2.794766053557395935e-02 -3.860598206520080566e-01 -2.998415753245353699e-02
-1.659065019339323044e-03 -3.786653876304626465e-01 -6.963136792182922363e-02
-4.199211020022630692e-03 -4.578787386417388916e-01 6.364088505506515503e-03
2.159066498279571533e-02 -3.219869732856750488e-01 9.152875095605850220e-02
9.118312038481235504e-03 -4.087787270545959473e-01 6.324640661478042603e-02
-5.717600230127573013e-03 -2.773867249488830566e-01 5.777137354016304016e-02
1.111397426575422287e-02 -4.243783354759216309e-01 1.502952910959720612e-02
7.362375967204570770e-03 -3.939109444618225098e-01 -6.560759246349334717e-02
-3.170501068234443665e-02 -3.572018444538116455e-01 2.725869417190551758e-02
-1.199577748775482178e-02 -4.244792759418487549e-01 -7.372705638408660889e-02
3.523433580994606018e-03 -4.394148886203765869e-01 -4.710977151989936829e-02
-4.495573230087757111e-04 -2.708609998226165771e-01 6.188421696424484253e-02
-2.980444952845573425e-02 -4.345684647560119629e-01 6.100407987833023071e-02
-3.239702060818672180e-02 -4.472716450691223145e-01 2.648072503507137299e-02
-3.694551438093185425e-02 -4.068177938461303711e-01 3.189280629158020020e-02
-3.414322435855865479e-02 -3.871265649795532227e-01 7.464368641376495361e-02
1.351193059235811234e-02 -4.189203381538391113e-01 -1.432523503899574280e-02
-2.585939317941665649e-02 -3.563474416732788086e-01 -1.103485748171806335e-02
-3.617974370718002319e-02 -3.900620341300964355e-01 5.007418990135192871e-02
1.732479315251111984e-03 -2.858664691448211670e-01 1.537981629371643066e-02
1.754602417349815369e-04 -4.014617502689361572e-01 -7.369256019592285156e-02
1.468513999134302139e-02 -3.745192885398864746e-01 -4.977997764945030212e-02
1.700855325907468796e-03 -4.119668602943420410e-01 -7.148478925228118896e-02
2.171308174729347229e-02 -3.805257380008697510e-01 -4.457063972949981689e-03
-1.317435130476951599e-02 -3.028260469436645508e-01 1.954827085137367249e-02
1.314316596835851669e-02 -3.278881311416625977e-01 -3.362293168902397156e-02
2.410823106765747070e-02 -3.178319931030273438e-01 7.746590301394462585e-03
-2.863654121756553650e-02 -4.528691768646240234e-01 -3.124975785613059998e-02
2.603079006075859070e-02 -3.220872879028320312e-01 5.387277156114578247e-02
-2.955224737524986267e-02 -3.580730259418487549e-01 9.753464162349700928e-02
-2.900122478604316711e-02 -3.689576983451843262e-01 1.023632735013961792e-01
-6.673838943243026733e-04 -3.626540899276733398e-01 -6.263735890388488770e-02
-3.447138518095016479e-02 -4.362483024597167969e-01 -6.480541080236434937e-03
2.270698919892311096e-02 -3.284852504730224609e-01 -8.216865360736846924e-03
2.601149491965770721e-03 -2.757876217365264893e-01 3.651316091418266296e-02
1.216513756662607193e-02 -3.806672394275665283e-01 -5.632644519209861755e-02
2.686255611479282379e-03 -2.963410317897796631e-01 -2.895843237638473511e-03
-2.375923842191696167e-02 -3.236163854598999023e-01 1.022746413946151733e-01
-3.468146920204162598e-02 -4.345533847808837891e-01 3.492387756705284119e-02
-2.822975441813468933e-02 -3.997999131679534912e-01 -3.714311495423316956e-02
-1.062653213739395142e-02 -4.629437327384948730e-01 1.433371566236019135e-02
1.407885830849409103e-02 -3.255442976951599121e-01 1.183148473501205444e-01
1.489905547350645065e-02 -3.894457221031188965e-01 6.582209467887878418e-02
-8.488757535815238953e-03 -4.642499089241027832e-01 -1.270350068807601929e-03
-1.989452168345451355e-02 -3.364426493644714355e-01 1.262297034263610840e-01
-3.167101740837097168e-02 -3.947635293006896973e-01 -1.884538680315017700e-02
2.462670207023620605e-02 -3.111629486083984375e-01 7.190202176570892334e-02
1.913318037986755371e-02 -2.918131351470947266e-01 1.001659780740737915e-01
-1.661336421966552734e-02 -4.253747165203094482e-01 8.746568858623504639e-02
-3.222824260592460632e-02 -3.552618622779846191e-01 4.118766635656356812e-02
-9.487927891314029694e-04 -3.070403337478637695e-01 -1.434462144970893860e-02
-1.586318388581275940e-02 -2.933630943298339844e-01 7.139527797698974609e-02
-5.538901314139366150e-03 -3.153142035007476807e-01 -1.885360851883888245e-02
-7.676351815462112427e-04 -2.737237215042114258e-01 5.054543912410736084e-02
6.263251416385173798e-03 -4.376562237739562988e-01 -3.391250595450401306e-02
-3.235175833106040955e-02 -3.743810653686523438e-01 8.586710691452026367e-02
3.574535250663757324e-03 -3.237619400024414062e-01 -3.535972908139228821e-02
1.841783151030540466e-02 -3.912915885448455811e-01 -2.612774074077606201e-02
-3.080966416746377945e-03 -3.948376178741455078e-01 1.084644198417663574e-01
-3.115329146385192871e-02 -4.331529140472412109e-01 -3.163970634341239929e-02
-8.027132600545883179e-03 -2.901313900947570801e-01 1.231288760900497437e-01
1.137867290526628494e-02 -4.264053106307983398e-01 -6.411939859390258789e-03
2.302077412605285645e-02 -3.709856867790222168e-01 3.094650432467460632e-02
-3.008734062314033508e-02 -3.415372669696807861e-01 6.025417894124984741e-02
2.481002733111381531e-02 -3.003810048103332520e-01 4.208264499902725220e-02
-3.419269248843193054e-02 -3.947094678878784180e-01 7.337364554405212402e-02
-6.123275496065616608e-03 -2.980473637580871582e-01 7.214019075036048889e-03
-1.940960809588432312e-02 -3.733188807964324951e-01 -4.714756086468696594e-02
-2.963943406939506531e-02 -4.496200680732727051e-01 3.718308359384536743e-02
-2.782418206334114075e-02 -3.811174333095550537e-01 1.047264635562896729e-01
8.834327571094036102e-03 -4.266336560249328613e-01 2.839668467640876770e-02
-1.164760254323482513e-02 -2.846162021160125732e-01 8.999511599540710449e-02
1.399651076644659042e-02 -2.957437038421630859e-01 1.190990358591079712e-01
1.428183820098638535e-02 -4.070516228675842285e-01 -3.705573454499244690e-02
-8.270583115518093109e-03 -4.529912471771240234e-01 -5.815081670880317688e-02
-1.624338701367378235e-02 -3.670510947704315186e-01 -4.953629896044731140e-02
2.024256065487861633e-02 -3.575759530067443848e-01 -2.929370105266571045e-02
-3.451582789421081543e-02 -4.018997550010681152e-01 6.876793503761291504e-02
-3.593922406435012817e-02 -4.257366359233856201e-01 3.524981439113616943e-02
1.807334274053573608e-02 -3.701705634593963623e-01 -3.848611935973167419e-02
-3.645002469420433044e-02 -3.971225023269653320e-01 2.258607000112533569e-02
1.985336467623710632e-02 -3.782019913196563721e-01 -2.694124728441238403e-02
5.025741644203662872e-03 -4.422862529754638672e-01 2.083444967865943909e-03
-2.738288789987564087e-02 -3.579731583595275879e-01 1.076807230710983276e-01
-2.325273305177688599e-02 -4.683026075363159180e-01 -1.213605329394340515e-02
1.366653386503458023e-02 -2.857132554054260254e-01 1.150370687246322632e-01
-7.736495696008205414e-03 -3.476656675338745117e-01 1.380885094404220581e-01
-2.296168729662895203e-02 -3.484992980957031250e-01 1.206870079040527344e-01
2.060546353459358215e-02 -3.788744807243347168e-01 4.425949603319168091e-02
-1.793421246111392975e-02 -3.314435184001922607e-01 -1.030007749795913696e-02
-2.620989084243774414e-02 -4.577635824680328369e-01 2.991038933396339417e-02
-1.428506895899772644e-02 -4.521901011466979980e-01 4.782800376415252686e-02
-3.582021594047546387e-02 -4.319245517253875732e-01 1.998343318700790405e-02
2.478145435452461243e-02 -3.053819537162780762e-01 6.759405136108398438e-02
1.496515329927206039e-02 -3.481906056404113770e-01 -4.273373261094093323e-02
1.870997622609138489e-02 -3.025813996791839600e-01 1.058271080255508423e-01
-4.917548038065433502e-03 -2.804533243179321289e-01 1.152451485395431519e-01
1.020262576639652252e-02 -3.530748784542083740e-01 -5.256214365363121033e-02
-2.942136302590370178e-02 -4.421664774417877197e-01 -3.644252195954322815e-02
-2.489832788705825806e-02 -4.221523702144622803e-01 -5.415517464280128479e-02
2.739279530942440033e-03 -3.935066461563110352e-01 1.002598851919174194e-01
-1.012282539159059525e-02 -2.836133539676666260e-01 1.010991036891937256e-01
1.671474426984786987e-02 -3.983507454395294189e-01 -3.095647320151329041e-02
1.834317296743392944e-02 -3.964341878890991211e-01 2.597623504698276520e-02
3.839401528239250183e-03 -2.666943073272705078e-01 7.160735130310058594e-02
-1.832379028201103210e-02 -3.452520072460174561e-01 -2.554525434970855713e-02
6.086658686399459839e-03 -2.774732112884521484e-01 1.194357424974441528e-01
-1.923430338501930237e-02 -3.710665702819824219e-01 1.245082020759582520e-01
9.181229397654533386e-03 -3.629896044731140137e-01 1.116849929094314575e-01
-3.672279044985771179e-02 -4.045552015304565430e-01 4.268338531255722046e-02
-2.904628217220306396e-02 -3.508942425251007080e-01 9.656293690204620361e-02
-8.673818781971931458e-03 -4.072153568267822266e-01 -7.507109642028808594e-02
-1.010699011385440826e-02 -3.058663010597229004e-01 1.330961585044860840e-01
-1.628403365612030029e-02 -2.941359281539916992e-01 8.147415518760681152e-02
8.363720960915088654e-03 -3.982100486755371094e-01 8.063876628875732422e-02
-1.675121113657951355e-02 -3.232127726078033447e-01 -2.718418836593627930e-03
-2.032334543764591217e-02 -3.135887086391448975e-01 3.212705999612808228e-02
-3.219527378678321838e-02 -4.420360624790191650e-01 -2.147717773914337158e-02
-1.001721713691949844e-03 -2.735970020294189453e-01 1.088439375162124634e-01
1.769292727112770081e-02 -3.956811726093292236e-01 3.567313030362129211e-02
1.998641714453697205e-02 -3.079313933849334717e-01 -1.453902572393417358e-03
2.616190910339355469e-02 -3.290395140647888184e-01 2.147378399968147278e-02
-1.528087537735700607e-02 -4.672794938087463379e-01 7.685272023081779480e-03
-1.054450031369924545e-02 -2.875786125659942627e-01 4.635598510503768921e-02
-3.602172061800956726e-02 -4.051129221916198730e-01 5.412982776761054993e-02
-1.935444027185440063e-02 -3.143346607685089111e-01 2.434950321912765503e-02
-3.209945932030677795e-02 -3.659313321113586426e-01 8.450330793857574463e-02
2.540722861886024475e-02 -3.464591503143310547e-01 4.269621521234512329e-02
-1.314174849539995193e-02 -3.190282881259918213e-01 1.344143450260162354e-01
1.849856600165367126e-02 -3.775047957897186279e-01 6.259077787399291992e-02
1.879886165261268616e-02 -2.801750898361206055e-01 4.147839173674583435e-02
-2.587784081697463989e-02 -4.562141597270965576e-01 -3.861105069518089294e-02
-1.044020242989063263e-02 -3.868128955364227295e-01 1.201054155826568604e-01
-2.937650680541992188e-02 -3.409073650836944580e-01 4.228582233190536499e-02
-4.100076854228973389e-03 -4.325016140937805176e-01 6.620933115482330322e-02
2.276400104165077209e-02 -2.889165282249450684e-01 4.771689325571060181e-02
9.092476218938827515e-03 -4.329263567924499512e-01 -3.856047987937927246e-03
1.729906722903251648e-02 -3.999184668064117432e-01 -2.329720184206962585e-02
-1.068383455276489258e-02 -2.824152708053588867e-01 7.899321615695953369e-02
2.388715371489524841e-02 -3.426003754138946533e-01 6.516912579536437988e-02
7.814082317054271698e-03 -2.672313451766967773e-01 9.621514379978179932e-02
4.839640110731124878e-03 -4.192219078540802002e-01 6.281742453575134277e-02
-2.735096961259841919e-02 -4.165551066398620605e-01 8.585636317729949951e-02
-4.669808316975831985e-03 -4.280402064323425293e-01 7.389067113399505615e-02
-1.926466589793562889e-03 -4.287934303283691406e-01 -7.021929323673248291e-02
-3.601675108075141907e-02 -3.969973027706146240e-01 1.470104232430458069e-02
2.222222834825515747e-02 -3.405830562114715576e-01 -1.641260832548141479e-02
-1.689696870744228363e-02 -2.992175221443176270e-01 1.017098277807235718e-01
1.896188035607337952e-02 -2.769865393638610840e-01 7.799592614173889160e-02
-1.024677418172359467e-02 -3.091388344764709473e-01 -8.893683552742004395e-04
1.639632135629653931e-02 -3.403112590312957764e-01 1.052715331315994263e-01
3.765275701880455017e-03 -3.312897086143493652e-01 -4.199307784438133240e-02
-1.593811810016632080e-02 -4.397219121456146240e-01 6.935459375381469727e-02
1.359802205115556717e-02 -4.079564511775970459e-01 4.107411205768585205e-02
-2.070336788892745972e-02 -4.665130376815795898e-01 -3.396231308579444885e-02
-2.431588619947433472e-02 -3.313155174255371094e-01 1.080253869295120239e-01
1.243081968277692795e-02 -3.627463281154632568e-01 -5.293325707316398621e-02
-3.510301932692527771e-02 -4.084560573101043701e-01 6.113083660602569580e-02
-6.510187871754169464e-03 -4.451996684074401855e-01 4.939180612564086914e-02
-3.652256354689598083e-02 -4.068593382835388184e-01 1.458302326500415802e-02
2.585804089903831482e-02 -3.174537420272827148e-01 2.556665055453777313e-02
-1.953119412064552307e-02 -3.668209016323089600e-01 -4.209667816758155823e-02
6.951361894607543945e-03 -3.503772020339965820e-01 1.239686459302902222e-01
-2.646601945161819458e-02 -3.719627857208251953e-01 1.106285750865936279e-01
1.677611842751502991e-02 -2.888346910476684570e-01 1.077841818332672119e-01
-2.535479143261909485e-02 -4.057489633560180664e-01 -4.913874343037605286e-02
-1.631189137697219849e-02 -4.483358263969421387e-01 5.606929957866668701e-02
-2.795237675309181213e-02 -3.319158256053924561e-01 5.850568413734436035e-02
-1.657993905246257782e-02 -4.692696630954742432e-01 -1.747950911521911621e-03
1.303382311016321182e-02 -3.811960220336914062e-01 8.414810895919799805e-02
2.071567252278327942e-02 -3.041504323482513428e-01 9.728509187698364258e-02
2.038885653018951416e-02 -3.873206377029418945e-01 -1.057996973395347595e-02
-3.919051028788089752e-03 -2.729925215244293213e-01 7.118760049343109131e-02
-5.066966637969017029e-03 -3.614746034145355225e-01 1.323417127132415771e-01
-2.758760377764701843e-02 -3.900145888328552246e-01 1.022308021783828735e-01
2.414858341217041016e-02 -3.639012873172760010e-01 2.784641832113265991e-02
-2.688978984951972961e-02 -3.454349637031555176e-01 1.052940040826797485e-01
1.689184829592704773e-02 -2.733891308307647705e-01 5.649560317397117615e-02
1.282641571015119553e-02 -3.541010618209838867e-01 1.081922352313995361e-01
-6.011459045112133026e-04 -2.695684731006622314e-01 9.263484179973602295e-02
-4.325656220316886902e-03 -3.702019751071929932e-01 -6.540231406688690186e-02
1.607240363955497742e-02 -3.736636638641357422e-01 7.995948195457458496e-02
1.090654078871011734e-02 -4.074389934539794922e-01 -5.291694030165672302e-02
1.877550035715103149e-02 -3.608617484569549561e-01 -3.563449904322624207e-02
2.247636765241622925e-02 -3.345121145248413086e-01 -1.263515278697013855e-02
-2.315057069063186646e-02 -3.394069969654083252e-01 1.178391128778457642e-01
2.412552013993263245e-02 -2.949529588222503662e-01 5.972218140959739685e-02
7.533788681030273438e-03 -3.923496603965759277e-01 8.993625640869140625e-02
-2.234731614589691162e-02 -3.643202781677246094e-01 1.215538680553436279e-01
-2.149887755513191223e-02 -3.216410577297210693e-01 2.102667838335037231e-02
-3.434799239039421082e-02 -3.743574023246765137e-01 6.764812767505645752e-02
2.479767799377441406e-02 -3.443482816219329834e-01 5.442695319652557373e-02
-3.266969695687294006e-02 -4.111085832118988037e-01 -2.186378464102745056e-02
-4.430707544088363647e-03 -4.575425386428833008e-01 -4.001494124531745911e-02
2.260042726993560791e-02 -3.058798909187316895e-01 1.170985959470272064e-02
-3.110073134303092957e-02 -4.026094973087310791e-01 -2.636170759797096252e-02
-2.026395499706268311e-02 -3.449089825153350830e-01 1.267688125371932983e-01
-3.299554437398910522e-02 -3.870613276958465576e-01 8.231565356254577637e-02
-1.240936107933521271e-04 -4.124749898910522461e-01 8.545298874378204346e-02
-3.203004226088523865e-02 -3.746733665466308594e-01 1.762514933943748474e-03
-2.912767603993415833e-02 -3.973808288574218750e-01 9.455397725105285645e-02
-1.116488035768270493e-02 -3.327101767063140869e-01 -2.908060699701309204e-02
1.572947949171066284e-02 -4.025554060935974121e-01 3.697942197322845459e-02
-2.786530554294586182e-02 -4.615462422370910645e-01 -1.679586246609687805e-02
-3.231500834226608276e-02 -3.910498619079589844e-01 -1.246770098805427551e-02
-3.499874472618103027e-02 -4.037352800369262695e-01 -2.102289348840713501e-03
2.452638372778892517e-02 -3.524387478828430176e-01 4.708676785230636597e-02
2.288170158863067627e-02 -3.735000193119049072e-01 1.419562846422195435e-03
-2.936309576034545898e-02 -3.953275084495544434e-01 -3.020926937460899353e-02
-3.329954296350479126e-02 -4.402432143688201904e-01 -1.441335678100585938e-02
-1.440437044948339462e-02 -3.790611624717712402e-01 1.245678812265396118e-01
2.089176326990127563e-02 -3.835796117782592773e-01 2.949174679815769196e-02
5.632393993437290192e-03 -3.673706352710723877e-01 -6.292852759361267090e-02
1.559583749622106552e-02 -3.821380734443664551e-01 7.220136374235153198e-02
-5.114592611789703369e-03 -3.402269184589385986e-01 -4.490911588072776794e-02
-2.203244948759675026e-03 -4.569926261901855469e-01 -7.366817444562911987e-03
1.413783710449934006e-02 -4.094285368919372559e-01 3.340825065970420837e-02
2.128655090928077698e-02 -3.841859698295593262e-01 1.882686838507652283e-02
-3.050128370523452759e-02 -3.479029834270477295e-01 3.598578646779060364e-02
1.171448547393083572e-02 -4.196850061416625977e-01 -3.499593213200569153e-02
9.787317365407943726e-03 -3.886882662773132324e-01 -6.136891618371009827e-02
-8.126315660774707794e-03 -3.147785663604736328e-01 1.389641612768173218e-01
-1.757199503481388092e-02 -3.087494075298309326e-01 1.156586557626724243e-01
2.332730591297149658e-02 -3.716234564781188965e-01 1.855086535215377808e-02
1.538869459182024002e-02 -2.712465822696685791e-01 8.574137091636657715e-02
1.952394377440214157e-03 -2.975160777568817139e-01 1.358320862054824829e-01
-1.486741239205002785e-03 -4.501612186431884766e-01 2.093424275517463684e-02
1.785025373101234436e-02 -3.635280430316925049e-01 8.231990784406661987e-02
-3.543030098080635071e-02 -3.823397457599639893e-01 5.839382857084274292e-02
6.777386181056499481e-03 -3.416426777839660645e-01 1.282599717378616333e-01
-1.790718361735343933e-02 -3.552907407283782959e-01 -3.646861389279365540e-02
-2.001133374869823456e-02 -3.091555833816528320e-01 1.027138680219650269e-01
1.086244452744722366e-02 -4.274966120719909668e-01 9.858012199401855469e-04
-2.291133999824523926e-02 -4.062721133232116699e-01 1.012273728847503662e-01
2.023919671773910522e-02 -3.482931852340698242e-01 -2.761693671345710754e-02
-9.019983001053333282e-03 -4.589072465896606445e-01 -4.986730590462684631e-02
1.032132469117641449e-02 -2.726068198680877686e-01 4.113417491316795349e-02
2.115011587738990784e-02 -3.631632626056671143e-01 6.405565142631530762e-02
-1.641397830098867416e-03 -3.887118697166442871e-01 1.118133813142776489e-01
-3.644619882106781006e-02 -4.242834150791168213e-01 2.533184736967086792e-02
2.288382500410079956e-02 -3.204546272754669189e-01 -1.667022705078125000e-03
-1.034461334347724915e-02 -3.467988371849060059e-01 -4.396318271756172180e-02
1.040232274681329727e-02 -3.998470008373260498e-01 -5.800422653555870056e-02
2.365338802337646484e-02 -2.973474562168121338e-01 7.359954714775085449e-02
-1.916627213358879089e-02 -3.015545010566711426e-01 8.031358569860458374e-02
-2.223004028201103210e-02 -3.133073449134826660e-01 9.326946735382080078e-02
8.442188613116741180e-03 -4.347379803657531738e-01 -1.672931015491485596e-02
-3.340754285454750061e-02 -3.614733219146728516e-01 4.614038392901420593e-02
2.681296318769454956e-03 -3.527340888977050781e-01 -5.714986100792884827e-02
2.565813437104225159e-02 -3.093384504318237305e-01 3.547745198011398315e-02
5.800685845315456390e-03 -4.011402726173400879e-01 -6.753094494342803955e-02
1.232364680618047714e-02 -3.431429266929626465e-01 1.159185320138931274e-01
2.626706287264823914e-02 -3.363324403762817383e-01 2.494472265243530273e-02
-1.172078214585781097e-02 -4.604249894618988037e-01 2.523400634527206421e-02
2.465277537703514099e-02 -3.267554342746734619e-01 4.911338910460472107e-03
-2.577978745102882385e-02 -4.407150745391845703e-01 6.208590418100357056e-02
-1.898487284779548645e-02 -4.639682769775390625e-01 2.248219214379787445e-02
-3.559589385986328125e-03 -4.390678405761718750e-01 5.396302044391632080e-02
-4.717143252491950989e-03 -3.271276354789733887e-01 -3.317197784781455994e-02
-3.200072422623634338e-02 -3.573713600635528564e-01 7.738476991653442383e-02
-3.432861715555191040e-02 -4.160939157009124756e-01 -1.260948926210403442e-02
1.987683027982711792e-02 -3.926078975200653076e-01 1.024906896054744720e-02
1.609089225530624390e-02 -3.192141652107238770e-01 -2.193291857838630676e-02
-1.305781211704015732e-02 -3.604230582714080811e-01 -5.047350004315376282e-02
-2.255682274699211121e-02 -4.216125011444091797e-01 8.847740292549133301e-02
-1.349042542278766632e-02 -3.096460998058319092e-01 7.892625406384468079e-03
-2.549517154693603516e-02 -3.645187616348266602e-01 1.142193824052810669e-01
-3.406604006886482239e-02 -3.704839348793029785e-01 2.927615493535995483e-02
-1.957447826862335205e-02 -3.055100142955780029e-01 5.171151459217071533e-02
1.984253898262977600e-02 -3.371794223785400391e-01 9.339523315429687500e-02
-2.837488055229187012e-02 -4.104686081409454346e-01 -4.097096249461174011e-02
1.012424379587173462e-02 -3.072429299354553223e-01 -1.731066405773162842e-02
-3.337569162249565125e-02 -4.178734719753265381e-01 -1.951352879405021667e-02
-3.031950071454048157e-02 -3.498589694499969482e-01 2.848088927567005157e-02
-3.107275441288948059e-02 -4.118850529193878174e-01 -3.034041449427604675e-02
-3.465942665934562683e-02 -4.406263828277587891e-01 1.514534465968608856e-02
3.430964425206184387e-03 -4.009976983070373535e-01 9.097546339035034180e-02
2.322490513324737549e-02 -3.334750831127166748e-01 7.684461027383804321e-02
8.149715140461921692e-03 -4.101603925228118896e-01 -6.004122272133827209e-02
-3.020471706986427307e-02 -3.426065742969512939e-01 6.850238144397735596e-02
1.616376452147960663e-03 -4.497595131397247314e-01 -1.320432871580123901e-03
-3.332249447703361511e-02 -3.609595298767089844e-01 5.997816100716590881e-02
-1.498777512460947037e-02 -2.927535176277160645e-01 6.067702174186706543e-02
1.523743849247694016e-03 -3.435346186161041260e-01 1.346176564693450928e-01
-3.013300150632858276e-02 -3.783666491508483887e-01 9.730908274650573730e-02
1.411885116249322891e-02 -3.613586723804473877e-01 9.892705082893371582e-02
1.073376554995775223e-02 -2.953839004039764404e-01 -2.183582633733749390e-03
-8.823757991194725037e-03 -3.767601847648620605e-01 -6.563545763492584229e-02
1.173244509845972061e-02 -4.240890145301818848e-01 7.227987051010131836e-03
1.326768565922975540e-02 -4.183903932571411133e-01 -2.218680828809738159e-02
-3.337542060762643814e-03 -2.717728316783905029e-01 7.885450124740600586e-02
-2.196351438760757446e-02 -3.550395667552947998e-01 -2.461610361933708191e-02
-3.549555689096450806e-02 -4.280430674552917480e-01 -4.675462841987609863e-04
-3.501477092504501343e-02 -3.749442398548126221e-01 5.488787591457366943e-02
-2.033974230289459229e-02 -4.257307052612304688e-01 -6.421333551406860352e-02
2.082415670156478882e-02 -2.809039354324340820e-01 6.725987046957015991e-02
-2.388607710599899292e-02 -3.182909488677978516e-01 5.073991790413856506e-02
-5.913453642278909683e-03 -3.519730567932128906e-01 -5.333020165562629700e-02
-4.729622509330511093e-03 -2.818306088447570801e-01 3.803068026900291443e-02
1.412374433130025864e-02 -3.991690874099731445e-01 5.478323251008987427e-02
-1.565776392817497253e-02 -3.048614263534545898e-01 2.609257772564888000e-02
-1.428328920155763626e-02 -3.525148332118988037e-01 -4.201589152216911316e-02
-6.894490215927362442e-03 -2.949247360229492188e-01 1.301838606595993042e-01
-1.638261787593364716e-02 -3.001717925071716309e-01 4.281888157129287720e-02
1.795907970517873764e-03 -4.489295482635498047e-01 -3.086388483643531799e-02
-3.314671292901039124e-02 -3.836699426174163818e-01 -1.749023795127868652e-04
2.143920958042144775e-02 -3.514563143253326416e-01 7.465457916259765625e-02
2.102780714631080627e-02 -3.464058637619018555e-01 8.132959902286529541e-02
-2.419677376747131348e-02 -3.287650942802429199e-01 2.312995679676532745e-02
-9.674916975200176239e-03 -2.840977311134338379e-01 5.393176153302192688e-02
-2.360995858907699585e-02 -3.770186305046081543e-01 -3.856211528182029724e-02
1.859615743160247803e-02 -3.669775426387786865e-01 7.506557554006576538e-02
-2.548409625887870789e-02 -3.225797116756439209e-01 5.694096535444259644e-02
-3.556573763489723206e-02 -3.821868300437927246e-01 3.064265102148056030e-02
2.617153152823448181e-02 -3.398723602294921875e-01 3.309229761362075806e-02
2.291941642761230469e-02 -3.663330674171447754e-01 4.347881674766540527e-02
-2.132520079612731934e-02 -4.680748879909515381e-01 -2.648792415857315063e-02
-9.130910038948059082e-03 -4.559291005134582520e-01 3.169019147753715515e-02
2.346890419721603394e-02 -3.610563278198242188e-01 -7.308758795261383057e-03
1.878184452652931213e-02 -3.950350284576416016e-01 -1.581070199608802795e-02
2.029632776975631714e-02 -3.385192155838012695e-01 -2.374692261219024658e-02
-2.845438942313194275e-02 -3.428140878677368164e-01 2.602094970643520355e-02
2.517468854784965515e-02 -3.205211460590362549e-01 6.613528728485107422e-02
2.014547958970069885e-02 -3.218852579593658447e-01 -1.392893120646476746e-02
-3.258397802710533142e-03 -3.837143778800964355e-01 1.176202446222305298e-01
-6.041289772838354111e-03 -2.750725448131561279e-01 8.489061892032623291e-02
-3.326159715652465820e-02 -3.707170486450195312e-01 7.725230604410171509e-02
2.413161098957061768e-02 -3.035410344600677490e-01 2.549478225409984589e-02
-1.605494320392608643e-02 -4.438417851924896240e-01 -6.573715806007385254e-02
-4.231273196637630463e-04 -3.924807310104370117e-01 -7.309070229530334473e-02
-1.583879441022872925e-02 -3.603362739086151123e-01 1.312762945890426636e-01
2.082352340221405029e-02 -2.939778566360473633e-01 9.287133812904357910e-02
-1.018382050096988678e-02 -3.875939249992370605e-01 -6.913407146930694580e-02
-3.475168347358703613e-02 -3.722080886363983154e-01 4.061338305473327637e-02
-3.386986255645751953e-02 -3.957396149635314941e-01 -5.721025168895721436e-03
6.454520858824253082e-03 -4.374366700649261475e-01 1.083223521709442139e-02
1.267729979008436203e-02 -3.341493904590606689e-01 1.190349012613296509e-01
-2.874353528022766113e-02 -3.547604978084564209e-01 6.491485983133316040e-03
4.285359755158424377e-03 -4.235119521617889404e-01 -6.234863772988319397e-02
-2.646178379654884338e-02 -3.316426277160644531e-01 9.400472790002822876e-02
1.690948754549026489e-02 -3.311086297035217285e-01 1.078484505414962769e-01
-2.546966820955276489e-02 -4.317587614059448242e-01 -5.262360349297523499e-02
-2.816817164421081543e-02 -3.361213803291320801e-01 8.491568267345428467e-02
-2.325728908181190491e-02 -3.510086238384246826e-01 -1.562798395752906799e-02
-2.517095580697059631e-02 -3.245393633842468262e-01 4.286099225282669067e-02
-3.241003677248954773e-02 -4.231056571006774902e-01 6.457406282424926758e-02
-3.180272132158279419e-02 -3.509991765022277832e-01 5.248940736055374146e-02
1.703180745244026184e-02 -2.875442802906036377e-01 1.870997250080108643e-02
2.006583660840988159e-02 -3.918099999427795410e-01 2.591654658317565918e-03
-7.047451566904783249e-03 -2.799307703971862793e-01 1.064709275960922241e-01
-5.015245638787746429e-03 -4.023244976997375488e-01 1.039772331714630127e-01
2.384869381785392761e-02 -3.637788295745849609e-01 3.527871891856193542e-02
-1.492047123610973358e-02 -4.139772951602935791e-01 -7.117681205272674561e-02
-1.283090747892856598e-02 -3.717653155326843262e-01 1.286380738019943237e-01
1.791499555110931396e-03 -4.501392543315887451e-01 -8.638799190521240234e-03
-2.334944903850555420e-02 -3.141296207904815674e-01 7.318782806396484375e-02
-7.364144083112478256e-03 -4.145251214504241943e-01 9.427371621131896973e-02
-1.762474328279495239e-02 -3.968706429004669189e-01 -6.319005787372589111e-02
-7.255191914737224579e-03 -4.345139563083648682e-01 -7.171568274497985840e-02
-2.610029652714729309e-02 -3.244725465774536133e-01 7.624478638172149658e-02
-2.661266550421714783e-02 -4.485446214675903320e-01 -4.333994910120964050e-02
1.433048862963914871e-02 -3.159486949443817139e-01 1.196603178977966309e-01
-2.356323599815368652e-02 -3.973958492279052734e-01 1.063490658998489380e-01
-3.619655966758728027e-02 -3.873690068721771240e-01 4.175844043493270874e-02
2.052618563175201416e-02 -3.600326776504516602e-01 7.169589400291442871e-02
-8.181169629096984863e-03 -4.234715402126312256e-01 8.493106067180633545e-02
1.086212228983640671e-02 -2.807731628417968750e-01 2.200821042060852051e-02
-3.632539138197898865e-02 -3.909301459789276123e-01 3.090300410985946655e-02
2.284143865108489990e-02 -3.624184131622314453e-01 5.106484144926071167e-02
-1.916818320751190186e-02 -4.595118165016174316e-01 -4.986083135008811951e-02
2.481110766530036926e-02 -3.589702546596527100e-01 1.611916348338127136e-02
-1.690593361854553223e-02 -4.701808094978332520e-01 -1.566238701343536377e-02
-2.000331692397594452e-02 -3.064945936203002930e-01 9.560485184192657471e-02
-2.073097601532936096e-02 -3.936251103878021240e-01 -5.582109466195106506e-02
-2.330441027879714966e-02 -4.150244295597076416e-01 -5.709756538271903992e-02
9.216288104653358459e-03 -2.991896867752075195e-01 1.295303404331207275e-01
-2.554303035140037537e-02 -3.353750705718994141e-01 1.875664107501506805e-02
-8.664919063448905945e-03 -3.926926851272583008e-01 1.151981055736541748e-01
-1.458536833524703979e-03 -4.055424928665161133e-01 9.578846395015716553e-02
2.348482608795166016e-02 -2.952154874801635742e-01 3.626666963100433350e-02
-2.140825986862182617e-02 -3.356047272682189941e-01 -3.196988254785537720e-03
1.940255239605903625e-02 -2.792983651161193848e-01 4.860300570726394653e-02
-2.195528522133827209e-02 -3.099110424518585205e-01 6.622608751058578491e-02
4.597208928316831589e-03 3.386249244213104248e-01 4.494865983724594116e-02
1.539578754454851151e-02 4.994750618934631348e-01 4.305694252252578735e-02
-2.060652151703834534e-02 4.310954511165618896e-01 2.219672687351703644e-02
2.138478867709636688e-02 5.156401991844177246e-01 2.870160154998302460e-03
2.847426943480968475e-02 4.460839629173278809e-01 1.477386895567178726e-02
7.125354371964931488e-03 3.979552388191223145e-01 -3.276693820953369141e-02
-1.748476549983024597e-02 5.036681294441223145e-01 -1.765294931828975677e-02
-5.541860125958919525e-03 4.600669145584106445e-01 5.018272250890731812e-02
-1.878553628921508789e-02 3.797905445098876953e-01 1.725156418979167938e-02
1.694840379059314728e-03 4.226591885089874268e-01 -3.843899071216583252e-02
-1.065414585173130035e-02 3.915846049785614014e-01 -2.946214936673641205e-02
-7.811197079718112946e-03 4.409472644329071045e-01 4.967646300792694092e-02
2.738792076706886292e-02 4.028710126876831055e-01 8.111342787742614746e-03
-2.010853774845600128e-02 3.841592073440551758e-01 7.116461172699928284e-03
1.946126483380794525e-02 5.208086967468261719e-01 2.287472411990165710e-02
-2.203462831676006317e-02 4.319039285182952881e-01 1.440755091607570648e-02
-4.061814397573471069e-03 3.220431804656982422e-01 1.971168909221887589e-03
-1.880850829184055328e-02 3.934648334980010986e-01 2.375174313783645630e-02
4.178494215011596680e-03 3.659619987010955811e-01 -2.633577026426792145e-02
1.955525390803813934e-02 3.482798933982849121e-01 2.663683611899614334e-03
1.927108876407146454e-02 5.060852169990539551e-01 3.422243520617485046e-02
2.370381914079189301e-02 4.556874334812164307e-01 4.167875647544860840e-02
-1.920154504477977753e-02 4.151948392391204834e-01 2.671713754534721375e-02
-2.153443358838558197e-02 4.800748825073242188e-01 4.688102286309003830e-03
1.757374592125415802e-02 3.535401225090026855e-01 -6.418090313673019409e-03
-2.105185203254222870e-02 4.103909730911254883e-01 1.725937053561210632e-02
4.923605360090732574e-03 4.611337780952453613e-01 5.565566569566726685e-02
-1.854983717203140259e-02 4.291496872901916504e-01 2.971779368817806244e-02
1.103799603879451752e-02 4.842695593833923340e-01 -3.232942521572113037e-02
1.124636852182447910e-03 3.275073766708374023e-01 -7.951043546199798584e-03
2.552768774330615997e-02 4.582887887954711914e-01 3.577359020709991455e-02
-1.039186771959066391e-02 3.448883295059204102e-01 -9.252278134226799011e-03
1.450796891003847122e-02 5.143015384674072266e-01 3.788068145513534546e-02
2.367247454822063446e-02 3.939762711524963379e-01 4.275002330541610718e-02
1.157241966575384140e-02 4.553826153278350830e-01 -3.385796397924423218e-02
6.310600321739912033e-03 3.609205484390258789e-01 5.257263034582138062e-02
2.440759539604187012e-02 4.310878813266754150e-01 4.300062358379364014e-02
1.545610651373863220e-02 3.362058401107788086e-01 3.712359815835952759e-02
-1.750562526285648346e-02 4.549937546253204346e-01 -2.756742946803569794e-02
1.995628885924816132e-02 4.897735416889190674e-01 4.005194827914237976e-02
2.675646170973777771e-02 4.019711911678314209e-01 3.321233019232749939e-02
1.228352310135960579e-03 4.676590263843536377e-01 -3.972724080085754395e-02
5.404597148299217224e-03 4.616988003253936768e-01 -3.841025382280349731e-02
3.613031469285488129e-03 4.510329365730285645e-01 5.662558227777481079e-02
9.510846808552742004e-03 4.398063719272613525e-01 5.781435221433639526e-02
2.741757035255432129e-02 4.681590795516967773e-01 1.848443225026130676e-02
2.691739052534103394e-02 4.359588027000427246e-01 -7.413644343614578247e-04
7.722334004938602448e-03 3.760115802288055420e-01 5.561746656894683838e-02
2.185327187180519104e-02 3.481608629226684570e-01 2.098162099719047546e-02
