4.577513337135314941e-01 -4.302633106708526611e-01 2.248779237270355225e-01
4.660174548625946045e-01 -4.952549934387207031e-01 1.873492896556854248e-01
3.985708057880401611e-01 -5.067330598831176758e-01 1.815701872110366821e-01
4.339774549007415771e-01 -3.836097121238708496e-01 2.705848515033721924e-01
4.167148768901824951e-01 -5.752102732658386230e-01 3.742996454238891602e-01
4.456877112388610840e-01 -6.499532461166381836e-01 1.621848046779632568e-01
3.989163339138031006e-01 -4.732390344142913818e-01 1.559026539325714111e-01
3.990730941295623779e-01 -4.976857602596282959e-01 1.987135410308837891e-01
4.616054892539978027e-01 -4.773080945014953613e-01 2.822416126728057861e-01
4.096343815326690674e-01 -4.365193247795104980e-01 -1.111433580517768860e-01
4.078858196735382080e-01 -4.442482590675354004e-01 3.045996129512786865e-01
4.552767276763916016e-01 -5.526289343833923340e-01 3.705417513847351074e-01
4.500609636306762695e-01 -4.012507796287536621e-01 8.659876883029937744e-03
4.059923291206359863e-01 -4.145970344543457031e-01 5.863176286220550537e-02
4.045590162277221680e-01 -4.290409088134765625e-01 1.972075700759887695e-01
4.199452400207519531e-01 -4.376462697982788086e-01 3.928840160369873047e-01
4.113214910030364990e-01 -4.638378322124481201e-01 -1.737878322601318359e-01
4.054265022277832031e-01 -5.798600316047668457e-01 2.318243980407714844e-01
4.305419623851776123e-01 -3.761349916458129883e-01 1.301638782024383545e-03
3.979901373386383057e-01 -5.219671130180358887e-01 3.310089558362960815e-02
4.505826830863952637e-01 -4.415232539176940918e-01 -1.330542266368865967e-01
4.522874653339385986e-01 -5.075812339782714844e-01 4.094340503215789795e-01
4.554893076419830322e-01 -4.428723156452178955e-01 3.104586601257324219e-01
4.014952778816223145e-01 -5.187734365463256836e-01 2.582626044750213623e-01
4.326942563056945801e-01 -4.515047669410705566e-01 4.389775395393371582e-01
4.623128473758697510e-01 -5.242975354194641113e-01 -8.456744998693466187e-02
4.032067954540252686e-01 -4.286504983901977539e-01 6.771133095026016235e-02
3.985617756843566895e-01 -5.378914475440979004e-01 3.515204787254333496e-02
4.010802805423736572e-01 -5.717173814773559570e-01 9.892055392265319824e-02
4.002345800399780273e-01 -4.842435419559478760e-01 2.240754961967468262e-01
4.154646098613739014e-01 -6.177687644958496094e-01 2.572307288646697998e-01
4.449110329151153564e-01 -4.704004526138305664e-01 4.318404197692871094e-01
4.025581479072570801e-01 -5.703217387199401855e-01 1.909652948379516602e-01
4.663809835910797119e-01 -5.560912489891052246e-01 1.393190920352935791e-01
4.659750461578369141e-01 -5.240169167518615723e-01 4.039168357849121094e-03
4.521503448486328125e-01 -6.364612579345703125e-01 1.680785715579986572e-01
4.094000458717346191e-01 -5.286031365394592285e-01 3.635824918746948242e-01
4.430957436561584473e-01 -4.111019968986511230e-01 -1.110717877745628357e-01
4.668242037296295166e-01 -5.493421554565429688e-01 1.246396303176879883e-01
4.652364850044250488e-01 -5.127910971641540527e-01 -1.562085747718811035e-02
4.133339524269104004e-01 -5.149566531181335449e-01 4.020779728889465332e-01
4.612405598163604736e-01 -5.841454267501831055e-01 -3.854473680257797241e-02
4.520351290702819824e-01 -4.212625920772552490e-01 -5.997966974973678589e-02
4.063678979873657227e-01 -5.377700328826904297e-01 -1.486677527427673340e-01
4.539407491683959961e-01 -4.566477239131927490e-01 3.555380702018737793e-01
4.087021350860595703e-01 -5.591075420379638672e-01 -1.553928852081298828e-01
4.120761156082153320e-01 -4.146589040756225586e-01 -7.533282786607742310e-02
4.114055335521697998e-01 -3.975911140441894531e-01 2.681939303874969482e-02
4.653176963329315186e-01 -4.912704229354858398e-01 2.092965543270111084e-01
4.508026540279388428e-01 -5.937411189079284668e-01 -1.566739380359649658e-01
4.211429357528686523e-01 -3.745186626911163330e-01 9.924939274787902832e-02
4.285991191864013672e-01 -4.514686763286590576e-01 -2.269750535488128662e-01
4.072622656822204590e-01 -5.236523151397705078e-01 -1.654787063598632812e-01
4.657399058341979980e-01 -4.837905168533325195e-01 1.656280457973480225e-01
4.563362300395965576e-01 -4.150934815406799316e-01 1.416433602571487427e-01
4.603830575942993164e-01 -6.093963384628295898e-01 1.134894192218780518e-01
4.574524462223052979e-01 -5.005440115928649902e-01 -1.443083584308624268e-01
4.598378837108612061e-01 -4.313877224922180176e-01 1.189418062567710876e-01
4.426667690277099609e-01 -6.556022763252258301e-01 1.346099525690078735e-01
4.646295905113220215e-01 -5.524510741233825684e-01 -1.863392442464828491e-02
4.002458453178405762e-01 -5.478041172027587891e-01 -1.849470287561416626e-02
-1.352698206901550293e-01 -6.122506260871887207e-01 -1.996681839227676392e-02
-1.335356533527374268e-01 -5.737520456314086914e-01 9.366775304079055786e-02
-8.204182237386703491e-02 -5.868163108825683594e-01 -2.804597616195678711e-01
-9.533592313528060913e-02 -6.012337803840637207e-01 -3.379985094070434570e-01
-1.082991361618041992e-01 -5.035151839256286621e-01 2.639040648937225342e-01
-9.753417223691940308e-02 -5.011892318725585938e-01 -2.885444462299346924e-01
-1.161974444985389709e-01 -6.199853420257568359e-01 -3.161196112632751465e-01
-9.593093395233154297e-02 -5.840278267860412598e-01 3.430763483047485352e-01
-1.286008954048156738e-01 -5.208340883255004883e-01 -5.000024661421775818e-02
-1.200176924467086792e-01 -6.281648278236389160e-01 2.028396427631378174e-01
-8.948633074760437012e-02 -5.592584609985351562e-01 -3.457030057907104492e-01
-1.325130015611648560e-01 -5.571868419647216797e-01 9.069062769412994385e-02
-8.622263371944427490e-02 -6.449472308158874512e-01 2.295798622071743011e-04
-1.154375225305557251e-01 -6.447107791900634766e-01 -2.457076162099838257e-01
-1.278160959482192993e-01 -5.284941792488098145e-01 -1.600290089845657349e-01
-7.946570217609405518e-02 -4.657339453697204590e-01 -3.538802266120910645e-02
-1.214056462049484253e-01 -5.346477031707763672e-01 2.285441011190414429e-01
-1.268324553966522217e-01 -6.184043884277343750e-01 1.650432795286178589e-01
-1.089834719896316528e-01 -6.639127135276794434e-01 -1.161012426018714905e-01
-1.102555617690086365e-01 -4.726963341236114502e-01 -2.483897376805543900e-03
-6.671208143234252930e-02 -5.771850347518920898e-01 2.085747942328453064e-02
-1.017934232950210571e-01 -6.562634706497192383e-01 1.130842790007591248e-01
-8.717066049575805664e-02 -5.460150241851806641e-01 -3.326443135738372803e-01
-1.102508008480072021e-01 -4.760844111442565918e-01 9.136364609003067017e-02
-7.176233083009719849e-02 -5.966280102729797363e-01 1.212052255868911743e-01
-7.027183473110198975e-02 -5.813916921615600586e-01 -1.280663162469863892e-01
-1.339634507894515991e-01 -5.694836378097534180e-01 7.526683807373046875e-02
-1.183117255568504333e-01 -5.123825669288635254e-01 2.028312385082244873e-01
-1.042682975530624390e-01 -6.639386415481567383e-01 -9.210716933012008667e-02
-7.044111192226409912e-02 -5.842428803443908691e-01 1.539739370346069336e-01
-6.758797913789749146e-02 -5.829381942749023438e-01 6.986806634813547134e-03
-7.698744535446166992e-02 -6.196005344390869141e-01 8.271276205778121948e-02
-1.345698535442352295e-01 -5.647683739662170410e-01 -1.228742823004722595e-01
-7.643035799264907837e-02 -4.779199957847595215e-01 1.679078489542007446e-01
-9.492424130439758301e-02 -6.395130157470703125e-01 -2.275809198617935181e-01
-1.300308257341384888e-01 -5.852074027061462402e-01 -2.479743510484695435e-01
-1.346648782491683960e-01 -5.732795596122741699e-01 -1.435100734233856201e-01
-1.148679777979850769e-01 -6.072784662246704102e-01 -3.402151763439178467e-01
-1.319154053926467896e-01 -5.562242865562438965e-01 1.043312996625900269e-01
-6.984520703554153442e-02 -5.440540313720703125e-01 -1.771026402711868286e-01
-1.266531497240066528e-01 -6.361385583877563477e-01 1.056642979383468628e-01
-7.688450068235397339e-02 -5.598605871200561523e-01 2.903761267662048340e-01
-1.351788640022277832e-01 -5.654546618461608887e-01 8.889997377991676331e-03
-9.828282147645950317e-02 -6.570592522621154785e-01 -1.309067159891128540e-01
-1.208976805210113525e-01 -5.579952597618103027e-01 2.643438279628753662e-01
-6.563130021095275879e-02 -5.329383611679077148e-01 -8.442336320877075195e-02
-8.595871925354003906e-02 -6.386788487434387207e-01 1.079369187355041504e-01
-1.164067685604095459e-01 -6.107001900672912598e-01 2.655567228794097900e-01
-7.689903676509857178e-02 -5.842306613922119141e-01 -2.321227043867111206e-01
-1.328094899654388428e-01 -5.422115921974182129e-01 -3.260123729705810547e-02
-6.908651441335678101e-02 -4.886862039566040039e-01 -1.889414153993129730e-02
-6.465427577495574951e-02 -5.507550239562988281e-01 8.828088641166687012e-02
-8.556572347879409790e-02 -5.847186446189880371e-01 3.136345744132995605e-01
-8.233473449945449829e-02 -6.308233737945556641e-01 -1.203231215476989746e-01
-8.585886657238006592e-02 -6.398396492004394531e-01 9.361005574464797974e-02
-8.217698335647583008e-02 -5.090390443801879883e-01 -2.635233998298645020e-01
-8.193221688270568848e-02 -6.355986595153808594e-01 -3.314954414963722229e-02
-1.025082170963287354e-01 -4.637850224971771240e-01 -3.133274242281913757e-02
-8.319685608148574829e-02 -5.345833897590637207e-01 3.323228061199188232e-01
-1.251848936080932617e-01 -5.085129737854003906e-01 2.070317603647708893e-02
-9.667933732271194458e-02 -6.534878015518188477e-01 -1.503867208957672119e-01
-7.835263013839721680e-02 -6.264406442642211914e-01 2.635360322892665863e-02
-8.603966981172561646e-02 -5.365749001502990723e-01 -3.215551376342773438e-01
-1.009083017706871033e-01 -4.665864408016204834e-01 1.213772892951965332e-01
-7.104534655809402466e-02 -5.525716543197631836e-01 2.367466837167739868e-01
-6.578396260738372803e-02 -5.219788551330566406e-01 -7.536460459232330322e-02
-9.373833239078521729e-02 -6.153627634048461914e-01 -3.036826550960540771e-01
-8.640453964471817017e-02 -5.921077132225036621e-01 -3.057300746440887451e-01
-1.314389854669570923e-01 -6.122008562088012695e-01 -2.046936601400375366e-01
-1.272760182619094849e-01 -5.456690788269042969e-01 -2.338158041238784790e-01
-7.961006462574005127e-02 -4.946498274803161621e-01 2.598693072795867920e-01
-7.735120505094528198e-02 -6.218503117561340332e-01 -6.168412417173385620e-02
-6.833806633949279785e-02 -5.495436787605285645e-01 -1.480064690113067627e-01
-9.420488774776458740e-02 -5.265548825263977051e-01 3.469490408897399902e-01
-7.113419473171234131e-02 -4.828339219093322754e-01 1.057770922780036926e-01
-6.754463911056518555e-02 -5.578561425209045410e-01 -1.213702112436294556e-01
-7.753850519657135010e-02 -5.267229080200195312e-01 2.988017201423645020e-01
-1.008387058973312378e-01 -4.818063080310821533e-01 2.257196009159088135e-01
-1.359622329473495483e-01 -5.799109339714050293e-01 6.130889523774385452e-03
-1.216710805892944336e-01 -5.718466639518737793e-01 2.628908157348632812e-01
-9.697463363409042358e-02 -4.743174910545349121e-01 -1.794060617685317993e-01
-9.544131904840469360e-02 -6.120641231536865234e-01 2.929754555225372314e-01
-1.215644925832748413e-01 -5.876442790031433105e-01 -3.256941437721252441e-01
-1.241108626127243042e-01 -6.130968332290649414e-01 -2.868079245090484619e-01
-1.088651642203330994e-01 -6.642796993255615234e-01 3.819965571165084839e-02
-1.124464347958564758e-01 -4.793349504470825195e-01 -8.959111571311950684e-02
-1.197770014405250549e-01 -6.021826267242431641e-01 -3.269697129726409912e-01
-7.781355082988739014e-02 -6.252136230468750000e-01 4.667124245315790176e-03
-1.215500757098197937e-01 -4.994269907474517822e-01 6.275476515293121338e-02
-9.474048763513565063e-02 -4.718253016471862793e-01 1.964861303567886353e-01
-9.722398966550827026e-02 -5.609856247901916504e-01 -3.686395883560180664e-01
-6.810139119625091553e-02 -5.179492831230163574e-01 1.879975199699401855e-01
-6.552848219871520996e-02 -5.196841359138488770e-01 1.285462379455566406e-01
-1.343403458595275879e-01 -6.203106641769409180e-01 -8.208598941564559937e-02
-1.347513198852539062e-01 -5.957683324813842773e-01 -1.540015786886215210e-01
-8.247875422239303589e-02 -6.081217527389526367e-01 -2.368301451206207275e-01
-8.420415222644805908e-02 -4.635326266288757324e-01 1.228586584329605103e-01
-1.026001945137977600e-01 -4.633953571319580078e-01 -1.059060078114271164e-02
-9.291028976440429688e-02 -5.108363032341003418e-01 3.260690569877624512e-01
-6.873235106468200684e-02 -5.882580280303955078e-01 6.165873259305953979e-02
-7.176019251346588135e-02 -5.798154473304748535e-01 1.962682008743286133e-01
-1.153337210416793823e-01 -5.072913765907287598e-01 2.181708961725234985e-01
-1.269471347332000732e-01 -6.462165117263793945e-01 -1.303535997867584229e-01
-1.213350296020507812e-01 -5.504721999168395996e-01 -3.050652444362640381e-01
-8.917203545570373535e-02 -4.577695131301879883e-01 1.318856701254844666e-02
-1.336728930473327637e-01 -5.923864841461181641e-01 9.325355291366577148e-02
-8.015463501214981079e-02 -5.989729762077331543e-01 2.451605647802352905e-01
-1.212611645460128784e-01 -5.255156159400939941e-01 -2.497759461402893066e-01
-7.475745677947998047e-02 -4.747935235500335693e-01 -5.084154754877090454e-02
-1.287765502929687500e-01 -5.741716027259826660e-01 -2.593894600868225098e-01
-1.246848404407501221e-01 -5.239352583885192871e-01 -1.992477476596832275e-01
-1.024392768740653992e-01 -4.675222039222717285e-01 -9.835206717252731323e-02
-1.307102292776107788e-01 -6.053111553192138672e-01 1.371677368879318237e-01
-1.337060332298278809e-01 -6.035894751548767090e-01 7.795906811952590942e-02
-1.123697459697723389e-01 -4.862420856952667236e-01 -1.587244421243667603e-01
-1.120394021272659302e-01 -6.238425374031066895e-01 2.555876672267913818e-01
-9.831570833921432495e-02 -6.588809490203857422e-01 -1.070986539125442505e-01
-1.288286745548248291e-01 -6.252771019935607910e-01 -2.117897123098373413e-01
-1.082350388169288635e-01 -4.930930733680725098e-01 -2.322491556406021118e-01
-6.763753294944763184e-02 -4.955745637416839600e-01 9.458505362272262573e-02
-1.108880639076232910e-01 -5.700362920761108398e-01 -3.681519627571105957e-01
-6.503168493509292603e-02 -5.115203857421875000e-01 -1.188724301755428314e-03
-1.319537758827209473e-01 -6.290438175201416016e-01 2.854902856051921844e-02
-7.394182682037353516e-02 -5.861759781837463379e-01 2.110998332500457764e-01
-7.961201667785644531e-02 -6.242657899856567383e-01 1.113221794366836548e-01
-1.270814836025238037e-01 -5.152165293693542480e-01 -6.222338601946830750e-02
-7.983499020338058472e-02 -5.104700922966003418e-01 2.942414879798889160e-01
-6.536972522735595703e-02 -5.067527890205383301e-01 2.303310483694076538e-02
-1.100864186882972717e-01 -5.086556077003479004e-01 -2.804000675678253174e-01
-7.600507140159606934e-02 -4.763830006122589111e-01 1.522842198610305786e-01
-1.294654309749603271e-01 -6.169210076332092285e-01 -2.251861840486526489e-01
-1.145328208804130554e-01 -5.894178748130798340e-01 -3.563573062419891357e-01
-1.337597668170928955e-01 -5.582317113876342773e-01 5.182641372084617615e-02
-9.193403273820877075e-02 -5.910605788230895996e-01 3.267156779766082764e-01
-8.293806016445159912e-02 -5.974565148353576660e-01 2.723097503185272217e-01
-1.137891784310340881e-01 -5.193209648132324219e-01 -2.913448214530944824e-01
-7.350365072488784790e-02 -5.551278591156005859e-01 2.634173929691314697e-01
-1.243186518549919128e-01 -5.982432961463928223e-01 2.263748943805694580e-01
-1.243850961327552795e-01 -5.131908059120178223e-01 1.024592742323875427e-01
-1.121739000082015991e-01 -4.838130474090576172e-01 1.341081410646438599e-01
-1.189594715833663940e-01 -6.473848819732666016e-01 1.330418139696121216e-01
-8.839360624551773071e-02 -6.045069694519042969e-01 -2.966815531253814697e-01
-1.350581645965576172e-01 -5.666924715042114258e-01 2.276050671935081482e-02
-9.692506492137908936e-02 -6.025236248970031738e-01 3.163979947566986084e-01
-6.668358296155929565e-02 -5.448601841926574707e-01 -1.135715544223785400e-01
-9.470236301422119141e-02 -4.878088533878326416e-01 -2.445155531167984009e-01
-1.305283010005950928e-01 -5.573517680168151855e-01 -2.096454054117202759e-01
-6.998190283775329590e-02 -5.953853130340576172e-01 -2.019034326076507568e-02
-1.102810800075531006e-01 -4.737583398818969727e-01 -5.108849704265594482e-02
-1.313092857599258423e-01 -5.363205075263977051e-01 -9.451966732740402222e-02
-1.256093382835388184e-01 -5.790925025939941406e-01 2.247687131166458130e-01
-6.650558114051818848e-02 -5.123750567436218262e-01 1.406763643026351929e-01
-1.020807400345802307e-01 -6.563395261764526367e-01 -1.694492548704147339e-01
-1.284605860710144043e-01 -5.287377834320068359e-01 -1.447235345840454102e-01
-1.171469986438751221e-01 -6.623440384864807129e-01 -1.012123227119445801e-01
-6.933012604713439941e-02 -5.668293833732604980e-01 -1.460854858160018921e-01
-1.335227489471435547e-01 -6.261166930198669434e-01 -3.095724806189537048e-02
-8.446768671274185181e-02 -5.748163461685180664e-01 -3.128528296947479248e-01
-1.354355216026306152e-01 -5.798653364181518555e-01 -1.254547238349914551e-01
-1.287156492471694946e-01 -5.521329045295715332e-01 1.620771735906600952e-01
-1.166440844535827637e-01 -6.404098272323608398e-01 -2.588174939155578613e-01
-6.518923491239547729e-02 -5.191689729690551758e-01 1.148077994585037231e-01
-1.301970034837722778e-01 -5.351176857948303223e-01 -1.323364824056625366e-01
-1.299262791872024536e-01 -5.535642504692077637e-01 1.426454037427902222e-01
-1.177596673369407654e-01 -6.283895969390869141e-01 2.169275581836700439e-01
-6.588696688413619995e-02 -5.694220662117004395e-01 5.770087242126464844e-02
-6.831250339746475220e-02 -5.698690414428710938e-01 -1.148106381297111511e-01
-7.877866923809051514e-02 -6.098189353942871094e-01 1.889715939760208130e-01
-1.198768690228462219e-01 -4.920636117458343506e-01 -2.113872952759265900e-02
-1.135215759277343750e-01 -6.563101410865783691e-01 -1.871644854545593262e-01
-8.023193478584289551e-02 -4.797916412353515625e-01 2.108422368764877319e-01
-1.210077181458473206e-01 -4.950665831565856934e-01 -1.658190041780471802e-03
-1.109357178211212158e-01 -4.927576184272766113e-01 -2.123309820890426636e-01
-7.117956131696701050e-02 -6.010247468948364258e-01 4.555298760533332825e-02
-1.234104782342910767e-01 -5.227033495903015137e-01 -2.134116888046264648e-01
-6.678096950054168701e-02 -5.480170249938964844e-01 1.674489229917526245e-01
-7.893010973930358887e-02 -6.275166273117065430e-01 4.210738837718963623e-02
-7.339631021022796631e-02 -6.049190759658813477e-01 1.089469566941261292e-01
-1.201196610927581787e-01 -6.377475261688232422e-01 1.691294312477111816e-01
-1.278348565101623535e-01 -5.610429644584655762e-01 1.889296174049377441e-01
-6.764932721853256226e-02 -5.822480320930480957e-01 -1.830005273222923279e-02
-6.642805784940719604e-02 -5.663153529167175293e-01 1.113984286785125732e-01
-1.027637496590614319e-01 -5.279847383499145508e-01 -3.435465395450592041e-01
-1.289502382278442383e-01 -6.116955280303955078e-01 1.524281501770019531e-01
-1.061207428574562073e-01 -6.556350588798522949e-01 1.283220499753952026e-01
-7.789842784404754639e-02 -5.118766427040100098e-01 -2.388419657945632935e-01
-7.162991166114807129e-02 -6.034559607505798340e-01 2.978172339498996735e-02
-1.175220608711242676e-01 -4.948667287826538086e-01 -1.479977816343307495e-01
-1.320304721593856812e-01 -5.479382276535034180e-01 7.343070954084396362e-02
-1.130749732255935669e-01 -4.923621714115142822e-01 1.778129935264587402e-01
-9.925623238086700439e-02 -4.770063459873199463e-01 2.093562930822372437e-01
-1.290879547595977783e-01 -6.416077613830566406e-01 -1.170584112405776978e-01
-9.482354670763015747e-02 -5.898863077163696289e-01 -3.505023717880249023e-01
-8.012913167476654053e-02 -4.750022888183593750e-01 1.853488534688949585e-01
-7.791817933320999146e-02 -4.918809831142425537e-01 -1.870414018630981445e-01
-1.241953074932098389e-01 -6.553391814231872559e-01 -3.373629599809646606e-02
-1.347491443157196045e-01 -6.060989499092102051e-01 3.926333039999008179e-02
-1.345648020505905151e-01 -5.868172049522399902e-01 7.102008908987045288e-02
-9.457039833068847656e-02 -6.530184745788574219e-01 8.855360001325607300e-02
-1.347988694906234741e-01 -5.782128572463989258e-01 5.966577678918838501e-02
-1.318950355052947998e-01 -6.154496669769287109e-01 9.203675389289855957e-02
-7.239863276481628418e-02 -5.624955892562866211e-01 -2.052481770515441895e-01
-1.321895420551300049e-01 -5.402527451515197754e-01 1.389081031084060669e-02
-8.535629510879516602e-02 -4.615418910980224609e-01 1.050175130367279053e-01
-8.271153271198272705e-02 -4.894526004791259766e-01 -2.138582319021224976e-01
-1.158871203660964966e-01 -4.933265447616577148e-01 1.438698917627334595e-01
-1.070760637521743774e-01 -4.787515401840209961e-01 1.627875268459320068e-01
-1.107770875096321106e-01 -5.300569534301757812e-01 3.060494959354400635e-01
-7.043392956256866455e-02 -4.983828663825988770e-01 -1.145750507712364197e-01
-1.238224357366561890e-01 -5.176199078559875488e-01 1.402756571769714355e-01
-9.166947752237319946e-02 -4.888951182365417480e-01 2.743034660816192627e-01
-1.245020553469657898e-01 -5.153970718383789062e-01 -1.575190275907516479e-01
-6.423114240169525146e-02 -5.493251085281372070e-01 6.030133366584777832e-02
-8.336656540632247925e-02 -6.210246086120605469e-01 -1.989219337701797485e-01
-6.582211703062057495e-02 -5.030740499496459961e-01 3.741239756345748901e-02
-8.736391365528106689e-02 -6.072062849998474121e-01 -2.833822667598724365e-01
-6.424348801374435425e-02 -5.201902985572814941e-01 1.146787405014038086e-02
-1.092643514275550842e-01 -6.010169982910156250e-01 3.095126748085021973e-01
-6.700757145881652832e-02 -4.970852136611938477e-01 -1.004546415060758591e-03
-1.219656392931938171e-01 -5.007207989692687988e-01 -9.657157212495803833e-02
-6.955832242965698242e-02 -5.602006316184997559e-01 2.047933191061019897e-01
-8.488527685403823853e-02 -4.601316452026367188e-01 -2.177823893725872040e-02
-1.292962729930877686e-01 -6.421605348587036133e-01 -1.017151996493339539e-01
-6.674584746360778809e-02 -5.261721014976501465e-01 -1.083655878901481628e-01
-1.335595548152923584e-01 -6.047359704971313477e-01 -1.752567291259765625e-01
-1.355595290660858154e-01 -6.018214225769042969e-01 1.518954895436763763e-02
-8.585594594478607178e-02 -6.430301070213317871e-01 4.540000110864639282e-02
-1.308197379112243652e-01 -5.440141558647155762e-01 9.449256956577301025e-02
-1.286037564277648926e-01 -6.453281641006469727e-01 -2.314349077641963959e-02
-7.819740474224090576e-02 -6.069944500923156738e-01 -1.849453449249267578e-01
-1.332246810197830200e-01 -5.794572234153747559e-01 -1.909810900688171387e-01
-1.351512670516967773e-01 -5.622516870498657227e-01 -6.843364238739013672e-02
-1.276728808879852295e-01 -6.250723004341125488e-01 1.351207494735717773e-01
-1.225515455007553101e-01 -5.044720768928527832e-01 -1.197113245725631714e-01
-1.174778640270233154e-01 -6.298868060111999512e-01 -2.889688909053802490e-01
-6.517614424228668213e-02 -5.505433082580566406e-01 1.146006062626838684e-01
-7.764891535043716431e-02 -5.986608266830444336e-01 2.193235307931900024e-01
-7.167223095893859863e-02 -4.782387912273406982e-01 5.009773373603820801e-02
-1.342631429433822632e-01 -5.576374530792236328e-01 -1.031582877039909363e-01
-7.010424882173538208e-02 -4.975241720676422119e-01 1.715498566627502441e-01
-1.160947978496551514e-01 -5.155438184738159180e-01 2.369151562452316284e-01
-7.477250695228576660e-02 -5.838358998298645020e-01 2.289783656597137451e-01
-1.357331871986389160e-01 -6.057413816452026367e-01 -8.715402334928512573e-02
-1.361683905124664307e-01 -5.761045813560485840e-01 -3.808626532554626465e-02
-1.164719015359878540e-01 -4.862955808639526367e-01 6.314367055892944336e-02
-7.011421024799346924e-02 -4.832953214645385742e-01 9.105866774916648865e-03
-6.665913015604019165e-02 -5.239473581314086914e-01 1.662441194057464600e-01
-1.275596916675567627e-01 -5.260992050170898438e-01 9.877885878086090088e-02
-1.182974427938461304e-01 -5.855195522308349609e-01 2.843884229660034180e-01
-6.437022984027862549e-02 -5.457319021224975586e-01 -2.668102458119392395e-02
-1.243534162640571594e-01 -6.520838737487792969e-01 2.896663360297679901e-02
-1.327215284109115601e-01 -6.306634545326232910e-01 -6.385085731744766235e-02
-1.249420493841171265e-01 -5.495200157165527344e-01 -2.708814442157745361e-01
-1.316470503807067871e-01 -6.282675266265869141e-01 -1.450379639863967896e-01
-1.176507249474525452e-01 -4.945405721664428711e-01 1.204805672168731689e-01
-1.053090691566467285e-01 -4.982164502143859863e-01 -2.658621966838836670e-01
-8.867277950048446655e-02 -5.529009103775024414e-01 3.514563739299774170e-01
-1.093930900096893311e-01 -4.714871346950531006e-01 1.672070100903511047e-02
-1.307460665702819824e-01 -5.371473431587219238e-01 6.251022964715957642e-02
-1.267336010932922363e-01 -5.502618551254272461e-01 -2.516114115715026855e-01
-8.399756997823715210e-02 -4.611251950263977051e-01 8.570072799921035767e-02
-6.884114444255828857e-02 -5.781227350234985352e-01 1.395071297883987427e-01
-9.767781943082809448e-02 -4.610534310340881348e-01 -4.768300428986549377e-02
-7.948577404022216797e-02 -6.181691288948059082e-01 1.547337174415588379e-01
-6.402018666267395020e-02 -5.448796749114990234e-01 2.193111460655927658e-03
-1.114186495542526245e-01 -6.513017416000366211e-01 -2.221528738737106323e-01
-7.624318450689315796e-02 -5.346805453300476074e-01 -2.528473138809204102e-01
-6.808274984359741211e-02 -5.548787117004394531e-01 1.862565577030181885e-01
-6.660670042037963867e-02 -5.055785775184631348e-01 -4.854966327548027039e-02
-1.337616145610809326e-01 -6.216015219688415527e-01 6.712873931974172592e-03
-6.377096474170684814e-02 -5.353125333786010742e-01 1.977481879293918610e-02
-8.781585097312927246e-02 -4.995974600315093994e-01 3.003259599208831787e-01
-7.951530814170837402e-02 -5.700929760932922363e-01 2.991085648536682129e-01
-1.244976744055747986e-01 -6.059954762458801270e-01 2.145070582628250122e-01
-1.202778518199920654e-01 -5.686124563217163086e-01 -3.303746879100799561e-01
-1.335559189319610596e-01 -6.110414266586303711e-01 -1.621139496564865112e-01
-1.307176202535629272e-01 -6.173268556594848633e-01 1.100992783904075623e-01
-1.161539256572723389e-01 -6.628978252410888672e-01 1.797527074813842773e-02
-8.666896075010299683e-02 -5.405377149581909180e-01 3.458629846572875977e-01
-6.666669994592666626e-02 -5.027788877487182617e-01 1.059670969843864441e-01
-1.236255541443824768e-01 -5.859091877937316895e-01 2.426481693983078003e-01
-1.300953924655914307e-01 -5.312576293945312500e-01 4.583894461393356323e-02
-1.334518641233444214e-01 -5.477741360664367676e-01 -7.216343283653259277e-02
-1.286314874887466431e-01 -5.244123339653015137e-01 -1.050017401576042175e-01
-1.286113262176513672e-01 -5.340831279754638672e-01 1.112725809216499329e-01
-8.133366703987121582e-02 -6.322859525680541992e-01 -7.427898794412612915e-02
-1.196237355470657349e-01 -5.637534856796264648e-01 2.778759300708770752e-01
-1.319589018821716309e-01 -5.529031157493591309e-01 -1.663644164800643921e-01
-1.339770257472991943e-01 -6.126014590263366699e-01 -1.452148258686065674e-01
-1.069733723998069763e-01 -4.833541512489318848e-01 1.923510581254959106e-01
-1.036782041192054749e-01 -4.665334820747375488e-01 8.369100838899612427e-02
-1.197336316108703613e-01 -5.287752747535705566e-01 -2.738678157329559326e-01
-1.165665537118911743e-01 -4.843799471855163574e-01 6.141276564449071884e-03
-1.281879544258117676e-01 -6.468144655227661133e-01 -6.456349045038223267e-02
-8.645927160978317261e-02 -5.641627311706542969e-01 -3.305811285972595215e-01
-1.186689436435699463e-01 -5.072687268257141113e-01 1.776770800352096558e-01
-1.320098191499710083e-01 -6.036172509193420410e-01 1.164049580693244934e-01
-7.175952941179275513e-02 -6.027277112007141113e-01 6.058188527822494507e-02
-1.303862482309341431e-01 -5.466021299362182617e-01 -1.819612830877304077e-01
-1.092588901519775391e-01 -6.196643710136413574e-01 2.739866077899932861e-01
-6.901131570339202881e-02 -5.891287922859191895e-01 -3.705861791968345642e-02
-7.044146209955215454e-02 -4.920659065246582031e-01 -8.575562387704849243e-02
-1.261147260665893555e-01 -5.953913927078247070e-01 -2.888823151588439941e-01
-1.140844076871871948e-01 -5.603334903717041016e-01 -3.548284471035003662e-01
-1.160282045602798462e-01 -5.138812065124511719e-01 -2.597221732139587402e-01
-1.212501525878906250e-01 -5.969854593276977539e-01 2.540185749530792236e-01
-8.971053361892700195e-02 -6.358862519264221191e-01 1.757028549909591675e-01
-8.477839827537536621e-02 -5.215206742286682129e-01 3.284870386123657227e-01
-1.200606375932693481e-01 -4.941444694995880127e-01 -7.344187051057815552e-02
-1.309092342853546143e-01 -5.912288427352905273e-01 -2.352366596460342407e-01
-1.289072334766387939e-01 -5.643318295478820801e-01 -2.474080175161361694e-01
-6.448911875486373901e-02 -5.521667599678039551e-01 -1.421710476279258728e-02
-7.452968508005142212e-02 -5.371715426445007324e-01 -2.370830923318862915e-01
-1.186848580837249756e-01 -5.470623970031738281e-01 -3.185193240642547607e-01
-9.313417226076126099e-02 -4.604975581169128418e-01 -6.334309279918670654e-02
-7.157342880964279175e-02 -4.855055809020996094e-01 1.391780823469161987e-01
-6.417432427406311035e-02 -5.200586318969726562e-01 3.427158668637275696e-02
-1.353627741336822510e-01 -6.078884601593017578e-01 3.152548801153898239e-03
-6.707705557346343994e-02 -5.769368410110473633e-01 7.543801516294479370e-02
-8.385603129863739014e-02 -6.034316420555114746e-01 -2.634650170803070068e-01
-6.934393197298049927e-02 -5.870192050933837891e-01 1.060127168893814087e-01
-9.066413342952728271e-02 -6.280301809310913086e-01 -2.450713515281677246e-01
-1.272912472486495972e-01 -5.184333324432373047e-01 4.923240840435028076e-02
-7.441385090351104736e-02 -5.824207067489624023e-01 -2.025555074214935303e-01
-1.174039170145988464e-01 -5.029360651969909668e-01 -2.007132172584533691e-01
-1.275800168514251709e-01 -5.333667993545532227e-01 -1.885232478380203247e-01
-1.307571530342102051e-01 -5.944499373435974121e-01 1.499658823013305664e-01
-1.122848838567733765e-01 -6.604736447334289551e-01 -1.552541851997375488e-01
-1.064855158329010010e-01 -6.607257723808288574e-01 8.353806287050247192e-02
-1.169273778796195984e-01 -6.629903912544250488e-01 3.790503833442926407e-03
-7.522368431091308594e-02 -5.972126722335815430e-01 -1.731134951114654541e-01
-7.375760376453399658e-02 -4.740226864814758301e-01 -8.268223144114017487e-03
-7.732921838760375977e-02 -5.603769421577453613e-01 -2.648617923259735107e-01
-1.253690570592880249e-01 -5.662926435470581055e-01 -2.898235619068145752e-01
-1.136508360505104065e-01 -4.838038086891174316e-01 1.073997542262077332e-01
-1.041014418005943298e-01 -6.652774810791015625e-01 -3.124972619116306305e-02
-6.463478505611419678e-02 -5.205979347229003906e-01 9.236105531454086304e-02
-1.363561898469924927e-01 -5.916798114776611328e-01 -7.393904030323028564e-02
-1.168803796172142029e-01 -4.981661438941955566e-01 1.579858362674713135e-01
-7.816209644079208374e-02 -5.527228116989135742e-01 3.049445748329162598e-01
-1.138783171772956848e-01 -5.627639889717102051e-01 3.151238858699798584e-01
-8.059957623481750488e-02 -6.245816349983215332e-01 1.301625669002532959e-01
-6.603738665580749512e-02 -5.712087750434875488e-01 -4.238132387399673462e-03
-1.217315420508384705e-01 -4.972228705883026123e-01 -3.867375105619430542e-02
-1.155567616224288940e-01 -5.464788079261779785e-01 -3.350432813167572021e-01
-6.475888192653656006e-02 -5.339952707290649414e-01 -5.374203249812126160e-02
-7.111323624849319458e-02 -5.790251493453979492e-01 -1.541247218847274780e-01
-1.274240612983703613e-01 -5.157247185707092285e-01 -2.188859321177005768e-02
-1.039079800248146057e-01 -5.061836838722229004e-01 2.939987778663635254e-01
-1.234909892082214355e-01 -5.509937405586242676e-01 2.321328818798065186e-01
-6.553848087787628174e-02 -5.457084774971008301e-01 -7.961799949407577515e-02
-7.813396304845809937e-02 -5.392978787422180176e-01 3.075083792209625244e-01
-7.159744203090667725e-02 -5.369727611541748047e-01 2.503731548786163330e-01
-1.301913261413574219e-01 -5.478074550628662109e-01 1.230411380529403687e-01
-1.193460375070571899e-01 -4.914746880531311035e-01 -5.379824340343475342e-02
-1.363995522260665894e-01 -5.947489738464355469e-01 -5.253164842724800110e-02
-7.123464345932006836e-02 -5.330321788787841797e-01 -1.947265118360519409e-01
-9.449125826358795166e-02 -6.567494273185729980e-01 2.504769898951053619e-02
-9.319097548723220825e-02 -6.363590955734252930e-01 1.984560638666152954e-01
-9.232012927532196045e-02 -6.045842170715332031e-01 -3.193615078926086426e-01
-9.218804538249969482e-02 -6.394669413566589355e-01 -2.052460312843322754e-01
-1.014578565955162048e-01 -4.696175754070281982e-01 -1.280713975429534912e-01
-7.343022525310516357e-02 -4.923077225685119629e-01 -1.385245025157928467e-01
-1.299385279417037964e-01 -5.282295942306518555e-01 2.132036909461021423e-02
-9.216976165771484375e-02 -5.756913423538208008e-01 -3.519759774208068848e-01
-1.056985184550285339e-01 -5.225300788879394531e-01 3.189033269882202148e-01
-1.200087964534759521e-01 -6.609044671058654785e-01 -7.208628952503204346e-02
-7.477200031280517578e-02 -5.763050913810729980e-01 -2.193195074796676636e-01
-7.967209815979003906e-02 -6.079092621803283691e-01 2.088070064783096313e-01
-1.326057910919189453e-01 -5.637869834899902344e-01 -1.812385469675064087e-01
-7.191364467144012451e-02 -6.020722389221191406e-01 -5.602084100246429443e-02
-6.455745548009872437e-02 -5.322699546813964844e-01 1.073851063847541809e-01
-7.346723973751068115e-02 -6.095768809318542480e-01 -4.121642932295799255e-02
-8.353297412395477295e-02 -4.682734012603759766e-01 -1.101385727524757385e-01
-1.360726803541183472e-01 -6.027221083641052246e-01 -3.365137428045272827e-02
-6.729070842266082764e-02 -5.397980213165283203e-01 1.847945302724838257e-01
-1.131215021014213562e-01 -5.779365897178649902e-01 3.169043362140655518e-01
-1.067842766642570496e-01 -4.684869050979614258e-01 4.542587697505950928e-02
-6.534485518932342529e-02 -5.618979930877685547e-01 -2.794698812067508698e-02
-7.289762049913406372e-02 -5.914924740791320801e-01 1.749332845211029053e-01
-1.329208165407180786e-01 -5.432882308959960938e-01 -5.541684851050376892e-02
-6.753388792276382446e-02 -5.090959072113037109e-01 -9.060473740100860596e-02
-1.064139679074287415e-01 -5.439618825912475586e-01 3.397429287433624268e-01
-7.740540802478790283e-02 -5.855212211608886719e-01 2.543607354164123535e-01
-6.709782779216766357e-02 -5.307962894439697266e-01 -1.212403550744056702e-01
-1.211270242929458618e-01 -6.309957504272460938e-01 -2.678551673889160156e-01
-9.826218336820602417e-02 -4.698826074600219727e-01 -1.460680514574050903e-01
-1.224798187613487244e-01 -5.202721357345581055e-01 1.745741218328475952e-01
-6.715368479490280151e-02 -4.954039454460144043e-01 5.749218165874481201e-02
-9.567799419164657593e-02 -4.690251946449279785e-01 1.753169894218444824e-01
-1.335208714008331299e-01 -5.585824847221374512e-01 -1.401380151510238647e-01
-6.855478882789611816e-02 -5.244131088256835938e-01 -1.442452073097229004e-01
-1.232398971915245056e-01 -5.083766579627990723e-01 -1.361365318298339844e-01
-1.239318251609802246e-01 -6.454907655715942383e-01 -1.857202351093292236e-01
-1.247371360659599304e-01 -5.113837122917175293e-01 7.824519276618957520e-02
-1.317462921142578125e-01 -5.708472728729248047e-01 -2.113568484783172607e-01
-9.604522585868835449e-02 -6.304982900619506836e-01 2.372600287199020386e-01
-6.398394703865051270e-02 -5.390810370445251465e-01 7.009435445070266724e-02
-9.432443976402282715e-02 -5.412157177925109863e-01 3.572249412536621094e-01
-1.253899782896041870e-01 -5.822885632514953613e-01 -2.979686856269836426e-01
-6.506152451038360596e-02 -5.482501983642578125e-01 -5.827625468373298645e-02
-7.113151252269744873e-02 -5.177304744720458984e-01 -1.759310662746429443e-01
-9.300431609153747559e-02 -6.536827087402343750e-01 -9.109169989824295044e-02
-8.564200997352600098e-02 -6.355624198913574219e-01 -1.470213681459426880e-01
-7.574729621410369873e-02 -5.716021656990051270e-01 2.655183374881744385e-01
-1.059973537921905518e-01 -6.420844197273254395e-01 2.051634937524795532e-01
-1.315003037452697754e-01 -5.976125001907348633e-01 -2.231393456459045410e-01
-1.160778775811195374e-01 -5.833373069763183594e-01 2.990818023681640625e-01
-1.315221935510635376e-01 -5.640168190002441406e-01 1.287550032138824463e-01
-1.299499422311782837e-01 -6.255531311035156250e-01 -1.934722512960433960e-01
-7.457009702920913696e-02 -5.120863318443298340e-01 -2.080069482326507568e-01
-9.938258677721023560e-02 -6.166828274726867676e-01 -3.231728672981262207e-01
-9.009176492691040039e-02 -6.428149342536926270e-01 -1.598710864782333374e-01
-6.383043527603149414e-02 -5.413813591003417969e-01 3.983777388930320740e-02
-7.586519420146942139e-02 -6.157576441764831543e-01 -7.724448293447494507e-02
-8.193755149841308594e-02 -5.566699504852294922e-01 3.254550993442535400e-01
-1.250973790884017944e-01 -6.516632437705993652e-01 1.509596779942512512e-02
-7.477459311485290527e-02 -6.065667271614074707e-01 1.346793770790100098e-01
-7.495616376399993896e-02 -5.040521025657653809e-01 2.493144422769546509e-01
-1.235723048448562622e-01 -5.987710356712341309e-01 -3.070852458477020264e-01
-8.656189590692520142e-02 -6.435038447380065918e-01 -8.244946599006652832e-02
-7.515383511781692505e-02 -6.009854674339294434e-01 -1.567689925432205200e-01
-1.057300716638565063e-01 -6.461014151573181152e-01 1.862349957227706909e-01
-1.063596457242965698e-01 -5.215964317321777344e-01 -3.262768983840942383e-01
-8.349066972732543945e-02 -6.178330183029174805e-01 -2.141749262809753418e-01
-9.492244571447372437e-02 -6.545057892799377441e-01 7.474076747894287109e-02
-1.358328312635421753e-01 -5.700536966323852539e-01 -5.370305106043815613e-02
-7.960278540849685669e-02 -5.028839707374572754e-01 2.793459296226501465e-01
-6.985960900783538818e-02 -4.920771121978759766e-01 -7.214193046092987061e-02
-9.401886165142059326e-02 -6.545909643173217773e-01 5.871459096670150757e-02
-1.224090829491615295e-01 -6.443951129913330078e-01 1.174543797969818115e-01
-6.488667428493499756e-02 -5.186771750450134277e-01 -3.129346668720245361e-02
-1.032001674175262451e-01 -5.617623925209045410e-01 3.529925644397735596e-01
-1.144897490739822388e-01 -5.323312282562255859e-01 -3.173875212669372559e-01
-1.215809434652328491e-01 -5.128707289695739746e-01 1.583056747913360596e-01
-9.424968063831329346e-02 -6.289674043655395508e-01 -2.667600512504577637e-01
-1.277168542146682739e-01 -5.514279603958129883e-01 1.772389858961105347e-01
-1.326891779899597168e-01 -5.932298898696899414e-01 -2.047065198421478271e-01
-7.605063915252685547e-02 -4.686049520969390869e-01 2.626997791230678558e-02
-1.034792736172676086e-01 -4.761089980602264404e-01 -1.665785461664199829e-01
-7.183412462472915649e-02 -5.050837993621826172e-01 -1.586519032716751099e-01
-1.163904666900634766e-01 -4.876766800880432129e-01 8.451718091964721680e-02
-7.959923893213272095e-02 -6.074094772338867188e-01 -2.039941847324371338e-01
-9.239216148853302002e-02 -6.163231134414672852e-01 2.721493244171142578e-01
-1.188023686408996582e-01 -5.124232769012451172e-01 -2.286104112863540649e-01
-1.289053410291671753e-01 -6.318504810333251953e-01 8.871684968471527100e-02
-1.286549866199493408e-01 -5.897394418716430664e-01 -2.650517821311950684e-01
-6.382544338703155518e-02 -5.319057703018188477e-01 5.296090617775917053e-02
-1.341149508953094482e-01 -5.901046395301818848e-01 -1.741601973772048950e-01
-1.028195321559906006e-01 -5.079510211944580078e-01 -3.019405603408813477e-01
-7.798427343368530273e-02 -4.658729135990142822e-01 5.607708543539047241e-02
-7.758665084838867188e-02 -4.812262356281280518e-01 1.975781172513961792e-01
-1.261417865753173828e-01 -5.896041989326477051e-01 2.151697576045989990e-01
-1.061774268746376038e-01 -5.325760841369628906e-01 3.305119574069976807e-01
-8.662980049848556519e-02 -5.654500722885131836e-01 3.400062918663024902e-01
-1.280955821275711060e-01 -5.238505005836486816e-01 6.686558574438095093e-02
-6.723095476627349854e-02 -5.660037994384765625e-01 -9.464536607265472412e-02
-9.191911667585372925e-02 -6.470179557800292969e-01 1.176464855670928955e-01
-1.143675073981285095e-01 -5.979368686676025391e-01 2.947714328765869141e-01
-1.198244690895080566e-01 -6.198897361755371094e-01 -3.015144467353820801e-01
-1.344387382268905640e-01 -5.793992877006530762e-01 -1.602292805910110474e-01
-1.353169828653335571e-01 -6.132243871688842773e-01 -4.672766476869583130e-02
-6.597291678190231323e-02 -5.634083151817321777e-01 -5.607210844755172729e-02
-1.107624471187591553e-01 -4.931456446647644043e-01 2.066925168037414551e-01
-8.882664889097213745e-02 -4.785453975200653076e-01 2.348867356777191162e-01
-1.093880385160446167e-01 -4.801729917526245117e-01 -1.470573395490646362e-01
-6.403964012861251831e-02 -5.274616479873657227e-01 -2.773076761513948441e-03
-6.835961341857910156e-02 -5.464661121368408203e-01 2.010887265205383301e-01
-1.095764786005020142e-01 -4.864640235900878906e-01 -1.888103336095809937e-01
-6.497082859277725220e-02 -5.613763332366943359e-01 4.517502710223197937e-02
-1.336006224155426025e-01 -6.222308278083801270e-01 -1.127166375517845154e-01
-7.880967110395431519e-02 -5.443710684776306152e-01 -2.797872126102447510e-01
-1.293497681617736816e-01 -5.836583375930786133e-01 1.771293580532073975e-01
-9.784831106662750244e-02 -4.853176772594451904e-01 2.522135078907012939e-01
-1.359483450651168823e-01 -5.741297006607055664e-01 -1.261872798204421997e-02
-9.535767138004302979e-02 -6.478792428970336914e-01 1.427448391914367676e-01
-8.602201938629150391e-02 -6.436683535575866699e-01 -5.806617438793182373e-02
-1.261586844921112061e-01 -5.616218447685241699e-01 -2.768319547176361084e-01
-1.087111532688140869e-01 -5.876827239990234375e-01 3.268644213676452637e-01
-7.307037711143493652e-02 -5.231822133064270020e-01 2.599256336688995361e-01
-1.206621751189231873e-01 -5.079300403594970703e-01 -1.831648349761962891e-01
-1.236068308353424072e-01 -5.123487114906311035e-01 1.159828677773475647e-01
-1.076271459460258484e-01 -1.132180392742156982e-01 -2.780983150005340576e-01
-1.006382331252098083e-01 -1.556016206741333008e-01 8.263976126909255981e-02
-1.472159922122955322e-01 5.093117058277130127e-02 -6.282883137464523315e-02
-1.960179954767227173e-01 -1.737501323223114014e-01 1.357115209102630615e-01
-1.112886667251586914e-01 -1.697121262550354004e-01 -2.443438172340393066e-01
-2.004480212926864624e-01 -5.577316135168075562e-02 1.727382540702819824e-01
-1.951658427715301514e-01 -6.168974563479423523e-02 1.993119716644287109e-01
-1.993347853422164917e-01 3.422261774539947510e-02 -1.311305910348892212e-01
-1.996236741542816162e-01 -2.427265048027038574e-03 9.961014240980148315e-02
-1.587030589580535889e-01 -2.435151487588882446e-01 -9.124909341335296631e-02
-1.751536577939987183e-01 -1.891807764768600464e-01 2.020170986652374268e-01
-1.191163510084152222e-01 -2.292715460062026978e-01 -7.910073548555374146e-02
-1.612857133150100708e-01 -1.460778415203094482e-01 2.700656056404113770e-01
-9.749051928520202637e-02 -1.682893633842468262e-01 -9.189899265766143799e-02
-9.451300650835037231e-02 -1.421488970518112183e-01 -8.884433656930923462e-03
-1.196324378252029419e-01 6.885826587677001953e-03 2.862282097339630127e-03
-1.188601702451705933e-01 -2.308912277221679688e-01 -9.103763848543167114e-03
-2.100910693407058716e-01 -9.217163175344467163e-02 1.267523765563964844e-01
-1.113518476486206055e-01 -7.959164679050445557e-02 -2.989455163478851318e-01
-1.598204821348190308e-01 -2.269015759229660034e-01 -1.911900639533996582e-01
-1.978845298290252686e-01 -1.967842131853103638e-01 3.832370042800903320e-03
-9.583684802055358887e-02 -7.295726239681243896e-02 -6.972042471170425415e-02
-1.641793847084045410e-01 -2.296169549226760864e-01 -1.675942540168762207e-01
-1.271686702966690063e-01 -7.455972582101821899e-02 -3.647763431072235107e-01
-1.386074274778366089e-01 -9.683041274547576904e-02 -3.903381526470184326e-01
-1.309345662593841553e-01 -3.169737756252288818e-03 -3.062199652194976807e-01
-1.132102608680725098e-01 -4.945889115333557129e-03 -1.686267554759979248e-01
-1.609572917222976685e-01 -1.193482279777526855e-01 -3.912244737148284912e-01
-1.379607319831848145e-01 3.824393451213836670e-02 -1.932457387447357178e-01
-2.201904654502868652e-01 -8.803916722536087036e-02 -1.477226242423057556e-02
-1.211093664169311523e-01 -1.871661245822906494e-01 -2.584333717823028564e-01
-9.369240701198577881e-02 -1.115216240286827087e-01 -1.080729216337203979e-01
-1.508613675832748413e-01 -2.477766871452331543e-01 -6.319824606180191040e-02
-1.188109591603279114e-01 -1.003825515508651733e-01 2.068711817264556885e-01
-1.053888946771621704e-01 -4.964691400527954102e-02 5.975797772407531738e-02
-1.282135993242263794e-01 -1.733349114656448364e-01 -3.060869872570037842e-01
-2.090945839881896973e-01 -1.400404125452041626e-01 9.158100932836532593e-02
-2.147825360298156738e-01 -1.272390484809875488e-01 -1.384439170360565186e-01
-1.241826787590980530e-01 -1.980887353420257568e-01 -2.451404631137847900e-01
-1.299718320369720459e-01 -1.143587380647659302e-02 1.367945969104766846e-01
-2.141941040754318237e-01 -1.191241294145584106e-01 -1.699198186397552490e-01
-1.130579784512519836e-01 -2.199269831180572510e-03 -4.718023538589477539e-02
-1.549014598131179810e-01 5.362790822982788086e-02 -3.881958872079849243e-02
-2.076905965805053711e-01 -1.693899333477020264e-01 -6.536933034658432007e-02
-1.088733300566673279e-01 -2.051734030246734619e-01 -1.201404929161071777e-01
-1.463013440370559692e-01 -1.245670765638351440e-02 1.855341196060180664e-01
-1.290922462940216064e-01 -1.889164596796035767e-01 -2.804730236530303955e-01
-1.616721451282501221e-01 -2.093240916728973389e-01 1.897647678852081299e-01
-1.025735586881637573e-01 -1.506527215242385864e-01 1.076203808188438416e-01
-1.348737925291061401e-01 -2.460645288228988647e-01 -2.483523637056350708e-02
-1.190405189990997314e-01 7.099166512489318848e-03 -1.872080862522125244e-01
-1.744283586740493774e-01 -1.530240029096603394e-01 2.489631474018096924e-01
-1.938215494155883789e-01 -1.909068375825881958e-01 -1.684007942676544189e-01
-1.010002121329307556e-01 -1.707088947296142578e-01 -1.531951874494552612e-01
-2.071376144886016846e-01 3.861561417579650879e-04 -2.129791378974914551e-01
-1.864976882934570312e-01 4.996073246002197266e-02 -1.475202739238739014e-01
-1.692723184823989868e-01 -4.572413489222526550e-02 -3.964056968688964844e-01
-9.654976427555084229e-02 -8.476290106773376465e-02 -1.554001569747924805e-01
-1.045189648866653442e-01 -3.843055292963981628e-02 1.184637844562530518e-02
-1.633886247873306274e-01 -7.788676768541336060e-02 -4.055711030960083008e-01
-9.792558103799819946e-02 -1.137350052595138550e-01 6.684317439794540405e-02
-1.590223163366317749e-01 -2.107046544551849365e-01 -2.492715418338775635e-01
-9.366992115974426270e-02 -1.032740771770477295e-01 -3.415243327617645264e-02
-1.422763913869857788e-01 -1.463077217340469360e-01 -3.646026253700256348e-01
-1.720633953809738159e-01 3.631009161472320557e-02 7.396229356527328491e-02
-1.471110284328460693e-01 -1.810704767704010010e-01 -3.205227255821228027e-01
-2.195116132497787476e-01 -5.035098642110824585e-02 -1.312262713909149170e-01
-1.710746437311172485e-01 -2.325560897588729858e-01 7.278784364461898804e-02
-2.019846737384796143e-01 -1.875047683715820312e-01 -3.851146250963211060e-02
-2.157425433397293091e-01 -7.378779351711273193e-02 -2.027076482772827148e-01
-1.136651635169982910e-01 -3.203304857015609741e-02 9.243682771921157837e-02
-1.120596975088119507e-01 -4.407455772161483765e-02 -2.720676958560943604e-01
-2.193881422281265259e-01 -4.117016494274139404e-02 -1.132609248161315918e-01
-2.080453932285308838e-01 -5.101788416504859924e-02 1.251751780509948730e-01
-1.368088424205780029e-01 3.245636820793151855e-02 1.490269601345062256e-02
-2.139981687068939209e-01 -2.939162403345108032e-02 -1.990573406219482422e-01
-9.764426946640014648e-02 -9.178280085325241089e-02 4.414644837379455566e-02
