-9.238198399543762207e-02 -5.431367754936218262e-01 1.621937006711959839e-01
-3.445401489734649658e-01 -6.558895111083984375e-01 -2.858448624610900879e-01
1.138021796941757202e-01 -8.446207046508789062e-01 1.245721876621246338e-01
1.355005353689193726e-01 -6.922947168350219727e-01 -4.039521813392639160e-01
-3.833437860012054443e-01 -7.523781061172485352e-01 -8.016776293516159058e-02
3.697794973850250244e-01 -6.464191675186157227e-01 3.459178656339645386e-02
-2.838090062141418457e-01 -6.293266415596008301e-01 2.569117248058319092e-01
1.113936901092529297e-01 -6.657403707504272461e-01 3.557432293891906738e-01
6.487460434436798096e-02 -8.426234126091003418e-01 1.546624451875686646e-01
3.944921493530273438e-01 -7.007988691329956055e-01 -9.603894501924514771e-02
-2.739831805229187012e-01 -7.984365224838256836e-01 1.134309023618698120e-01
-2.934459447860717773e-01 -5.526868104934692383e-01 -9.387619793415069580e-02
8.105569332838058472e-02 -5.309504866600036621e-01 -5.763629823923110962e-02
-2.392081618309020996e-01 -8.200439810752868652e-01 -8.016765117645263672e-02
1.822416931390762329e-01 -6.168253421783447266e-01 2.708186507225036621e-01
-2.236383408308029175e-01 -6.337286829948425293e-01 3.026047348976135254e-01
-2.954522371292114258e-01 -7.152876257896423340e-01 -3.206538856029510498e-01
2.549036443233489990e-01 -5.809749960899353027e-01 7.198797911405563354e-02
3.837946951389312744e-01 -7.452760934829711914e-01 6.242038309574127197e-02
2.648859322071075439e-01 -8.250180482864379883e-01 3.572411090135574341e-02
-1.259586364030838013e-01 -8.256577849388122559e-01 -2.137020975351333618e-01
-1.325451731681823730e-01 -7.657059431076049805e-01 3.160867094993591309e-01
-3.743427097797393799e-01 -5.903040170669555664e-01 -1.100210323929786682e-01
-2.986395061016082764e-01 -5.609042644500732422e-01 -1.505334824323654175e-01
-1.330228894948959351e-01 -8.369286060333251953e-01 -1.462367624044418335e-01
1.837750375270843506e-01 -5.942947268486022949e-01 2.232039421796798706e-01
-2.188121974468231201e-01 -8.268640637397766113e-01 2.092038281261920929e-02
-1.572126001119613647e-01 -5.420409440994262695e-01 1.338261365890502930e-01
-3.003938496112823486e-01 -5.595598220825195312e-01 5.572265386581420898e-02
3.892177641391754150e-01 -6.689310669898986816e-01 -5.914867669343948364e-02
3.616967499256134033e-01 -7.521003484725952148e-01 1.206886172294616699e-01
-3.229870498180389404e-01 -6.401008367538452148e-01 2.301468402147293091e-01
4.867336899042129517e-02 -5.267742276191711426e-01 -5.065639317035675049e-02
1.788328289985656738e-01 -5.530217885971069336e-01 4.071598500013351440e-02
9.029369801282882690e-02 -5.380663275718688965e-01 -1.421176344156265259e-01
-1.502717435359954834e-01 -8.277416229248046875e-01 -1.836511194705963135e-01
3.451096117496490479e-01 -6.559246182441711426e-01 -1.894313097000122070e-01
-1.928156316280364990e-01 -8.319973945617675781e-01 -8.258239924907684326e-02
-3.372768312692642212e-02 -7.780647873878479004e-01 3.250387609004974365e-01
2.233761101961135864e-01 -8.370754718780517578e-01 -4.992755129933357239e-02
-3.732268810272216797e-01 -5.864846110343933105e-01 1.685660332441329956e-03
-1.245737597346305847e-01 -5.323092937469482422e-01 -1.754144728183746338e-01
3.199425637722015381e-01 -6.777992248535156250e-01 -2.558805346488952637e-01
-1.607773900032043457e-01 -8.281520605087280273e-01 1.323516517877578735e-01
2.999561131000518799e-01 -5.974020957946777344e-01 -9.571211040019989014e-02
-5.403146147727966309e-02 -5.234054327011108398e-01 3.405673056840896606e-02
-6.550984084606170654e-02 -5.473177433013916016e-01 -2.579199373722076416e-01
2.536831200122833252e-01 -5.884387493133544922e-01 1.169506013393402100e-01
1.176835969090461731e-02 -8.327766060829162598e-01 -2.322548031806945801e-01
-4.256486892700195312e-01 -7.000216841697692871e-01 -9.488932043313980103e-02
-2.211347073316574097e-01 -8.097410798072814941e-01 -1.902114450931549072e-01
-6.114872545003890991e-02 -5.275812149047851562e-01 -1.552401185035705566e-01
7.094179093837738037e-02 -7.092435359954833984e-01 3.736418187618255615e-01
1.098979450762271881e-02 -8.394534587860107422e-01 1.729809790849685669e-01
-3.296446800231933594e-02 -7.218871116638183594e-01 3.754489719867706299e-01
4.881407320499420166e-02 -5.666172504425048828e-01 2.279016226530075073e-01
3.755230903625488281e-01 -7.663628458976745605e-01 -1.917260512709617615e-02
-2.362687736749649048e-01 -5.440982580184936523e-01 -1.524630188941955566e-01
5.808761715888977051e-02 -7.300559282302856445e-01 -4.137630462646484375e-01
-7.332433015108108521e-02 -8.373973369598388672e-01 1.568029820919036865e-01
1.321075409650802612e-01 -6.395727396011352539e-01 3.280729949474334717e-01
2.743305563926696777e-01 -8.218466043472290039e-01 -5.975621938705444336e-02
-1.574195735156536102e-02 -5.962577462196350098e-01 3.058800101280212402e-01
3.173491060733795166e-01 -7.158686518669128418e-01 -2.639346420764923096e-01
-5.486161261796951294e-02 -8.155371546745300293e-01 2.446817308664321899e-01
2.049348652362823486e-01 -7.014476060867309570e-01 -3.683035969734191895e-01
-1.055597960948944092e-01 -5.265113115310668945e-01 5.812858790159225464e-02
4.116379469633102417e-02 -5.280368328094482422e-01 2.722861431539058685e-02
3.245097696781158447e-01 -6.144469380378723145e-01 -1.147633865475654602e-01
4.486179351806640625e-02 -7.741971015930175781e-01 -3.707592487335205078e-01
-4.249835908412933350e-01 -6.751897335052490234e-01 -1.303143948316574097e-01
1.603773236274719238e-01 -8.278349637985229492e-01 1.775878518819808960e-01
3.633596748113632202e-02 -5.671018958091735840e-01 -3.025677800178527832e-01
7.265290617942810059e-02 -8.511782288551330566e-01 -1.242927014827728271e-01
-3.657268881797790527e-01 -7.673383951187133789e-01 -1.449733879417181015e-02
-2.557152807712554932e-01 -7.989406585693359375e-01 -1.890451163053512573e-01
9.726376831531524658e-02 -7.034952640533447266e-01 -4.158477187156677246e-01
-4.149444401264190674e-01 -7.250806093215942383e-01 -2.088619023561477661e-02
-1.639268845319747925e-01 -5.712283849716186523e-01 2.313359826803207397e-01
-2.066578269004821777e-01 -7.904370427131652832e-01 -2.715963721275329590e-01
-1.369915157556533813e-01 -5.240436792373657227e-01 -7.868248224258422852e-02
-4.018690586090087891e-01 -7.333184480667114258e-01 -9.799507260322570801e-02
-9.287912398576736450e-02 -5.631022453308105469e-01 -3.048872053623199463e-01
3.486923575401306152e-01 -7.257354259490966797e-01 1.764065325260162354e-01
3.082720004022121429e-02 -6.002305746078491211e-01 -3.714293837547302246e-01
-2.736744284629821777e-01 -5.784234404563903809e-01 1.745473295450210571e-01
-3.711927533149719238e-01 -6.119899153709411621e-01 -1.980210989713668823e-01
2.820453941822052002e-01 -8.074071407318115234e-01 1.194174438714981079e-01
-2.479853183031082153e-01 -7.734491825103759766e-01 -2.770602703094482422e-01
-3.314731717109680176e-01 -5.689106583595275879e-01 3.656436502933502197e-02
-3.146087378263473511e-02 -6.129055023193359375e-01 -3.961860537528991699e-01
3.050495684146881104e-01 -6.339587569236755371e-01 1.733473688364028931e-01
1.904902756214141846e-01 -6.395843625068664551e-01 -3.508540093898773193e-01
-4.208839237689971924e-01 -6.300543546676635742e-01 9.278548881411552429e-03
-3.137021064758300781e-01 -7.566457986831665039e-01 -2.396433949470520020e-01
-2.823372483253479004e-01 -5.933288931846618652e-01 2.026731073856353760e-01
-3.568477630615234375e-01 -6.454084515571594238e-01 1.934121549129486084e-01
4.479952901601791382e-02 -5.811961293220520020e-01 -3.334561288356781006e-01
-6.604611128568649292e-02 -7.947896718978881836e-01 2.904510200023651123e-01
-2.970456480979919434e-01 -5.532836318016052246e-01 3.091253340244293213e-03
-7.855644822120666504e-02 -8.264188766479492188e-01 2.013099789619445801e-01
-4.269850254058837891e-02 -6.444206833839416504e-01 3.628270924091339111e-01
-1.993896812200546265e-01 -7.614638805389404297e-01 2.875396311283111572e-01
9.433459490537643433e-02 -7.876184582710266113e-01 3.045432865619659424e-01
3.084756731986999512e-01 -6.434270739555358887e-01 -2.353472411632537842e-01
-2.040503323078155518e-01 -7.156036496162414551e-01 3.278944194316864014e-01
-8.771950751543045044e-02 -8.490179181098937988e-01 5.952229350805282593e-02
-4.162683337926864624e-02 -8.085514307022094727e-01 -3.028440773487091064e-01
-8.994856476783752441e-02 -8.041933178901672363e-01 -3.015834391117095947e-01
-1.762364357709884644e-01 -5.368404984474182129e-01 9.134647995233535767e-02
-8.992741256952285767e-02 -5.210899710655212402e-01 -5.706615000963211060e-02
3.999814987182617188e-01 -7.198830246925354004e-01 -5.162595212459564209e-02
2.470512241125106812e-01 -8.068206310272216797e-01 -2.004997730255126953e-01
-4.053958654403686523e-01 -6.178425550460815430e-01 4.227137565612792969e-02
1.212076693773269653e-01 -8.540787696838378906e-01 9.584987536072731018e-03
-3.231835551559925079e-03 -5.413014888763427734e-01 1.510413140058517456e-01
-2.906402647495269775e-01 -7.316653132438659668e-01 2.518025040626525879e-01
3.733685612678527832e-02 -6.296284198760986328e-01 3.452305793762207031e-01
2.492092102766036987e-01 -6.125394105911254883e-01 2.019526362419128418e-01
1.090746372938156128e-02 -8.004395961761474609e-01 2.900697588920593262e-01
-1.154955998063087463e-01 -5.326616168022155762e-01 1.017593443393707275e-01
-3.702356517314910889e-01 -5.959278941154479980e-01 7.382114976644515991e-02
-1.423878520727157593e-01 -5.810065865516662598e-01 -3.352726697921752930e-01
1.168579459190368652e-01 -5.382841825485229492e-01 2.318462170660495758e-02
6.073518842458724976e-02 -8.124366402626037598e-01 -2.933486104011535645e-01
-2.982698380947113037e-01 -5.705965757369995117e-01 -1.980878412723541260e-01
9.250639006495475769e-03 -6.773039698600769043e-01 3.790543377399444580e-01
1.122957020998001099e-01 -5.866799354553222656e-01 2.526460587978363037e-01
-2.173819690942764282e-01 -6.400587558746337891e-01 -3.786261379718780518e-01
3.704710006713867188e-01 -6.426634788513183594e-01 -1.773499511182308197e-02
2.574363648891448975e-01 -8.235110044479370117e-01 -1.009671688079833984e-01
-1.163519248366355896e-01 -7.438200712203979492e-01 -3.945246934890747070e-01
3.034857809543609619e-01 -6.267168521881103516e-01 -2.103850543498992920e-01
3.226378560066223145e-01 -7.693910002708435059e-01 1.659707278013229370e-01
-3.999317288398742676e-01 -7.388857603073120117e-01 1.396698318421840668e-02
1.840452998876571655e-01 -7.743663787841796875e-01 -3.242876231670379639e-01
4.983182996511459351e-02 -6.751877665519714355e-01 -4.273115992546081543e-01
-3.510429561138153076e-01 -7.480539083480834961e-01 1.430572271347045898e-01
3.173803389072418213e-01 -6.566651463508605957e-01 1.939308792352676392e-01
2.821359224617481232e-02 -7.446687817573547363e-01 -4.066577255725860596e-01
-1.596904695034027100e-01 -7.776945233345031738e-01 -3.303482830524444580e-01
2.484529465436935425e-01 -6.483449935913085938e-01 -3.135268092155456543e-01
-1.592972278594970703e-01 4.876726269721984863e-01 -2.192756235599517822e-01
-6.792204082012176514e-02 6.575699448585510254e-01 2.559271752834320068e-01
-1.694010943174362183e-01 4.386327862739562988e-01 -8.058583736419677734e-02
-7.475134730339050293e-02 8.367711901664733887e-01 3.142425790429115295e-02
-5.856612324714660645e-02 5.596128106117248535e-01 -1.476184427738189697e-01
-1.821474581956863403e-01 6.891360282897949219e-01 -1.993579715490341187e-01
-1.877265274524688721e-01 6.256273388862609863e-01 1.696575582027435303e-01
-1.850131452083587646e-01 8.200778961181640625e-01 -1.119671761989593506e-01
-7.963636517524719238e-02 4.472143650054931641e-01 3.458979725837707520e-01
-9.536318480968475342e-02 8.928165435791015625e-01 1.113001406192779541e-01
-5.330189317464828491e-02 6.150062084197998047e-01 -7.280659675598144531e-02
-1.406438946723937988e-01 8.029124736785888672e-01 -3.474120497703552246e-01
-1.567480713129043579e-01 4.567725062370300293e-01 3.316143453121185303e-01
-1.932472586631774902e-01 6.997858881950378418e-01 -1.617062464356422424e-02
-6.371095776557922363e-02 3.618461489677429199e-01 7.585904747247695923e-02
-5.847220122814178467e-02 7.035880684852600098e-01 9.890361130237579346e-02
-1.856001168489456177e-01 8.371602892875671387e-01 -1.167250052094459534e-02
-1.129995733499526978e-01 9.183291196823120117e-01 -2.305735945701599121e-01
-1.389729082584381104e-01 9.748383760452270508e-01 -8.807310461997985840e-02
-1.693710535764694214e-01 4.302951097488403320e-01 2.092448323965072632e-01
-5.988680943846702576e-02 7.361971735954284668e-01 -4.942306503653526306e-02
-1.890379786491394043e-01 7.482306957244873047e-01 -1.148757636547088623e-01
-1.201915666460990906e-01 5.352455973625183105e-01 -3.357313573360443115e-01
-1.889197230339050293e-01 6.081041097640991211e-01 1.433227062225341797e-01
-1.757003664970397949e-01 4.823842644691467285e-01 -9.209761023521423340e-02
-6.941120326519012451e-02 6.282625198364257812e-01 2.833898961544036865e-01
-1.201907321810722351e-01 8.475351333618164062e-01 2.696701288223266602e-01
-1.682218164205551147e-01 6.487248539924621582e-01 -2.780535221099853516e-01
-9.909504652023315430e-02 7.325574159622192383e-01 3.404433429241180420e-01
-1.042551472783088684e-01 9.403158426284790039e-01 -1.075442284345626831e-01
-1.650939583778381348e-01 5.851817727088928223e-01 3.387151360511779785e-01
-1.561104059219360352e-01 9.587597846984863281e-01 -4.489725455641746521e-02
-1.586462408304214478e-01 6.542040705680847168e-01 -3.178312778472900391e-01
-7.788360118865966797e-02 7.200978398323059082e-01 -2.680533826351165771e-01
-1.615410745143890381e-01 3.669506609439849854e-01 1.339595913887023926e-01
-1.545037627220153809e-01 9.170958995819091797e-01 -2.233607172966003418e-01
-1.797379553318023682e-01 8.698985576629638672e-01 -9.823304414749145508e-02
-7.517662644386291504e-02 8.342257142066955566e-01 -1.078823208808898926e-01
-9.179326891899108887e-02 8.336743116378784180e-01 -2.597998976707458496e-01
-1.551669985055923462e-01 7.744831442832946777e-01 -3.282315433025360107e-01
-9.958314150571823120e-02 3.114538788795471191e-01 2.867496609687805176e-01
-1.918229162693023682e-01 6.170362234115600586e-01 -9.181287139654159546e-03
-7.583022117614746094e-02 3.448572754859924316e-01 -6.042431667447090149e-02
-1.740469634532928467e-01 8.471534252166748047e-01 -2.040252685546875000e-01
-1.757882833480834961e-01 6.132423877716064453e-01 2.812550365924835205e-01
-5.442102998495101929e-02 4.391958415508270264e-01 7.699453830718994141e-02
-6.368274986743927002e-02 4.220178127288818359e-01 -9.200309216976165771e-02
-7.580402493476867676e-02 6.079055666923522949e-01 3.272464573383331299e-01
-1.864305138587951660e-01 5.390549302101135254e-01 -1.863977685570716858e-02
-5.698649585247039795e-02 6.509891748428344727e-01 -1.189105212688446045e-01
-1.401984095573425293e-01 6.684685945510864258e-01 3.940007984638214111e-01
-1.901547610759735107e-01 5.935255289077758789e-01 -2.938299253582954407e-02
-1.416722536087036133e-01 6.023917794227600098e-01 4.071614742279052734e-01
-1.878788769245147705e-01 8.092996478080749512e-01 -6.194764003157615662e-02
-9.104558825492858887e-02 9.089059233665466309e-01 -4.393321648240089417e-02
-1.744105666875839233e-01 6.269016265869140625e-01 -2.364631593227386475e-01
-1.772867292165756226e-01 8.183157444000244141e-01 -2.041761577129364014e-01
-5.810439586639404297e-02 6.411375403404235840e-01 1.761896461248397827e-01
-1.817988902330398560e-01 8.578124046325683594e-01 3.445760160684585571e-02
-8.219254016876220703e-02 8.181040287017822266e-01 -2.193069458007812500e-01
-5.578134953975677490e-02 4.811371862888336182e-01 1.821148097515106201e-01
-6.429377198219299316e-02 7.066717743873596191e-01 -1.730016022920608521e-01
-1.894693672657012939e-01 6.398974061012268066e-01 1.454548239707946777e-01
-9.602461755275726318e-02 6.610332131385803223e-01 3.753561675548553467e-01
-1.798529475927352905e-01 5.703069567680358887e-01 2.407678961753845215e-01
-1.494710892438888550e-01 9.650365710258483887e-01 -2.395832911133766174e-03
-8.372992277145385742e-02 7.877965569496154785e-01 2.288689613342285156e-01
-1.583207547664642334e-01 3.679507672786712646e-01 1.988705992698669434e-01
-8.519468456506729126e-02 3.475158512592315674e-01 2.956525087356567383e-01
-1.901013851165771484e-01 7.843216061592102051e-01 -4.151090607047080994e-02
-1.680315881967544556e-01 8.771399259567260742e-01 -2.120363116264343262e-01
-9.511959552764892578e-02 7.554548978805541992e-01 3.110729157924652100e-01
-5.083567649126052856e-02 5.760962963104248047e-01 8.567716181278228760e-02
-1.703261435031890869e-01 4.226589202880859375e-01 1.782772392034530640e-01
-1.584574431180953979e-01 9.027202129364013672e-01 1.496971547603607178e-01
-1.862570047378540039e-01 6.120947599411010742e-01 -1.243879497051239014e-01
-1.778043210506439209e-01 5.333865880966186523e-01 2.404749393463134766e-01
-5.645224452018737793e-02 6.689985394477844238e-01 -9.557998180389404297e-02
-8.301561325788497925e-02 8.536852598190307617e-01 -1.673294007778167725e-01
-1.082779169082641602e-01 6.899458765983581543e-01 -3.662500381469726562e-01
-6.673194468021392822e-02 5.765027403831481934e-01 2.862621545791625977e-01
-1.573817729949951172e-01 8.196063041687011719e-01 2.652907371520996094e-01
-1.646221727132797241e-01 5.345783829689025879e-01 3.314893245697021484e-01
-1.795538365840911865e-01 8.625688552856445312e-01 6.388877332210540771e-02
-7.968179881572723389e-02 5.378150343894958496e-01 3.586958944797515869e-01
-1.406055241823196411e-01 4.749867916107177734e-01 3.949404060840606689e-01
-1.884179711341857910e-01 6.480525135993957520e-01 -1.182610690593719482e-01
-1.555199027061462402e-01 6.828258633613586426e-01 -3.325964212417602539e-01
-1.778167188167572021e-01 6.622627377510070801e-01 -2.267514169216156006e-01
-1.411871314048767090e-01 4.206653237342834473e-01 3.649142980575561523e-01
-1.189705431461334229e-01 9.397121667861938477e-01 -2.043081074953079224e-01
-6.024377793073654175e-02 6.066797971725463867e-01 2.230076640844345093e-01
-1.669972091913223267e-01 9.322769641876220703e-01 -6.831985712051391602e-02
-8.839125186204910278e-02 5.694915652275085449e-01 3.843152821063995361e-01
-1.693349331617355347e-01 5.003523826599121094e-01 2.878813147544860840e-01
-1.357464492321014404e-01 9.386274814605712891e-01 -2.252551913261413574e-01
-5.245280265808105469e-02 4.688100814819335938e-01 7.458368688821792603e-02
-8.495022356510162354e-02 8.866531848907470703e-01 -1.457130163908004761e-02
-1.856914162635803223e-01 5.193768739700317383e-01 3.838987648487091064e-02
-1.861779093742370605e-01 7.884885668754577637e-01 -1.320900619029998779e-01
-8.020476996898651123e-02 3.434696793556213379e-01 2.663947045803070068e-01
-1.313062459230422974e-01 3.812882304191589355e-01 3.576477169990539551e-01
-1.194516792893409729e-01 9.576591253280639648e-01 -1.505416333675384521e-01
-5.458348989486694336e-02 6.603088378906250000e-01 9.070698916912078857e-02
-1.888776272535324097e-01 7.842131853103637695e-01 -8.574301004409790039e-02
-6.858491897583007812e-02 5.671554803848266602e-01 -2.271341681480407715e-01
-7.471834868192672729e-02 4.829728603363037109e-01 3.342433571815490723e-01
-5.282219499349594116e-02 4.624386429786682129e-01 4.603451490402221680e-02
-1.869690865278244019e-01 7.498853802680969238e-01 1.411073803901672363e-01
-7.394748181104660034e-02 3.166399896144866943e-01 6.793729960918426514e-02
-1.789363920688629150e-01 4.616794586181640625e-01 9.674842655658721924e-02
-9.119138121604919434e-02 3.045416772365570068e-01 -4.962328448891639709e-02
-9.711889922618865967e-02 8.728046417236328125e-01 -2.379298210144042969e-01
-1.262610852718353271e-01 2.743893861770629883e-01 1.279467940330505371e-01
-7.749492675065994263e-02 4.291556477546691895e-01 -1.892683655023574829e-01
-6.400595605373382568e-02 7.668101787567138672e-01 -7.699979841709136963e-02
-1.925367116928100586e-01 7.110503315925598145e-01 6.320585310459136963e-02
-1.586419343948364258e-01 7.458497285842895508e-01 3.188417553901672363e-01
-1.578724384307861328e-01 3.504117131233215332e-01 6.689024716615676880e-02
-5.992343276739120483e-02 7.011067867279052734e-01 1.302844882011413574e-01
-1.825351119041442871e-01 8.575323820114135742e-01 -6.858117878437042236e-02
-1.001855880022048950e-01 2.659763395786285400e-01 1.118892133235931396e-01
-1.249050945043563843e-01 7.113271355628967285e-01 3.848775625228881836e-01
-1.464321017265319824e-01 7.847197055816650391e-01 3.210514783859252930e-01
-1.083705425262451172e-01 9.370551109313964844e-01 -1.635170578956604004e-01
-1.690309643745422363e-01 6.579089164733886719e-01 3.150383234024047852e-01
-1.850118786096572876e-01 7.386397719383239746e-01 1.727282255887985229e-01
-1.928474158048629761e-01 7.292269468307495117e-01 1.558760832995176315e-02
-7.688863575458526611e-02 3.142046034336090088e-01 2.202432788908481598e-02
-1.009510308504104614e-01 9.273542165756225586e-01 -1.357483416795730591e-01
-1.841882318258285522e-01 8.487665653228759766e-01 -3.624788671731948853e-02
-1.594744324684143066e-01 8.650009036064147949e-01 2.059822827577590942e-01
-1.819349527359008789e-01 6.086492538452148438e-01 2.324371188879013062e-01
-9.355495125055313110e-02 8.973456025123596191e-01 -1.645975559949874878e-01
-5.341384559869766235e-02 5.448851585388183594e-01 1.588467061519622803e-01
-8.156797289848327637e-02 3.895239830017089844e-01 3.218686878681182861e-01
-6.664215028285980225e-02 4.607810974121093750e-01 -1.577168852090835571e-01
-1.356227695941925049e-01 2.903594076633453369e-01 1.469706743955612183e-01
-1.892456561326980591e-01 7.995344400405883789e-01 -1.976591348648071289e-02
-1.766960769891738892e-01 7.710713744163513184e-01 -2.333894371986389160e-01
-9.256891906261444092e-02 7.036545276641845703e-01 -3.323271870613098145e-01
-1.547163724899291992e-01 3.471403121948242188e-01 9.762255474925041199e-03
-1.731192767620086670e-01 8.618672490119934082e-01 1.359857916831970215e-01
-1.899671852588653564e-01 6.103973388671875000e-01 -6.022654846310615540e-02
-5.817555636167526245e-02 4.811792969703674316e-01 -1.004143953323364258e-01
-1.921897232532501221e-01 6.507560610771179199e-01 8.621075749397277832e-02
-8.058145642280578613e-02 8.165971040725708008e-01 1.640604287385940552e-01
-1.857069432735443115e-01 8.279722929000854492e-01 3.704841807484626770e-02
-1.370295882225036621e-01 5.478491187095642090e-01 4.162620007991790771e-01
-5.950167402625083923e-02 7.352623343467712402e-01 2.559158578515052795e-02
-6.323327124118804932e-02 7.431555986404418945e-01 -1.172756403684616089e-01
-5.631468445062637329e-02 4.215556383132934570e-01 3.368777409195899963e-02
-1.681579053401947021e-01 9.291774630546569824e-01 -3.582952916622161865e-02
-1.544034183025360107e-01 9.423108100891113281e-01 7.228323817253112793e-02
-7.148728519678115845e-02 5.424216985702514648e-01 3.207245469093322754e-01
-8.363001048564910889e-02 8.782643675804138184e-01 1.762504503130912781e-02
-5.090659111738204956e-02 5.195535421371459961e-01 9.053824841976165771e-02
-1.917003095149993896e-01 6.071342229843139648e-01 1.526499073952436447e-02
-6.646585464477539062e-02 7.115764617919921875e-01 1.953641027212142944e-01
-1.804011911153793335e-01 4.754024147987365723e-01 1.655788905918598175e-02
-1.710500121116638184e-01 9.157024621963500977e-01 5.384009331464767456e-03
-1.006862223148345947e-01 5.378451347351074219e-01 4.142784476280212402e-01
-1.095262318849563599e-01 7.927248477935791016e-01 3.126955926418304443e-01
-1.817347258329391479e-01 5.246448516845703125e-01 1.871444284915924072e-01
-1.728516817092895508e-01 8.005769252777099609e-01 2.166045010089874268e-01
-1.469626128673553467e-01 3.217794895172119141e-01 2.061912789940834045e-02
-7.001304626464843750e-02 7.948355078697204590e-01 -1.279878020286560059e-01
-6.595689058303833008e-02 7.782438397407531738e-01 6.382364034652709961e-02
-1.593283861875534058e-01 3.742672204971313477e-01 -3.152032941579818726e-02
-7.306073606014251709e-02 7.078912258148193359e-01 -2.444879114627838135e-01
-6.843336671590805054e-02 3.375516533851623535e-01 1.026591360569000244e-01
-1.802436411380767822e-01 5.150620937347412109e-01 -8.957998454570770264e-02
-6.310860812664031982e-02 7.664980888366699219e-01 -4.166220501065254211e-02
-1.493790447711944580e-01 4.284877181053161621e-01 -1.969507634639739990e-01
-9.226968884468078613e-02 4.090650677680969238e-01 -2.177759110927581787e-01
-1.813795715570449829e-01 6.681947708129882812e-01 2.358435690402984619e-01
-6.215398013591766357e-02 6.697102189064025879e-01 1.967266201972961426e-01
-1.503702253103256226e-01 6.401470303535461426e-01 3.833833634853363037e-01
-8.257918059825897217e-02 7.418286800384521484e-01 -2.825677394866943359e-01
-5.196463316679000854e-02 4.977228641510009766e-01 1.127094328403472900e-01
-1.441542804241180420e-01 5.145847201347351074e-01 3.985453248023986816e-01
-7.074459642171859741e-02 4.224471449851989746e-01 2.892869710922241211e-01
-8.803281188011169434e-02 7.303375005722045898e-01 3.074974119663238525e-01
-1.717087179422378540e-01 7.826238870620727539e-01 2.392227500677108765e-01
-6.603363901376724243e-02 4.263132214546203613e-01 -1.181182563304901123e-01
-1.742494553327560425e-01 5.826007723808288574e-01 -2.133259922266006470e-01
-6.284874677658081055e-02 7.051238417625427246e-01 1.648246645927429199e-01
-5.507385730743408203e-02 6.248946189880371094e-01 -1.018947660923004150e-01
-8.481051027774810791e-02 8.721624612808227539e-01 6.880924105644226074e-02
-1.314915418624877930e-01 2.892224490642547607e-01 1.885347068309783936e-01
-9.430582821369171143e-02 7.829437255859375000e-01 2.822169363498687744e-01
-8.259617537260055542e-02 6.368842720985412598e-01 3.447465002536773682e-01
-1.583650857210159302e-01 5.832919478416442871e-01 3.657230436801910400e-01
-1.677174568176269531e-01 4.428200423717498779e-01 -1.058073043823242188e-01
-6.573435664176940918e-02 7.827824950218200684e-01 3.762426972389221191e-02
-6.330430507659912109e-02 3.685947060585021973e-01 3.597810491919517517e-02
-6.170099601149559021e-02 4.714736342430114746e-01 2.461175471544265747e-01
-1.537964642047882080e-01 5.446302890777587891e-01 -2.864866554737091064e-01
-7.978647202253341675e-02 7.541155219078063965e-01 2.461586147546768188e-01
-1.713164746761322021e-01 7.575187683105468750e-01 2.602155804634094238e-01
-1.604634672403335571e-01 4.053851366043090820e-01 -9.800949692726135254e-02
-7.255841791629791260e-02 8.190951943397521973e-01 6.062730029225349426e-02
-5.339143425226211548e-02 5.793712735176086426e-01 1.486900150775909424e-01
-1.928399056196212769e-01 6.788862347602844238e-01 -3.677451983094215393e-02
-5.440069735050201416e-02 6.195805668830871582e-01 1.394374072551727295e-01
-1.045009419322013855e-01 3.587089478969573975e-01 -1.765645146369934082e-01
-1.850467920303344727e-01 6.490398049354553223e-01 2.043412774801254272e-01
-1.630218178033828735e-01 3.924279510974884033e-01 2.059472948312759399e-01
-6.509783864021301270e-02 7.453961968421936035e-01 1.306625008583068848e-01
-1.647288501262664795e-01 9.102755188941955566e-01 -1.813389509916305542e-01
-1.443824321031570435e-01 3.328698873519897461e-01 2.384555041790008545e-01
-8.293887227773666382e-02 7.711300253868103027e-01 -2.676541507244110107e-01
-6.159568205475807190e-02 5.073958039283752441e-01 2.542193233966827393e-01
-6.203249841928482056e-02 3.867097795009613037e-01 -3.750754520297050476e-03
-1.778239458799362183e-01 5.431737899780273438e-01 -1.524870097637176514e-01
-1.358703225851058960e-01 3.415318727493286133e-01 -1.120053380727767944e-01
-8.236446976661682129e-02 5.894531011581420898e-01 3.604622781276702881e-01
-1.638432443141937256e-01 4.959610104560852051e-01 3.192561864852905273e-01
-1.041826084256172180e-01 3.232628703117370605e-01 -1.188517212867736816e-01
-1.592056900262832642e-01 7.978211045265197754e-01 2.795036733150482178e-01
-1.280318647623062134e-01 9.025505781173706055e-01 1.979433298110961914e-01
-1.736027598381042480e-01 5.344393253326416016e-01 2.765522599220275879e-01
-9.985465556383132935e-02 6.419637203216552734e-01 -3.515705466270446777e-01
-1.411187946796417236e-01 9.340978860855102539e-01 1.330520659685134888e-01
-1.037943735718727112e-01 9.412026405334472656e-01 -1.104785501956939697e-02
-7.354275137186050415e-02 7.731498479843139648e-01 -2.018527537584304810e-01
-8.298718184232711792e-02 3.091995120048522949e-01 -1.903675869107246399e-02
-5.049744248390197754e-02 5.183605551719665527e-01 5.453336983919143677e-02
-7.130163162946701050e-02 8.225029110908508301e-01 -2.748575061559677124e-03
-1.825431436300277710e-01 8.163573741912841797e-01 -1.538054347038269043e-01
-6.077766418457031250e-02 6.949347853660583496e-01 -1.404128521680831909e-01
-1.529782563447952271e-01 3.625471293926239014e-01 -6.207312270998954773e-02
-1.931715607643127441e-01 6.541393995285034180e-01 3.325240314006805420e-02
-5.093651264905929565e-02 5.856216549873352051e-01 -1.887921616435050964e-02
-1.632476001977920532e-01 8.232615590095520020e-01 -2.820633053779602051e-01
-1.596482098102569580e-01 9.208335876464843750e-01 1.047726124525070190e-01
-5.841130018234252930e-02 4.700545668601989746e-01 2.113162130117416382e-01
-5.290987342596054077e-02 6.413255929946899414e-01 7.415749132633209229e-02
-1.477286070585250854e-01 4.724537134170532227e-01 -2.501200735569000244e-01
-1.921230554580688477e-01 6.888102293014526367e-01 8.861400187015533447e-02
-1.267982423305511475e-01 3.098019063472747803e-01 -7.107293605804443359e-02
-1.798966228961944580e-01 7.029780149459838867e-01 2.367341220378875732e-01
-1.501278281211853027e-01 7.113735079765319824e-01 -3.481456041336059570e-01
-1.817577183246612549e-01 7.928246259689331055e-01 -1.820494979619979858e-01
-6.152402237057685852e-02 4.022896885871887207e-01 -3.382566198706626892e-02
-5.321165174245834351e-02 4.619385004043579102e-01 1.014185547828674316e-01
-1.615296304225921631e-01 6.846406459808349609e-01 3.383319079875946045e-01
-1.610143482685089111e-01 8.634139299392700195e-01 -2.625441253185272217e-01
-1.269998848438262939e-01 4.306436479091644287e-01 -2.548953890800476074e-01
-1.894399225711822510e-01 6.344739794731140137e-01 -9.352242946624755859e-02
-7.467597723007202148e-02 6.868763566017150879e-01 2.782177031040191650e-01
-1.609043180942535400e-01 3.652876317501068115e-01 3.562999889254570007e-02
-1.735244542360305786e-01 4.498386979103088379e-01 1.912228614091873169e-01
-1.352182179689407349e-01 9.544121623039245605e-01 -1.892487108707427979e-01
-1.715924143791198730e-01 4.535163938999176025e-01 2.222282588481903076e-01
-7.845887541770935059e-02 3.218641281127929688e-01 2.136351615190505981e-01
-1.695058047771453857e-01 8.563210368156433105e-01 1.698928028345108032e-01
-5.493889749050140381e-02 5.397292971611022949e-01 -9.801442921161651611e-02
-6.296548247337341309e-02 5.738251805305480957e-01 2.596296668052673340e-01
-1.906371265649795532e-01 7.786358594894409180e-01 9.141774848103523254e-03
-5.027402192354202271e-02 5.806059837341308594e-01 3.200304135680198669e-02
-6.414175033569335938e-02 4.807499647140502930e-01 2.696885764598846436e-01
-6.738986074924468994e-02 6.910257339477539062e-01 -2.108882665634155273e-01
-8.466288447380065918e-02 8.093508481979370117e-01 -2.456382513046264648e-01
-1.362571567296981812e-01 3.667311668395996094e-01 3.306269049644470215e-01
-1.486147344112396240e-01 4.557505846023559570e-01 3.638769090175628662e-01
-1.512561142444610596e-01 4.045071005821228027e-01 3.131005465984344482e-01
-7.840946316719055176e-02 5.634480118751525879e-01 -2.748038768768310547e-01
-9.231087565422058105e-02 5.603306889533996582e-01 -3.175482451915740967e-01
-1.400690823793411255e-01 9.179354906082153320e-01 1.680565029382705688e-01
-1.140277907252311707e-01 9.454175829887390137e-01 6.574852764606475830e-02
-7.142010331153869629e-02 3.390892744064331055e-01 1.847536116838455200e-01
-1.865346431732177734e-01 5.412200689315795898e-01 1.169524639844894409e-01
-1.565388292074203491e-01 7.312016487121582031e-01 -3.310980200767517090e-01
-8.080682158470153809e-02 5.958084464073181152e-01 -2.922606468200683594e-01
-5.080784857273101807e-02 6.049801707267761230e-01 2.026730403304100037e-02
-8.148889243602752686e-02 4.044352769851684570e-01 -1.801255494356155396e-01
-6.694982945919036865e-02 7.821063399314880371e-01 -1.029188185930252075e-01
-1.702512800693511963e-01 4.177324473857879639e-01 -1.199775934219360352e-02
-1.856326758861541748e-01 5.436601042747497559e-01 -4.981205239892005920e-02
-7.233370840549468994e-02 3.699615001678466797e-01 2.516363561153411865e-01
-1.730888485908508301e-01 4.417486190795898438e-01 -3.870830312371253967e-02
-5.560845881700515747e-02 4.715147912502288818e-01 -5.547699704766273499e-02
-7.233297079801559448e-02 6.100692152976989746e-01 -2.556727528572082520e-01
-5.811587721109390259e-02 5.915334224700927734e-01 -1.475879698991775513e-01
-1.095581650733947754e-01 9.286363124847412109e-01 9.895411133766174316e-02
-1.109554246068000793e-01 8.012548089027404785e-01 -3.419335782527923584e-01
-1.424813419580459595e-01 3.424167931079864502e-01 -8.397433161735534668e-02
-1.467077434062957764e-01 3.168908655643463135e-01 4.812744632363319397e-02
-6.993594765663146973e-02 4.963787794113159180e-01 3.113554418087005615e-01
-1.077448502182960510e-01 9.064286947250366211e-01 1.474726349115371704e-01
-1.789985895156860352e-01 6.205139756202697754e-01 -2.015056759119033813e-01
-1.009772568941116333e-01 3.767776489257812500e-01 3.634388446807861328e-01
-5.580984801054000854e-02 4.276072978973388672e-01 1.094248443841934204e-01
-1.315728425979614258e-01 8.757057189941406250e-01 -3.085052371025085449e-01
-8.215975761413574219e-02 8.742558956146240234e-01 -7.486206293106079102e-02
-5.190346390008926392e-02 6.290503144264221191e-01 -1.284417137503623962e-02
-1.388064473867416382e-01 4.284875988960266113e-01 -2.310499548912048340e-01
-1.770995706319808960e-01 7.578110694885253906e-01 2.257504761219024658e-01
-7.725791633129119873e-02 5.076068639755249023e-01 -2.464557290077209473e-01
-1.743712872266769409e-01 6.973716020584106445e-01 2.752868533134460449e-01
-9.396506845951080322e-02 7.714657187461853027e-01 -3.146860897541046143e-01
-5.220311135053634644e-02 5.888952016830444336e-01 1.186120957136154175e-01
-5.350356549024581909e-02 6.616071462631225586e-01 -1.695633679628372192e-02
-1.545036584138870239e-01 8.184146881103515625e-01 -3.140923976898193359e-01
-1.647825837135314941e-01 4.272243678569793701e-01 2.517379820346832275e-01
-1.530345380306243896e-01 3.390269875526428223e-01 1.656576693058013916e-01
-1.208274289965629578e-01 2.686496973037719727e-01 9.522572159767150879e-02
-8.576698601245880127e-02 6.428912878036499023e-01 -3.151919245719909668e-01
-9.282499551773071289e-02 8.334289789199829102e-01 2.132805436849594116e-01
-1.918207705020904541e-01 6.395442485809326172e-01 -4.370478913187980652e-02
-1.215913221240043640e-01 9.668819904327392578e-01 -8.314214646816253662e-04
-1.082636937499046326e-01 8.204960823059082031e-01 2.816177308559417725e-01
-1.706211566925048828e-01 6.906273365020751953e-01 -2.750628888607025146e-01
-7.531258463859558105e-02 6.775991916656494141e-01 -2.673990428447723389e-01
-1.820937544107437134e-01 5.518794655799865723e-01 -1.172238588333129883e-01
-9.263396263122558594e-02 8.733769059181213379e-01 1.395801305770874023e-01
-1.766213178634643555e-01 4.800958633422851562e-01 1.999038904905319214e-01
-5.014399439096450806e-02 5.622429251670837402e-01 5.073633417487144470e-02
-5.211628228425979614e-02 5.537795424461364746e-01 1.320215761661529541e-01
-6.255723536014556885e-02 4.892902374267578125e-01 -1.493084430694580078e-01
-1.703533828258514404e-01 9.134343862533569336e-01 3.143586963415145874e-02
-5.986867472529411316e-02 3.870593309402465820e-01 7.535776495933532715e-02
-1.809280961751937866e-01 8.343744277954101562e-01 1.073672622442245483e-01
-9.798971563577651978e-02 3.798311948776245117e-01 -1.961119174957275391e-01
-1.544878780841827393e-01 3.687267601490020752e-01 2.402984946966171265e-01
-1.525620818138122559e-01 5.619202852249145508e-01 3.834134042263031006e-01
-1.924313306808471680e-01 7.427866458892822266e-01 -1.045863330364227295e-02
-1.266228854656219482e-01 7.488631010055541992e-01 3.625217378139495850e-01
-1.668554842472076416e-01 7.340632081031799316e-01 -2.937764227390289307e-01
-1.169654503464698792e-01 9.299111366271972656e-01 1.244490146636962891e-01
-1.750074923038482666e-01 8.785252571105957031e-01 -1.504113823175430298e-01
-1.769820451736450195e-01 6.950609087944030762e-01 -2.388271093368530273e-01
-1.054902002215385437e-01 7.520122528076171875e-01 -3.518725037574768066e-01
-8.251547813415527344e-02 6.832602024078369141e-01 -3.004476130008697510e-01
-5.184494704008102417e-02 5.004199147224426270e-01 -7.621459662914276123e-03
-1.602012813091278076e-01 4.266457259654998779e-01 -1.378902196884155273e-01
-5.388657003641128540e-02 5.000821948051452637e-01 1.601104885339736938e-01
-8.966619521379470825e-02 3.526255488395690918e-01 -1.400568634271621704e-01
-1.709048151969909668e-01 4.094893932342529297e-01 9.700545668601989746e-02
-5.101290345191955566e-02 6.026373505592346191e-01 6.238646060228347778e-02
-1.808183044195175171e-01 4.866301417350769043e-01 1.376258283853530884e-01
-8.806723356246948242e-02 3.167620301246643066e-01 2.614896893501281738e-01
-7.347095012664794922e-02 7.176758050918579102e-01 2.444440871477127075e-01
-9.103752672672271729e-02 8.789398670196533203e-01 -1.876672059297561646e-01
-1.729811728000640869e-01 5.430197119712829590e-01 -1.914483010768890381e-01
-8.115527033805847168e-02 8.489401340484619141e-01 9.702871739864349365e-02
-6.536354124546051025e-02 6.348877549171447754e-01 -2.108986973762512207e-01
-1.846376061439514160e-01 5.895698666572570801e-01 1.980951577425003052e-01
-8.358398079872131348e-02 2.964915335178375244e-01 1.782195419073104858e-01
-1.123593002557754517e-01 3.877443969249725342e-01 -2.173817604780197144e-01
-7.448875904083251953e-02 5.692954063415527344e-01 3.319238424301147461e-01
-5.975979566574096680e-02 5.440768003463745117e-01 2.378752827644348145e-01
-1.838690936565399170e-01 7.142570018768310547e-01 1.983810067176818848e-01
-9.364664554595947266e-02 6.832517385482788086e-01 3.578629791736602783e-01
-8.146242052316665649e-02 8.299186825752258301e-01 -1.968703418970108032e-01
-9.050181508064270020e-02 2.777503430843353271e-01 6.987158954143524170e-02
-1.567790508270263672e-01 4.318822920322418213e-01 -1.664829701185226440e-01
-7.161597907543182373e-02 7.663235664367675781e-01 1.700364053249359131e-01
-5.812826752662658691e-02 6.310040950775146484e-01 -1.429023593664169312e-01
-1.365361958742141724e-01 7.709010839462280273e-01 3.435567319393157959e-01
-1.677831709384918213e-01 4.209400415420532227e-01 -5.922703817486763000e-02
-1.625311970710754395e-01 6.007276773452758789e-01 -2.850066125392913818e-01
-1.848030388355255127e-01 6.331290006637573242e-01 -1.552765071392059326e-01
-1.409166157245635986e-01 4.837125241756439209e-01 -2.782543897628784180e-01
-1.287197172641754150e-01 9.751425981521606445e-01 -4.991559311747550964e-02
-9.844249486923217773e-02 3.592495024204254150e-01 3.446878492832183838e-01
-9.094737470149993896e-02 4.454846382141113281e-01 3.814428746700286865e-01
-5.206295847892761230e-02 5.153797268867492676e-01 -3.088574111461639404e-02
-1.350604593753814697e-01 3.521109223365783691e-01 -1.349797397851943970e-01
-9.650826454162597656e-02 2.865978181362152100e-01 2.240909785032272339e-01
-1.706819236278533936e-01 4.849445819854736328e-01 -1.452825069427490234e-01
-5.511768162250518799e-02 5.359045863151550293e-01 1.858419477939605713e-01
-1.809384822845458984e-01 5.752158761024475098e-01 -1.536226272583007812e-01
-7.100653648376464844e-02 7.994261384010314941e-01 9.602874517440795898e-02
-1.909762322902679443e-01 7.392210364341735840e-01 -8.031527698040008545e-02
-6.622201204299926758e-02 5.448764562606811523e-01 2.889418900012969971e-01
-1.392112821340560913e-01 3.173385560512542725e-01 -3.528241068124771118e-02
-1.061256229877471924e-01 8.431814908981323242e-01 2.488301694393157959e-01
-1.203670501708984375e-01 9.016813039779663086e-01 -2.731605768203735352e-01
-7.041192054748535156e-02 4.355008006095886230e-01 -1.586215794086456299e-01
-7.021380960941314697e-02 7.811028957366943359e-01 -1.569323539733886719e-01
-1.027464270591735840e-01 2.746491730213165283e-01 1.595555618405342102e-02
-1.054515540599822998e-01 6.154844760894775391e-01 4.095537364482879639e-01
-7.523778080940246582e-02 8.217959403991699219e-01 -1.447246372699737549e-01
-1.843829452991485596e-01 5.541025400161743164e-01 1.783421188592910767e-01
-1.673520952463150024e-01 7.813549637794494629e-01 -2.825118005275726318e-01
-7.042610645294189453e-02 3.887578845024108887e-01 -1.009127944707870483e-01
-1.536465585231781006e-01 5.831807851791381836e-01 -3.083370029926300049e-01
-6.865295767784118652e-02 3.600246012210845947e-01 2.014810740947723389e-01
-1.575790047645568848e-01 9.467958211898803711e-01 3.371046483516693115e-02
-8.850552141666412354e-02 7.036209106445312500e-01 3.291462659835815430e-01
-7.524458318948745728e-02 3.891441822052001953e-01 2.909749150276184082e-01
-9.364545345306396484e-02 9.097783565521240234e-01 3.200210258364677429e-02
-6.711965799331665039e-02 6.940679550170898438e-01 2.197556793689727783e-01
-6.671500205993652344e-02 4.834510087966918945e-01 -1.759820729494094849e-01
-1.827734857797622681e-01 5.129225850105285645e-01 1.525593400001525879e-01
-6.679072976112365723e-02 7.644162178039550781e-01 -1.378839910030364990e-01
-1.443286985158920288e-01 3.074589967727661133e-01 1.057298332452774048e-01
-1.227872893214225769e-01 8.687759637832641602e-01 2.450965195894241333e-01
-1.088380813598632812e-01 9.469875693321228027e-01 2.026539668440818787e-02
-1.622816473245620728e-01 6.984735727310180664e-01 -3.120252490043640137e-01
-6.659930944442749023e-02 3.789499998092651367e-01 -4.963875189423561096e-02
-8.556658029556274414e-02 7.084344625473022461e-01 -3.074885606765747070e-01
-8.776045590639114380e-02 2.820817828178405762e-01 1.411763578653335571e-01
-1.131410896778106689e-01 4.471887350082397461e-01 4.110721349716186523e-01
-9.238368272781372070e-02 7.989396452903747559e-01 -2.925432026386260986e-01
-1.415176391601562500e-01 3.796682357788085938e-01 -1.589407920837402344e-01
-8.474078774452209473e-02 2.862088680267333984e-01 9.645837545394897461e-02
-1.736820191144943237e-01 6.422064900398254395e-01 2.931315302848815918e-01
-1.626028269529342651e-01 5.356569290161132812e-01 -2.454036772251129150e-01
-5.307903885841369629e-02 6.562057137489318848e-01 3.587287664413452148e-02
-5.703236162662506104e-02 4.222767949104309082e-01 5.728079006075859070e-03
-1.720064729452133179e-01 7.568838000297546387e-01 -2.656373083591461182e-01
-1.893561780452728271e-01 5.639380812644958496e-01 4.452436417341232300e-02
-1.592031717300415039e-01 9.509567022323608398e-01 -8.934198319911956787e-02
-1.624679714441299438e-01 4.598363637924194336e-01 3.030817508697509766e-01
-1.009699776768684387e-01 4.960695505142211914e-01 -3.026894330978393555e-01
-5.184979736804962158e-02 5.939319133758544922e-01 -4.646829143166542053e-02
-1.588985472917556763e-01 7.764052152633666992e-01 2.975603640079498291e-01
-5.364665389060974121e-02 4.723650217056274414e-01 -1.702215895056724548e-02
-5.303792655467987061e-02 5.522501468658447266e-01 -7.208402454853057861e-02
-9.984320402145385742e-02 6.069058179855346680e-01 -3.460710644721984863e-01
-8.013680577278137207e-02 8.514379858970642090e-01 -1.371814906597137451e-01
-6.147530674934387207e-02 3.837780356407165527e-01 1.416217088699340820e-01
-7.395313680171966553e-02 7.984845638275146484e-01 1.363888233900070190e-01
-5.665257573127746582e-02 6.989420652389526367e-01 -5.094378814101219177e-02
-1.910917162895202637e-01 6.767480373382568359e-01 1.160051971673965454e-01
-5.163447558879852295e-02 6.009793877601623535e-01 9.198606014251708984e-02
-1.456259936094284058e-01 7.005807757377624512e-01 3.730905354022979736e-01
-1.681391000747680664e-01 4.585207104682922363e-01 -1.283008009195327759e-01
-5.741311609745025635e-02 6.126077175140380859e-01 1.888649016618728638e-01
-1.264207661151885986e-01 4.049882292747497559e-01 3.838373422622680664e-01
-9.044434875249862671e-02 3.154477775096893311e-01 -7.352988421916961670e-02
-1.062603145837783813e-01 8.879477977752685547e-01 -2.560073435306549072e-01
-6.393197178840637207e-02 5.646288394927978516e-01 -1.953956186771392822e-01
-1.900296360254287720e-01 7.737488746643066406e-01 5.451955646276473999e-02
-1.837621927261352539e-01 5.157521963119506836e-01 -2.859243750572204590e-02
-1.624204218387603760e-01 7.124767899513244629e-01 3.239131867885589600e-01
-8.346372842788696289e-02 8.470938205718994141e-01 1.262098401784896851e-01
-6.411465257406234741e-02 6.664118766784667969e-01 -1.931600719690322876e-01
-6.051177158951759338e-02 5.333928465843200684e-01 -1.570266634225845337e-01
-6.369644403457641602e-02 6.204510927200317383e-01 2.464956790208816528e-01
-5.759599804878234863e-02 4.258444011211395264e-01 1.562442630529403687e-01
-1.565899550914764404e-01 5.045228600502014160e-01 3.571432232856750488e-01
-1.351734101772308350e-01 3.472227156162261963e-01 3.093176484107971191e-01
-7.537160813808441162e-02 8.437628746032714844e-01 -6.008439883589744568e-02
-1.683842241764068604e-01 7.281088829040527344e-01 2.920685410499572754e-01
-1.809647679328918457e-01 8.679007887840270996e-01 1.121002528816461563e-02
-1.881815642118453979e-01 5.745308995246887207e-01 -4.963720217347145081e-02
-1.831090152263641357e-01 7.494753599166870117e-01 -1.881677508354187012e-01
-1.880868077278137207e-01 6.730366945266723633e-01 1.658199727535247803e-01
-1.528531908988952637e-01 8.660404682159423828e-01 -2.878657579421997070e-01
-6.802906095981597900e-02 4.128541052341461182e-01 2.636649608612060547e-01
-5.248476564884185791e-02 5.242204070091247559e-01 1.400855183601379395e-01
-1.275479793548583984e-01 2.919498682022094727e-01 2.232934236526489258e-01
-1.910932809114456177e-01 5.934792757034301758e-01 4.582028090953826904e-02
-1.820609271526336670e-01 5.162926316261291504e-01 -6.427264213562011719e-02
-1.720303595066070557e-01 4.166878759860992432e-01 4.698390141129493713e-02
-7.888957113027572632e-02 7.175117731094360352e-01 2.767934203147888184e-01
-1.010510399937629700e-01 8.941547870635986328e-01 -2.238453626632690430e-01
-1.746436357498168945e-01 8.727096319198608398e-01 1.014687567949295044e-01
-1.808429062366485596e-01 8.720957040786743164e-01 -2.539806813001632690e-02
-1.912889182567596436e-01 6.902538537979125977e-01 -8.368529379367828369e-02
-1.770994812250137329e-01 8.929299116134643555e-01 -4.513796046376228333e-02
-1.768906265497207642e-01 8.574106693267822266e-01 -1.660290509462356567e-01
-6.424561142921447754e-02 4.238565862178802490e-01 2.409476935863494873e-01
-1.766590178012847900e-01 5.666385889053344727e-01 2.665680348873138428e-01
-5.553983896970748901e-02 4.910106658935546875e-01 -7.492515444755554199e-02
-1.863934695720672607e-01 5.745042562484741211e-01 -8.464446663856506348e-02
-7.897607237100601196e-02 8.621314764022827148e-01 -1.764013990759849548e-02
-9.910222887992858887e-02 4.706233739852905273e-01 -2.832510769367218018e-01
-1.856880784034729004e-01 7.979741096496582031e-01 1.031320095062255859e-01
-1.044324934482574463e-01 8.263854980468750000e-01 -3.128660321235656738e-01
-1.705421209335327148e-01 4.111136794090270996e-01 1.296762079000473022e-01
-6.414064764976501465e-02 4.481308460235595703e-01 2.564813494682312012e-01
-1.881995201110839844e-01 8.098674416542053223e-01 1.069435570389032364e-02
-1.694501638412475586e-01 9.213719367980957031e-01 -9.237377345561981201e-02
-1.652764230966567993e-01 9.190330505371093750e-01 7.027596235275268555e-02
-1.219995170831680298e-01 2.900273203849792480e-01 -2.789540216326713562e-02
-1.920224577188491821e-01 7.315108776092529297e-01 -5.495643243193626404e-02
-1.911024302244186401e-01 7.187893390655517578e-01 9.742718935012817383e-02
-1.717633306980133057e-01 6.803962588310241699e-01 2.954756021499633789e-01
-1.083373203873634338e-01 6.843369007110595703e-01 3.871130943298339844e-01
