9.206635877490043640e-03 6.942777633666992188e-01 3.243613988161087036e-02
-1.679034903645515442e-04 6.565761566162109375e-01 1.788333430886268616e-02
1.180704683065414429e-03 5.949238538742065430e-01 7.454518228769302368e-03
1.293856836855411530e-02 5.935381054878234863e-01 3.568254783749580383e-02
1.864515244960784912e-02 6.503928303718566895e-01 7.909288629889488220e-03
6.062414497137069702e-03 5.994586944580078125e-01 3.510964661836624146e-02
-5.007693544030189514e-04 6.581696271896362305e-01 -1.246287766844034195e-02
1.630982011556625366e-02 6.515507698059082031e-01 -1.739944145083427429e-02
1.283231936395168304e-02 6.789251565933227539e-01 3.217732533812522888e-02
8.693928830325603485e-04 6.056410670280456543e-01 -3.376770298928022385e-03
1.660477370023727417e-02 6.606517434120178223e-01 -1.602440327405929565e-02
3.300204407423734665e-03 7.504597306251525879e-01 2.912658965215086937e-03
2.760542090982198715e-03 7.464473843574523926e-01 -1.400803681463003159e-02
1.197109185159206390e-02 5.789318680763244629e-01 -1.416865270584821701e-02
6.430799607187509537e-03 5.844229459762573242e-01 3.296097740530967712e-02
1.818905398249626160e-02 6.532487273216247559e-01 1.551435235887765884e-02
-3.865901380777359009e-04 6.726174354553222656e-01 -1.489640492945909500e-02
1.203819178044795990e-03 6.110306978225708008e-01 2.040951326489448547e-02
7.095950655639171600e-03 5.785105228424072266e-01 3.261622786521911621e-02
-9.438227862119674683e-04 6.503459215164184570e-01 1.013049669563770294e-02
2.619789913296699524e-03 6.465482711791992188e-01 3.023082762956619263e-02
1.854297518730163574e-02 6.555073857307434082e-01 1.678616506978869438e-03
1.598190329968929291e-02 6.442502140998840332e-01 2.957917004823684692e-02
1.512422785162925720e-02 6.277875900268554688e-01 3.312820568680763245e-02
1.752097159624099731e-04 6.330317258834838867e-01 1.837536692619323730e-02
1.693340204656124115e-02 5.882334113121032715e-01 -1.144485548138618469e-03
4.664445761591196060e-03 7.528891563415527344e-01 -1.642960309982299805e-02
1.847689040005207062e-02 6.110014319419860840e-01 8.714535273611545563e-03
4.840289708226919174e-03 5.769309997558593750e-01 2.646369859576225281e-02
-3.560064360499382019e-04 6.533244252204895020e-01 -1.268554385751485825e-02
4.557520151138305664e-05 6.847797632217407227e-01 -1.780243217945098877e-02
-4.459861665964126587e-04 6.790987253189086914e-01 -1.470822747796773911e-02
1.020548213273286819e-02 7.494095563888549805e-01 -1.671798899769783020e-02
1.530001219362020493e-02 5.905408263206481934e-01 -1.059049181640148163e-02
2.471709158271551132e-03 6.655448079109191895e-01 2.889160811901092529e-02
5.012536421418190002e-04 6.498880982398986816e-01 -1.722062379121780396e-02
3.799312748014926910e-03 7.085797190666198730e-01 -2.829477190971374512e-02
7.420758251100778580e-03 5.542880892753601074e-01 2.183496952056884766e-02
1.484237983822822571e-02 5.810220241546630859e-01 2.941706404089927673e-02
1.733492687344551086e-02 6.315288543701171875e-01 -1.087572425603866577e-02
-1.088934950530529022e-03 6.952778697013854980e-01 -5.063815042376518250e-03
1.777042075991630554e-02 6.082342863082885742e-01 2.046765014529228210e-02
2.121666446328163147e-03 6.171566843986511230e-01 -1.621326804161071777e-02
2.471040934324264526e-04 6.342427730560302734e-01 -1.206437312066555023e-02
1.841310784220695496e-02 6.636980772018432617e-01 2.628218149766325951e-03
5.217664875090122223e-03 5.605900883674621582e-01 1.661130413413047791e-02
-9.883213788270950317e-04 6.643009781837463379e-01 -8.817116729915142059e-03
4.640929400920867920e-04 6.072396636009216309e-01 1.232991460710763931e-03
5.942787975072860718e-04 6.947557926177978516e-01 -2.016175538301467896e-02
-2.077724784612655640e-04 6.184200048446655273e-01 4.469839390367269516e-03
1.523497793823480606e-02 6.591745018959045410e-01 -2.161660790443420410e-02
3.301443066447973251e-03 5.733911395072937012e-01 1.387443020939826965e-02
1.588835008442401886e-02 6.182139515876770020e-01 3.087249398231506348e-02
1.639156416058540344e-02 7.057503461837768555e-01 -6.177906878292560577e-03
1.459690555930137634e-02 7.300944924354553223e-01 -9.894631803035736084e-04
1.804203167557716370e-02 5.974805355072021484e-01 1.119051594287157059e-02
1.810773648321628571e-02 6.031363606452941895e-01 3.598625538870692253e-03
1.212745439261198044e-02 7.478891015052795410e-01 8.530355989933013916e-05
1.184074208140373230e-04 7.251612544059753418e-01 -1.824625302106142044e-03
-9.294515475630760193e-04 7.023983001708984375e-01 1.141889952123165131e-04
1.051435247063636780e-04 6.123533844947814941e-01 3.443592227995395660e-03
1.614725776016712189e-02 5.805107951164245605e-01 -2.381327562034130096e-03
1.110335439443588257e-02 5.862384438514709473e-01 -1.763214170932769775e-02
1.067014411091804504e-03 7.374862432479858398e-01 -4.309008829295635223e-03
6.226890254765748978e-03 6.725094914436340332e-01 3.502604365348815918e-02
1.638814248144626617e-02 6.337748765945434570e-01 2.885920181870460510e-02
1.616991497576236725e-02 5.944694876670837402e-01 2.755351737141609192e-02
1.725978218019008636e-02 6.909950971603393555e-01 8.697168901562690735e-03
1.427336223423480988e-02 7.326946258544921875e-01 -4.469818435609340668e-03
1.507889851927757263e-02 7.154665589332580566e-01 1.244537904858589172e-02
1.439168769866228104e-02 7.287064790725708008e-01 -9.215980768203735352e-03
-1.193920150399208069e-03 6.711450815200805664e-01 7.412719540297985077e-03
1.497261319309473038e-02 6.123558878898620605e-01 3.335986658930778503e-02
-4.764627665281295776e-04 6.630414128303527832e-01 -1.336648967117071152e-02
1.701021008193492889e-02 6.178774833679199219e-01 -1.052411086857318878e-02
4.006652161478996277e-04 6.960628628730773926e-01 1.634240895509719849e-02
3.121216781437397003e-03 6.639391779899597168e-01 -2.741172909736633301e-02
1.786670088768005371e-02 6.448534131050109863e-01 -8.244206197559833527e-03
1.856700330972671509e-02 6.199944019317626953e-01 3.680695081129670143e-03
1.770466566085815430e-02 5.927444100379943848e-01 1.540015358477830887e-02
1.792127266526222229e-02 6.018941998481750488e-01 1.720295473933219910e-02
9.609025903046131134e-03 7.541315555572509766e-01 -1.461411919444799423e-02
1.526725292205810547e-02 5.624760389328002930e-01 6.311494857072830200e-03
1.977019477635622025e-03 6.154498457908630371e-01 2.573135495185852051e-02
1.719097048044204712e-02 6.406421661376953125e-01 -1.255915779620409012e-02
8.206415921449661255e-03 7.615883350372314453e-01 -3.278911579400300980e-03
1.822364702820777893e-02 6.619651913642883301e-01 -3.066075034439563751e-03
-5.823494866490364075e-04 6.318799853324890137e-01 -2.641580067574977875e-03
1.213796995580196381e-02 7.098845243453979492e-01 -2.606945857405662537e-02
2.501626498997211456e-03 5.835519433021545410e-01 -4.569073207676410675e-04
1.483710948377847672e-03 5.999632477760314941e-01 1.807292178273200989e-02
1.612344384193420410e-02 6.215585470199584961e-01 -1.526426617056131363e-02
1.093911752104759216e-02 6.689820289611816406e-01 -3.067888319492340088e-02
6.276335101574659348e-03 6.512604951858520508e-01 -3.052551299333572388e-02
1.468166336417198181e-02 5.573314428329467773e-01 8.672337979078292847e-03
3.517089877277612686e-03 5.898214578628540039e-01 -1.075295917689800262e-02
1.813094597309827805e-03 7.022562026977539062e-01 2.098066732287406921e-02
2.608981449156999588e-03 7.428690791130065918e-01 6.464349105954170227e-03
1.519154198467731476e-02 6.535834074020385742e-01 -2.163643389940261841e-02
7.659587077796459198e-03 7.075827717781066895e-01 -3.123700618743896484e-02
2.883373294025659561e-03 5.821970105171203613e-01 1.882053539156913757e-02
1.501267123967409134e-02 7.236787080764770508e-01 -7.242670282721519470e-03
1.868598721921443939e-02 6.230021119117736816e-01 8.105101063847541809e-03
1.674833893775939941e-02 5.758003592491149902e-01 1.467294618487358093e-02
1.595491729676723480e-02 7.037385702133178711e-01 1.364441588521003723e-02
2.087806351482868195e-03 6.399387717247009277e-01 2.847429364919662476e-02
1.420706044882535934e-02 5.542457103729248047e-01 1.492790598422288895e-02
1.537101715803146362e-02 7.075538039207458496e-01 1.538592856377363205e-02
1.899200491607189178e-03 6.818383932113647461e-01 2.527387440204620361e-02
1.797772943973541260e-02 6.168596744537353516e-01 1.987190917134284973e-02
1.224528811872005463e-02 5.468561649322509766e-01 1.100766658782958984e-02
8.272004313766956329e-03 5.953121781349182129e-01 3.719121217727661133e-02
1.682418771088123322e-02 5.825514197349548340e-01 1.472913427278399467e-03
1.814492978155612946e-02 6.527014970779418945e-01 -5.511156283318996429e-03
-3.765150904655456543e-05 6.172669529914855957e-01 9.977638721466064453e-03
7.509778253734111786e-03 5.886728763580322266e-01 -1.849469542503356934e-02
1.870905980467796326e-02 6.288417577743530273e-01 9.936196729540824890e-03
1.736527308821678162e-02 6.917003989219665527e-01 -1.396456267684698105e-03
5.314862355589866638e-04 7.294237017631530762e-01 9.019530843943357468e-04
1.275266334414482117e-02 7.437441945075988770e-01 -7.300526835024356842e-03
4.990268498659133911e-03 6.315266489982604980e-01 -2.649456262588500977e-02
4.176055546849966049e-03 6.271027922630310059e-01 -2.432372421026229858e-02
1.634711958467960358e-02 5.742658972740173340e-01 3.674297593533992767e-03
1.360586844384670258e-02 7.013338804244995117e-01 2.486914023756980896e-02
1.718295365571975708e-02 6.205207705497741699e-01 2.547316998243331909e-02
1.019951794296503067e-02 5.875163078308105469e-01 3.671561181545257568e-02
1.452241279184818268e-02 6.942920684814453125e-01 -2.174082398414611816e-02
-6.153928115963935852e-04 7.116571664810180664e-01 -2.613372169435024261e-03
1.061793789267539978e-02 5.975278615951538086e-01 -2.130927890539169312e-02
9.581795893609523773e-03 5.614603757858276367e-01 2.956617996096611023e-02
1.942021772265434265e-04 6.108418703079223633e-01 7.634751033037900925e-03
1.826236397027969360e-02 6.699149608612060547e-01 4.513518884778022766e-03
1.673348993062973022e-02 6.985794305801391602e-01 9.758490137755870819e-03
1.975263655185699463e-02 -3.875755965709686279e-01 7.998114079236984253e-02
2.695915475487709045e-02 -3.797861337661743164e-01 -7.439261674880981445e-02
-1.438183058053255081e-02 -1.909551471471786499e-01 -5.178681015968322754e-02
-1.845633983612060547e-02 -3.129036426544189453e-01 -1.627573370933532715e-01
-7.091974839568138123e-03 -3.816880583763122559e-01 1.218847110867500305e-01
1.769869774580001831e-02 -3.987001180648803711e-01 -1.401816308498382568e-01
2.759737148880958557e-02 -3.589493036270141602e-01 -8.341508358716964722e-02
9.596659219823777676e-04 -4.752656817436218262e-01 3.380396217107772827e-02
-8.277136366814374924e-04 -3.939574956893920898e-01 -1.560252457857131958e-01
2.382776513695716858e-02 -2.771084606647491455e-01 -5.293257907032966614e-02
1.279376354068517685e-02 -2.663580775260925293e-01 -2.580108046531677246e-01
-1.749087497591972351e-02 -2.160934209823608398e-01 -2.259269058704376221e-01
2.761006355285644531e-02 -3.504535555839538574e-01 -9.167961776256561279e-02
-2.314159274101257324e-02 -2.697484493255615234e-01 -2.271045371890068054e-02
4.541549365967512131e-03 -1.992948949337005615e-01 -3.357759863138198853e-02
1.871431246399879456e-02 -2.211841046810150146e-01 -2.122083008289337158e-01
3.979999572038650513e-03 -3.111162185668945312e-01 -2.462615072727203369e-01
4.105652915313839912e-04 -4.701248407363891602e-01 3.242522478103637695e-03
2.683826535940170288e-02 -3.264774382114410400e-01 -1.267691850662231445e-01
1.078031118959188461e-02 -1.676789671182632446e-01 -1.614243090152740479e-01
-1.987269893288612366e-02 -2.493792176246643066e-01 -4.990242421627044678e-03
-2.204104885458946228e-02 -3.498699963092803955e-01 -2.866061776876449585e-02
-1.700494810938835144e-02 -2.991271615028381348e-01 -1.880653351545333862e-01
-6.843454204499721527e-03 -2.003354430198669434e-01 -2.768120467662811279e-01
-1.812896877527236938e-02 -2.640752196311950684e-01 2.149926871061325073e-02
2.057444676756858826e-02 -4.320792853832244873e-01 6.768239289522171021e-02
8.012154139578342438e-03 -3.001582026481628418e-01 7.865070551633834839e-02
2.009555697441101074e-02 -2.258755266666412354e-01 -1.055053099989891052e-01
-2.331789210438728333e-02 -3.291115760803222656e-01 -4.252564534544944763e-02
-4.653079900890588760e-03 -4.592550396919250488e-01 4.719182848930358887e-03
1.594443060457706451e-02 -3.541037142276763916e-01 8.802137523889541626e-02
1.148568186908960342e-02 -2.551619112491607666e-01 -2.648788094520568848e-01
1.805906742811203003e-02 -2.849620878696441650e-01 1.834600418806076050e-02
-1.447422150522470474e-02 -1.670419126749038696e-01 -2.277699410915374756e-01
1.709842309355735779e-02 -4.391288161277770996e-01 9.209253638982772827e-02
-3.342498559504747391e-03 -4.660135507583618164e-01 5.803378671407699585e-02
2.741716802120208740e-02 -3.362967371940612793e-01 -4.464150220155715942e-02
-2.468639984726905823e-02 -2.821886539459228516e-01 -8.930633962154388428e-02
-2.409178763628005981e-02 -2.737874984741210938e-01 -1.210705190896987915e-01
-1.148872263729572296e-02 -3.202971816062927246e-01 8.992653340101242065e-02
1.657242327928543091e-02 -4.487624764442443848e-01 -5.835535377264022827e-02
-1.482818927615880966e-02 -1.608382761478424072e-01 -2.137529551982879639e-01
1.326848473399877548e-02 -3.968379795551300049e-01 1.154328659176826477e-01
2.153570950031280518e-02 -4.402302503585815430e-01 -3.602518886327743530e-02
1.415215339511632919e-02 -2.800107002258300781e-01 -2.489176094532012939e-01
2.201008051633834839e-02 -2.459667623043060303e-01 -1.883389651775360107e-01
-2.422105520963668823e-02 -2.440931797027587891e-01 -7.620715349912643433e-02
1.841950789093971252e-02 -2.728392481803894043e-01 -2.310730218887329102e-01
-2.239450812339782715e-02 -3.203472495079040527e-01 7.532067596912384033e-03
1.883634552359580994e-02 -2.448838353157043457e-01 -4.446930810809135437e-02
1.134991366416215897e-02 -2.461000084877014160e-01 9.277321398258209229e-03
-1.100284885615110397e-02 -4.359586238861083984e-01 5.395273119211196899e-02
-1.958687603473663330e-02 -3.593582212924957275e-01 -8.168899267911911011e-02
-6.756087765097618103e-03 -3.555795550346374512e-01 1.173104122281074524e-01
-2.392153441905975342e-02 -2.360736280679702759e-01 -1.345867812633514404e-01
-1.802469789981842041e-02 -3.587987124919891357e-01 6.000902503728866577e-02
-1.172553468495607376e-02 -3.722858428955078125e-01 1.039676591753959656e-01
-1.448447722941637039e-02 -2.237972617149353027e-01 -3.369100391864776611e-03
-1.454765256494283676e-02 -4.070666432380676270e-01 6.470259279012680054e-02
6.994385039433836937e-04 -4.668835401535034180e-01 -1.274460181593894958e-02
-2.204684168100357056e-02 -3.117105364799499512e-01 -1.209655553102493286e-01
1.986474031582474709e-03 -2.838280200958251953e-01 7.584493607282638550e-02
-5.034411326050758362e-03 -3.497626781463623047e-01 -1.979156136512756348e-01
-1.277571823447942734e-02 -3.657068014144897461e-01 -1.422983407974243164e-01
1.257990859448909760e-02 -1.956722289323806763e-01 -2.480547726154327393e-01
2.340012788772583008e-02 -3.779003620147705078e-01 -1.306957900524139404e-01
-1.457751635462045670e-02 -3.880335986614227295e-01 -9.046409279108047485e-02
-1.889273524284362793e-02 -2.101505994796752930e-01 -2.132002711296081543e-01
-2.133683487772941589e-02 -2.014083862304687500e-01 -9.535653144121170044e-02
-2.280274406075477600e-02 -3.312077224254608154e-01 -6.927736103534698486e-02
1.859302446246147156e-02 -2.962176203727722168e-01 -2.230859696865081787e-01
-2.347815781831741333e-02 -2.622653245925903320e-01 -3.491676598787307739e-02
-1.224814075976610184e-02 -3.894443511962890625e-01 9.902428835630416870e-02
6.222269963473081589e-03 -1.615401208400726318e-01 -1.276564598083496094e-01
2.565212920308113098e-02 -4.099656939506530762e-01 -2.060703933238983154e-03
-2.480455115437507629e-02 -2.801050543785095215e-01 -6.867209076881408691e-02
-1.374097634106874466e-02 -4.212921857833862305e-01 4.363501071929931641e-02
-1.754865422844886780e-02 -3.098022937774658203e-01 -1.738166213035583496e-01
-1.397043094038963318e-02 -4.158225655555725098e-01 -2.567729726433753967e-02
2.176790311932563782e-02 -4.463321566581726074e-01 9.392991662025451660e-03
-1.985383033752441406e-02 -1.811453998088836670e-01 -1.689851135015487671e-01
-1.504725310951471329e-02 -2.893114387989044189e-01 -2.093837559223175049e-01
2.726468071341514587e-02 -3.836633861064910889e-01 -3.660979494452476501e-02
-1.115608680993318558e-02 -4.128238558769226074e-01 -7.217046618461608887e-02
-7.056157104671001434e-03 -3.311325609683990479e-01 1.065847799181938171e-01
7.687252014875411987e-03 -1.642103493213653564e-01 -2.400305271148681641e-01
1.590111106634140015e-02 -2.219918966293334961e-01 -2.418401241302490234e-01
1.330639235675334930e-02 -3.008482754230499268e-01 -2.417618930339813232e-01
2.557006850838661194e-02 -2.811135053634643555e-01 -1.429358720779418945e-01
2.119546756148338318e-02 -4.492476582527160645e-01 2.178774029016494751e-02
-2.320401370525360107e-02 -2.198874801397323608e-01 -1.454237997531890869e-01
2.761504799127578735e-02 -3.589131832122802734e-01 -3.653677925467491150e-02
2.230715006589889526e-02 -4.407294392585754395e-01 -1.709040626883506775e-02
-2.446056157350540161e-02 -2.612659037113189697e-01 -1.169609352946281433e-01
1.486991625279188156e-02 -4.629750847816467285e-01 -2.806551381945610046e-02
-7.970264181494712830e-03 -4.474087953567504883e-01 -2.392046153545379639e-03
1.712117157876491547e-02 -4.664515256881713867e-01 1.331333070993423462e-02
-8.636156097054481506e-03 -3.493803739547729492e-01 -1.851783692836761475e-01
1.997706666588783264e-02 -2.173041403293609619e-01 -1.425873339176177979e-01
2.618380635976791382e-02 -3.364870250225067139e-01 -1.353138536214828491e-01
2.495439723134040833e-02 -3.918194472789764404e-01 2.820385992527008057e-02
-1.630382984876632690e-02 -3.940590023994445801e-01 5.688793212175369263e-02
2.132401615381240845e-02 -2.505092620849609375e-01 -2.029867768287658691e-01
-9.040757082402706146e-03 -4.062589704990386963e-01 1.115201637148857117e-01
1.506401132792234421e-02 -4.583730101585388184e-01 8.754133433103561401e-02
-8.095867000520229340e-03 -4.504023194313049316e-01 4.983232915401458740e-02
-1.447666529566049576e-02 -2.090446203947067261e-01 -2.466352581977844238e-01
2.717308700084686279e-02 -3.450777232646942139e-01 -1.097655594348907471e-01
-2.317540347576141357e-02 -2.143629491329193115e-01 -1.166674345731735229e-01
-3.387219272553920746e-03 -3.908159732818603516e-01 1.307424604892730713e-01
2.502992376685142517e-02 -2.900261580944061279e-01 -1.632502973079681396e-01
2.436568215489387512e-02 -3.164426088333129883e-01 -1.696716696023941040e-01
-1.902631297707557678e-02 -1.863148510456085205e-01 -9.714554995298385620e-02
1.836813613772392273e-02 -2.608016729354858398e-01 -2.326557040214538574e-01
-7.485945709049701691e-03 -4.015693962574005127e-01 -1.195944696664810181e-01
2.202735841274261475e-02 -2.427699267864227295e-01 -9.626165777444839478e-02
-2.051531895995140076e-02 -2.021381556987762451e-01 -1.904457211494445801e-01
8.488258346915245056e-03 -3.632854521274566650e-01 -2.002386152744293213e-01
2.677363157272338867e-02 -3.014351725578308105e-01 -8.114323765039443970e-02
1.316459849476814270e-02 -4.592979252338409424e-01 -4.622364789247512817e-02
2.550874277949333191e-02 -4.138597249984741211e-01 -2.537699043750762939e-02
-4.573641344904899597e-03 -2.001688182353973389e-01 -1.765937730669975281e-02
-1.872001588344573975e-02 -2.657682597637176514e-01 -1.993198096752166748e-01
2.404914051294326782e-02 -2.562007904052734375e-01 -1.165289878845214844e-01
-1.595385745167732239e-02 -1.645691841840744019e-01 -1.252273470163345337e-01
4.532097838819026947e-03 -1.486453711986541748e-01 -2.171946167945861816e-01
-1.836391910910606384e-02 -2.323788553476333618e-01 -1.305682212114334106e-02
-2.030790597200393677e-02 -2.819830179214477539e-01 1.929880678653717041e-02
1.062527392059564590e-02 -1.656813323497772217e-01 -1.756788194179534912e-01
-1.767019554972648621e-02 -1.891547143459320068e-01 -2.177936732769012451e-01
-2.136794850230216980e-02 -3.522492349147796631e-01 -5.807801336050033569e-02
7.425872609019279480e-03 -3.100757598876953125e-01 8.818847686052322388e-02
-1.124577969312667847e-02 -1.656281054019927979e-01 -9.050472080707550049e-02
2.024677023291587830e-02 -3.980528414249420166e-01 -1.283534914255142212e-01
2.289032191038131714e-02 -4.252204000949859619e-01 -5.850025266408920288e-02
-8.803267963230609894e-03 -4.432132542133331299e-01 7.094838470220565796e-02
1.783140376210212708e-02 -3.224188983440399170e-01 5.618607252836227417e-02
1.378799974918365479e-02 -3.204751312732696533e-01 7.535820454359054565e-02
7.180288434028625488e-03 -4.775961637496948242e-01 9.414494037628173828e-03
-2.895059296861290932e-04 -4.687144756317138672e-01 8.418948203325271606e-02
2.580953761935234070e-02 -3.741197586059570312e-01 -1.071435660123825073e-01
2.312077581882476807e-02 -3.599080443382263184e-01 4.148422181606292725e-02
1.526467129588127136e-02 -3.747521638870239258e-01 -1.769798994064331055e-01
2.758451923727989197e-02 -3.738890588283538818e-01 -4.939480870962142944e-02
7.243697997182607651e-03 -1.770493537187576294e-01 -9.023357182741165161e-02
2.546693384647369385e-02 -3.610589802265167236e-01 -1.264373660087585449e-01
-3.262802958488464355e-03 -3.207872807979583740e-01 -2.301444709300994873e-01
-1.374018937349319458e-02 -2.851545214653015137e-01 6.001473218202590942e-02
-7.688119076192378998e-03 -2.284574806690216064e-01 -2.716751396656036377e-01
2.302587404847145081e-02 -2.550258934497833252e-01 -8.490973711013793945e-02
1.852631568908691406e-02 -2.414188683032989502e-01 -2.286907732486724854e-01
-1.622689515352249146e-02 -1.912845224142074585e-01 -2.318637073040008545e-01
-1.552840415388345718e-02 -3.857828974723815918e-01 7.434415072202682495e-02
2.770290523767471313e-02 -3.316187858581542969e-01 -6.519362330436706543e-02
-3.630958963185548782e-03 -3.322318196296691895e-01 -2.191565036773681641e-01
1.307402737438678741e-02 -3.908783197402954102e-01 -1.638000011444091797e-01
-2.136589586734771729e-02 -3.358870744705200195e-01 2.214147150516510010e-02
2.568550035357475281e-02 -3.000612258911132812e-01 -1.528497934341430664e-01
1.684449240565299988e-02 -2.022861242294311523e-01 -2.095843255519866943e-01
-1.371114049106836319e-02 -3.770396709442138672e-01 9.238848835229873657e-02
-1.873473823070526123e-02 -3.465030193328857422e-01 5.470743030309677124e-02
2.317113429307937622e-02 -2.654319703578948975e-01 -1.847563982009887695e-01
-6.269004195928573608e-03 -1.709574609994888306e-01 -6.936246156692504883e-02
-1.965280994772911072e-02 -2.712779641151428223e-01 -1.875045597553253174e-01
1.876701042056083679e-02 -2.129468917846679688e-01 -1.219277083873748779e-01
1.255619805306196213e-02 -3.671010434627532959e-01 1.085251942276954651e-01
-2.048313617706298828e-02 -2.086335718631744385e-01 -6.650380790233612061e-02
-1.933337375521659851e-02 -3.700936436653137207e-01 -6.081261113286018372e-02
1.312683057039976120e-02 -1.778586357831954956e-01 -1.543751955032348633e-01
-2.184912189841270447e-02 -2.793150246143341064e-01 -1.572230458259582520e-01
-2.060702443122863770e-02 -2.760317325592041016e-01 -1.745674312114715576e-01
8.287983015179634094e-03 -1.728623211383819580e-01 -2.510901689529418945e-01
2.531978115439414978e-02 -3.339723348617553711e-01 -2.435594797134399414e-03
-9.974233806133270264e-03 -1.645252406597137451e-01 -2.531940937042236328e-01
-6.953699514269828796e-03 -2.955384850502014160e-01 -2.404314577579498291e-01
-3.537434618920087814e-03 -1.812380999326705933e-01 -4.956177249550819397e-02
-5.713977850973606110e-03 -3.740068972110748291e-01 -1.673790216445922852e-01
2.670848742127418518e-02 -3.724565505981445312e-01 -5.293555557727813721e-03
2.349804341793060303e-02 -3.858484625816345215e-01 4.687405377626419067e-02
2.438766881823539734e-02 -4.227567911148071289e-01 -3.531849756836891174e-02
2.078454941511154175e-03 -1.427069008350372314e-01 -1.885373294353485107e-01
1.189811434596776962e-02 -2.591323256492614746e-01 2.320794761180877686e-02
2.119218558073043823e-02 -3.801917433738708496e-01 -1.448380947113037109e-01
2.122456952929496765e-02 -2.431788444519042969e-01 -7.905106991529464722e-02
-1.025321893393993378e-02 -3.665964901447296143e-01 -1.564449071884155273e-01
-2.299178391695022583e-02 -3.345967829227447510e-01 -2.819743007421493530e-02
1.771990954875946045e-02 -2.926647365093231201e-01 2.911760658025741577e-02
-4.789686296135187149e-03 -4.224945902824401855e-01 1.225577369332313538e-01
-1.485443022102117538e-02 -2.500620782375335693e-01 -2.344172000885009766e-01
1.695159450173377991e-02 -3.352568149566650391e-01 7.098185271024703979e-02
-1.120771840214729309e-02 -4.291032850742340088e-01 -2.597570046782493591e-02
-8.305795490741729736e-03 -3.371525704860687256e-01 -1.996325254440307617e-01
-2.317874506115913391e-02 -3.109862506389617920e-01 -9.948924928903579712e-02
-1.258843671530485153e-02 -4.293621778488159180e-01 1.134732365608215332e-02
-1.416092645376920700e-02 -4.199092388153076172e-01 2.980448305606842041e-03
2.539061009883880615e-02 -4.086045622825622559e-01 1.031731814146041870e-02
-2.041577175259590149e-02 -2.930628359317779541e-01 -1.627266705036163330e-01
2.550563216209411621e-02 -2.744935750961303711e-01 -1.162304282188415527e-01
-1.541816163808107376e-02 -3.586127758026123047e-01 -1.322518587112426758e-01
-7.461230270564556122e-03 -4.527665674686431885e-01 2.264953404664993286e-02
-1.354182418435811996e-02 -1.541816443204879761e-01 -1.394449770450592041e-01
9.995482861995697021e-03 -1.631301939487457275e-01 -1.959389597177505493e-01
-2.056624367833137512e-02 -3.212555944919586182e-01 3.395856916904449463e-02
-4.372209310531616211e-03 -4.420911073684692383e-01 -5.616949498653411865e-02
-2.205317839980125427e-02 -2.260054945945739746e-01 -5.755398422479629517e-02
-6.411067210137844086e-03 -4.289763867855072021e-01 1.120909675955772400e-01
1.594815775752067566e-02 -1.922106146812438965e-01 -1.970022916793823242e-01
6.668047513812780380e-03 -2.665684521198272705e-01 5.023191124200820923e-02
2.576740458607673645e-02 -3.000091910362243652e-01 -5.111289769411087036e-02
-1.279178168624639511e-02 -1.474362015724182129e-01 -1.801048815250396729e-01
-1.915635168552398682e-02 -1.765068769454956055e-01 -1.354441046714782715e-01
6.617384962737560272e-03 -1.553730219602584839e-01 -1.587814390659332275e-01
2.661178261041641235e-02 -3.979950249195098877e-01 -3.034738451242446899e-02
-2.012519165873527527e-02 -2.612189650535583496e-01 4.437133669853210449e-03
-8.968274109065532684e-03 -3.141036331653594971e-01 -2.188001573085784912e-01
2.366911992430686951e-02 -2.844072878360748291e-01 -3.818113729357719421e-02
-1.751529425382614136e-02 -3.872755467891693115e-01 -5.031903088092803955e-02
2.175265923142433167e-02 -3.595808446407318115e-01 5.382256954908370972e-02
-2.007769048213958740e-02 -3.085177838802337646e-01 3.550472855567932129e-02
5.297511816024780273e-03 -3.549106717109680176e-01 1.203574612736701965e-01
1.949837803840637207e-02 -2.739228308200836182e-01 -6.432943046092987061e-03
1.887317374348640442e-02 -3.539790213108062744e-01 7.169985026121139526e-02
-1.464129332453012466e-02 -3.163446187973022461e-01 7.543563097715377808e-02
-8.424400351941585541e-03 -4.310011565685272217e-01 -5.333602428436279297e-02
-2.243185043334960938e-02 -2.261733859777450562e-01 -1.687755882740020752e-01
-1.308360602706670761e-02 -3.812792301177978516e-01 -1.162852495908737183e-01
1.154842134565114975e-02 -2.094112634658813477e-01 -4.877297580242156982e-02
-2.373896166682243347e-02 -3.137742578983306885e-01 -7.609643042087554932e-02
1.051284372806549072e-03 -2.803867757320404053e-01 -2.646351456642150879e-01
2.702498435974121094e-02 -3.038417994976043701e-01 -9.316516667604446411e-02
1.963545754551887512e-02 -4.542096853256225586e-01 -1.262613013386726379e-02
1.395430136471986771e-02 -1.867048293352127075e-01 -1.280914843082427979e-01
-1.865508034825325012e-02 -3.442990779876708984e-01 -1.212545931339263916e-01
-1.245963759720325470e-02 -2.687404453754425049e-01 5.111332982778549194e-02
1.585872471332550049e-02 -2.097683697938919067e-01 -2.334644496440887451e-01
2.048206701874732971e-02 -4.455970525741577148e-01 5.275482684373855591e-02
-1.669116690754890442e-02 -3.428997993469238281e-01 7.219155877828598022e-02
1.575751975178718567e-02 -2.309995740652084351e-01 -4.052426293492317200e-02
-2.278549596667289734e-02 -2.578565478324890137e-01 -1.574357450008392334e-01
2.435008436441421509e-02 -2.793072760105133057e-01 -1.717610061168670654e-01
2.067987993359565735e-02 -2.242092192173004150e-01 -1.751161366701126099e-01
-2.205928042531013489e-02 -3.487571477890014648e-01 -1.489233970642089844e-02
-2.423834055662155151e-02 -2.580006718635559082e-01 -5.674624443054199219e-02
-2.028117328882217407e-02 -2.380419373512268066e-01 -1.970822513103485107e-01
-2.456371486186981201e-02 -2.959200143814086914e-01 -6.070770323276519775e-02
-2.364156767725944519e-02 -2.673147916793823242e-01 -1.363999545574188232e-01
2.365626767277717590e-02 -4.328622519969940186e-01 -4.577577114105224609e-03
1.514730323106050491e-02 -2.890908122062683105e-01 4.065926373004913330e-02
2.181162685155868530e-02 -3.599314391613006592e-01 -1.618141829967498779e-01
-2.137968689203262329e-02 -2.045718729496002197e-01 -1.771752685308456421e-01
1.797713339328765869e-02 -2.024550288915634155e-01 -1.604962348937988281e-01
-2.166607603430747986e-02 -3.205407857894897461e-01 1.965728402137756348e-02
-1.025493536144495010e-02 -2.561520040035247803e-01 4.517581313848495483e-02
-2.424851432442665100e-02 -2.385230511426925659e-01 -1.207337677478790283e-01
2.296078205108642578e-02 -4.119932651519775391e-01 5.132967978715896606e-02
2.247945219278335571e-02 -3.051107227802276611e-01 3.325402736663818359e-03
2.341186627745628357e-02 -3.632719814777374268e-01 -1.462372690439224243e-01
-4.711330868303775787e-03 -1.380023509263992310e-01 -2.108269631862640381e-01
1.068865414708852768e-02 -4.786109626293182373e-01 2.292503416538238525e-02
-1.280871592462062836e-02 -4.192793667316436768e-01 6.915817409753799438e-02
2.104433020576834679e-03 -3.751075863838195801e-01 1.309910714626312256e-01
-2.349143847823143005e-02 -2.321213632822036743e-01 -1.466187834739685059e-01
-1.993375271558761597e-02 -1.801548749208450317e-01 -1.513101309537887573e-01
-2.256774809211492538e-03 -1.446620970964431763e-01 -1.436759233474731445e-01
1.731692999601364136e-02 -2.214332222938537598e-01 -2.291243970394134521e-01
1.018593367189168930e-02 -4.355304837226867676e-01 1.232681348919868469e-01
-1.672653853893280029e-02 -2.427312284708023071e-01 -2.256894409656524658e-01
1.587305776774883270e-02 -3.072786331176757812e-01 5.432569235563278198e-02
1.034105895087122917e-03 -2.282178103923797607e-01 -2.841908335685729980e-01
-2.679586876183748245e-03 -1.556242853403091431e-01 -1.066886037588119507e-01
2.069698646664619446e-02 -4.018663167953491211e-01 7.503516227006912231e-02
-1.522642467170953751e-02 -3.560507893562316895e-01 8.355372399091720581e-02
-1.394223701208829880e-02 -3.844372630119323730e-01 -1.034815832972526550e-01
-2.271750569343566895e-02 -2.210227102041244507e-01 -7.832129299640655518e-02
1.790831238031387329e-02 -2.260736823081970215e-01 -7.096160203218460083e-02
2.134626731276512146e-02 -4.222657680511474609e-01 -8.192791044712066650e-02
1.964548975229263306e-02 -3.255119025707244873e-01 -2.018928527832031250e-01
1.489969529211521149e-02 -4.692578613758087158e-01 6.552357226610183716e-02
-6.374181248247623444e-03 -2.377013266086578369e-01 3.123717010021209717e-02
2.503370493650436401e-02 -2.717577815055847168e-01 -9.558416903018951416e-02
-1.759736239910125732e-02 -3.880923390388488770e-01 4.262204468250274658e-02
2.591539546847343445e-02 -3.876586556434631348e-01 1.160462945699691772e-02
1.177180185914039612e-02 -3.412908911705017090e-01 -2.168435752391815186e-01
1.413748878985643387e-02 -2.710623145103454590e-01 2.631240338087081909e-02
1.355464663356542587e-02 -1.861204504966735840e-01 -2.249614000320434570e-01
2.472078800201416016e-02 -2.716639041900634766e-01 -1.574339270591735840e-01
-1.224596891552209854e-02 -2.939979135990142822e-01 7.158986479043960571e-02
1.859386265277862549e-02 -2.067232280969619751e-01 -1.717842817306518555e-01
-1.919328793883323669e-02 -3.353676795959472656e-01 5.017397552728652954e-02
1.054197736084461212e-02 -4.098369777202606201e-01 -1.426959633827209473e-01
2.086028456687927246e-02 -2.239589393138885498e-01 -1.627333760261535645e-01
-5.821858067065477371e-03 -2.751204371452331543e-01 -2.568539083003997803e-01
1.917855069041252136e-02 -2.651642560958862305e-01 -1.566636562347412109e-02
-1.143307052552700043e-02 -2.768239974975585938e-01 -2.368396520614624023e-01
-4.421163816004991531e-03 -1.407413780689239502e-01 -1.585626006126403809e-01
-1.992903277277946472e-02 -3.729190826416015625e-01 -3.219341859221458435e-02
1.138516515493392944e-02 -2.355014383792877197e-01 -5.482450127601623535e-03
-1.793028786778450012e-02 -3.056194186210632324e-01 5.144935101270675659e-02
-2.462800219655036926e-02 -2.503124177455902100e-01 -1.059603020548820496e-01
7.919567637145519257e-03 -3.307589292526245117e-01 1.018450632691383362e-01
7.301719393581151962e-03 -4.456807374954223633e-01 -8.381681144237518311e-02
-2.106755971908569336e-02 -3.590525984764099121e-01 -4.492788016796112061e-02
2.693964540958404541e-02 -3.376665711402893066e-01 -1.199562549591064453e-01
2.114598453044891357e-02 -2.273154556751251221e-01 -1.325686126947402954e-01
-1.673287153244018555e-02 -3.962942361831665039e-01 -3.783337771892547607e-02
1.204891223460435867e-02 -1.739456355571746826e-01 -2.127750515937805176e-01
1.251182332634925842e-02 -4.443418383598327637e-01 1.123417988419532776e-01
-1.894079148769378662e-02 -3.726834654808044434e-01 3.859004378318786621e-02
2.312877029180526733e-02 -2.636265158653259277e-01 -6.679857522249221802e-02
-1.980062201619148254e-02 -3.764033913612365723e-01 -4.343807697296142578e-03
2.591183781623840332e-02 -3.131328523159027100e-01 -3.471516072750091553e-02
1.295623928308486938e-02 -3.147307038307189941e-01 -2.342821955680847168e-01
-1.156311482191085815e-02 -4.236975312232971191e-01 -3.901777788996696472e-02
-1.993178576231002808e-02 -3.610815703868865967e-01 3.218164294958114624e-02
1.708183810114860535e-02 -4.354521334171295166e-01 -8.449473232030868530e-02
-4.816224332898855209e-03 -4.322933554649353027e-01 -7.632672786712646484e-02
-1.205009501427412033e-02 -1.474002599716186523e-01 -2.052871882915496826e-01
-4.426219966262578964e-03 -3.657866120338439941e-01 -1.818335056304931641e-01
1.558643486350774765e-02 -1.880945563316345215e-01 -1.779649555683135986e-01
-2.485496550798416138e-02 -2.660548388957977295e-01 -8.610092848539352417e-02
-1.007513981312513351e-02 -4.373700320720672607e-01 -1.184783875942230225e-02
-8.295919746160507202e-03 -3.927333056926727295e-01 1.178540810942649841e-01
-1.215437240898609161e-02 -3.429796695709228516e-01 -1.750068217515945435e-01
-2.310499921441078186e-02 -2.511017620563507080e-01 -3.987620398402214050e-02
2.420116215944290161e-02 -4.250613451004028320e-01 1.478284597396850586e-02
4.564516246318817139e-03 -2.911639809608459473e-01 -2.593622803688049316e-01
-2.009046450257301331e-02 -2.152161300182342529e-01 -2.009854018688201904e-01
3.625908866524696350e-03 -2.492143064737319946e-01 -2.787473797798156738e-01
1.134133245795965195e-02 -3.795538246631622314e-01 1.172986552119255066e-01
2.450477331876754761e-02 -2.733804285526275635e-01 -7.426956295967102051e-02
1.541056390851736069e-02 -3.203210830688476562e-01 -2.235658466815948486e-01
-2.477066591382026672e-02 -2.618638575077056885e-01 -9.947496652603149414e-02
-1.943556591868400574e-02 -2.194583117961883545e-01 -3.833718597888946533e-02
2.483232691884040833e-02 -2.656331658363342285e-01 -1.372154355049133301e-01
1.899480447173118591e-02 -4.602373540401458740e-01 2.653941512107849121e-02
6.177766248583793640e-03 -3.730592727661132812e-01 -1.904044449329376221e-01
-1.507670152932405472e-02 -1.800209283828735352e-01 -2.349334657192230225e-01
-9.288780391216278076e-03 -4.365696310997009277e-01 8.129455894231796265e-02
2.282721549272537231e-02 -2.964800298213958740e-01 -1.055642962455749512e-02
1.717308908700942993e-02 -2.444134950637817383e-01 -2.397850751876831055e-01
-8.971234783530235291e-03 -4.473834931850433350e-01 3.679881989955902100e-02
2.092811465263366699e-02 -2.320544123649597168e-01 -1.896290630102157593e-01
2.035543322563171387e-02 -3.113220036029815674e-01 -2.058805823326110840e-01
2.722730860114097595e-02 -3.096328377723693848e-01 -1.031350046396255493e-01
1.710739918053150177e-02 -3.925253748893737793e-01 9.735173732042312622e-02
4.000154323875904083e-03 -3.314086794853210449e-01 -2.303797900676727295e-01
2.134564891457557678e-02 -2.671318650245666504e-01 -3.477522730827331543e-02
2.529501914978027344e-02 -3.673708736896514893e-01 1.911045610904693604e-02
1.747448742389678955e-02 -2.002777010202407837e-01 -1.852256357669830322e-01
2.166799455881118774e-02 -4.424961805343627930e-01 3.773247450590133667e-02
1.505487877875566483e-02 -2.444377243518829346e-01 -2.522421777248382568e-01
2.601125836372375488e-02 -3.314537703990936279e-01 -1.586625725030899048e-02
-2.252260223031044006e-02 -2.056293189525604248e-01 -1.414971500635147095e-01
1.458507031202316284e-02 -4.220477044582366943e-01 -1.170322299003601074e-01
-1.901427283883094788e-02 -1.817914247512817383e-01 -1.100846827030181885e-01
2.300912514328956604e-02 -4.111676216125488281e-01 -8.640795946121215820e-02
1.924489066004753113e-02 -4.227336943149566650e-01 8.395203202962875366e-02
2.378248423337936401e-02 -3.222292065620422363e-01 6.731681525707244873e-03
-1.964817568659782410e-02 -2.917522788047790527e-01 3.110127896070480347e-02
-2.262756461277604103e-03 -1.837427020072937012e-01 -2.807103097438812256e-01
1.530919969081878662e-02 -2.626871168613433838e-01 9.507365524768829346e-03
2.439249679446220398e-02 -3.955771923065185547e-01 -9.660342335700988770e-02
-1.773494109511375427e-02 -3.670373260974884033e-01 -9.419123828411102295e-02
2.740699052810668945e-02 -3.766623735427856445e-01 -6.102923303842544556e-02
2.388859912753105164e-02 -3.716817498207092285e-01 3.866071254014968872e-02
-1.332067418843507767e-02 -3.492296040058135986e-01 9.342794865369796753e-02
-1.698176562786102295e-02 -3.748191595077514648e-01 6.506545096635818481e-02
-1.618861407041549683e-02 -3.303913474082946777e-01 7.269348949193954468e-02
4.453114233911037445e-03 -2.061723768711090088e-01 -2.828516364097595215e-01
2.771384641528129578e-02 -3.327112793922424316e-01 -9.359609335660934448e-02
-6.169433239847421646e-03 -2.146708518266677856e-01 -2.779271304607391357e-01
-2.440367359668016434e-03 -3.849167227745056152e-01 -1.639174818992614746e-01
2.365873381495475769e-02 -2.822381258010864258e-01 -1.833507418632507324e-01
1.608177460730075836e-02 -4.091192483901977539e-01 1.047864928841590881e-01
1.458840910345315933e-02 -2.067280411720275879e-01 -7.828137278556823730e-02
-1.749990507960319519e-02 -3.946060240268707275e-01 2.838601171970367432e-02
-7.565753534436225891e-03 -2.287542819976806641e-01 1.956538110971450806e-02
-2.284967526793479919e-02 -3.354919254779815674e-01 -5.231595039367675781e-02
2.627265825867652893e-02 -3.934561312198638916e-01 4.773065447807312012e-04
1.755759865045547485e-02 -2.035424709320068359e-01 -1.321981251239776611e-01
-2.371840178966522217e-02 -2.542797327041625977e-01 -1.410474479198455811e-01
-1.876845024526119232e-03 -4.222976565361022949e-01 -1.090341210365295410e-01
-1.288022380322217941e-03 -4.352445602416992188e-01 1.259401738643646240e-01
2.216871455311775208e-02 -2.893148362636566162e-01 -1.998119801282882690e-01
-4.732936620712280273e-03 -4.623692035675048828e-01 3.217936307191848755e-02
-2.149814739823341370e-02 -2.937966883182525635e-01 -1.491124331951141357e-01
-1.354641746729612350e-02 -4.074713885784149170e-01 7.712546736001968384e-02
2.675431966781616211e-02 -3.586168289184570312e-01 -1.078595221042633057e-01
-2.070212736725807190e-02 -3.667889535427093506e-01 -1.499420776963233948e-02
-1.589373499155044556e-02 -3.936243057250976562e-01 -6.148016825318336487e-02
-2.089726552367210388e-02 -2.466441392898559570e-01 -1.876029670238494873e-01
1.618669927120208740e-02 -1.989412903785705566e-01 -1.209051907062530518e-01
-2.300449088215827942e-02 -3.270758092403411865e-01 -1.103880256414413452e-02
-1.608663052320480347e-02 -3.704903423786163330e-01 -1.071335822343826294e-01
2.494311705231666565e-02 -3.019579350948333740e-01 -1.657473593950271606e-01
-2.393817901611328125e-02 -2.935028076171875000e-01 -1.048083454370498657e-01
-2.419490367174148560e-02 -3.086806237697601318e-01 -5.049398541450500488e-02
-2.103319764137268066e-02 -3.408881723880767822e-01 -9.264279901981353760e-02
-2.039452269673347473e-02 -3.463361263275146484e-01 3.397314250469207764e-02
2.548683062195777893e-02 -4.115642905235290527e-01 -4.008905589580535889e-02
-1.096911635249853134e-02 -4.319470524787902832e-01 6.896642595529556274e-02
1.425725966691970825e-02 -2.087584882974624634e-01 -2.462847828865051270e-01
1.733802631497383118e-02 -3.036242127418518066e-01 4.256685823202133179e-02
1.326994784176349640e-02 -4.477870464324951172e-01 -7.332647591829299927e-02
2.429725602269172668e-02 -3.164104223251342773e-01 -5.450792610645294189e-03
2.328296750783920288e-02 -2.473427653312683105e-01 -1.519637107849121094e-01
-1.782936975359916687e-02 -1.910911202430725098e-01 -7.344812154769897461e-02
-1.189237274229526520e-02 -1.590332835912704468e-01 -2.367250025272369385e-01
2.287975698709487915e-02 -4.298217296600341797e-01 3.838908672332763672e-02
-4.958156496286392212e-03 -4.489247500896453857e-01 -3.281850367784500122e-02
2.323255687952041626e-02 -2.528855204582214355e-01 -1.705455482006072998e-01
-1.792128756642341614e-02 -3.277440071105957031e-01 -1.509735882282257080e-01
1.716409251093864441e-02 -4.245838522911071777e-01 9.751424938440322876e-02
2.612517774105072021e-02 -3.717838823795318604e-01 6.919860839843750000e-03
2.782580628991127014e-02 -3.447662591934204102e-01 -5.620336532592773438e-02
-1.898114010691642761e-02 -2.960484623908996582e-01 -1.744003593921661377e-01
-1.722363755106925964e-02 -2.032756805419921875e-01 -4.673122614622116089e-02
-1.666153222322463989e-02 -4.037669301033020020e-01 6.125271320343017578e-03
1.674767583608627319e-02 -3.746730685234069824e-01 9.376776963472366333e-02
2.069866657257080078e-02 -3.000073432922363281e-01 -2.086122632026672363e-01
2.818302251398563385e-03 -1.904318034648895264e-01 -4.379934072494506836e-02
-2.163274958729743958e-02 -1.985097080469131470e-01 -1.122696176171302795e-01
-5.694874096661806107e-03 -4.575535655021667480e-01 6.590428203344345093e-02
1.452185027301311493e-02 -1.973160803318023682e-01 -2.327484488487243652e-01
2.992572262883186340e-03 -1.725482195615768433e-01 -8.014091104269027710e-02
-1.560237910598516464e-02 -4.064690172672271729e-01 4.616099596023559570e-02
2.343551022931933403e-04 -1.554001420736312866e-01 -2.580154240131378174e-01
2.237803116440773010e-02 -3.229408264160156250e-01 -1.854184120893478394e-01
-2.456962317228317261e-02 -2.705269753932952881e-01 -1.074845120310783386e-01
-1.096266601234674454e-02 -2.127455770969390869e-01 -2.634397447109222412e-01
-4.692505579441785812e-03 -3.140616416931152344e-01 9.999156743288040161e-02
4.737768322229385376e-03 -2.316147983074188232e-01 1.399189978837966919e-02
-2.265636622905731201e-02 -2.812566757202148438e-01 -7.325425744056701660e-03
-5.017185583710670471e-03 -1.406412720680236816e-01 -2.262703478336334229e-01
-1.520464476197957993e-02 -3.166408240795135498e-01 -1.844079792499542236e-01
-1.987253874540328979e-02 -3.452272415161132812e-01 -1.039755716919898987e-01
1.823891699314117432e-02 -2.219048887491226196e-01 -8.484180271625518799e-02
-2.111810445785522461e-02 -2.065842598676681519e-01 -7.920443266630172729e-02
-2.415145188570022583e-02 -2.896415889263153076e-01 -3.330760821700096130e-02
1.253140717744827271e-02 -4.221938252449035645e-01 1.191750392317771912e-01
-1.570411026477813721e-02 -3.670470416545867920e-01 7.957569509744644165e-02
2.467564120888710022e-02 -3.871697783470153809e-01 -1.055355742573738098e-01
-1.095839310437440872e-02 -1.869541257619857788e-01 -2.613931596279144287e-01
-2.360972389578819275e-02 -3.190974593162536621e-01 -2.648724243044853210e-02
-1.480647269636392593e-02 -3.380559980869293213e-01 -1.639220714569091797e-01
-1.220160350203514099e-02 -2.508492767810821533e-01 -2.475773096084594727e-01
2.670606970787048340e-02 -3.114033341407775879e-01 -5.648381263017654419e-02
9.459447115659713745e-03 -2.194498181343078613e-01 -2.023665234446525574e-02
-1.777837425470352173e-02 -2.557962536811828613e-01 -2.123556435108184814e-01
6.686770822852849960e-03 -4.221667647361755371e-01 -1.255022883415222168e-01
1.385926641523838043e-02 -4.745226502418518066e-01 5.178458243608474731e-02
2.022904157638549805e-02 -4.137912988662719727e-01 -1.052182018756866455e-01
2.478671446442604065e-02 -4.047560691833496094e-01 2.724558115005493164e-02
7.286483887583017349e-03 -1.787167638540267944e-01 -2.630755007266998291e-01
2.430993318557739258e-02 -2.600111067295074463e-01 -1.475701332092285156e-01
7.404288742691278458e-03 -1.883257031440734863e-01 -2.698222696781158447e-01
-1.610449701547622681e-02 -4.031595885753631592e-01 -2.669994160532951355e-02
-1.635297015309333801e-02 -2.672662138938903809e-01 3.429386019706726074e-02
-1.465490926057100296e-02 -2.535829842090606689e-01 2.931034564971923828e-02
7.793671917170286179e-03 -1.593096405267715454e-01 -2.244897782802581787e-01
-7.235402241349220276e-03 -1.483162343502044678e-01 -1.284753680229187012e-01
-2.295282483100891113e-02 -2.171160578727722168e-01 -9.377167373895645142e-02
2.508696541190147400e-02 -3.465036749839782715e-01 -1.438882201910018921e-01
-2.455457672476768494e-02 -2.870906889438629150e-01 -4.954010248184204102e-02
-1.820917800068855286e-02 -3.708666265010833740e-01 5.217372626066207886e-02
2.781478315591812134e-02 -3.622304201126098633e-01 -5.472343415021896362e-02
-1.412909198552370071e-02 -4.209866821765899658e-01 2.082236856222152710e-02
1.904964447021484375e-02 -2.383174151182174683e-01 -5.903168767690658569e-02
-1.612071320414543152e-02 -1.609644442796707153e-01 -1.929985582828521729e-01
2.717838808894157410e-02 -3.462540209293365479e-01 -2.817885205149650574e-02
2.574336482211947441e-03 -2.699749767780303955e-01 6.206770986318588257e-02
-2.405820786952972412e-02 -2.307004630565643311e-01 -1.072180196642875671e-01
5.207825452089309692e-03 -4.549531936645507812e-01 -6.175752729177474976e-02
-4.103184677660465240e-03 -4.457187652587890625e-01 1.075322106480598450e-01
-1.210240274667739868e-02 -4.048697352409362793e-01 -8.066964894533157349e-02
-2.341718226671218872e-02 -2.325676083564758301e-01 -7.227122783660888672e-02
1.196742150932550430e-02 -2.392897307872772217e-01 -2.655647695064544678e-01
1.511458656750619411e-03 -2.086004614830017090e-01 -1.097407191991806030e-02
-2.162546291947364807e-02 -2.579979896545410156e-01 -1.739284992218017578e-01
1.649589650332927704e-02 -4.656234383583068848e-01 -3.992617130279541016e-03
-1.913767307996749878e-02 -3.565286993980407715e-01 4.762107133865356445e-02
7.698693778365850449e-03 -3.007797300815582275e-01 -2.518564462661743164e-01
-2.405494824051856995e-02 -2.357698976993560791e-01 -8.690895140171051025e-02
-1.655901595950126648e-02 -1.725007295608520508e-01 -2.138162553310394287e-01
-1.443288195878267288e-02 -2.661940753459930420e-01 -2.285053730010986328e-01
-1.035182271152734756e-02 -3.874003887176513672e-01 -1.258294433355331421e-01
1.596296951174736023e-02 -2.610607445240020752e-01 -2.465548515319824219e-01
9.997329674661159515e-03 -2.127341628074645996e-01 -2.703575491905212402e-01
-1.877855509519577026e-02 -1.780450195074081421e-01 -1.894547790288925171e-01
-2.178642526268959045e-02 -2.680505812168121338e-01 -5.824565887451171875e-03
-2.209934219717979431e-02 -2.023966908454895020e-01 -1.535880863666534424e-01
