1.051048338413238525e-01 8.410550951957702637e-01 8.866520971059799194e-02
1.924851387739181519e-01 8.037343025207519531e-01 2.050977647304534912e-01
1.214190721511840820e-01 9.086365699768066406e-01 -2.313685566186904907e-01
1.325518488883972168e-01 9.902685880661010742e-01 -1.752155721187591553e-01
2.750436365604400635e-01 6.487635374069213867e-01 2.311686724424362183e-01
1.229150667786598206e-01 7.830792665481567383e-01 1.533832997083663940e-01
9.165367484092712402e-02 9.339498281478881836e-01 -1.413387805223464966e-01
3.378947675228118896e-01 7.699183225631713867e-01 -9.206580370664596558e-02
1.952470093965530396e-01 9.932485222816467285e-01 -2.507488429546356201e-01
3.551342785358428955e-01 7.255702018737792969e-01 1.542716324329376221e-01
1.038920655846595764e-01 9.225416779518127441e-01 -2.015171349048614502e-01
1.564228981733322144e-01 9.794099330902099609e-01 -2.444132119417190552e-01
7.124523818492889404e-02 8.085644841194152832e-01 -2.393984608352184296e-02
2.181752473115921021e-01 9.990475773811340332e-01 -4.519350826740264893e-02
2.101218849420547485e-01 6.157965064048767090e-01 1.181386858224868774e-01
3.223642706871032715e-01 6.734886765480041504e-01 1.992018818855285645e-01
2.446791678667068481e-01 9.277853369712829590e-01 -2.633246183395385742e-01
1.660324931144714355e-01 6.945225000381469727e-01 -7.594952732324600220e-02
2.934476435184478760e-01 8.309503793716430664e-01 1.828336268663406372e-01
1.806738674640655518e-01 6.289963722229003906e-01 1.594122201204299927e-01
3.648723959922790527e-01 7.886424064636230469e-01 -4.361103475093841553e-02
2.854872643947601318e-01 8.350260853767395020e-01 -2.061983346939086914e-01
3.259247839450836182e-01 9.362689256668090820e-01 -1.593192815780639648e-01
1.766122132539749146e-01 1.016024708747863770e+00 -1.459861993789672852e-01
2.575778365135192871e-01 7.371864914894104004e-01 -1.383079290390014648e-01
2.625222802162170410e-01 8.755077719688415527e-01 -2.423391193151473999e-01
2.358001917600631714e-01 9.732882380485534668e-01 1.399976201355457306e-02
2.193526327610015869e-01 6.774896979331970215e-01 -6.411954760551452637e-02
2.541581392288208008e-01 6.965427398681640625e-01 -8.615427464246749878e-02
3.139829337596893311e-01 9.711806178092956543e-01 -1.167007759213447571e-01
2.586230933666229248e-01 7.649011611938476562e-01 -1.677829176187515259e-01
3.506498336791992188e-01 7.883608937263488770e-01 -8.372946083545684814e-02
1.417710632085800171e-01 8.257766962051391602e-01 -2.124924957752227783e-01
3.756222426891326904e-01 7.851213812828063965e-01 2.925298921763896942e-02
1.707780659198760986e-01 1.009508252143859863e+00 -1.129759997129440308e-01
1.368501186370849609e-01 7.462433576583862305e-01 1.835798770189285278e-01
2.425292581319808960e-01 1.017161965370178223e+00 -1.403217464685440063e-01
1.637681722640991211e-01 6.442956924438476562e-01 4.667016863822937012e-02
2.470864951610565186e-01 7.847974896430969238e-01 -1.916114687919616699e-01
2.326440960168838501e-01 9.483627080917358398e-01 5.940075963735580444e-02
2.799343764781951904e-01 9.021015763282775879e-01 1.135953739285469055e-01
2.838178575038909912e-01 7.023758292198181152e-01 -7.583928853273391724e-02
2.332938462495803833e-01 7.367029190063476562e-01 2.492430359125137329e-01
2.616296708583831787e-01 6.228820681571960449e-01 8.260776102542877197e-02
1.454169750213623047e-01 6.662352085113525391e-01 1.659183651208877563e-01
1.576302349567413330e-01 8.745323419570922852e-01 1.240172237157821655e-01
3.385077714920043945e-01 8.532323837280273438e-01 1.165302991867065430e-01
8.447246253490447998e-02 7.537429332733154297e-01 -2.591250091791152954e-02
1.788772642612457275e-01 6.688837409019470215e-01 2.196042388677597046e-01
7.797852158546447754e-02 8.793066143989562988e-01 -1.290076673030853271e-01
1.771404743194580078e-01 9.706486463546752930e-01 2.617108635604381561e-03
2.779006361961364746e-01 9.753274917602539062e-01 -1.360054127871990204e-02
9.907191246747970581e-02 7.820690274238586426e-01 1.094918400049209595e-01
3.482199311256408691e-01 9.211136102676391602e-01 -6.027564406394958496e-02
1.068179607391357422e-01 7.007078528404235840e-01 8.771903812885284424e-02
2.875545322895050049e-01 9.941480159759521484e-01 -1.490384638309478760e-01
2.885428369045257568e-01 6.572161912918090820e-01 1.020167209208011627e-02
3.031520247459411621e-01 7.779706120491027832e-01 -1.470703333616256714e-01
3.304240703582763672e-01 6.684939265251159668e-01 6.590013951063156128e-02
2.087656557559967041e-01 9.035241007804870605e-01 1.193786561489105225e-01
2.297651320695877075e-01 9.149470329284667969e-01 1.082709953188896179e-01
3.436446189880371094e-01 7.578066587448120117e-01 1.792440563440322876e-01
1.803102344274520874e-01 7.278618812561035156e-01 -1.328294873237609863e-01
8.575974404811859131e-02 9.133608341217041016e-01 -1.459334492683410645e-01
9.054946899414062500e-02 8.275995850563049316e-01 -1.482298523187637329e-01
3.171115219593048096e-01 9.109349846839904785e-01 6.823360174894332886e-02
8.021861314773559570e-02 8.468439579010009766e-01 -1.324553042650222778e-01
2.619644403457641602e-01 9.190418720245361328e-01 9.828168153762817383e-02
1.831618547439575195e-01 8.036095499992370605e-01 -2.134326845407485962e-01
8.886849880218505859e-02 7.492702603340148926e-01 7.242152094841003418e-02
8.731769025325775146e-02 7.803819775581359863e-01 -8.973846584558486938e-02
2.517488002777099609e-01 9.619289636611938477e-01 -2.532146275043487549e-01
2.428447008132934570e-01 6.775637269020080566e-01 -6.025042384862899780e-02
2.820677459239959717e-01 9.797236323356628418e-01 -3.048738464713096619e-02
3.376930356025695801e-01 8.943936228752136230e-01 -1.525181084871292114e-01
1.251453757286071777e-01 9.774173498153686523e-01 -9.436374157667160034e-02
1.148563474416732788e-01 8.688613772392272949e-01 -2.128453552722930908e-01
1.675974875688552856e-01 6.559424400329589844e-01 1.945900619029998779e-01
7.220943272113800049e-02 8.150176405906677246e-01 -6.526977568864822388e-02
2.101072967052459717e-01 9.347477555274963379e-01 7.800494134426116943e-02
3.386901915073394775e-01 8.024823665618896484e-01 -1.192561686038970947e-01
1.441830843687057495e-01 7.081229686737060547e-01 -7.990020513534545898e-02
1.237024739384651184e-01 6.959120035171508789e-01 1.478216350078582764e-01
2.064354419708251953e-01 6.262966394424438477e-01 1.950169354677200317e-01
2.617653608322143555e-01 8.177170157432556152e-01 2.052553892135620117e-01
1.818319857120513916e-01 9.143119454383850098e-01 9.473271667957305908e-02
3.755133152008056641e-01 8.177781105041503906e-01 2.862604893743991852e-02
3.442699909210205078e-01 7.360202074050903320e-01 -3.892435878515243530e-02
1.390970051288604736e-01 7.014645338058471680e-01 -6.209605187177658081e-02
1.363040804862976074e-01 6.669544577598571777e-01 1.409178972244262695e-01
2.968322634696960449e-01 9.078788161277770996e-01 9.441835433244705200e-02
7.050834596157073975e-02 8.501455187797546387e-01 -5.766358971595764160e-02
2.973962426185607910e-01 9.696192145347595215e-01 -2.592300251126289368e-02
3.519250154495239258e-01 8.587125539779663086e-01 -1.174556612968444824e-01
1.386279910802841187e-01 9.271107316017150879e-01 3.958812355995178223e-02
1.972224116325378418e-01 6.208268404006958008e-01 9.938304126262664795e-02
1.615923643112182617e-01 9.729107022285461426e-01 -1.565099507570266724e-02
3.623230457305908203e-01 8.332236409187316895e-01 8.705123513936996460e-02
1.286306977272033691e-01 9.880634546279907227e-01 -1.461041718721389771e-01
2.084239423274993896e-01 9.851630330085754395e-01 -1.235563587397336960e-02
3.218781948089599609e-01 8.072615265846252441e-01 -1.490329951047897339e-01
3.256918489933013916e-01 6.761586666107177734e-01 2.942389436066150665e-02
3.716132044792175293e-01 7.886020541191101074e-01 8.918312191963195801e-02
3.525903224945068359e-01 8.707047700881958008e-01 6.442904472351074219e-02
2.676854729652404785e-01 6.206477284431457520e-01 1.022628396749496460e-01
1.553311794996261597e-01 1.007595300674438477e+00 -1.576161980628967285e-01
1.116049066185951233e-01 8.234056830406188965e-01 1.134813800454139709e-01
3.550378680229187012e-01 9.063097238540649414e-01 -4.846473038196563721e-02
2.928150892257690430e-01 8.005940914154052734e-01 -1.762302219867706299e-01
2.092812806367874146e-01 1.016450047492980957e+00 -2.076229155063629150e-01
9.706003963947296143e-02 9.096524119377136230e-01 -1.893562078475952148e-01
1.491366773843765259e-01 9.156983494758605957e-01 6.763063371181488037e-02
2.717321217060089111e-01 9.960141181945800781e-01 -1.946502774953842163e-01
8.656150102615356445e-02 9.113417267799377441e-01 -5.280000716447830200e-02
3.706347048282623291e-01 8.524343967437744141e-01 -2.902987413108348846e-02
3.120683431625366211e-01 9.604279994964599609e-01 -1.668645888566970825e-01
1.768239736557006836e-01 9.048652648925781250e-01 -2.676604092121124268e-01
2.048344016075134277e-01 9.677206873893737793e-01 2.220199443399906158e-02
8.504386246204376221e-02 7.792064547538757324e-01 6.814552098512649536e-02
7.500499486923217773e-02 7.834423184394836426e-01 -2.524167671799659729e-02
2.655057907104492188e-01 8.510683178901672363e-01 1.760278046131134033e-01
3.500878810882568359e-01 7.276055812835693359e-01 -1.137567963451147079e-02
2.407574951648712158e-01 6.483436822891235352e-01 2.391980886459350586e-01
3.583510816097259521e-01 8.807181715965270996e-01 -8.996023982763290405e-02
1.304078698158264160e-01 7.483838200569152832e-01 -1.251342743635177612e-01
1.294479072093963623e-01 6.668536663055419922e-01 6.576333940029144287e-02
2.303227633237838745e-01 7.901417016983032227e-01 2.248919904232025146e-01
1.056226864457130432e-01 6.991320848464965820e-01 5.433499068021774292e-02
3.465086817741394043e-01 9.161678552627563477e-01 -1.065610125660896301e-01
2.085720896720886230e-01 6.661969423294067383e-01 -4.284328967332839966e-02
3.677111864089965820e-01 8.125315308570861816e-01 -5.023042857646942139e-02
1.758093833923339844e-01 9.616207480430603027e-01 1.876335404813289642e-02
3.672399222850799561e-01 7.321172952651977539e-01 8.025431632995605469e-02
1.092916801571846008e-01 8.318641781806945801e-01 -1.843415647745132446e-01
1.913641393184661865e-01 7.600939869880676270e-01 2.274367213249206543e-01
9.580138325691223145e-02 7.526363730430603027e-01 1.015661284327507019e-01
2.006500065326690674e-01 7.681309580802917480e-01 -1.832571625709533691e-01
3.074200749397277832e-01 6.645253896713256836e-01 2.025939337909221649e-02
3.304768800735473633e-01 9.496033787727355957e-01 -1.080754697322845459e-01
7.983060181140899658e-02 7.710307836532592773e-01 3.771471977233886719e-02
3.049782812595367432e-01 8.811163902282714844e-01 -2.065384984016418457e-01
2.896353304386138916e-01 6.637592315673828125e-01 2.328717708587646484e-01
1.200554221868515015e-01 7.649191617965698242e-01 -1.337791830301284790e-01
3.020672798156738281e-01 8.396080136299133301e-01 1.696595251560211182e-01
3.561608195304870605e-01 7.888790369033813477e-01 1.407236009836196899e-01
1.913678050041198730e-01 6.389008760452270508e-01 2.031695246696472168e-01
3.007651269435882568e-01 8.629498481750488281e-01 -2.055758386850357056e-01
1.796308010816574097e-01 1.008988976478576660e+00 -2.185471355915069580e-01
1.631434410810470581e-01 8.223602175712585449e-01 1.740930825471878052e-01
9.435507655143737793e-02 9.163041710853576660e-01 -3.074416704475879669e-02
2.454544603824615479e-01 1.016451358795166016e+00 -1.608906388282775879e-01
2.465953528881072998e-01 9.552431106567382812e-01 4.587969928979873657e-02
1.767558157444000244e-01 9.342353343963623047e-01 6.413850933313369751e-02
2.615355253219604492e-01 9.128614664077758789e-01 -2.524565458297729492e-01
2.555581331253051758e-01 1.002622127532958984e+00 -2.068772315979003906e-01
2.443384975194931030e-01 1.000619053840637207e+00 -5.622678250074386597e-02
2.659780383110046387e-01 9.899548292160034180e-01 -2.160483449697494507e-01
2.140439152717590332e-01 7.847837209701538086e-01 -1.991741061210632324e-01
2.966103553771972656e-01 7.918071150779724121e-01 2.102375924587249756e-01
3.271525800228118896e-01 6.607211232185363770e-01 8.369648456573486328e-02
2.830198407173156738e-01 8.868630528450012207e-01 1.311168670654296875e-01
1.516911983489990234e-01 7.057198286056518555e-01 2.025896906852722168e-01
2.690460681915283203e-01 1.005423545837402344e+00 -1.640241295099258423e-01
3.583725690841674805e-01 8.974412083625793457e-01 -3.288935497403144836e-02
2.946562767028808594e-01 7.403696775436401367e-01 2.355929315090179443e-01
7.196767628192901611e-02 8.343936800956726074e-01 -8.327385038137435913e-02
1.803659647703170776e-01 8.315932750701904297e-01 -2.339569479227066040e-01
1.539787054061889648e-01 9.904387593269348145e-01 -6.913422048091888428e-02
3.681488633155822754e-01 7.844047546386718750e-01 -2.646186016499996185e-02
1.016610413789749146e-01 9.529645442962646484e-01 -1.529311090707778931e-01
1.881615966558456421e-01 7.231048345565795898e-01 2.357525974512100220e-01
3.469668924808502197e-01 6.839456558227539062e-01 1.232722997665405273e-01
7.330021262168884277e-02 8.500458002090454102e-01 -1.010567843914031982e-01
2.551892995834350586e-01 9.934634566307067871e-01 -4.173380881547927856e-02
7.475841790437698364e-03 -8.372663855552673340e-01 -3.212321698665618896e-01
-1.574821323156356812e-01 -7.438992857933044434e-01 -1.372517086565494537e-02
-1.417884379625320435e-01 -9.412174224853515625e-01 6.815496087074279785e-02
-6.893064081668853760e-02 -9.580780863761901855e-01 8.555530011653900146e-02
-1.121992766857147217e-01 -9.381393194198608398e-01 1.369574218988418579e-01
-2.153349220752716064e-01 -8.386955261230468750e-01 -1.731693148612976074e-01
-1.288529634475708008e-01 -8.719143271446228027e-01 -2.539691329002380371e-01
2.008125558495521545e-02 -9.716546535491943359e-01 5.138387531042098999e-02
-1.619007289409637451e-01 -8.382251262664794922e-01 2.249128073453903198e-01
-2.644153311848640442e-02 -7.149587273597717285e-01 -3.675973042845726013e-02
-1.070892214775085449e-01 -9.545650482177734375e-01 -3.316155076026916504e-02
2.324149161577224731e-01 -9.357040524482727051e-01 -1.426941454410552979e-01
2.087357193231582642e-01 -9.463455080986022949e-01 -1.254384219646453857e-01
-2.096731066703796387e-01 -9.136455655097961426e-01 -2.985110878944396973e-02
-2.264064848423004150e-01 -8.954684734344482422e-01 6.527660042047500610e-02
2.783371508121490479e-01 -7.739924192428588867e-01 1.457480788230895996e-01
1.693275719881057739e-01 -9.504104852676391602e-01 1.429401338100433350e-01
-1.463989019393920898e-01 -7.526131272315979004e-01 -1.298807710409164429e-01
2.189375758171081543e-01 -8.668542504310607910e-01 -2.724362611770629883e-01
5.725330486893653870e-02 -7.433882951736450195e-01 1.989705413579940796e-01
3.454374372959136963e-01 -8.889019489288330078e-01 6.739839911460876465e-02
1.613921821117401123e-01 -7.873442769050598145e-01 -2.787229418754577637e-01
-9.647755324840545654e-02 -7.438194751739501953e-01 -1.603411436080932617e-01
-2.302628457546234131e-01 -7.989358305931091309e-01 8.469074219465255737e-02
1.680397689342498779e-01 -7.547305822372436523e-01 -2.207986414432525635e-01
-6.288617849349975586e-02 -7.307629585266113281e-01 1.108991205692291260e-01
-1.044673472642898560e-01 -9.495632052421569824e-01 -9.225000441074371338e-02
-1.581143885850906372e-01 -9.318125247955322266e-01 8.983612805604934692e-02
-3.231578692793846130e-02 -7.242810726165771484e-01 -1.260557174682617188e-01
1.803174465894699097e-01 -9.173859357833862305e-01 -2.336165606975555420e-01
1.820376068353652954e-01 -7.315437197685241699e-01 1.049608811736106873e-01
2.332017719745635986e-01 -8.133022189140319824e-01 2.463537007570266724e-01
1.172873228788375854e-01 -7.141955494880676270e-01 -5.801375210285186768e-02
3.477340936660766602e-01 -8.458161950111389160e-01 -1.333450973033905029e-01
-1.778687834739685059e-01 -9.002685546875000000e-01 1.598784625530242920e-01
1.393627971410751343e-01 -7.368533611297607422e-01 -1.839346140623092651e-01
-2.948274835944175720e-02 -8.726316094398498535e-01 2.923901081085205078e-01
2.154858857393264771e-01 -8.395860791206359863e-01 -2.820818126201629639e-01
2.833470329642295837e-02 -8.892573118209838867e-01 2.917098999023437500e-01
-3.283850476145744324e-02 -7.311329245567321777e-01 1.353713124990463257e-01
-4.939138889312744141e-04 -9.370074272155761719e-01 2.122043371200561523e-01
2.674764692783355713e-01 -7.441961169242858887e-01 -2.306269854307174683e-02
2.298809587955474854e-02 -7.995033264160156250e-01 -3.081843256950378418e-01
-1.169858723878860474e-01 -9.497308135032653809e-01 6.106702983379364014e-02
4.233548045158386230e-02 -9.391399621963500977e-01 -2.175004035234451294e-01
-2.155124768614768982e-02 -8.116626143455505371e-01 -3.080444037914276123e-01
-1.210244297981262207e-01 -9.451642036437988281e-01 8.829821646213531494e-02
-2.490893006324768066e-01 -8.609911203384399414e-01 7.232552021741867065e-02
-1.953792273998260498e-01 -7.858582139015197754e-01 -1.509059220552444458e-01
1.493418812751770020e-01 -9.134156703948974609e-01 -2.546595931053161621e-01
1.116241216659545898e-01 -8.224575519561767578e-01 -3.173106014728546143e-01
3.335599899291992188e-01 -8.187555074691772461e-01 1.362982243299484253e-01
-8.115258067846298218e-03 -7.135357856750488281e-01 1.928559504449367523e-02
3.553407192230224609e-01 -7.982457876205444336e-01 -2.352115232497453690e-03
3.500451147556304932e-02 -8.915996551513671875e-01 -2.985679805278778076e-01
-2.168949246406555176e-01 -8.954358696937561035e-01 -1.044987440109252930e-01
3.722962439060211182e-01 -8.466475009918212891e-01 -3.981725871562957764e-02
8.949207514524459839e-02 -9.635516405105590820e-01 1.211649328470230103e-01
1.632660776376724243e-01 -9.652615189552307129e-01 4.650763049721717834e-02
5.758762359619140625e-02 -7.155976891517639160e-01 -1.027713567018508911e-01
-1.889841705560684204e-01 -9.242842793464660645e-01 3.960678353905677795e-02
2.905201911926269531e-01 -7.538797855377197266e-01 -2.971280366182327271e-02
2.007637172937393188e-02 -9.728935956954956055e-01 2.785880118608474731e-02
1.496910452842712402e-01 -9.685132503509521484e-01 -1.419968809932470322e-02
2.100255340337753296e-01 -7.298547029495239258e-01 -7.312222570180892944e-02
9.725373983383178711e-02 -8.404526114463806152e-01 -3.222774267196655273e-01
2.713724374771118164e-01 -7.997072935104370117e-01 2.010292559862136841e-01
-1.062457710504531860e-01 -7.562604546546936035e-01 1.686118245124816895e-01
8.948931097984313965e-02 -7.781811356544494629e-01 -2.860551178455352783e-01
3.268788158893585205e-01 -9.071126580238342285e-01 -6.555148959159851074e-02
-7.532025873661041260e-02 -9.343615770339965820e-01 1.837599724531173706e-01
2.294220775365829468e-02 -7.997871637344360352e-01 2.905778884887695312e-01
2.880400419235229492e-01 -7.686330676078796387e-01 -1.349083632230758667e-01
9.986107051372528076e-02 -7.219277620315551758e-01 1.097641214728355408e-01
1.549187600612640381e-01 -8.080449700355529785e-01 2.822701930999755859e-01
1.989279687404632568e-01 -9.569531083106994629e-01 6.857042014598846436e-02
-2.134783193469047546e-02 -9.681121110916137695e-01 5.538271367549896240e-02
1.399451792240142822e-01 -9.631991982460021973e-01 9.700220823287963867e-02
-2.239702939987182617e-01 -8.658100962638854980e-01 1.344176679849624634e-01
2.451433986425399780e-01 -8.731669187545776367e-01 -2.502083778381347656e-01
-4.346191510558128357e-02 -7.480455040931701660e-01 -2.115827649831771851e-01
1.630374342203140259e-01 -9.245041012763977051e-01 2.226794660091400146e-01
3.134485185146331787e-01 -7.809129953384399414e-01 1.027494743466377258e-01
4.055138677358627319e-02 -9.192053675651550293e-01 -2.608779966831207275e-01
3.400303423404693604e-03 -8.149667978286743164e-01 -3.150167167186737061e-01
2.180173397064208984e-01 -8.581718206405639648e-01 2.652938663959503174e-01
-1.783241033554077148e-01 -7.919111251831054688e-01 -1.880141943693161011e-01
1.226798892021179199e-01 -9.267045259475708008e-01 -2.380495220422744751e-01
-5.804040655493736267e-02 -9.618933200836181641e-01 -7.026734203100204468e-02
-7.879933714866638184e-02 -7.276360392570495605e-01 7.181501388549804688e-02
2.410584241151809692e-01 -7.623705863952636719e-01 -1.827030628919601440e-01
-2.037343084812164307e-01 -7.819958925247192383e-01 -1.243286654353141785e-01
-7.700347900390625000e-02 -8.521286249160766602e-01 -2.942869663238525391e-01
-1.340264976024627686e-01 -9.348550438880920410e-01 1.205144822597503662e-01
3.435062989592552185e-02 -9.297789335250854492e-01 -2.394563108682632446e-01
-2.013553977012634277e-01 -7.992024421691894531e-01 1.478257030248641968e-01
-7.280330359935760498e-02 -7.921521067619323730e-01 2.557244598865509033e-01
1.688450127840042114e-01 -7.571749091148376465e-01 2.038047164678573608e-01
-2.479993700981140137e-01 -8.399361371994018555e-01 8.756747096776962280e-02
3.513079881668090820e-02 -9.690216779708862305e-01 8.617064356803894043e-02
-1.071091443300247192e-01 -8.919813036918640137e-01 -2.494029700756072998e-01
-8.511939644813537598e-02 -8.959935903549194336e-01 -2.577865421772003174e-01
9.402716159820556641e-02 -9.640592336654663086e-01 -1.178640797734260559e-01
1.923266798257827759e-01 -9.551796317100524902e-01 9.383501857519149780e-02
-3.997555002570152283e-02 -9.041045308113098145e-01 -2.675841450691223145e-01
-1.633485108613967896e-01 -7.606483697891235352e-01 1.111873611807823181e-01
-5.507246032357215881e-02 -9.587029814720153809e-01 -1.003101095557212830e-01
-8.162342011928558350e-02 -8.130432963371276855e-01 -2.865347564220428467e-01
3.407546132802963257e-02 -9.646620154380798340e-01 -1.176055893301963806e-01
1.177275627851486206e-01 -8.178046345710754395e-01 2.984339594841003418e-01
1.977282315492630005e-01 -9.045321345329284668e-01 -2.461256980895996094e-01
3.505985140800476074e-01 -8.100876808166503906e-01 -9.892400354146957397e-02
1.090781092643737793e-01 -7.976595163345336914e-01 -3.036271035671234131e-01
2.085327059030532837e-01 -7.339505553245544434e-01 -1.092656403779983521e-01
1.802909374237060547e-01 -7.225117683410644531e-01 -5.877211317420005798e-02
2.964542806148529053e-01 -7.636857032775878906e-01 -9.490779787302017212e-02
2.687357366085052490e-01 -7.635152339935302734e-01 -1.505512595176696777e-01
7.998156547546386719e-02 -7.144086360931396484e-01 -8.822814375162124634e-02
2.648794353008270264e-01 -9.351216554641723633e-01 8.743822574615478516e-02
-1.069385707378387451e-01 -8.354157209396362305e-01 -2.799839377403259277e-01
1.259648054838180542e-01 -9.685119390487670898e-01 -6.359118968248367310e-02
-1.494478806853294373e-02 -9.609590768814086914e-01 1.186657696962356567e-01
1.732933074235916138e-01 -9.606292247772216797e-01 7.969771325588226318e-02
6.544753909111022949e-03 -9.112308621406555176e-01 -2.698641419410705566e-01
3.549844920635223389e-01 -8.500850796699523926e-01 1.010418683290481567e-01
-2.126412391662597656e-01 -9.016540646553039551e-01 8.749873936176300049e-02
9.700451046228408813e-02 -9.114319682121276855e-01 2.648591697216033936e-01
-1.277425587177276611e-01 -9.448579549789428711e-01 -7.878417521715164185e-02
2.414334416389465332e-01 -7.752401232719421387e-01 1.908841431140899658e-01
1.299242228269577026e-01 -9.048696160316467285e-01 2.668865621089935303e-01
5.421461537480354309e-02 -7.168141603469848633e-01 8.586277067661285400e-02
-1.450952589511871338e-01 -8.931491971015930176e-01 -2.176163047552108765e-01
2.383865267038345337e-01 -8.501614928245544434e-01 -2.664029896259307861e-01
3.153577148914337158e-01 -7.667284011840820312e-01 -2.896737866103649139e-02
-1.368345767259597778e-01 -7.696198225021362305e-01 -1.942092776298522949e-01
-8.040096610784530640e-03 -8.909423351287841797e-01 -2.928927838802337646e-01
3.165583014488220215e-01 -8.545239567756652832e-01 -1.865148991346359253e-01
1.308261603116989136e-02 -7.302907705307006836e-01 -1.757925748825073242e-01
2.641400098800659180e-01 -7.513921260833740234e-01 8.588328212499618530e-02
2.173632830381393433e-01 -7.385306358337402344e-01 9.866914898157119751e-02
-9.969390928745269775e-02 -9.486130475997924805e-01 1.035759299993515015e-01
2.423599064350128174e-01 -7.420437335968017578e-01 -9.958314150571823120e-02
-2.321717143058776855e-01 -7.856595516204833984e-01 -1.685369573533535004e-02
1.530227512121200562e-01 -9.652730822563171387e-01 -6.562720984220504761e-02
3.208915293216705322e-01 -9.011448025703430176e-01 1.025873199105262756e-01
3.098776042461395264e-01 -8.782234191894531250e-01 1.667927503585815430e-01
2.117312699556350708e-01 -9.266620278358459473e-01 -1.919823586940765381e-01
6.694419682025909424e-02 -9.660623669624328613e-01 1.099544465541839600e-01
-6.541524827480316162e-02 -9.326124191284179688e-01 -1.992730349302291870e-01
3.434072434902191162e-01 -8.704709410667419434e-01 -1.244837939739227295e-01
-1.016240268945693970e-01 -7.272517681121826172e-01 -9.413550607860088348e-03
-1.719614416360855103e-01 -7.714602947235107422e-01 -1.538273394107818604e-01
2.545844763517379761e-03 -9.718663692474365234e-01 -2.679645456373691559e-02
-5.517878755927085876e-02 -8.582959771156311035e-01 2.896884679794311523e-01
4.362500086426734924e-02 -8.407953381538391113e-01 3.111114799976348877e-01
3.020067811012268066e-01 -8.868997693061828613e-01 -1.759434491395950317e-01
-2.559503614902496338e-01 -8.272287249565124512e-01 -6.062257289886474609e-02
3.627612590789794922e-01 -8.096316456794738770e-01 -3.479148820042610168e-02
3.671139478683471680e-02 -9.065083265304565430e-01 2.738494873046875000e-01
-1.760750636458396912e-02 -7.680690884590148926e-01 -2.634652554988861084e-01
1.991723179817199707e-01 -7.535265684127807617e-01 1.748851537704467773e-01
-1.938400566577911377e-01 -7.623685002326965332e-01 -5.849850177764892578e-02
9.840817004442214966e-02 -7.172589302062988281e-01 7.915837317705154419e-02
9.206778556108474731e-02 -9.705846309661865234e-01 -6.683049350976943970e-02
3.085810318589210510e-02 -9.581987261772155762e-01 -1.508259624242782593e-01
-1.092258989810943604e-01 -7.680547237396240234e-01 1.950703710317611694e-01
2.651765346527099609e-01 -8.576470017433166504e-01 -2.429708093404769897e-01
1.042843461036682129e-01 -7.120681405067443848e-01 -2.985619567334651947e-02
7.389624416828155518e-02 -7.962762713432312012e-01 2.885587215423583984e-01
-1.021700352430343628e-01 -7.315699458122253418e-01 6.166098266839981079e-02
-1.902955025434494019e-01 -9.065997004508972168e-01 1.240947693586349487e-01
2.408124133944511414e-02 -7.807385325431823730e-01 -2.896562218666076660e-01
2.044657170772552490e-01 -7.519875764846801758e-01 -1.888824701309204102e-01
-5.354940891265869141e-03 -7.828127741813659668e-01 -2.873197495937347412e-01
-1.723510026931762695e-01 -8.226033449172973633e-01 2.091165184974670410e-01
1.122737377882003784e-01 -9.658116698265075684e-01 -9.844289720058441162e-02
7.661744207143783569e-02 -9.206263422966003418e-01 -2.580669224262237549e-01
2.970045208930969238e-01 -7.925205230712890625e-01 1.594171077013015747e-01
1.874057054519653320e-01 -8.012134432792663574e-01 -2.809357047080993652e-01
3.171425163745880127e-01 -9.162072539329528809e-01 -4.480877891182899475e-02
-7.325293123722076416e-02 -9.389193654060363770e-01 -1.750727742910385132e-01
1.484227180480957031e-01 -9.512059688568115234e-01 1.538430452346801758e-01
-9.984555840492248535e-02 -9.074057936668395996e-01 -2.316785305738449097e-01
2.415297180414199829e-01 -7.354707717895507812e-01 -4.085983149707317352e-03
-9.504629671573638916e-02 -9.374397993087768555e-01 -1.616434603929519653e-01
3.001020848751068115e-01 -7.601475715637207031e-01 -5.544742196798324585e-02
2.641847431659698486e-01 -7.455437183380126953e-01 -6.692529469728469849e-02
3.466897010803222656e-01 -8.803505897521972656e-01 -9.739894419908523560e-02
3.162482380867004395e-01 -9.115885496139526367e-01 7.443882524967193604e-02
-6.921711564064025879e-02 -9.118804931640625000e-01 -2.424269318580627441e-01
1.892007589340209961e-01 -7.230656743049621582e-01 1.069856621325016022e-02
3.414064049720764160e-01 -7.949835062026977539e-01 7.113792002201080322e-02
3.187808394432067871e-01 -8.007565736770629883e-01 1.390711516141891479e-01
1.723860055208206177e-01 -7.196614146232604980e-01 -1.616284623742103577e-02
6.917300820350646973e-02 -8.747017979621887207e-01 3.030988276004791260e-01
2.396457791328430176e-01 -7.459546327590942383e-01 1.031110137701034546e-01
1.439083963632583618e-01 -7.203913927078247070e-01 7.037155330181121826e-02
-2.448158264160156250e-01 -8.409108519554138184e-01 -1.109188124537467957e-01
-1.170309260487556458e-02 -9.622425436973571777e-01 -1.141882911324501038e-01
-1.195938736200332642e-01 -8.721802234649658203e-01 2.500413060188293457e-01
3.662427142262458801e-02 -9.739394187927246094e-01 -1.209383457899093628e-02
2.006913274526596069e-01 -9.441977739334106445e-01 1.410234570503234863e-01
2.286935597658157349e-01 -7.983305454254150391e-01 -2.539471387863159180e-01
-2.345422506332397461e-01 -8.471240401268005371e-01 1.229663342237472534e-01
1.145519167184829712e-01 -7.692313194274902344e-01 -2.687557637691497803e-01
3.247714042663574219e-02 -9.696944952011108398e-01 -7.985079288482666016e-02
2.370508462190628052e-01 -8.477483987808227539e-01 2.548509538173675537e-01
-1.026418954133987427e-01 -9.446944594383239746e-01 -1.232051625847816467e-01
-2.248022556304931641e-01 -8.226827979087829590e-01 1.350395083427429199e-01
6.195694580674171448e-02 -8.946853876113891602e-01 2.879526317119598389e-01
-4.839246347546577454e-02 -7.997401952743530273e-01 -2.916691005229949951e-01
2.268531918525695801e-01 -9.048787951469421387e-01 2.190132141113281250e-01
-1.628028750419616699e-01 -7.478251457214355469e-01 3.421241417527198792e-02
2.328277677297592163e-01 -9.027675390243530273e-01 -2.249199151992797852e-01
2.686233520507812500e-01 -9.384341239929199219e-01 -5.482154712080955505e-02
-1.065346747636795044e-01 -9.549252390861511230e-01 2.640518918633460999e-02
1.256540268659591675e-01 -7.838871479034423828e-01 -2.862713634967803955e-01
2.400685548782348633e-01 -9.449764490127563477e-01 7.941810041666030884e-02
-1.515531986951828003e-01 -8.063966631889343262e-01 -2.341932356357574463e-01
1.911031007766723633e-01 -9.263240098953247070e-01 -2.079159021377563477e-01
2.995668351650238037e-01 -9.217125773429870605e-01 -7.830205559730529785e-02
-2.562695145606994629e-01 -8.673440217971801758e-01 -5.954270251095294952e-03
1.265067011117935181e-01 -9.075964689254760742e-01 -2.709566056728363037e-01
-2.290602326393127441e-01 -7.919021248817443848e-01 -8.457349985837936401e-02
2.484293133020401001e-01 -8.056917786598205566e-01 2.285296171903610229e-01
3.094334602355957031e-01 -7.652397155761718750e-01 3.462376073002815247e-02
-9.036213159561157227e-02 -7.287932634353637695e-01 -8.629679679870605469e-02
2.081600278615951538e-01 -7.477843165397644043e-01 1.492127627134323120e-01
1.340017020702362061e-01 -7.307407855987548828e-01 1.381116509437561035e-01
2.681386768817901611e-01 -8.789056539535522461e-01 2.156075686216354370e-01
9.304530918598175049e-03 -9.668613076210021973e-01 -9.415821731090545654e-02
-2.070739269256591797e-01 -9.117884635925292969e-01 5.708821862936019897e-02
1.993120610713958740e-01 -8.402057290077209473e-01 2.771328389644622803e-01
1.957259923219680786e-01 -9.541652202606201172e-01 -9.783651679754257202e-02
2.389766871929168701e-01 -9.254783391952514648e-01 1.645700484514236450e-01
-8.342970907688140869e-02 -9.172579050064086914e-01 2.183594703674316406e-01
-1.061423718929290771e-01 -8.541409373283386230e-01 2.661579847335815430e-01
3.012525141239166260e-01 -8.560664653778076172e-01 -2.061767429113388062e-01
1.704653054475784302e-01 -8.944239020347595215e-01 -2.732800543308258057e-01
-2.698251232504844666e-02 -9.539299607276916504e-01 -1.485215276479721069e-01
-1.129510402679443359e-01 -9.108625650405883789e-01 2.092983871698379517e-01
3.058094382286071777e-01 -8.942831158638000488e-01 1.489548236131668091e-01
1.098892763257026672e-01 -7.306628227233886719e-01 1.482161879539489746e-01
2.016982883214950562e-01 -9.569203853607177734e-01 -6.467963755130767822e-02
7.433445751667022705e-02 -9.739892482757568359e-01 -1.482271775603294373e-02
6.532672047615051270e-02 -9.534333348274230957e-01 1.705206781625747681e-01
3.068726360797882080e-01 -7.947510480880737305e-01 -1.669308990240097046e-01
-2.136734426021575928e-01 -7.773962020874023438e-01 5.748853832483291626e-02
2.640379369258880615e-01 -9.134519100189208984e-01 1.668339222669601440e-01
-1.193997710943222046e-01 -9.520822763442993164e-01 6.303109694272279739e-03
2.061504274606704712e-01 -7.832568287849426270e-01 -2.510837316513061523e-01
3.262585103511810303e-01 -7.750537991523742676e-01 -4.896022751927375793e-02
-1.970373094081878662e-01 -9.074739813804626465e-01 -1.139019429683685303e-01
2.462906390428543091e-01 -7.830530405044555664e-01 -2.204241305589675903e-01
1.444347947835922241e-02 -7.414333224296569824e-01 -2.132647931575775146e-01
1.097457706928253174e-01 -7.488148212432861328e-01 -2.294338643550872803e-01
8.194112777709960938e-02 -9.541437625885009766e-01 -1.682209372520446777e-01
8.990250527858734131e-03 -9.194028973579406738e-01 2.510297596454620361e-01
1.476298570632934570e-01 -8.580853343009948730e-01 -3.082765340805053711e-01
-2.100255787372589111e-01 -8.731848597526550293e-01 -1.626403182744979858e-01
-8.199024200439453125e-02 -9.039632081985473633e-01 2.412692606449127197e-01
2.877602875232696533e-01 -8.253484368324279785e-01 2.062606066465377808e-01
1.007688939571380615e-01 -7.375744581222534180e-01 1.761309355497360229e-01
4.488797858357429504e-02 -7.917637825012207031e-01 2.844499647617340088e-01
3.975617885589599609e-02 -7.132255434989929199e-01 -7.885241508483886719e-02
-2.710623666644096375e-02 -7.590564489364624023e-01 2.219880670309066772e-01
3.142706155776977539e-01 -8.556827306747436523e-01 1.771150082349777222e-01
-1.385290473699569702e-01 -7.635444998741149902e-01 1.559911072254180908e-01
3.184661269187927246e-01 -9.173034429550170898e-01 -1.380858663469552994e-02
-8.284339308738708496e-02 -7.709273695945739746e-01 2.190878242254257202e-01
1.386739164590835571e-01 -9.541692137718200684e-01 -1.490280032157897949e-01
-7.298667728900909424e-02 -9.626055955886840820e-01 1.329094544053077698e-02
1.739699691534042358e-01 -7.232623100280761719e-01 5.568212643265724182e-02
-1.617789119482040405e-01 -9.355505108833312988e-01 5.173052102327346802e-02
2.865091562271118164e-01 -9.328549504280090332e-01 2.861420437693595886e-02
-8.621510118246078491e-03 -7.646875381469726562e-01 2.387343198060989380e-01
-1.871077120304107666e-01 -7.566108703613281250e-01 -2.532741054892539978e-03
2.956221401691436768e-01 -9.089958071708679199e-01 1.320784091949462891e-01
-1.368336081504821777e-01 -7.391520738601684570e-01 -6.495121121406555176e-02
-1.410398483276367188e-01 -8.981933593750000000e-01 2.060530483722686768e-01
-7.990349829196929932e-02 -9.417670369148254395e-01 1.565294861793518066e-01
1.019431799650192261e-01 -9.688794612884521484e-01 7.841686904430389404e-02
-7.055778056383132935e-03 -7.149976491928100586e-01 4.476546496152877808e-02
1.007869839668273926e-02 -7.418810725212097168e-01 1.898567229509353638e-01
1.918521970510482788e-01 -9.410066604614257812e-01 -1.644223332405090332e-01
1.857481598854064941e-01 -7.335031628608703613e-01 -1.361286044120788574e-01
-5.151394382119178772e-02 -9.382748603820800781e-01 1.878115534782409668e-01
3.038513958454132080e-01 -8.220555782318115234e-01 -2.009179890155792236e-01
-2.352623045444488525e-01 -7.895539402961730957e-01 1.731076091527938843e-02
2.106576114892959595e-01 -8.120720982551574707e-01 -2.764199376106262207e-01
1.121929064393043518e-01 -7.161324024200439453e-01 -8.720770478248596191e-02
3.327969908714294434e-01 -7.793318033218383789e-01 2.431413903832435608e-02
-1.551897674798965454e-01 -8.463143110275268555e-01 -2.443743050098419189e-01
3.684701621532440186e-01 -8.306288123130798340e-01 -5.946638062596321106e-02
6.958115100860595703e-02 -8.284190297126770020e-01 3.086674213409423828e-01
1.965630352497100830e-01 -7.889916896820068359e-01 2.450529187917709351e-01
2.590637207031250000e-01 -8.988969326019287109e-01 2.002227753400802612e-01
1.279861629009246826e-01 -9.445148706436157227e-01 1.869906634092330933e-01
2.500446699559688568e-02 -9.728263020515441895e-01 -3.500862792134284973e-02
9.984007477760314941e-02 -7.127071619033813477e-01 2.733832597732543945e-02
-2.391075491905212402e-01 -8.755148053169250488e-01 -9.219007939100265503e-02
1.205592155456542969e-01 -9.349815249443054199e-01 2.155048996210098267e-01
-1.183762103319168091e-01 -9.203957915306091309e-01 -1.901171207427978516e-01
1.441271975636482239e-02 -7.334966659545898438e-01 1.634380668401718140e-01
3.090472519397735596e-01 -7.746615409851074219e-01 -1.113478317856788635e-01
2.993228286504745483e-02 -7.166898250579833984e-01 -1.081898957490921021e-01
1.777915805578231812e-01 -8.008373379707336426e-01 2.673334777355194092e-01
-7.891808450222015381e-02 -7.422027587890625000e-01 1.469340920448303223e-01
2.522154748439788818e-01 -7.415086030960083008e-01 4.523571580648422241e-02
1.504839584231376648e-02 -7.130887508392333984e-01 -6.582387536764144897e-02
1.206581741571426392e-01 -7.132929563522338867e-01 1.265544909983873367e-03
-4.495761916041374207e-02 -8.363457322120666504e-01 -3.084846735000610352e-01
2.756160497665405273e-01 -9.064633250236511230e-01 -1.749381273984909058e-01
6.553271412849426270e-02 -9.656259417533874512e-01 -1.136518269777297974e-01
1.363717764616012573e-01 -7.229876518249511719e-01 9.614455699920654297e-02
2.267753332853317261e-01 -7.320201992988586426e-01 1.915924251079559326e-02
5.310696735978126526e-02 -7.499050498008728027e-01 -2.387859225273132324e-01
4.510255530476570129e-02 -7.312299013137817383e-01 1.593815237283706665e-01
6.033098325133323669e-02 -9.448832273483276367e-01 -2.017117440700531006e-01
1.337098330259323120e-02 -8.433200716972351074e-01 3.086349666118621826e-01
1.456113606691360474e-01 -7.289258837699890137e-01 -1.479191333055496216e-01
2.867788970470428467e-01 -9.261191487312316895e-01 8.475433290004730225e-02
2.533924207091331482e-02 -8.654703497886657715e-01 -3.172512650489807129e-01
1.127610355615615845e-02 -7.237203717231750488e-01 1.203335225582122803e-01
-1.802617162466049194e-01 -9.289990663528442383e-01 -3.883226215839385986e-02
4.298256337642669678e-02 -9.716906547546386719e-01 6.140311807394027710e-02
9.302248805761337280e-02 -7.449805736541748047e-01 1.998933404684066772e-01
-2.460322380065917969e-01 -8.051512241363525391e-01 4.009515419602394104e-02
2.762586176395416260e-01 -7.944804430007934570e-01 -2.071596086025238037e-01
-1.144551336765289307e-01 -7.566769123077392578e-01 -1.843397915363311768e-01
-2.549133300781250000e-01 -8.585752844810485840e-01 4.905122518539428711e-02
-1.921442151069641113e-01 -8.660991787910461426e-01 -1.960231810808181763e-01
-1.899662986397743225e-02 -8.497834205627441406e-01 3.023489713668823242e-01
-2.516239285469055176e-01 -8.083326816558837891e-01 7.708707358688116074e-03
2.089518606662750244e-01 -9.568307399749755859e-01 4.434550553560256958e-02
2.887374162673950195e-01 -8.633599281311035156e-01 2.054888159036636353e-01
1.184462010860443115e-01 -7.580946087837219238e-01 2.256593108177185059e-01
2.840177416801452637e-01 -8.881711959838867188e-01 -1.974028646945953369e-01
-4.083280637860298157e-02 -8.615950942039489746e-01 -3.051858842372894287e-01
-4.683900251984596252e-02 -9.657059311866760254e-01 -4.424571990966796875e-02
2.948081493377685547e-01 -7.599762082099914551e-01 5.519414693117141724e-02
-1.240262687206268311e-01 -8.234915137290954590e-01 2.509824037551879883e-01
9.300112724304199219e-02 -8.771952390670776367e-01 -3.096001446247100830e-01
-7.163785398006439209e-02 -7.323468923568725586e-01 -1.353017538785934448e-01
-1.805714070796966553e-01 -7.574447989463806152e-01 5.229400843381881714e-02
-4.209550097584724426e-02 -7.504772543907165527e-01 1.956833899021148682e-01
2.708472311496734619e-01 -7.509336471557617188e-01 -8.973480015993118286e-02
1.073333919048309326e-01 -9.568889737129211426e-01 -1.507196575403213501e-01
2.192464768886566162e-01 -7.304600477218627930e-01 -5.138786882162094116e-02
1.322919428348541260e-01 -7.444726228713989258e-01 -2.109181135892868042e-01
5.273593962192535400e-02 -7.276807427406311035e-01 -1.705875545740127563e-01
1.115254685282707214e-01 -8.760910630226135254e-01 2.975725531578063965e-01
1.067094132304191589e-02 -9.607475399971008301e-01 1.318971216678619385e-01
-1.891685575246810913e-01 -9.179652929306030273e-01 8.381032943725585938e-02
-2.209873497486114502e-01 -8.743695616722106934e-01 -1.407648026943206787e-01
-1.835766881704330444e-01 -9.003865718841552734e-01 -1.585796624422073364e-01
3.345009982585906982e-01 -7.880245447158813477e-01 -8.831004798412322998e-02
3.371721208095550537e-01 -8.675740957260131836e-01 1.309935152530670166e-01
-1.326519995927810669e-01 -9.138725996017456055e-01 1.856943219900131226e-01
2.543638050556182861e-01 -8.060688972473144531e-01 -2.411707937717437744e-01
-1.779474318027496338e-01 -7.524380087852478027e-01 -2.511634305119514465e-02
2.979791723191738129e-02 -8.675375580787658691e-01 3.057515323162078857e-01
-1.457045525312423706e-01 -7.403995394706726074e-01 -4.036178439855575562e-02
3.232136368751525879e-01 -7.712060213088989258e-01 -5.185474641621112823e-03
2.774895131587982178e-01 -9.348789453506469727e-01 5.146315693855285645e-02
1.748031005263328552e-02 -7.129285335540771484e-01 3.856695070862770081e-02
7.211696356534957886e-03 -7.686443328857421875e-01 -2.702292501926422119e-01
3.634232580661773682e-01 -8.635991215705871582e-01 -7.075232267379760742e-02
9.674656391143798828e-02 -9.732713699340820312e-01 -7.577597629278898239e-03
2.576682269573211670e-01 -7.698231339454650879e-01 1.618850380182266235e-01
-8.435022085905075073e-03 -8.097313046455383301e-01 2.932531535625457764e-01
1.151881590485572815e-01 -9.380003213882446289e-01 -2.131448686122894287e-01
5.975919961929321289e-02 -9.211578369140625000e-01 2.524666786193847656e-01
1.992958933115005493e-01 -7.247866392135620117e-01 -2.311570197343826294e-02
3.141196966171264648e-01 -9.038348197937011719e-01 -1.175009459257125854e-01
6.515510380268096924e-02 -9.337812662124633789e-01 2.272110432386398315e-01
2.648689448833465576e-01 -7.740193605422973633e-01 -1.840116828680038452e-01
-3.724380955100059509e-02 -7.197144627571105957e-01 6.169590353965759277e-02
1.432919800281524658e-01 -9.656417965888977051e-01 7.368253171443939209e-02
1.570768505334854126e-01 -9.480339288711547852e-01 -1.635429710149765015e-01
-2.204969525337219238e-01 -7.786406874656677246e-01 -5.200511589646339417e-02
-2.212721481919288635e-02 -7.308552265167236328e-01 -1.649024486541748047e-01
1.835056096315383911e-01 -9.264227747917175293e-01 2.075879871845245361e-01
1.160279810428619385e-01 -7.754835486412048340e-01 2.574342191219329834e-01
-1.584642529487609863e-01 -9.280941486358642578e-01 -1.123478263616561890e-01
-4.274240508675575256e-02 -9.160337448120117188e-01 -2.473805397748947144e-01
2.749414443969726562e-01 -7.498070597648620605e-01 4.449521377682685852e-02
8.214609324932098389e-02 -7.483893036842346191e-01 -2.335599958896636963e-01
2.847659885883331299e-01 -7.613441944122314453e-01 9.106031060218811035e-02
-3.917739167809486389e-02 -7.778143882751464844e-01 -2.711917757987976074e-01
2.585495114326477051e-01 -8.411750793457031250e-01 2.385048717260360718e-01
-1.736014038324356079e-01 -7.585226893424987793e-01 -1.020883172750473022e-01
7.511338591575622559e-02 -7.145150899887084961e-01 6.415262073278427124e-02
-1.037246137857437134e-01 -7.343801856040954590e-01 -1.047344654798507690e-01
8.959457278251647949e-02 -7.217892408370971680e-01 -1.381506025791168213e-01
-1.358006596565246582e-01 -7.735078930854797363e-01 1.829996407032012939e-01
9.352287650108337402e-02 -8.597862124443054199e-01 3.073050677776336670e-01
2.545835673809051514e-01 -9.438832998275756836e-01 4.660381376743316650e-02
-1.612644940614700317e-01 -9.088798761367797852e-01 -1.706245094537734985e-01
1.194090545177459717e-01 -9.717918038368225098e-01 -1.537194475531578064e-05
-1.660795882344245911e-02 -7.407332062721252441e-01 1.784853190183639526e-01
3.178271651268005371e-01 -8.320401906967163086e-01 1.715853512287139893e-01
2.825207412242889404e-01 -9.344699978828430176e-01 -3.447109460830688477e-02
1.994922012090682983e-02 -7.829717993736267090e-01 2.722935080528259277e-01
3.428819179534912109e-01 -8.429353833198547363e-01 1.308384090662002563e-01
-4.033190384507179260e-02 -7.167799472808837891e-01 1.485100947320461273e-02
6.664136052131652832e-02 -7.652613520622253418e-01 2.474706321954727173e-01
2.176718711853027344e-01 -7.635502815246582031e-01 -2.077093422412872314e-01
-2.249237298965454102e-01 -8.833457231521606445e-01 1.065232679247856140e-01
1.298832595348358154e-01 -7.141076326370239258e-01 -2.449157647788524628e-02
3.740239739418029785e-01 -8.452562093734741211e-01 -1.438495889306068420e-02
1.825697571039199829e-01 -7.672287821769714355e-01 -2.391987740993499756e-01
1.548131406307220459e-01 -9.417222142219543457e-01 -1.867637038230895996e-01
1.217088997364044189e-01 -9.243809580802917480e-01 2.380919456481933594e-01
-9.861151874065399170e-02 -7.277489304542541504e-01 2.743863314390182495e-02
-1.595343798398971558e-01 -8.753828406333923340e-01 -2.248171567916870117e-01
3.516506552696228027e-01 -7.973856925964355469e-01 3.327675908803939819e-02
-2.432559728622436523e-01 -8.094754815101623535e-01 6.753233075141906738e-02
-1.878053247928619385e-01 -9.265978932380676270e-01 7.762671913951635361e-03
6.008969619870185852e-02 -7.363840341567993164e-01 -2.021015137434005737e-01
-7.681684195995330811e-02 -8.818473815917968750e-01 -2.774814963340759277e-01
-1.642227768898010254e-01 -9.344422221183776855e-01 -5.677830800414085388e-02
-2.134994268417358398e-01 -8.280180692672729492e-01 1.587025523185729980e-01
1.689376384019851685e-01 -8.513490557670593262e-01 2.903913855552673340e-01
-1.926235258579254150e-01 -7.755722999572753906e-01 1.083789989352226257e-01
-6.288014352321624756e-02 -7.598424553871154785e-01 2.078874111175537109e-01
3.262961208820343018e-01 -9.099255800247192383e-01 4.172948002815246582e-02
6.474898755550384521e-02 -7.854332923889160156e-01 -2.966609895229339600e-01
-1.194300651550292969e-01 -7.482769489288330078e-01 1.283638924360275269e-01
1.438227742910385132e-01 -8.810598254203796387e-01 2.865566611289978027e-01
-1.316226571798324585e-01 -8.890122771263122559e-01 2.263375073671340942e-01
-2.142523527145385742e-01 -8.048961162567138672e-01 -1.514756232500076294e-01
3.723072707653045654e-01 -8.397465944290161133e-01 2.658909186720848083e-02
3.293228149414062500e-01 -8.153688907623291016e-01 -1.569250375032424927e-01
3.416918516159057617e-01 -7.886918783187866211e-01 -6.011492386460304260e-02
1.161489561200141907e-01 -9.704129099845886230e-01 4.937826842069625854e-02
-1.764377355575561523e-01 -8.583605885505676270e-01 2.078717052936553955e-01
3.578719496726989746e-01 -8.845303058624267578e-01 -1.078022457659244537e-02
-6.937524676322937012e-02 -7.206631302833557129e-01 -1.142642647027969360e-02
-2.578462287783622742e-02 -9.696440696716308594e-01 -1.129192672669887543e-02
-1.943749487400054932e-01 -9.166325926780700684e-01 -8.090928196907043457e-02
4.581052064895629883e-02 -7.114499211311340332e-01 -5.528618395328521729e-02
2.529790997505187988e-01 -9.388791322708129883e-01 -9.498997032642364502e-02
-1.774206310510635376e-01 -7.558894157409667969e-01 -7.398166507482528687e-02
2.069299519062042236e-01 -9.263658523559570312e-01 1.916943490505218506e-01
1.667291074991226196e-01 -9.520344734191894531e-01 -1.400378644466400146e-01
2.017821371555328369e-01 -8.826265335083007812e-01 2.611341774463653564e-01
2.841806411743164062e-01 -8.915494680404663086e-01 1.837238371372222900e-01
-9.995508193969726562e-02 -7.590746283531188965e-01 -2.034694999456405640e-01
3.631747663021087646e-01 -8.756765723228454590e-01 2.022575773298740387e-02
2.286045104265213013e-01 -7.434586882591247559e-01 -1.314096748828887939e-01
-2.019852101802825928e-01 -8.365640640258789062e-01 -1.930263042449951172e-01
-5.403917655348777771e-02 -7.759259343147277832e-01 2.423641681671142578e-01
