-9.317623823881149292e-02 1.297608390450477600e-02 3.488777279853820801e-01
-3.372613191604614258e-01 -1.703946441411972046e-01 -6.293818354606628418e-02
2.833856642246246338e-02 -2.776821143925189972e-02 2.394937276840209961e-01
-1.029085889458656311e-01 1.693559885025024414e-01 1.544742882251739502e-01
-2.115413248538970947e-01 -6.335847824811935425e-02 3.393497169017791748e-01
1.089666783809661865e-02 -1.124984994530677795e-01 1.429098397493362427e-01
-3.782167434692382812e-01 -1.413417160511016846e-01 8.955192565917968750e-02
-1.962857246398925781e-01 -1.213399171829223633e-01 -3.171990811824798584e-01
-4.431363344192504883e-01 -6.339552998542785645e-02 -1.306079477071762085e-01
-1.622357517480850220e-01 -2.023924887180328369e-02 -3.786523342132568359e-01
-2.952216267585754395e-01 -1.334226429462432861e-01 2.208973467350006104e-01
-4.651806354522705078e-01 -1.038479153066873550e-03 -5.657636001706123352e-02
-4.310677647590637207e-01 -9.338422119617462158e-02 1.025346368551254272e-01
-4.322839379310607910e-01 6.578648090362548828e-02 1.095469295978546143e-01
-4.491362571716308594e-01 -6.979370117187500000e-02 -9.761826694011688232e-02
-4.333879053592681885e-02 -1.211336925625801086e-01 -2.589235901832580566e-01
9.933352470397949219e-03 -8.046541363000869751e-02 2.091580480337142944e-01
-3.627591729164123535e-01 -2.740537002682685852e-02 2.865864038467407227e-01
-2.515916526317596436e-01 1.737215518951416016e-01 8.823724091053009033e-02
3.517356514930725098e-02 8.937286585569381714e-02 1.959210485219955444e-01
-2.848221659660339355e-01 -1.851692795753479004e-01 1.971364021301269531e-02
-1.775374412536621094e-01 -1.356601864099502563e-01 -2.961323559284210205e-01
-3.765828013420104980e-01 1.008943989872932434e-01 -1.372419148683547974e-01
-9.356831759214401245e-02 -5.202737823128700256e-02 3.257979154586791992e-01
-5.380466580390930176e-03 -6.008870899677276611e-02 -2.972094416618347168e-01
-3.034533858299255371e-01 6.950817257165908813e-02 3.096426427364349365e-01
-2.082648277282714844e-01 -1.952691972255706787e-01 -8.583121001720428467e-03
-3.742063045501708984e-01 1.146659925580024719e-01 -9.478202462196350098e-02
1.157609969377517700e-01 1.832110807299613953e-03 -3.379905223846435547e-02
-7.127936184406280518e-02 -1.699137836694717407e-01 -1.382424086332321167e-01
-1.891819387674331665e-01 5.053345486521720886e-02 -3.516880571842193604e-01
-1.983351856470108032e-01 1.287967711687088013e-01 -2.462092936038970947e-01
9.922783076763153076e-02 -5.415941774845123291e-02 -5.821734666824340820e-02
-3.516513705253601074e-01 -1.427182555198669434e-01 1.391315311193466187e-01
-3.800643086433410645e-01 4.335034638643264771e-02 2.563326060771942139e-01
-2.571589350700378418e-01 1.746741533279418945e-01 5.549532175064086914e-02
-4.152259230613708496e-01 -1.268116086721420288e-01 -2.119990251958370209e-02
-1.147526428103446960e-01 1.249766498804092407e-01 -2.542465329170227051e-01
4.802601039409637451e-02 1.150581091642379761e-01 -1.018656045198440552e-01
-1.471053659915924072e-01 -1.186740696430206299e-01 -3.182745873928070068e-01
-2.858652770519256592e-01 1.676850765943527222e-01 2.874575555324554443e-02
-3.742872774600982666e-01 9.284169971942901611e-02 -1.630784869194030762e-01
-4.192702472209930420e-01 9.204582124948501587e-02 6.811791099607944489e-04
-3.289111852645874023e-01 7.725784182548522949e-02 2.818512916564941406e-01
-4.548546075820922852e-01 -5.987598001956939697e-02 8.616159856319427490e-02
-1.826337277889251709e-01 1.161870285868644714e-01 3.009503483772277832e-01
2.516099810600280762e-02 -1.334879696369171143e-01 -5.272043868899345398e-02
-8.980546146631240845e-02 -1.810487061738967896e-01 -8.665829896926879883e-02
5.045758187770843506e-02 -3.432394005358219147e-03 2.183559536933898926e-01
-3.487939238548278809e-01 8.679227530956268311e-02 2.486877888441085815e-01
4.924885928630828857e-02 9.358532726764678955e-02 1.616595089435577393e-01
-4.495916962623596191e-01 -7.858534157276153564e-02 6.441950798034667969e-02
-2.235996723175048828e-02 -8.851199597120285034e-02 2.362763732671737671e-01
-2.500992417335510254e-01 -6.502729654312133789e-02 3.313477337360382080e-01
-1.779291778802871704e-01 1.120213195681571960e-01 -2.813785672187805176e-01
-1.121847406029701233e-01 1.778137832880020142e-01 -7.387770712375640869e-02
-1.711303740739822388e-01 -1.396990120410919189e-01 2.354666143655776978e-01
1.902632415294647217e-02 1.443876773118972778e-01 4.713774845004081726e-02
-4.019521474838256836e-01 5.761338770389556885e-02 2.081874459981918335e-01
-8.243198692798614502e-02 1.548876911401748657e-01 1.941379755735397339e-01
-3.966625630855560303e-01 -9.909320622682571411e-02 1.738844066858291626e-01
-2.978432178497314453e-01 1.319968253374099731e-01 -1.742881685495376587e-01
-1.393308788537979126e-01 -1.919859945774078369e-01 -4.971367120742797852e-02
-3.005700111389160156e-01 -1.831346601247787476e-01 -1.712447963654994965e-02
-2.185746133327484131e-01 1.749232411384582520e-01 -7.749217748641967773e-02
6.495235860347747803e-02 8.556595444679260254e-02 -1.440519094467163086e-01
-7.106322795152664185e-02 1.758307069540023804e-01 6.911902129650115967e-02
-1.140277609229087830e-01 1.469446569681167603e-01 -2.030583322048187256e-01
-3.699028491973876953e-01 -9.320868551731109619e-02 2.230854034423828125e-01
9.930779039859771729e-02 -3.918955102562904358e-02 -1.080590933561325073e-01
-3.352714180946350098e-01 -1.723687797784805298e-01 -1.732859760522842407e-02
-2.871453762054443359e-03 1.070267483592033386e-01 2.238722592592239380e-01
-4.164206087589263916e-01 8.622787892818450928e-02 -6.586928665637969971e-02
-1.772360354661941528e-01 -1.946859210729598999e-01 -6.688602268695831299e-02
-2.859785258769989014e-01 1.604807823896408081e-01 -7.204842567443847656e-02
-4.204202294349670410e-01 4.062531515955924988e-02 1.902677863836288452e-01
-4.411305785179138184e-01 5.089859291911125183e-02 -8.129397034645080566e-02
-2.946069240570068359e-01 1.637170463800430298e-01 -1.396952942013740540e-02
-3.772898018360137939e-02 2.581894397735595703e-02 -3.308496773242950439e-01
-3.999096453189849854e-01 4.067048430442810059e-02 2.291463464498519897e-01
-2.065706104040145874e-01 -1.644856333732604980e-01 -2.323633134365081787e-01
-8.989248424768447876e-02 -1.574931889772415161e-01 -2.140014320611953735e-01
-2.686015963554382324e-01 -5.096277967095375061e-02 -3.521798253059387207e-01
-3.980275392532348633e-01 9.972359240055084229e-02 -8.152067661285400391e-02
-2.691124379634857178e-02 1.234640032052993774e-01 2.218385487794876099e-01
-9.277347475290298462e-02 -1.738400906324386597e-01 7.922519743442535400e-02
-1.489395648241043091e-01 1.017466336488723755e-01 -2.983664274215698242e-01
3.862898051738739014e-02 1.338636428117752075e-01 1.913113519549369812e-02
-3.062176704406738281e-02 1.110083907842636108e-01 2.476228028535842896e-01
-1.216482222080230713e-01 8.500798046588897705e-02 -3.171990811824798584e-01
-6.742011010646820068e-02 1.718170344829559326e-01 -6.600181758403778076e-02
9.092061221599578857e-02 -1.225177943706512451e-02 1.273211389780044556e-01
-1.216619163751602173e-01 -1.551546603441238403e-01 1.794760376214981079e-01
-3.662229776382446289e-01 -1.562748551368713379e-01 3.448995947837829590e-02
5.104313790798187256e-02 1.223918348550796509e-01 -4.670207574963569641e-02
-1.516033113002777100e-01 1.501316949725151062e-02 3.653290271759033203e-01
-1.140155121684074402e-01 -1.719748824834823608e-01 1.136364936828613281e-01
-2.611359059810638428e-01 -1.898944377899169922e-01 -7.216745615005493164e-02
1.149661391973495483e-01 2.567888423800468445e-02 -1.212952286005020142e-02
-2.644632458686828613e-01 -1.653036922216415405e-01 1.544752269983291626e-01
5.640749633312225342e-02 -1.086669936776161194e-01 -6.247327104210853577e-02
-3.034456372261047363e-01 -1.207680329680442810e-01 -2.752183377742767334e-01
-4.141345024108886719e-01 -6.703879684209823608e-02 1.908980160951614380e-01
-3.786044716835021973e-01 1.193775758147239685e-01 -5.432963743805885315e-02
-1.217927709221839905e-01 -1.381674706935882568e-01 2.225996255874633789e-01
-1.891015470027923584e-01 1.839363723993301392e-01 6.956477463245391846e-02
-1.213813126087188721e-01 -1.587028801441192627e-01 -2.323292195796966553e-01
1.093889325857162476e-01 1.695503853261470795e-02 6.253893673419952393e-02
-1.887252926826477051e-02 2.939011715352535248e-02 3.013193905353546143e-01
7.771800458431243896e-02 -5.646998807787895203e-02 1.118801683187484741e-01
-3.902451992034912109e-01 -7.629081606864929199e-02 2.187730520963668823e-01
5.153286457061767578e-02 1.248134374618530273e-01 -2.050074283033609390e-03
-1.622376441955566406e-01 4.168505594134330750e-02 -3.595235049724578857e-01
-4.644821882247924805e-01 2.049110084772109985e-02 3.258800134062767029e-02
-3.279444575309753418e-01 -1.221161484718322754e-01 2.183849066495895386e-01
-4.612868428230285645e-01 1.540807448327541351e-02 7.988132536411285400e-02
-3.185313344001770020e-01 1.562268286943435669e-01 2.214523218572139740e-02
-3.832115232944488525e-01 5.320573225617408752e-02 -2.175310999155044556e-01
3.596703708171844482e-02 -1.213245615363121033e-01 -1.028648316860198975e-01
-4.403927326202392578e-01 6.735525280237197876e-02 4.123842716217041016e-02
-3.004185259342193604e-01 -1.784057170152664185e-01 5.267317965626716614e-02
-1.270448267459869385e-01 1.695239394903182983e-01 1.669628173112869263e-01
-3.864518702030181885e-01 1.147070080041885376e-01 9.447960555553436279e-02
-7.529152929782867432e-02 1.784261316061019897e-01 3.560504317283630371e-02
-3.120814263820648193e-02 -1.593627631664276123e-01 -1.089085489511489868e-01
-7.032629847526550293e-02 5.188291892409324646e-02 3.298416137695312500e-01
-4.152324795722961426e-02 -1.668523252010345459e-01 -2.808731049299240112e-03
-1.702986210584640503e-01 -1.551076471805572510e-01 1.986793726682662964e-01
-4.211153984069824219e-01 -2.947203349322080612e-03 -1.995298862457275391e-01
-1.397020816802978516e-01 1.820415109395980835e-01 9.804682433605194092e-02
-3.803644776344299316e-01 9.935654699802398682e-02 1.735507398843765259e-01
-4.074891507625579834e-01 1.002201437950134277e-01 -3.195836767554283142e-02
-1.379526704549789429e-01 2.136164717376232147e-02 -3.687254786491394043e-01
-1.268900930881500244e-01 2.651407569646835327e-02 3.592685461044311523e-01
-2.764346003532409668e-01 -1.184081435203552246e-01 -2.961765825748443604e-01
-3.770352005958557129e-01 -1.096858009696006775e-01 -2.102674692869186401e-01
-8.483657240867614746e-02 -1.461934000253677368e-01 -2.413530647754669189e-01
-2.460713386535644531e-01 -1.642321944236755371e-01 -2.208871543407440186e-01
-1.018468737602233887e-01 -1.788536459207534790e-01 -1.326055675745010376e-01
-3.167650699615478516e-01 1.014975011348724365e-01 -2.255732119083404541e-01
-4.008103609085083008e-01 -4.113712906837463379e-02 -2.362261116504669189e-01
2.618891000747680664e-02 -2.026480063796043396e-02 -2.809134721755981445e-01
-4.065025448799133301e-01 -1.176156252622604370e-01 1.050902903079986572e-01
-1.192856431007385254e-01 1.842114180326461792e-01 -8.176653645932674408e-03
-3.582396507263183594e-01 -1.321164220571517944e-01 -1.944010257720947266e-01
-2.450028657913208008e-01 1.427384763956069946e-01 2.326244413852691650e-01
-2.010309696197509766e-01 -8.796517550945281982e-02 -3.515220582485198975e-01
-2.126227766275405884e-01 1.151492893695831299e-01 -2.685100138187408447e-01
-2.321752160787582397e-01 1.679160445928573608e-01 1.542777866125106812e-01
-1.764758974313735962e-01 1.687783449888229370e-01 1.762725859880447388e-01
-2.306421399116516113e-01 1.144716329872608185e-02 3.636360466480255127e-01
-1.405675709247589111e-02 1.604897528886795044e-01 -1.255280524492263794e-02
-3.100579380989074707e-01 1.094684936106204987e-02 3.322965502738952637e-01
-2.840750217437744141e-01 -8.411863446235656738e-02 3.016029000282287598e-01
-2.217039018869400024e-01 1.368857324123382568e-01 2.570590078830718994e-01
4.373717308044433594e-02 -1.082850545644760132e-01 7.317890226840972900e-02
-2.351089715957641602e-01 1.781902760267257690e-01 -2.093592658638954163e-02
-1.442275047302246094e-01 1.862617880105972290e-01 1.975983195006847382e-02
9.199436008930206299e-02 -3.948955610394477844e-02 -1.397005170583724976e-01
-3.859412670135498047e-01 -2.284531481564044952e-02 2.624869346618652344e-01
-4.683021903038024902e-01 6.942885462194681168e-03 1.969643402844667435e-03
-3.582249283790588379e-01 6.628382951021194458e-02 2.631309330463409424e-01
-8.472563326358795166e-02 1.773414313793182373e-01 -4.577163606882095337e-02
-1.956492662429809570e-03 -1.491699367761611938e-01 -6.422689557075500488e-02
-4.049496650695800781e-01 1.022932380437850952e-01 7.647576928138732910e-02
-4.454019665718078613e-01 1.331123337149620056e-02 1.494996696710586548e-01
-4.067636728286743164e-01 -1.310056000947952271e-01 3.512765467166900635e-02
-1.986360102891921997e-01 -1.366498470306396484e-01 2.440854460000991821e-01
-3.303704857826232910e-01 -1.384816914796829224e-01 1.792835593223571777e-01
-2.906755208969116211e-01 -5.409850738942623138e-03 -3.432987928390502930e-01
-2.348548173904418945e-01 -1.886098831892013550e-01 5.754699930548667908e-02
-3.604268431663513184e-01 1.340801417827606201e-01 7.395704090595245361e-02
-1.957848668098449707e-02 1.353835612535476685e-01 1.852767616510391235e-01
-9.488371014595031738e-02 -1.830646097660064697e-01 5.951672792434692383e-04
-2.663802504539489746e-01 1.724138557910919189e-01 -4.112269729375839233e-03
-3.426438570022583008e-02 -1.415793597698211670e-01 -1.989602297544479370e-01
6.279231607913970947e-02 5.546016991138458252e-02 1.838530153036117554e-01
-2.038896381855010986e-01 -1.784881949424743652e-01 1.233459115028381348e-01
-2.540554404258728027e-01 1.032275184988975525e-01 -2.710429728031158447e-01
9.751720726490020752e-02 -9.274695068597793579e-03 -1.451791673898696899e-01
-3.469036519527435303e-02 -1.377319842576980591e-01 1.457938402891159058e-01
-3.224576711654663086e-01 3.932958096265792847e-02 3.161542117595672607e-01
-1.796251386404037476e-01 2.109670825302600861e-02 3.673109710216522217e-01
-1.804411262273788452e-01 -1.912477463483810425e-01 4.412809014320373535e-02
1.043616384267807007e-01 5.439251661300659180e-02 4.251573979854583740e-02
-1.445914804935455322e-02 1.568146198987960815e-01 8.433361351490020752e-02
-4.931344091892242432e-02 -1.596683412790298462e-01 -1.531370729207992554e-01
-2.066836804151535034e-01 -1.939320415258407593e-01 1.752946339547634125e-02
-2.279494106769561768e-01 8.287988603115081787e-02 -3.112722635269165039e-01
-3.613193631172180176e-01 1.163427010178565979e-01 -1.212628781795501709e-01
-2.992311120033264160e-01 3.848233073949813843e-02 -3.179099559783935547e-01
1.497344672679901123e-02 3.260893002152442932e-02 2.669856548309326172e-01
-8.679812401533126831e-02 1.611900515854358673e-02 -3.586657643318176270e-01
6.461662054061889648e-02 -9.827563166618347168e-02 2.356184646487236023e-02
-3.929581642150878906e-01 1.036892607808113098e-01 1.251457929611206055e-01
6.693097949028015137e-02 9.536332637071609497e-02 -1.117702126502990723e-01
7.171845436096191406e-02 1.008577048778533936e-01 -6.948271393775939941e-02
7.906343042850494385e-02 -7.306074351072311401e-02 6.508043408393859863e-02
-1.047521829605102539e-03 -4.042129218578338623e-02 2.660610377788543701e-01
-9.468150138854980469e-02 -1.572681367397308350e-01 1.529859900474548340e-01
-2.292426228523254395e-01 1.803891658782958984e-01 4.720214009284973145e-02
-3.706703186035156250e-01 -2.483818493783473969e-02 -2.785446941852569580e-01
-2.035273313522338867e-01 -1.207043677568435669e-01 2.729325592517852783e-01
-2.928780913352966309e-01 -1.076049208641052246e-01 2.677555382251739502e-01
-3.212429583072662354e-01 1.479368954896926880e-01 -6.943939626216888428e-02
4.720868170261383057e-02 -8.250850439071655273e-02 1.398777812719345093e-01
-3.214852809906005859e-01 -9.982793033123016357e-02 -2.874051928520202637e-01
-1.361733376979827881e-01 5.941424146294593811e-02 3.504350483417510986e-01
9.706743061542510986e-02 3.624734282493591309e-02 1.079491674900054932e-01
-4.147399663925170898e-01 -1.213965862989425659e-01 -8.258570730686187744e-02
-2.244746834039688110e-01 -1.841450296342372894e-02 -3.718049526214599609e-01
-1.415196359157562256e-01 -1.919853985309600830e-01 -1.199151761829853058e-02
-1.835903972387313843e-01 -1.069192960858345032e-01 2.933338582515716553e-01
-4.376417398452758789e-01 1.234491355717182159e-04 -1.614288538694381714e-01
-2.493609488010406494e-01 4.497818183153867722e-03 -3.604435622692108154e-01
-3.302136063575744629e-02 -6.172118708491325378e-03 -3.358362913131713867e-01
-7.858239859342575073e-02 1.238208562135696411e-01 2.632311880588531494e-01
-4.650423526763916016e-01 -3.551029041409492493e-02 6.738089025020599365e-02
-2.696063816547393799e-01 6.154782697558403015e-02 3.345838785171508789e-01
-1.180279254913330078e-01 1.823583692312240601e-01 -3.669983148574829102e-02
-1.064403131604194641e-01 1.640207171440124512e-01 -1.436870992183685303e-01
-3.712519705295562744e-01 -7.826256752014160156e-02 -2.566433250904083252e-01
4.418112337589263916e-02 9.942862391471862793e-02 -1.598054766654968262e-01
-2.723710536956787109e-01 -1.735685467720031738e-01 1.165987104177474976e-01
8.116285502910614014e-02 -8.315160125494003296e-02 -1.171443238854408264e-02
-5.086235702037811279e-02 -1.711795777082443237e-01 -3.230055421590805054e-02
-4.496636986732482910e-01 2.630268409848213196e-02 -9.831918776035308838e-02
-1.496894657611846924e-01 1.688680201768875122e-01 -1.350973248481750488e-01
-1.395730376243591309e-01 1.761654168367385864e-01 1.390354037284851074e-01
-2.787891030311584473e-02 4.386921972036361694e-02 -3.142638802528381348e-01
-4.574371576309204102e-01 -7.270723581314086914e-04 1.144403666257858276e-01
6.282553076744079590e-03 -1.343401707708835602e-02 -3.035592436790466309e-01
1.035273522138595581e-01 2.270154468715190887e-02 -1.181524842977523804e-01
-7.821845263242721558e-02 1.558452397584915161e-01 -1.577294915914535522e-01
-1.897081583738327026e-01 1.494128704071044922e-01 -1.979674696922302246e-01
-1.857528090476989746e-01 1.818515360355377197e-01 9.705936908721923828e-02
-3.327510058879852295e-01 1.468337923288345337e-01 8.932705223560333252e-02
-3.159987330436706543e-01 1.211290508508682251e-01 2.236241996288299561e-01
-3.441860675811767578e-01 -5.117331445217132568e-02 2.914631366729736328e-01
-6.499919295310974121e-02 1.429909467697143555e-01 2.139940559864044189e-01
-2.138902842998504639e-01 1.798251867294311523e-01 -4.141896963119506836e-02
-3.447334170341491699e-01 -1.602784395217895508e-01 -1.208396703004837036e-01
-2.547400891780853271e-01 7.833221554756164551e-02 -3.056437671184539795e-01
-1.115403696894645691e-01 1.090662330389022827e-01 3.003071248531341553e-01
-4.384934306144714355e-01 -9.535933285951614380e-02 -7.796840369701385498e-02
-3.952389955520629883e-01 -1.154453828930854797e-01 -1.648036688566207886e-01
-4.327443838119506836e-01 4.234770312905311584e-02 -1.298727840185165405e-01
-4.436748623847961426e-01 -2.279501780867576599e-02 1.598022580146789551e-01
-2.178599536418914795e-01 -9.443698823451995850e-02 3.086204230785369873e-01
-3.605513572692871094e-01 6.781398504972457886e-02 -2.300410419702529907e-01
-1.056535542011260986e-02 -9.894645959138870239e-02 -2.609707713127136230e-01
-3.373134732246398926e-01 -3.730627149343490601e-02 -3.109323978424072266e-01
9.614877402782440186e-02 -5.188698694109916687e-02 4.458927735686302185e-02
-1.221650317311286926e-01 -1.740638762712478638e-01 -1.797429025173187256e-01
2.459494769573211670e-02 -9.758272022008895874e-02 -2.119848132133483887e-01
-4.686419367790222168e-01 -4.807740449905395508e-03 4.556043818593025208e-02
8.765582740306854248e-02 8.037985116243362427e-02 -7.603579759597778320e-02
-2.289683371782302856e-01 -1.834851056337356567e-01 9.393253922462463379e-02
-4.610415697097778320e-01 -1.372892223298549652e-02 -8.860455453395843506e-02
-5.535483360290527344e-03 1.448150724172592163e-01 1.298390924930572510e-01
-2.457093745470046997e-01 -1.891835182905197144e-01 -1.054914146661758423e-01
-2.033278942108154297e-01 1.667646318674087524e-01 1.771947741508483887e-01
-3.495576381683349609e-01 1.119758933782577515e-01 -1.580404639244079590e-01
2.211289107799530029e-02 1.305478066205978394e-02 -2.841940224170684814e-01
-1.060141026973724365e-01 -4.459820315241813660e-02 -3.658100664615631104e-01
-1.128360107541084290e-01 1.838839203119277954e-01 4.260582849383354187e-02
-2.614631354808807373e-01 -1.839407831430435181e-01 -1.282069385051727295e-01
-3.439868688583374023e-01 9.013056010007858276e-02 -2.153778374195098877e-01
-2.302596867084503174e-01 1.543702930212020874e-01 2.082263082265853882e-01
-8.406974375247955322e-02 1.095767021179199219e-01 -2.716727852821350098e-01
-4.079053103923797607e-01 2.485269866883754730e-02 -2.068406492471694946e-01
-2.708570063114166260e-01 -1.824641376733779907e-01 6.933385133743286133e-02
-2.882465124130249023e-01 1.565920114517211914e-01 1.410850733518600464e-01
-4.570622742176055908e-02 1.678695976734161377e-01 8.456605672836303711e-02
-2.508914172649383545e-01 1.247073411941528320e-01 -2.323458492755889893e-01
-4.739411175251007080e-02 1.449436843395233154e-01 1.921954900026321411e-01
-8.219598233699798584e-02 1.701717525720596313e-01 1.316493451595306396e-01
-1.556424200534820557e-01 1.857406497001647949e-01 5.541105568408966064e-02
-4.425935745239257812e-01 6.488687545061111450e-02 4.873022437095642090e-03
-1.978003680706024170e-01 1.690041124820709229e-01 -1.248019337654113770e-01
-8.985897153615951538e-02 -1.828638017177581787e-01 -3.544083237648010254e-02
-3.904407024383544922e-01 -1.451045125722885132e-01 -6.239992566406726837e-03
-2.538257837295532227e-01 -1.893127560615539551e-01 3.267235308885574341e-02
7.796277105808258057e-02 6.825049966573715210e-02 1.329689174890518188e-01
-2.327545434236526489e-01 -1.215503215789794922e-01 2.682505846023559570e-01
-1.375649720430374146e-01 1.739594191312789917e-01 -1.090236902236938477e-01
-3.713108897209167480e-01 -7.450018823146820068e-02 2.450272589921951294e-01
-3.209280967712402344e-01 6.362564861774444580e-02 -2.780348062515258789e-01
-2.424031496047973633e-02 -1.272069215774536133e-01 -2.241794168949127197e-01
-3.397897481918334961e-01 -8.385153487324714661e-04 3.117670118808746338e-01
8.183477818965911865e-02 -4.119955748319625854e-02 -1.704476475715637207e-01
-2.775553464889526367e-01 8.583996444940567017e-02 3.098478317260742188e-01
-3.613041043281555176e-01 1.333761513233184814e-01 -2.700349874794483185e-02
-2.747073173522949219e-01 1.302952319383621216e-01 -2.019911706447601318e-01
-4.702681899070739746e-01 -2.655900642275810242e-02 1.890416257083415985e-02
-2.092404812574386597e-01 -1.420369893312454224e-01 -2.829972803592681885e-01
-2.800582349300384521e-01 1.134026050567626953e-01 -2.356669902801513672e-01
-3.979158997535705566e-01 -5.944580771028995514e-04 -2.384440749883651733e-01
-1.325201988220214844e-01 -1.439249813556671143e-01 -2.725479304790496826e-01
-3.217817842960357666e-01 2.378672361373901367e-02 -3.108881115913391113e-01
-3.473950922489166260e-02 -6.424361467361450195e-02 2.775467932224273682e-01
-1.187853515148162842e-02 1.249249875545501709e-01 -1.865466684103012085e-01
3.748334944248199463e-02 -4.048511385917663574e-02 2.168249785900115967e-01
-4.469199776649475098e-01 5.108564719557762146e-02 -4.881186783313751221e-02
-3.435351252555847168e-01 1.021656543016433716e-01 -1.917415261268615723e-01
-3.863754868507385254e-02 1.579132378101348877e-01 -1.062593460083007812e-01
-3.250538408756256104e-01 1.418334394693374634e-01 1.432593315839767456e-01
2.903342247009277344e-03 -1.375131011009216309e-01 6.956177949905395508e-02
-1.730567365884780884e-01 -1.949191689491271973e-01 -1.537660788744688034e-02
-1.631975919008255005e-01 1.613089293241500854e-01 -1.646379083395004272e-01
-2.088016271591186523e-01 -1.906547099351882935e-01 -1.174646466970443726e-01
-1.457236856222152710e-01 1.816721558570861816e-01 -5.916561186313629150e-02
-2.248367071151733398e-01 8.817867189645767212e-02 3.281825482845306396e-01
2.660650014877319336e-02 1.313215196132659912e-01 -9.478119015693664551e-02
-5.407679080963134766e-02 1.036109775304794312e-01 -2.657826542854309082e-01
1.078605800867080688e-01 -9.932078421115875244e-03 -1.001618653535842896e-01
-5.422984063625335693e-02 9.300750494003295898e-02 2.899456918239593506e-01
-1.891889870166778564e-01 -4.589473456144332886e-02 3.519232571125030518e-01
-2.058303356170654297e-01 3.824195265769958496e-02 3.626986742019653320e-01
-2.381633520126342773e-01 -5.162289366126060486e-02 -3.634062707424163818e-01
-3.699532747268676758e-01 -1.528842151165008545e-01 -8.686028420925140381e-02
-3.113095760345458984e-01 1.579371839761734009e-01 6.391915678977966309e-02
-2.035140991210937500e-01 -1.742921471595764160e-01 -2.017495185136795044e-01
-2.053100913763046265e-01 -1.805594265460968018e-01 -1.766191720962524414e-01
-1.449543237686157227e-02 1.450781524181365967e-01 -1.255071908235549927e-01
1.019369512796401978e-01 6.002110615372657776e-02 -6.006664782762527466e-02
4.556952416896820068e-02 -4.852410405874252319e-02 -2.406575679779052734e-01
-5.146631598472595215e-02 -8.826754987239837646e-02 -3.117443323135375977e-01
-3.110337257385253906e-01 1.469326317310333252e-01 -9.903022646903991699e-02
-3.607381284236907959e-01 1.286242306232452393e-01 1.144595295190811157e-01
-3.944519162178039551e-02 -1.659193634986877441e-01 -7.303819060325622559e-02
-3.186095356941223145e-01 -3.817498683929443359e-02 3.176414370536804199e-01
1.639007031917572021e-02 -2.233958337455987930e-03 2.653526663780212402e-01
-1.813575625419616699e-02 8.721359819173812866e-02 -2.635417878627777100e-01
-1.367255449295043945e-01 1.487995982170104980e-01 2.361358106136322021e-01
-1.887618899345397949e-01 7.041881233453750610e-02 -3.343856036663055420e-01
1.890574395656585693e-02 1.359097957611083984e-01 1.090766936540603638e-01
-2.768750488758087158e-01 -2.977792173624038696e-04 3.494334220886230469e-01
-5.202956497669219971e-02 -1.534888297319412231e-01 1.158636659383773804e-01
-2.410795390605926514e-01 -1.000547558069229126e-01 -3.323202729225158691e-01
-4.003063440322875977e-01 -3.397625312209129333e-02 2.392286509275436401e-01
-2.257405072450637817e-01 6.304134428501129150e-02 -3.332723677158355713e-01
-1.073299348354339600e-01 8.851420879364013672e-02 3.215464055538177490e-01
-7.834639400243759155e-02 1.302750557661056519e-01 -2.293161302804946899e-01
-5.467069149017333984e-02 1.637121140956878662e-01 1.298960000276565552e-01
6.754310429096221924e-02 4.235259722918272018e-03 1.898607760667800903e-01
-4.231642484664916992e-01 -9.859894961118698120e-02 -1.313012242317199707e-01
-2.632839977741241455e-01 -1.906779855489730835e-01 -4.498672112822532654e-02
-2.687161564826965332e-01 -1.357927769422531128e-01 2.305404841899871826e-01
-3.934481739997863770e-01 -1.398423761129379272e-01 -7.401120662689208984e-02
-3.319033384323120117e-01 -1.703027337789535522e-01 3.980293124914169312e-02
7.701553404331207275e-02 -7.591920346021652222e-02 -1.208510994911193848e-01
-3.714815378189086914e-01 1.293967813253402710e-01 5.591763183474540710e-03
-3.019396364688873291e-01 -1.715563833713531494e-01 9.431438148021697998e-02
-2.290923744440078735e-01 1.397793889045715332e-01 -2.088501751422882080e-01
3.091418743133544922e-02 -8.305905759334564209e-02 1.717577427625656128e-01
-7.423820346593856812e-02 -1.465414315462112427e-01 1.672438532114028931e-01
6.857353448867797852e-02 -1.277769356966018677e-02 -2.176907807588577271e-01
9.522648155689239502e-02 -5.626903101801872253e-02 -8.642105758190155029e-02
-4.029718041419982910e-01 8.553477376699447632e-02 -1.164778172969818115e-01
-4.008424878120422363e-01 7.806687802076339722e-02 -1.417537331581115723e-01
-2.015666216611862183e-01 -1.893886923789978027e-01 6.266036629676818848e-02
-2.449556589126586914e-01 1.670759916305541992e-01 -9.733329713344573975e-02
-1.330745220184326172e-01 -8.568464964628219604e-02 -3.502406179904937744e-01
-2.581610679626464844e-01 -1.491847336292266846e-01 -2.528433799743652344e-01
-5.583100765943527222e-02 -1.365856379270553589e-01 -2.387756258249282837e-01
-1.567955911159515381e-01 -1.817695200443267822e-01 -1.648511141538619995e-01
-3.144793212413787842e-01 -1.691757887601852417e-01 -1.371497958898544312e-01
7.477994263172149658e-02 -6.630270183086395264e-02 -1.536404639482498169e-01
6.123356521129608154e-02 -5.207977071404457092e-02 -2.086527496576309204e-01
-3.643307387828826904e-01 -1.041636541485786438e-01 -2.370415478944778442e-01
6.798408925533294678e-02 1.093830466270446777e-01 3.563522174954414368e-02
-2.379417419433593750e-02 -1.183131244033575058e-03 3.051280081272125244e-01
-1.638431996107101440e-01 1.583369374275207520e-01 2.135323286056518555e-01
-1.321419477462768555e-01 -1.887565255165100098e-01 2.207185886800289154e-02
-2.943789362907409668e-01 1.612912863492965698e-01 -4.415254667401313782e-02
-2.951683998107910156e-01 9.546347707509994507e-02 2.873358428478240967e-01
-2.794175148010253906e-01 1.149662733078002930e-01 2.688630819320678711e-01
-6.301482021808624268e-02 -1.073126941919326782e-01 -2.972874641418457031e-01
-4.712343215942382812e-03 -1.486503034830093384e-01 -9.122408926486968994e-02
-4.342396557331085205e-02 1.270661205053329468e-01 -2.132074683904647827e-01
-1.386224180459976196e-01 -1.803950518369674683e-01 9.288300573825836182e-02
-2.171388864517211914e-01 1.191978529095649719e-01 2.909807264804840088e-01
-3.185144066810607910e-01 1.533247530460357666e-01 -3.501666709780693054e-02
-3.049695193767547607e-01 1.456187516450881958e-01 1.640643328428268433e-01
-3.465163111686706543e-01 -1.469889581203460693e-01 -1.721138060092926025e-01
7.976193726062774658e-02 5.153275653719902039e-02 -1.652321815490722656e-01
-3.488703370094299316e-01 1.179780736565589905e-01 1.844989508390426636e-01
-3.898414373397827148e-01 1.172694340348243713e-01 3.586258739233016968e-02
-4.009581208229064941e-01 -8.157766610383987427e-02 -2.093856036663055420e-01
-2.742886245250701904e-01 -2.601576969027519226e-02 3.453284800052642822e-01
9.916603565216064453e-03 -1.420600861310958862e-01 1.438667066395282745e-03
-7.932720333337783813e-02 -1.674199700355529785e-01 -1.646295040845870972e-01
-1.740993261337280273e-01 -1.905528008937835693e-01 -1.163811236619949341e-01
1.043413430452346802e-01 6.131985411047935486e-02 -1.491930987685918808e-02
-4.068437218666076660e-02 1.699441522359848022e-01 -5.815946497023105621e-04
-2.043315768241882324e-02 1.031848564743995667e-01 -2.409714907407760620e-01
-3.368097245693206787e-01 8.088012784719467163e-02 -2.394288182258605957e-01
-1.602101475000381470e-01 1.801384985446929932e-01 1.174128353595733643e-01
3.924557566642761230e-02 1.297743469476699829e-01 6.651198863983154297e-02
-1.728428900241851807e-01 -8.029975742101669312e-02 3.239979445934295654e-01
-2.691540122032165527e-01 1.432964056730270386e-01 2.138630896806716919e-01
1.162292063236236572e-02 -3.944341838359832764e-02 -2.914517521858215332e-01
-3.070997595787048340e-01 -1.579534858465194702e-01 1.456633955240249634e-01
-1.721851527690887451e-01 1.762938648462295532e-01 -9.590972959995269775e-02
-1.605884730815887451e-01 1.840413361787796021e-01 -3.569573163986206055e-02
-7.487551122903823853e-02 -1.765493601560592651e-01 1.925934106111526489e-02
-3.083943426609039307e-01 1.353654563426971436e-01 1.951540559530258179e-01
6.261035799980163574e-02 1.052962020039558411e-01 9.206533432006835938e-02
-7.882599532604217529e-02 1.789734214544296265e-01 -3.188767004758119583e-03
-1.714982092380523682e-02 1.544609963893890381e-01 -8.392478525638580322e-02
-3.931848108768463135e-01 -1.267790943384170532e-01 -1.381995230913162231e-01
-7.092105597257614136e-02 7.938228547573089600e-02 3.130394220352172852e-01
-5.456969141960144043e-03 -1.107777282595634460e-01 1.746073067188262939e-01
-3.487958312034606934e-01 5.468403175473213196e-02 -2.604316771030426025e-01
-2.261361032724380493e-01 -1.511894464492797852e-01 -2.610065639019012451e-01
1.953089237213134766e-02 -1.157075986266136169e-01 -1.786504983901977539e-01
-4.505378603935241699e-01 7.875530049204826355e-03 -1.178726553916931152e-01
-3.099790215492248535e-02 1.405596584081649780e-01 -1.648163497447967529e-01
3.761173784732818604e-02 1.332668028771877289e-02 2.403605133295059204e-01
-2.743678689002990723e-01 1.485563963651657104e-01 -1.468417197465896606e-01
-1.023234203457832336e-01 -7.310688495635986328e-02 -3.507802188396453857e-01
-1.802013665437698364e-01 9.838420152664184570e-02 3.236015141010284424e-01
-3.739330768585205078e-01 -1.548210829496383667e-01 -3.236050903797149658e-02
-4.419642686843872070e-01 -9.849610924720764160e-02 -2.235837467014789581e-02
9.081660211086273193e-02 1.708664745092391968e-02 -1.644180268049240112e-01
-4.266440272331237793e-01 -1.241835532709956169e-03 2.008471637964248657e-01
-1.585493683815002441e-01 -1.760063767433166504e-01 1.254637688398361206e-01
-1.663801074028015137e-01 -1.703913658857345581e-01 1.503501683473587036e-01
-3.317021727561950684e-01 -1.133158728480339050e-01 -2.614376842975616455e-01
-1.040426343679428101e-01 6.541553884744644165e-02 3.379575908184051514e-01
-4.332916736602783203e-01 7.225474715232849121e-02 7.723234593868255615e-02
-7.989540696144104004e-03 1.098469085991382599e-02 -3.141801953315734863e-01
-7.058098167181015015e-02 1.680376529693603516e-01 -9.610550105571746826e-02
-1.238259822130203247e-01 1.614790856838226318e-01 1.960449516773223877e-01
-4.438832402229309082e-01 -6.263534724712371826e-02 1.248562484979629517e-01
-3.152411580085754395e-01 1.022045165300369263e-01 2.609847486019134521e-01
-1.550883501768112183e-01 1.305538117885589600e-01 2.773257195949554443e-01
-3.116242885589599609e-01 -1.781683862209320068e-01 -7.713004946708679199e-02
-4.936383664608001709e-02 3.045768477022647858e-02 3.240442872047424316e-01
-4.333840310573577881e-02 -4.926775768399238586e-02 2.975460588932037354e-01
-1.345236003398895264e-01 1.192200481891632080e-01 2.926392853260040283e-01
6.245236098766326904e-02 6.042673066258430481e-02 -1.926730573177337646e-01
-1.386405229568481445e-01 8.675964921712875366e-02 3.316446542739868164e-01
2.191266417503356934e-02 1.410157382488250732e-01 -4.961201921105384827e-02
-3.264913260936737061e-01 -1.707105338573455811e-01 -1.012733578681945801e-01
-2.604792416095733643e-01 1.555178016424179077e-01 1.817053556442260742e-01
-3.443494439125061035e-01 1.446440070867538452e-01 1.570300944149494171e-02
3.816731274127960205e-02 -1.244547218084335327e-01 -2.021389827132225037e-02
4.256786406040191650e-02 7.417488843202590942e-02 -2.094896733760833740e-01
4.457364976406097412e-02 1.105753630399703979e-01 -1.280370205640792847e-01
-1.487844437360763550e-01 -1.898766010999679565e-01 -1.047550588846206665e-01
-2.359248697757720947e-01 1.490334868431091309e-01 -1.785182952880859375e-01
-4.523537755012512207e-01 -2.090915665030479431e-02 1.343464851379394531e-01
-2.695193886756896973e-02 -1.164583861827850342e-01 1.910620331764221191e-01
-1.292115747928619385e-01 1.587353199720382690e-01 -1.710829585790634155e-01
-9.564562141895294189e-02 -8.376306295394897461e-02 2.974435985088348389e-01
-4.833489656448364258e-03 5.034855008125305176e-02 2.817046642303466797e-01
-9.533499926328659058e-02 -1.289115399122238159e-01 -2.841761112213134766e-01
2.024623751640319824e-02 5.733468756079673767e-02 -2.595682442188262939e-01
-4.210421442985534668e-01 -8.934487402439117432e-02 -1.562435626983642578e-01
1.124280542135238647e-01 -1.638699136674404144e-02 1.477923430502414703e-02
-4.500464797019958496e-01 5.105319991707801819e-02 -2.135461382567882538e-02
-1.161318570375442505e-01 -1.827721297740936279e-01 5.363594368100166321e-02
-4.539645910263061523e-01 4.179032891988754272e-02 6.256997585296630859e-02
-3.762387335300445557e-01 4.159139841794967651e-02 -2.405506670475006104e-01
-4.381505846977233887e-01 2.077338472008705139e-02 -1.439008116722106934e-01
-2.353468537330627441e-01 -1.796232461929321289e-01 -1.710356920957565308e-01
-9.000441431999206543e-02 -1.115786582231521606e-01 2.559256553649902344e-01
-4.116579890251159668e-02 6.678427010774612427e-02 3.033199012279510498e-01
-2.405844628810882568e-02 7.428047806024551392e-02 2.841736078262329102e-01
-2.909850478172302246e-01 8.899632841348648071e-02 -2.693938016891479492e-01
-1.716933250427246094e-01 1.861605793237686157e-01 3.425166383385658264e-02
8.610183000564575195e-01 -1.690374910831451416e-01 -3.030744791030883789e-01
9.476540684700012207e-01 -1.986549049615859985e-01 2.009743005037307739e-01
8.097679018974304199e-01 -5.750417336821556091e-02 -2.147598713636398315e-01
1.002357006072998047e+00 -6.502032279968261719e-02 -6.285269558429718018e-02
9.702130556106567383e-01 -7.652971148490905762e-02 2.720924019813537598e-01
8.053818941116333008e-01 -1.692814826965332031e-01 -2.038461863994598389e-01
9.404962062835693359e-01 -6.345345824956893921e-02 3.145120441913604736e-01
8.526486754417419434e-01 5.149856209754943848e-03 -5.815056711435317993e-02
9.869590401649475098e-01 -1.791116297245025635e-01 1.252538412809371948e-01
8.654829263687133789e-01 -3.533318638801574707e-03 -1.472398042678833008e-01
9.901278018951416016e-01 -5.933241546154022217e-02 1.720482707023620605e-01
8.534178733825683594e-01 -2.111747562885284424e-01 -1.908180266618728638e-01
9.032163619995117188e-01 -2.544328570365905762e-03 1.962869763374328613e-01
9.134823679924011230e-01 -1.882525086402893066e-01 2.783795297145843506e-01
8.940634727478027344e-01 -2.207174897193908691e-01 1.747605800628662109e-01
8.722344636917114258e-01 -2.341016381978988647e-01 -5.702888965606689453e-02
9.988530874252319336e-01 -6.025641411542892456e-02 1.152078360319137573e-01
7.869532704353332520e-01 -1.793192327022552490e-01 6.576529890298843384e-02
9.028370976448059082e-01 7.859215140342712402e-03 1.276036500930786133e-01
9.304860830307006836e-01 -2.165517061948776245e-01 -1.571686118841171265e-01
9.684864282608032227e-01 -2.020051479339599609e-01 -1.029029786586761475e-01
8.812900781631469727e-01 -6.814192980527877808e-02 -3.196504116058349609e-01
7.772784233093261719e-01 -1.131531447172164917e-01 1.671144515275955200e-01
7.687110900878906250e-01 -1.342804729938507080e-01 -6.153734028339385986e-02
8.526409864425659180e-01 6.201595067977905273e-03 9.054716676473617554e-02
7.733469009399414062e-01 -1.116746589541435242e-01 1.422737240791320801e-01
8.389742374420166016e-01 -2.134920656681060791e-01 -1.495784670114517212e-01
8.528399467468261719e-01 -9.705077856779098511e-02 -3.281229734420776367e-01
8.458806276321411133e-01 -1.874818950891494751e-01 2.571982741355895996e-01
7.708331942558288574e-01 -8.192175626754760742e-02 9.081129729747772217e-02
9.273182749748229980e-01 -1.283038407564163208e-01 -3.280494213104248047e-01
9.745365381240844727e-01 -2.228684723377227783e-02 -4.106761515140533447e-02
7.893986701965332031e-01 -1.621579527854919434e-01 1.611186563968658447e-01
8.759675621986389160e-01 -8.715957403182983398e-02 -3.357586562633514404e-01
8.290655612945556641e-01 -1.725666224956512451e-03 4.750549048185348511e-02
9.466875791549682617e-01 -2.219100445508956909e-01 5.256278067827224731e-02
8.817247748374938965e-01 -6.289459764957427979e-03 -1.716361045837402344e-01
9.153252840042114258e-01 -3.952417522668838501e-02 3.033523559570312500e-01
9.321461319923400879e-01 -1.574218720197677612e-01 -3.034029006958007812e-01
8.360568284988403320e-01 -9.412094950675964355e-04 -5.375816673040390015e-02
9.327473640441894531e-01 -2.245222926139831543e-01 -9.621892869472503662e-02
8.517239093780517578e-01 -3.704193234443664551e-02 -2.492729127407073975e-01
8.007346391677856445e-01 -1.869820505380630493e-01 1.301898360252380371e-01
9.681820869445800781e-01 -2.745898813009262085e-02 -1.190382838249206543e-01
7.829014062881469727e-01 -1.351759135723114014e-01 1.807403117418289185e-01
9.605765938758850098e-01 -2.835041284561157227e-02 1.963937729597091675e-01
8.047505021095275879e-01 -1.568033099174499512e-01 2.330617457628250122e-01
7.954800128936767578e-01 -1.938200145959854126e-01 -5.180105566978454590e-03
8.343141674995422363e-01 -4.285372793674468994e-03 1.219544261693954468e-01
9.295257925987243652e-01 -2.244945764541625977e-01 1.066814064979553223e-01
7.741658687591552734e-01 -1.579824984073638916e-01 4.116170108318328857e-02
7.953435778617858887e-01 -9.518523514270782471e-02 -2.210884839296340942e-01
8.450571894645690918e-01 4.945583641529083252e-03 6.714314967393875122e-02
8.406994938850402832e-01 -1.980530023574829102e-01 2.178416103124618530e-01
9.026308059692382812e-01 -2.681992202997207642e-02 -2.408861517906188965e-01
8.366668224334716797e-01 -7.572194933891296387e-02 -2.946428954601287842e-01
8.790754675865173340e-01 1.215475797653198242e-02 7.789193093776702881e-02
8.491213917732238770e-01 -1.269629448652267456e-01 3.443610370159149170e-01
7.891205549240112305e-01 -1.395784020423889160e-01 2.035577148199081421e-01
1.005707621574401855e+00 -8.840329945087432861e-02 -1.013597846031188965e-01
8.864098191261291504e-01 -1.676397323608398438e-01 -3.150775134563446045e-01
8.441342711448669434e-01 5.467131733894348145e-03 4.048687219619750977e-02
9.874057769775390625e-01 -1.236588209867477417e-01 -2.096567004919052124e-01
9.746697545051574707e-01 -2.657587826251983643e-02 1.224448978900909424e-01
9.807146787643432617e-01 -3.454694896936416626e-02 -8.725617080926895142e-02
7.733723521232604980e-01 -1.309854537248611450e-01 -1.151123195886611938e-01
7.666803002357482910e-01 -8.743919432163238525e-02 -1.098261773586273193e-02
8.211633563041687012e-01 -5.549552291631698608e-02 2.700462341308593750e-01
1.009282112121582031e+00 -7.535818219184875488e-02 4.204054176807403564e-02
7.862415313720703125e-01 -4.084295034408569336e-02 4.745014011859893799e-02
8.555991053581237793e-01 -2.161204814910888672e-01 -1.719503998756408691e-01
7.665875554084777832e-01 -9.095861017704010010e-02 -2.874230779707431793e-02
9.065190553665161133e-01 -1.643106192350387573e-01 3.270158469676971436e-01
8.013889193534851074e-01 -1.813248395919799805e-01 -1.549614667892456055e-01
8.521601557731628418e-01 -1.749475747346878052e-01 -2.860520780086517334e-01
8.877361416816711426e-01 -2.050161212682723999e-01 2.392531484365463257e-01
8.141808509826660156e-01 -1.966723501682281494e-01 -1.486199200153350830e-01
8.750367164611816406e-01 -2.131612896919250488e-01 -2.053469568490982056e-01
8.565171957015991211e-01 -2.270030975341796875e-01 -1.029317080974578857e-01
7.795041799545288086e-01 -6.045713275671005249e-02 -7.847205549478530884e-02
8.384608626365661621e-01 -1.030613481998443604e-01 -3.152965903282165527e-01
8.015308380126953125e-01 -1.971865892410278320e-01 6.615484505891799927e-02
9.133729934692382812e-01 -2.316813766956329346e-01 7.614282518625259399e-02
1.001701831817626953e+00 -1.328381001949310303e-01 -1.378860920667648315e-01
1.007760643959045410e+00 -7.140544056892395020e-02 -1.406048610806465149e-02
1.008373498916625977e+00 -7.519562542438507080e-02 6.537182629108428955e-02
9.872206449508666992e-01 -1.760280132293701172e-01 -1.243006139993667603e-01
8.739685416221618652e-01 1.298661530017852783e-02 1.217956282198429108e-02
9.948065876960754395e-01 -4.478495568037033081e-02 5.690310150384902954e-02
7.787170410156250000e-01 -1.210955530405044556e-01 -1.571062952280044556e-01
8.167504072189331055e-01 -2.127082943916320801e-01 2.576606348156929016e-02
9.398000240325927734e-01 -2.104864865541458130e-01 1.692983955144882202e-01
9.977042078971862793e-01 -5.953189358115196228e-02 -8.372262865304946899e-02
7.662873864173889160e-01 -1.249216049909591675e-01 -4.381761699914932251e-02
9.548475742340087891e-01 -1.110443621873855591e-01 -2.931756973266601562e-01
1.006728529930114746e+00 -1.100202724337577820e-01 1.422600001096725464e-01
1.002070546150207520e+00 -1.658670753240585327e-01 -3.090479411184787750e-02
9.710766673088073730e-01 -1.126094534993171692e-01 2.852698266506195068e-01
1.008848905563354492e+00 -1.426641792058944702e-01 -5.811334401369094849e-02
7.816261053085327148e-01 -8.826990425586700439e-02 -1.589837670326232910e-01
8.343414068222045898e-01 -1.099858433008193970e-02 1.672085672616958618e-01
9.897072911262512207e-01 -3.833739459514617920e-02 -2.813309989869594574e-02
8.842610716819763184e-01 -8.521316945552825928e-02 3.636916577816009521e-01
9.658700823783874512e-01 -9.766253829002380371e-02 2.959196865558624268e-01
7.922163009643554688e-01 -9.224705398082733154e-02 2.298909872770309448e-01
9.019582271575927734e-01 1.170612871646881104e-03 1.769337207078933716e-01
8.474637269973754883e-01 -8.330491930246353149e-02 -3.145037889480590820e-01
8.283345103263854980e-01 -3.255366533994674683e-02 2.355031371116638184e-01
8.448862433433532715e-01 -1.675439625978469849e-02 2.181289047002792358e-01
9.124683737754821777e-01 -2.327067255973815918e-01 -6.734740734100341797e-02
7.973808050155639648e-01 -7.454019784927368164e-02 -2.061326503753662109e-01
7.717899084091186523e-01 -1.458915323019027710e-01 7.522923499345779419e-02
8.390176296234130859e-01 -2.257543653249740601e-01 1.680379360914230347e-02
8.705527782440185547e-01 -1.833372116088867188e-01 -2.853155434131622314e-01
9.323686957359313965e-01 -3.288407623767852783e-02 -2.298711985349655151e-01
7.870289087295532227e-01 -3.936578333377838135e-02 -7.623856887221336365e-03
9.837795495986938477e-01 -1.943253427743911743e-01 -1.987279392778873444e-02
8.694026470184326172e-01 -1.730664074420928955e-02 -2.088907808065414429e-01
8.844900727272033691e-01 2.842172980308532715e-04 -1.389871835708618164e-01
9.952725172042846680e-01 -1.795003116130828857e-01 1.407451648265123367e-02
7.801840901374816895e-01 -8.504556119441986084e-02 1.697123050689697266e-01
8.805416822433471680e-01 -1.772664189338684082e-01 -2.999131977558135986e-01
8.973620533943176270e-01 -6.080171093344688416e-02 3.436210155487060547e-01
9.266602396965026855e-01 -2.094427198171615601e-01 1.989640593528747559e-01
8.596315979957580566e-01 -2.255798578262329102e-01 -1.221723854541778564e-01
9.360313415527343750e-01 5.961433053016662598e-04 -6.473247706890106201e-02
9.033961296081542969e-01 1.140173524618148804e-02 -3.456646949052810669e-02
7.992692589759826660e-01 -1.563876271247863770e-01 2.158591002225875854e-01
7.785233855247497559e-01 -5.766990780830383301e-02 -5.227216333150863647e-02
9.250217676162719727e-01 -1.827121973037719727e-01 -2.729668915271759033e-01
8.021439313888549805e-01 -2.157732844352722168e-02 -4.909930750727653503e-03
9.463730454444885254e-01 -5.232685059309005737e-02 -2.517367899417877197e-01
9.876300692558288574e-01 -1.812051534652709961e-01 -9.808637946844100952e-02
7.728312015533447266e-01 -1.471720188856124878e-01 -7.462920248508453369e-02
9.498876929283142090e-01 -8.819602429866790771e-02 -2.917247414588928223e-01
9.545196890830993652e-01 -5.065178498625755310e-02 -2.326823920011520386e-01
7.972555160522460938e-01 -6.008964404463768005e-02 -1.791571229696273804e-01
1.009505748748779297e+00 -1.471657902002334595e-01 -2.189947478473186493e-02
9.922609329223632812e-01 -1.254590898752212524e-01 2.142552584409713745e-01
8.120617866516113281e-01 -2.031041681766510010e-02 -9.029743820428848267e-02
8.138084411621093750e-01 -2.109232395887374878e-01 8.104158565402030945e-03
7.835537195205688477e-01 -1.776641011238098145e-01 1.471242867410182953e-02
8.982056379318237305e-01 -2.167077511548995972e-01 1.932109594345092773e-01
9.352968931198120117e-01 -1.960643231868743896e-01 -2.275881022214889526e-01
7.915102243423461914e-01 -7.579389214515686035e-02 -1.864010691642761230e-01
8.137894868850708008e-01 -2.051002234220504761e-01 9.538930654525756836e-02
8.700006604194641113e-01 -4.925542324781417847e-02 -2.886193096637725830e-01
8.162711262702941895e-01 -7.821224629878997803e-02 -2.618433237075805664e-01
9.520208239555358887e-01 -1.081946641206741333e-01 3.234618902206420898e-01
9.954286217689514160e-01 -1.735723912715911865e-01 8.458020538091659546e-02
9.630916714668273926e-01 -1.292785257101058960e-01 2.968716025352478027e-01
7.814107537269592285e-01 -1.583267450332641602e-01 1.234627440571784973e-01
