7.755092382431030273e-01 -2.025613486766815186e-01 1.332662701606750488e-01
9.029433727264404297e-01 -2.743648290634155273e-01 6.708794832229614258e-02
9.752161502838134766e-01 -5.194216966629028320e-02 -2.811222970485687256e-01
9.330955147743225098e-01 -1.904695928096771240e-01 2.998813986778259277e-01
9.890650510787963867e-01 -1.925274133682250977e-01 -2.463828325271606445e-01
9.771026372909545898e-01 -2.429689615964889526e-01 -3.948424011468887329e-02
9.947709441184997559e-01 -4.519894719123840332e-03 -2.814751677215099335e-02
7.947028279304504395e-01 -2.376152873039245605e-01 1.124584525823593140e-01
8.857510685920715332e-01 -2.723187208175659180e-03 -1.390737444162368774e-01
1.043710112571716309e+00 -1.133193671703338623e-01 -1.697380468249320984e-02
8.482571840286254883e-01 -2.498002350330352783e-02 1.897122710943222046e-01
1.025913000106811523e+00 -5.028682202100753784e-02 6.260655820369720459e-02
8.119640946388244629e-01 -2.583928704261779785e-01 -1.127182971686124802e-02
8.913310766220092773e-01 -2.318606674671173096e-01 -2.670602202415466309e-01
8.452295064926147461e-01 -2.501107454299926758e-01 2.011693567037582397e-01
7.915316224098205566e-01 -6.940146535634994507e-02 -5.816595256328582764e-02
8.730860352516174316e-01 -1.994368731975555420e-01 -3.111723959445953369e-01
8.531586527824401855e-01 -4.095688462257385254e-03 5.623564124107360840e-02
9.236804246902465820e-01 1.272088289260864258e-02 -8.322988450527191162e-02
9.405691027641296387e-01 -1.387816518545150757e-01 3.312694430351257324e-01
1.002683997154235840e+00 -1.120641082525253296e-02 -5.186264216899871826e-02
8.189650177955627441e-01 -1.220045462250709534e-01 -2.579808533191680908e-01
7.872830033302307129e-01 -6.954433023929595947e-02 -8.174465969204902649e-03
7.629677057266235352e-01 -1.565832197666168213e-01 9.142722189426422119e-02
8.055975437164306641e-01 -1.351755261421203613e-01 -2.300749421119689941e-01
7.645548582077026367e-01 -1.627610325813293457e-01 -3.144368529319763184e-02
7.718456387519836426e-01 -1.123266667127609253e-01 1.269341111183166504e-01
7.736462354660034180e-01 -1.657696068286895752e-01 -1.054772064089775085e-01
1.004110693931579590e+00 -6.643936038017272949e-02 1.923890113830566406e-01
8.369544744491577148e-01 -5.252695828676223755e-02 -2.042768299579620361e-01
7.672170400619506836e-01 -1.152200251817703247e-01 1.774920895695686340e-02
9.423272013664245605e-01 1.565273106098175049e-02 1.221045386046171188e-03
1.041104793548583984e+00 -9.377360343933105469e-02 -1.098385676741600037e-01
8.448868989944458008e-01 -3.188534080982208252e-02 2.077966034412384033e-01
9.806306362152099609e-01 -1.324623078107833862e-01 2.724674344062805176e-01
8.722255229949951172e-01 -5.324232578277587891e-02 2.963634729385375977e-01
7.957465052604675293e-01 -2.408106923103332520e-01 -4.525172337889671326e-02
9.669628143310546875e-01 -2.193147689104080200e-02 -2.256991714239120483e-01
7.859460115432739258e-01 -9.941674768924713135e-02 -1.189576014876365662e-01
8.644136190414428711e-01 -2.226527333259582520e-01 -2.704991400241851807e-01
9.209118485450744629e-01 -4.542902112007141113e-03 -1.860535144805908203e-01
9.126910567283630371e-01 -2.269869595766067505e-01 -2.765252590179443359e-01
9.413470625877380371e-01 -1.866906881332397461e-03 -1.748049408197402954e-01
8.314960598945617676e-01 -2.491171360015869141e-01 -1.560584306716918945e-01
8.933898806571960449e-01 -1.845375150442123413e-01 -3.367368280887603760e-01
9.897153377532958984e-01 -4.027992486953735352e-03 4.127609357237815857e-02
8.590548038482666016e-01 -1.094895601272583008e-01 -3.205829560756683350e-01
8.152766227722167969e-01 -3.585086017847061157e-02 -4.189040139317512512e-02
8.067219257354736328e-01 -5.165307968854904175e-02 1.466004103422164917e-01
9.742630124092102051e-01 -8.377797901630401611e-03 1.310935020446777344e-01
1.023379683494567871e+00 -4.637531191110610962e-02 -1.364722251892089844e-01
8.248383402824401855e-01 -2.151401937007904053e-01 2.637132406234741211e-01
7.684220075607299805e-01 -1.321673989295959473e-01 1.359602510929107666e-01
8.757812380790710449e-01 -1.704476028680801392e-02 -1.837086975574493408e-01
8.944308757781982422e-01 -6.912826001644134521e-02 -3.183279335498809814e-01
1.000471472740173340e+00 -6.871380656957626343e-02 -2.629530131816864014e-01
8.889415860176086426e-01 -2.747909426689147949e-01 -9.308870881795883179e-02
1.002844333648681641e+00 -1.881026327610015869e-01 1.423055827617645264e-01
8.621453046798706055e-01 -2.635872364044189453e-01 1.592583805322647095e-01
7.665800452232360840e-01 -1.563913971185684204e-01 -5.525153130292892456e-02
8.697974085807800293e-01 -7.405811548233032227e-02 -3.012984991073608398e-01
9.947043657302856445e-01 -4.999416321516036987e-02 -2.465309202671051025e-01
9.060844182968139648e-01 1.379767060279846191e-02 -4.431654885411262512e-02
9.707370996475219727e-01 -2.468850910663604736e-01 1.245328970253467560e-02
8.563879132270812988e-01 -4.007667303085327148e-03 -4.445609450340270996e-02
8.783938884735107422e-01 -4.760485887527465820e-02 -2.695184051990509033e-01
9.123239517211914062e-01 -1.971939802169799805e-01 -3.257586061954498291e-01
1.042277216911315918e+00 -1.073019057512283325e-01 1.626648381352424622e-02
8.114440441131591797e-01 -2.098907828330993652e-01 -2.037369906902313232e-01
7.716450691223144531e-01 -1.833301633596420288e-01 -7.578893750905990601e-02
9.624974727630615234e-01 -2.529019415378570557e-01 -6.151577457785606384e-02
8.080663681030273438e-01 -2.501087188720703125e-01 -6.668511033058166504e-02
9.589629173278808594e-01 -3.946889936923980713e-02 2.462866306304931641e-01
8.933057188987731934e-01 -2.550387680530548096e-01 -2.014572024345397949e-01
8.567922115325927734e-01 -2.389014661312103271e-01 -2.283974885940551758e-01
9.497705698013305664e-01 -2.484174966812133789e-01 1.210621669888496399e-01
7.911245822906494141e-01 -7.319474220275878906e-02 1.453243345022201538e-01
8.182474374771118164e-01 -3.900237381458282471e-02 -8.625438064336776733e-02
7.700413465499877930e-01 -1.112734824419021606e-01 -2.025660127401351929e-02
7.617669105529785156e-01 -1.604743599891662598e-01 5.715544894337654114e-02
9.305647611618041992e-01 -4.506324976682662964e-02 2.839857041835784912e-01
8.993346095085144043e-01 -2.710645198822021484e-01 -1.183258891105651855e-01
9.597562551498413086e-01 -2.457210719585418701e-01 -1.479627043008804321e-01
1.029763698577880859e+00 -7.596242427825927734e-02 -1.734217852354049683e-01
9.445558786392211914e-01 -1.755325049161911011e-01 3.029393255710601807e-01
8.633983135223388672e-01 -2.649041414260864258e-01 -1.448619812726974487e-01
9.936176538467407227e-01 -2.214280962944030762e-01 -1.260794848203659058e-01
9.940285086631774902e-01 -1.352524310350418091e-01 -3.004674911499023438e-01
7.677048444747924805e-01 -1.124804690480232239e-01 5.148068070411682129e-02
8.188494443893432617e-01 -2.437879145145416260e-01 -1.413621753454208374e-01
9.373713135719299316e-01 -2.663711905479431152e-01 -5.781941860914230347e-02
8.631173968315124512e-01 -1.901562809944152832e-01 3.285573124885559082e-01
8.862820267677307129e-01 -2.879125624895095825e-02 -2.360751032829284668e-01
9.600729942321777344e-01 -2.470489591360092163e-02 2.125782519578933716e-01
9.344211220741271973e-01 -2.291215360164642334e-01 -2.579429447650909424e-01
1.037866234779357910e+00 -6.517870724201202393e-02 -5.608431994915008545e-02
9.091197252273559570e-01 -1.854792982339859009e-01 3.265251517295837402e-01
1.032678842544555664e+00 -9.271861612796783447e-02 9.683953225612640381e-02
1.009513497352600098e+00 -1.848189234733581543e-01 -1.937856823205947876e-01
7.902561426162719727e-01 -1.405871957540512085e-01 2.487079352140426636e-01
1.014917373657226562e+00 -6.560522317886352539e-02 1.540913879871368408e-01
9.580241441726684570e-01 -7.637563347816467285e-02 2.956096529960632324e-01
8.937505483627319336e-01 -2.789141535758972168e-01 -1.611523330211639404e-03
7.931294441223144531e-01 -2.397071123123168945e-01 8.349592238664627075e-02
7.987843751907348633e-01 -6.640869379043579102e-02 1.656598746776580811e-01
9.509728550910949707e-01 -2.605479955673217773e-01 -1.327070593833923340e-02
1.017533063888549805e+00 -1.813029497861862183e-01 -1.614323258399963379e-01
9.434117078781127930e-01 -2.639765441417694092e-01 8.956539444625377655e-03
9.134842753410339355e-01 1.461960375308990479e-02 5.313001200556755066e-02
7.925485968589782715e-01 -2.290612161159515381e-01 -8.702357858419418335e-02
1.007390975952148438e+00 -2.053908556699752808e-01 4.840304702520370483e-02
9.593638777732849121e-01 -1.708894968032836914e-01 2.855761945247650146e-01
8.303701281547546387e-01 -2.520295232534408569e-02 -7.220456749200820923e-02
1.012793183326721191e+00 -1.767812520265579224e-01 1.236334070563316345e-01
9.437946677207946777e-01 -2.591047883033752441e-01 -1.134607121348381042e-01
9.764451980590820312e-01 -2.255841493606567383e-01 1.297274082899093628e-01
9.279918074607849121e-01 -2.381218969821929932e-01 2.104849517345428467e-01
7.991200685501098633e-01 -9.901717305183410645e-02 2.425262182950973511e-01
9.935005307197570801e-01 -8.493751287460327148e-02 -2.925236225128173828e-01
7.966130375862121582e-01 -1.582759171724319458e-01 2.663010656833648682e-01
7.917449474334716797e-01 -1.024943664669990540e-01 -1.530883610248565674e-01
8.149130344390869141e-01 -1.913570016622543335e-01 -2.361025959253311157e-01
1.043187856674194336e+00 -1.158755794167518616e-01 -8.262632787227630615e-02
8.676314949989318848e-01 -3.139274567365646362e-02 -2.155311554670333862e-01
8.612851500511169434e-01 -2.710508108139038086e-01 1.143569350242614746e-01
9.349659681320190430e-01 1.434199512004852295e-02 5.518635734915733337e-02
7.642047405242919922e-01 -1.417056024074554443e-01 -1.919071748852729797e-02
8.704543709754943848e-01 -4.861190915107727051e-03 1.437325179576873779e-01
9.523580074310302734e-01 -2.432283610105514526e-01 -1.831079721450805664e-01
1.022877573966979980e+00 -3.368129581212997437e-02 -1.866381242871284485e-02
7.697010636329650879e-01 -1.880904287099838257e-01 -5.044006928801536560e-02
8.874884247779846191e-01 -2.196166217327117920e-01 2.879241406917572021e-01
8.885049819946289062e-01 8.502483367919921875e-03 8.102539181709289551e-02
9.369272589683532715e-01 -2.280727326869964600e-01 2.244206666946411133e-01
9.327122569084167480e-01 -1.757566332817077637e-01 -3.425610661506652832e-01
9.930039048194885254e-01 -5.470490455627441406e-02 2.068979740142822266e-01
7.917241454124450684e-01 -6.527225673198699951e-02 -3.471853956580162048e-02
7.878336310386657715e-01 -7.287137210369110107e-02 1.162087917327880859e-01
8.230656385421752930e-01 -3.483711928129196167e-02 1.470557600259780884e-01
8.469402790069580078e-01 -6.161647289991378784e-02 2.852139770984649658e-01
8.341363668441772461e-01 -2.014773339033126831e-02 1.074063330888748169e-01
8.756868839263916016e-01 6.905302405357360840e-03 -8.828550577163696289e-03
8.033521771430969238e-01 -5.119416862726211548e-02 -5.339160561561584473e-02
9.372891187667846680e-01 -2.418335080146789551e-01 -2.169682234525680542e-01
1.001276135444641113e+00 -2.030750513076782227e-01 -1.737803667783737183e-01
7.730784416198730469e-01 -1.086310297250747681e-01 -4.804856702685356140e-02
8.106145858764648438e-01 -1.530407965183258057e-01 -2.457455247640609741e-01
7.819513678550720215e-01 -2.077943980693817139e-01 -9.443277865648269653e-02
8.855205774307250977e-01 -3.169238567352294922e-03 1.616965234279632568e-01
8.094905614852905273e-01 -2.376507073640823364e-01 1.766190826892852783e-01
8.009434342384338379e-01 -2.500194311141967773e-01 3.172878874465823174e-03
1.023414015769958496e+00 -1.722019165754318237e-01 7.014728337526321411e-02
8.651057481765747070e-01 -1.243528649210929871e-01 -3.340516686439514160e-01
8.104116916656494141e-01 -2.270005345344543457e-01 2.114187031984329224e-01
9.788704514503479004e-01 -2.074573785066604614e-01 1.805286854505538940e-01
8.707908987998962402e-01 -2.567794620990753174e-01 1.916119009256362915e-01
8.491929769515991211e-01 -1.547986268997192383e-02 1.456967592239379883e-01
8.541964292526245117e-01 -1.397780179977416992e-01 3.507110774517059326e-01
7.882682681083679199e-01 -2.288177460432052612e-01 -5.971698462963104248e-02
9.158862829208374023e-01 -2.696357965469360352e-01 8.194997161626815796e-02
9.318352937698364258e-01 -5.129948258399963379e-03 1.821692436933517456e-01
9.760239720344543457e-01 -5.748029053211212158e-02 2.475928366184234619e-01
1.034992694854736328e+00 -1.602814495563507080e-01 -5.844593420624732971e-02
1.014703035354614258e+00 -2.819641679525375366e-02 -1.069599092006683350e-01
8.860664367675781250e-01 -6.754814833402633667e-02 3.237119019031524658e-01
7.836334705352783203e-01 -1.693750917911529541e-01 -1.544593423604965210e-01
9.984795451164245605e-01 -1.786814033985137939e-01 1.799205094575881958e-01
8.275455236434936523e-01 -4.251933097839355469e-02 -1.453586667776107788e-01
9.904087185859680176e-01 -2.252753973007202148e-01 5.551335215568542480e-02
8.969223499298095703e-01 -1.509940624237060547e-01 3.556876778602600098e-01
9.173897504806518555e-01 -2.715467810630798340e-01 -8.296625316143035889e-02
8.754396438598632812e-01 -1.102030277252197266e-02 -1.585392057895660400e-01
9.787700176239013672e-01 -2.377317547798156738e-01 -1.062283739447593689e-01
8.423579931259155273e-01 -1.100960820913314819e-01 3.336238563060760498e-01
7.642844915390014648e-01 -1.785311996936798096e-01 -2.384889870882034302e-03
7.765905857086181641e-01 -1.360732316970825195e-01 1.931776255369186401e-01
7.676160931587219238e-01 -1.534655988216400146e-01 1.435612291097640991e-01
8.497321009635925293e-01 -2.573070526123046875e-01 1.781908124685287476e-01
8.858571648597717285e-01 -2.006668150424957275e-01 3.179028928279876709e-01
1.024855852127075195e+00 -9.940350055694580078e-02 1.419666409492492676e-01
8.842512369155883789e-01 -2.792706489562988281e-01 -2.699964120984077454e-02
9.959304928779602051e-01 -1.135212182998657227e-02 -1.125879064202308655e-01
8.041277527809143066e-01 -2.282317280769348145e-01 -1.421849131584167480e-01
8.929029703140258789e-01 -2.132427692413330078e-01 -3.021100163459777832e-01
1.006708025932312012e+00 -5.228075385093688965e-02 -2.216887623071670532e-01
9.241283535957336426e-01 -1.560117304325103760e-02 2.216030508279800415e-01
8.110295534133911133e-01 -5.272173136472702026e-02 1.737690120935440063e-01
8.171277046203613281e-01 -4.396853595972061157e-02 -1.053622663021087646e-01
1.014123916625976562e+00 -2.021628320217132568e-01 -5.592641979455947876e-02
7.639147639274597168e-01 -1.811973750591278076e-01 5.681361630558967590e-02
8.208892941474914551e-01 -9.494526684284210205e-02 -2.389313131570816040e-01
8.562472462654113770e-01 -6.231784820556640625e-03 -6.768815964460372925e-02
9.951524734497070312e-01 -1.185916587710380554e-01 2.427664995193481445e-01
9.123138189315795898e-01 -2.661336064338684082e-01 1.166326329112052917e-01
7.623288631439208984e-01 -1.680560857057571411e-01 1.785387285053730011e-02
9.592783451080322266e-01 -2.457658052444458008e-01 1.001768782734870911e-01
1.038004517555236816e+00 -1.405126899480819702e-01 2.540972083806991577e-02
9.417243003845214844e-01 -2.008418738842010498e-01 2.736449539661407471e-01
7.812570333480834961e-01 -2.222164720296859741e-01 9.643528610467910767e-02
8.262712955474853516e-01 -2.106920480728149414e-01 -2.364079952239990234e-01
1.011553049087524414e+00 -1.441630721092224121e-01 -2.522898912429809570e-01
9.287694096565246582e-01 -1.209340095520019531e-01 3.441050946712493896e-01
9.907963275909423828e-01 -3.671793639659881592e-02 1.783704012632369995e-01
9.924489259719848633e-01 -9.634286165237426758e-03 7.135532051324844360e-02
1.023391842842102051e+00 -5.740110576152801514e-02 9.966772794723510742e-02
7.943553328514099121e-01 -9.596516191959381104e-02 2.215190231800079346e-01
8.393988609313964844e-01 -5.820257216691970825e-02 -2.232901155948638916e-01
8.695667386054992676e-01 -5.776226520538330078e-03 -1.168224662542343140e-01
8.107386827468872070e-01 -1.729979664087295532e-01 -2.400593906641006470e-01
8.162478208541870117e-01 -1.291286647319793701e-01 3.063382208347320557e-01
8.063682913780212402e-01 -6.820643693208694458e-02 -1.420960426330566406e-01
8.191007375717163086e-01 -6.600084900856018066e-02 -1.844059526920318604e-01
8.848828077316284180e-01 -2.391717731952667236e-01 2.457403540611267090e-01
9.884210228919982910e-01 -1.034344285726547241e-01 -3.109421730041503906e-01
8.128654360771179199e-01 -2.208513170480728149e-01 -1.873704493045806885e-01
9.341565370559692383e-01 -2.901314944028854370e-02 2.506445944309234619e-01
1.031994938850402832e+00 -5.365189164876937866e-02 -9.074319899082183838e-02
8.104904890060424805e-01 -3.775680065155029297e-02 -1.393733080476522446e-03
7.790375947952270508e-01 -2.036395072937011719e-01 1.536572128534317017e-01
8.087927103042602539e-01 -9.535303711891174316e-02 2.647259235382080078e-01
8.522781133651733398e-01 -2.757491171360015869e-01 -3.292063251137733459e-02
7.983958721160888672e-01 -1.154387816786766052e-01 2.587892711162567139e-01
1.042785644531250000e+00 -8.642813563346862793e-02 -4.860947281122207642e-02
1.026986956596374512e+00 -1.765403151512145996e-01 -9.551815688610076904e-02
8.960089683532714844e-01 -4.506528377532958984e-03 -1.647499799728393555e-01
8.235672712326049805e-01 -2.568214833736419678e-01 1.318411827087402344e-01
8.676577806472778320e-01 -2.533859610557556152e-01 -1.967519968748092651e-01
8.022317886352539062e-01 -1.812404543161392212e-01 2.668462395668029785e-01
9.268398284912109375e-01 -1.161054149270057678e-01 -3.612797260284423828e-01
9.468460083007812500e-01 -2.183231413364410400e-01 -2.699299156665802002e-01
8.372722864151000977e-01 -4.359754920005798340e-02 -1.809660792350769043e-01
7.803851366043090820e-01 -2.173006534576416016e-01 1.154781654477119446e-01
9.617050290107727051e-01 -2.508026957511901855e-01 4.785624518990516663e-02
1.037543773651123047e+00 -6.865057349205017090e-02 1.007310487329959869e-02
1.018950581550598145e+00 -1.943137794733047485e-01 -1.807543449103832245e-02
8.291654586791992188e-01 -1.379063129425048828e-01 -2.851033210754394531e-01
7.851834297180175781e-01 -2.324934303760528564e-01 4.721360653638839722e-02
1.011814117431640625e+00 -1.168132498860359192e-01 1.943258643150329590e-01
8.607107996940612793e-01 -1.584868878126144409e-01 3.499521315097808838e-01
1.013003826141357422e+00 -1.425140202045440674e-01 1.766988337039947510e-01
7.782986164093017578e-01 -9.969352185726165771e-02 1.463268995285034180e-01
9.376065135002136230e-01 4.809230566024780273e-03 -1.422978937625885010e-01
1.015541791915893555e+00 -1.930913478136062622e-01 -1.252262592315673828e-01
1.026808500289916992e+00 -4.276979714632034302e-02 1.503934897482395172e-02
8.613289594650268555e-01 -2.060744166374206543e-01 3.087088167667388916e-01
9.400599598884582520e-01 -1.381640881299972534e-02 2.059962600469589233e-01
9.040610790252685547e-01 -2.146267145872116089e-02 -2.334408760070800781e-01
-1.309825778007507324e-01 -4.918672889471054077e-02 3.464919328689575195e-01
1.439723968505859375e-01 -4.277872294187545776e-02 -2.856672704219818115e-01
1.595877856016159058e-01 -1.964834481477737427e-01 3.907592892646789551e-01
-5.121719837188720703e-02 -1.963006556034088135e-01 -2.343570888042449951e-01
-2.210582047700881958e-02 1.373947411775588989e-02 3.450194001197814941e-01
2.916557490825653076e-01 -1.320182234048843384e-01 -1.869904100894927979e-01
2.382607609033584595e-01 -2.601461410522460938e-01 -1.955294013023376465e-01
-9.908246994018554688e-02 -1.997227668762207031e-01 2.163889110088348389e-01
3.076311349868774414e-01 -9.322737902402877808e-02 -1.945281401276588440e-02
-1.827973276376724243e-01 -7.209149003028869629e-02 2.588248550891876221e-01
-1.071575134992599487e-01 -1.493577361106872559e-01 3.198021948337554932e-01
3.288742303848266602e-01 -2.479804158210754395e-01 2.490640059113502502e-02
-2.068044245243072510e-02 -1.820970475673675537e-01 -2.921627163887023926e-01
-1.413937658071517944e-01 -8.298937976360321045e-02 3.305040597915649414e-01
2.584445178508758545e-01 -1.169656142592430115e-01 2.992055714130401611e-01
-2.169746309518814087e-01 6.375879049301147461e-03 5.785524100065231323e-02
3.048192895948886871e-02 -2.765997648239135742e-01 -7.844322919845581055e-02
9.377427399158477783e-02 -3.003210723400115967e-01 2.419253811240196228e-02
1.407688409090042114e-01 2.897124737501144409e-02 -5.968657135963439941e-02
2.216268628835678101e-01 -2.049203217029571533e-01 -2.854896485805511475e-01
-1.018842607736587524e-01 -8.570535480976104736e-02 3.772531449794769287e-01
-1.481267064809799194e-01 5.563182383775711060e-02 -4.758089780807495117e-02
-8.373624086380004883e-02 -1.870800405740737915e-01 -2.028859257698059082e-01
-1.063139289617538452e-01 3.712690621614456177e-02 2.670266330242156982e-01
7.018819451332092285e-02 4.276309162378311157e-02 -1.344783604145050049e-01
1.199222728610038757e-02 -2.283781766891479492e-01 -2.389984428882598877e-01
3.291144967079162598e-01 -1.638393551111221313e-01 -1.031754091382026672e-01
-8.897866308689117432e-02 4.954414814710617065e-02 -1.517086327075958252e-01
1.718076765537261963e-01 -3.042795956134796143e-01 1.114848554134368896e-01
5.205759778618812561e-02 3.875178843736648560e-02 2.521841526031494141e-01
3.447957634925842285e-01 -2.092260718345642090e-01 3.696098923683166504e-03
-1.963703185319900513e-01 -1.268879771232604980e-01 7.353502511978149414e-02
1.398105174303054810e-01 3.234622627496719360e-02 -2.839314937591552734e-02
2.529426813125610352e-01 -4.087226092815399170e-02 -6.088609993457794189e-02
-5.273731797933578491e-02 -2.324183583259582520e-01 -1.216817423701286316e-01
-2.697198092937469482e-02 -1.095122545957565308e-01 -3.423669636249542236e-01
9.417427331209182739e-02 -5.036347359418869019e-02 4.027203321456909180e-01
2.270553708076477051e-01 -2.606218755245208740e-01 2.633914053440093994e-01
2.240086495876312256e-01 -3.035049438476562500e-01 -7.219091057777404785e-04
2.015247941017150879e-01 -1.524070501327514648e-01 -3.194035291671752930e-01
3.388522267341613770e-01 -1.540874838829040527e-01 8.066512644290924072e-02
-1.670992374420166016e-01 4.011032730340957642e-02 -7.456286996603012085e-02
-1.202399730682373047e-01 -2.057844251394271851e-01 3.411272913217544556e-02
1.220391541719436646e-01 -2.476239204406738281e-01 3.265757858753204346e-01
1.311254203319549561e-01 -2.779875397682189941e-01 2.466455399990081787e-01
-6.234433501958847046e-02 -2.197701036930084229e-01 2.320548295974731445e-01
7.148347795009613037e-03 -8.742109686136245728e-02 4.367173314094543457e-01
1.771730780601501465e-01 4.891455173492431641e-03 1.721833646297454834e-01
2.167235314846038818e-01 -3.235860168933868408e-02 -1.540125012397766113e-01
2.189861685037612915e-01 -2.120932340621948242e-01 3.428875505924224854e-01
2.272370159626007080e-01 -8.443491160869598389e-02 3.135183155536651611e-01
1.594532430171966553e-01 -3.071384131908416748e-01 6.815282255411148071e-02
4.311331361532211304e-02 -1.384876668453216553e-01 -3.604982793331146240e-01
-1.188283264636993408e-01 -1.173710078001022339e-02 -2.444497942924499512e-01
1.542228087782859802e-02 -1.825624108314514160e-01 3.948576152324676514e-01
2.133738100528717041e-01 -2.079218626022338867e-02 -1.176815256476402283e-01
-1.960964351892471313e-01 -1.245628893375396729e-01 1.011812090873718262e-01
-2.219073027372360229e-01 -5.737476050853729248e-03 3.164783865213394165e-02
3.317077755928039551e-01 -2.196463346481323242e-01 1.324670165777206421e-01
-6.657335162162780762e-02 -2.192700803279876709e-01 -1.425713598728179932e-01
-2.248712033033370972e-01 -3.568880259990692139e-02 1.050673350691795349e-01
2.392403334379196167e-01 -7.678560912609100342e-02 -2.165862917900085449e-01
2.105113118886947632e-01 -1.595636457204818726e-02 1.716168224811553955e-01
7.777763903141021729e-02 -2.560147941112518311e-01 2.931798100471496582e-01
-1.662454307079315186e-01 -1.351165920495986938e-01 2.168366312980651855e-01
1.086633875966072083e-01 -1.471982449293136597e-01 -3.603529930114746094e-01
2.637625634670257568e-01 -6.075065210461616516e-02 -1.122197732329368591e-01
-2.046559005975723267e-01 -9.572182595729827881e-02 -6.063193082809448242e-02
9.093220531940460205e-02 2.594769001007080078e-03 3.214979469776153564e-01
1.821317821741104126e-01 -2.964089214801788330e-01 -1.058111861348152161e-01
1.844111680984497070e-01 -2.681502103805541992e-01 -2.092784345149993896e-01
-9.484234452247619629e-02 -1.303794831037521362e-01 -2.725895643234252930e-01
1.631913036108016968e-01 -5.374222993850708008e-03 2.493495643138885498e-01
1.937869191169738770e-01 -7.769876718521118164e-02 3.509551584720611572e-01
3.289033770561218262e-01 -1.536500453948974609e-01 1.477321833372116089e-01
-6.136903166770935059e-02 -4.225730150938034058e-02 3.985267877578735352e-01
1.007607132196426392e-01 3.299673646688461304e-02 -1.346758902072906494e-01
2.817027568817138672e-01 -6.722644716501235962e-02 1.166432499885559082e-01
1.849036216735839844e-01 -4.854537546634674072e-02 3.197727799415588379e-01
-1.408287286758422852e-01 2.267659455537796021e-02 -1.697268486022949219e-01
5.539637058973312378e-03 -2.719549834728240967e-01 1.125770658254623413e-01
8.551334589719772339e-02 -7.668745517730712891e-02 4.272223412990570068e-01
2.245262637734413147e-02 -2.643505036830902100e-01 -1.344399154186248779e-01
-4.718358814716339111e-02 7.533938437700271606e-02 -2.963754534721374512e-02
2.241881042718887329e-01 -3.017982542514801025e-01 -2.913605421781539917e-02
9.924881160259246826e-02 -3.450440615415573120e-02 3.811042308807373047e-01
-1.262785047292709351e-01 -1.271445602178573608e-01 3.191753029823303223e-01
2.943574190139770508e-01 -9.825803339481353760e-02 1.793968081474304199e-01
-2.113596051931381226e-01 -1.687973737716674805e-03 1.453890800476074219e-01
-1.522248387336730957e-01 2.762103825807571411e-02 2.378149628639221191e-01
3.034759759902954102e-01 -2.708216011524200439e-01 7.528242468833923340e-02
1.624044030904769897e-01 -2.995072007179260254e-01 1.506986767053604126e-01
1.096606850624084473e-01 -1.861083507537841797e-02 -2.733802497386932373e-01
-1.434894949197769165e-01 -1.424996852874755859e-01 -1.730198562145233154e-01
3.100515007972717285e-01 -1.155695915222167969e-01 -1.019237414002418518e-01
1.188599616289138794e-01 -5.912095680832862854e-02 -3.243176639080047607e-01
-1.770610958337783813e-01 -1.451884806156158447e-01 1.341114938259124756e-01
2.109970450401306152e-01 -7.473550736904144287e-03 1.109590381383895874e-01
1.182084605097770691e-01 -3.042242527008056641e-01 4.851189628243446350e-02
1.606609523296356201e-01 -2.741799652576446533e-01 -1.968193054199218750e-01
1.900399774312973022e-01 -3.245051950216293335e-02 2.780229151248931885e-01
1.094213798642158508e-01 -3.015536963939666748e-01 -1.924086734652519226e-02
3.238301873207092285e-01 -1.948500871658325195e-01 -1.299038827419281006e-01
2.552921175956726074e-01 -6.705269962549209595e-02 -1.594515144824981689e-01
1.735430955886840820e-01 -3.017758131027221680e-01 -7.186388224363327026e-02
8.255325257778167725e-02 2.920261770486831665e-02 -1.754375100135803223e-01
8.728481084108352661e-02 -2.891754806041717529e-01 1.670500636100769043e-01
7.099898904561996460e-02 5.946565419435501099e-02 1.046033203601837158e-02
-1.656758934259414673e-01 -1.086142137646675110e-01 -1.733284890651702881e-01
-1.247145980596542358e-02 -1.558516174554824829e-02 3.886460661888122559e-01
-1.631374806165695190e-01 -1.125241070985794067e-01 2.664605379104614258e-01
-1.889371722936630249e-01 3.353317826986312866e-02 -2.770926803350448608e-02
2.952380776405334473e-01 -7.631261646747589111e-02 -1.707047224044799805e-03
8.509807288646697998e-02 -2.512508332729339600e-01 -2.393380701541900635e-01
-1.255034357309341431e-01 2.126348763704299927e-02 2.844129204750061035e-01
3.114925622940063477e-01 -9.598301351070404053e-02 1.910491287708282471e-02
2.580063343048095703e-01 -2.750525176525115967e-01 -1.312485635280609131e-01
2.810216844081878662e-01 -6.175860390067100525e-02 7.587294280529022217e-02
-2.130804210901260376e-01 -9.792479872703552246e-02 2.922803908586502075e-02
3.375850915908813477e-01 -1.990664303302764893e-01 -7.252573221921920776e-02
-3.290024399757385254e-02 -2.355115264654159546e-01 2.330815196037292480e-01
-1.006629467010498047e-01 2.058763056993484497e-02 3.066110908985137939e-01
1.157226786017417908e-02 -1.904199123382568359e-01 -3.058719635009765625e-01
1.318338811397552490e-01 6.765127182006835938e-04 2.813370525836944580e-01
2.329692691564559937e-01 -3.397002071142196655e-02 1.780669391155242920e-01
1.737872958183288574e-01 -1.498756706714630127e-01 4.042212069034576416e-01
1.255409792065620422e-02 -2.769805490970611572e-01 1.525133848190307617e-05
1.321336627006530762e-01 -1.347567886114120483e-02 3.163765966892242432e-01
1.297079622745513916e-01 2.014023810625076294e-02 -1.416074931621551514e-01
-1.607867181301116943e-01 -2.119883894920349121e-03 2.757835686206817627e-01
-9.011510014533996582e-02 7.233596593141555786e-02 -3.547144681215286255e-02
-2.368085831403732300e-02 -2.582462131977081299e-02 -3.135809004306793213e-01
-1.222753971815109253e-01 6.789139658212661743e-02 1.139559075236320496e-01
3.565303981304168701e-03 -2.964894473552703857e-02 -3.217506706714630127e-01
-2.251141220331192017e-01 -5.824325233697891235e-02 1.657779887318611145e-02
2.118801921606063843e-01 -2.783657610416412354e-02 2.180414497852325439e-01
2.795579433441162109e-01 -7.195445895195007324e-02 -9.158641844987869263e-02
-1.630806177854537964e-01 -4.213292896747589111e-02 3.007109165191650391e-01
3.375687003135681152e-01 -2.228932678699493408e-01 -3.898175060749053955e-02
-1.235570460557937622e-01 -2.029908597469329834e-01 6.369354575872421265e-02
-2.515710145235061646e-02 6.596236675977706909e-02 -9.679032117128372192e-02
3.004142343997955322e-01 -1.549331694841384888e-01 2.425816357135772705e-01
2.577573060989379883e-01 -8.269207179546356201e-02 2.522927522659301758e-01
-2.707868069410324097e-02 -1.790136396884918213e-01 3.707437515258789062e-01
9.470283985137939453e-02 -2.724086642265319824e-01 2.516476511955261230e-01
5.841146409511566162e-02 -7.500350475311279297e-04 3.507893681526184082e-01
1.667254269123077393e-01 -3.062422871589660645e-01 -2.523599565029144287e-02
9.188722819089889526e-03 -2.764746248722076416e-01 3.170987218618392944e-02
-1.979948580265045166e-02 -2.268557846546173096e-01 2.828366160392761230e-01
1.250862181186676025e-01 -2.839032113552093506e-01 -1.564143598079681396e-01
-3.519751876592636108e-02 5.907913297414779663e-02 2.211294472217559814e-01
1.045521646738052368e-01 4.278262704610824585e-02 -6.672951579093933105e-02
2.913908958435058594e-01 -2.723387777805328369e-01 -6.865927577018737793e-02
1.708227396011352539e-01 -2.136766612529754639e-01 3.701285719871520996e-01
-2.103718072175979614e-01 -1.026791781187057495e-01 7.742694765329360962e-02
3.435972929000854492e-01 -1.644120663404464722e-01 4.619132727384567261e-02
-8.636651933193206787e-02 -2.214417606592178345e-01 -6.855480372905731201e-02
1.158679947257041931e-01 -2.362050116062164307e-01 -2.799188196659088135e-01
7.378886640071868896e-02 -1.238785013556480408e-01 -3.664585649967193604e-01
-1.770192086696624756e-01 -3.234185278415679932e-03 2.487883269786834717e-01
8.027669042348861694e-03 7.269770652055740356e-02 8.852837979793548584e-02
-1.206268370151519775e-02 -1.548343002796173096e-01 -3.279873132705688477e-01
2.735717892646789551e-01 -1.624477356672286987e-01 -2.396407723426818848e-01
1.541730761528015137e-01 -2.688507437705993652e-01 2.764141559600830078e-01
3.738818317651748657e-02 -5.285499617457389832e-02 -3.428565859794616699e-01
5.469167232513427734e-02 -2.884063124656677246e-01 -3.681981563568115234e-02
2.591398954391479492e-01 -1.710310578346252441e-01 3.207190036773681641e-01
-1.593288034200668335e-02 -2.289389520883560181e-01 -2.043088972568511963e-01
-1.965949684381484985e-01 -6.412228941917419434e-02 2.267152369022369385e-01
9.574882686138153076e-02 -1.597372442483901978e-02 3.548594117164611816e-01
2.984703183174133301e-01 -2.734856605529785156e-01 -3.051601350307464600e-02
2.563984990119934082e-01 -4.194293916225433350e-02 1.105858460068702698e-01
3.467786908149719238e-01 -1.949860453605651855e-01 3.207007795572280884e-02
1.888283938169479370e-01 4.061758518218994141e-03 -6.193721294403076172e-02
-8.221432566642761230e-02 -1.695441901683807373e-01 3.243814706802368164e-01
-1.088173091411590576e-01 -1.564594805240631104e-01 -2.190049290657043457e-01
-9.468214213848114014e-02 -2.239330410957336426e-01 3.864025697112083435e-02
-6.779080629348754883e-02 7.448587566614151001e-02 1.249990314245223999e-01
4.619253426790237427e-02 -2.285283952951431274e-01 3.399943709373474121e-01
2.552078291773796082e-02 -1.308767646551132202e-01 4.364024102687835693e-01
1.780344098806381226e-01 -2.763604521751403809e-01 2.502373158931732178e-01
2.132064551115036011e-01 -3.034246563911437988e-01 8.846093714237213135e-02
6.157185509800910950e-02 -3.162898123264312744e-03 -2.743423879146575928e-01
7.453292608261108398e-03 -2.553621530532836914e-01 2.243633270263671875e-01
9.083260595798492432e-02 -2.472640573978424072e-01 3.207398355007171631e-01
2.644589915871620178e-02 -2.570536136627197266e-01 2.451201081275939941e-01
2.497503906488418579e-01 -2.865382730960845947e-01 -9.649228304624557495e-02
1.203059256076812744e-01 4.248555749654769897e-02 6.940940767526626587e-02
-1.334232240915298462e-01 5.605416744947433472e-02 -7.728103548288345337e-02
2.734552621841430664e-01 -2.048973739147186279e-01 2.878645360469818115e-01
-5.639611929655075073e-02 7.781150192022323608e-02 8.269847929477691650e-02
-1.523171961307525635e-01 6.089729815721511841e-02 2.344040945172309875e-02
-1.297276467084884644e-01 -5.044469237327575684e-02 -2.566522061824798584e-01
2.502198815345764160e-01 -2.442971467971801758e-01 -2.142483294010162354e-01
3.212656974792480469e-01 -2.168005406856536865e-01 1.762586534023284912e-01
-1.397308707237243652e-01 6.563361734151840210e-02 7.178080081939697266e-02
3.188025951385498047e-01 -1.545493304729461670e-01 -1.337046027183532715e-01
3.116385340690612793e-01 -1.825492233037948608e-01 2.218784987926483154e-01
2.760699987411499023e-01 -1.982612311840057373e-01 -2.302923798561096191e-01
1.952761411666870117e-01 -2.830285429954528809e-01 -1.605172455310821533e-01
2.013940811157226562e-01 1.090176403522491455e-03 -1.134659349918365479e-02
-2.204979509115219116e-01 -4.975716024637222290e-02 -3.827150911092758179e-02
5.657017603516578674e-02 5.272897332906723022e-02 -1.003825590014457703e-01
6.423109024763107300e-02 -2.926743030548095703e-01 -1.029812917113304138e-02
-1.249559819698333740e-01 -8.023227751255035400e-02 -2.630509138107299805e-01
2.756978198885917664e-02 3.963076323270797729e-02 2.683447599411010742e-01
2.763648629188537598e-01 -2.877644002437591553e-01 6.302630901336669922e-02
1.797548830509185791e-01 -2.294780015945434570e-01 3.470646440982818604e-01
-8.824810385704040527e-02 -2.087261527776718140e-01 -1.273511648178100586e-01
-6.671808660030364990e-03 -6.913840770721435547e-04 -2.845055162906646729e-01
2.206255644559860229e-01 -2.879409193992614746e-01 -1.254694461822509766e-01
1.311221122741699219e-01 -2.983694374561309814e-01 1.471831500530242920e-01
3.498256206512451172e-02 6.795907765626907349e-02 -1.169309020042419434e-03
-2.036834210157394409e-01 -6.810584664344787598e-02 2.012416124343872070e-01
-1.888512372970581055e-01 -3.564803302288055420e-02 2.488777935504913330e-01
-3.927297890186309814e-02 -1.265516132116317749e-01 4.110999107360839844e-01
1.974486410617828369e-01 -2.383729517459869385e-01 3.253666758537292480e-01
-1.876990646123886108e-01 -1.027722060680389404e-01 2.130867242813110352e-01
2.783184647560119629e-01 -1.241728737950325012e-01 2.678683698177337646e-01
2.562059164047241211e-01 -2.813618481159210205e-01 1.662847101688385010e-01
-6.814138591289520264e-02 -1.500672698020935059e-01 3.683635592460632324e-01
-2.275454550981521606e-01 -3.386054933071136475e-02 4.599292576313018799e-02
2.624044716358184814e-01 -2.415497601032257080e-01 2.618634998798370361e-01
-8.584098517894744873e-02 8.750624954700469971e-03 3.354055881500244141e-01
1.313829720020294189e-01 -1.300512254238128662e-01 -3.563985824584960938e-01
-1.229861378669738770e-02 -1.658264845609664917e-01 3.973731994628906250e-01
1.295232176780700684e-01 -3.038837909698486328e-01 8.995688706636428833e-02
-1.987130790948867798e-01 3.051161020994186401e-02 7.643653452396392822e-02
8.345638215541839600e-02 -2.978374361991882324e-01 6.301200389862060547e-02
2.358240336179733276e-01 -2.778356969356536865e-01 -1.495212018489837646e-01
1.414461582899093628e-01 -3.068770170211791992e-01 3.398955613374710083e-02
1.416076719760894775e-01 -2.189003825187683105e-01 3.725902438163757324e-01
4.482094198465347290e-03 -1.366358995437622070e-01 -3.485516309738159180e-01
1.845080852508544922e-01 -6.498830020427703857e-02 -2.775408923625946045e-01
2.529275417327880859e-01 -6.020041927695274353e-02 2.099353969097137451e-01
5.514553561806678772e-02 5.208802968263626099e-02 1.877604424953460693e-01
-4.525469243526458740e-02 -1.504875123500823975e-01 -3.065650165081024170e-01
1.613912135362625122e-01 -2.891307175159454346e-01 -1.433743834495544434e-01
6.250504404306411743e-03 4.311899095773696899e-02 -1.836479902267456055e-01
-7.788608968257904053e-02 -2.299357950687408447e-01 1.265113204717636108e-01
5.465165153145790100e-02 -1.106352806091308594e-01 4.425074458122253418e-01
3.183783292770385742e-01 -2.276614606380462646e-01 -1.168270781636238098e-01
1.013916730880737305e-01 -2.976122796535491943e-01 -5.276604741811752319e-02
-1.462223082780838013e-01 -1.714141070842742920e-01 -8.092364668846130371e-02
2.516763806343078613e-01 -2.256714105606079102e-01 2.971816956996917725e-01
-1.726716756820678711e-02 -2.095101624727249146e-01 -2.494330108165740967e-01
-2.249642163515090942e-01 -6.356710195541381836e-02 5.635124072432518005e-02
2.211449295282363892e-01 -1.376996189355850220e-02 -3.731125593185424805e-02
-2.188572138547897339e-01 -7.777319103479385376e-02 -5.347773432731628418e-03
-1.826210767030715942e-01 4.355334490537643433e-02 1.201472058892250061e-02
9.887075424194335938e-02 5.056943744421005249e-02 9.670648723840713501e-03
1.400794982910156250e-01 1.845080405473709106e-02 2.023816406726837158e-01
-8.577828109264373779e-02 3.370010107755661011e-02 2.886697053909301758e-01
2.800011038780212402e-01 -2.645108699798583984e-01 1.827404499053955078e-01
1.245522797107696533e-01 -2.031538486480712891e-01 3.933475017547607422e-01
1.611627638339996338e-01 -3.724355250597000122e-02 3.300918936729431152e-01
-2.273985743522644043e-02 5.650927871465682983e-02 -1.424170732498168945e-01
2.856590747833251953e-01 -2.529619038105010986e-01 -1.470327079296112061e-01
-5.565148591995239258e-02 2.449066191911697388e-02 3.201225101947784424e-01
1.775965988636016846e-01 -1.912328600883483887e-01 -3.215945065021514893e-01
-1.802764087915420532e-01 -8.005382120609283447e-02 -1.655181348323822021e-01
1.004182994365692139e-01 -1.047011315822601318e-01 -3.608827888965606689e-01
3.004614412784576416e-01 -1.329992413520812988e-01 2.236481308937072754e-01
-1.145748496055603027e-01 -1.951549798250198364e-01 1.867957413196563721e-01
4.655280709266662598e-02 -2.545453310012817383e-01 -2.027267813682556152e-01
3.420781493186950684e-01 -1.606161743402481079e-01 -6.485551595687866211e-03
-2.253369241952896118e-02 3.958521038293838501e-02 -2.001377642154693604e-01
8.399985730648040771e-02 5.237618833780288696e-02 1.208274886012077332e-01
1.848214417695999146e-01 -4.559103399515151978e-02 -2.454780638217926025e-01
-1.270326077938079834e-01 6.980126351118087769e-02 4.036803171038627625e-02
-4.551391303539276123e-02 -1.827730536460876465e-01 3.475334048271179199e-01
-6.411964446306228638e-02 -1.575506776571273804e-01 -2.802933752536773682e-01
-1.413285583257675171e-01 -1.844175755977630615e-01 -3.010717779397964478e-02
1.353700459003448486e-01 -1.010263711214065552e-02 -2.310944497585296631e-01
-2.058939188718795776e-01 -8.475435525178909302e-02 1.723826825618743896e-01
-4.081290215253829956e-02 7.025212049484252930e-03 -2.675086855888366699e-01
3.099120259284973145e-01 -2.245735824108123779e-01 1.991457641124725342e-01
1.683273464441299438e-01 9.694643318653106689e-03 -1.010061427950859070e-01
5.552328005433082581e-02 6.138325482606887817e-02 1.120996922254562378e-01
2.186063826084136963e-01 -1.583245396614074707e-02 1.370860934257507324e-01
-1.581172347068786621e-01 3.674238920211791992e-03 -1.770367920398712158e-01
-1.074134856462478638e-01 -7.752819359302520752e-02 -2.841065526008605957e-01
2.740450501441955566e-01 -2.734785676002502441e-01 -1.087983623147010803e-01
-6.103650480508804321e-02 6.929411739110946655e-02 1.678806841373443604e-01
5.370856449007987976e-02 -2.446050345897674561e-01 -2.362281978130340576e-01
3.155254125595092773e-01 -2.625135779380798340e-01 1.370131969451904297e-03
-5.127092450857162476e-02 -3.233329206705093384e-02 -3.097919523715972900e-01
-1.054175794124603271e-01 -2.150271236896514893e-01 9.169659018516540527e-02
2.276397123932838440e-02 2.035405486822128296e-02 -2.407837510108947754e-01
2.395378500223159790e-01 -8.015303313732147217e-02 2.858788073062896729e-01
2.524417638778686523e-01 -3.395402431488037109e-02 2.772774547338485718e-02
5.842291191220283508e-02 5.537600070238113403e-02 1.608618199825286865e-01
3.221940398216247559e-01 -1.128063201904296875e-01 5.165567621588706970e-02
-1.702433675527572632e-01 -1.400301754474639893e-01 -9.737700968980789185e-02
8.159796148538589478e-02 3.206660598516464233e-02 2.447183430194854736e-01
3.053676486015319824e-01 -8.913549780845642090e-02 6.666162610054016113e-02
2.820450961589813232e-01 -1.431663036346435547e-01 -2.169352769851684570e-01
-1.873484253883361816e-01 3.032237291336059570e-03 2.174382805824279785e-01
-9.768445789813995361e-02 2.046900242567062378e-02 -2.173743546009063721e-01
-1.964412629604339600e-02 -2.588549256324768066e-01 1.395213454961776733e-01
2.296566665172576904e-01 -2.854773104190826416e-01 1.856689155101776123e-01
-1.420096457004547119e-01 -1.855165362358093262e-01 1.018473654985427856e-01
8.774287998676300049e-03 4.807201772928237915e-02 2.498573064804077148e-01
-1.918918043375015259e-01 -1.291607320308685303e-01 -1.879900693893432617e-02
1.166839525103569031e-02 5.015259236097335815e-02 -1.557350456714630127e-01
-2.178642600774765015e-01 -4.075907170772552490e-03 1.113015115261077881e-01
-1.777787655591964722e-01 -1.152683719992637634e-01 -1.299287676811218262e-01
-5.857942253351211548e-02 -5.798826739192008972e-02 -3.209307491779327393e-01
5.535557866096496582e-04 7.005495578050613403e-02 -5.005677789449691772e-02
1.962661892175674438e-01 -1.582486927509307861e-02 -1.448796987533569336e-01
-1.662848591804504395e-01 -1.635903418064117432e-01 8.304788917303085327e-02
-8.381910622119903564e-02 -2.145342677831649780e-01 1.986750364303588867e-01
3.382586836814880371e-01 -1.954630613327026367e-01 1.237232536077499390e-01
1.375921070575714111e-01 -2.992355227470397949e-01 -8.032230287790298462e-02
-3.932830691337585449e-02 -1.710658520460128784e-02 3.861968517303466797e-01
1.066076010465621948e-01 2.568038552999496460e-02 2.342804372310638428e-01
1.399968713521957397e-01 -3.036685585975646973e-01 -4.145346581935882568e-02
5.193471908569335938e-03 2.079003304243087769e-02 3.280527591705322266e-01
-7.454176247119903564e-02 -6.834846735000610352e-02 4.002772271633148193e-01
2.668763399124145508e-01 -2.927204966545104980e-01 3.229702264070510864e-02
3.447667509317398071e-02 -7.579902559518814087e-02 -3.566651642322540283e-01
1.128262281417846680e-02 -5.134501308202743530e-02 4.223694801330566406e-01
2.933644354343414307e-01 -2.791929244995117188e-01 -2.059321850538253784e-03
-6.062024086713790894e-02 -2.340496182441711426e-01 -8.927937597036361694e-02
-6.616061925888061523e-02 -1.039346605539321899e-01 -3.173443675041198730e-01
5.791306495666503906e-02 -2.907962203025817871e-01 8.491569757461547852e-02
-7.616207003593444824e-02 7.664354890584945679e-02 6.028413772583007812e-04
2.489189356565475464e-01 -3.256417810916900635e-02 -1.303220540285110474e-02
4.016254842281341553e-02 3.047531098127365112e-02 -2.067744433879852295e-01
1.890111863613128662e-01 9.455092251300811768e-03 1.143602840602397919e-02
8.200740069150924683e-02 -1.539918184280395508e-01 4.325391948223114014e-01
1.545018255710601807e-01 -2.819876074790954590e-01 -1.711927354335784912e-01
3.244342803955078125e-01 -1.644805222749710083e-01 1.773799955844879150e-01
-1.543286144733428955e-01 3.979965299367904663e-02 -1.043968424201011658e-01
1.264332234859466553e-01 4.039370268583297729e-02 2.160490676760673523e-02
-2.004605084657669067e-01 -1.769442111253738403e-02 -1.104867681860923767e-01
-2.660263329744338989e-02 -2.557725012302398682e-01 -6.125263869762420654e-02
-3.596139699220657349e-02 5.018007010221481323e-02 2.552277743816375732e-01
1.674292087554931641e-01 5.097903311252593994e-03 1.992774307727813721e-01
1.325480341911315918e-01 2.638667076826095581e-02 -1.036362871527671814e-01
1.427953690290451050e-01 -2.283135354518890381e-01 -2.931746542453765869e-01
2.832478284835815430e-01 -2.158464342355728149e-01 2.635631263256072998e-01
3.227051496505737305e-01 -1.344221830368041992e-01 -8.798391371965408325e-02
-2.219161540269851685e-01 -1.267497986555099487e-02 -7.781870663166046143e-04
-1.030110418796539307e-01 4.914364963769912720e-02 2.350924313068389893e-01
-6.732371449470520020e-02 -1.755383908748626709e-01 -2.509373426437377930e-01
-1.196493357419967651e-01 -2.275367081165313721e-02 3.452002108097076416e-01
-2.110291272401809692e-01 -8.836369961500167847e-02 1.365487873554229736e-01
-4.283842444419860840e-02 -2.527247071266174316e-01 8.225484192371368408e-02
2.254072576761245728e-03 7.121618837118148804e-02 1.217387542128562927e-01
2.067235410213470459e-01 -1.132001504302024841e-01 -3.023061752319335938e-01
1.736605763435363770e-01 -2.929490804672241211e-01 1.874960660934448242e-01
2.128237783908843994e-01 -1.132313907146453857e-02 -6.530586630105972290e-02
-1.187120378017425537e-02 -6.992249190807342529e-02 4.284787476062774658e-01
1.788102090358734131e-01 -1.872517913579940796e-02 -1.912672817707061768e-01
-1.676082462072372437e-01 -1.534173339605331421e-01 -5.822367966175079346e-02
1.362832635641098022e-01 -3.052932620048522949e-01 -1.262167468667030334e-02
-1.582947522401809692e-01 5.468482524156570435e-02 1.181147098541259766e-01
6.707014888525009155e-02 4.399491101503372192e-02 2.130309045314788818e-01
-1.936077624559402466e-01 -5.522118881344795227e-02 -1.422281265258789062e-01
1.064206957817077637e-01 3.594359010457992554e-02 -1.087073460221290588e-01
-1.890168040990829468e-01 -1.771071553230285645e-02 -1.412976980209350586e-01
4.054506123065948486e-02 -1.764653325080871582e-01 -3.362156748771667480e-01
-5.936367064714431763e-02 -6.457544863224029541e-03 3.679720461368560791e-01
-2.213595062494277954e-01 -6.981648504734039307e-02 1.000586748123168945e-01
7.649134099483489990e-02 -2.761880755424499512e-01 2.234295308589935303e-01
5.118493735790252686e-02 -2.767446935176849365e-01 1.904865503311157227e-01
-2.077318578958511353e-01 -7.003355771303176880e-02 -8.738020807504653931e-02
-1.593126207590103149e-01 -1.528031677007675171e-01 1.899416744709014893e-01
-1.679478585720062256e-02 7.670915871858596802e-02 2.466711401939392090e-02
1.871196180582046509e-02 -2.769104540348052979e-01 -3.730396926403045654e-02
-1.343152821063995361e-01 -1.882942318916320801e-01 1.355020403861999512e-01
2.940633296966552734e-01 -2.344023883342742920e-01 -1.659191846847534180e-01
4.575304314494132996e-02 -1.754748523235321045e-01 4.139801859855651855e-01
-1.200779527425765991e-01 -2.034886330366134644e-01 -1.627451553940773010e-02
-5.330264568328857422e-02 4.193120449781417847e-02 -1.903738677501678467e-01
2.869263887405395508e-01 -9.692402184009552002e-02 -1.423748135566711426e-01
2.183592766523361206e-01 -1.824214458465576172e-01 3.631356060504913330e-01
1.001052111387252808e-01 -2.958685159683227539e-01 1.344024837017059326e-01
