9.612664580345153809e-02 1.639417745172977448e-02 2.111656218767166138e-01
2.063181400299072266e-01 8.469702303409576416e-02 3.285540938377380371e-01
2.939888834953308105e-01 6.568710505962371826e-02 2.063292115926742554e-01
2.883636951446533203e-01 1.424908787012100220e-01 -8.009072393178939819e-02
3.022134006023406982e-01 2.209392189979553223e-02 4.419285804033279419e-02
1.025818660855293274e-01 9.868480265140533447e-02 -2.059522271156311035e-01
1.093021854758262634e-01 3.151126950979232788e-02 -4.611634612083435059e-01
1.279780417680740356e-01 4.228024184703826904e-02 2.794057130813598633e-01
1.386885643005371094e-01 -9.083164855837821960e-03 3.150160908699035645e-01
2.857712805271148682e-01 -1.040893234312534332e-02 -9.541255235671997070e-02
2.561954855918884277e-01 2.345074713230133057e-02 3.057752847671508789e-01
1.504880487918853760e-01 -1.552958227694034576e-02 -4.968924522399902344e-01
3.034658730030059814e-01 1.072107776999473572e-01 1.018572449684143066e-01
2.482004016637802124e-01 1.510114967823028564e-01 -2.310042828321456909e-01
7.125521451234817505e-02 5.688846111297607422e-02 -8.759853988885879517e-02
7.903235405683517456e-02 6.598787009716033936e-02 -2.254123240709304810e-01
1.043521240353584290e-01 -1.027269661426544189e-01 -1.911177933216094971e-01
1.215330138802528381e-01 -1.087143421173095703e-01 -3.218374401330947876e-02
2.252207398414611816e-01 -6.215287744998931885e-02 -2.499454617500305176e-01
9.500298649072647095e-02 -5.413668602705001831e-02 -3.944516181945800781e-01
6.011931598186492920e-02 1.929739676415920258e-02 -1.072280108928680420e-02
3.118874430656433105e-01 7.854765653610229492e-02 6.124442815780639648e-02
1.370920240879058838e-01 1.195318102836608887e-01 8.043493330478668213e-02
9.273862093687057495e-02 8.858965337276458740e-02 -6.244788318872451782e-02
5.231708288192749023e-02 -3.672441467642784119e-03 -2.123786062002182007e-01
1.964138299226760864e-01 1.517493873834609985e-01 8.527821302413940430e-02
6.291772425174713135e-02 3.392306715250015259e-02 -2.259054780006408691e-01
1.977463513612747192e-01 -2.807650528848171234e-02 -4.419992566108703613e-01
7.236208021640777588e-02 3.716746717691421509e-02 -3.084689974784851074e-01
7.828210294246673584e-02 -8.836688846349716187e-02 -1.939747035503387451e-01
1.096427738666534424e-01 8.348716795444488525e-02 -3.523908257484436035e-01
1.424830406904220581e-01 -3.764668107032775879e-02 2.929164171218872070e-01
2.820524275302886963e-01 -5.861563608050346375e-03 -1.775159239768981934e-01
1.886576414108276367e-01 -7.187125831842422485e-02 -3.290395140647888184e-01
2.099890559911727905e-01 -8.483030647039413452e-02 4.603938013315200806e-02
2.843173146247863770e-01 1.472421437501907349e-01 -4.626750946044921875e-02
1.769939213991165161e-01 -5.035641789436340332e-02 2.826274633407592773e-01
2.028707116842269897e-01 1.396543830633163452e-01 1.727653890848159790e-01
3.132516741752624512e-01 7.963380962610244751e-02 -6.324576586484909058e-02
1.235391646623611450e-01 5.012306943535804749e-02 -4.682621955871582031e-01
2.838811278343200684e-01 4.715211689472198486e-03 -2.095260471105575562e-01
3.002980053424835205e-01 1.788949966430664062e-02 -8.366049826145172119e-02
1.756241619586944580e-01 -8.969570696353912354e-02 1.314760893583297729e-01
1.776018887758255005e-01 9.123820811510086060e-02 2.936543226242065430e-01
1.004521846771240234e-01 -9.833078086376190186e-02 1.942325383424758911e-02
2.921983599662780762e-01 3.777395188808441162e-02 -2.389099448919296265e-01
9.820152819156646729e-02 -8.882951736450195312e-02 7.509049773216247559e-02
2.368664294481277466e-01 -6.643733382225036621e-02 -1.267072111368179321e-01
7.078605145215988159e-02 4.251336306333541870e-02 1.602806895971298218e-02
2.131206542253494263e-01 -7.769726216793060303e-02 -2.034684419631958008e-01
1.388393640518188477e-01 5.120274052023887634e-02 -4.890194535255432129e-01
1.098898947238922119e-01 1.076943799853324890e-01 -5.076562985777854919e-02
1.846948117017745972e-01 -2.532625012099742889e-02 -4.650328755378723145e-01
2.520360946655273438e-01 -5.377007275819778442e-02 -1.018940284848213196e-01
2.026785612106323242e-01 1.155812442302703857e-01 -4.083479642868041992e-01
2.316718548536300659e-01 -3.294092416763305664e-02 -3.482488393783569336e-01
1.816729307174682617e-01 -2.553318627178668976e-02 3.282057642936706543e-01
2.054353505373001099e-01 -6.211451441049575806e-02 2.164639383554458618e-01
7.131122797727584839e-02 1.631149277091026306e-02 -3.475691676139831543e-01
7.884894311428070068e-02 -3.253979235887527466e-02 1.470209509134292603e-01
1.659680455923080444e-01 6.841824203729629517e-02 -4.903219938278198242e-01
9.643176943063735962e-02 -6.562002003192901611e-02 1.552405506372451782e-01
1.413231641054153442e-01 -1.074204891920089722e-01 1.214025914669036865e-02
9.750372916460037231e-02 9.280276298522949219e-02 -3.592897579073905945e-02
1.339108645915985107e-01 9.204387664794921875e-02 -4.020279049873352051e-01
2.355051040649414062e-01 -1.876818202435970306e-02 2.852674126625061035e-01
7.827249169349670410e-02 3.377727419137954712e-02 1.025182008743286133e-01
2.374417781829833984e-01 -6.867077201604843140e-02 -1.717845350503921509e-02
2.536389231681823730e-01 7.406070828437805176e-02 -4.049037694931030273e-01
2.484008669853210449e-01 1.509461402893066406e-01 1.218674778938293457e-01
2.256516069173812866e-01 4.611544311046600342e-03 -4.412901997566223145e-01
1.148208156228065491e-01 1.127396896481513977e-01 -1.777655780315399170e-01
8.238237351179122925e-02 7.521776854991912842e-02 -8.206941187381744385e-02
2.754850685596466064e-01 6.682617217302322388e-02 -3.410213589668273926e-01
2.826910018920898438e-01 8.199840784072875977e-02 -3.076571226119995117e-01
2.633789181709289551e-01 -3.751568496227264404e-02 -1.469801068305969238e-01
9.304688870906829834e-02 5.046147853136062622e-02 1.444153189659118652e-01
2.708410620689392090e-01 1.341236531734466553e-01 1.641328781843185425e-01
1.244049146771430969e-01 1.226850152015686035e-01 -9.540650248527526855e-02
2.529148161411285400e-01 1.409233510494232178e-01 -2.730885744094848633e-01
1.198706105351448059e-01 1.061336770653724670e-01 -2.896906733512878418e-01
8.112702518701553345e-02 -8.245874196290969849e-02 3.194014728069305420e-02
2.029621899127960205e-01 1.579709947109222412e-01 4.208724200725555420e-02
9.784924983978271484e-02 2.245569229125976562e-02 -4.418234229087829590e-01
8.666222542524337769e-02 3.093540854752063751e-02 1.540117561817169189e-01
3.111625313758850098e-01 1.025768071413040161e-01 -1.888368278741836548e-02
1.128381192684173584e-01 6.249020248651504517e-02 2.006489485502243042e-01
2.089253067970275879e-01 -7.446246594190597534e-02 1.451075077056884766e-01
1.369521468877792358e-01 3.268979117274284363e-02 3.074433803558349609e-01
1.296811997890472412e-01 1.242487803101539612e-01 -2.232828736305236816e-02
7.386564463376998901e-02 -1.130025647580623627e-02 -3.778242468833923340e-01
3.037505149841308594e-01 6.033570319414138794e-02 1.441965252161026001e-01
2.422689646482467651e-01 4.871479794383049011e-02 3.403394818305969238e-01
5.044682323932647705e-02 -3.696346655488014221e-03 -1.580580770969390869e-01
3.098308742046356201e-01 8.763270080089569092e-02 8.221922814846038818e-02
2.621524333953857422e-01 -4.338633269071578979e-02 -9.155101329088211060e-02
5.603851377964019775e-02 -5.316272377967834473e-02 -2.084649354219436646e-01
9.841176867485046387e-02 3.652501851320266724e-02 1.959613412618637085e-01
2.761585712432861328e-01 6.168916821479797363e-02 2.730938196182250977e-01
2.650582194328308105e-01 -3.775738924741744995e-02 -1.229939982295036316e-01
2.106772959232330322e-01 -8.740084618330001831e-02 -2.045378088951110840e-02
1.332900375127792358e-01 1.262422055006027222e-01 -2.066417187452316284e-01
8.999699354171752930e-02 -9.982602298259735107e-02 -1.260777860879898071e-01
7.892928272485733032e-02 5.310326069593429565e-02 4.561572521924972534e-02
2.193300127983093262e-01 -8.033776283264160156e-02 -1.203139051795005798e-01
1.898410469293594360e-01 -9.645143151283264160e-02 -1.340064108371734619e-01
3.020288944244384766e-01 2.823689393699169159e-02 -1.209715828299522400e-01
1.576336771249771118e-01 1.428424268960952759e-01 -7.699981331825256348e-03
1.653037667274475098e-01 -1.067535728216171265e-01 -7.865874469280242920e-02
5.746386200189590454e-02 2.142664976418018341e-02 -2.058929651975631714e-01
1.179755255579948425e-01 1.933220773935317993e-02 2.745503187179565430e-01
6.437960267066955566e-02 3.019351698458194733e-02 -2.627152800559997559e-01
2.442829161882400513e-01 -5.432140082120895386e-02 -1.838852465152740479e-01
2.308683991432189941e-01 1.550987362861633301e-01 1.035850793123245239e-01
1.392161846160888672e-01 1.146196499466896057e-01 1.204131096601486206e-01
9.157624095678329468e-02 -8.331505954265594482e-02 -2.936401367187500000e-01
8.889049291610717773e-02 8.506590873003005981e-02 -1.001974046230316162e-01
9.264970570802688599e-02 5.927163362503051758e-02 -3.593442440032958984e-01
2.625249028205871582e-01 -4.424569010734558105e-02 -5.919619277119636536e-02
3.109897971153259277e-01 5.055264383554458618e-02 -5.366073548793792725e-02
2.161145061254501343e-01 -6.413459777832031250e-02 1.805871576070785522e-01
9.622756391763687134e-02 -1.125898770987987518e-02 2.207174748182296753e-01
6.763103604316711426e-02 -2.936367504298686981e-02 9.303846955299377441e-02
1.511705964803695679e-01 -1.037674248218536377e-01 -2.048165798187255859e-01
2.150140702724456787e-01 -8.413377404212951660e-02 3.192201256752014160e-03
5.250830948352813721e-02 -4.439790546894073486e-02 -7.239914685487747192e-02
1.728435456752777100e-01 1.529882848262786865e-01 -1.138769537210464478e-01
5.706465244293212891e-02 -3.166129812598228455e-03 -2.723010182380676270e-01
2.990088760852813721e-01 1.308291256427764893e-01 -1.296538487076759338e-02
1.730500161647796631e-01 -2.103480510413646698e-02 -4.823980927467346191e-01
7.952202856540679932e-02 -4.633323103189468384e-02 -3.682156205177307129e-01
2.279423773288726807e-01 -7.476915419101715088e-02 2.117024362087249756e-02
1.656744182109832764e-01 -1.063118129968643188e-01 -1.029566302895545959e-01
1.426002234220504761e-01 -9.968435764312744141e-02 8.910650014877319336e-02
2.044860720634460449e-01 1.621239334344863892e-01 -1.343472003936767578e-01
1.471239626407623291e-01 8.196457475423812866e-02 -4.519590735435485840e-01
1.407272666692733765e-01 1.193888261914253235e-01 1.003030389547348022e-01
1.553661674261093140e-01 1.213711276650428772e-01 1.493966728448867798e-01
9.271846711635589600e-02 -3.281418979167938232e-02 1.984854191541671753e-01
2.006948888301849365e-01 -8.218016475439071655e-02 -2.309701293706893921e-01
1.920296996831893921e-01 9.399295598268508911e-02 -4.567306637763977051e-01
1.895506083965301514e-01 8.935704827308654785e-02 3.106538653373718262e-01
1.047701984643936157e-01 -3.640311211347579956e-02 -4.413158297538757324e-01
2.205646634101867676e-01 1.629618108272552490e-01 -1.528941541910171509e-01
2.478506863117218018e-01 1.335285902023315430e-01 -3.125738501548767090e-01
8.438916504383087158e-02 5.368494987487792969e-02 -3.336697220802307129e-01
7.727109640836715698e-02 -4.582549631595611572e-02 1.245115548372268677e-01
1.623909920454025269e-01 -4.168990999460220337e-02 3.000827431678771973e-01
2.584145069122314453e-01 1.780269481241703033e-02 -3.682591319084167480e-01
1.969534009695053101e-01 -9.502072632312774658e-02 -7.076495885848999023e-02
1.380459964275360107e-01 -1.023535132408142090e-01 6.661967933177947998e-02
1.403385698795318604e-01 -1.047311574220657349e-01 4.488830268383026123e-02
2.908283770084381104e-01 7.990390062332153320e-03 1.197198927402496338e-01
6.080331653356552124e-02 -3.242454677820205688e-02 4.502018541097640991e-02
2.001902610063552856e-01 2.532544732093811035e-02 -4.970354437828063965e-01
2.214692980051040649e-01 -1.669709570705890656e-02 3.138969540596008301e-01
2.704367339611053467e-01 -3.363084048032760620e-02 3.286983072757720947e-02
3.027279078960418701e-01 2.093562670052051544e-02 -4.282241314649581909e-02
9.425568580627441406e-02 9.178784489631652832e-02 -1.537035405635833740e-01
2.754682004451751709e-01 1.478855311870574951e-01 -1.483279764652252197e-01
1.955198049545288086e-01 -5.198495835065841675e-02 2.658796906471252441e-01
1.187590584158897400e-01 1.028051525354385376e-01 7.875342667102813721e-02
1.158480495214462280e-01 -4.255662113428115845e-02 2.464115172624588013e-01
2.653867006301879883e-01 -4.135324805974960327e-02 -2.924937754869461060e-02
1.128792017698287964e-01 -1.081991344690322876e-01 -6.475592404603958130e-02
2.262479662895202637e-01 1.625304669141769409e-01 2.749284356832504272e-02
2.768458724021911621e-01 9.191380813717842102e-03 -2.701922655105590820e-01
6.001473963260650635e-02 2.601184137165546417e-02 -4.181755334138870239e-02
1.453723907470703125e-01 1.376541107892990112e-01 -5.994903668761253357e-02
1.061355248093605042e-01 -6.741078197956085205e-02 -3.815100789070129395e-01
9.615682065486907959e-02 -7.507364451885223389e-02 1.264818310737609863e-01
1.893942654132843018e-01 -7.938895374536514282e-02 -2.896846532821655273e-01
2.046102732419967651e-01 1.311589181423187256e-01 -3.594736456871032715e-01
8.659015595912933350e-02 -4.818301647901535034e-02 1.586960405111312866e-01
8.456759154796600342e-02 6.644918769598007202e-02 2.993367612361907959e-02
1.267270445823669434e-01 7.095955312252044678e-03 -4.971166849136352539e-01
1.706832647323608398e-01 -6.214898824691772461e-02 2.533957958221435547e-01
2.874679863452911377e-01 -7.024580612778663635e-03 5.939863622188568115e-02
2.490233629941940308e-01 -4.006885737180709839e-02 1.716843098402023315e-01
1.189958825707435608e-01 -1.069692075252532959e-01 -1.760509014129638672e-01
1.950776726007461548e-01 -5.000395700335502625e-03 3.500443100929260254e-01
1.163212656974792480e-01 7.581742852926254272e-02 -4.014469385147094727e-01
2.555653452873229980e-01 -1.545633561909198761e-02 2.376053184270858765e-01
1.244256347417831421e-01 -2.543700672686100006e-02 2.816159129142761230e-01
1.784835755825042725e-01 1.192159280180931091e-01 -3.886787891387939453e-01
1.847318708896636963e-01 -9.394966065883636475e-02 -1.989750862121582031e-01
3.122902512550354004e-01 9.587411582469940186e-02 -4.294297099113464355e-02
2.248337119817733765e-01 -4.629727452993392944e-02 -3.263568878173828125e-01
2.316751182079315186e-01 1.505627334117889404e-01 -2.596350908279418945e-01
2.822046875953674316e-01 3.427211567759513855e-02 -2.914222776889801025e-01
4.950860142707824707e-02 -3.252000361680984497e-02 -1.278386116027832031e-01
1.032750606536865234e-01 9.363939613103866577e-02 2.376497536897659302e-02
1.924347579479217529e-01 1.405970156192779541e-01 1.507233828306198120e-01
8.765281736850738525e-02 -1.907655037939548492e-02 -4.215753674507141113e-01
8.547338843345642090e-02 -3.321827203035354614e-02 -4.043431282043457031e-01
1.692039668560028076e-01 1.351503580808639526e-01 -3.035754561424255371e-01
9.017004072666168213e-02 -7.668104022741317749e-02 -3.184712827205657959e-01
2.500051558017730713e-01 3.126612305641174316e-02 3.242683410644531250e-01
6.922266632318496704e-02 -8.283875882625579834e-02 -1.116451770067214966e-01
2.427648156881332397e-01 -1.939409412443637848e-02 2.664743661880493164e-01
8.325718343257904053e-02 5.289587005972862244e-02 7.967127859592437744e-02
7.645288854837417603e-02 1.533646881580352783e-02 -3.745433688163757324e-01
2.137055248022079468e-01 -4.290375858545303345e-02 -3.720597624778747559e-01
1.834715157747268677e-01 1.511371582746505737e-01 4.817274957895278931e-02
7.259644567966461182e-02 2.846646308898925781e-02 7.736721634864807129e-02
9.692460298538208008e-02 -1.021952927112579346e-01 -1.563646793365478516e-01
2.877200543880462646e-01 1.193977147340774536e-01 -2.246171683073043823e-01
1.436966508626937866e-01 -5.234475433826446533e-02 2.689028382301330566e-01
1.707274019718170166e-01 -1.031149327754974365e-01 1.211459934711456299e-02
1.830925047397613525e-01 -9.100252389907836914e-02 1.064516752958297729e-01
2.294488847255706787e-01 1.122430860996246338e-01 -3.984961509704589844e-01
1.557822227478027344e-01 5.964107811450958252e-02 3.138486146926879883e-01
7.712785899639129639e-02 -8.300285786390304565e-02 2.043329179286956787e-03
3.130438625812530518e-01 7.426331192255020142e-02 3.737818449735641479e-02
7.583990693092346191e-02 1.331664528697729111e-02 1.244521588087081909e-01
3.134862184524536133e-01 8.692903816699981689e-02 3.393985331058502197e-03
2.816324830055236816e-01 -1.848465763032436371e-02 -7.494222372770309448e-02
1.585733741521835327e-01 -1.075368672609329224e-01 -2.613216266036033630e-02
1.600448936223983765e-01 1.199428364634513855e-01 1.709820330142974854e-01
2.550031542778015137e-01 1.564910411834716797e-01 6.643871963024139404e-02
4.972416162490844727e-02 -1.271975971758365631e-02 -1.017642840743064880e-01
3.008926510810852051e-01 1.019820794463157654e-01 -1.847052276134490967e-01
1.921675652265548706e-01 1.577571928501129150e-01 2.290531992912292480e-03
1.217403560876846313e-01 1.000811383128166199e-01 -3.323664665222167969e-01
9.448415040969848633e-02 8.466850966215133667e-02 6.612986326217651367e-03
7.603458315134048462e-02 -8.352871239185333252e-02 -2.202537357807159424e-01
1.874790489673614502e-01 1.325852721929550171e-01 -3.455733656883239746e-01
1.842734217643737793e-01 5.215082690119743347e-02 3.530928492546081543e-01
2.285730987787246704e-01 1.453872770071029663e-01 1.633450537919998169e-01
1.220151260495185852e-01 -5.953606963157653809e-02 2.272033840417861938e-01
3.099677860736846924e-01 4.715450108051300049e-02 3.556408733129501343e-02
8.137670159339904785e-02 5.633322894573211670e-02 -3.044382631778717041e-01
3.065640330314636230e-01 5.090566352009773254e-02 -1.387287378311157227e-01
1.872708797454833984e-01 1.554733812808990479e-01 -1.813021302223205566e-01
2.672040760517120361e-01 -2.003447525203227997e-02 -2.265155166387557983e-01
1.804750561714172363e-01 4.271632060408592224e-02 -5.104447603225708008e-01
6.866609305143356323e-02 4.929606243968009949e-02 -2.077606171369552612e-01
1.195574104785919189e-01 -5.197539925575256348e-02 -4.329804182052612305e-01
1.183372363448143005e-01 6.169582158327102661e-02 2.216111272573471069e-01
1.455057859420776367e-01 1.154381632804870605e-01 -3.441594839096069336e-01
3.044885694980621338e-01 1.099312677979469299e-01 -1.291792243719100952e-01
5.449838936328887939e-02 -4.801956564188003540e-02 -4.973434656858444214e-02
8.977513015270233154e-02 -9.605447202920913696e-02 -1.834999024868011475e-02
2.240288406610488892e-01 -3.750135004520416260e-02 2.623271942138671875e-01
1.469504237174987793e-01 4.011978954076766968e-02 -5.055631399154663086e-01
1.396735310554504395e-01 9.670827537775039673e-02 1.972213238477706909e-01
2.770786583423614502e-01 1.392790228128433228e-01 1.190700232982635498e-01
1.816352903842926025e-01 -6.825727224349975586e-02 -3.588850498199462891e-01
2.849251925945281982e-01 -1.302205212414264679e-02 3.665664792060852051e-02
1.795896440744400024e-01 1.024500504136085510e-01 -4.369606971740722656e-01
2.668446004390716553e-01 -3.655230998992919922e-02 5.506351590156555176e-02
5.446591973304748535e-02 -5.618607997894287109e-02 -1.428897976875305176e-01
2.295304387807846069e-01 1.584902852773666382e-01 -2.037591934204101562e-01
2.700025439262390137e-01 1.317607313394546509e-01 -2.603189945220947266e-01
5.347895622253417969e-02 9.798260405659675598e-03 -8.702829480171203613e-02
6.361441314220428467e-02 1.333620492368936539e-02 -3.025841116905212402e-01
2.771382331848144531e-01 -1.678301207721233368e-02 1.117913275957107544e-01
2.424871176481246948e-01 1.584984064102172852e-01 -1.857175230979919434e-01
7.592368125915527344e-02 -5.099220573902130127e-02 -3.466336727142333984e-01
3.009519279003143311e-01 1.264277547597885132e-01 1.693993061780929565e-02
1.785447299480438232e-01 -9.577795118093490601e-02 7.719521224498748779e-02
1.057903692126274109e-01 8.704826235771179199e-02 -3.182954192161560059e-01
1.243754103779792786e-01 -8.190982043743133545e-02 1.656401306390762329e-01
1.111161634325981140e-01 -1.076599508523941040e-01 -1.316055208444595337e-01
2.894758582115173340e-01 1.160518750548362732e-01 1.620706617832183838e-01
2.297980338335037231e-01 1.645115911960601807e-01 -1.234550476074218750e-01
6.592489778995513916e-02 -5.380427837371826172e-02 -2.928341329097747803e-01
1.404726654291152954e-01 5.553438514471054077e-02 2.908822298049926758e-01
1.976258456707000732e-01 -8.275207877159118652e-02 1.264512389898300171e-01
1.062978208065032959e-01 9.391061216592788696e-02 4.754710942506790161e-02
2.532421350479125977e-01 1.023572012782096863e-01 -3.766843080520629883e-01
1.313860267400741577e-01 6.714004278182983398e-02 -4.559047222137451172e-01
1.639445573091506958e-01 1.178828701376914978e-01 -3.749249577522277832e-01
6.784020364284515381e-02 -8.021543920040130615e-02 -1.578520685434341431e-01
1.250484585762023926e-01 1.346069294959306717e-02 2.932711839675903320e-01
2.972932159900665283e-01 1.241336613893508911e-01 8.302544057369232178e-02
1.574890315532684326e-01 -1.048317998647689819e-01 2.863808721303939819e-02
1.302793174982070923e-01 8.289983868598937988e-02 2.091094702482223511e-01
1.256224215030670166e-01 -8.941948413848876953e-02 1.354701220989227295e-01
2.240866422653198242e-01 8.241301029920578003e-02 -4.515995979309082031e-01
5.832742154598236084e-02 1.588484272360801697e-03 1.372384279966354370e-02
2.405663728713989258e-01 -3.381101414561271667e-03 3.042057752609252930e-01
2.116077095270156860e-01 -6.956118345260620117e-02 -2.680866122245788574e-01
2.792593836784362793e-01 -8.432282134890556335e-03 1.408212482929229736e-01
1.701336950063705444e-01 1.460913717746734619e-01 -2.216849178075790405e-01
2.561776638031005859e-01 5.412391573190689087e-02 3.192532062530517578e-01
1.864105761051177979e-01 1.441973745822906494e-01 1.151288747787475586e-01
7.654146850109100342e-02 -5.615315586328506470e-02 1.019329875707626343e-01
2.891639173030853271e-01 1.396021693944931030e-01 -1.084933131933212280e-01
2.886221408843994141e-01 1.234415993094444275e-01 1.413262039422988892e-01
2.969194948673248291e-01 1.290753483772277832e-01 5.364240705966949463e-02
1.456862986087799072e-01 2.482214383780956268e-02 3.266933560371398926e-01
2.901715040206909180e-01 1.410824060440063477e-01 3.777243196964263916e-03
3.064413070678710938e-01 8.418909460306167603e-02 -1.618584990501403809e-01
2.022748887538909912e-01 8.003413677215576172e-03 -4.845237135887145996e-01
2.253684699535369873e-01 -4.894120991230010986e-02 2.209631055593490601e-01
2.121396064758300781e-01 -2.332164160907268524e-02 -4.246023893356323242e-01
1.941553354263305664e-01 1.094256117939949036e-01 2.707358598709106445e-01
1.588571667671203613e-01 -9.041693061590194702e-02 1.448506414890289307e-01
7.002473622560501099e-02 5.552593991160392761e-02 -1.510879993438720703e-01
2.359146773815155029e-01 -4.490622133016586304e-02 2.042315155267715454e-01
6.598774343729019165e-02 -5.778732895851135254e-02 3.625549376010894775e-02
1.612911820411682129e-01 -7.078082114458084106e-02 2.281834632158279419e-01
6.058900803327560425e-02 -2.446690574288368225e-03 4.029691219329833984e-02
2.390103936195373535e-01 -5.946990102529525757e-02 1.049724966287612915e-01
2.332973778247833252e-01 -7.120560854673385620e-02 -9.207661449909210205e-02
2.723826467990875244e-01 1.371904090046882629e-02 -3.040761649608612061e-01
1.532127112150192261e-01 1.371983736753463745e-01 -2.286465317010879517e-01
2.957579493522644043e-01 9.854453802108764648e-02 -2.259259074926376343e-01
7.737315446138381958e-02 6.623072177171707153e-02 -6.427274644374847412e-02
2.844234108924865723e-01 1.406109482049942017e-01 7.230898737907409668e-02
1.731368452310562134e-01 1.407843381166458130e-01 -2.771622538566589355e-01
8.699948340654373169e-02 -7.347600162029266357e-02 9.915570914745330811e-02
1.257534027099609375e-01 -7.047972828149795532e-02 -3.905977606773376465e-01
2.612786293029785156e-01 1.608301326632499695e-02 2.845014333724975586e-01
2.894455194473266602e-01 1.276947408914566040e-01 -1.843254268169403076e-01
4.928968846797943115e-02 -2.537822909653186798e-02 -1.583029627799987793e-01
3.004893660545349121e-01 3.013970889151096344e-02 -1.491926014423370361e-01
2.549006342887878418e-01 1.621461659669876099e-01 -2.856765314936637878e-02
2.494471818208694458e-01 -2.723917923867702484e-02 -2.967922389507293701e-01
1.663010269403457642e-01 1.501361280679702759e-01 -8.815688639879226685e-02
1.554119586944580078e-01 1.278314888477325439e-01 1.145030856132507324e-01
2.693939805030822754e-01 1.387378424406051636e-01 -2.339524924755096436e-01
2.242972701787948608e-01 -7.386301457881927490e-02 -1.619333922863006592e-01
9.434475004673004150e-02 8.521381765604019165e-02 -2.459890246391296387e-01
3.075037300586700439e-01 3.445787355303764343e-02 -2.881009504199028015e-02
2.636583447456359863e-01 -2.838673256337642670e-02 1.491633504629135132e-01
1.643567979335784912e-01 1.107732504606246948e-01 -4.004695415496826172e-01
2.462911009788513184e-01 7.291957736015319824e-04 -3.811987042427062988e-01
1.558455377817153931e-01 -9.488969296216964722e-02 1.194936037063598633e-01
2.888289690017700195e-01 -8.340654894709587097e-03 -3.101399540901184082e-02
1.507157981395721436e-01 -6.963720917701721191e-02 -3.913670778274536133e-01
1.643828749656677246e-01 -7.148829102516174316e-02 -3.731032013893127441e-01
1.026354953646659851e-01 7.034946233034133911e-02 1.346342265605926514e-01
5.358262360095977783e-02 -1.508217304944992065e-03 -3.969826176762580872e-02
2.172926366329193115e-01 1.574522852897644043e-01 7.580256462097167969e-02
3.095377683639526367e-01 7.215258479118347168e-02 9.512670338153839111e-02
1.270159780979156494e-01 9.174589812755584717e-02 1.694274097681045532e-01
1.915525197982788086e-01 -9.404500573873519897e-02 -1.603561639785766602e-01
1.445671916007995605e-01 -7.732003182172775269e-02 -3.677207827568054199e-01
2.997633814811706543e-01 2.096807211637496948e-02 8.148728311061859131e-02
1.940879970788955688e-01 1.552291214466094971e-01 -2.073920369148254395e-01
1.062138155102729797e-01 1.055796295404434204e-01 -1.384508013725280762e-01
5.738684535026550293e-02 -6.381114572286605835e-02 -1.179408729076385498e-01
2.916545867919921875e-01 7.573442906141281128e-02 -2.681396603584289551e-01
1.147633939981460571e-01 -1.136246882379055023e-02 2.705801725387573242e-01
1.115468814969062805e-01 -8.622929453849792480e-02 -3.208772838115692139e-01
7.843759655952453613e-02 6.953056901693344116e-02 -1.657258868217468262e-01
2.343397438526153564e-01 2.917178906500339508e-02 -4.455601572990417480e-01
5.298818647861480713e-02 -2.500407211482524872e-02 -2.368961870670318604e-01
1.637479513883590698e-01 1.415842324495315552e-01 4.947569221258163452e-02
2.634109556674957275e-01 1.587492078542709351e-01 -5.188956856727600098e-03
8.282789587974548340e-02 1.621326431632041931e-03 1.687062531709671021e-01
2.484959959983825684e-01 -5.890572816133499146e-02 -5.583122745156288147e-02
2.447479218244552612e-01 -3.077032603323459625e-02 2.273208945989608765e-01
1.828798055648803711e-01 1.255842149257659912e-01 2.022690922021865845e-01
2.813400626182556152e-01 3.454530239105224609e-02 2.411728948354721069e-01
8.662194013595581055e-02 5.317670106887817383e-02 1.009102165699005127e-01
3.073543906211853027e-01 1.114534139633178711e-01 -7.740308344364166260e-02
2.484018206596374512e-01 8.075695484876632690e-02 3.167468905448913574e-01
1.429793536663055420e-01 -1.104378402233123779e-01 -7.097084075212478638e-02
5.864781886339187622e-02 -6.513963639736175537e-02 -8.601890504360198975e-02
9.866994619369506836e-02 7.989523559808731079e-02 7.203008234500885010e-02
2.157223075628280640e-01 -4.888819158077239990e-02 -3.466928005218505859e-01
1.552495658397674561e-01 -4.551734775304794312e-02 -4.515808224678039551e-01
3.133144378662109375e-01 6.288945674896240234e-02 -1.330512389540672302e-02
1.700674593448638916e-01 9.545057266950607300e-02 2.729448676109313965e-01
9.017039090394973755e-02 -8.979485183954238892e-02 -2.521940469741821289e-01
2.640187740325927734e-01 -3.139182180166244507e-02 1.290323883295059204e-01
2.423395663499832153e-01 6.784865260124206543e-02 -4.328516125679016113e-01
2.899415493011474609e-01 3.438942879438400269e-02 2.009577304124832153e-01
1.294107288122177124e-01 1.005998030304908752e-01 -3.589756488800048828e-01
1.799470037221908569e-01 1.103068888187408447e-01 2.496540993452072144e-01
2.329120934009552002e-01 -6.053812801837921143e-02 1.339253783226013184e-01
2.947515249252319336e-01 3.297438845038414001e-03 -5.349402129650115967e-02
1.439804136753082275e-01 1.292021721601486206e-01 4.685641080141067505e-02
2.998485565185546875e-01 5.478996038436889648e-02 1.679089069366455078e-01
3.054718375205993652e-01 1.120057478547096252e-01 6.078055500984191895e-02
1.768082082271575928e-01 1.176416575908660889e-01 2.204816192388534546e-01
1.149487495422363281e-01 -1.063437610864639282e-01 -1.265185326337814331e-02
8.963105082511901855e-02 2.804137766361236572e-04 1.968010514974594116e-01
6.245177239179611206e-02 -3.397347778081893921e-02 -3.092268109321594238e-01
3.087901175022125244e-01 3.883049264550209045e-02 -8.707441389560699463e-03
1.921253055334091187e-01 -9.660277515649795532e-02 -1.051050797104835510e-01
6.175129860639572144e-02 -5.315832793712615967e-02 1.620990782976150513e-02
2.628659605979919434e-01 4.895374551415443420e-02 -3.812709450721740723e-01
3.031823039054870605e-01 8.109585940837860107e-02 1.495155245065689087e-01
2.102901041507720947e-01 -8.129025995731353760e-02 8.576105535030364990e-02
1.616119593381881714e-01 -5.215669050812721252e-03 3.415957093238830566e-01
2.874321937561035156e-01 1.847064495086669922e-02 1.822372525930404663e-01
9.218546003103256226e-02 7.640159130096435547e-02 -2.866937220096588135e-01
2.777093052864074707e-01 1.519113481044769287e-01 -1.794090121984481812e-02
1.523609757423400879e-01 1.325915157794952393e-01 6.751196086406707764e-02
2.983303070068359375e-01 1.119761168956756592e-02 2.513403445482254028e-02
1.322580128908157349e-01 -7.894036918878555298e-02 1.863962560892105103e-01
2.426518052816390991e-01 -3.910740464925765991e-02 -2.819368839263916016e-01
1.612022370100021362e-01 -2.687651105225086212e-02 3.217782378196716309e-01
2.440626472234725952e-01 -2.298264019191265106e-02 -3.334565162658691406e-01
8.917348831892013550e-02 2.489426732063293457e-02 1.746468245983123779e-01
2.179435789585113525e-01 1.114141196012496948e-01 2.804784774780273438e-01
9.083741903305053711e-02 -1.004408150911331177e-01 -1.004879772663116455e-01
9.008870273828506470e-02 8.100445568561553955e-02 -1.356009021401405334e-02
3.015072345733642578e-01 5.536932498216629028e-02 -1.963536143302917480e-01
1.824615597724914551e-01 -8.707615733146667480e-02 -2.632318735122680664e-01
2.193046808242797852e-01 1.368326991796493530e-01 2.000393122434616089e-01
1.199084594845771790e-01 -1.044733077287673950e-01 -2.090374529361724854e-01
3.034259974956512451e-01 1.183344796299934387e-01 -1.005281656980514526e-01
2.470961362123489380e-01 1.060482040047645569e-01 2.815133333206176758e-01
1.569176912307739258e-01 -7.911152392625808716e-02 1.982863992452621460e-01
1.515775024890899658e-01 1.367705017328262329e-01 2.337851375341415405e-02
1.095570325851440430e-01 -1.283069513738155365e-02 -4.697095155715942383e-01
5.750996619462966919e-02 -3.140216320753097534e-02 1.821891218423843384e-02
3.092088103294372559e-01 1.074666976928710938e-01 1.963947713375091553e-02
2.728533148765563965e-01 -1.036869361996650696e-03 2.073933035135269165e-01
2.273139804601669312e-01 1.495369672775268555e-01 1.401774138212203979e-01
2.480106353759765625e-01 1.250425726175308228e-01 -3.388284444808959961e-01
2.830608189105987549e-01 5.168842524290084839e-02 -3.051736950874328613e-01
3.139752745628356934e-01 7.643014937639236450e-02 -3.091117367148399353e-02
1.875266283750534058e-01 1.587584018707275391e-01 -9.148351848125457764e-02
1.075787693262100220e-01 1.067757457494735718e-01 -8.802724629640579224e-02
8.850640803575515747e-02 2.141042798757553101e-02 -4.149923324584960938e-01
2.277695089578628540e-01 1.209044158458709717e-01 -3.796204924583435059e-01
1.128323227167129517e-01 -9.354009479284286499e-02 9.128625690937042236e-02
2.296469509601593018e-01 -2.300552465021610260e-02 -3.817864656448364258e-01
2.331548333168029785e-01 -1.087323389947414398e-02 -3.984050154685974121e-01
2.482331693172454834e-01 1.611059159040451050e-01 -1.401738822460174561e-01
3.083488345146179199e-01 5.097752064466476440e-02 8.221709728240966797e-02
2.885254621505737305e-01 8.608336746692657471e-02 2.207629531621932983e-01
3.036988675594329834e-01 4.177364706993103027e-02 1.150350123643875122e-01
1.832286119461059570e-01 1.571574509143829346e-01 -6.644857674837112427e-02
1.008130460977554321e-01 -9.598568081855773926e-02 3.988141566514968872e-02
2.680220305919647217e-01 6.916581839323043823e-02 -3.665336370468139648e-01
9.843092411756515503e-02 4.679414257407188416e-02 1.776124984025955200e-01
1.557255387306213379e-01 -8.482113480567932129e-02 -3.276693820953369141e-01
2.684691548347473145e-01 8.558125793933868408e-02 2.792780995368957520e-01
1.605496704578399658e-01 -1.045688539743423462e-01 -1.702983081340789795e-01
7.215832173824310303e-02 5.339236930012702942e-02 -3.012057393789291382e-02
2.434011846780776978e-01 1.603875160217285156e-01 -1.636936068534851074e-01
2.478294670581817627e-01 3.219519555568695068e-02 -4.154900908470153809e-01
2.930081486701965332e-01 1.259721219539642334e-01 1.059287041425704956e-01
2.027730196714401245e-01 1.627457886934280396e-01 -5.576635524630546570e-02
3.110498189926147461e-01 5.821344256401062012e-02 5.575670301914215088e-02
6.199204921722412109e-02 -6.736401468515396118e-02 -4.302363097667694092e-02
2.432603240013122559e-01 -4.336302727460861206e-02 -2.592578828334808350e-01
6.095877289772033691e-02 3.600192070007324219e-02 -1.486983597278594971e-01
2.236039340496063232e-01 -5.667216330766677856e-02 -2.867762446403503418e-01
2.310775071382522583e-01 1.600884050130844116e-01 5.920928716659545898e-02
6.797724962234497070e-02 -4.111239314079284668e-02 -3.300092220306396484e-01
2.218695282936096191e-01 -6.475617736577987671e-02 1.572507172822952271e-01
2.642150223255157471e-01 1.222967356443405151e-01 -3.079902827739715576e-01
1.120692044496536255e-01 1.116378307342529297e-01 -1.199746355414390564e-01
2.715204954147338867e-01 1.524136364459991455e-01 -1.286409944295883179e-01
2.210604399442672729e-01 1.419601589441299438e-01 -3.118654489517211914e-01
2.516511082649230957e-01 1.631478965282440186e-01 -6.658558547496795654e-02
3.096852302551269531e-01 9.777504205703735352e-02 -1.007033959031105042e-01
2.055653929710388184e-01 1.030780971050262451e-01 -4.362499117851257324e-01
9.377201646566390991e-02 5.313938483595848083e-02 -3.809837102890014648e-01
5.536571145057678223e-02 -3.967301920056343079e-03 -1.032441109418869019e-02
2.805388867855072021e-01 1.152501255273818970e-01 1.981306225061416626e-01
1.324251294136047363e-01 -8.588071167469024658e-02 -3.352955579757690430e-01
2.544984817504882812e-01 9.218813478946685791e-02 2.957240343093872070e-01
3.757145404815673828e-01 -4.905373454093933105e-01 5.728371441364288330e-02
4.307733476161956787e-01 -4.229019880294799805e-01 2.124423384666442871e-01
3.959443271160125732e-01 -4.353184700012207031e-01 9.381689131259918213e-02
4.663272798061370850e-01 -6.730273962020874023e-01 -6.521161645650863647e-03
3.822185099124908447e-01 -6.632740497589111328e-01 5.697149038314819336e-02
3.934711813926696777e-01 -5.716441273689270020e-01 2.612185478210449219e-01
3.754628896713256836e-01 -5.055944323539733887e-01 -2.287537157535552979e-01
4.326216280460357666e-01 -4.938516020774841309e-01 3.227803111076354980e-01
3.855646252632141113e-01 -5.371980071067810059e-01 2.141245901584625244e-01
4.021731913089752197e-01 -4.261681735515594482e-01 1.082698404788970947e-01
3.898868560791015625e-01 -5.016232728958129883e-01 2.065838277339935303e-01
4.929339587688446045e-01 -5.336515903472900391e-01 1.844282001256942749e-01
3.673035204410552979e-01 -6.039399504661560059e-01 1.699594035744667053e-02
4.490033388137817383e-01 -6.716418266296386719e-01 -2.136731296777725220e-01
4.125286042690277100e-01 -3.903661370277404785e-01 -5.124085769057273865e-02
4.770299792289733887e-01 -4.881293773651123047e-01 2.622740566730499268e-01
3.887901902198791504e-01 -5.149953961372375488e-01 -3.389639854431152344e-01
3.815979957580566406e-01 -6.494249105453491211e-01 -1.939684897661209106e-01
4.006875753402709961e-01 -4.072984158992767334e-01 -8.310557901859283447e-02
3.791071176528930664e-01 -4.813573062419891357e-01 -2.167858183383941650e-01
5.014331936836242676e-01 -5.142798423767089844e-01 -1.360093206167221069e-01
4.986615180969238281e-01 -4.578458964824676514e-01 -1.228031814098358154e-01
3.823700547218322754e-01 -6.213877201080322266e-01 1.699970215559005737e-01
4.693124294281005859e-01 -6.452319025993347168e-01 1.663392782211303711e-01
4.675034880638122559e-01 -6.563168168067932129e-01 -1.635531783103942871e-01
4.182342588901519775e-01 -6.001551747322082520e-01 3.162283003330230713e-01
4.835960268974304199e-01 -5.994603037834167480e-01 -2.169991731643676758e-01
4.172383844852447510e-01 -4.239356517791748047e-01 1.797547191381454468e-01
3.701843917369842529e-01 -5.352895855903625488e-01 -2.039133012294769287e-01
5.017962455749511719e-01 -4.907679259777069092e-01 -1.225389838218688965e-01
4.928639829158782959e-01 -4.564822316169738770e-01 1.306837350130081177e-01
4.058622121810913086e-01 -7.014131546020507812e-01 1.280168443918228149e-02
3.765161037445068359e-01 -5.802938938140869141e-01 -2.715084552764892578e-01
3.978252410888671875e-01 -5.140436291694641113e-01 2.586891353130340576e-01
3.667207062244415283e-01 -5.890899896621704102e-01 -1.461159586906433105e-01
4.281049072742462158e-01 -3.773932158946990967e-01 -1.199743151664733887e-01
4.107548296451568604e-01 -4.586419165134429932e-01 -3.614438474178314209e-01
4.780059754848480225e-01 -4.985017776489257812e-01 -3.332113027572631836e-01
4.772857129573822021e-01 -5.521252751350402832e-01 -3.239175379276275635e-01
4.788099527359008789e-01 -4.049138128757476807e-01 -1.807288378477096558e-01
3.754462599754333496e-01 -4.768585264682769775e-01 -1.286092996597290039e-01
3.773565590381622314e-01 -4.978848993778228760e-01 9.918633103370666504e-02
4.895578622817993164e-01 -5.978113412857055664e-01 1.268535405397415161e-01
4.999087750911712646e-01 -4.582603871822357178e-01 2.767781168222427368e-02
4.227422475814819336e-01 -4.063668251037597656e-01 -2.752770185470581055e-01
5.003433227539062500e-01 -5.318328738212585449e-01 1.000360995531082153e-01
5.010958909988403320e-01 -5.602183341979980469e-01 8.707467466592788696e-03
3.742460310459136963e-01 -5.924058556556701660e-01 1.330445259809494019e-01
4.734898805618286133e-01 -4.108157157897949219e-01 -2.379564940929412842e-01
3.920603990554809570e-01 -6.879502534866333008e-01 -7.231187820434570312e-02
4.852160811424255371e-01 -5.467783212661743164e-01 2.336066663265228271e-01
3.814753293991088867e-01 -6.699213385581970215e-01 -3.412430360913276672e-02
5.006590485572814941e-01 -5.510578751564025879e-01 -1.022069230675697327e-01
3.914751410484313965e-01 -4.267227053642272949e-01 -3.088560327887535095e-02
3.964482247829437256e-01 -4.240491986274719238e-01 -1.883590966463088989e-01
4.460436105728149414e-01 -6.963113546371459961e-01 -6.181170418858528137e-02
3.697272241115570068e-01 -6.195936203002929688e-01 -1.351059973239898682e-01
5.030307769775390625e-01 -5.419276356697082520e-01 1.604333519935607910e-03
4.926338195800781250e-01 -4.559076428413391113e-01 -2.025750428438186646e-01
4.818386435508728027e-01 -4.058719277381896973e-01 6.263104826211929321e-02
4.626516699790954590e-01 -4.021363854408264160e-01 -2.565003037452697754e-01
3.765394687652587891e-01 -6.136770844459533691e-01 1.335140764713287354e-01
3.971415758132934570e-01 -4.823301732540130615e-01 -3.461959362030029297e-01
4.950476288795471191e-01 -5.468654632568359375e-01 1.564669311046600342e-01
3.962700366973876953e-01 -5.582680106163024902e-01 -3.782840669155120850e-01
4.721007943153381348e-01 -6.543442606925964355e-01 9.904150664806365967e-02
4.799016416072845459e-01 -5.705449581146240234e-01 -2.922971844673156738e-01
3.820806145668029785e-01 -6.671529412269592285e-01 2.912604808807373047e-02
4.020566940307617188e-01 -5.906100273132324219e-01 -3.783697783946990967e-01
4.026100039482116699e-01 -6.575449109077453613e-01 -2.784129977226257324e-01
3.680309057235717773e-01 -5.466407537460327148e-01 5.233103781938552856e-02
4.270487725734710693e-01 -7.068732976913452148e-01 -3.137835487723350525e-02
4.408663809299468994e-01 -6.762627363204956055e-01 1.844754070043563843e-01
4.368940591812133789e-01 -3.717616200447082520e-01 -5.630628019571304321e-02
3.713835179805755615e-01 -6.329461932182312012e-01 1.308717206120491028e-02
4.628435671329498291e-01 -6.637879610061645508e-01 1.376829296350479126e-01
3.705322742462158203e-01 -5.022715330123901367e-01 -1.317893564701080322e-01
3.903352022171020508e-01 -5.896223783493041992e-01 2.421499192714691162e-01
3.753664791584014893e-01 -6.425994038581848145e-01 5.171183496713638306e-02
4.062712192535400391e-01 -4.934101998805999756e-01 -3.884817063808441162e-01
4.373452961444854736e-01 -4.286261200904846191e-01 2.342441380023956299e-01
3.715305030345916748e-01 -5.418716073036193848e-01 9.953573346138000488e-02
3.669984042644500732e-01 -5.297674536705017090e-01 -1.295075416564941406e-01
4.585895240306854248e-01 -6.819561719894409180e-01 5.034605413675308228e-02
4.978746771812438965e-01 -5.322415828704833984e-01 -1.793213337659835815e-01
4.997269809246063232e-01 -5.707525610923767090e-01 -3.205955028533935547e-02
4.828374981880187988e-01 -5.506138205528259277e-01 -2.943730354309082031e-01
3.955715298652648926e-01 -4.604401290416717529e-01 1.680440008640289307e-01
4.012833833694458008e-01 -6.282570958137512207e-01 2.522857189178466797e-01
4.882112443447113037e-01 -4.993630647659301758e-01 2.148202061653137207e-01
3.950448036193847656e-01 -6.781983971595764160e-01 -1.789344549179077148e-01
4.958601891994476318e-01 -5.109250545501708984e-01 -2.121433466672897339e-01
4.843632280826568604e-01 -4.500220119953155518e-01 1.820761561393737793e-01
4.211862683296203613e-01 -6.732327938079833984e-01 -2.602777779102325439e-01
4.740065932273864746e-01 -3.882171511650085449e-01 1.612650603055953979e-02
4.032953679561614990e-01 -6.723072528839111328e-01 1.708355247974395752e-01
4.943338930606842041e-01 -5.882278084754943848e-01 -1.141189411282539368e-01
4.037433266639709473e-01 -6.543188691139221191e-01 2.175362706184387207e-01
3.705193400382995605e-01 -6.217072010040283203e-01 4.002696275711059570e-02
4.261627495288848877e-01 -6.414166688919067383e-01 2.775157392024993896e-01
5.032610893249511719e-01 -5.244446396827697754e-01 4.088890552520751953e-02
4.343354701995849609e-01 -7.002865076065063477e-01 -1.082149073481559753e-01
4.140396118164062500e-01 -5.337465405464172363e-01 3.194906115531921387e-01
3.651841282844543457e-01 -5.626515746116638184e-01 -1.240507289767265320e-01
4.876344799995422363e-01 -6.054121255874633789e-01 -1.568762063980102539e-01
4.211898148059844971e-01 -4.683892428874969482e-01 2.794795334339141846e-01
4.763048589229583740e-01 -6.061208248138427734e-01 -2.574152946472167969e-01
4.605866968631744385e-01 -3.738993406295776367e-01 -3.941534459590911865e-02
3.709926009178161621e-01 -5.685690641403198242e-01 1.058661490678787231e-01
4.744653999805450439e-01 -3.865351080894470215e-01 -1.565920747816562653e-02
4.129092991352081299e-01 -6.777547001838684082e-01 -2.392984032630920410e-01
4.915738999843597412e-01 -5.305083394050598145e-01 -2.456126660108566284e-01
4.851797819137573242e-01 -6.176387667655944824e-01 1.146242469549179077e-01
3.753529191017150879e-01 -4.776791930198669434e-01 -1.193470507860183716e-02
4.351482391357421875e-01 -5.712731480598449707e-01 3.425712585449218750e-01
5.018978714942932129e-01 -4.760695099830627441e-01 3.697868436574935913e-02
4.395622611045837402e-01 -4.006792604923248291e-01 1.595186293125152588e-01
3.793648183345794678e-01 -4.594562947750091553e-01 -9.821260720491409302e-02
4.883144199848175049e-01 -5.341926813125610352e-01 -2.691074013710021973e-01
3.766004741191864014e-01 -5.963646173477172852e-01 1.517920047044754028e-01
4.073238968849182129e-01 -4.221129417419433594e-01 -2.661685943603515625e-01
4.816593527793884277e-01 -5.085256099700927734e-01 2.540074586868286133e-01
4.536483585834503174e-01 -6.437161564826965332e-01 2.426741719245910645e-01
3.879259228706359863e-01 -6.195707917213439941e-01 2.064393162727355957e-01
3.993082642555236816e-01 -6.347289085388183594e-01 -3.174043893814086914e-01
4.860962629318237305e-01 -4.163246750831604004e-01 -1.587215662002563477e-01
4.512006938457489014e-01 -3.769034743309020996e-01 4.428607970476150513e-02
4.831339716911315918e-01 -3.995011150836944580e-01 -7.452094554901123047e-02
3.708907663822174072e-01 -6.333583593368530273e-01 -6.285946816205978394e-03
4.738192558288574219e-01 -5.723251104354858398e-01 2.740193009376525879e-01
4.646760225296020508e-01 -5.937784314155578613e-01 -3.360399603843688965e-01
3.718553185462951660e-01 -5.123575925827026367e-01 5.732430517673492432e-02
4.070121347904205322e-01 -4.599177539348602295e-01 2.243416905403137207e-01
3.914675712585449219e-01 -6.170195341110229492e-01 -3.181841671466827393e-01
3.676311075687408447e-01 -5.295592546463012695e-01 -1.476095169782638550e-01
4.469679594039916992e-01 -4.464417099952697754e-01 -3.753373324871063232e-01
3.740274608135223389e-01 -5.735148191452026367e-01 1.382251381874084473e-01
3.771110773086547852e-01 -5.163789987564086914e-01 1.302509307861328125e-01
3.867695331573486328e-01 -6.356764435768127441e-01 -2.653039395809173584e-01
4.064582586288452148e-01 -4.013638496398925781e-01 1.708976924419403076e-04
3.845943212509155273e-01 -4.491528868675231934e-01 -1.624376475811004639e-01
4.883958101272583008e-01 -5.907186269760131836e-01 -1.914710551500320435e-01
4.736276865005493164e-01 -6.560552120208740234e-01 6.204684078693389893e-02
4.962357878684997559e-01 -4.699132144451141357e-01 -1.845599710941314697e-01
4.642678201198577881e-01 -4.336304664611816406e-01 2.279984951019287109e-01
3.844252824783325195e-01 -6.736549139022827148e-01 -9.679477661848068237e-02
4.730072617530822754e-01 -5.174934864044189453e-01 2.905600666999816895e-01
4.381113648414611816e-01 -6.548472642898559570e-01 2.487370073795318604e-01
3.806178569793701172e-01 -6.061660051345825195e-01 -2.768210172653198242e-01
4.950412511825561523e-01 -4.325933158397674561e-01 -8.574591577053070068e-02
4.821720123291015625e-01 -6.366629600524902344e-01 5.439941585063934326e-02
4.974914491176605225e-01 -5.470916032791137695e-01 -1.675768792629241943e-01
4.649752080440521240e-01 -4.584519565105438232e-01 -3.558637499809265137e-01
3.793171048164367676e-01 -4.697421193122863770e-01 -1.783515959978103638e-01
4.844058156013488770e-01 -4.288523793220520020e-01 1.330488026142120361e-01
4.716473221778869629e-01 -6.452322006225585938e-01 1.483052372932434082e-01
3.885824978351593018e-01 -6.683763861656188965e-01 1.018305271863937378e-01
3.653931617736816406e-01 -5.827957987785339355e-01 1.623630523681640625e-04
4.912528395652770996e-01 -6.088612675666809082e-01 4.212537407875061035e-02
3.728001713752746582e-01 -6.140251159667968750e-01 9.288504719734191895e-02
3.851805925369262695e-01 -4.562847018241882324e-01 -2.073208689689636230e-01
4.189237952232360840e-01 -3.832398653030395508e-01 -6.729822605848312378e-02
3.816758394241333008e-01 -4.880628883838653564e-01 1.228791922330856323e-01
4.839099347591400146e-01 -6.110156774520874023e-01 -1.822407692670822144e-01
4.999586045742034912e-01 -5.650728344917297363e-01 -6.942384690046310425e-02
3.675543069839477539e-01 -5.201008319854736328e-01 -1.114796921610832214e-01
4.470209181308746338e-01 -6.776155233383178711e-01 -1.966752111911773682e-01
4.951905012130737305e-01 -5.692830681800842285e-01 -1.587347537279129028e-01
3.708108961582183838e-01 -4.969176650047302246e-01 -1.045296341180801392e-01
