3.289131522178649902e-01 -8.917614817619323730e-02 4.540658742189407349e-02
3.207232058048248291e-01 -7.912287861108779907e-02 -1.729280352592468262e-01
2.833158969879150391e-01 -1.403546035289764404e-01 -1.859815120697021484e-01
1.596253812313079834e-01 -4.513954371213912964e-02 -3.142845034599304199e-01
2.395894229412078857e-01 -3.061175346374511719e-02 -2.359549105167388916e-01
1.635683327913284302e-01 -1.466059535741806030e-01 -4.665518105030059814e-01
2.715402841567993164e-01 -1.019715890288352966e-01 -3.985211253166198730e-01
2.619589865207672119e-01 -1.559473425149917603e-01 1.966229081153869629e-01
2.690701484680175781e-01 -8.937031030654907227e-02 -4.152943789958953857e-01
3.038731515407562256e-01 -1.325851231813430786e-01 -4.192627593874931335e-02
2.839217185974121094e-01 -5.609409511089324951e-02 2.414000928401947021e-01
7.569108158349990845e-02 -1.637881249189376831e-01 1.353459060192108154e-01
2.905259728431701660e-01 -9.407785534858703613e-02 3.155991435050964355e-01
8.435467630624771118e-02 -7.604818046092987061e-02 -1.924577951431274414e-01
1.307168602943420410e-01 -1.583874970674514771e-01 -4.185535013675689697e-01
3.217250704765319824e-01 -6.045395508408546448e-02 5.262871086597442627e-02
1.559335291385650635e-01 -1.601052731275558472e-01 3.411942124366760254e-01
2.391617894172668457e-01 -1.739896535873413086e-01 1.610100269317626953e-03
2.690382599830627441e-01 -4.692158475518226624e-02 -3.211094439029693604e-01
3.219459652900695801e-01 -7.203768193721771240e-02 1.280673146247863770e-01
4.755441844463348389e-02 -1.379173547029495239e-01 -5.111392587423324585e-02
2.930860519409179688e-01 -7.089331746101379395e-02 -3.250210583209991455e-01
8.810472488403320312e-02 -1.803079098463058472e-01 -1.794870197772979736e-01
1.363865733146667480e-01 -1.850973218679428101e-01 1.680595576763153076e-01
6.004124879837036133e-02 -1.668464839458465576e-01 -9.403587132692337036e-02
2.418196350336074829e-01 -1.079649925231933594e-01 -4.646128714084625244e-01
1.284209638833999634e-01 -5.319099128246307373e-02 4.033954441547393799e-02
2.299932688474655151e-01 -3.883817791938781738e-02 1.827026605606079102e-01
2.197962999343872070e-01 -1.314793378114700317e-01 -4.557966589927673340e-01
5.670760571956634521e-02 -1.608019024133682251e-01 -1.531447172164916992e-01
1.582359671592712402e-01 -3.873444348573684692e-02 -2.010065317153930664e-01
2.145376056432723999e-01 -1.507383286952972412e-01 -3.907346725463867188e-01
3.074858188629150391e-01 -6.433843076229095459e-02 -2.408573031425476074e-01
1.273657232522964478e-01 -1.811517030000686646e-01 -2.686791121959686279e-01
7.349471002817153931e-02 -1.692177355289459229e-01 -2.267470955848693848e-01
2.556471228599548340e-01 -1.621361374855041504e-01 1.598810255527496338e-01
2.229263335466384888e-01 -1.755544841289520264e-01 1.576513350009918213e-01
2.941168844699859619e-01 -1.406397223472595215e-01 -6.302256137132644653e-02
4.828706383705139160e-02 -1.436935216188430786e-01 -1.482843458652496338e-01
1.821698546409606934e-01 -3.112520277500152588e-02 -7.225134968757629395e-02
2.607163190841674805e-01 -6.501518934965133667e-02 3.207304775714874268e-01
1.084511876106262207e-01 -1.126789972186088562e-01 2.990206778049468994e-01
1.008455604314804077e-01 -9.954019635915756226e-02 2.407801151275634766e-01
1.764197349548339844e-01 -3.286325931549072266e-02 -1.623825281858444214e-01
1.763049215078353882e-01 -5.546170845627784729e-02 -4.249240756034851074e-01
1.809617727994918823e-01 -3.196216374635696411e-02 -3.758316487073898315e-02
1.356385052204132080e-01 -1.916975080966949463e-01 -1.082866638898849487e-01
6.901516020298004150e-02 -9.628464281558990479e-02 2.910120785236358643e-02
3.224785327911376953e-01 -8.183803409337997437e-02 1.465024650096893311e-01
2.544520199298858643e-01 -3.523737937211990356e-02 -2.672879099845886230e-01
7.561103254556655884e-02 -1.603934168815612793e-01 -2.993775010108947754e-01
6.085439026355743408e-02 -1.192776188254356384e-01 8.385149389505386353e-02
1.750525981187820435e-01 -1.909074783325195312e-01 6.045620888471603394e-03
7.184050232172012329e-02 -1.092623397707939148e-01 -3.439896702766418457e-01
1.942346096038818359e-01 -1.842404305934906006e-01 1.336440443992614746e-01
2.617409229278564453e-01 -5.896065011620521545e-02 -3.902631700038909912e-01
2.246084213256835938e-01 -1.691685169935226440e-01 2.302832305431365967e-01
1.057146713137626648e-01 -9.078478068113327026e-02 -4.307850301265716553e-01
1.710307002067565918e-01 -1.900841593742370605e-01 -9.886041283607482910e-02
2.025972306728363037e-01 -1.795999109745025635e-01 1.800504922866821289e-01
1.493668705224990845e-01 -4.504819959402084351e-02 5.283904820680618286e-02
6.786319613456726074e-02 -1.671829521656036377e-01 5.938886851072311401e-02
2.931153774261474609e-01 -1.410740315914154053e-01 1.056727543473243713e-01
1.861865073442459106e-01 -3.034071624279022217e-02 -1.331389844417572021e-01
2.161450684070587158e-01 -1.816430985927581787e-01 -4.340031370520591736e-02
1.549275219440460205e-01 -4.293842613697052002e-02 -2.665233314037322998e-01
2.048620730638504028e-01 -2.804940193891525269e-02 -2.388463355600833893e-02
3.013948798179626465e-01 -4.845588654279708862e-02 1.250135600566864014e-01
1.780165731906890869e-01 -3.447651863098144531e-02 -2.221840620040893555e-01
7.146041840314865112e-02 -1.165038645267486572e-01 1.512084603309631348e-01
2.390828728675842285e-01 -4.593876749277114868e-02 2.395554184913635254e-01
1.511140912771224976e-01 -1.925185620784759521e-01 -6.942336261272430420e-02
2.013934999704360962e-01 -1.125738099217414856e-01 -5.160021781921386719e-01
1.028615310788154602e-01 -1.464568823575973511e-01 -4.272752702236175537e-01
3.275295495986938477e-01 -7.513774186372756958e-02 6.559658795595169067e-02
2.809313535690307617e-01 -3.598220646381378174e-02 7.945681363344192505e-02
1.968155950307846069e-01 -1.718675792217254639e-01 -2.895846366882324219e-01
9.568796306848526001e-02 -8.319585770368576050e-02 -3.605177700519561768e-01
2.666775584220886230e-01 -1.378771066665649414e-01 -2.976450026035308838e-01
1.892866939306259155e-01 -1.507027298212051392e-01 3.788745105266571045e-01
1.405197679996490479e-01 -1.637603193521499634e-01 -3.969316780567169189e-01
2.359678149223327637e-01 -1.729691773653030396e-01 1.192112639546394348e-01
1.734496653079986572e-01 -4.003182053565979004e-02 9.472670406103134155e-02
2.062141001224517822e-01 -1.838339567184448242e-01 7.638793438673019409e-02
6.488665193319320679e-02 -1.309243142604827881e-01 -3.301546871662139893e-01
2.141360193490982056e-01 -3.726309537887573242e-02 1.561278700828552246e-01
3.142250776290893555e-01 -1.094071641564369202e-01 -1.575994044542312622e-01
2.949566245079040527e-01 -4.267536103725433350e-02 9.988985210657119751e-02
2.609964609146118164e-01 -1.621356457471847534e-01 -7.919192314147949219e-02
2.509861886501312256e-01 -1.674616187810897827e-01 9.768853336572647095e-02
2.932539880275726318e-01 -5.177822336554527283e-02 1.881070137023925781e-01
1.488186568021774292e-01 -5.903749167919158936e-02 -4.005968868732452393e-01
1.695608645677566528e-01 -1.265900880098342896e-01 -5.144093036651611328e-01
1.832217574119567871e-01 -7.846757024526596069e-02 -5.085318088531494141e-01
2.963379025459289551e-01 -6.217187643051147461e-02 -2.912299036979675293e-01
1.098234727978706360e-01 -1.896162927150726318e-01 -9.094652533531188965e-02
1.740938723087310791e-01 -1.543526649475097656e-01 -4.308862090110778809e-01
1.369105577468872070e-01 -5.993132665753364563e-02 1.625141501426696777e-01
2.587027847766876221e-01 -1.170764416456222534e-01 -4.070681333541870117e-01
2.442411482334136963e-01 -1.429874300956726074e-01 -3.531871140003204346e-01
3.275955021381378174e-01 -6.888857483863830566e-02 -1.022208482027053833e-02
1.302215456962585449e-01 -1.779187917709350586e-01 2.242650091648101807e-01
1.354873180389404297e-01 -7.723746448755264282e-02 2.669382393360137939e-01
6.794271618127822876e-02 -1.460055708885192871e-01 1.489668488502502441e-01
1.253089606761932373e-01 -5.954644829034805298e-02 1.030483767390251160e-01
3.269066512584686279e-01 -8.344173431396484375e-02 -9.952548146247863770e-02
7.004232704639434814e-02 -1.122638210654258728e-01 1.291790902614593506e-01
3.044838309288024902e-01 -1.328207254409790039e-01 -9.728658944368362427e-03
2.649629712104797363e-01 -1.386286467313766479e-01 3.048919141292572021e-01
1.115556806325912476e-01 -1.580945551395416260e-01 -4.011571705341339111e-01
1.974618732929229736e-01 -1.676373034715652466e-01 2.978583276271820068e-01
1.059092283248901367e-01 -6.005853042006492615e-02 -1.361349821090698242e-01
2.662514448165893555e-01 -1.346575617790222168e-01 -3.169029653072357178e-01
1.582816094160079956e-01 -1.777276992797851562e-01 -2.983862459659576416e-01
7.320298254489898682e-02 -1.290003955364227295e-01 1.823466718196868896e-01
2.992315590381622314e-01 -7.973083853721618652e-02 -3.081634938716888428e-01
2.543387711048126221e-01 -1.289040148258209229e-01 3.659702837467193604e-01
6.116092205047607422e-02 -1.113976761698722839e-01 5.372385680675506592e-02
1.837450414896011353e-01 -7.815430313348770142e-02 3.623411059379577637e-01
8.846175670623779297e-02 -1.761159300804138184e-01 1.166138276457786560e-01
1.387117654085159302e-01 -6.748403608798980713e-02 -4.248417615890502930e-01
1.163832098245620728e-01 -1.830089092254638672e-01 1.532504558563232422e-01
1.984331011772155762e-01 -1.823416948318481445e-01 1.524197459220886230e-01
2.821858525276184082e-01 -8.539219200611114502e-02 3.321395516395568848e-01
5.014994740486145020e-02 -1.438792049884796143e-01 -6.264198571443557739e-03
2.146220952272415161e-01 -1.691369861364364624e-01 -2.647873461246490479e-01
1.483770310878753662e-01 -1.693863272666931152e-01 -3.648380339145660400e-01
2.526319324970245361e-01 -2.957596629858016968e-02 -1.949727833271026611e-01
1.433736383914947510e-01 -5.822028592228889465e-02 -3.813698589801788330e-01
1.952665299177169800e-01 -1.760207265615463257e-01 -2.535174489021301270e-01
1.922938227653503418e-01 -8.804900199174880981e-02 3.965193629264831543e-01
2.218515127897262573e-01 -2.629736810922622681e-02 -1.414974480867385864e-01
2.435467243194580078e-01 -1.673299968242645264e-01 -1.476428806781768799e-01
3.130941987037658691e-01 -9.765937924385070801e-02 -2.135575711727142334e-01
8.359023183584213257e-02 -7.842095941305160522e-02 -1.271551847457885742e-02
1.030007004737854004e-01 -1.312022060155868530e-01 2.988874912261962891e-01
7.260926812887191772e-02 -1.767161786556243896e-01 -5.307377874851226807e-02
9.801992774009704590e-02 -6.527596712112426758e-02 -1.620005816221237183e-01
2.752104997634887695e-01 -1.341466903686523438e-01 -2.796504795551300049e-01
8.862722665071487427e-02 -7.220061868429183960e-02 -6.578060239553451538e-02
1.490994393825531006e-01 -1.559092551469802856e-01 -4.342359006404876709e-01
1.494199633598327637e-01 -1.715148687362670898e-01 2.852332293987274170e-01
7.567576318979263306e-02 -8.386971056461334229e-02 -4.390276968479156494e-02
1.290008872747421265e-01 -1.925410628318786621e-01 -4.604750871658325195e-02
8.259142190217971802e-02 -1.411487162113189697e-01 2.253465652465820312e-01
9.525539726018905640e-02 -7.616691291332244873e-02 7.719577103853225708e-02
5.064631998538970947e-02 -1.163988634943962097e-01 -1.162409111857414246e-01
2.676156163215637207e-01 -2.880726009607315063e-02 -9.683682769536972046e-02
1.737883388996124268e-01 -1.595080643892288208e-01 3.498113453388214111e-01
7.475933432579040527e-02 -9.954479336738586426e-02 1.040641292929649353e-01
2.972058355808258057e-01 -1.064217686653137207e-01 -2.875644266605377197e-01
3.010782003402709961e-01 -5.231225118041038513e-02 1.586573123931884766e-01
1.696201413869857788e-01 -6.158981099724769592e-02 2.690504491329193115e-01
3.153033852577209473e-01 -6.886789202690124512e-02 1.691164970397949219e-01
9.408564120531082153e-02 -1.857939511537551880e-01 -5.496352910995483398e-03
3.196217417716979980e-01 -1.116189658641815186e-01 8.817724138498306274e-02
5.572053790092468262e-02 -1.545155495405197144e-01 2.641113847494125366e-02
3.007004857063293457e-01 -5.009523406624794006e-02 -2.122026979923248291e-01
3.172206282615661621e-01 -9.385655820369720459e-02 -1.901167035102844238e-01
1.255792081356048584e-01 -1.168754324316978455e-01 3.486688435077667236e-01
1.964636147022247314e-01 -4.512809216976165771e-02 2.051267325878143311e-01
3.174756169319152832e-01 -9.729640930891036987e-02 1.828567385673522949e-01
2.265477478504180908e-01 -1.785907894372940063e-01 3.414440155029296875e-02
1.928723454475402832e-01 -6.596140563488006592e-02 3.259539902210235596e-01
1.745067834854125977e-01 -1.886859834194183350e-01 1.035643890500068665e-01
1.233848407864570618e-01 -1.868500113487243652e-01 -1.956719458103179932e-01
2.963058948516845703e-01 -7.964389026165008545e-02 2.837021946907043457e-01
1.021299660205841064e-01 -1.294090300798416138e-01 -4.570811390876770020e-01
3.283427953720092773e-01 -9.492091834545135498e-02 1.014640554785728455e-02
7.035530358552932739e-02 -8.816708624362945557e-02 -1.714904904365539551e-01
5.063399672508239746e-02 -1.205203384160995483e-01 -4.055508226156234741e-02
3.164229691028594971e-01 -5.421917513012886047e-02 -1.048385649919509888e-01
2.348060011863708496e-01 -1.750067174434661865e-01 -5.186570435762405396e-02
2.192740291357040405e-01 -4.862052202224731445e-02 2.543496191501617432e-01
5.434711277484893799e-02 -1.395100802183151245e-01 5.394844710826873779e-02
2.310381680727005005e-01 -3.029321134090423584e-02 7.987388223409652710e-02
1.543467938899993896e-01 -3.878267854452133179e-02 -1.552455425262451172e-01
2.855851948261260986e-01 -9.577736258506774902e-02 -3.585078120231628418e-01
2.730701863765716553e-01 -1.413535922765731812e-01 2.586568295955657959e-01
1.280233561992645264e-01 -5.082216858863830566e-02 -9.236171841621398926e-03
2.705342769622802734e-01 -1.586409658193588257e-01 5.926389247179031372e-03
1.435238718986511230e-01 -1.878114491701126099e-01 -1.917367279529571533e-01
1.899482905864715576e-01 -5.262647569179534912e-02 2.502942085266113281e-01
6.648308783769607544e-02 -9.229297190904617310e-02 -7.257485389709472656e-02
1.687932610511779785e-01 -4.533131420612335205e-02 1.421570777893066406e-01
2.963698804378509521e-01 -1.369163841009140015e-01 1.284294426441192627e-01
8.043026179075241089e-02 -1.645819097757339478e-01 1.557770669460296631e-01
6.931765377521514893e-02 -1.730247437953948975e-01 -1.396632790565490723e-01
2.090153545141220093e-01 -1.554826498031616211e-01 3.486802875995635986e-01
8.186489343643188477e-02 -1.015944555401802063e-01 1.598845720291137695e-01
1.320097297430038452e-01 -7.611079514026641846e-02 -4.480063617229461670e-01
2.317356169223785400e-01 -4.529595375061035156e-02 -3.754054307937622070e-01
3.293635845184326172e-01 -8.943676948547363281e-02 -1.311549916863441467e-02
1.851977109909057617e-01 -1.834589540958404541e-01 1.714336276054382324e-01
6.937488913536071777e-02 -9.573918581008911133e-02 -2.606767714023590088e-01
1.874163895845413208e-01 -4.233757406473159790e-02 -3.478842377662658691e-01
2.282498031854629517e-01 -2.559912949800491333e-02 -6.129325553774833679e-02
3.159857988357543945e-01 -5.159925296902656555e-02 -6.427726149559020996e-02
7.047931104898452759e-02 -9.162587672472000122e-02 -3.127939999103546143e-03
1.315010786056518555e-01 -4.802632704377174377e-02 -4.459844157099723816e-02
8.412153273820877075e-02 -7.517205178737640381e-02 -8.929261565208435059e-02
1.253957450389862061e-01 -8.943348377943038940e-02 2.882196903228759766e-01
1.015417352318763733e-01 -1.062456667423248291e-01 -4.524964392185211182e-01
2.781330645084381104e-01 -1.514084041118621826e-01 1.212034299969673157e-01
1.433774083852767944e-01 -1.089740768074989319e-01 3.746566772460937500e-01
9.183287620544433594e-02 -1.226792708039283752e-01 -4.364243745803833008e-01
1.866621226072311401e-01 -1.762839257717132568e-01 -2.713005542755126953e-01
1.077020317316055298e-01 -1.765357255935668945e-01 1.861832141876220703e-01
2.045209109783172607e-01 -4.784939065575599670e-02 -3.994804024696350098e-01
1.551991701126098633e-01 -8.836512267589569092e-02 -5.132012367248535156e-01
2.611328363418579102e-01 -2.942854911088943481e-02 -1.630163192749023438e-01
1.537593156099319458e-01 -1.738543808460235596e-01 -3.325226902961730957e-01
1.004991307854652405e-01 -1.640479564666748047e-01 2.339247167110443115e-01
3.110579848289489746e-01 -1.182164549827575684e-01 1.526251733303070068e-01
3.081610500812530518e-01 -4.886172339320182800e-02 -1.434514522552490234e-01
5.186076462268829346e-02 -1.210177168250083923e-01 -1.248264312744140625e-02
2.692501544952392578e-01 -1.482957154512405396e-01 -2.079464197158813477e-01
1.412335336208343506e-01 -4.308036714792251587e-02 -1.204883679747581482e-01
2.854308784008026123e-01 -3.517065942287445068e-02 -1.392465233802795410e-01
1.085581481456756592e-01 -1.646777689456939697e-01 2.533676028251647949e-01
1.615311801433563232e-01 -3.629536181688308716e-02 -1.329291760921478271e-01
1.550087779760360718e-01 -1.908130347728729248e-01 8.600007742643356323e-02
1.048152148723602295e-01 -1.824670881032943726e-01 -2.175607383251190186e-01
3.021211326122283936e-01 -8.055552840232849121e-02 2.640757560729980469e-01
1.668613404035568237e-01 -7.287537306547164917e-02 3.192176520824432373e-01
1.974459886550903320e-01 -6.090190261602401733e-02 3.071109056472778320e-01
1.004160866141319275e-01 -7.436510175466537476e-02 9.704727679491043091e-02
2.738718092441558838e-01 -1.552163958549499512e-01 9.681392461061477661e-02
2.737635374069213867e-01 -4.944057762622833252e-02 2.263241112232208252e-01
1.159277409315109253e-01 -1.302127838134765625e-01 3.328528702259063721e-01
1.085391938686370850e-01 -7.150286436080932617e-02 -3.471713364124298096e-01
2.608948051929473877e-01 -1.582880616188049316e-01 -1.515695154666900635e-01
1.391339600086212158e-01 -5.103823170065879822e-02 -3.007673025131225586e-01
8.842631429433822632e-02 -1.538253128528594971e-01 -3.717597723007202148e-01
3.134436905384063721e-01 -5.728171765804290771e-02 -1.665912419557571411e-01
1.104788854718208313e-01 -7.840830832719802856e-02 1.826266348361968994e-01
2.412742674350738525e-01 -3.537750244140625000e-02 -2.906705737113952637e-01
9.187819808721542358e-02 -7.534184306859970093e-02 3.926005959510803223e-02
1.575744748115539551e-01 -3.851395845413208008e-02 -3.039052523672580719e-02
2.964094281196594238e-01 -1.403936445713043213e-01 3.268418461084365845e-02
5.268827080726623535e-02 -1.228666827082633972e-01 -2.250803112983703613e-01
7.077040523290634155e-02 -1.750684678554534912e-01 -1.091155111789703369e-01
1.042273193597793579e-01 -1.860859543085098267e-01 -1.594121754169464111e-01
2.087893486022949219e-01 -2.770414948463439941e-02 -1.642889976501464844e-01
1.525919586420059204e-01 -1.928381770849227905e-01 -4.001228883862495422e-02
2.822774052619934082e-01 -1.434240788221359253e-01 1.891927719116210938e-01
1.559076458215713501e-01 -3.869290649890899658e-02 -1.752226501703262329e-01
1.700067520141601562e-01 -6.636600941419601440e-02 -4.680223762989044189e-01
7.982958108186721802e-02 -1.501184999942779541e-01 2.013105750083923340e-01
1.255692243576049805e-01 -1.909711807966232300e-01 5.006348341703414917e-02
1.261652112007141113e-01 -1.498404145240783691e-01 3.339107632637023926e-01
1.467309296131134033e-01 -1.857303380966186523e-01 -2.204920351505279541e-01
2.245950400829315186e-01 -1.561884582042694092e-01 -3.354611992835998535e-01
8.694827556610107422e-02 -7.743760943412780762e-02 1.526122540235519409e-02
7.514802366495132446e-02 -1.388056576251983643e-01 -3.690535426139831543e-01
9.730642288923263550e-02 -8.311620354652404785e-02 1.463830173015594482e-01
1.932945251464843750e-01 -1.265649050474166870e-01 -5.017294883728027344e-01
9.419405460357666016e-02 -8.996786177158355713e-02 1.704317033290863037e-01
2.837532758712768555e-01 -3.504320979118347168e-02 4.706333577632904053e-02
2.470439076423645020e-01 -1.677650213241577148e-01 -1.103031933307647705e-01
2.295174598693847656e-01 -1.773015260696411133e-01 5.353917181491851807e-02
8.488424867391586304e-02 -1.727779805660247803e-01 -2.516731619834899902e-01
1.475697904825210571e-01 -5.733576044440269470e-02 1.814204752445220947e-01
1.846836656332015991e-01 -3.999684005975723267e-02 -3.212471902370452881e-01
2.862962782382965088e-01 -4.413507878780364990e-02 -2.435379922389984131e-01
1.909184306859970093e-01 -1.870641112327575684e-01 -8.780221641063690186e-02
1.773518025875091553e-01 -1.434693336486816406e-01 3.970134854316711426e-01
1.837273091077804565e-01 -1.894418895244598389e-01 2.725036442279815674e-02
2.309557795524597168e-01 -1.714876294136047363e-01 1.777977347373962402e-01
1.734890043735504150e-01 -1.882623732089996338e-01 -1.379153877496719360e-01
2.187840938568115234e-01 -1.812367141246795654e-01 1.678305119276046753e-02
1.442373096942901611e-01 -1.917551606893539429e-01 6.210075318813323975e-02
8.120074868202209473e-02 -1.787682771682739258e-01 3.579612076282501221e-02
1.486375331878662109e-01 -4.218741506338119507e-02 -1.155639439821243286e-02
1.636193245649337769e-01 -1.047910898923873901e-01 3.988382816314697266e-01
2.892547249794006348e-01 -1.437104642391204834e-01 -8.176799118518829346e-02
2.701716721057891846e-01 -1.453939825296401978e-01 -2.281953394412994385e-01
1.394973546266555786e-01 -5.609937757253646851e-02 -3.529793620109558105e-01
1.319599002599716187e-01 -4.932744055986404419e-02 -2.273881435394287109e-01
2.847126722335815430e-01 -3.425632417201995850e-02 2.043122053146362305e-02
2.413252741098403931e-01 -1.605645716190338135e-01 2.502777278423309326e-01
1.552467048168182373e-01 -1.814446151256561279e-01 -2.652089595794677734e-01
9.623382985591888428e-02 -1.446050107479095459e-01 2.705735564231872559e-01
2.686845362186431885e-01 -2.976185828447341919e-02 -1.296391338109970093e-01
5.136501789093017578e-02 -1.464465111494064331e-01 -1.934979856014251709e-01
6.451889872550964355e-02 -9.719218313694000244e-02 -2.122435867786407471e-01
1.140578016638755798e-01 -5.658071488142013550e-02 -4.480920359492301941e-02
2.227459549903869629e-01 -1.789904236793518066e-01 -6.768724322319030762e-02
1.899388730525970459e-01 -1.663016974925994873e-01 -3.463456034660339355e-01
8.536289632320404053e-02 -1.029591858386993408e-01 1.841495633125305176e-01
2.752206921577453613e-01 -1.145615503191947937e-01 3.451260626316070557e-01
1.272952258586883545e-01 -1.725147068500518799e-01 -3.394892513751983643e-01
8.990671485662460327e-02 -7.563910633325576782e-02 -2.605555951595306396e-01
1.407391726970672607e-01 -1.877740919589996338e-01 1.386691629886627197e-01
2.889838814735412598e-01 -1.426519900560379028e-01 -1.044753640890121460e-01
2.305475622415542603e-01 -2.666018903255462646e-02 -1.617861390113830566e-01
5.366291105747222900e-02 -1.150435879826545715e-01 -2.026459872722625732e-01
3.065244853496551514e-01 -4.449701309204101562e-02 2.340891957283020020e-02
1.677633225917816162e-01 -4.889785498380661011e-02 1.738690435886383057e-01
3.036973774433135986e-01 -4.202679544687271118e-02 -5.721487104892730713e-04
1.182778030633926392e-01 -7.051106542348861694e-02 -3.816519677639007568e-01
2.374195158481597900e-01 -1.591686755418777466e-01 -2.710223495960235596e-01
1.582448035478591919e-01 -8.352264761924743652e-02 3.435229659080505371e-01
2.726752460002899170e-01 -1.393621265888214111e-01 -2.597981095314025879e-01
1.084556654095649719e-01 -1.898867040872573853e-01 -4.638206958770751953e-02
1.539255529642105103e-01 -4.186402261257171631e-02 2.482334524393081665e-02
1.691095978021621704e-01 -3.910838812589645386e-02 6.246199458837509155e-02
2.171178162097930908e-01 -1.726821511983871460e-01 -2.183044850826263428e-01
3.155359029769897461e-01 -1.177441105246543884e-01 -6.685814261436462402e-02
2.737415730953216553e-01 -4.242511838674545288e-02 -2.782557606697082520e-01
1.676821857690811157e-01 -1.863486170768737793e-01 -1.876171231269836426e-01
2.410193681716918945e-01 -1.645213961601257324e-01 -2.018422484397888184e-01
1.704187691211700439e-01 -3.710122406482696533e-02 -2.403177022933959961e-01
1.149732097983360291e-01 -1.676781177520751953e-01 -3.581140935420989990e-01
8.336266130208969116e-02 -1.372542381286621094e-01 -3.999816775321960449e-01
6.362500041723251343e-02 -1.159849017858505249e-01 -3.091687262058258057e-01
1.943994611501693726e-01 -1.876001507043838501e-01 4.092641174793243408e-03
3.238416910171508789e-01 -1.049303039908409119e-01 -4.748477414250373840e-02
3.141070008277893066e-01 -9.883148968219757080e-02 2.052396535873413086e-01
1.162416338920593262e-01 -1.907296627759933472e-01 1.202635467052459717e-02
1.296884119510650635e-01 -1.606753766536712646e-01 3.104939162731170654e-01
2.449434101581573486e-01 -1.707294285297393799e-01 7.888775318861007690e-02
2.842529416084289551e-01 -1.107018589973449707e-01 3.244372010231018066e-01
2.018152326345443726e-01 -1.781891286373138428e-01 2.002402245998382568e-01
1.919998675584793091e-01 -1.753553599119186401e-01 2.478958964347839355e-01
1.992351412773132324e-01 -3.528129309415817261e-02 1.078753247857093811e-01
2.407885789871215820e-01 -1.600640267133712769e-01 -2.491132915019989014e-01
2.944229841232299805e-01 -1.208829879760742188e-01 -2.473725974559783936e-01
2.812596261501312256e-01 -6.292852759361267090e-02 2.782967388629913330e-01
1.301513016223907471e-01 -1.017938554286956787e-01 -5.033764243125915527e-01
1.938434988260269165e-01 -1.844740658998489380e-01 -1.383924633264541626e-01
1.993116736412048340e-01 -1.862428188323974609e-01 3.942992538213729858e-02
1.336071938276290894e-01 -1.250541210174560547e-01 -5.056306123733520508e-01
3.232265412807464600e-01 -9.596028923988342285e-02 1.296439170837402344e-01
2.980691492557525635e-01 -1.061814501881599426e-01 2.800295948982238770e-01
1.209921315312385559e-01 -6.599744409322738647e-02 1.420621573925018311e-01
6.245748698711395264e-02 -1.671389788389205933e-01 -3.140546381473541260e-03
2.319331020116806030e-01 -3.522880375385284424e-02 1.464479863643646240e-01
-1.975674480199813843e-01 1.563059538602828979e-01 -1.155291032046079636e-02
-2.668515741825103760e-01 9.062618017196655273e-03 3.113052546977996826e-01
-2.973399460315704346e-01 1.792388856410980225e-01 3.177837133407592773e-01
-2.941705286502838135e-01 2.802282571792602539e-03 -2.943263649940490723e-01
-3.355265557765960693e-01 1.998991668224334717e-01 -6.835288554430007935e-02
-3.207983076572418213e-01 1.980228722095489502e-01 -1.732768118381500244e-01
-3.568809926509857178e-01 4.970443993806838989e-02 3.515259027481079102e-01
-2.837320566177368164e-01 3.792187198996543884e-02 4.266824126243591309e-01
-2.661825120449066162e-01 1.993010938167572021e-01 8.048426359891891479e-02
-2.144413590431213379e-01 1.721596419811248779e-01 3.937207162380218506e-02
-2.535580098628997803e-01 1.882978230714797974e-01 1.677774786949157715e-01
-3.883320093154907227e-01 1.317057609558105469e-01 2.534614205360412598e-01
-2.430421859025955200e-01 1.644215583801269531e-01 -3.561972081661224365e-01
-2.059531509876251221e-01 2.944042533636093140e-02 2.201294898986816406e-01
-3.789301812648773193e-01 1.690118759870529175e-01 -9.570486098527908325e-02
-1.709032654762268066e-01 6.768724322319030762e-02 -7.218550145626068115e-02
-2.510254085063934326e-01 1.774710267782211304e-01 2.448706626892089844e-01
-2.229524254798889160e-01 5.039413273334503174e-02 3.527310788631439209e-01
-2.063365876674652100e-01 1.188785210251808167e-01 2.887359261512756348e-01
-2.746970951557159424e-01 -1.641345024108886719e-02 8.530782163143157959e-02
-3.392164707183837891e-01 1.282600611448287964e-01 -4.298044443130493164e-01
-3.191250860691070557e-01 -9.766563773155212402e-03 6.131203472614288330e-02
-2.009151577949523926e-01 7.221974432468414307e-02 2.921825051307678223e-01
-3.743410408496856689e-01 5.855321511626243591e-02 -2.540087103843688965e-01
-2.038998305797576904e-01 2.814403176307678223e-02 -2.871143519878387451e-01
-2.735871374607086182e-01 1.663525998592376709e-01 -3.970657289028167725e-01
-2.457514405250549316e-01 -7.865607738494873047e-03 1.461687982082366943e-01
-1.936239749193191528e-01 1.508820950984954834e-01 -9.898964315652847290e-02
-2.329826951026916504e-01 9.813661873340606689e-02 4.122126400470733643e-01
-3.764717876911163330e-01 3.326486423611640930e-02 -7.384694367647171021e-02
-2.239547371864318848e-01 1.809768676757812500e-01 -8.936723321676254272e-02
-2.511010468006134033e-01 1.410535722970962524e-01 3.939723074436187744e-01
-2.568027675151824951e-01 1.258934438228607178e-01 -4.883505702018737793e-01
-1.713500469923019409e-01 7.061985880136489868e-02 3.803756088018417358e-03
-3.681801259517669678e-01 1.836630105972290039e-01 2.393067255616188049e-02
-1.772013008594512939e-01 1.208927035331726074e-01 -2.722566202282905579e-02
-1.781167387962341309e-01 4.160225018858909607e-02 -5.960036441683769226e-02
-3.716938197612762451e-01 1.785890460014343262e-01 -6.677291542291641235e-02
-2.116543203592300415e-01 1.437770724296569824e-01 -3.301884531974792480e-01
-2.388703674077987671e-01 -1.181405782699584961e-02 -9.535953402519226074e-02
-3.782807886600494385e-01 1.506557315587997437e-01 2.598226964473724365e-01
-2.271299958229064941e-01 1.484077870845794678e-01 -3.753336668014526367e-01
-1.860480308532714844e-01 2.697977423667907715e-02 -3.612723946571350098e-02
-3.763588666915893555e-01 8.985436707735061646e-02 -3.045657873153686523e-01
-2.591454088687896729e-01 6.244587153196334839e-02 4.513227343559265137e-01
-3.987218141555786133e-01 1.401440203189849854e-01 -2.004528045654296875e-02
-3.346592783927917480e-01 1.116798073053359985e-01 4.645220339298248291e-01
-1.975890696048736572e-01 2.129349112510681152e-02 1.109161078929901123e-01
-3.546999692916870117e-01 1.554417610168457031e-02 1.690169870853424072e-01
-2.874006927013397217e-01 -2.513051033020019531e-03 -2.655265033245086670e-01
-3.614152073860168457e-01 1.503566652536392212e-02 -2.115127816796302795e-02
-1.974941790103912354e-01 6.349832564592361450e-02 -3.579121828079223633e-01
-3.383424282073974609e-01 2.036125212907791138e-02 2.942813634872436523e-01
-3.147795796394348145e-01 -1.056518405675888062e-02 -7.922817766666412354e-02
-3.259378373622894287e-01 1.316728442907333374e-02 -2.808424234390258789e-01
-2.282307744026184082e-01 -7.161356508731842041e-03 -1.116622611880302429e-01
-3.023406565189361572e-01 -8.888140320777893066e-03 1.675272583961486816e-01
-3.684456646442413330e-01 1.348371207714080811e-01 -3.198523223400115967e-01
-3.870505094528198242e-01 6.054657697677612305e-02 2.096453011035919189e-01
-3.025675415992736816e-01 2.059797644615173340e-01 -6.047949194908142090e-02
-3.793971538543701172e-01 5.602592229843139648e-02 2.556089162826538086e-01
-3.105287551879882812e-01 -1.262709498405456543e-03 2.264625132083892822e-01
-1.983954310417175293e-01 1.546682119369506836e-01 4.625706747174263000e-02
-2.799748182296752930e-01 8.611015975475311279e-03 -3.422321677207946777e-01
-3.347261250019073486e-01 2.260858565568923950e-02 -3.016262948513031006e-01
-2.138912677764892578e-01 1.736001074314117432e-01 -2.996466681361198425e-02
-1.768850088119506836e-01 7.728425413370132446e-02 -2.252936363220214844e-01
-2.171028554439544678e-01 1.272404491901397705e-01 -4.032463431358337402e-01
-2.332551479339599609e-01 3.274339810013771057e-02 3.406267762184143066e-01
-2.312700003385543823e-01 4.905045032501220703e-03 -2.672375738620758057e-01
-3.585326075553894043e-01 1.502848416566848755e-02 -8.419048786163330078e-02
-3.890748918056488037e-01 5.163992941379547119e-02 1.167612001299858093e-01
-1.733856499195098877e-01 7.643567025661468506e-02 6.342590600252151489e-02
-3.231645226478576660e-01 2.015838176012039185e-01 -1.113693714141845703e-01
-2.261023074388504028e-01 1.813569962978363037e-01 -1.220772340893745422e-01
-3.677760362625122070e-01 8.041495084762573242e-02 3.749087750911712646e-01
-3.242913782596588135e-01 1.950982511043548584e-01 -1.960363090038299561e-01
-3.639129400253295898e-01 1.319841295480728149e-01 -3.448689281940460205e-01
-3.959572911262512207e-01 1.381932944059371948e-01 1.530022323131561279e-01
-3.370261788368225098e-01 1.737460196018218994e-01 -3.081174492835998535e-01
-2.855618894100189209e-01 -1.345951855182647705e-02 -1.536924839019775391e-01
-3.377869725227355957e-01 1.978332698345184326e-01 1.027140840888023376e-01
-2.836253643035888672e-01 7.724320143461227417e-02 -5.143551826477050781e-01
-2.760639488697052002e-01 -1.831757277250289917e-02 -4.670558497309684753e-02
-2.305691987276077271e-01 1.716951280832290649e-02 -3.371961414813995361e-01
-1.722531765699386597e-01 1.004972606897354126e-01 -5.848500877618789673e-04
-3.876407742500305176e-01 6.952972710132598877e-02 2.401467263698577881e-01
-2.489813268184661865e-01 1.149334833025932312e-01 4.361477196216583252e-01
-2.614020705223083496e-01 1.922762244939804077e-01 -2.139178514480590820e-01
-3.533549904823303223e-01 1.230559274554252625e-01 4.182596802711486816e-01
-3.163655996322631836e-01 1.941102594137191772e-01 2.122594118118286133e-01
-3.025082349777221680e-01 1.820990145206451416e-01 -3.249482512474060059e-01
-1.891407817602157593e-01 1.053215041756629944e-01 2.085972726345062256e-01
-3.308930695056915283e-01 1.744687557220458984e-03 -1.654881536960601807e-01
-2.109990417957305908e-01 1.652136296033859253e-01 -1.857819855213165283e-01
-3.634976446628570557e-01 1.090003997087478638e-01 4.005652070045471191e-01
-1.859968453645706177e-01 1.191340684890747070e-01 -2.516959011554718018e-01
-1.757280081510543823e-01 1.158657073974609375e-01 -1.012185662984848022e-01
-3.437356352806091309e-01 1.191411465406417847e-01 4.434968233108520508e-01
-3.435257673263549805e-01 2.833437174558639526e-02 3.173043429851531982e-01
-2.584552466869354248e-01 1.933128833770751953e-01 1.340053975582122803e-01
-3.751603960990905762e-01 6.876156479120254517e-02 -2.778168022632598877e-01
-2.133532166481018066e-01 1.603839993476867676e-01 1.610983014106750488e-01
-3.743940591812133789e-01 1.393735706806182861e-01 -2.798764407634735107e-01
-3.947165906429290771e-01 1.257014870643615723e-01 -1.584897339344024658e-01
-4.025362133979797363e-01 8.281952142715454102e-02 2.204325050115585327e-02
-3.460812568664550781e-01 1.711913347244262695e-01 3.047031164169311523e-01
-3.421641886234283447e-01 2.560876309871673584e-03 1.015449315309524536e-01
-2.297054976224899292e-01 1.702804416418075562e-01 1.980272531509399414e-01
-3.451192378997802734e-01 1.653282940387725830e-01 3.336396217346191406e-01
-2.405196875333786011e-01 9.753020852804183960e-02 4.313020110130310059e-01
-2.155156433582305908e-01 -1.709356904029846191e-03 -6.585878133773803711e-02
-1.895531713962554932e-01 1.370857656002044678e-01 9.095977246761322021e-02
-1.812794655561447144e-01 1.030475497245788574e-01 1.432423293590545654e-01
-3.542736768722534180e-01 3.856597095727920532e-02 -2.918527126312255859e-01
-2.796501219272613525e-01 -9.425856173038482666e-03 1.874421238899230957e-01
-3.556399345397949219e-01 3.263648599386215210e-02 2.887226045131683350e-01
-2.722918391227722168e-01 -1.712642610073089600e-03 -2.808169722557067871e-01
-3.940847814083099365e-01 1.386275589466094971e-01 -1.236677840352058411e-01
-3.468869328498840332e-01 4.052915796637535095e-02 -3.317782580852508545e-01
-1.908587962388992310e-01 1.286119371652603149e-01 1.545563936233520508e-01
-3.587234318256378174e-01 9.313780069351196289e-02 -3.865644931793212891e-01
-2.375427186489105225e-01 -1.692689955234527588e-03 -2.341643273830413818e-01
-3.539575338363647461e-01 9.417280554771423340e-03 7.377284020185470581e-02
-3.502463698387145996e-01 1.940671056509017944e-01 -5.520977452397346497e-02
-2.912047207355499268e-01 1.608711779117584229e-01 3.924902379512786865e-01
-2.702941894531250000e-01 4.652760177850723267e-02 -4.738838970661163330e-01
-3.665262162685394287e-01 1.669202595949172974e-01 2.480799853801727295e-01
-2.942415475845336914e-01 2.045824527740478516e-01 7.550026476383209229e-02
-3.472929596900939941e-01 4.339814186096191406e-03 -3.218687325716018677e-02
-1.969169080257415771e-01 1.286115795373916626e-01 2.049888372421264648e-01
-3.823713064193725586e-01 3.821269422769546509e-02 -1.228967774659395218e-02
-3.245403766632080078e-01 -8.193708956241607666e-03 -2.419973909854888916e-02
-3.196953535079956055e-01 -2.587966620922088623e-03 1.845282912254333496e-01
-3.090436458587646484e-01 4.911809787154197693e-02 -4.526363015174865723e-01
-4.049030542373657227e-01 1.099933683872222900e-01 1.070763170719146729e-02
-1.947242319583892822e-01 6.287254393100738525e-02 2.480079531669616699e-01
-2.819935083389282227e-01 -1.733940839767456055e-02 -7.892322540283203125e-02
-2.294138669967651367e-01 8.856047689914703369e-02 -4.753766953945159912e-01
-3.935337662696838379e-01 8.767294883728027344e-02 2.324655354022979736e-01
-2.752948999404907227e-01 -5.691073834896087646e-03 2.215166389942169189e-01
-2.253539413213729858e-01 3.644867986440658569e-02 -3.969090580940246582e-01
-3.768027126789093018e-01 3.694342076778411865e-02 -1.125992387533187866e-01
-2.233267277479171753e-01 1.735660433769226074e-01 -2.079511284828186035e-01
-2.339950352907180786e-01 3.971520066261291504e-02 -4.246439039707183838e-01
-2.589845359325408936e-01 4.349163919687271118e-02 4.196056723594665527e-01
-3.974684476852416992e-01 8.428394049406051636e-02 -1.219475790858268738e-01
-3.064889907836914062e-01 -1.147014647722244263e-02 1.146215274930000305e-01
-2.343267649412155151e-01 1.701027750968933105e-01 2.233782112598419189e-01
-2.162977010011672974e-01 -2.432107925415039062e-03 -3.631899505853652954e-02
-3.353880047798156738e-01 -2.356737852096557617e-03 7.113260775804519653e-02
-1.799451112747192383e-01 1.266893595457077026e-01 -4.075454548001289368e-03
-1.738651692867279053e-01 9.845361113548278809e-02 -1.649908125400543213e-01
-3.626496493816375732e-01 2.456764876842498779e-02 -1.535252630710601807e-01
-2.991915941238403320e-01 1.931321024894714355e-01 -2.520466744899749756e-01
-3.392364978790283203e-01 1.813525855541229248e-01 -2.590671479701995850e-01
-3.036423921585083008e-01 2.016959339380264282e-01 -1.568584144115447998e-01
-2.282641679048538208e-01 9.581550955772399902e-03 2.242013216018676758e-01
-3.110184073448181152e-01 -7.278650999069213867e-03 -1.609848141670227051e-01
-1.841240525245666504e-01 3.903816640377044678e-02 -1.853889822959899902e-01
-1.880353093147277832e-01 7.701686769723892212e-02 -3.191147446632385254e-01
-2.289226055145263672e-01 1.326595395803451538e-01 -4.267500638961791992e-01
-2.764505147933959961e-01 -1.161315292119979858e-02 1.622946560382843018e-01
-3.980792760848999023e-01 7.103779166936874390e-02 -4.318647086620330811e-02
-3.991464376449584961e-01 1.399448066949844360e-01 5.813059955835342407e-02
-3.254300653934478760e-01 1.850891113281250000e-01 -2.740403413772583008e-01
-3.990624845027923584e-01 7.215042412281036377e-02 8.373094350099563599e-02
-3.724845349788665771e-01 9.154190868139266968e-02 -3.262610435485839844e-01
-2.191061973571777344e-01 1.431758701801300049e-01 2.824484407901763916e-01
-3.806487023830413818e-01 4.003243520855903625e-02 1.379631459712982178e-01
-3.381156921386718750e-01 2.000804543495178223e-01 -1.918806694447994232e-02
-1.812496483325958252e-01 5.451912060379981995e-02 -2.269964814186096191e-01
-4.046659469604492188e-01 1.021020337939262390e-01 7.002746313810348511e-02
-3.841595947742462158e-01 4.590794816613197327e-02 -9.254530072212219238e-02
-2.012116611003875732e-01 1.514134705066680908e-01 1.195284202694892883e-01
-2.408636063337326050e-01 -1.226827502250671387e-02 4.683386161923408508e-02
-2.439724355936050415e-01 9.080491960048675537e-03 -3.244169354438781738e-01
-2.530601322650909424e-01 1.846168637275695801e-01 1.996425092220306396e-01
-2.349102795124053955e-01 1.242801547050476074e-03 1.919205486774444580e-01
-2.260763347148895264e-01 1.610819101333618164e-01 -3.150931894779205322e-01
-1.915387809276580811e-01 2.234799414873123169e-02 4.054898396134376526e-02
-3.652804493904113770e-01 1.249274984002113342e-01 3.808922767639160156e-01
-3.194289803504943848e-01 4.273672774434089661e-02 -4.187133610248565674e-01
-3.582752346992492676e-01 1.681468933820724487e-01 2.793600857257843018e-01
-2.370984554290771484e-01 1.784868985414505005e-01 -2.468475401401519775e-01
-2.033094316720962524e-01 6.886994838714599609e-02 -3.900478482246398926e-01
-2.279613763093948364e-01 1.808795630931854248e-01 7.636392116546630859e-02
-2.155177295207977295e-01 1.029155924916267395e-01 3.523521721363067627e-01
-1.880478560924530029e-01 3.097719699144363403e-02 7.811152935028076172e-02
-3.076461553573608398e-01 2.868015319108963013e-02 3.921773135662078857e-01
-3.355342745780944824e-01 1.866758763790130615e-01 2.381804883480072021e-01
-3.461839556694030762e-01 9.536899626255035400e-03 -1.444042325019836426e-01
-1.991013288497924805e-01 1.567343175411224365e-01 -1.255936622619628906e-01
-3.483606874942779541e-01 1.790152490139007568e-01 2.532215118408203125e-01
-3.419485390186309814e-01 1.930827498435974121e-01 -1.457267403602600098e-01
-2.663873136043548584e-01 -1.172690838575363159e-02 -1.861179769039154053e-01
-3.968580365180969238e-01 7.234129309654235840e-02 -8.125194907188415527e-02
-3.371095657348632812e-01 5.775274708867073059e-02 4.267068505287170410e-01
-1.876017004251480103e-01 9.596198797225952148e-02 -3.129294514656066895e-01
-2.228110134601593018e-01 1.778452694416046143e-01 -1.461104154586791992e-01
-2.870571613311767578e-01 -1.756082475185394287e-02 3.428106382489204407e-02
-2.955763638019561768e-01 4.744234308600425720e-02 4.493261873722076416e-01
-2.509433925151824951e-01 1.107267886400222778e-01 -4.999169111251831055e-01
-3.659395575523376465e-01 5.621891096234321594e-02 -2.961316406726837158e-01
-3.563484549522399902e-01 8.074273914098739624e-02 4.139795601367950439e-01
-2.036503553390502930e-01 1.626062989234924316e-01 1.347887329757213593e-02
-2.520858049392700195e-01 1.815010160207748413e-01 2.205840051174163818e-01
-1.927033960819244385e-01 1.073604822158813477e-01 -3.308269381523132324e-01
-3.331600725650787354e-01 1.978161334991455078e-01 1.287458539009094238e-01
-1.742314994335174561e-01 9.135612100362777710e-02 -1.865356564521789551e-01
-2.062161117792129517e-01 1.268609166145324707e-01 2.690019905567169189e-01
-3.250349164009094238e-01 -4.587769508361816406e-03 1.294233798980712891e-01
-2.485468089580535889e-01 -1.546037197113037109e-02 -5.023794993758201599e-02
-3.051966130733489990e-01 -1.686267554759979248e-03 -2.387742102146148682e-01
-1.980582773685455322e-01 1.361041665077209473e-01 1.833886206150054932e-01
-2.933468520641326904e-01 -1.712837070226669312e-02 8.566427975893020630e-03
-1.874908655881881714e-01 4.809663817286491394e-02 -2.620267271995544434e-01
-3.086555004119873047e-01 1.835701912641525269e-01 2.941306233406066895e-01
-3.476274609565734863e-01 4.057243466377258301e-03 3.047922626137733459e-03
-2.657180130481719971e-01 2.123603224754333496e-02 3.633807897567749023e-01
-1.889166533946990967e-01 1.446877717971801758e-01 -7.207840681076049805e-02
-2.191773056983947754e-01 4.458830505609512329e-02 3.275211453437805176e-01
-1.821292042732238770e-01 9.426773339509963989e-02 1.655071973800659180e-01
-3.225953280925750732e-01 2.196970582008361816e-02 -3.376507163047790527e-01
-3.155610859394073486e-01 2.044703215360641479e-01 6.186320632696151733e-02
-3.370564877986907959e-01 2.005558907985687256e-01 3.336736932396888733e-03
-2.601388394832611084e-01 -1.744215190410614014e-02 1.310577057301998138e-02
-3.331647813320159912e-01 1.395388245582580566e-01 4.310542047023773193e-01
-2.997293472290039062e-01 1.992638856172561646e-01 -1.914841830730438232e-01
-2.099528908729553223e-01 4.148696362972259521e-02 2.822935879230499268e-01
-3.111517131328582764e-01 1.447946727275848389e-01 4.390124976634979248e-01
-1.715345382690429688e-01 9.322167187929153442e-02 -1.251147389411926270e-01
-1.958264261484146118e-01 1.162947565317153931e-01 2.334496378898620605e-01
-2.477554529905319214e-01 1.712470352649688721e-01 2.710351049900054932e-01
-3.807021081447601318e-01 1.577078998088836670e-01 2.081755995750427246e-01
-4.049350619316101074e-01 1.012091562151908875e-01 4.300243780016899109e-02
-1.763027310371398926e-01 9.451597183942794800e-02 9.979486465454101562e-02
-3.648626208305358887e-01 8.081082999706268311e-02 -3.516302704811096191e-01
-3.059431910514831543e-01 -1.424984633922576904e-02 -4.283654317259788513e-02
-2.204162776470184326e-01 1.789453029632568359e-01 -5.216644331812858582e-02
-3.655558228492736816e-01 1.647377014160156250e-01 -2.364351153373718262e-01
-1.928580701351165771e-01 8.304595947265625000e-02 2.514720261096954346e-01
-2.341857552528381348e-01 2.115933597087860107e-02 -3.635694384574890137e-01
-2.687066495418548584e-01 1.495902240276336670e-02 3.409352600574493408e-01
-3.980412483215332031e-01 1.171784326434135437e-01 1.926595866680145264e-01
-2.742283344268798828e-01 -9.068995714187622070e-04 2.578231990337371826e-01
-3.349284529685974121e-01 7.333138585090637207e-02 -4.424382448196411133e-01
-2.516370415687561035e-01 1.515059173107147217e-01 -4.238005578517913818e-01
-3.128164112567901611e-01 5.783100798726081848e-02 4.604409933090209961e-01
-3.272398114204406738e-01 1.918573677539825439e-01 -2.183942794799804688e-01
-2.123795598745346069e-01 2.511639893054962158e-02 -3.135649263858795166e-01
-2.600392103195190430e-01 1.849515438079833984e-01 -2.767043411731719971e-01
-3.163202106952667236e-01 2.052929103374481201e-01 -3.108345903456211090e-02
-3.458006978034973145e-01 1.958982944488525391e-01 7.587738335132598877e-02
-2.814354300498962402e-01 1.519222110509872437e-01 4.128662049770355225e-01
-3.240755200386047363e-01 -7.892005145549774170e-03 -4.977549985051155090e-02
-2.077804803848266602e-01 3.771223127841949463e-03 -8.809838443994522095e-03
-2.063065618276596069e-01 1.662884205579757690e-01 -7.721751183271408081e-02
-1.967095136642456055e-01 1.557443737983703613e-01 -5.238253623247146606e-02
-3.089009523391723633e-01 2.969674766063690186e-03 -2.654758989810943604e-01
-1.875757575035095215e-01 7.089122384786605835e-02 2.100886106491088867e-01
-2.365894764661788940e-01 -9.893864393234252930e-03 6.754118949174880981e-02
-1.776678115129470825e-01 7.723642885684967041e-02 1.247319504618644714e-01
-4.018780291080474854e-01 1.040103435516357422e-01 1.476537287235260010e-01
-4.022841453552246094e-01 8.268260210752487183e-02 6.433462351560592651e-02
-3.679300844669342041e-01 2.076719701290130615e-02 2.165208570659160614e-03
-4.036784768104553223e-01 1.145452186465263367e-01 9.835262596607208252e-02
-1.824291646480560303e-01 1.327862441539764404e-01 -9.100554138422012329e-02
-2.908272445201873779e-01 1.716180145740509033e-01 -3.806354999542236328e-01
-2.417242079973220825e-01 1.896800398826599121e-01 -1.396598219871520996e-01
-2.193979322910308838e-01 1.618085503578186035e-01 -2.779732048511505127e-01
-3.012711107730865479e-01 9.036935865879058838e-03 -3.206133246421813965e-01
-3.600962758064270020e-01 1.772636324167251587e-01 -1.907971501350402832e-01
-1.699252128601074219e-01 8.447930961847305298e-02 -6.145003810524940491e-02
-2.749349772930145264e-01 4.053570330142974854e-03 -3.184591531753540039e-01
-3.416349887847900391e-01 7.772140204906463623e-02 4.469002485275268555e-01
-1.955187618732452393e-01 1.586245745420455933e-02 1.074456423521041870e-02
-1.902905106544494629e-01 5.589924752712249756e-02 -3.040785491466522217e-01
-1.959767341613769531e-01 4.914692044258117676e-02 2.282407283782958984e-01
-3.854593634605407715e-01 1.559844613075256348e-01 -1.301804035902023315e-01
-2.284875214099884033e-01 -8.010193705558776855e-03 2.782643586397171021e-02
-2.239859104156494141e-01 -8.379071950912475586e-04 1.150308027863502502e-01
-3.075090348720550537e-01 9.846512228250503540e-02 -5.041945576667785645e-01
-2.539227008819580078e-01 1.995179057121276855e-02 -3.882983922958374023e-01
-1.852502822875976562e-01 1.328405886888504028e-01 5.828224867582321167e-02
-3.775877952575683594e-01 1.179310530424118042e-01 3.392013013362884521e-01
-2.417059242725372314e-01 1.335410326719284058e-01 -4.533331096172332764e-01
-1.835608482360839844e-01 6.380903720855712891e-02 1.681226193904876709e-01
