-3.973477184772491455e-01 -5.547765493392944336e-01 3.616485595703125000e-01
-9.269800037145614624e-02 -5.300850868225097656e-01 3.264806866645812988e-01
-2.783067822456359863e-01 -7.173091173171997070e-01 -4.351266622543334961e-01
1.820012181997299194e-02 -5.095089673995971680e-01 -1.634563654661178589e-01
-9.492087364196777344e-02 -7.914333939552307129e-01 -7.241219282150268555e-05
-4.727768003940582275e-01 -6.440358161926269531e-01 2.765102982521057129e-01
-4.175462424755096436e-01 -5.285094976425170898e-01 -3.776396512985229492e-01
-5.059790611267089844e-01 -4.950745403766632080e-01 7.251593470573425293e-02
-1.234646588563919067e-01 -7.838673591613769531e-01 -2.370865494012832642e-01
-5.304095745086669922e-01 -6.670794486999511719e-01 -2.113613039255142212e-01
-9.201129525899887085e-02 -7.874491214752197266e-01 6.155806034803390503e-02
1.735830605030059814e-01 -7.924493551254272461e-01 -1.960151791572570801e-01
-5.207148194313049316e-01 -5.416355133056640625e-01 -3.130380511283874512e-01
-3.385880589485168457e-01 -7.211080789566040039e-01 -3.591144680976867676e-01
9.604632109403610229e-02 -8.000186681747436523e-01 -2.516022324562072754e-02
6.364018470048904419e-02 -5.221044421195983887e-01 -1.912622153759002686e-01
-5.151217579841613770e-01 -4.989818930625915527e-01 -1.442092657089233398e-01
-4.184015691280364990e-01 -7.136310338973999023e-01 -2.548269033432006836e-01
-4.603502899408340454e-02 -7.930333018302917480e-01 -2.175940275192260742e-01
2.355130016803741455e-01 -5.695435404777526855e-01 -6.783617287874221802e-02
-5.693664550781250000e-01 -6.344158649444580078e-01 1.133416891098022461e-01
-3.897473216056823730e-01 -6.874808073043823242e-01 2.736095786094665527e-01
-1.253714412450790405e-02 -5.198047161102294922e-01 2.240781337022781372e-01
-8.165983855724334717e-02 -7.651855945587158203e-01 -3.886403441429138184e-01
-1.971234977245330811e-01 -7.788405418395996094e-01 -1.504681706428527832e-01
-7.499875873327255249e-02 -7.857741713523864746e-01 9.429231286048889160e-02
2.365043759346008301e-01 -7.235152125358581543e-01 2.561945319175720215e-01
-5.459027290344238281e-01 -6.693357229232788086e-01 -9.833429008722305298e-02
-6.295269727706909180e-02 -7.921348810195922852e-01 3.528253734111785889e-02
-4.823808670043945312e-01 -5.985658168792724609e-01 3.139638304710388184e-01
-3.338029086589813232e-01 -7.113993167877197266e-01 2.575915455818176270e-01
-4.839328825473785400e-01 -4.872454404830932617e-01 3.455008566379547119e-02
-3.657252192497253418e-01 -4.782907366752624512e-01 -1.617621779441833496e-01
-1.204181686043739319e-01 -7.816940546035766602e-01 8.997622132301330566e-02
2.679952681064605713e-01 -7.544553279876708984e-01 1.411819458007812500e-01
-4.749789834022521973e-02 -5.228971242904663086e-01 -3.442704081535339355e-01
-4.555539488792419434e-01 -7.099534869194030762e-01 -1.551649570465087891e-01
2.196438610553741455e-01 -5.957053303718566895e-01 2.166666239500045776e-01
1.432476937770843506e-01 -7.921848297119140625e-01 5.182297527790069580e-02
-1.614205539226531982e-01 -7.350766658782958984e-01 3.056806921958923340e-01
-2.750036418437957764e-01 -7.410129904747009277e-01 1.944307535886764526e-01
3.450448215007781982e-01 -7.273495793342590332e-01 7.923890650272369385e-02
-4.906903803348541260e-01 -6.977946162223815918e-01 -3.866223990917205811e-02
-1.829112172126770020e-01 -4.788700938224792480e-01 -1.314084231853485107e-01
-2.802145183086395264e-01 -6.878223419189453125e-01 3.648394942283630371e-01
4.471664875745773315e-02 -7.918915748596191406e-01 8.825364708900451660e-02
-5.319117754697799683e-02 -5.993794202804565430e-01 4.396747946739196777e-01
1.947187483310699463e-01 -7.258270382881164551e-01 2.871835827827453613e-01
-1.092414855957031250e-01 -4.834979772567749023e-01 -5.314642563462257385e-02
-3.232723474502563477e-01 -7.521590590476989746e-01 -1.572074890136718750e-01
1.497678756713867188e-01 -5.612769126892089844e-01 -2.933663725852966309e-01
3.048178255558013916e-01 -7.484887242317199707e-01 1.027777045965194702e-01
-5.026422739028930664e-01 -5.784422159194946289e-01 -3.827103376388549805e-01
-2.600486874580383301e-01 -5.033841133117675781e-01 -3.408318758010864258e-01
-4.620815813541412354e-02 -7.956777811050415039e-01 -1.600198447704315186e-03
1.226171106100082397e-02 -7.672812342643737793e-01 -4.009003639221191406e-01
-3.431721627712249756e-01 -5.414440631866455078e-01 3.666955828666687012e-01
-4.092462658882141113e-01 -6.687209606170654297e-01 3.005012273788452148e-01
-4.295551478862762451e-01 -4.778404235839843750e-01 -6.371685117483139038e-02
-2.105450630187988281e-01 -4.744498729705810547e-01 2.515892684459686279e-02
-1.955061703920364380e-01 -4.747255444526672363e-01 -1.952575147151947021e-02
-3.029758632183074951e-01 -6.144279241561889648e-01 -5.366297364234924316e-01
2.251265645027160645e-01 -7.351205945014953613e-01 -4.018561840057373047e-01
-5.789248645305633545e-02 -5.502620935440063477e-01 -4.487587213516235352e-01
-9.227589517831802368e-02 -6.346794962882995605e-01 -5.749270319938659668e-01
-1.374775469303131104e-01 -6.939226984977722168e-01 4.089824557304382324e-01
2.296877503395080566e-01 -7.719771862030029297e-01 1.109675467014312744e-01
-4.734721183776855469e-01 -6.239364147186279297e-01 -4.126967191696166992e-01
-1.854355633258819580e-01 -7.818672060966491699e-01 -6.765727698802947998e-02
-8.746471256017684937e-02 -4.888442158699035645e-01 6.570367515087127686e-02
1.862861812114715576e-01 -7.755728960037231445e-01 1.361519247293472290e-01
-2.345086932182312012e-01 -4.866018891334533691e-01 -2.429975271224975586e-01
3.587138652801513672e-01 -7.286552190780639648e-01 -1.848548054695129395e-01
-1.470580399036407471e-01 -4.898935556411743164e-01 -2.205757349729537964e-01
-3.406863212585449219e-01 -7.328593730926513672e-01 1.464015990495681763e-01
-5.853830575942993164e-01 -5.875942111015319824e-01 1.590263992547988892e-01
-2.787383496761322021e-01 -5.413263440132141113e-01 -4.595536589622497559e-01
-1.143383234739303589e-01 -7.757484316825866699e-01 -3.136524558067321777e-01
-3.189084827899932861e-01 -6.811174154281616211e-01 3.532224893569946289e-01
1.048864051699638367e-01 -5.787522792816162109e-01 -4.146307110786437988e-01
6.200864166021347046e-02 -7.387337684631347656e-01 -4.783806800842285156e-01
1.577896773815155029e-01 -5.807381868362426758e-01 2.643353343009948730e-01
-5.266591310501098633e-01 -6.788056492805480957e-01 -1.275506615638732910e-01
-4.815991520881652832e-01 -6.784712076187133789e-01 -2.911390066146850586e-01
2.133123576641082764e-03 -7.969550490379333496e-01 2.143397927284240723e-02
-5.992087125778198242e-01 -5.472523570060729980e-01 -1.683216542005538940e-01
8.309372514486312866e-02 -7.755048274993896484e-01 -3.608364462852478027e-01
-1.202572584152221680e-01 -6.640365123748779297e-01 -5.733036398887634277e-01
-7.118309289216995239e-02 -6.957394480705261230e-01 4.137233495712280273e-01
7.449612021446228027e-04 -5.113905668258666992e-01 -2.190917879343032837e-01
3.907226026058197021e-03 -7.517909407615661621e-01 -4.523731470108032227e-01
-3.538018763065338135e-01 -4.800799489021301270e-01 1.332177221775054932e-01
-4.009469151496887207e-01 -7.218693494796752930e-01 9.468850493431091309e-02
-2.976053953170776367e-01 -7.519357800483703613e-01 8.298493921756744385e-02
1.349976956844329834e-01 -5.534806251525878906e-01 1.913323849439620972e-01
-1.067357808351516724e-01 -7.908290624618530273e-01 -1.625594049692153931e-01
-2.861071228981018066e-01 -4.709749221801757812e-01 -5.341157689690589905e-02
-1.820139586925506592e-03 -5.551420450210571289e-01 -4.316576719284057617e-01
-3.589417636394500732e-01 -4.834464192390441895e-01 -2.122610956430435181e-01
-5.190660357475280762e-01 -4.948992133140563965e-01 2.046730369329452515e-02
2.302439808845520020e-01 -7.513936161994934082e-01 1.960853487253189087e-01
1.057295277714729309e-01 -5.288478136062622070e-01 6.631524860858917236e-02
1.183311715722084045e-01 -7.996581792831420898e-01 -1.435991823673248291e-01
-1.499146074056625366e-01 -4.789056777954101562e-01 -3.673359751701354980e-04
-6.830841302871704102e-02 -7.173181772232055664e-01 -5.242121815681457520e-01
-2.465346753597259521e-01 -7.316195964813232422e-01 2.644127011299133301e-01
1.574215292930603027e-01 -7.506585121154785156e-01 2.531443238258361816e-01
-3.249691426753997803e-01 -6.325310468673706055e-01 4.135001897811889648e-01
-4.774799346923828125e-01 -6.666513681411743164e-01 -3.383458852767944336e-01
-1.999953687191009521e-01 -5.212475061416625977e-01 -4.044202566146850586e-01
-4.406512528657913208e-02 -4.952946305274963379e-01 6.067561358213424683e-02
5.457510799169540405e-02 -7.825064659118652344e-01 1.554770320653915405e-01
1.683715283870697021e-01 -5.710529088973999023e-01 2.147768288850784302e-01
3.074085712432861328e-01 -6.089500784873962402e-01 -1.323298066854476929e-01
2.244039624929428101e-02 -6.194772124290466309e-01 -5.389847755432128906e-01
-1.550373584032058716e-01 -7.682709097862243652e-01 -3.270782232284545898e-01
-3.914458453655242920e-01 -6.750440597534179688e-01 -4.326743483543395996e-01
-3.000578284263610840e-02 -7.396686673164367676e-01 -4.826081395149230957e-01
-2.742647379636764526e-02 -6.166912317276000977e-01 -5.532527565956115723e-01
2.716299891471862793e-01 -7.796717286109924316e-01 -7.985071092844009399e-02
1.474158465862274170e-01 -7.840560078620910645e-01 1.144639253616333008e-01
7.079908996820449829e-02 -5.171591043472290039e-01 -8.962432295083999634e-02
1.828212440013885498e-01 -6.510669589042663574e-01 3.448802828788757324e-01
3.120372295379638672e-01 -6.244723796844482422e-01 1.021487116813659668e-01
1.437834501266479492e-01 -7.564196586608886719e-01 -4.077711105346679688e-01
-4.130665957927703857e-01 -7.278335094451904297e-01 -5.199085921049118042e-02
-2.296206057071685791e-01 -4.981141686439514160e-01 2.512633204460144043e-01
-3.165118992328643799e-01 -7.419912815093994141e-01 -2.824699282646179199e-01
1.118356809020042419e-01 -7.037421464920043945e-01 3.674301505088806152e-01
-4.685437381267547607e-01 -6.939084529876708984e-01 1.128865033388137817e-01
-2.703791856765747070e-01 -5.803843736648559570e-01 -5.247991681098937988e-01
-6.147626042366027832e-01 -5.863021612167358398e-01 -1.558927297592163086e-01
-3.511805832386016846e-02 -5.057541728019714355e-01 -2.270894646644592285e-01
-4.398278892040252686e-01 -5.465926527976989746e-01 -4.019007086753845215e-01
-1.738641113042831421e-01 -6.849175095558166504e-01 4.145222902297973633e-01
-1.479198038578033447e-01 -5.108644962310791016e-01 2.820127606391906738e-01
-1.545434296131134033e-01 -7.724434733390808105e-01 1.317874193191528320e-01
-7.353606820106506348e-02 -4.931357502937316895e-01 9.915766119956970215e-02
-2.419899106025695801e-01 -7.707951068878173828e-01 -1.799266785383224487e-02
2.703072875738143921e-02 -7.605491876602172852e-01 2.595072984695434570e-01
2.540561556816101074e-01 -6.251511573791503906e-01 -3.494604229927062988e-01
-6.266838908195495605e-01 -5.803616642951965332e-01 -2.872037328779697418e-02
-1.278345137834548950e-01 -5.941188335418701172e-01 4.495685100555419922e-01
-3.349890708923339844e-01 -7.492084503173828125e-01 -2.328570932149887085e-03
2.958393394947052002e-01 -6.365639567375183105e-01 -3.006376028060913086e-01
3.331441879272460938e-01 -6.933159828186035156e-01 -2.963394522666931152e-01
-3.660080134868621826e-01 -4.753404855728149414e-01 7.304197549819946289e-02
-3.674642741680145264e-01 -6.436763405799865723e-01 -4.941835403442382812e-01
-4.526900351047515869e-01 -4.810122251510620117e-01 1.566162705421447754e-02
-2.737223505973815918e-01 -4.850763976573944092e-01 1.834196895360946655e-01
-1.555908918380737305e-01 -7.096270918846130371e-01 3.752812147140502930e-01
-5.134808421134948730e-01 -6.831538081169128418e-01 3.145252913236618042e-02
2.257171869277954102e-01 -7.703135609626770020e-01 -2.961118519306182861e-01
-3.901711106300354004e-01 -4.899673163890838623e-01 1.844525933265686035e-01
-4.507326781749725342e-01 -6.359665989875793457e-01 3.153033256530761719e-01
2.850195467472076416e-01 -6.560990810394287109e-01 2.283078879117965698e-01
-3.348831832408905029e-01 -4.738914370536804199e-01 -1.208567321300506592e-01
2.244909405708312988e-01 -7.842881679534912109e-01 2.717221528291702271e-02
-2.121177613735198975e-01 -7.355124950408935547e-01 -4.288142919540405273e-01
-5.512371659278869629e-01 -6.119748353958129883e-01 -3.092070221900939941e-01
-5.481055378913879395e-01 -5.031462311744689941e-01 -7.362321019172668457e-03
-1.740588098764419556e-01 -7.833677530288696289e-01 -1.206375807523727417e-01
-8.202291280031204224e-02 -7.533360123634338379e-01 -4.341216087341308594e-01
-2.553408443927764893e-01 -5.230378508567810059e-01 -4.135171175003051758e-01
3.221594393253326416e-01 -6.249054670333862305e-01 -1.811594963073730469e-01
-1.481733769178390503e-01 -5.835689306259155273e-01 -5.377442240715026855e-01
-5.017584562301635742e-02 -4.922507703304290771e-01 -6.853296607732772827e-02
3.749132156372070312e-04 -5.009635090827941895e-01 -5.297010764479637146e-02
-3.831934630870819092e-01 -5.133066177368164062e-01 -3.512502312660217285e-01
-1.419540196657180786e-01 -7.319906353950500488e-01 -4.761806726455688477e-01
3.646231293678283691e-01 -6.540651917457580566e-01 -1.056155785918235779e-01
-2.735310196876525879e-01 -4.787078499794006348e-01 1.316982805728912354e-01
-4.705666303634643555e-01 -6.939024329185485840e-01 -2.418927699327468872e-01
-1.072440594434738159e-01 -7.031511068344116211e-01 -5.406675934791564941e-01
-4.599814713001251221e-01 -5.675547719001770020e-01 3.300524353981018066e-01
2.863963693380355835e-02 -5.090653896331787109e-01 5.594927072525024414e-02
-3.075153529644012451e-01 -7.545030117034912109e-01 2.481205761432647705e-02
-5.996814370155334473e-01 -5.641652345657348633e-01 -2.015779316425323486e-01
-5.262400507926940918e-01 -6.752318143844604492e-01 -1.711906492710113525e-01
-3.175319731235504150e-01 -6.968044638633728027e-01 -4.552482366561889648e-01
-1.346513926982879639e-01 -6.309816241264343262e-01 4.611548185348510742e-01
-3.850090503692626953e-01 -5.170506834983825684e-01 2.959052920341491699e-01
2.923386394977569580e-01 -7.670654654502868652e-01 2.744575589895248413e-02
3.144254684448242188e-01 -7.453386783599853516e-01 -2.577912211418151855e-01
-2.351820468902587891e-01 -7.551515698432922363e-01 1.604440361261367798e-01
-4.509989619255065918e-01 -5.721991658210754395e-01 -4.279201626777648926e-01
8.690350502729415894e-02 -5.995153188705444336e-01 3.727027773857116699e-01
-3.313140869140625000e-01 -7.255421876907348633e-01 2.013853341341018677e-01
-8.483693748712539673e-02 -5.799841880798339844e-01 4.279752373695373535e-01
1.372274756431579590e-01 -5.344786047935485840e-01 -6.228616833686828613e-02
-3.081676661968231201e-01 -7.060392498970031738e-01 2.998236417770385742e-01
2.746175825595855713e-01 -7.307367324829101562e-01 2.004809230566024780e-01
4.993883520364761353e-02 -7.904268503189086914e-01 -2.781418561935424805e-01
-4.267794191837310791e-01 -4.826367199420928955e-01 -1.502121686935424805e-01
-6.930668652057647705e-02 -5.721310377120971680e-01 -5.040680170059204102e-01
5.625695735216140747e-02 -7.523034811019897461e-01 2.842848896980285645e-01
-1.065824702382087708e-01 -4.846531450748443604e-01 3.010860830545425415e-02
-1.821228116750717163e-01 -6.038390398025512695e-01 -5.589136481285095215e-01
-1.871353685855865479e-01 -6.686283946037292480e-01 -5.599170327186584473e-01
-1.863405108451843262e-02 -7.343846559524536133e-01 3.400143384933471680e-01
1.992263644933700562e-02 -5.191633105278015137e-01 1.778815239667892456e-01
-2.378363311290740967e-01 -5.400074124336242676e-01 -4.603723883628845215e-01
3.004072904586791992e-01 -7.586597800254821777e-01 6.411385536193847656e-02
-4.214645326137542725e-01 -7.225963473320007324e-01 -1.574711799621582031e-01
-2.313838005065917969e-01 -4.733736813068389893e-01 -8.048992604017257690e-02
-5.810390710830688477e-01 -6.345662474632263184e-01 6.925915181636810303e-02
-4.368918240070343018e-01 -5.359800457954406738e-01 3.088815808296203613e-01
1.071820631623268127e-01 -7.256755232810974121e-01 -4.884132742881774902e-01
-2.767145931720733643e-01 -7.647808790206909180e-01 -1.058877557516098022e-01
2.798036634922027588e-01 -5.900982022285461426e-01 -4.990039765834808350e-02
1.870297193527221680e-01 -5.918169021606445312e-01 -3.580948114395141602e-01
-7.126060873270034790e-02 -4.974389076232910156e-01 1.416197866201400757e-01
-2.855278849601745605e-01 -4.834874868392944336e-01 -2.277738153934478760e-01
-3.516435027122497559e-01 -7.314394116401672363e-01 -2.859829068183898926e-01
2.182309925556182861e-01 -5.668132305145263672e-01 -1.531844437122344971e-01
-1.447578668594360352e-01 -4.947955608367919922e-01 -2.570153176784515381e-01
2.048653960227966309e-01 -5.571134090423583984e-01 -3.880797326564788818e-02
1.618008017539978027e-01 -5.512548089027404785e-01 -2.031300067901611328e-01
4.321796447038650513e-02 -8.007706403732299805e-01 -3.333081305027008057e-02
1.802535355091094971e-01 -5.617986917495727539e-01 1.442339718341827393e-01
1.787591874599456787e-01 -7.644621133804321289e-01 1.929780095815658569e-01
3.797042667865753174e-01 -7.042826414108276367e-01 -1.883482187986373901e-02
-2.592785954475402832e-01 -7.559953331947326660e-01 1.207607388496398926e-01
-2.812992930412292480e-01 -7.609183788299560547e-01 -1.808209717273712158e-01
3.459862768650054932e-01 -6.341313719749450684e-01 -2.754689380526542664e-02
1.099827662110328674e-01 -6.705439090728759766e-01 -5.257194638252258301e-01
-4.976429939270019531e-01 -4.914278984069824219e-01 -1.094920635223388672e-01
7.072246819734573364e-02 -7.716854810714721680e-01 2.093330174684524536e-01
1.535480469465255737e-02 -7.349606752395629883e-01 -4.928184151649475098e-01
-2.746569812297821045e-01 -7.635277509689331055e-01 -3.357183188199996948e-03
-1.597000360488891602e-01 -4.919244647026062012e-01 1.869459897279739380e-01
5.761247128248214722e-02 -6.211348176002502441e-01 -5.248236060142517090e-01
-3.236723244190216064e-01 -4.889681935310363770e-01 -2.614589333534240723e-01
1.814493834972381592e-01 -5.563893914222717285e-01 1.007118672132492065e-01
2.700873911380767822e-01 -7.702999114990234375e-01 -2.288851886987686157e-01
1.779668033123016357e-01 -7.924051880836486816e-01 1.062097400426864624e-02
2.284056842327117920e-01 -5.683246254920959473e-01 -1.158888936042785645e-01
3.380032628774642944e-02 -5.334856510162353516e-01 -3.177119493484497070e-01
2.359087467193603516e-01 -6.178093552589416504e-01 2.476472407579421997e-01
2.318955063819885254e-01 -5.777441859245300293e-01 1.048598438501358032e-01
1.905649602413177490e-01 -7.941765189170837402e-01 -1.247742921113967896e-01
-1.664697378873825073e-02 -7.933822274208068848e-01 5.702672898769378662e-02
-3.597683608531951904e-01 -4.723562002182006836e-01 1.565133780241012573e-02
-1.269467324018478394e-01 -5.059297680854797363e-01 -3.140033483505249023e-01
-6.211657524108886719e-01 -5.754316449165344238e-01 3.528071939945220947e-02
1.469893157482147217e-01 -5.751427412033081055e-01 -3.562420010566711426e-01
1.522040665149688721e-01 -5.404803752899169922e-01 2.649564296007156372e-02
3.091461956501007080e-01 -7.285699844360351562e-01 1.541119217872619629e-01
8.019537478685379028e-02 -5.446072816848754883e-01 2.332676202058792114e-01
-6.160829067230224609e-01 -6.097672581672668457e-01 -5.503254011273384094e-02
1.689135134220123291e-01 1.305578500032424927e-01 3.376877307891845703e-01
3.531913459300994873e-01 7.378280907869338989e-02 -3.100496232509613037e-01
3.885621726512908936e-01 5.998278781771659851e-02 1.963332444429397583e-01
2.878836393356323242e-01 5.463788658380508423e-02 -2.253896296024322510e-01
3.250764608383178711e-01 1.583694070577621460e-01 -5.041889101266860962e-02
1.122317016124725342e-01 6.510949879884719849e-02 1.904426217079162598e-01
4.603337049484252930e-01 1.345418989658355713e-01 3.554411232471466064e-02
4.466499090194702148e-01 7.238197326660156250e-02 1.753305792808532715e-01
4.326106905937194824e-01 1.424586474895477295e-01 5.918926745653152466e-02
2.691184878349304199e-01 8.435955643653869629e-02 3.899154663085937500e-01
1.360743790864944458e-01 1.480346769094467163e-01 1.882831156253814697e-01
2.808461189270019531e-01 9.528007358312606812e-02 4.061694145202636719e-01
4.063609838485717773e-01 1.260448843240737915e-01 -2.621915936470031738e-01
9.376171231269836426e-02 8.245217800140380859e-02 -2.469596862792968750e-01
1.549826562404632568e-01 6.477689743041992188e-02 -2.423563897609710693e-01
4.399150013923645020e-01 1.158862859010696411e-01 2.620670795440673828e-01
2.380792498588562012e-01 1.609942615032196045e-01 8.460380136966705322e-02
2.919686138629913330e-01 1.600088179111480713e-01 -6.189910322427749634e-02
3.881612420082092285e-01 1.514608711004257202e-01 -3.335192799568176270e-02
1.555135548114776611e-01 5.353146791458129883e-02 1.361253112554550171e-01
1.889344155788421631e-01 1.598678678274154663e-01 4.360669851303100586e-02
3.516120314598083496e-01 4.778461530804634094e-02 6.159425526857376099e-02
2.053467631340026855e-01 1.265265643596649170e-01 3.705491125583648682e-01
5.016448497772216797e-01 9.307815134525299072e-02 1.884205266833305359e-02
4.142751395702362061e-01 6.263312697410583496e-02 -1.584885716438293457e-01
3.325908780097961426e-01 1.554604172706604004e-01 -1.109922900795936584e-01
2.984318137168884277e-01 1.559146195650100708e-01 1.737863719463348389e-01
9.805791079998016357e-02 1.406845748424530029e-01 1.860282868146896362e-01
3.149555325508117676e-01 4.858943447470664978e-02 1.477210670709609985e-01
4.311689734458923340e-01 6.891406327486038208e-02 -1.756812483072280884e-01
1.544900983572006226e-01 1.570953577756881714e-01 2.083218097686767578e-02
2.635115981101989746e-01 1.405208408832550049e-01 -2.949828505516052246e-01
3.897564411163330078e-01 1.425793468952178955e-01 -1.819912940263748169e-01
1.251749396324157715e-01 7.803272455930709839e-02 -2.774678766727447510e-01
4.192134737968444824e-01 7.612928003072738647e-02 -2.432039380073547363e-01
3.973114490509033203e-02 8.181538432836532593e-02 9.557943791151046753e-02
3.912297189235687256e-01 5.776344984769821167e-02 1.661554723978042603e-01
2.518202960491180420e-01 6.744381785392761230e-02 -3.142749369144439697e-01
9.033016860485076904e-02 7.911346852779388428e-02 -2.262418121099472046e-01
1.884728372097015381e-01 5.763045325875282288e-02 -2.203134149312973022e-01
2.850254178047180176e-01 5.242158472537994385e-02 2.153571099042892456e-01
4.653968811035156250e-01 1.234094053506851196e-01 -1.420094221830368042e-01
4.959964454174041748e-01 1.124019995331764221e-01 7.189085334539413452e-02
3.005439341068267822e-01 1.282630860805511475e-01 3.667715787887573242e-01
3.186264038085937500e-01 4.533366113901138306e-02 5.742211639881134033e-02
2.525853216648101807e-01 1.519979536533355713e-01 -2.081296890974044800e-01
4.489389955997467041e-01 6.997494399547576904e-02 -1.328921169042587280e-01
1.640378534793853760e-01 1.575710475444793701e-01 6.469242274761199951e-02
8.358371257781982422e-02 7.057656347751617432e-02 -1.526874452829360962e-01
2.829918861389160156e-01 1.485960185527801514e-01 2.631413936614990234e-01
2.743156254291534424e-01 6.668714433908462524e-02 -3.108086287975311279e-01
2.995866835117340088e-01 5.315082147717475891e-02 -2.067226320505142212e-01
1.103858798742294312e-01 5.724377930164337158e-02 -2.352125756442546844e-02
4.405087828636169434e-01 6.186792999505996704e-02 4.351767897605895996e-02
3.258744180202484131e-01 4.868042841553688049e-02 -1.271691471338272095e-01
1.407447010278701782e-01 6.130090728402137756e-02 2.083724737167358398e-01
3.039634227752685547e-01 1.443891674280166626e-01 2.865397632122039795e-01
3.404413461685180664e-01 4.825909808278083801e-02 -9.619527310132980347e-02
2.703119218349456787e-01 1.614513099193572998e-01 5.717035382986068726e-02
1.050984710454940796e-01 1.402916312217712402e-01 -1.770533919334411621e-01
1.168614178895950317e-01 1.520532071590423584e-01 1.374838594347238541e-02
2.006637901067733765e-01 6.685800850391387939e-02 3.090681731700897217e-01
5.837893486022949219e-02 7.219874858856201172e-02 -5.948618054389953613e-02
2.531929314136505127e-02 1.073122620582580566e-01 1.271270364522933960e-01
2.200017869472503662e-01 8.025033026933670044e-02 -3.560347557067871094e-01
4.953366518020629883e-01 8.678069710731506348e-02 -3.610828518867492676e-02
2.919578254222869873e-01 1.111988574266433716e-01 -3.822621703147888184e-01
4.656729102134704590e-01 8.149778097867965698e-02 1.772212386131286621e-01
1.584991812705993652e-01 5.101139843463897705e-02 -7.545875757932662964e-02
3.268875777721405029e-01 5.645067617297172546e-02 -2.234321087598800659e-01
1.791119873523712158e-01 5.551850050687789917e-02 -1.891812980175018311e-01
1.109510064125061035e-01 5.691825598478317261e-02 8.602665737271308899e-03
2.119478136301040649e-01 4.715817794203758240e-02 -9.923722594976425171e-02
1.837826371192932129e-01 1.418024897575378418e-01 -2.648661136627197266e-01
8.412604033946990967e-02 1.279449462890625000e-01 2.424067109823226929e-01
2.262459993362426758e-01 6.811402738094329834e-02 -3.120549917221069336e-01
3.384065926074981689e-01 1.331439018249511719e-01 3.284126520156860352e-01
4.542340636253356934e-01 1.204506605863571167e-01 -1.924415677785873413e-01
2.419980466365814209e-01 6.417337805032730103e-02 -2.951814532279968262e-01
8.527360856533050537e-02 1.166819036006927490e-01 -2.566497921943664551e-01
3.740581274032592773e-01 5.769957974553108215e-02 -1.845076233148574829e-01
1.893839091062545776e-01 4.810281842947006226e-02 9.393256902694702148e-02
1.566611379384994507e-01 5.133833736181259155e-02 9.100916981697082520e-02
2.926162183284759521e-01 4.739698767662048340e-02 1.422056257724761963e-01
3.745418190956115723e-01 1.401397138833999634e-01 -2.267898768186569214e-01
1.302038729190826416e-01 1.415237784385681152e-01 2.396723479032516479e-01
3.348144888877868652e-01 6.015097349882125854e-02 -2.481782734394073486e-01
4.898874461650848389e-01 8.630436658859252930e-02 9.791924059391021729e-02
2.733119130134582520e-01 1.268826127052307129e-01 3.775619566440582275e-01
4.466370046138763428e-01 1.360972225666046143e-01 -8.930737525224685669e-02
1.864288598299026489e-01 6.518013775348663330e-02 2.898219823837280273e-01
1.346790939569473267e-01 5.693951994180679321e-02 -1.287137269973754883e-01
8.756281435489654541e-02 6.216979771852493286e-02 -1.562339439988136292e-02
4.025640189647674561e-01 5.440803617238998413e-02 6.608733534812927246e-02
3.978827595710754395e-01 1.366986483335494995e-01 2.418373525142669678e-01
3.106850385665893555e-01 4.628914967179298401e-02 1.037874296307563782e-01
2.076835781335830688e-01 5.020353943109512329e-02 -1.519327014684677124e-01
4.287854433059692383e-01 1.339277029037475586e-01 1.985581219196319580e-01
2.786274850368499756e-01 1.590078622102737427e-01 1.318640112876892090e-01
2.655886113643646240e-02 1.017020866274833679e-01 -1.103422120213508606e-01
2.049007415771484375e-01 1.306525766849517822e-01 -3.310911059379577637e-01
4.393810629844665527e-01 6.120426207780838013e-02 -1.189992763102054596e-03
3.689645826816558838e-01 4.948766902089118958e-02 -4.757881909608840942e-02
3.155006468296051025e-01 4.939685761928558350e-02 -1.496801376342773438e-01
2.076338827610015869e-01 8.175170421600341797e-02 3.730389773845672607e-01
2.164098918437957764e-01 4.516929388046264648e-02 4.895271360874176025e-02
1.737714707851409912e-01 1.274238526821136475e-01 -3.261537253856658936e-01
1.671612858772277832e-01 1.336644440889358521e-01 -2.970362603664398193e-01
2.774593830108642578e-01 6.094395369291305542e-02 2.902325689792633057e-01
3.510775268077850342e-01 5.230272561311721802e-02 -1.524925529956817627e-01
4.893846809864044189e-02 1.332204937934875488e-01 -4.936736822128295898e-02
1.423405706882476807e-01 1.553886681795120239e-01 -2.356194145977497101e-02
2.101206481456756592e-01 6.552308797836303711e-02 -2.917597889900207520e-01
2.764218747615814209e-01 4.431422054767608643e-02 6.971761584281921387e-02
3.923696279525756836e-02 8.493937551975250244e-02 -1.039090380072593689e-01
3.865268230438232422e-01 1.326796412467956543e-01 -2.581204175949096680e-01
3.476479351520538330e-01 1.313685774803161621e-01 -3.042598366737365723e-01
1.810901165008544922e-01 1.568561792373657227e-01 1.302448809146881104e-01
3.001214265823364258e-01 5.459955707192420959e-02 2.330187261104583740e-01
1.312281340360641479e-01 5.949881672859191895e-02 -1.560833454132080078e-01
4.696840941905975342e-01 1.189289689064025879e-01 1.748609989881515503e-01
2.026040554046630859e-01 1.435644328594207764e-01 2.925166487693786621e-01
3.728561997413635254e-01 1.354704648256301880e-01 2.848152518272399902e-01
4.142274856567382812e-01 8.516517281532287598e-02 -2.819574773311614990e-01
9.009006619453430176e-02 6.892648339271545410e-02 1.721511930227279663e-01
1.750912964344024658e-01 4.787032678723335266e-02 1.132892351597547531e-02
6.666131317615509033e-02 8.160782605409622192e-02 2.025492489337921143e-01
4.223542809486389160e-01 1.316861361265182495e-01 2.291345596313476562e-01
4.227827191352844238e-01 5.962849780917167664e-02 1.005786955356597900e-01
4.995557665824890137e-01 9.633045643568038940e-02 -5.914360284805297852e-02
7.237482070922851562e-02 1.408071964979171753e-01 -6.134089082479476929e-02
4.054917991161346436e-01 6.178012117743492126e-02 1.819152981042861938e-01
1.178876012563705444e-01 1.331808716058731079e-01 2.740235924720764160e-01
3.836921751499176025e-01 1.508173495531082153e-01 1.055045053362846375e-01
4.233091473579406738e-01 1.451323926448822021e-01 3.455350548028945923e-02
1.517491638660430908e-01 1.102811098098754883e-01 -3.461026847362518311e-01
2.384921312332153320e-01 6.757612526416778564e-02 3.274567723274230957e-01
4.256980121135711670e-01 1.269417405128479004e-01 -2.254756689071655273e-01
3.871655464172363281e-01 1.445475071668624878e-01 1.933980584144592285e-01
4.361496567726135254e-01 9.543900936841964722e-02 -2.652395963668823242e-01
3.168887794017791748e-01 4.482424259185791016e-02 -1.804024912416934967e-02
1.946261525154113770e-01 4.890577867627143860e-02 1.238959208130836487e-01
3.019589483737945557e-01 8.515984565019607544e-02 3.860298097133636475e-01
2.442097216844558716e-01 4.928589239716529846e-02 1.745845377445220947e-01
3.423980772495269775e-01 5.356754362583160400e-02 1.912863254547119141e-01
1.019413322210311890e-01 8.827456086874008179e-02 -2.781849801540374756e-01
1.591376066207885742e-01 1.528944373130798340e-01 1.642386615276336670e-01
4.194396734237670898e-01 5.712215229868888855e-02 4.890912771224975586e-02
4.231408238410949707e-01 1.383494287729263306e-01 1.732404530048370361e-01
9.420722723007202148e-02 6.053192913532257080e-02 2.580616623163223267e-02
4.416840672492980957e-01 1.378677934408187866e-01 1.104833632707595825e-01
2.345080375671386719e-01 4.496805742383003235e-02 7.555784285068511963e-02
2.396760880947113037e-01 4.515868797898292542e-02 -7.692204415798187256e-02
1.044389456510543823e-01 1.437503993511199951e-01 -1.403474807739257812e-01
1.803795695304870605e-01 7.591290026903152466e-02 -3.226042985916137695e-01
1.017213016748428345e-01 5.995677784085273743e-02 7.659813016653060913e-02
2.990198135375976562e-01 1.389966458082199097e-01 3.217951953411102295e-01
3.824522793292999268e-01 1.528188288211822510e-01 2.052846923470497131e-02
3.467121422290802002e-01 1.504819393157958984e-01 -1.658837199211120605e-01
1.621408760547637939e-01 5.158484354615211487e-02 1.136450096964836121e-01
2.470499426126480103e-01 4.390360414981842041e-02 -2.659697644412517548e-02
2.231455445289611816e-01 1.337535679340362549e-01 3.509678244590759277e-01
3.771895766258239746e-01 5.073070153594017029e-02 6.837382912635803223e-02
1.010024249553680420e-01 6.141203269362449646e-02 -9.241904318332672119e-02
1.455651521682739258e-01 1.360363364219665527e-01 2.931641042232513428e-01
1.395716071128845215e-01 1.467239260673522949e-01 -1.790954470634460449e-01
2.624838054180145264e-02 1.206400245428085327e-01 6.871677190065383911e-02
4.689496755599975586e-01 1.281015872955322266e-01 1.051616221666336060e-01
3.703200221061706543e-01 4.910801723599433899e-02 1.958777010440826416e-02
4.552884101867675781e-01 7.053770124912261963e-02 1.276335418224334717e-01
3.065083026885986328e-01 1.534531712532043457e-01 2.013637423515319824e-01
3.989269733428955078e-01 5.297390371561050415e-02 5.268969107419252396e-03
2.321241050958633423e-01 1.467292904853820801e-01 2.806740999221801758e-01
1.433579623699188232e-01 7.598765194416046143e-02 -2.906761765480041504e-01
1.832532435655593872e-01 1.596353650093078613e-01 1.443938165903091431e-02
2.233571708202362061e-01 5.663158372044563293e-02 2.485077828168869019e-01
1.428213417530059814e-01 8.932095021009445190e-02 -3.293991088867187500e-01
2.113118618726730347e-01 1.521199345588684082e-01 2.258840799331665039e-01
4.594276547431945801e-01 1.329226344823837280e-01 -6.799661368131637573e-02
2.505393624305725098e-01 1.501854658126831055e-01 2.545499503612518311e-01
2.505068182945251465e-01 4.365184903144836426e-02 6.942789070308208466e-03
2.165461033582687378e-01 1.605096161365509033e-01 -5.242077261209487915e-02
3.752510845661163330e-01 5.119290202856063843e-02 9.067346155643463135e-02
4.220743477344512939e-02 8.029963821172714233e-02 -7.494979351758956909e-02
1.346768289804458618e-01 5.286274105310440063e-02 -2.235962077975273132e-03
2.548697888851165771e-01 1.590400338172912598e-01 1.395504176616668701e-01
1.737117171287536621e-01 1.544230580329895020e-01 -1.329136639833450317e-01
1.743147224187850952e-01 5.326125398278236389e-02 -1.543358564376831055e-01
3.425518274307250977e-01 9.966255724430084229e-02 3.865573406219482422e-01
2.839316129684448242e-01 1.515961885452270508e-01 -2.062751799821853638e-01
2.567302882671356201e-01 1.609333008527755737e-01 -5.853091180324554443e-02
1.617381572723388672e-01 6.503854691982269287e-02 2.667414247989654541e-01
5.227126181125640869e-02 1.359714567661285400e-01 6.696531549096107483e-03
1.229070872068405151e-01 9.016720205545425415e-02 3.296288251876831055e-01
3.622884750366210938e-01 6.672102957963943481e-02 -2.682675123214721680e-01
7.193125784397125244e-02 9.781296551227569580e-02 -2.433911561965942383e-01
1.698800027370452881e-01 1.585202515125274658e-01 -2.473063766956329346e-03
4.537377059459686279e-01 1.161928772926330566e-01 2.312265038490295410e-01
3.630648851394653320e-01 1.436208784580230713e-01 2.410784363746643066e-01
5.426205694675445557e-02 9.866075962781906128e-02 -2.043099850416183472e-01
3.861516714096069336e-01 1.230858191847801208e-01 -2.991693615913391113e-01
3.019390404224395752e-01 1.495445966720581055e-01 2.462302446365356445e-01
1.554894149303436279e-01 5.430752784013748169e-02 -1.360114216804504395e-01
1.099967360496520996e-01 1.489653289318084717e-01 1.047634556889533997e-01
2.706368267536163330e-01 4.660994559526443481e-02 1.335065811872482300e-01
4.669331014156341553e-02 1.141184866428375244e-01 -1.751257330179214478e-01
5.396334826946258545e-02 1.309792697429656982e-01 1.369296908378601074e-01
2.871920466423034668e-01 1.430370658636093140e-01 -2.750627994537353516e-01
2.944869101047515869e-01 4.487383365631103516e-02 -6.833981722593307495e-02
1.293702572584152222e-01 1.189501062035560608e-01 -3.118323385715484619e-01
1.202391237020492554e-01 1.275821924209594727e-01 3.014812171459197998e-01
4.549430608749389648e-01 6.672641634941101074e-02 -5.380325019359588623e-02
3.081704676151275635e-01 7.032128423452377319e-02 3.351435959339141846e-01
2.230101525783538818e-01 5.470020323991775513e-02 -2.174940407276153564e-01
2.879765033721923828e-01 1.292866617441177368e-01 -3.421480655670166016e-01
2.241290807723999023e-01 4.445959627628326416e-02 1.291796285659074783e-02
3.160071969032287598e-01 1.582018285989761353e-01 -7.737597078084945679e-02
6.262756884098052979e-02 1.389667987823486328e-01 5.847212672233581543e-02
8.149905502796173096e-02 1.412098109722137451e-01 -9.995010495185852051e-02
4.277344942092895508e-01 1.185186058282852173e-01 -2.553992569446563721e-01
3.039663136005401611e-01 1.572440862655639648e-01 1.459523588418960571e-01
3.027583360671997070e-01 4.513116180896759033e-02 7.843983918428421021e-02
5.405315756797790527e-02 1.150600761175155640e-01 2.182821929454803467e-01
2.581749856472015381e-01 5.134113878011703491e-02 2.048390805721282959e-01
4.118913710117340088e-01 1.122833341360092163e-01 3.151887655258178711e-01
3.141221404075622559e-01 1.444071084260940552e-01 -2.533446252346038818e-01
3.493059277534484863e-01 1.458792090415954590e-01 -2.112535536289215088e-01
1.497335731983184814e-01 7.888648658990859985e-02 3.257326483726501465e-01
3.608742356300354004e-01 1.279981732368469238e-01 3.311592042446136475e-01
1.663759350776672363e-01 1.569083333015441895e-01 9.774537384510040283e-02
4.859538078308105469e-01 1.227125674486160278e-01 3.527684882283210754e-02
3.854499459266662598e-01 7.116237282752990723e-02 2.814954519271850586e-01
4.301234781742095947e-01 1.427646577358245850e-01 -4.488744586706161499e-02
3.713145256042480469e-01 1.536417007446289062e-01 -4.615487158298492432e-02
2.963820397853851318e-01 6.085459142923355103e-02 -2.725431025028228760e-01
1.407423317432403564e-01 5.290653556585311890e-02 7.352115958929061890e-02
2.179072499275207520e-01 1.532162427902221680e-01 -1.873782277107238770e-01
2.820864319801330566e-02 1.238291263580322266e-01 -6.861777976155281067e-03
9.928323328495025635e-02 6.058596819639205933e-02 -6.453602015972137451e-02
7.506018877029418945e-02 1.429945230484008789e-01 -1.343787088990211487e-02
4.955608844757080078e-01 1.056009829044342041e-01 1.071762740612030029e-01
1.891121268272399902e-01 1.464852839708328247e-01 2.636897563934326172e-01
9.734623134136199951e-02 1.483969390392303467e-01 3.028544038534164429e-02
7.891084253787994385e-02 6.498883664608001709e-02 5.871522426605224609e-02
5.299223959445953369e-02 1.336330622434616089e-01 -7.189337164163589478e-02
1.363317668437957764e-01 1.362489908933639526e-01 -2.542584538459777832e-01
2.673458158969879150e-01 4.870770871639251709e-02 1.700473278760910034e-01
4.850174784660339355e-01 1.132819727063179016e-01 -1.186407655477523804e-01
3.147273957729339600e-01 1.311824321746826172e-01 3.505803942680358887e-01
2.022023350000381470e-01 5.169788748025894165e-02 1.801815330982208252e-01
1.824835538864135742e-01 1.482549309730529785e-01 -2.147453278303146362e-01
1.509255021810531616e-01 5.125757679343223572e-02 -5.108835548162460327e-02
3.285746276378631592e-01 5.079952254891395569e-02 1.695036292076110840e-01
2.095811665058135986e-01 4.644758254289627075e-02 -7.567158341407775879e-02
3.334931135177612305e-01 1.551350653171539307e-01 1.447493731975555420e-01
3.300362229347229004e-01 5.407273396849632263e-02 -1.975315809249877930e-01
3.198176324367523193e-01 1.503536701202392578e-01 2.255398035049438477e-01
3.307024240493774414e-01 1.574161797761917114e-01 9.731400012969970703e-02
3.466274142265319824e-01 1.485102474689483643e-01 -1.886614859104156494e-01
1.190462559461593628e-01 1.473166495561599731e-01 1.614128202199935913e-01
4.399580955505371094e-01 7.441112399101257324e-02 2.071976214647293091e-01
2.946258187294006348e-01 5.032399296760559082e-02 -1.755956262350082397e-01
4.420988559722900391e-01 1.335960030555725098e-01 1.629385799169540405e-01
1.393669545650482178e-01 1.277141273021697998e-01 3.226322531700134277e-01
4.852571487426757812e-01 9.315899014472961426e-02 -1.354857534170150757e-01
1.749866306781768799e-01 4.835828766226768494e-02 -4.360274225473403931e-02
1.059939265251159668e-01 1.347611844539642334e-01 -2.193398922681808472e-01
1.525571495294570923e-01 1.537737995386123657e-01 1.369175910949707031e-01
7.999821007251739502e-02 7.010031491518020630e-02 1.528669595718383789e-01
3.209730684757232666e-01 1.588876992464065552e-01 7.112216949462890625e-02
3.284799158573150635e-01 1.589230298995971680e-01 1.511454768478870392e-02
1.703424900770187378e-01 6.969450414180755615e-02 3.032107949256896973e-01
1.209879815578460693e-01 5.698618665337562561e-02 9.862768650054931641e-02
1.690622717142105103e-01 1.562615483999252319e-01 -9.025516360998153687e-02
2.221750915050506592e-01 1.034342646598815918e-01 -3.860301673412322998e-01
4.338675141334533691e-01 6.414727866649627686e-02 1.310495436191558838e-01
4.595343768596649170e-01 7.724560797214508057e-02 -1.568729579448699951e-01
2.617885172367095947e-02 1.222952976822853088e-01 3.496300429105758667e-02
1.158356070518493652e-01 1.319870054721832275e-01 -2.500861883163452148e-01
1.005763411521911621e-01 9.850071370601654053e-02 3.135493695735931396e-01
2.548329234123229980e-01 1.597086489200592041e-01 -9.421570599079132080e-02
2.348480671644210815e-01 4.589515924453735352e-02 1.048889383673667908e-01
3.423683941364288330e-01 1.571057885885238647e-01 6.979390978813171387e-02
3.783971071243286133e-01 8.962755650281906128e-02 3.492812812328338623e-01
1.448728442192077637e-01 1.500661224126815796e-01 -1.493233293294906616e-01
1.578396111726760864e-01 5.674977228045463562e-02 -1.735096871852874756e-01
4.680109322071075439e-01 7.477537542581558228e-02 -1.029527112841606140e-01
3.142837584018707275e-01 1.486595571041107178e-01 -2.182353138923645020e-01
3.279345035552978516e-01 9.520946443080902100e-02 -3.727996051311492920e-01
3.965943455696105957e-01 9.050513058900833130e-02 3.320041596889495850e-01
3.271161317825317383e-01 1.534177362918853760e-01 -1.525719761848449707e-01
2.365496605634689331e-01 1.387996971607208252e-01 3.304843306541442871e-01
4.097652733325958252e-01 1.375925391912460327e-01 -1.873676329851150513e-01
3.381893336772918701e-01 1.448089480400085449e-01 -2.318979799747467041e-01
2.641215026378631592e-01 1.475148797035217285e-01 -2.477731406688690186e-01
4.817333817481994629e-01 1.012218818068504333e-01 -1.571768522262573242e-01
1.487753093242645264e-01 1.537214815616607666e-01 -9.878981858491897583e-02
2.708516418933868408e-01 4.384841769933700562e-02 4.805077612400054932e-02
1.059955954551696777e-01 6.645391136407852173e-02 -1.735264062881469727e-01
3.163033127784729004e-01 5.210226029157638550e-02 1.971528977155685425e-01
2.725727856159210205e-01 1.617260426282882690e-01 1.844230107963085175e-02
3.896343111991882324e-01 6.564239412546157837e-02 -2.294171601533889771e-01
2.718861103057861328e-01 7.086686789989471436e-02 3.454373180866241455e-01
1.698614805936813354e-01 1.578114926815032959e-01 -4.679821431636810303e-02
4.168134927749633789e-02 1.221290379762649536e-01 -1.261727660894393921e-01
3.160443007946014404e-01 1.381438672542572021e-01 -2.920189499855041504e-01
1.977913975715637207e-01 4.623625800013542175e-02 -3.258347511291503906e-02
1.673945784568786621e-02 1.098488643765449524e-01 4.996309429407119751e-02
3.337826728820800781e-01 1.204532012343406677e-01 3.728442490100860596e-01
3.849228620529174805e-01 1.463942825794219971e-01 -1.494853496551513672e-01
3.667361140251159668e-01 1.331820785999298096e-01 -2.785558700561523438e-01
4.729492664337158203e-01 1.222729235887527466e-01 1.418393403291702271e-01
2.230975329875946045e-01 1.615437567234039307e-01 1.317480579018592834e-03
2.625023126602172852e-01 5.323424562811851501e-02 2.262539863586425781e-01
2.383525669574737549e-01 6.256730854511260986e-02 2.985243499279022217e-01
4.761624932289123535e-01 1.227556988596916199e-01 -1.000625565648078918e-01
1.365510523319244385e-01 6.590674817562103271e-02 2.413002997636795044e-01
4.158844947814941406e-01 1.386677324771881104e-01 -1.637770682573318481e-01
1.093610823154449463e-01 1.354929655790328979e-01 2.481085658073425293e-01
2.858589589595794678e-01 4.371505975723266602e-02 -1.091484539210796356e-02
2.133994996547698975e-01 9.796189516782760620e-02 4.026409983634948730e-01
2.502208650112152100e-01 4.388573765754699707e-02 4.054591059684753418e-02
4.461355805397033691e-01 9.080249071121215820e-02 2.574807405471801758e-01
2.936465740203857422e-01 4.412024095654487610e-02 4.395063221454620361e-02
3.977602124214172363e-01 1.468273252248764038e-01 -1.098076105117797852e-01
2.877420485019683838e-01 1.427834630012512207e-01 3.038524091243743896e-01
3.928607702255249023e-02 1.207971051335334778e-01 1.492998898029327393e-01
2.800422012805938721e-01 1.538656353950500488e-01 -1.825190931558609009e-01
4.005081057548522949e-01 7.498182356357574463e-02 -2.662426829338073730e-01
3.479099571704864502e-01 1.375687867403030396e-01 2.986836731433868408e-01
2.758141458034515381e-01 1.551517695188522339e-01 1.973513960838317871e-01
2.631094455718994141e-01 1.347021460533142090e-01 -3.244067728519439697e-01
1.900058835744857788e-01 1.536590158939361572e-01 -1.628371924161911011e-01
2.818903326988220215e-01 4.548596218228340149e-02 1.054151803255081177e-01
2.019373476505279541e-01 4.893917590379714966e-02 -1.236627548933029175e-01
3.580956459045410156e-01 1.230822950601577759e-01 -3.260714709758758545e-01
2.544339895248413086e-01 4.631454497575759888e-02 -1.148134171962738037e-01
2.305814623832702637e-01 7.398895919322967529e-02 3.545919358730316162e-01
2.633792757987976074e-01 5.906167998909950256e-02 -2.644878625869750977e-01
5.102206766605377197e-02 1.211189180612564087e-01 1.903436332941055298e-01
2.606853544712066650e-01 4.985425621271133423e-02 -1.747203022241592407e-01
4.628839194774627686e-01 6.826454401016235352e-02 1.193737983703613281e-02
2.170363515615463257e-01 4.968415573239326477e-02 1.644890457391738892e-01
4.256117343902587891e-02 1.262751221656799316e-01 -1.002167016267776489e-01
7.182808220386505127e-02 7.018269598484039307e-02 -1.052162200212478638e-01
4.907531142234802246e-01 1.180471330881118774e-01 -4.397416859865188599e-02
2.045263051986694336e-01 6.090532988309860229e-02 -2.590590417385101318e-01
2.992235124111175537e-02 8.413071185350418091e-02 1.209497917443513870e-02
4.208488464355468750e-01 5.714696273207664490e-02 -2.255559153854846954e-02
1.104479730129241943e-01 6.100748106837272644e-02 -1.210988461971282959e-01
3.588210344314575195e-01 5.945671722292900085e-02 -2.208672165870666504e-01
2.025222182273864746e-01 1.402174383401870728e-01 -2.851864993572235107e-01
1.929408460855484009e-01 1.373343765735626221e-01 3.232593834400177002e-01
3.282032907009124756e-01 8.544467389583587646e-02 3.764119446277618408e-01
1.532485634088516235e-01 1.441879719495773315e-01 -2.204484343528747559e-01
2.826069295406341553e-02 1.185581982135772705e-01 -7.931448519229888916e-02
2.557595968246459961e-01 1.619024127721786499e-01 -8.332664147019386292e-04
1.768586188554763794e-01 5.334166809916496277e-02 1.720805466175079346e-01
1.116408258676528931e-01 7.123391330242156982e-02 2.385693788528442383e-01
1.196766346693038940e-01 7.130974531173706055e-02 -2.361440956592559814e-01
4.724781215190887451e-02 8.349799364805221558e-02 1.497888565063476562e-01
2.641215026378631592e-01 1.572898924350738525e-01 1.698257476091384888e-01
9.203283488750457764e-02 1.455507725477218628e-01 -6.838491559028625488e-02
3.647471666336059570e-01 6.776958703994750977e-02 2.855065464973449707e-01
4.519909918308258057e-01 1.027777716517448425e-01 -2.371282577514648438e-01
6.059733033180236816e-02 9.565687179565429688e-02 2.368422150611877441e-01
4.561761319637298584e-01 1.117484122514724731e-01 -2.163031101226806641e-01
2.733216285705566406e-01 7.345481216907501221e-02 -3.406651020050048828e-01
4.170269370079040527e-01 6.004792451858520508e-02 -1.180055290460586548e-01
3.420657515525817871e-01 4.690527170896530151e-02 -4.842735826969146729e-02
2.477919757366180420e-01 1.600162982940673828e-01 1.172120571136474609e-01
2.577133178710937500e-01 5.474689975380897522e-02 -2.286043763160705566e-01
1.512241363525390625e-02 1.018560603260993958e-01 2.190148085355758667e-02
4.150670170783996582e-01 6.925795972347259521e-02 2.259985506534576416e-01
2.237826585769653320e-02 9.737512469291687012e-02 -7.527627795934677124e-02
3.424230217933654785e-01 5.295043811202049255e-02 -1.722976565361022949e-01
1.508068144321441650e-01 1.552194654941558838e-01 -6.904333829879760742e-02
4.099758267402648926e-01 9.858625382184982300e-02 -3.060042560100555420e-01
3.914924263954162598e-01 1.508230119943618774e-01 6.559082120656967163e-02
2.327332198619842529e-01 5.042722076177597046e-02 -1.738512516021728516e-01
