3.136122822761535645e-01 1.808084845542907715e-01 1.260333359241485596e-01
2.014326602220535278e-01 1.809715479612350464e-01 -6.829040497541427612e-02
3.475185856223106384e-02 1.812771260738372803e-01 8.840672671794891357e-02
-3.660577237606048584e-01 1.473499089479446411e-01 -1.529392451047897339e-01
2.475747764110565186e-01 1.322067230939865112e-01 -5.204481631517410278e-02
1.263190954923629761e-01 1.820903867483139038e-01 1.326643675565719604e-01
-1.479199081659317017e-01 1.294014751911163330e-01 1.609313935041427612e-01
-8.935535326600074768e-03 1.277617365121841431e-01 1.496240496635437012e-01
7.566384226083755493e-02 1.829745173454284668e-01 6.064225360751152039e-02
1.575907468795776367e-01 1.676915287971496582e-01 -2.005314975976943970e-01
-2.510713934898376465e-01 1.641002297401428223e-01 5.796966329216957092e-02
1.396268606185913086e-01 1.239840984344482422e-01 -4.282879456877708435e-02
2.592140436172485352e-01 1.772953420877456665e-01 -9.856648743152618408e-02
1.048782542347908020e-01 1.426775753498077393e-01 2.245670109987258911e-01
2.806610167026519775e-01 1.366914212703704834e-01 5.743067339062690735e-02
1.635732799768447876e-01 1.762553006410598755e-01 -1.342285275459289551e-01
-1.883726567029953003e-02 -4.779159426689147949e-01 -3.434072434902191162e-02
-3.304418548941612244e-02 -5.161411762237548828e-01 -2.930721966549754143e-04
9.965171106159687042e-03 -2.714978158473968506e-01 3.080117888748645782e-02
-3.542724251747131348e-02 -2.119774073362350464e-01 -2.079334855079650879e-02
7.356447167694568634e-04 -4.292869567871093750e-01 -4.251050949096679688e-02
2.250304445624351501e-02 -3.240322768688201904e-01 -2.812569029629230499e-02
1.008572336286306381e-02 -4.928507506847381592e-01 -3.610691800713539124e-02
3.154631331562995911e-02 -4.152178764343261719e-01 -2.532985433936119080e-02
-1.743401214480400085e-02 -2.525457739830017090e-01 -3.591446951031684875e-02
2.208629995584487915e-02 -3.084014654159545898e-01 2.675936371088027954e-02
4.852265119552612305e-03 -4.269366860389709473e-01 4.440022259950637817e-02
-8.163465186953544617e-03 -4.939149618148803711e-01 3.924644738435745239e-02
3.194114193320274353e-02 -5.119559168815612793e-01 -1.893519796431064606e-02
-4.415102675557136536e-02 -4.013573527336120605e-01 -1.994240656495094299e-02
4.088091477751731873e-02 -4.487438499927520752e-01 4.940899088978767395e-03
2.263509854674339294e-02 -3.902901709079742432e-01 -3.382418304681777954e-02
-2.081792056560516357e-02 -4.566926658153533936e-01 3.859635069966316223e-02
-3.595415502786636353e-03 -1.852247714996337891e-01 -1.203244272619485855e-02
3.505233675241470337e-02 -5.345429182052612305e-01 -6.421971134841442108e-03
2.179277315735816956e-02 -5.821187496185302734e-01 -9.408171288669109344e-03
2.632766216993331909e-02 -5.195618271827697754e-01 -2.406355366110801697e-02
-4.919291287660598755e-02 -2.592567205429077148e-01 -8.861149661242961884e-03
-5.230571329593658447e-02 -3.162750005722045898e-01 2.098436467349529266e-03
-1.455944683402776718e-02 -5.629219412803649902e-01 1.848126575350761414e-02
2.940268442034721375e-02 -4.591712355613708496e-01 3.065560013055801392e-02
-3.416529670357704163e-02 -5.048120617866516113e-01 1.112646330147981644e-02
-3.772928845137357712e-03 -2.118084877729415894e-01 -2.489917911589145660e-02
-5.007356777787208557e-02 -3.401654958724975586e-01 -1.337357237935066223e-02
-3.582045808434486389e-02 -2.463743984699249268e-01 -2.781286090612411499e-02
-4.678304865956306458e-02 -3.105611801147460938e-01 2.074967138469219208e-02
2.780807018280029297e-02 -5.705237984657287598e-01 1.138607319444417953e-02
1.781662926077842712e-02 -5.310602784156799316e-01 3.213588893413543701e-02
5.818256177008152008e-04 -3.980866670608520508e-01 4.528203234076499939e-02
-3.904792293906211853e-02 -4.567423760890960693e-01 -1.742863096296787262e-02
-2.048400230705738068e-02 -1.739545166492462158e-01 -1.307342480868101120e-02
-5.808473564684391022e-03 -3.505523800849914551e-01 4.467858001589775085e-02
1.772290468215942383e-02 -5.954731702804565430e-01 -3.670986508950591087e-03
-3.238020092248916626e-02 -4.358748793601989746e-01 3.246596083045005798e-02
-4.140184447169303894e-02 -3.681907653808593750e-01 -2.763589657843112946e-02
-3.497335361316800117e-03 -4.446171522140502930e-01 -4.177375137805938721e-02
-3.520504385232925415e-02 -2.176161557435989380e-01 2.094078063964843750e-02
-2.081340923905372620e-02 -2.234822660684585571e-01 2.924824878573417664e-02
-1.234491728246212006e-02 -5.532349348068237305e-01 2.473573572933673859e-02
-8.727345615625381470e-03 -1.904585063457489014e-01 -1.931677758693695068e-02
-6.567421369254589081e-03 -4.834810495376586914e-01 4.084319993853569031e-02
-1.074844133108854294e-02 -1.720125526189804077e-01 5.699863657355308533e-03
-4.141652584075927734e-02 -4.684934318065643311e-01 -3.115806728601455688e-03
5.776756443083286285e-04 -5.845797657966613770e-01 1.946107856929302216e-02
-9.577127173542976379e-03 -5.630079507827758789e-01 -1.891972124576568604e-02
-2.453904971480369568e-02 -2.158876359462738037e-01 -2.801663056015968323e-02
-4.869901016354560852e-02 -2.861413061618804932e-01 -1.564477197825908661e-02
3.972546756267547607e-02 -4.796768426895141602e-01 -5.860409699380397797e-03
3.074073418974876404e-02 -5.246226787567138672e-01 -1.820102892816066742e-02
1.191521529108285904e-02 -5.456737279891967773e-01 3.155340254306793213e-02
-3.080655261874198914e-02 -4.917958378791809082e-01 -2.102147787809371948e-02
-2.210691571235656738e-02 -4.487476348876953125e-01 -3.644113615155220032e-02
3.206777200102806091e-02 -3.942090868949890137e-01 -2.356657572090625763e-02
2.023652568459510803e-02 -3.617324531078338623e-01 -3.425872698426246643e-02
3.250828385353088379e-02 -4.309409260749816895e-01 -2.426468953490257263e-02
3.201802819967269897e-02 -3.170476257801055908e-01 7.080502808094024658e-03
3.525267355144023895e-03 -2.985639572143554688e-01 3.863616287708282471e-02
-3.011584654450416565e-02 -3.034006357192993164e-01 3.669188916683197021e-02
-4.042597487568855286e-02 -4.090573191642761230e-01 -2.492811717092990875e-02
-4.735391587018966675e-02 -4.059758484363555908e-01 -1.051745563745498657e-02
2.225555479526519775e-02 -4.260571599006652832e-01 3.719726949930191040e-02
1.158892828971147537e-02 -2.277634441852569580e-01 -1.565162278711795807e-02
-4.621736705303192139e-02 -3.834233283996582031e-01 1.929471828043460846e-02
9.235113859176635742e-03 -3.516099452972412109e-01 -4.021752998232841492e-02
-3.919256106019020081e-02 -4.736600518226623535e-01 1.274598762392997742e-02
-3.095358237624168396e-02 -5.222052931785583496e-01 -5.772261880338191986e-03
-2.256153151392936707e-02 -5.403776764869689941e-01 1.839796826243400574e-02
-1.453111227601766586e-02 -5.362250804901123047e-01 2.840069681406021118e-02
-3.537533059716224670e-02 -1.825143843889236450e-01 -3.183099674060940742e-03
1.757194474339485168e-02 -3.936611413955688477e-01 3.954547271132469177e-02
9.573443792760372162e-03 -5.208435058593750000e-01 3.635901212692260742e-02
-3.067694976925849915e-02 -4.218825101852416992e-01 3.540638834238052368e-02
-1.086484361439943314e-02 -4.705599546432495117e-01 4.118443280458450317e-02
-2.877233317121863365e-03 -2.835448086261749268e-01 -3.864923119544982910e-02
3.848579153418540955e-02 -4.868786931037902832e-01 -9.552222676575183868e-03
-2.706014318391680717e-03 -5.248329639434814453e-01 3.577254340052604675e-02
2.759514376521110535e-02 -3.166787028312683105e-01 -1.930247247219085693e-02
-9.254472330212593079e-03 -2.770358920097351074e-01 -3.897783532738685608e-02
-1.854201778769493103e-02 -3.452607393264770508e-01 4.313921183347702026e-02
-2.848204597830772400e-02 -2.621497511863708496e-01 -3.426807373762130737e-02
3.477995470166206360e-02 -4.463782608509063721e-01 -2.070618607103824615e-02
-2.926099300384521484e-02 -1.862273365259170532e-01 -1.627224870026111603e-02
-7.654583081603050232e-03 -2.039959728717803955e-01 -2.415676787495613098e-02
4.769897088408470154e-03 -2.121778875589370728e-01 1.694985665380954742e-02
-9.586839936673641205e-03 -3.822983503341674805e-01 4.532650113105773926e-02
4.079753160476684570e-02 -4.674683511257171631e-01 4.933859454467892647e-04
-1.173631660640239716e-02 -3.208997547626495361e-01 4.299747198820114136e-02
3.097508102655410767e-02 -3.131350278854370117e-01 -8.789995685219764709e-03
1.111796218901872635e-02 -5.358830690383911133e-01 3.361625224351882935e-02
1.945053786039352417e-02 -3.149649202823638916e-01 -2.998959645628929138e-02
7.697916589677333832e-04 -4.749692678451538086e-01 -3.924120590090751648e-02
-3.159491345286369324e-02 -1.850859224796295166e-01 1.155505701899528503e-02
-3.884928300976753235e-03 -2.219058275222778320e-01 -2.792052738368511200e-02
2.464012429118156433e-02 -2.851296067237854004e-01 1.586889848113059998e-02
2.249441109597682953e-03 -3.592391610145568848e-01 -4.280243441462516785e-02
3.955565020442008972e-02 -4.049666523933410645e-01 7.763586007058620453e-03
-4.536738619208335876e-02 -4.287157058715820312e-01 1.120893098413944244e-02
1.710283756256103516e-02 -4.640753865242004395e-01 3.928834572434425354e-02
-2.202171087265014648e-02 -2.816857397556304932e-01 3.806661069393157959e-02
-3.015974536538124084e-02 -2.013269662857055664e-01 1.983741484582424164e-02
7.325366139411926270e-03 -3.752755820751190186e-01 -4.180234298110008240e-02
-5.029765516519546509e-02 -3.667113482952117920e-01 -9.089767001569271088e-03
3.876607492566108704e-02 -4.765796661376953125e-01 1.389533001929521561e-02
-5.096424371004104614e-02 -2.823069095611572266e-01 6.394284777343273163e-03
-3.052315488457679749e-02 -2.858962416648864746e-01 -3.554032742977142334e-02
1.697583124041557312e-02 -4.843109548091888428e-01 3.804641962051391602e-02
-3.225579857826232910e-04 -5.345568060874938965e-01 -3.036813996732234955e-02
-5.210049077868461609e-02 -3.360354006290435791e-01 3.522676881402730942e-03
3.768481314182281494e-03 -5.619705319404602051e-01 -2.393552474677562714e-02
3.796106576919555664e-02 -3.967555761337280273e-01 -1.089971791952848434e-02
2.297199144959449768e-02 -4.124657511711120605e-01 3.648981079459190369e-02
2.637552469968795776e-02 -2.768115401268005371e-01 1.078548491932451725e-03
3.576644882559776306e-02 -4.657112061977386475e-01 -1.820443384349346161e-02
-4.918130859732627869e-02 -3.960793018341064453e-01 -5.063569173216819763e-03
-1.709197275340557098e-02 -4.917212724685668945e-01 -3.303672373294830322e-02
-2.700509503483772278e-02 -5.398693084716796875e-01 6.716517731547355652e-03
4.074625298380851746e-02 -4.273427128791809082e-01 2.952724171336740255e-04
-2.837976068258285522e-02 -2.448310256004333496e-01 3.096550144255161285e-02
3.290454670786857605e-02 -5.540474653244018555e-01 6.491050124168395996e-03
-1.221406273543834686e-02 -3.207090198993682861e-01 -4.254534095525741577e-02
-1.924141496419906616e-02 -1.978944540023803711e-01 -2.411405742168426514e-02
-3.727182373404502869e-02 -4.950566589832305908e-01 1.847294159233570099e-03
-2.582280430942773819e-03 -3.623979687690734863e-01 4.493077471852302551e-02
-2.165459841489791870e-02 -5.278030037879943848e-01 -2.103243768215179443e-02
-2.190329879522323608e-02 -3.285943865776062012e-01 -4.118051379919052124e-02
1.166251581162214279e-02 -4.443007409572601318e-01 -3.947623446583747864e-02
2.070992067456245422e-02 -5.901504158973693848e-01 9.910651482641696930e-03
-3.109520673751831055e-02 -3.679450154304504395e-01 -3.693984448909759521e-02
4.068474844098091125e-02 -4.614449739456176758e-01 6.223944015800952911e-03
-4.007745161652565002e-02 -2.389380037784576416e-01 2.111458219587802887e-02
-1.966039184480905533e-03 -2.594836056232452393e-01 -3.504468500614166260e-02
2.265724167227745056e-02 -2.709464728832244873e-01 1.414721179753541946e-02
2.521505579352378845e-02 -9.616987407207489014e-02 4.845842346549034119e-02
-2.905923407524824142e-03 -1.569041311740875244e-01 1.990359276533126831e-02
2.372445911169052124e-02 -5.399703234434127808e-02 2.358018793165683746e-02
-3.241386637091636658e-02 -1.993615180253982544e-02 -5.785008892416954041e-03
-3.582116588950157166e-02 -8.927440643310546875e-02 4.826715588569641113e-02
3.578035533428192139e-02 -1.268520057201385498e-01 2.742932364344596863e-02
1.184327993541955948e-02 -1.400311887264251709e-01 -5.989253520965576172e-03
2.282225713133811951e-02 -1.422817558050155640e-01 1.647533848881721497e-03
-4.744060710072517395e-02 -1.160283386707305908e-02 2.061646804213523865e-02
-4.813240095973014832e-02 -3.529673814773559570e-02 3.899803012609481812e-02
-2.318320050835609436e-02 -1.366169601678848267e-01 3.149841353297233582e-02
1.211565267294645309e-02 -4.760232195258140564e-02 4.485969617962837219e-02
-5.058119073510169983e-02 -1.643487811088562012e-02 2.078194729983806610e-02
-5.489591136574745178e-02 -3.574928641319274902e-02 6.120096892118453979e-03
2.220314927399158478e-03 -4.229533672332763672e-02 -7.515404373407363892e-03
1.632554084062576294e-02 -6.724870204925537109e-02 5.027443915605545044e-02
2.716170251369476318e-02 -7.989878952503204346e-02 2.409666776657104492e-03
-5.667196959257125854e-02 -5.334236472845077515e-02 2.429148554801940918e-02
-5.449288990348577499e-03 -1.165546402335166931e-01 5.518249049782752991e-02
-9.156556800007820129e-03 -5.568891763687133789e-02 -1.784775033593177795e-02
-5.241296812891960144e-02 -8.505474776029586792e-02 1.372144743800163269e-02
-1.271843351423740387e-02 -9.801544249057769775e-03 3.045229054987430573e-02
1.088600605726242065e-03 -6.567692756652832031e-02 -1.663654670119285583e-02
-1.922124251723289490e-02 -1.440183520317077637e-01 2.546058595180511475e-02
5.368384532630443573e-03 -6.411756575107574463e-02 5.610373616218566895e-02
-4.119993373751640320e-02 -6.429819762706756592e-02 4.802817106246948242e-02
-1.791973039507865906e-02 -7.181569933891296387e-02 5.907322466373443604e-02
-3.856428433209657669e-03 -8.688189834356307983e-02 6.010291352868080139e-02
-5.379438027739524841e-02 -7.992732524871826172e-02 1.567690074443817139e-02
1.697073876857757568e-02 -5.895203351974487305e-02 -2.095628529787063599e-03
-2.315587550401687622e-02 -2.495804429054260254e-02 -8.942658081650733948e-03
1.459096837788820267e-02 -1.523847579956054688e-01 4.210452549159526825e-03
-4.126327112317085266e-02 -3.098395094275474548e-02 -7.990995422005653381e-03
-3.853828180581331253e-03 -7.714898139238357544e-02 6.003901362419128418e-02
-2.178870141506195068e-02 -1.108344793319702148e-01 -1.529603824019432068e-02
-8.556002750992774963e-03 -1.576847583055496216e-02 3.622904419898986816e-02
1.695316284894943237e-02 -8.171924948692321777e-02 -1.020308025181293488e-02
2.586340904235839844e-02 -8.036553114652633667e-02 4.448597505688667297e-02
-9.360142983496189117e-03 -1.478059887886047363e-01 3.390887007117271423e-02
1.032877620309591293e-02 -1.043082177639007568e-01 5.684363096952438354e-02
-5.025963112711906433e-02 -9.048498421907424927e-02 2.294298820197582245e-02
2.810321748256683350e-02 -7.523330301046371460e-02 6.822979077696800232e-03
1.992200314998626709e-02 -4.628606140613555908e-02 2.509511075913906097e-02
1.595076546072959900e-02 -1.150680556893348694e-01 -1.182863488793373108e-02
-3.152185305953025818e-02 -9.251596033573150635e-02 5.076234042644500732e-02
2.520448714494705200e-02 -5.910206586122512817e-02 2.987205237150192261e-02
3.638986125588417053e-02 -1.119170412421226501e-01 2.989318594336509705e-02
-4.174666479229927063e-02 -1.810412108898162842e-02 3.739912062883377075e-02
-4.259342700242996216e-02 -5.077006295323371887e-02 -1.187084242701530457e-02
3.201228007674217224e-02 -1.038785651326179504e-01 4.047903791069984436e-02
-2.757693082094192505e-02 -1.050928309559822083e-01 4.953111708164215088e-02
-4.362538829445838928e-02 -7.690672576427459717e-02 -1.005298830568790436e-02
-1.944062113761901855e-02 -1.303455680608749390e-01 4.223355650901794434e-02
-3.882191330194473267e-02 -4.098992794752120972e-02 4.823642969131469727e-02
1.116871368139982224e-02 -4.755445569753646851e-02 -2.222746610641479492e-03
-3.719717636704444885e-02 -7.745319604873657227e-02 4.977608472108840942e-02
6.971211172640323639e-03 -1.006314605474472046e-01 5.802012234926223755e-02
2.820003032684326172e-02 -8.481934666633605957e-02 2.189261838793754578e-03
3.653991222381591797e-02 -1.024508997797966003e-01 1.942445896565914154e-02
-8.542583324015140533e-03 -8.495140820741653442e-02 -2.113649249076843262e-02
-2.024094946682453156e-02 -5.380116403102874756e-03 1.266533136367797852e-02
1.579689234495162964e-02 -1.090940088033676147e-01 -1.256807520985603333e-02
7.340011186897754669e-03 -2.875487133860588074e-02 1.172742899507284164e-02
-6.722723133862018585e-03 -1.295400261878967285e-01 4.974491149187088013e-02
-4.619925096631050110e-02 -1.033472046256065369e-01 1.406812481582164764e-02
-5.265584960579872131e-02 -8.080494403839111328e-02 7.696115411818027496e-03
-3.019134700298309326e-02 -7.325792312622070312e-02 5.475701764225959778e-02
2.245281264185905457e-02 -1.058710739016532898e-01 5.093095079064369202e-02
-4.895295947790145874e-02 -8.995855599641799927e-02 2.864757925271987915e-02
-1.596610434353351593e-02 -1.013487502932548523e-01 -1.942300423979759216e-02
1.988163217902183533e-03 -3.732230886816978455e-02 -4.705213010311126709e-03
3.692993894219398499e-03 -2.585216239094734192e-02 8.622910827398300171e-03
-9.648417122662067413e-03 -1.530664861202239990e-01 1.518396288156509399e-02
-3.280598670244216919e-02 -1.220578402280807495e-01 6.025806069374084473e-04
-1.226508989930152893e-03 -5.800139531493186951e-02 5.695805326104164124e-02
-1.594939455389976501e-02 -1.987146213650703430e-02 -3.767257556319236755e-03
-8.096819743514060974e-03 -2.428956329822540283e-02 -2.967014908790588379e-03
-1.372594386339187622e-02 -1.051470413804054260e-01 5.634814128279685974e-02
-4.193158075213432312e-02 -3.163668140769004822e-02 4.370050877332687378e-02
-5.176307633519172668e-02 -7.778323441743850708e-02 2.989393472671508789e-02
2.198696136474609375e-03 -7.334415614604949951e-02 5.873293802142143250e-02
-4.510714858770370483e-02 -5.890478193759918213e-02 4.466757178306579590e-02
-1.864482276141643524e-02 -4.776082932949066162e-02 5.628247186541557312e-02
-4.661048576235771179e-02 -1.148024201393127441e-02 1.224559266120195389e-02
3.254792094230651855e-02 -7.909017801284790039e-02 2.295925095677375793e-02
-1.968114264309406281e-02 -6.158985197544097900e-02 5.823594704270362854e-02
-5.176347866654396057e-02 -4.635715112090110779e-02 3.612911701202392578e-02
-3.933972492814064026e-02 -9.946592152118682861e-02 -7.015749812126159668e-03
1.113868318498134613e-03 -3.099042177200317383e-02 -7.540397346019744873e-04
5.512152798473834991e-03 -7.909869402647018433e-02 -1.697852462530136108e-02
-2.336272969841957092e-02 -3.364682197570800781e-03 2.274584770202636719e-02
-3.394932672381401062e-02 -2.010262012481689453e-02 4.315397143363952637e-02
-1.256816834211349487e-02 -2.567080035805702209e-02 4.721273481845855713e-02
-5.599069967865943909e-02 -6.435935199260711670e-02 2.312272228300571442e-02
-2.839845791459083557e-02 -1.350067853927612305e-01 1.527930423617362976e-02
-2.145643904805183411e-02 -1.422869861125946045e-01 1.089367736130952835e-02
-2.134826965630054474e-02 -7.365243881940841675e-02 -2.084274590015411377e-02
-2.456689253449440002e-02 -4.778477549552917480e-02 -1.742852479219436646e-02
2.543847262859344482e-02 -1.365339756011962891e-01 1.028336584568023682e-03
1.669346541166305542e-02 -1.028856486082077026e-01 5.452590063214302063e-02
-9.344393014907836914e-02 1.751038581132888794e-01 -2.424231320619583130e-01
-3.656523823738098145e-01 1.899184882640838623e-01 8.502911031246185303e-02
-5.677198171615600586e-01 1.648108661174774170e-01 -3.409360349178314209e-01
-8.870348334312438965e-02 1.785924434661865234e-01 3.302176669239997864e-02
-3.122224807739257812e-01 1.079242229461669922e-01 -1.650373041629791260e-01
-5.651134252548217773e-01 1.765511184930801392e-01 3.255137428641319275e-02
-4.633248448371887207e-01 1.691890209913253784e-01 4.576599895954132080e-01
-2.161635756492614746e-01 1.631815135478973389e-01 -5.388442277908325195e-01
-4.834094643592834473e-02 1.692183762788772583e-01 5.892953649163246155e-02
-6.330417394638061523e-01 1.628097593784332275e-01 -1.346185058355331421e-01
-6.553214788436889648e-01 1.268448233604431152e-01 1.471152603626251221e-01
-3.204026520252227783e-01 1.065497696399688721e-01 -8.047609031200408936e-02
-2.008391469717025757e-01 1.887311190366744995e-01 -9.017449617385864258e-02
-1.303746700286865234e-01 1.839719563722610474e-01 -7.249329984188079834e-02
-4.251418411731719971e-01 1.645098030567169189e-01 5.217701792716979980e-01
-5.391814708709716797e-01 1.291192620992660522e-01 -4.457624554634094238e-01
-1.823741197586059570e-01 1.204476654529571533e-01 -2.941471338272094727e-01
-2.630055844783782959e-01 1.533992439508438110e-01 -5.924727320671081543e-01
-3.125948309898376465e-01 1.095328256487846375e-01 -2.351406514644622803e-01
-2.162996083498001099e-01 1.883836090564727783e-01 -1.619539409875869751e-01
-4.020399153232574463e-01 1.157105118036270142e-01 -4.058452844619750977e-01
-1.929388791322708130e-01 1.867482811212539673e-01 -1.887755393981933594e-01
-4.197311401367187500e-01 1.074115931987762451e-01 1.923538595438003540e-01
-3.043046891689300537e-01 1.225928217172622681e-01 4.420549571514129639e-01
-3.667165637016296387e-01 1.312855035066604614e-01 -5.627657771110534668e-01
-4.863365292549133301e-01 1.822107285261154175e-01 1.834561824798583984e-01
-2.270317077636718750e-01 1.333096623420715332e-01 4.714582860469818115e-01
-1.106633394956588745e-01 1.805214583873748779e-01 9.597458690404891968e-02
-4.889424741268157959e-01 1.080972552299499512e-01 1.617562323808670044e-01
-2.539273798465728760e-01 1.848805993795394897e-01 -3.147549331188201904e-01
-3.980271220207214355e-01 1.135206520557403564e-01 -3.695037066936492920e-01
-4.873070120811462402e-01 1.102916300296783447e-01 -2.456457018852233887e-01
-6.035877466201782227e-01 1.198441088199615479e-01 2.326413393020629883e-01
-5.833083391189575195e-01 1.732031702995300293e-01 1.143949776887893677e-01
-1.415486037731170654e-01 1.799068003892898560e-01 -2.779386043548583984e-01
-1.391702294349670410e-01 1.815310567617416382e-01 -2.320543676614761353e-01
-3.628336489200592041e-01 1.146003454923629761e-01 -3.869853913784027100e-01
-3.530613183975219727e-01 1.901952326297760010e-01 -1.054495796561241150e-01
-1.552097350358963013e-01 1.770044118165969849e-01 2.993252575397491455e-01
-5.131077766418457031e-01 1.776757091283798218e-01 -2.473829537630081177e-01
-3.341144919395446777e-01 1.817867457866668701e-01 -3.839534819126129150e-01
-2.267303168773651123e-01 1.114801317453384399e-01 -7.660439610481262207e-02
-4.970660209655761719e-01 1.449685543775558472e-01 5.392305254936218262e-01
-6.675224304199218750e-01 1.534910053014755249e-01 1.146185994148254395e-01
-5.633474588394165039e-01 1.106605976819992065e-01 -1.216621045023202896e-02
-1.395020931959152222e-01 1.839370727539062500e-01 8.480954170227050781e-02
-2.675488591194152832e-01 1.631525456905364990e-01 -5.649751424789428711e-01
-1.993350535631179810e-01 1.788114905357360840e-01 3.364813327789306641e-01
-3.073801398277282715e-01 1.068324744701385498e-01 1.021327544003725052e-02
-3.949919342994689941e-02 1.678483635187149048e-01 -4.375373199582099915e-02
-3.991982936859130859e-01 1.856267154216766357e-01 2.377105057239532471e-01
-6.625884771347045898e-01 1.390173882246017456e-01 2.291723340749740601e-01
-2.823190093040466309e-01 1.144549995660781860e-01 -3.345424830913543701e-01
-2.716415822505950928e-01 1.910535097122192383e-01 -3.470408916473388672e-02
-5.669340491294860840e-01 1.761885881423950195e-01 -4.060649871826171875e-02
-2.202165424823760986e-01 1.258380860090255737e-01 3.950409293174743652e-01
-2.647587656974792480e-01 1.906439363956451416e-01 5.506100133061408997e-02
-9.804156422615051270e-02 1.773324310779571533e-01 1.419650018215179443e-01
-5.320440530776977539e-01 1.102215126156806946e-01 1.604821234941482544e-01
-5.700950026512145996e-01 1.688897162675857544e-01 -2.755685448646545410e-01
-1.710394322872161865e-01 1.805846095085144043e-01 2.663451731204986572e-01
-5.348831415176391602e-02 1.599481850862503052e-01 1.999592632055282593e-01
-3.059938848018646240e-01 1.083915978670120239e-01 1.406447738409042358e-01
-4.677530825138092041e-01 1.768312901258468628e-01 -3.549795448780059814e-01
-5.223399400711059570e-01 1.660014986991882324e-01 -4.155784845352172852e-01
-4.501180052757263184e-01 1.064120829105377197e-01 -1.425798535346984863e-01
-3.095278143882751465e-01 1.121059730648994446e-01 -3.076438009738922119e-01
-3.747520148754119873e-01 1.732374429702758789e-01 -4.859696626663208008e-01
-2.187345027923583984e-01 1.894061863422393799e-01 5.336989089846611023e-02
-1.169669181108474731e-01 1.694044619798660278e-01 3.159452378749847412e-01
-1.334567368030548096e-01 1.229936778545379639e-01 -1.949653625488281250e-01
-2.502483725547790527e-01 1.138514131307601929e-01 2.276645004749298096e-01
-4.452008605003356934e-01 1.237977668642997742e-01 4.761787354946136475e-01
-2.869260311126708984e-01 1.698492765426635742e-01 4.936547279357910156e-01
-4.236303567886352539e-01 1.841611862182617188e-01 -2.594360113143920898e-01
-6.762747764587402344e-01 1.418327391147613525e-01 -1.250136941671371460e-01
-4.494704008102416992e-01 1.641896516084671021e-01 -5.165944695472717285e-01
-1.102709919214248657e-01 1.284821629524230957e-01 1.770646423101425171e-01
-4.534805715084075928e-01 1.161380186676979065e-01 3.822900056838989258e-01
-5.146660804748535156e-01 1.776636242866516113e-01 2.493419498205184937e-01
-2.718067765235900879e-01 1.218589842319488525e-01 -4.477743804454803467e-01
-6.597007513046264648e-01 1.567396670579910278e-01 -8.246327936649322510e-02
-6.572240591049194336e-02 1.330951005220413208e-01 -1.794899441301822662e-02
-6.500985622406005859e-01 1.579999029636383057e-01 1.610054075717926025e-01
-4.844106137752532959e-01 1.176368966698646545e-01 -3.914598524570465088e-01
-5.451162457466125488e-01 1.195401996374130249e-01 -3.439430594444274902e-01
-1.540476679801940918e-01 1.858260035514831543e-01 4.041465744376182556e-02
-3.401467800140380859e-01 1.856367290019989014e-01 2.774772346019744873e-01
-3.195131421089172363e-01 1.875758171081542969e-01 -2.536689043045043945e-01
-6.817743182182312012e-02 1.421293169260025024e-01 -2.889457643032073975e-01
-1.440613269805908203e-01 1.194271892309188843e-01 -4.433317109942436218e-02
-5.899754166603088379e-02 1.392444670200347900e-01 -2.109511792659759521e-01
-2.894534766674041748e-01 1.874010860919952393e-01 -2.609094977378845215e-01
-5.896116495132446289e-01 1.153430864214897156e-01 -1.508602350950241089e-01
-5.306499600410461426e-01 1.805152893066406250e-01 -3.606981597840785980e-03
-3.065777420997619629e-01 1.108318567276000977e-01 -2.699940502643585205e-01
-1.524250805377960205e-01 1.211955696344375610e-01 1.581747084856033325e-01
-2.931494116783142090e-01 1.153702884912490845e-01 -3.640838563442230225e-01
-2.315169125795364380e-01 1.185097098350524902e-01 3.017981648445129395e-01
-2.661416232585906982e-01 1.095181554555892944e-01 -1.330793052911758423e-01
-2.257418632507324219e-01 1.140816211700439453e-01 -2.256121486425399780e-01
-4.464258849620819092e-01 1.052787303924560547e-01 3.588473051786422729e-02
-5.136185884475708008e-01 1.801586151123046875e-01 1.721696704626083374e-01
-3.998482525348663330e-01 1.655346453189849854e-01 -5.403541326522827148e-01
-4.605963528156280518e-01 1.816267967224121094e-01 2.617011666297912598e-01
-3.284286260604858398e-01 1.910288333892822266e-01 2.600722759962081909e-02
-2.532969713211059570e-01 1.325169652700424194e-01 4.913275241851806641e-01
-6.135721206665039062e-01 1.692123860120773315e-01 2.912690863013267517e-02
-5.093325376510620117e-01 1.162321120500564575e-01 3.434530794620513916e-01
-6.325224041938781738e-01 1.395473331212997437e-01 3.332959413528442383e-01
-2.568073272705078125e-01 1.732717752456665039e-01 4.502853453159332275e-01
-3.151661753654479980e-01 1.880473196506500244e-01 2.117585688829421997e-01
-2.101321667432785034e-01 1.793832629919052124e-01 -3.862857222557067871e-01
-2.721455693244934082e-02 1.598272323608398438e-01 -1.040452867746353149e-01
-4.684768617153167725e-01 1.823046803474426270e-01 -2.281538099050521851e-01
-1.837695837020874023e-01 1.150335222482681274e-01 -5.341830849647521973e-02
-5.626500844955444336e-01 1.753707826137542725e-01 1.469195932149887085e-01
-8.876433968544006348e-02 1.725882291793823242e-01 -2.717401683330535889e-01
-1.806212365627288818e-01 1.203312426805496216e-01 2.298740595579147339e-01
-2.200754284858703613e-01 1.835369169712066650e-01 -3.197723031044006348e-01
-4.416629076004028320e-01 1.699387431144714355e-01 -4.751415550708770752e-01
-1.939174383878707886e-01 1.812482476234436035e-01 2.889855206012725830e-01
-2.255092561244964600e-01 1.116157546639442444e-01 3.269813582301139832e-02
-4.951160550117492676e-01 1.496942490339279175e-01 -5.373443961143493652e-01
-1.051037013530731201e-01 1.806555241346359253e-01 -1.168522685766220093e-01
-2.819669544696807861e-01 1.909906119108200073e-01 -7.183615118265151978e-02
-5.984123945236206055e-01 1.145911663770675659e-01 7.565572857856750488e-02
-3.328965306282043457e-01 1.069035381078720093e-01 1.116478443145751953e-01
-1.049216091632843018e-01 1.371255815029144287e-01 -3.570463657379150391e-01
-6.065413355827331543e-02 1.363748908042907715e-01 8.387979120016098022e-02
-2.964484393596649170e-01 1.848980039358139038e-01 -3.267738819122314453e-01
-6.522892713546752930e-01 1.274131387472152710e-01 -1.517234593629837036e-01
-2.006409019231796265e-01 1.813461482524871826e-01 -3.438388407230377197e-01
-5.980301499366760254e-01 1.194899752736091614e-01 -2.275607585906982422e-01
-1.772125363349914551e-01 1.177595257759094238e-01 1.414626836776733398e-01
-2.811196744441986084e-01 1.114664301276206970e-01 2.142722159624099731e-01
-4.924706816673278809e-01 1.782788187265396118e-01 -2.822516262531280518e-01
-5.917093157768249512e-01 1.720129549503326416e-01 -9.145182371139526367e-02
-3.344454765319824219e-01 1.904277801513671875e-01 8.940109610557556152e-02
-3.768816888332366943e-01 1.900922507047653198e-01 2.193557098507881165e-02
-2.087777704000473022e-01 1.182348281145095825e-01 2.512050569057464600e-01
-4.713994860649108887e-01 1.840876936912536621e-01 1.489040553569793701e-01
-3.909410536289215088e-01 1.071897074580192566e-01 1.818764358758926392e-01
-4.597986638545989990e-01 1.863072961568832397e-01 -9.134789928793907166e-03
-3.509461283683776855e-01 1.346422433853149414e-01 5.539301633834838867e-01
-5.224673151969909668e-01 1.747365146875381470e-01 -2.908473312854766846e-01
-3.927021026611328125e-01 1.748836189508438110e-01 -4.578863084316253662e-01
-4.829046726226806641e-01 1.178161203861236572e-01 3.899551331996917725e-01
-3.547160327434539795e-01 1.187498420476913452e-01 4.209896922111511230e-01
-1.655365079641342163e-01 1.306448131799697876e-01 -4.195857644081115723e-01
-2.929843366146087646e-01 1.074012368917465210e-01 -3.449534252285957336e-02
-2.264529913663864136e-01 1.831656098365783691e-01 2.899985611438751221e-01
-3.296818137168884277e-01 1.885179430246353149e-01 -2.171225696802139282e-01
-6.234271526336669922e-01 1.247342228889465332e-01 2.537153065204620361e-01
-4.487324357032775879e-01 1.845449954271316528e-01 -1.975924223661422729e-01
-1.842431277036666870e-01 1.880989372730255127e-01 8.687867783010005951e-03
-6.104543209075927734e-01 1.579459756612777710e-01 3.238112330436706543e-01
-4.138119220733642578e-01 1.052194386720657349e-01 -8.689678460359573364e-02
-5.230069160461425781e-01 1.723874509334564209e-01 -3.322183787822723389e-01
-4.056456089019775391e-01 1.166633963584899902e-01 4.007583558559417725e-01
-3.151033818721771240e-01 1.754120290279388428e-01 -4.768619835376739502e-01
-1.414022296667098999e-01 1.585095822811126709e-01 4.200013875961303711e-01
-5.880331993103027344e-01 1.649114638566970825e-01 3.036444187164306641e-01
-4.188472032546997070e-02 1.444055736064910889e-01 -1.793715655803680420e-01
-5.038757324218750000e-01 1.141408383846282959e-01 3.119787871837615967e-01
-4.240106344223022461e-01 1.124173551797866821e-01 3.266468942165374756e-01
-4.951809644699096680e-01 1.722894012928009033e-01 -3.836515843868255615e-01
-5.586827993392944336e-01 1.104133874177932739e-01 -4.182865843176841736e-02
-5.208286046981811523e-01 1.722772717475891113e-01 3.448424339294433594e-01
-2.971248328685760498e-01 1.798196732997894287e-01 3.880608379840850830e-01
-3.648668229579925537e-01 1.845844835042953491e-01 -3.125749230384826660e-01
-5.215194821357727051e-02 1.675303429365158081e-01 1.230796724557876587e-01
-1.951018124818801880e-01 1.209161877632141113e-01 -3.325366675853729248e-01
-6.214357614517211914e-01 1.175928413867950439e-01 -4.349799454212188721e-02
-3.406357467174530029e-01 1.832381337881088257e-01 -3.545882701873779297e-01
-2.871167361736297607e-01 1.726918220520019531e-01 -5.031816959381103516e-01
-4.937757849693298340e-01 1.065009534358978271e-01 1.815235614776611328e-02
-7.254514098167419434e-02 1.705951094627380371e-01 1.743027567863464355e-01
-2.001637220382690430e-01 1.173394024372100830e-01 2.064612805843353271e-01
-2.249998152256011963e-01 1.898897588253021240e-01 2.011975646018981934e-02
-1.729062497615814209e-01 1.164758950471878052e-01 -1.025841459631919861e-01
-4.642786681652069092e-01 1.843879520893096924e-01 -1.600237637758255005e-01
-2.931140959262847900e-01 1.589177995920181274e-01 5.548575520515441895e-01
-2.228110879659652710e-01 1.899242997169494629e-01 -1.608005352318286896e-02
-5.808049440383911133e-01 1.128589957952499390e-01 -8.070155233144760132e-02
-2.042306214570999146e-01 1.567297279834747314e-01 5.024128556251525879e-01
-1.133237928152084351e-01 1.764373630285263062e-01 2.147540152072906494e-01
-1.957802623510360718e-01 1.832966059446334839e-01 2.493706494569778442e-01
-1.354759335517883301e-01 1.823689937591552734e-01 -1.942009627819061279e-01
-5.268769860267639160e-01 1.080760210752487183e-01 -7.225123699754476547e-03
-3.115526437759399414e-01 1.097036302089691162e-01 2.042365074157714844e-01
-1.712111532688140869e-01 1.330716609954833984e-01 -4.520198404788970947e-01
-3.635111153125762939e-01 1.060325801372528076e-01 -1.301641762256622314e-01
-5.200672745704650879e-01 1.083507239818572998e-01 -9.727163612842559814e-02
-1.288330405950546265e-01 1.254931837320327759e-01 -2.484049052000045776e-01
-5.911245346069335938e-01 1.280957609415054321e-01 -3.535372912883758545e-01
-4.705722332000732422e-01 1.494398415088653564e-01 5.549793243408203125e-01
-4.939797520637512207e-01 1.782270669937133789e-01 2.825497388839721680e-01
-3.363110423088073730e-01 1.809219866991043091e-01 3.736332654953002930e-01
-8.042445778846740723e-02 1.297852843999862671e-01 -6.600619852542877197e-02
-1.170208454132080078e-01 1.750876754522323608e-01 -3.104453086853027344e-01
-3.851707279682159424e-01 1.890456676483154297e-01 -1.256914734840393066e-01
-3.847634792327880859e-01 1.050423979759216309e-01 -5.351091548800468445e-02
-2.360220849514007568e-01 1.114297211170196533e-01 8.657215535640716553e-02
-3.429421484470367432e-01 1.079920306801795959e-01 -2.106557488441467285e-01
-4.953445792198181152e-01 1.836978048086166382e-01 -2.291361615061759949e-02
-2.991318702697753906e-01 1.214101612567901611e-01 -4.609670341014862061e-01
-4.592399299144744873e-01 1.609806567430496216e-01 5.233840346336364746e-01
-1.242914497852325439e-01 1.739694029092788696e-01 -3.425299823284149170e-01
-3.390872478485107422e-02 1.486517190933227539e-01 8.700183033943176270e-02
-2.807531654834747314e-01 1.904233545064926147e-01 -1.264083385467529297e-01
-7.494631409645080566e-02 1.749791502952575684e-01 -1.591482460498809814e-01
-4.689694643020629883e-01 1.855675876140594482e-01 -4.710194095969200134e-02
-5.761443376541137695e-01 1.175062656402587891e-01 -2.490018010139465332e-01
-2.599288821220397949e-01 1.174635291099548340e-01 3.253636658191680908e-01
-6.820955276489257812e-01 1.380755752325057983e-01 -5.765819549560546875e-02
-3.362624347209930420e-01 1.910225600004196167e-01 -1.246731728315353394e-02
-5.785529613494873047e-01 1.221715584397315979e-01 3.296619951725006104e-01
-4.446362853050231934e-01 1.116808652877807617e-01 -3.177401125431060791e-01
-2.344783544540405273e-01 1.896724700927734375e-01 -1.193013638257980347e-01
-4.195453226566314697e-01 1.093235164880752563e-01 -2.715212702751159668e-01
-3.305328488349914551e-01 1.066482439637184143e-01 -1.211098507046699524e-01
-4.219949841499328613e-01 1.813924014568328857e-01 -3.295871019363403320e-01
-4.574299454689025879e-01 1.725593954324722290e-01 -4.304220974445343018e-01
-1.092086136341094971e-01 1.322543770074844360e-01 2.423126846551895142e-01
-3.803174495697021484e-01 1.682378500699996948e-01 5.113009810447692871e-01
-5.056907534599304199e-01 1.828014850616455078e-01 3.385138884186744690e-02
-4.828816652297973633e-02 1.706484854221343994e-01 -1.564702577888965607e-02
-6.177452206611633301e-01 1.565247625112533569e-01 -2.945660948753356934e-01
-1.131560802459716797e-01 1.522898972034454346e-01 3.769907653331756592e-01
-6.405519247055053711e-01 1.632501035928726196e-01 -4.108709096908569336e-02
-6.661807298660278320e-01 1.558288037776947021e-01 4.352115467190742493e-02
-2.487853467464447021e-01 1.883863806724548340e-01 1.683689653873443604e-01
-5.403034090995788574e-01 1.138503700494766235e-01 2.544892132282257080e-01
-4.547131359577178955e-01 1.071397066116333008e-01 1.628905981779098511e-01
-1.817898601293563843e-01 1.180428713560104370e-01 -2.267065644264221191e-01
-1.051456928253173828e-01 1.516848951578140259e-01 -4.270253181457519531e-01
-1.872715801000595093e-01 1.391900479793548584e-01 4.595453143119812012e-01
-2.424863427877426147e-01 1.701566874980926514e-01 -5.104414224624633789e-01
-3.943133950233459473e-01 1.109928488731384277e-01 2.966780364513397217e-01
-2.509139776229858398e-01 1.096680760383605957e-01 -5.708744283765554428e-03
-5.393826961517333984e-01 1.129995882511138916e-01 -2.310444265604019165e-01
-3.850679099559783936e-01 1.212174966931343079e-01 -4.794411957263946533e-01
-4.441726505756378174e-01 1.051331683993339539e-01 -1.239485200494527817e-02
-3.890450894832611084e-01 1.216930970549583435e-01 4.631058275699615479e-01
-4.596922993659973145e-01 1.771466881036758423e-01 3.575232028961181641e-01
-5.870193243026733398e-01 1.699686199426651001e-01 -1.929426491260528564e-01
-5.216810107231140137e-01 1.102976724505424500e-01 -1.871939897537231445e-01
-5.461786985397338867e-01 1.110892295837402344e-01 -1.512773483991622925e-01
-3.654583096504211426e-01 1.065635681152343750e-01 1.376945972442626953e-01
-1.282795220613479614e-01 1.216769069433212280e-01 -7.677507400512695312e-02
-3.958656787872314453e-01 1.255087703466415405e-01 4.995405077934265137e-01
-3.921531140804290771e-01 1.848444044589996338e-01 -2.819520533084869385e-01
-5.677437782287597656e-01 1.142080575227737427e-01 -1.926365643739700317e-01
-2.621670663356781006e-01 1.832327544689178467e-01 -3.536055088043212891e-01
-4.774117469787597656e-01 1.777656078338623047e-01 3.216890692710876465e-01
-1.296945065259933472e-01 1.226507425308227539e-01 9.374848008155822754e-02
-6.485579609870910645e-01 1.226344108581542969e-01 5.528483912348747253e-02
-4.133677482604980469e-02 1.556784659624099731e-01 -2.343818992376327515e-01
-5.294464826583862305e-01 1.087385341525077820e-01 8.624786138534545898e-02
-1.134422421455383301e-01 1.239339932799339294e-01 1.474877726286649704e-02
-2.253456264734268188e-01 1.874860376119613647e-01 -2.157737165689468384e-01
-1.097576171159744263e-01 1.805216073989868164e-01 -1.544901579618453979e-01
-1.966886371374130249e-01 1.629570722579956055e-01 4.747043251991271973e-01
-5.262808799743652344e-01 1.330175399780273438e-01 -4.830646514892578125e-01
-4.220587015151977539e-01 1.058669537305831909e-01 1.174084246158599854e-01
-6.192863583564758301e-01 1.170763373374938965e-01 3.993555903434753418e-02
-6.022092700004577637e-01 1.636413335800170898e-01 -2.602422833442687988e-01
-1.863261163234710693e-01 1.259400099515914917e-01 -3.980259895324707031e-01
-2.826488018035888672e-01 1.246329843997955322e-01 -4.874947667121887207e-01
-2.813774943351745605e-01 1.896397471427917480e-01 -1.734282672405242920e-01
-3.331082463264465332e-01 1.672528982162475586e-01 -5.486655235290527344e-01
-6.801402568817138672e-01 1.489665210247039795e-01 9.025004692375659943e-03
-4.736397266387939453e-01 1.472488045692443848e-01 -5.591609477996826172e-01
-4.379017055034637451e-01 1.445620656013488770e-01 -5.831243991851806641e-01
-2.745151519775390625e-01 1.086214631795883179e-01 -9.458707273006439209e-02
-4.997016787528991699e-01 1.666550487279891968e-01 4.447273910045623779e-01
-2.508411705493927002e-01 1.904672086238861084e-01 -8.217352628707885742e-02
-2.917690873146057129e-01 1.809003949165344238e-01 -4.022048115730285645e-01
-5.779113173484802246e-01 1.585432291030883789e-01 3.942748606204986572e-01
-5.060186982154846191e-01 1.598488837480545044e-01 -4.870809018611907959e-01
-5.402234196662902832e-01 1.778122335672378540e-01 -1.466938704252243042e-01
-3.227619230747222900e-01 1.902703344821929932e-01 -1.348841190338134766e-01
-2.567263245582580566e-01 1.656919121742248535e-01 5.078189373016357422e-01
-3.048965334892272949e-01 1.171027198433876038e-01 3.677287101745605469e-01
-2.499917000532150269e-01 1.364455968141555786e-01 -5.554553866386413574e-01
-3.827826380729675293e-01 1.821541488170623779e-01 -3.522827625274658203e-01
-2.199259847402572632e-01 1.262511610984802246e-01 -4.491920173168182373e-01
-6.483060121536254883e-01 1.232127323746681213e-01 9.343381226062774658e-02
-2.935205399990081787e-01 1.271865963935852051e-01 4.807804822921752930e-01
-3.430539369583129883e-01 1.114534139633178711e-01 2.861087024211883545e-01
-3.402014970779418945e-01 1.167737990617752075e-01 -4.163234531879425049e-01
-5.198609232902526855e-01 1.806905716657638550e-01 1.164594292640686035e-01
-1.757168024778366089e-01 1.405472010374069214e-01 -5.065025687217712402e-01
-4.093592166900634766e-01 1.113001704216003418e-01 -3.231038749217987061e-01
-1.551396101713180542e-01 1.296571344137191772e-01 -3.891981244087219238e-01
-2.965982258319854736e-01 1.784697026014328003e-01 -4.386268854141235352e-01
-4.076336026191711426e-01 1.873277723789215088e-01 1.613883972167968750e-01
-3.714886903762817383e-01 1.829202175140380859e-01 3.266717493534088135e-01
-2.966708540916442871e-01 1.684229224920272827e-01 -5.399900674819946289e-01
-4.177850782871246338e-01 1.883397102355957031e-01 -7.145468890666961670e-02
-1.790756285190582275e-01 1.339361071586608887e-01 4.143328070640563965e-01
-4.865687787532806396e-01 1.692671775817871094e-01 -4.331522881984710693e-01
-5.552096366882324219e-01 1.100275442004203796e-01 2.761703357100486755e-02
-1.358193904161453247e-01 1.840321421623229980e-01 -1.161618828773498535e-01
-2.126971930265426636e-01 1.865092664957046509e-01 1.875631809234619141e-01
-1.001478433609008789e-01 1.265945881605148315e-01 -1.194460019469261169e-01
-4.150108695030212402e-01 1.856766641139984131e-01 -2.255611419677734375e-01
-6.349334716796875000e-01 1.558135449886322021e-01 -2.421445846557617188e-01
-5.003244876861572266e-01 1.077710688114166260e-01 1.219584345817565918e-01
-3.676081001758575439e-01 1.874163001775741577e-01 -2.289037406444549561e-01
-3.263116776943206787e-01 1.256219446659088135e-01 4.851340055465698242e-01
-5.131466984748840332e-01 1.229272633790969849e-01 -4.258017539978027344e-01
-2.976810038089752197e-01 1.126325801014900208e-01 2.712270617485046387e-01
-5.248539447784423828e-01 1.212010681629180908e-01 3.957686424255371094e-01
-5.629780292510986328e-01 1.304574310779571533e-01 -4.204131066799163818e-01
-5.947491526603698730e-01 1.719212085008621216e-01 8.537324517965316772e-02
-2.060003429651260376e-01 1.315192282199859619e-01 -4.845313429832458496e-01
-1.608712375164031982e-01 1.846571713685989380e-01 1.363949775695800781e-01
-2.263854295015335083e-01 1.899703741073608398e-01 -5.595882982015609741e-02
-5.926902294158935547e-01 1.726426780223846436e-01 -2.495395019650459290e-02
-2.613276243209838867e-01 1.873861402273178101e-01 -2.515705823898315430e-01
-5.219106674194335938e-01 1.103818789124488831e-01 1.903712898492813110e-01
-6.016749143600463867e-01 1.225301772356033325e-01 -2.682832777500152588e-01
-5.720701813697814941e-02 1.629950255155563354e-01 -2.711871266365051270e-01
-6.357949972152709961e-01 1.582863181829452515e-01 -2.081521898508071899e-01
-4.373565316200256348e-02 1.676169931888580322e-01 -1.350283175706863403e-01
-3.219365477561950684e-01 1.482507139444351196e-01 -6.099380850791931152e-01
-6.606303453445434570e-01 1.275195330381393433e-01 -9.682369977235794067e-02
-3.983693718910217285e-01 1.894228160381317139e-01 -4.856199491769075394e-03
-4.380925297737121582e-01 1.069569215178489685e-01 -1.810538023710250854e-01
-1.608214676380157471e-01 1.242810040712356567e-01 -3.201970756053924561e-01
-1.768763065338134766e-01 1.247867047786712646e-01 -3.641441762447357178e-01
-5.975123047828674316e-01 1.650711894035339355e-01 2.726200222969055176e-01
-2.155540883541107178e-01 1.745957434177398682e-01 4.066980779170989990e-01
-5.613159537315368652e-01 1.174525097012519836e-01 -2.817798852920532227e-01
-1.650091260671615601e-01 1.178069934248924255e-01 7.841378450393676758e-02
-2.051895856857299805e-01 1.703744232654571533e-01 4.366772174835205078e-01
-4.408968687057495117e-01 1.674098670482635498e-01 4.911561012268066406e-01
-5.680484771728515625e-01 1.704635173082351685e-01 2.664180994033813477e-01
-5.485072731971740723e-01 1.431631445884704590e-01 4.882617592811584473e-01
-4.313380122184753418e-01 1.517889350652694702e-01 5.710772871971130371e-01
-1.886573135852813721e-01 1.763303130865097046e-01 -4.082109630107879639e-01
-5.207351446151733398e-01 1.185845285654067993e-01 -3.655500710010528564e-01
-5.209991931915283203e-01 1.132487356662750244e-01 -2.711784839630126953e-01
-3.777596354484558105e-01 1.783414334058761597e-01 4.029930531978607178e-01
-1.818829476833343506e-01 1.880429387092590332e-01 -2.719175443053245544e-02
-2.353143692016601562e-02 1.561651229858398438e-01 -6.968926638364791870e-02
-3.646248281002044678e-01 1.902461946010589600e-01 5.296428874135017395e-02
-4.518777430057525635e-01 1.091750785708427429e-01 2.383734732866287231e-01
-4.658672511577606201e-01 1.059057042002677917e-01 6.729532033205032349e-02
-4.225322604179382324e-01 1.797459423542022705e-01 3.514692187309265137e-01
-1.595795601606369019e-01 1.862435042858123779e-01 -9.558000415563583374e-02
-1.299907863140106201e-01 1.680482327938079834e-01 3.530535101890563965e-01
-1.768938004970550537e-01 1.730121225118637085e-01 3.808875977993011475e-01
-4.379484653472900391e-01 1.129859313368797302e-01 -3.478751778602600098e-01
-2.611424326896667480e-01 1.145679578185081482e-01 2.662375271320343018e-01
-2.041670978069305420e-01 1.692696958780288696e-01 -4.927210509777069092e-01
-4.658221006393432617e-01 1.056526303291320801e-01 -3.975792974233627319e-02
-7.454332709312438965e-02 1.319214999675750732e-01 5.443130806088447571e-02
-4.745252728462219238e-01 1.236259341239929199e-01 -4.675630629062652588e-01
-3.474352061748504639e-01 1.055681109428405762e-01 8.256751112639904022e-03
-6.179891228675842285e-01 1.641874611377716064e-01 2.096632122993469238e-01
-1.819641888141632080e-01 1.873628348112106323e-01 7.330612838268280029e-02
-5.445914864540100098e-01 1.225719600915908813e-01 -3.821101188659667969e-01
-5.090751051902770996e-01 1.587164849042892456e-01 4.930318593978881836e-01
-4.825206995010375977e-01 1.822805553674697876e-01 -1.913310736417770386e-01
-3.541144728660583496e-01 1.895820945501327515e-01 -1.472622752189636230e-01
-4.608031511306762695e-01 1.057830750942230225e-01 -7.734478265047073364e-02
-5.528455376625061035e-01 1.180251389741897583e-01 3.147945106029510498e-01
-2.274617105722427368e-01 1.125352233648300171e-01 1.148109436035156250e-01
-4.376466572284698486e-01 1.786495298147201538e-01 -3.636451959609985352e-01
-4.192220866680145264e-01 1.782340109348297119e-01 -3.905784785747528076e-01
