-3.002617359161376953e-01 1.865625232458114624e-01 9.871797263622283936e-02
-2.544294595718383789e-01 2.088641561567783356e-02 4.103814661502838135e-01
-1.507225632667541504e-01 3.061408177018165588e-03 3.888559043407440186e-01
-7.623833417892456055e-02 -8.304098248481750488e-02 1.814757287502288818e-01
-2.017867863178253174e-01 -1.408983170986175537e-01 -1.556129157543182373e-01
-8.144003897905349731e-02 -1.954866647720336914e-01 -1.415535956621170044e-01
-2.509045004844665527e-01 2.003088891506195068e-01 -4.873225092887878418e-02
-1.700548380613327026e-01 -1.757205128669738770e-01 2.695184648036956787e-01
-5.960874259471893311e-02 -1.110186949372291565e-01 -4.503045603632926941e-02
-1.348646879196166992e-01 5.530229955911636353e-02 -2.847160696983337402e-01
-2.212724089622497559e-01 -1.208343878388404846e-01 2.683880925178527832e-01
-1.102276518940925598e-01 -1.947342604398727417e-01 -1.881947964429855347e-01
-2.173030525445938110e-01 1.000675931572914124e-01 3.614552617073059082e-01
-2.247099578380584717e-01 1.225134357810020447e-02 4.499713480472564697e-01
-1.871517300605773926e-01 -1.640102416276931763e-01 -1.163261830806732178e-01
-7.528902590274810791e-02 -5.395328253507614136e-02 8.052381873130798340e-02
-2.792070508003234863e-01 6.466833502054214478e-02 3.547626733779907227e-01
-1.791930943727493286e-01 -2.688624337315559387e-02 -4.335885047912597656e-01
-1.973906755447387695e-01 1.586688756942749023e-01 6.171410903334617615e-02
-8.723752200603485107e-02 -1.075156126171350479e-02 2.618883736431598663e-03
-2.485901564359664917e-01 4.678498953580856323e-02 4.199042022228240967e-01
-2.597572803497314453e-01 1.788002252578735352e-01 -2.374995052814483643e-01
-3.191253840923309326e-01 1.586555987596511841e-01 1.829364150762557983e-02
-8.321803808212280273e-02 -3.566699847579002380e-02 -1.786232143640518188e-01
-2.627152800559997559e-01 1.985148936510086060e-01 7.158291339874267578e-02
-1.280544400215148926e-01 -1.245401520282030106e-02 3.408503234386444092e-01
-1.226471289992332458e-01 6.308034062385559082e-02 -1.074365377426147461e-01
-7.624647766351699829e-02 -1.426810175180435181e-01 2.320719659328460693e-01
-2.170942574739456177e-01 -1.331399530172348022e-01 -8.775079250335693359e-02
-7.721407711505889893e-02 -1.001632437109947205e-01 2.154557108879089355e-01
-2.158181071281433105e-01 -5.996710062026977539e-02 -3.429948985576629639e-01
-1.055057048797607422e-01 -1.086347103118896484e-01 3.496448397636413574e-01
-2.922672033309936523e-01 2.543498389422893524e-02 2.607970535755157471e-01
-1.910741180181503296e-01 8.740165829658508301e-02 3.397229909896850586e-01
-2.602108716964721680e-01 1.436994969844818115e-01 2.981217205524444580e-01
-2.543447017669677734e-01 1.397596746683120728e-01 -3.319606781005859375e-01
-2.792754471302032471e-01 1.150837168097496033e-02 -2.195475101470947266e-01
-1.034982353448867798e-01 -1.202209293842315674e-01 -3.275567293167114258e-01
-3.084653615951538086e-01 4.042683541774749756e-02 9.488905966281890869e-02
-2.024818062782287598e-01 1.456322073936462402e-01 1.846969574689865112e-01
-2.549141049385070801e-01 -4.266310483217239380e-02 -2.243753671646118164e-01
-9.012167900800704956e-02 -2.534809987992048264e-03 -6.353124976158142090e-02
-3.178226947784423828e-01 9.453173726797103882e-02 -4.882198944687843323e-02
-1.515313982963562012e-01 1.093723326921463013e-01 -1.587789878249168396e-02
-3.142064809799194336e-01 7.021021097898483276e-02 -3.634744882583618164e-02
-2.741447091102600098e-01 -3.967668116092681885e-02 2.072271257638931274e-01
-1.737654358148574829e-01 1.218600422143936157e-01 1.478865742683410645e-01
-2.654591202735900879e-01 -2.829663641750812531e-02 -2.022662758827209473e-01
-2.517055571079254150e-01 -3.479293361306190491e-02 -2.623908817768096924e-01
-2.974968552589416504e-01 1.933246850967407227e-01 -8.652605116367340088e-02
-1.961348801851272583e-01 -1.625672131776809692e-01 -5.430265143513679504e-02
-2.368747889995574951e-01 1.024688184261322021e-01 3.732403218746185303e-01
-1.766889393329620361e-01 -1.012808158993721008e-01 -3.538224995136260986e-01
-8.290081471204757690e-02 -5.112474411725997925e-02 -2.204221040010452271e-01
-3.072304725646972656e-01 1.727867275476455688e-01 -1.197474747896194458e-01
-2.676298022270202637e-01 -4.189231246709823608e-02 -1.355459839105606079e-01
-1.639822125434875488e-01 1.630960218608379364e-02 4.028654098510742188e-01
-8.538148552179336548e-02 -1.928340345621109009e-01 2.156002968549728394e-01
-2.929585278034210205e-01 1.197636425495147705e-01 -2.576501369476318359e-01
-6.107401847839355469e-02 -1.317296177148818970e-01 -1.190746873617172241e-01
-3.041270971298217773e-01 2.420468069612979889e-02 5.223158746957778931e-02
-2.239626646041870117e-01 1.843990832567214966e-01 1.186802051961421967e-02
-2.276237457990646362e-01 1.199987083673477173e-01 3.327056765556335449e-01
-2.475653886795043945e-01 6.020711734890937805e-04 -3.429805934429168701e-01
-1.441644579172134399e-01 -1.402038708329200745e-02 -4.152360260486602783e-01
-1.255297958850860596e-01 -1.576244086027145386e-01 -2.909068465232849121e-01
-2.935452163219451904e-01 7.284091785550117493e-03 -7.894994318485260010e-02
-2.937755584716796875e-01 -5.317042581737041473e-03 4.434929043054580688e-02
-1.597176194190979004e-01 1.072198003530502319e-01 -2.257064729928970337e-01
-2.599084973335266113e-01 1.066193506121635437e-01 -3.567327857017517090e-01
-1.962010860443115234e-01 -1.569148004055023193e-01 2.390335053205490112e-01
-5.916810035705566406e-02 -1.759371608495712280e-01 1.492589805275201797e-02
-2.107938677072525024e-01 -1.467357575893402100e-01 -4.037823528051376343e-02
-9.252026677131652832e-02 -2.204450070858001709e-01 -3.081093356013298035e-02
-2.553558945655822754e-01 -6.560674309730529785e-02 -1.359018236398696899e-01
-1.510453820228576660e-01 4.477219283580780029e-02 -3.740064799785614014e-01
-3.127807974815368652e-01 7.613985985517501831e-02 1.656286865472793579e-01
-2.692894339561462402e-01 2.030413597822189331e-01 2.847685851156711578e-02
-3.220822215080261230e-01 1.323399692773818970e-01 2.691927179694175720e-02
-1.491822302341461182e-01 -6.074802577495574951e-02 4.345588088035583496e-01
-2.471475750207901001e-01 1.888652741909027100e-01 -1.795215755701065063e-01
-1.500346660614013672e-01 -2.076750397682189941e-01 1.897858455777168274e-04
-2.858453392982482910e-01 4.074203222990036011e-02 -2.372335791587829590e-01
-1.406655907630920410e-01 -2.057158350944519043e-01 2.020335942506790161e-01
-1.525418758392333984e-01 1.021660342812538147e-01 9.328997135162353516e-02
-2.736164927482604980e-01 1.202494837343692780e-02 -2.532786130905151367e-01
-1.482806503772735596e-01 -1.741868108510971069e-01 -2.198111414909362793e-01
-1.429294049739837646e-01 4.841025918722152710e-02 2.699135839939117432e-01
-2.312261164188385010e-01 1.439910233020782471e-01 -3.270479738712310791e-01
-1.745306998491287231e-01 -1.201133280992507935e-01 4.091331660747528076e-01
-1.780053377151489258e-01 1.433087885379791260e-01 -7.852415740489959717e-02
-1.900968849658966064e-01 1.536500006914138794e-01 -1.353966891765594482e-01
-1.546039134263992310e-01 -2.063952535390853882e-01 8.256880939006805420e-02
-7.239331305027008057e-02 -5.385420471429824829e-02 -7.285347580909729004e-02
-2.842099964618682861e-01 2.036868035793304443e-01 -2.904097363352775574e-02
-2.153767943382263184e-01 1.136612594127655029e-01 -3.747297525405883789e-01
-2.780424952507019043e-01 -1.155843958258628845e-03 -1.958475559949874878e-01
-9.133782237768173218e-02 -1.867582499980926514e-01 2.494273781776428223e-01
-1.662253141403198242e-01 1.284773349761962891e-01 -4.557484760880470276e-03
-3.058639168739318848e-01 5.149339139461517334e-02 1.946317553520202637e-01
-1.270850002765655518e-01 6.773500889539718628e-02 4.645123705267906189e-02
-1.869889199733734131e-01 1.448931694030761719e-01 9.213702380657196045e-02
-9.070974588394165039e-02 -5.880512297153472900e-02 -2.840799391269683838e-01
-6.066051125526428223e-02 -1.529510766267776489e-01 1.029969900846481323e-01
-6.489998102188110352e-02 -1.700310707092285156e-01 1.361808180809020996e-01
-2.112672179937362671e-01 1.705836206674575806e-01 -1.607021987438201904e-01
-7.892093062400817871e-02 -1.661222875118255615e-01 2.330081015825271606e-01
-7.377421855926513672e-02 -6.881748884916305542e-02 -1.733684986829757690e-01
-2.954930663108825684e-01 1.839936673641204834e-01 -1.493340730667114258e-01
-2.802351415157318115e-01 -2.529096975922584534e-02 -8.188548684120178223e-02
-7.439260184764862061e-02 -4.586894065141677856e-02 -3.349145129323005676e-02
-8.455928415060043335e-02 -2.452880330383777618e-02 6.934707611799240112e-02
-2.321349382400512695e-01 -1.087399646639823914e-01 2.501399815082550049e-01
-1.678458899259567261e-01 6.375917792320251465e-02 3.288685977458953857e-01
-2.909351885318756104e-01 1.656668186187744141e-01 2.113724946975708008e-01
-2.207696735858917236e-01 -1.268950253725051880e-01 2.395022213459014893e-01
-1.640251427888870239e-01 4.186253249645233154e-02 -4.070113301277160645e-01
-2.476475536823272705e-01 -9.953387081623077393e-02 9.275372326374053955e-02
-9.666577726602554321e-02 -5.303643643856048584e-02 -3.072874546051025391e-01
-2.307631969451904297e-01 1.672335267066955566e-01 1.858577579259872437e-01
-6.389096379280090332e-02 -1.929715424776077271e-01 -2.532581798732280731e-03
-7.413350790739059448e-02 -1.363044828176498413e-01 -2.213242799043655396e-01
-2.181043177843093872e-01 1.591643095016479492e-01 -2.598721981048583984e-01
-1.272498220205307007e-01 -2.135315537452697754e-01 1.810713261365890503e-01
-6.053757667541503906e-02 -1.137948334217071533e-01 -8.810268342494964600e-02
-2.014939635992050171e-01 1.172992736101150513e-01 2.886660099029541016e-01
-2.947538793087005615e-01 6.553421169519424438e-02 -2.210595607757568359e-01
-2.559863626956939697e-01 2.019811868667602539e-01 -1.948273554444313049e-02
-2.865358591079711914e-01 2.034880220890045166e-02 -1.916404217481613159e-01
-2.888991832733154297e-01 1.962762922048568726e-01 8.008965849876403809e-02
-6.736844033002853394e-02 -1.395286768674850464e-01 1.719757467508316040e-01
-2.821234464645385742e-01 -2.767853625118732452e-02 -3.590134903788566589e-02
-2.721381187438964844e-01 1.255585402250289917e-01 3.241802453994750977e-01
-2.001929134130477905e-01 1.388659626245498657e-01 -2.865161597728729248e-01
-1.563172638416290283e-01 -1.544043272733688354e-01 3.643206954002380371e-01
-2.290876805782318115e-01 1.890134364366531372e-01 -2.287080511450767517e-02
-2.129327952861785889e-01 -1.320847868919372559e-01 -1.291688829660415649e-01
-2.305806428194046021e-01 -3.838057164102792740e-03 -3.842768073081970215e-01
-2.439378947019577026e-01 -8.792964369058609009e-02 -1.230350285768508911e-01
-6.399144232273101807e-02 -8.571624010801315308e-02 -4.529254510998725891e-02
-1.249363273382186890e-01 5.167815089225769043e-02 1.370762884616851807e-01
-2.941870093345642090e-01 1.181603074073791504e-01 2.852510213851928711e-01
-2.126548439264297485e-01 -1.277818530797958374e-01 2.888078391551971436e-01
-5.864474177360534668e-02 -1.168657019734382629e-01 -2.110187709331512451e-02
-1.828027814626693726e-01 -1.182942166924476624e-01 -3.055547177791595459e-01
-1.148318797349929810e-01 -3.341845236718654633e-03 2.629762887954711914e-01
-1.206086203455924988e-01 -7.308681309223175049e-02 3.807983100414276123e-01
-2.647222578525543213e-01 -4.528187215328216553e-02 2.725718617439270020e-01
-2.727937102317810059e-01 1.690051257610321045e-01 -2.547394931316375732e-01
-2.867205142974853516e-01 -2.279217913746833801e-02 8.993297815322875977e-02
-2.483509778976440430e-01 -5.741681903600692749e-02 3.355210423469543457e-01
-1.157856956124305725e-01 1.653221435844898224e-02 2.119366228580474854e-01
-2.464166432619094849e-01 1.328769028186798096e-01 3.199039995670318604e-01
-3.106930553913116455e-01 1.386395990848541260e-01 -1.529883742332458496e-01
-2.894365787506103516e-01 1.463519036769866943e-01 -2.530792057514190674e-01
-2.941479384899139404e-01 -1.257256604731082916e-03 -7.894439622759819031e-03
-2.006268948316574097e-01 -1.640527993440628052e-01 4.845035448670387268e-02
-1.832155287265777588e-01 1.447670757770538330e-01 -1.556053161621093750e-01
-2.045234739780426025e-01 -1.586655974388122559e-01 2.183221094310283661e-02
-2.935203313827514648e-01 3.794422373175621033e-04 -3.706914931535720825e-02
-1.212120130658149719e-01 3.307783603668212891e-02 1.909954547882080078e-01
-9.686768800020217896e-02 -3.446685522794723511e-02 -2.847261428833007812e-01
-2.119129002094268799e-01 -1.017582863569259644e-01 3.718678355216979980e-01
-2.856129109859466553e-01 -2.820737659931182861e-03 2.426910549402236938e-01
-2.421485483646392822e-01 1.948428303003311157e-01 -1.014532297849655151e-01
-3.197279274463653564e-01 1.004272699356079102e-01 9.354595839977264404e-02
-1.446424424648284912e-01 7.374350726604461670e-02 1.896051913499832153e-01
-7.671664655208587646e-02 -1.113551035523414612e-01 -2.414857596158981323e-01
-2.676128149032592773e-01 -5.846203863620758057e-02 -3.387749940156936646e-02
-7.542659342288970947e-02 -1.962288618087768555e-01 -1.128471344709396362e-01
-2.535457909107208252e-01 -8.905964344739913940e-02 1.125677376985549927e-01
-1.199968829751014709e-01 -1.364011168479919434e-01 3.743282258510589600e-01
-1.499164551496505737e-01 1.018564477562904358e-01 6.298811733722686768e-02
-8.793015033006668091e-02 -7.010942697525024414e-02 2.428925484418869019e-01
-7.176130264997482300e-02 -1.310801655054092407e-01 2.025916576385498047e-01
-2.691546380519866943e-01 2.480667643249034882e-02 -2.956436872482299805e-01
-3.015967011451721191e-01 8.691460639238357544e-02 2.658861279487609863e-01
-2.978675663471221924e-01 1.778673008084297180e-02 1.823114752769470215e-01
-2.847125828266143799e-01 5.324897170066833496e-02 -2.610894441604614258e-01
-1.219235211610794067e-01 -2.209405750036239624e-01 1.186761707067489624e-01
-3.058523833751678467e-01 4.309556633234024048e-02 1.694587171077728271e-01
-2.321239411830902100e-01 -8.156523853540420532e-02 -2.283209711313247681e-01
-1.179184317588806152e-01 -1.831398345530033112e-03 -3.343733847141265869e-01
-2.586784362792968750e-01 -7.813805341720581055e-02 1.452565789222717285e-01
-2.199126183986663818e-01 -3.263217210769653320e-02 -3.753588199615478516e-01
-2.725563645362854004e-01 -5.420485883951187134e-02 7.920248806476593018e-02
-3.198195695877075195e-01 1.205086857080459595e-01 1.118269264698028564e-01
-2.317943722009658813e-01 -1.134161651134490967e-01 -8.195176720619201660e-02
-1.585210412740707397e-01 -2.394631877541542053e-02 4.321483373641967773e-01
-6.062904000282287598e-02 -1.580838561058044434e-01 -9.907908737659454346e-02
-2.927387058734893799e-01 1.553711593151092529e-01 -2.297463715076446533e-01
-1.436496824026107788e-01 4.528091102838516235e-02 -3.497456908226013184e-01
-1.797013878822326660e-01 1.440887004137039185e-01 -1.105620115995407104e-01
-1.570008993148803711e-01 -1.419669836759567261e-01 3.875593841075897217e-01
-9.894437342882156372e-02 1.808152347803115845e-02 -5.662618950009346008e-02
-2.141170352697372437e-01 -1.460140198469161987e-01 4.256796557456254959e-03
-1.411190629005432129e-01 7.298109680414199829e-02 -2.587637603282928467e-01
-1.072713136672973633e-01 -2.103693038225173950e-01 2.077275812625885010e-01
-1.922475099563598633e-01 -1.735258251428604126e-01 7.627739012241363525e-02
-1.962838172912597656e-01 1.319167464971542358e-01 2.199047356843948364e-01
-2.750053405761718750e-01 3.062518313527107239e-03 3.262798190116882324e-01
-1.107722222805023193e-01 -6.269240379333496094e-02 -3.616433441638946533e-01
-2.886516153812408447e-01 9.002771973609924316e-02 -2.729122340679168701e-01
-2.974746227264404297e-01 1.975520700216293335e-01 -7.227037101984024048e-03
-1.700600832700729370e-01 -1.752352416515350342e-01 -1.450052559375762939e-01
-3.346181511878967285e-01 5.106702446937561035e-02 1.574377864599227905e-01
-4.606426060199737549e-01 6.510764360427856445e-01 3.720350265502929688e-01
-3.683142066001892090e-01 1.489320397377014160e-01 -2.765702605247497559e-01
-4.939254522323608398e-01 6.369233131408691406e-01 -3.113911151885986328e-01
-5.041553974151611328e-01 6.509291529655456543e-01 3.083414733409881592e-01
-3.150737583637237549e-01 4.821418821811676025e-01 6.660756468772888184e-02
-4.919758439064025879e-01 7.755863666534423828e-01 -2.314187139272689819e-01
-4.014560282230377197e-01 6.776421070098876953e-01 -2.201977521181106567e-01
-3.263755142688751221e-01 3.812836408615112305e-01 3.293313980102539062e-01
-5.019218921661376953e-01 7.881042957305908203e-01 2.396835088729858398e-01
-3.347263932228088379e-01 3.897116184234619141e-01 -3.302214145660400391e-01
-4.844002127647399902e-01 3.980570137500762939e-01 -1.828262656927108765e-01
-2.639848589897155762e-01 2.147162407636642456e-01 3.737812396138906479e-03
-5.258138775825500488e-01 6.908912062644958496e-01 -2.040470391511917114e-01
-5.344200134277343750e-01 8.304081559181213379e-01 7.572459056973457336e-03
-4.333719909191131592e-01 7.591589689254760742e-01 -1.666555404663085938e-01
-4.706534445285797119e-01 4.999741315841674805e-01 3.619337975978851318e-01
-2.988704442977905273e-01 4.570671916007995605e-02 -1.644024103879928589e-01
-4.985806941986083984e-01 4.208904206752777100e-01 9.648235142230987549e-02
-3.811153471469879150e-01 6.129943728446960449e-01 2.829442918300628662e-01
-3.514374494552612305e-01 4.914219379425048828e-01 3.261328637599945068e-01
-3.648855686187744141e-01 6.113573312759399414e-01 1.968795508146286011e-01
-3.060401976108551025e-01 2.458562105894088745e-01 -3.003581464290618896e-01
-4.392637610435485840e-01 7.780641317367553711e-01 -1.366472840309143066e-01
-4.262999296188354492e-01 3.364343941211700439e-01 3.643904924392700195e-01
-4.985666275024414062e-01 5.580196380615234375e-01 -2.837141752243041992e-01
-4.319325685501098633e-01 7.489131689071655273e-01 2.215078473091125488e-01
-4.639587998390197754e-01 5.910682678222656250e-01 -3.649913370609283447e-01
-4.926105141639709473e-01 4.524087011814117432e-01 -2.184272706508636475e-01
-4.647083878517150879e-01 3.753401935100555420e-01 -2.662658691406250000e-01
-2.960569858551025391e-01 8.321788907051086426e-02 2.202851027250289917e-01
-3.718203604221343994e-01 1.806965172290802002e-01 -3.110049366950988770e-01
-3.895297050476074219e-01 2.567979097366333008e-01 -3.569023311138153076e-01
-3.326900005340576172e-01 3.252371847629547119e-01 -3.519381582736968994e-01
-4.039609134197235107e-01 4.918067157268524170e-01 -4.001353085041046143e-01
-3.210068643093109131e-01 3.300634324550628662e-01 -3.204077482223510742e-01
-3.179745376110076904e-01 4.821632802486419678e-01 1.254212260246276855e-01
-2.816495001316070557e-01 3.322306275367736816e-01 6.887046247720718384e-02
-2.713939547538757324e-01 2.444272041320800781e-01 1.204797178506851196e-01
-4.285164773464202881e-01 2.100699990987777710e-01 -1.394559144973754883e-01
-4.523297846317291260e-01 7.616071701049804688e-01 2.542580366134643555e-01
-3.935585021972656250e-01 1.217905282974243164e-01 -9.174427390098571777e-02
-2.691246867179870605e-01 2.136519998311996460e-01 -1.154329553246498108e-01
-5.229687094688415527e-01 6.561059355735778809e-01 -2.142623662948608398e-01
-3.892915546894073486e-01 2.803206741809844971e-01 3.837247788906097412e-01
-3.194800913333892822e-01 4.946728646755218506e-01 -6.550276279449462891e-02
-3.373021483421325684e-01 2.996915578842163086e-02 -3.849715366959571838e-02
-4.059367477893829346e-01 6.548928022384643555e-01 3.063606321811676025e-01
-2.921184897422790527e-01 3.545686602592468262e-01 -1.440378874540328979e-01
-3.322626054286956787e-01 2.208914458751678467e-01 3.583467304706573486e-01
-3.223495483398437500e-01 4.000353515148162842e-01 -2.779963612556457520e-01
-5.432485342025756836e-01 7.632517814636230469e-01 8.759278059005737305e-02
-3.439778089523315430e-01 5.744960904121398926e-01 1.064964905381202698e-01
-4.483982324600219727e-01 8.091114759445190430e-01 8.791131526231765747e-02
-3.952682912349700928e-01 1.778362095355987549e-01 -2.488736808300018311e-01
-3.776956796646118164e-01 4.422972500324249268e-01 4.126738011837005615e-01
-3.464772999286651611e-01 3.141535520553588867e-01 -3.768320083618164062e-01
-5.258873105049133301e-01 5.386747717857360840e-01 3.403893485665321350e-02
-5.266392230987548828e-01 5.455783605575561523e-01 -3.927080333232879639e-02
-2.988605201244354248e-01 4.125967323780059814e-01 9.033377468585968018e-02
-4.216655492782592773e-01 1.803634762763977051e-01 -7.362953573465347290e-02
-5.025246143341064453e-01 4.901245832443237305e-01 -2.054375708103179932e-01
-3.588309288024902344e-01 6.238336563110351562e-01 -2.990061044692993164e-02
-5.418416857719421387e-01 7.722099423408508301e-01 -6.933408975601196289e-02
-3.616918325424194336e-01 6.327071785926818848e-01 4.820467904210090637e-02
-3.847813010215759277e-01 6.924116611480712891e-01 2.873919159173965454e-02
-4.359279274940490723e-01 2.145309597253799438e-01 -6.166359409689903259e-02
-4.135754406452178955e-01 3.192552030086517334e-01 -3.656980395317077637e-01
-5.291037559509277344e-01 7.915221452713012695e-01 -1.372597962617874146e-01
-4.551749229431152344e-01 8.105260133743286133e-01 1.317141652107238770e-01
-5.332245826721191406e-01 6.982529163360595703e-01 -1.629160195589065552e-01
-3.949105441570281982e-01 7.093056440353393555e-01 -6.942070275545120239e-02
-2.675986886024475098e-01 2.317012250423431396e-01 8.261897414922714233e-02
-5.379901528358459473e-01 7.783296108245849609e-01 -9.950623661279678345e-02
-5.024514794349670410e-01 8.062007427215576172e-01 2.137919813394546509e-01
-3.182080686092376709e-01 4.833617508411407471e-01 -9.737207740545272827e-02
-2.677481174468994141e-01 1.760726869106292725e-01 -1.277263015508651733e-01
-4.975303411483764648e-01 4.072449207305908203e-01 -9.639338590204715729e-03
-2.923841178417205811e-01 2.317022085189819336e-01 2.698776125907897949e-01
-3.141250014305114746e-01 3.614577651023864746e-01 -2.762967348098754883e-01
-3.122602403163909912e-01 3.513028323650360107e-01 2.959606647491455078e-01
-3.165882825851440430e-01 2.386582344770431519e-01 3.398832678794860840e-01
-5.107549428939819336e-01 4.933531880378723145e-01 -1.411085575819015503e-01
-3.528636693954467773e-01 5.171695351600646973e-02 7.188704609870910645e-02
-5.027935504913330078e-01 4.413391649723052979e-01 -9.742634743452072144e-02
-4.018633961677551270e-01 1.348918974399566650e-01 -6.449217349290847778e-02
-4.258185625076293945e-01 2.139971256256103516e-01 -1.747538298368453979e-01
-4.147973656654357910e-01 6.182947158813476562e-01 3.660157024860382080e-01
-3.256115615367889404e-01 4.209074378013610840e-01 2.942236959934234619e-01
-3.841939270496368408e-01 6.790792346000671387e-01 -1.001905128359794617e-01
-5.426453948020935059e-01 7.962676286697387695e-01 9.380631148815155029e-03
-3.633727729320526123e-01 5.780916810035705566e-01 2.602644264698028564e-01
-5.119598507881164551e-01 5.408034920692443848e-01 -2.037829458713531494e-01
-4.016739726066589355e-01 7.303723692893981934e-01 4.280038643628358841e-03
-2.918166518211364746e-01 1.131712794303894043e-01 -2.316730767488479614e-01
-2.968411445617675781e-01 2.178255915641784668e-01 -2.745540142059326172e-01
-5.390675067901611328e-01 7.926388978958129883e-01 1.002772226929664612e-01
-3.789912760257720947e-01 1.394698619842529297e-01 2.354793548583984375e-01
-5.181890130043029785e-01 6.916394233703613281e-01 -2.359540462493896484e-01
-5.052950978279113770e-01 6.433125734329223633e-01 -2.816532850265502930e-01
-3.911658823490142822e-01 1.157284677028656006e-01 8.359617739915847778e-02
-4.217842221260070801e-01 2.346550524234771729e-01 2.505192458629608154e-01
-4.493501186370849609e-01 2.490593641996383667e-01 -4.157998785376548767e-02
-2.866647243499755859e-01 2.537128329277038574e-01 -2.192641049623489380e-01
-4.311539232730865479e-01 3.215296268463134766e-01 -3.284925818443298340e-01
-4.267756342887878418e-01 6.801128387451171875e-01 -2.929081320762634277e-01
-5.213617682456970215e-01 5.992115139961242676e-01 2.153909802436828613e-01
-2.997047901153564453e-01 1.298738718032836914e-01 -2.603076398372650146e-01
-5.237165093421936035e-01 5.260589122772216797e-01 -8.132006041705608368e-03
-4.351240396499633789e-01 5.368987321853637695e-01 -3.936892747879028320e-01
-4.143542051315307617e-01 1.868954449892044067e-01 -1.757916659116744995e-01
-4.249992668628692627e-01 2.027033716440200806e-01 1.481263339519500732e-01
-5.337960124015808105e-01 6.353712677955627441e-01 -1.275753974914550781e-01
-4.465078413486480713e-01 6.693546175956726074e-01 -3.297829329967498779e-01
-3.447235822677612305e-01 1.707960069179534912e-01 -3.250048756599426270e-01
-3.889936804771423340e-01 1.423977613449096680e-01 2.016243934631347656e-01
-4.158566892147064209e-01 2.982502579689025879e-01 3.544791340827941895e-01
-4.211249053478240967e-01 2.817863225936889648e-01 -3.152787387371063232e-01
-4.356656074523925781e-01 7.941692471504211426e-01 2.792764082551002502e-02
-4.704285264015197754e-01 8.318495750427246094e-01 1.098925545811653137e-01
-4.147434830665588379e-01 1.611794233322143555e-01 -4.501174762845039368e-02
-3.613438606262207031e-01 7.107847929000854492e-02 1.159645244479179382e-01
-3.768555521965026855e-01 3.720543086528778076e-01 4.193833768367767334e-01
-3.965964615345001221e-01 7.090468406677246094e-01 1.267639845609664917e-01
-3.590034246444702148e-01 2.376956939697265625e-01 3.762230575084686279e-01
-4.368594288825988770e-01 7.101031541824340820e-01 -2.726486921310424805e-01
-5.365519523620605469e-01 7.519270777702331543e-01 1.573041081428527832e-01
-3.247615396976470947e-01 5.170345306396484375e-01 6.810294091701507568e-02
-5.154446959495544434e-01 4.961588382720947266e-01 9.911025315523147583e-02
-3.707612454891204834e-01 4.343935251235961914e-01 -3.859145939350128174e-01
-3.158684074878692627e-01 3.991014957427978516e-01 2.701789736747741699e-01
-4.971156418323516846e-01 6.677329540252685547e-01 -2.991764545440673828e-01
-4.483757019042968750e-01 8.121336102485656738e-01 -2.064522728323936462e-02
-4.369966983795166016e-01 4.453007876873016357e-01 4.059519469738006592e-01
-3.709772229194641113e-01 7.771772146224975586e-02 6.702568382024765015e-02
-4.389216601848602295e-01 2.394026666879653931e-01 -1.474339514970779419e-01
-3.611618578433990479e-01 4.656745493412017822e-01 3.745978772640228271e-01
-4.662979245185852051e-01 8.053089976310729980e-01 1.912473142147064209e-01
-4.668836593627929688e-01 5.767971277236938477e-01 3.852747380733489990e-01
-4.640080928802490234e-01 3.093374371528625488e-01 -1.348988711833953857e-01
-3.641196787357330322e-01 5.886154174804687500e-01 -2.149360477924346924e-01
-3.608646988868713379e-01 6.275643110275268555e-01 8.088728040456771851e-02
-5.462827086448669434e-01 7.301552295684814453e-01 -7.645097561180591583e-03
-4.674592316150665283e-01 8.086423873901367188e-01 -1.501438468694686890e-01
-2.661828398704528809e-01 9.505587816238403320e-02 1.085884198546409607e-01
-4.392645061016082764e-01 2.577144503593444824e-01 -1.973667591810226440e-01
-2.856967151165008545e-01 2.245226800441741943e-01 -2.277175784111022949e-01
-4.543191492557525635e-01 2.627478837966918945e-01 3.866998851299285889e-02
-4.513073861598968506e-01 5.243527889251708984e-01 4.035553038120269775e-01
-4.919913113117218018e-01 5.888473987579345703e-01 3.354646265506744385e-01
-2.615134119987487793e-01 9.133324027061462402e-02 3.562975674867630005e-02
-5.065799951553344727e-01 6.903775930404663086e-01 2.971515953540802002e-01
-4.241340160369873047e-01 2.676258683204650879e-01 -2.880175709724426270e-01
-4.387735128402709961e-01 2.628123462200164795e-01 2.182027250528335571e-01
-3.916867971420288086e-01 3.673426210880279541e-01 -4.052040278911590576e-01
-2.803588807582855225e-01 1.512432694435119629e-01 -2.091914415359497070e-01
-5.165355205535888672e-01 4.944531321525573730e-01 -5.348068848252296448e-02
-2.768337130546569824e-01 2.508673071861267090e-02 7.460754830390214920e-03
-4.867432117462158203e-01 3.915839195251464844e-01 -1.455091089010238647e-01
-3.041332364082336426e-01 6.143239140510559082e-02 -1.972288191318511963e-01
-3.043123483657836914e-01 1.515844464302062988e-01 2.898952364921569824e-01
-3.669881224632263184e-01 7.279655337333679199e-02 -7.781354337930679321e-02
-5.131006240844726562e-01 7.502104043960571289e-01 2.549516260623931885e-01
-5.041676759719848633e-01 4.895230531692504883e-01 2.071625441312789917e-01
-3.630270063877105713e-01 1.267712414264678955e-01 -2.532865703105926514e-01
-3.921059966087341309e-01 6.928695440292358398e-01 1.540456116199493408e-01
-4.945259988307952881e-01 8.204259872436523438e-01 -1.573699712753295898e-01
-5.384678840637207031e-01 6.412997841835021973e-01 -7.506901025772094727e-02
-4.246328473091125488e-01 7.596139311790466309e-01 -1.157993897795677185e-01
-3.935496211051940918e-01 1.284113228321075439e-01 -1.256446093320846558e-01
-5.298907160758972168e-01 7.686398029327392578e-01 -1.564165353775024414e-01
-4.422838091850280762e-01 3.527214527130126953e-01 3.368254005908966064e-01
-4.258328080177307129e-01 2.350681573152542114e-01 -2.260449677705764771e-01
-2.742052972316741943e-01 2.078353911638259888e-01 -1.658413261175155640e-01
-3.701875209808349609e-01 1.162877082824707031e-01 -2.134135365486145020e-01
-3.132213950157165527e-01 4.362857937812805176e-01 1.987196356058120728e-01
-2.854567170143127441e-01 2.504086494445800781e-02 8.598561584949493408e-02
-3.113367855548858643e-01 3.140506148338317871e-01 -2.961173653602600098e-01
-3.835613727569580078e-01 6.578694581985473633e-01 2.025237977504730225e-01
-2.980783283710479736e-01 2.784155011177062988e-01 -2.617835998535156250e-01
-5.231843590736389160e-01 5.730648040771484375e-01 -1.557245105504989624e-01
-5.377990007400512695e-01 6.833862662315368652e-01 1.466970890760421753e-01
-4.215577542781829834e-01 3.767135143280029297e-01 -3.858098685741424561e-01
-2.639850974082946777e-01 1.466600000858306885e-01 -9.732396900653839111e-02
-4.003911614418029785e-01 1.281771957874298096e-01 3.377599641680717468e-04
-2.999939918518066406e-01 8.689343929290771484e-03 -2.590686082839965820e-02
-4.224721789360046387e-01 6.990612745285034180e-01 2.872346639633178711e-01
-4.915888905525207520e-01 8.323069810867309570e-01 -1.261186599731445312e-01
-3.980122506618499756e-01 1.240743696689605713e-01 3.048818185925483704e-02
-4.877077937126159668e-01 4.356905817985534668e-01 2.376677393913269043e-01
-4.157460927963256836e-01 7.330481410026550293e-01 -1.526826471090316772e-01
-3.339498043060302734e-01 8.441728353500366211e-02 2.333078384399414062e-01
-4.932993054389953613e-01 8.553261160850524902e-01 -1.690727472305297852e-02
-3.519204258918762207e-01 5.440582036972045898e-01 -2.313196063041687012e-01
-4.568449556827545166e-01 3.410210311412811279e-01 2.650786936283111572e-01
-4.041884243488311768e-01 2.066048681735992432e-01 2.719525694847106934e-01
-2.758686542510986328e-01 2.162947356700897217e-01 1.877551078796386719e-01
-4.545257687568664551e-01 7.810934782028198242e-01 2.200398296117782593e-01
-5.099216103553771973e-01 4.634791314601898193e-01 6.673590838909149170e-02
-4.705808162689208984e-01 3.525519669055938721e-01 -1.934239268302917480e-01
-4.555540978908538818e-01 8.115307688713073730e-01 -9.324806928634643555e-02
-4.732620716094970703e-01 3.555679321289062500e-01 1.880466192960739136e-01
-5.309280753135681152e-01 6.688202023506164551e-01 -1.719170510768890381e-01
-5.314037799835205078e-01 8.229944109916687012e-01 1.007331907749176025e-01
-3.553893566131591797e-01 6.160412430763244629e-01 1.138218678534030914e-02
-2.653846442699432373e-01 1.996257901191711426e-01 9.583684802055358887e-02
-4.048126041889190674e-01 2.363831847906112671e-01 -3.070608377456665039e-01
-3.527878522872924805e-01 7.564279437065124512e-02 1.734385937452316284e-01
-2.982339262962341309e-01 3.861435949802398682e-01 1.636178940534591675e-01
-4.365529119968414307e-01 7.719089984893798828e-01 1.783857047557830811e-01
-2.757503390312194824e-01 3.006980419158935547e-01 5.118739604949951172e-02
-3.197201490402221680e-01 3.290148973464965820e-01 3.348327875137329102e-01
-4.823872148990631104e-01 3.528676927089691162e-01 4.766209051012992859e-02
-2.633802294731140137e-01 1.010928750038146973e-01 -7.551538199186325073e-02
-2.810510396957397461e-01 2.547631263732910156e-01 1.996202021837234497e-01
-3.941745162010192871e-01 6.626038551330566406e-01 2.501648664474487305e-01
-3.395839929580688477e-01 3.396836519241333008e-01 3.796294927597045898e-01
-3.886176049709320068e-01 6.967407464981079102e-01 9.128653258085250854e-02
-5.280002355575561523e-01 7.106605768203735352e-01 2.170470803976058960e-01
-2.684165239334106445e-01 1.430914998054504395e-01 1.499456465244293213e-01
-3.789711594581604004e-01 3.045160472393035889e-01 4.038333892822265625e-01
-4.761283993721008301e-01 5.016414523124694824e-01 -3.308599591255187988e-01
-3.289062678813934326e-01 2.623531222343444824e-02 7.422581315040588379e-02
-2.805886864662170410e-01 3.317978382110595703e-01 -1.442260108888149261e-03
-4.187978208065032959e-01 1.687908470630645752e-01 1.031391602009534836e-02
-3.330868184566497803e-01 4.800036549568176270e-01 2.584214806556701660e-01
-3.446977734565734863e-01 5.030514597892761230e-01 -2.590834796428680420e-01
-4.641620516777038574e-01 4.138140976428985596e-01 3.230564892292022705e-01
-3.692057132720947266e-01 5.820233821868896484e-01 -2.525807321071624756e-01
-3.924918472766876221e-01 5.458198189735412598e-01 -3.599761724472045898e-01
-5.455242395401000977e-01 7.414839267730712891e-01 5.966025590896606445e-02
-5.097646713256835938e-01 7.199007868766784668e-01 -2.523380219936370850e-01
-5.376046299934387207e-01 6.367704868316650391e-01 1.021183729171752930e-01
-5.360724329948425293e-01 7.088249921798706055e-01 1.685273200273513794e-01
-4.356369674205780029e-01 4.897863268852233887e-01 -3.973959982395172119e-01
-3.051303923130035400e-01 4.075365960597991943e-01 1.859013736248016357e-01
-2.937690019607543945e-01 3.870696723461151123e-01 -7.740856707096099854e-02
-3.394651412963867188e-01 4.101505875587463379e-02 -1.022007241845130920e-01
-2.702122628688812256e-01 2.435066401958465576e-01 -8.879275619983673096e-02
-3.410795629024505615e-01 1.988371908664703369e-01 -3.436549305915832520e-01
-4.100030958652496338e-01 4.873046278953552246e-01 4.245579838752746582e-01
-4.809912145137786865e-01 7.210243940353393555e-01 3.206386864185333252e-01
-2.895494103431701660e-01 3.743215501308441162e-01 -4.016651585698127747e-02
-5.343956947326660156e-01 6.612467169761657715e-01 -1.424149274826049805e-01
-4.442916214466094971e-01 2.348410934209823608e-01 4.383268207311630249e-02
-4.077211618423461914e-01 6.171640157699584961e-01 -3.264990746974945068e-01
-4.621949791908264160e-01 3.215750157833099365e-01 -1.866061389446258545e-01
-3.776657879352569580e-01 9.327596426010131836e-02 9.718336910009384155e-02
-3.559381961822509766e-01 5.199371576309204102e-01 -2.853795588016510010e-01
-2.941342890262603760e-01 3.781406879425048828e-01 1.350233852863311768e-01
-3.366153538227081299e-01 4.723619222640991211e-01 2.869460284709930420e-01
-4.524589776992797852e-01 8.185530900955200195e-01 4.314991831779479980e-02
-4.843076169490814209e-01 6.102345585823059082e-01 3.558437526226043701e-01
-4.570035040378570557e-01 3.245415091514587402e-01 -2.275975197553634644e-01
-2.734149992465972900e-01 2.873230576515197754e-01 -2.128386870026588440e-02
-2.826002240180969238e-01 1.976752281188964844e-02 4.418366402387619019e-02
-4.528564214706420898e-01 2.777130603790283203e-01 1.496092975139617920e-01
-4.841695725917816162e-01 7.537943124771118164e-01 -2.594625353813171387e-01
-4.260902702808380127e-01 7.222253680229187012e-01 -2.248298227787017822e-01
-2.816696166992187500e-01 3.230248391628265381e-01 1.041807383298873901e-01
-4.879434108734130859e-01 3.712545335292816162e-01 -1.800603792071342468e-02
-4.903495311737060547e-01 3.977637887001037598e-01 1.323452293872833252e-01
-2.604079842567443848e-01 1.071738004684448242e-01 -2.361011505126953125e-02
-4.201211631298065186e-01 7.625643014907836914e-01 9.119571745395660400e-02
-4.444341659545898438e-01 3.046554923057556152e-01 2.676241397857666016e-01
-4.099851548671722412e-01 7.469250559806823730e-01 4.748730361461639404e-02
-4.396094977855682373e-01 6.233942508697509766e-01 -3.593477010726928711e-01
-5.169674158096313477e-01 5.552842020988464355e-01 2.019241303205490112e-01
-3.332218527793884277e-01 4.910066425800323486e-01 -2.153685837984085083e-01
-3.457601666450500488e-01 6.100535392761230469e-02 -1.532323509454727173e-01
-3.167030811309814453e-01 2.077746689319610596e-01 -3.228598535060882568e-01
-3.131372332572937012e-01 3.884025514125823975e-01 -2.457560002803802490e-01
-3.878002762794494629e-01 1.633107960224151611e-01 2.521546781063079834e-01
-5.226491689682006836e-01 7.675619125366210938e-01 -1.859440207481384277e-01
-4.664145410060882568e-01 3.799051642417907715e-01 2.748846113681793213e-01
-3.366357684135437012e-01 5.568100810050964355e-01 -3.820442780852317810e-02
-3.103955388069152832e-01 4.535109996795654297e-01 -9.695982933044433594e-02
-2.750724256038665771e-01 2.432609796524047852e-01 -1.456697732210159302e-01
-4.614727199077606201e-01 7.466896772384643555e-01 2.909286022186279297e-01
-3.736317455768585205e-01 6.637384891510009766e-01 5.636069923639297485e-02
-5.008724927902221680e-01 4.515193104743957520e-01 -1.509520709514617920e-01
-4.802172183990478516e-01 6.745990514755249023e-01 3.483696281909942627e-01
-4.644342958927154541e-01 4.096188545227050781e-01 -3.054628968238830566e-01
-5.097656250000000000e-01 5.774274468421936035e-01 -2.461062073707580566e-01
-3.188185691833496094e-01 1.128468215465545654e-01 2.762029469013214111e-01
-3.492785394191741943e-01 4.379381835460662842e-01 3.624626696109771729e-01
-2.872188687324523926e-01 1.385121345520019531e-01 2.411010265350341797e-01
-3.554392457008361816e-01 5.377960205078125000e-01 2.863428890705108643e-01
-4.051347970962524414e-01 2.596947550773620605e-01 -3.322139382362365723e-01
-5.198020339012145996e-01 8.424685001373291016e-01 -6.876448541879653931e-02
-5.385063290596008301e-01 6.204647421836853027e-01 2.926764078438282013e-03
-3.871054053306579590e-01 1.772710382938385010e-01 2.785011827945709229e-01
-4.277322590351104736e-01 4.091448783874511719e-01 -3.904626071453094482e-01
-5.389308929443359375e-01 6.309089064598083496e-01 6.048282235860824585e-02
-5.017350912094116211e-01 8.588331937789916992e-01 2.885708212852478027e-02
-5.385255217552185059e-01 6.634386777877807617e-01 1.243450641632080078e-01
-3.279896974563598633e-01 5.195975899696350098e-01 1.198089718818664551e-01
-3.366821110248565674e-01 5.576022267341613770e-01 6.127979606389999390e-02
-4.467009902000427246e-01 3.389496505260467529e-01 3.065338432788848877e-01
-4.019697010517120361e-01 2.911394834518432617e-01 -3.647009730339050293e-01
-3.544441163539886475e-01 4.910758137702941895e-02 7.171524688601493835e-03
-4.558925628662109375e-01 7.040855884552001953e-01 3.340914845466613770e-01
-3.151497244834899902e-01 4.521798193454742432e-01 -1.564677208662033081e-01
-2.794104218482971191e-01 5.763265490531921387e-02 1.409150660037994385e-01
-3.772124648094177246e-01 4.778424203395843506e-01 -3.765438497066497803e-01
-2.689198553562164307e-01 1.948544830083847046e-01 1.425357758998870850e-01
-2.646290063858032227e-01 6.306737661361694336e-02 1.072559878230094910e-02
-3.449558019638061523e-01 5.017184615135192871e-01 2.881352305412292480e-01
-3.461217582225799561e-01 5.855164527893066406e-01 -4.522356763482093811e-02
-4.705888032913208008e-01 4.667428433895111084e-01 3.438117206096649170e-01
-3.509509563446044922e-01 1.923346221446990967e-01 3.478818237781524658e-01
-4.305451512336730957e-01 2.249063700437545776e-01 1.760390549898147583e-01
-4.682748913764953613e-01 3.153472244739532471e-01 -1.043057143688201904e-01
-3.104376792907714844e-01 4.558876752853393555e-01 1.138154119253158569e-01
-2.839666008949279785e-01 2.905960083007812500e-01 1.876473426818847656e-01
-3.746537566184997559e-01 6.571229100227355957e-01 1.254768818616867065e-01
-4.950069189071655273e-01 4.103471934795379639e-01 -1.017996147274971008e-01
-5.055403113365173340e-01 7.228967547416687012e-01 2.878010869026184082e-01
-5.220376253128051758e-01 6.216247081756591797e-01 -2.062370777130126953e-01
-5.049432516098022461e-01 6.938485503196716309e-01 -2.743700742721557617e-01
-2.616652846336364746e-01 1.374709010124206543e-01 -6.622816622257232666e-02
-4.083571135997772217e-01 3.195285797119140625e-01 3.853678703308105469e-01
-3.720423579216003418e-01 1.015111207962036133e-01 1.690063178539276123e-01
-3.081039190292358398e-01 4.580876529216766357e-01 -5.794844590127468109e-03
-3.990339934825897217e-01 2.257820814847946167e-01 3.155393004417419434e-01
-5.351262092590332031e-01 8.079742193222045898e-01 -7.732404768466949463e-02
-4.306248128414154053e-01 2.626926302909851074e-01 -2.545408606529235840e-01
-5.350990891456604004e-01 6.014247536659240723e-01 6.389583647251129150e-02
-3.877368271350860596e-01 5.013486742973327637e-01 4.033144712448120117e-01
-4.483620524406433105e-01 2.588866353034973145e-01 1.269761621952056885e-01
-4.669179916381835938e-01 8.345422744750976562e-01 6.396778672933578491e-02
-5.151449441909790039e-01 6.405332684516906738e-01 -2.465938925743103027e-01
-4.849045276641845703e-01 3.727413117885589600e-01 1.144858971238136292e-01
-4.619011878967285156e-01 2.841342687606811523e-01 8.329103700816631317e-03
-4.364809095859527588e-01 7.868583202362060547e-01 1.166227757930755615e-01
-4.894481301307678223e-01 5.200567245483398438e-01 -2.975346148014068604e-01
-5.230596065521240234e-01 5.650811791419982910e-01 1.630735099315643311e-01
-4.037750065326690674e-01 6.572153568267822266e-01 -2.655939757823944092e-01
-3.292832672595977783e-01 5.092228651046752930e-01 -1.441287696361541748e-01
-4.620296955108642578e-01 3.314294815063476562e-01 2.177513390779495239e-01
-2.778817713260650635e-01 2.697523832321166992e-01 1.586995720863342285e-01
-3.049624562263488770e-01 4.118724465370178223e-01 -1.517256647348403931e-01
-5.122565031051635742e-01 5.574904084205627441e-01 2.359961271286010742e-01
-2.617082893848419189e-01 1.280121803283691406e-01 7.684391736984252930e-02
-4.898752570152282715e-01 3.782547116279602051e-01 2.486659586429595947e-02
-3.016202747821807861e-01 3.328349590301513672e-01 2.602550983428955078e-01
-4.476185739040374756e-01 7.411286830902099609e-01 -2.467536032199859619e-01
-4.822811782360076904e-01 5.747647285461425781e-01 -3.364051878452301025e-01
-3.796839714050292969e-01 6.616907715797424316e-01 1.601671129465103149e-01
-2.875484228134155273e-01 9.092402458190917969e-02 -2.026868462562561035e-01
-3.909814059734344482e-01 2.410259097814559937e-01 3.494979441165924072e-01
-5.070111751556396484e-01 4.708264768123626709e-01 1.435276865959167480e-01
-4.356397688388824463e-01 2.104270756244659424e-01 -1.353862043470144272e-02
-3.837210536003112793e-01 5.794261693954467773e-01 -3.087293803691864014e-01
-5.414105653762817383e-01 7.052916884422302246e-01 -9.458427876234054565e-02
-3.566783666610717773e-01 6.140981912612915039e-01 -6.253478676080703735e-02
-4.863979816436767578e-01 4.533522427082061768e-01 2.687400579452514648e-01
-2.897340655326843262e-01 2.855246067047119141e-01 -2.147002071142196655e-01
-3.231926262378692627e-01 2.994824051856994629e-01 3.522920906543731689e-01
-5.316271185874938965e-01 5.954431295394897461e-01 -9.676229208707809448e-02
-4.710878133773803711e-01 3.139887452125549316e-01 3.617669269442558289e-02
-4.708036184310913086e-01 5.452872514724731445e-01 -3.561582267284393311e-01
-2.974182963371276855e-01 3.929724991321563721e-01 -1.143046244978904724e-01
-4.338449537754058838e-01 3.589784204959869385e-01 -3.533130586147308350e-01
-3.696416616439819336e-01 4.092024564743041992e-01 4.112333059310913086e-01
-5.293107032775878906e-01 5.576955676078796387e-01 -6.705370731651782990e-03
-4.485184550285339355e-01 4.104940891265869141e-01 3.672121763229370117e-01
-4.949197471141815186e-01 8.446592092514038086e-01 -8.734347671270370483e-02
-5.168743133544921875e-01 4.921374320983886719e-01 3.638960421085357666e-02
-5.117959976196289062e-01 8.326133489608764648e-01 1.512778997421264648e-01
-4.989324510097503662e-01 4.336353540420532227e-01 1.378008723258972168e-01
-3.261398077011108398e-01 2.669732570648193359e-01 -3.461558222770690918e-01
-3.732830584049224854e-01 6.345130801200866699e-01 -1.636836677789688110e-01
-4.816213548183441162e-01 4.072959125041961670e-01 2.311545461416244507e-01
-3.727866113185882568e-01 3.146232366561889648e-01 -3.948522210121154785e-01
-2.663581967353820801e-01 5.825838446617126465e-02 3.996833413839340210e-02
-2.601694464683532715e-01 1.337048411369323730e-01 4.458439722657203674e-02
-2.873475849628448486e-01 1.752465665340423584e-01 -2.409631907939910889e-01
-4.837352633476257324e-01 4.257469475269317627e-01 -2.348933368921279907e-01
-3.531008064746856689e-01 5.842292308807373047e-01 -1.474700272083282471e-01
-2.908495962619781494e-01 3.841747045516967773e-01 1.940127462148666382e-02
-3.933926820755004883e-01 7.111612558364868164e-01 5.555075407028198242e-02
-3.836882114410400391e-01 6.878026127815246582e-01 -3.250573202967643738e-02
-4.609741866588592529e-01 4.301874339580535889e-01 -3.333072960376739502e-01
-4.566563069820404053e-01 4.444280862808227539e-01 3.683969676494598389e-01
-3.833366930484771729e-01 6.477110981941223145e-01 -1.951056122779846191e-01
-3.489749133586883545e-01 5.854895114898681641e-01 -9.733144938945770264e-02
-5.433345437049865723e-01 6.683307886123657227e-01 3.085525333881378174e-02
-3.426389694213867188e-01 4.472368657588958740e-01 -3.130627870559692383e-01
-3.607668280601501465e-01 6.114985942840576172e-01 1.608436554670333862e-01
-4.880302846431732178e-01 4.665601253509521484e-01 -2.612904012203216553e-01
-4.269097745418548584e-01 7.775002717971801758e-01 -2.978258952498435974e-02
-5.288704633712768555e-01 7.533254623413085938e-01 1.994827538728713989e-01
-4.435010254383087158e-01 2.371265143156051636e-01 -7.951847463846206665e-02
-2.797387242317199707e-01 3.079348802566528320e-01 -9.434270858764648438e-02
-3.755096495151519775e-01 6.695904135704040527e-01 -1.277112402021884918e-03
-3.952683806419372559e-01 6.849997043609619141e-01 2.032642662525177002e-01
-3.314056396484375000e-01 6.237447261810302734e-02 1.931308060884475708e-01
-2.769063115119934082e-01 1.102292537689208984e-01 -1.783510595560073853e-01
-4.978603124618530273e-01 4.104940891265869141e-01 4.888940602540969849e-02
-5.194832086563110352e-01 8.066285252571105957e-01 1.825278252363204956e-01
-2.643949389457702637e-01 2.074675112962722778e-01 6.387670338153839111e-02
-3.008375465869903564e-01 4.280428588390350342e-01 -1.282030437141656876e-02
-4.640717208385467529e-01 2.941605448722839355e-01 6.270038336515426636e-02
-3.068341612815856934e-01 4.482364952564239502e-01 -5.401257798075675964e-02
-3.233010470867156982e-01 4.396287798881530762e-01 -2.371065169572830200e-01
-4.129795134067535400e-01 1.901672035455703735e-01 1.971367746591567993e-01
-4.248247742652893066e-01 1.928161680698394775e-01 -1.036487594246864319e-01
-3.284696936607360840e-01 1.364609301090240479e-01 -2.961098253726959229e-01
-3.757774531841278076e-01 1.088922321796417236e-01 -1.715040504932403564e-01
-3.798226118087768555e-01 5.468055605888366699e-01 3.583741188049316406e-01
-2.763122320175170898e-01 1.861307770013809204e-01 -1.880037784576416016e-01
-4.092052578926086426e-01 1.657434105873107910e-01 -1.443665325641632080e-01
-4.017536640167236328e-01 2.684266567230224609e-01 3.559877872467041016e-01
-4.645309150218963623e-01 3.160743117332458496e-01 1.587682068347930908e-01
-4.540469050407409668e-01 2.671676576137542725e-01 8.575802296400070190e-02
-3.536571264266967773e-01 5.780671834945678711e-01 1.994800567626953125e-01
-4.965060949325561523e-01 4.775415360927581787e-01 2.419979274272918701e-01
-3.001678586006164551e-01 1.801386475563049316e-01 -2.817279994487762451e-01
-5.044329166412353516e-01 8.555442094802856445e-01 7.205491513013839722e-02
-3.973964154720306396e-01 6.981731653213500977e-01 -1.442261487245559692e-01
