-4.706612229347229004e-02 -5.519612431526184082e-01 -3.625946938991546631e-01
3.703440427780151367e-01 -3.550169467926025391e-01 -2.030146121978759766e-01
-3.422156572341918945e-01 -1.410633772611618042e-01 -3.998743742704391479e-02
3.922341018915176392e-02 -5.719243288040161133e-01 3.036940395832061768e-01
3.648265302181243896e-01 -1.991227269172668457e-01 -2.903323769569396973e-01
2.823611199855804443e-01 5.023823678493499756e-02 4.228601232171058655e-02
3.104348182678222656e-01 -5.020851492881774902e-01 -6.410771608352661133e-02
2.560579776763916016e-01 -2.074398994445800781e-01 -5.010553002357482910e-01
-2.953994870185852051e-01 -3.471049666404724121e-02 6.984575092792510986e-02
1.600438058376312256e-01 -2.465969175100326538e-01 5.161273479461669922e-01
2.352818548679351807e-01 -2.946923375129699707e-01 4.510119855403900146e-01
2.385052144527435303e-01 -5.439301729202270508e-01 1.706086248159408569e-01
-2.603773176670074463e-01 -1.864416301250457764e-01 -4.142372608184814453e-01
-2.971484959125518799e-01 -1.387332975864410400e-01 2.348645478487014771e-01
-2.632612287998199463e-01 -4.580086767673492432e-01 -2.072618901729583740e-01
-3.159751296043395996e-01 -3.081960082054138184e-01 -2.535631060600280762e-01
2.004929482936859131e-01 -5.653828978538513184e-01 -2.253175377845764160e-01
2.620880603790283203e-01 -3.008293211460113525e-01 4.185791015625000000e-01
-2.677884697914123535e-01 -5.331571400165557861e-02 -3.044370114803314209e-01
3.768400251865386963e-01 -3.589807152748107910e-01 1.016207039356231689e-01
-8.840814232826232910e-02 -6.134288311004638672e-01 6.391030550003051758e-02
7.474301755428314209e-02 -5.569128692150115967e-02 4.778170585632324219e-01
-1.925612688064575195e-01 -6.126539409160614014e-02 -4.515132308006286621e-01
-1.675925254821777344e-01 -4.508614838123321533e-01 3.685899674892425537e-01
4.027613997459411621e-01 -2.565612196922302246e-01 -6.913888454437255859e-02
1.107321828603744507e-01 1.541668921709060669e-01 -5.943123251199722290e-03
2.778187692165374756e-01 -5.371659994125366211e-03 2.300809770822525024e-01
-7.976596802473068237e-02 -5.574795007705688477e-01 2.899849712848663330e-01
-2.381413578987121582e-01 -5.179511308670043945e-01 2.648510411381721497e-02
-2.434956133365631104e-01 -2.190546691417694092e-02 -3.186857998371124268e-01
7.678817212581634521e-02 -9.397296607494354248e-02 -5.862859487533569336e-01
-2.841733023524284363e-02 1.210877448320388794e-01 2.099517583847045898e-01
3.410012125968933105e-01 -2.727364003658294678e-02 -1.410642862319946289e-01
2.830889523029327393e-01 -3.787412047386169434e-01 -4.077370464801788330e-01
-3.259338438510894775e-01 -2.379852533340454102e-01 1.802715659141540527e-01
1.755716502666473389e-01 4.242740571498870850e-02 3.052779436111450195e-01
8.373187482357025146e-02 -5.140351653099060059e-01 3.946431577205657959e-01
3.983799517154693604e-01 -2.597293257713317871e-01 -1.286612600088119507e-01
3.583939671516418457e-01 -4.069932401180267334e-01 1.076264679431915283e-01
8.238120377063751221e-02 -2.327014356851577759e-01 5.475291013717651367e-01
-1.284913420677185059e-01 -4.163447022438049316e-01 4.404012262821197510e-01
3.962021172046661377e-01 -1.751398295164108276e-01 -1.065474003553390503e-01
8.866652846336364746e-03 -4.771262407302856445e-01 4.466752707958221436e-01
-3.080399930477142334e-01 -3.719936609268188477e-01 -2.094743251800537109e-01
1.938712298870086670e-01 -5.547541379928588867e-01 -2.698433995246887207e-01
1.072360668331384659e-02 -6.075918078422546387e-01 -2.383143752813339233e-01
-7.642006874084472656e-02 -7.547765970230102539e-02 -5.586380362510681152e-01
2.195532321929931641e-01 1.027247160673141479e-01 3.373048081994056702e-02
-1.643661409616470337e-02 4.830886423587799072e-02 -4.604552984237670898e-01
2.285511195659637451e-01 3.557176887989044189e-02 -3.420479893684387207e-01
-3.132962286472320557e-01 -2.320655882358551025e-01 2.250795513391494751e-01
2.351732254028320312e-01 -5.663622021675109863e-01 7.735882699489593506e-02
-2.198776230216026306e-03 -5.610768795013427734e-01 -3.611424267292022705e-01
6.589584052562713623e-03 -6.154112219810485840e-01 1.732476204633712769e-01
-2.105194330215454102e-02 -1.462984681129455566e-01 -6.081400513648986816e-01
3.739380836486816406e-01 -3.078447282314300537e-01 -2.381940633058547974e-01
2.230404913425445557e-01 -4.705858230590820312e-02 -4.612381458282470703e-01
5.372343957424163818e-02 1.648695021867752075e-01 -8.200967311859130859e-02
6.448656320571899414e-02 1.063386946916580200e-01 -3.539829850196838379e-01
-2.641817331314086914e-01 -1.384214758872985840e-01 -3.896014988422393799e-01
-1.316474378108978271e-01 -5.956803560256958008e-01 5.519169196486473083e-02
-1.280377507209777832e-01 -6.006553769111633301e-01 -3.281363844871520996e-02
8.708653599023818970e-02 1.075565069913864136e-01 2.398445755243301392e-01
-1.885141134262084961e-01 -1.393772363662719727e-01 4.265396595001220703e-01
1.435711085796356201e-01 -3.598985671997070312e-01 -5.586041212081909180e-01
2.247656285762786865e-01 -1.813535094261169434e-01 -5.312021970748901367e-01
-2.706813514232635498e-01 -2.584393322467803955e-02 1.612613052129745483e-01
-2.767999172210693359e-01 -3.215857744216918945e-01 2.968973815441131592e-01
-2.760241329669952393e-01 -3.717949986457824707e-01 2.608748376369476318e-01
-3.331691622734069824e-01 -1.915108263492584229e-01 1.373961269855499268e-01
2.163591980934143066e-01 -5.219147205352783203e-01 2.712879478931427002e-01
1.426241695880889893e-01 7.812918722629547119e-02 2.683856487274169922e-01
-1.976418495178222656e-01 -4.605402946472167969e-01 -3.608560562133789062e-01
1.898008584976196289e-02 -6.359708905220031738e-01 -6.700532138347625732e-02
1.100076362490653992e-03 -6.285660266876220703e-01 -1.319949179887771606e-01
3.713696897029876709e-01 -9.215533733367919922e-02 -1.430644840002059937e-01
-6.939911842346191406e-02 -5.943230390548706055e-01 -2.335903197526931763e-01
-2.963092923164367676e-01 -2.661366462707519531e-01 -3.351205289363861084e-01
3.653498291969299316e-01 -1.648951768875122070e-01 1.958742141723632812e-01
-6.121783703565597534e-02 4.693098366260528564e-02 -4.457770287990570068e-01
-3.141583800315856934e-01 -3.852440118789672852e-01 9.499146044254302979e-02
3.687154650688171387e-01 -2.741079032421112061e-01 -2.757844328880310059e-01
-1.487590670585632324e-01 -5.596885085105895996e-01 -2.290085554122924805e-01
2.260008454322814941e-01 -1.317067444324493408e-01 4.349576532840728760e-01
3.391513824462890625e-01 -4.514685571193695068e-01 8.438014984130859375e-02
-1.271634697914123535e-01 -4.365846514701843262e-03 3.759533464908599854e-01
-6.075121462345123291e-03 8.774800598621368408e-02 -3.972328305244445801e-01
3.245347142219543457e-01 -4.654282331466674805e-01 -1.670562624931335449e-01
-2.075223922729492188e-01 -1.474229991436004639e-02 2.912054061889648438e-01
-2.557817995548248291e-01 -4.998404979705810547e-01 -1.490451395511627197e-02
-1.651697158813476562e-01 -6.164610385894775391e-03 -4.288789629936218262e-01
1.949758231639862061e-01 -4.999001622200012207e-01 3.379121124744415283e-01
-1.550923287868499756e-01 9.710477292537689209e-02 1.325818300247192383e-01
-3.510809838771820068e-01 -2.525353431701660156e-01 -4.827966541051864624e-02
-7.562281936407089233e-02 1.472810953855514526e-01 -1.509307920932769775e-01
3.484914302825927734e-01 -7.961679995059967041e-02 1.557345688343048096e-01
5.156230181455612183e-02 1.459349840879440308e-01 -2.337601035833358765e-01
1.870120763778686523e-01 -1.941499263048171997e-01 4.921448230743408203e-01
-1.915072202682495117e-01 -4.399084150791168213e-01 -3.982117772102355957e-01
1.852179765701293945e-01 -3.592387437820434570e-01 -5.322124361991882324e-01
-2.770597934722900391e-01 6.547123193740844727e-04 4.379005357623100281e-02
-2.551586031913757324e-01 -8.499887585639953613e-02 -3.700032830238342285e-01
-1.028073951601982117e-02 1.646793335676193237e-01 -8.739332854747772217e-02
2.065012156963348389e-01 -2.706256508827209473e-02 3.706967830657958984e-01
1.344138085842132568e-01 1.368164271116256714e-01 8.580113947391510010e-02
-1.406408548355102539e-01 -2.421181201934814453e-01 4.945633411407470703e-01
-5.308058112859725952e-02 -2.097380459308624268e-01 5.391932129859924316e-01
-1.390089690685272217e-01 -5.342397093772888184e-01 -3.142896592617034912e-01
3.947617411613464355e-01 -2.045473754405975342e-01 7.992313802242279053e-02
-2.436144948005676270e-01 -2.860832214355468750e-02 2.416753619909286499e-01
1.698743999004364014e-01 -4.630041718482971191e-01 -4.566247165203094482e-01
3.258701860904693604e-01 -2.334424853324890137e-01 -3.931353092193603516e-01
2.180786430835723877e-01 -4.183753728866577148e-01 4.064029157161712646e-01
-3.068172335624694824e-01 -2.212850153446197510e-01 -3.124786019325256348e-01
1.724628806114196777e-01 -3.033246695995330811e-01 -5.655909180641174316e-01
1.240145713090896606e-01 -4.728189706802368164e-01 4.280058443546295166e-01
3.636345267295837402e-02 1.589574366807937622e-01 -1.664192229509353638e-01
-3.042585551738739014e-01 -3.510791361331939697e-01 1.976485550403594971e-01
-2.123207598924636841e-02 -3.715614080429077148e-01 -5.767371654510498047e-01
-1.021407768130302429e-01 -4.233857989311218262e-01 -5.046852231025695801e-01
-5.021167546510696411e-02 9.572274982929229736e-02 -3.642688691616058350e-01
1.288045942783355713e-01 -1.858978867530822754e-01 5.247098207473754883e-01
-2.341339290142059326e-01 -3.641821444034576416e-02 -3.595858812332153320e-01
-1.142496541142463684e-01 -5.671855211257934570e-01 -2.646816372871398926e-01
-1.530907452106475830e-01 -4.717405438423156738e-01 -4.061346352100372314e-01
1.241481453180313110e-01 1.463543027639389038e-01 4.188848659396171570e-02
-1.859163641929626465e-01 8.032442629337310791e-02 -2.143962383270263672e-01
3.014026284217834473e-01 -1.559396088123321533e-02 -2.811798453330993652e-01
3.552237749099731445e-01 -4.315403103828430176e-01 3.966672345995903015e-02
-1.656363010406494141e-01 -2.113021463155746460e-01 4.713188409805297852e-01
1.249258033931255341e-02 -5.228596329689025879e-01 3.902673423290252686e-01
3.264146447181701660e-01 -4.779649078845977783e-01 4.830382391810417175e-02
3.531777560710906982e-01 -3.221864998340606689e-01 -2.992781400680541992e-01
8.798114955425262451e-02 -3.498151898384094238e-01 -5.856662392616271973e-01
2.232100069522857666e-01 -5.658194422721862793e-01 1.280460357666015625e-01
2.466484159231185913e-02 -3.128452003002166748e-01 5.470352768898010254e-01
-3.369300067424774170e-01 -3.365058600902557373e-01 2.438859641551971436e-02
-2.221418321132659912e-01 -4.686901569366455078e-01 -3.011705279350280762e-01
-3.006335198879241943e-01 -3.722931444644927979e-02 -1.247318536043167114e-01
2.512092590332031250e-01 8.451323211193084717e-02 -6.604766845703125000e-02
2.432891130447387695e-01 -5.140452384948730469e-01 2.405297607183456421e-01
2.852552831172943115e-01 -4.412231147289276123e-01 -3.342232406139373779e-01
-5.880139023065567017e-02 -4.513378143310546875e-01 -5.019409060478210449e-01
-8.434671163558959961e-02 -6.024980545043945312e-01 -1.789337247610092163e-01
-6.887447088956832886e-03 -9.975799918174743652e-02 5.114231705665588379e-01
2.685304582118988037e-01 -3.306110203266143799e-01 -4.612413942813873291e-01
3.253353536128997803e-01 -4.568490386009216309e-01 1.408622860908508301e-01
2.436040341854095459e-01 1.528285443782806396e-02 2.599596977233886719e-01
-2.885795235633850098e-01 -1.592659801244735718e-01 2.710713744163513184e-01
1.806560158729553223e-01 -6.552773714065551758e-02 4.319255650043487549e-01
2.427141964435577393e-01 -3.650991916656494141e-01 4.161980748176574707e-01
-2.430623471736907959e-01 -4.471830129623413086e-01 2.439689487218856812e-01
1.618565618991851807e-01 -6.026654243469238281e-01 -1.418785005807876587e-01
-1.735109090805053711e-01 -3.177569508552551270e-01 -5.144296884536743164e-01
3.833827674388885498e-01 -3.666310310363769531e-01 -7.278849929571151733e-02
-2.143113613128662109e-01 3.394563496112823486e-02 1.864458769559860229e-01
1.307360082864761353e-01 -1.000233143568038940e-01 -5.701416730880737305e-01
-2.587733864784240723e-01 -1.616102457046508789e-01 3.357071280479431152e-01
-2.088503837585449219e-01 -5.591808259487152100e-02 3.395798206329345703e-01
-3.315446078777313232e-01 -2.698893547058105469e-01 1.493805795907974243e-01
8.281251788139343262e-02 3.853480517864227295e-02 3.734962642192840576e-01
-2.308945059776306152e-01 -1.681559085845947266e-01 3.843899667263031006e-01
-2.180531919002532959e-01 -5.261009931564331055e-01 -1.513196527957916260e-01
1.956974565982818604e-01 5.150432884693145752e-02 2.642777562141418457e-01
-1.434992849826812744e-01 -5.007670521736145020e-01 -3.731983006000518799e-01
1.583605408668518066e-01 -6.213574111461639404e-02 -5.312561988830566406e-01
2.861354351043701172e-01 -1.228259578347206116e-01 3.515354096889495850e-01
1.299801170825958252e-01 -6.028972268104553223e-01 -1.992435902357101440e-01
3.076038360595703125e-01 -2.834261059761047363e-01 3.542117774486541748e-01
1.242043673992156982e-01 3.390105068683624268e-02 3.606237173080444336e-01
-6.408888846635818481e-03 -5.106691718101501465e-01 -4.472306966781616211e-01
-2.998792752623558044e-02 -5.768624544143676758e-01 -3.153271377086639404e-01
-7.159337401390075684e-02 -1.233024895191192627e-02 4.222600162029266357e-01
-1.797084510326385498e-01 -2.705178856849670410e-01 -5.230633020401000977e-01
3.839764595031738281e-01 -1.261408179998397827e-01 4.697440937161445618e-02
-2.330995202064514160e-01 -4.893627166748046875e-01 -2.266842126846313477e-01
-8.544640243053436279e-02 1.393239200115203857e-02 -4.756587147712707520e-01
1.959339380264282227e-01 -2.837001383304595947e-01 4.889779686927795410e-01
1.306601315736770630e-01 -2.376698106527328491e-01 -6.002821326255798340e-01
-2.943821847438812256e-01 -6.020793318748474121e-02 1.436859220266342163e-01
1.412875205278396606e-01 -5.713301897048950195e-01 2.543805241584777832e-01
3.197596967220306396e-01 -3.991085290908813477e-01 -3.139417767524719238e-01
-8.129011839628219604e-03 1.605491787195205688e-01 -1.453308314085006714e-01
2.645673155784606934e-01 -1.508602499961853027e-01 -4.770844280719757080e-01
-1.885605156421661377e-01 -2.126164734363555908e-02 3.287818729877471924e-01
-4.469264298677444458e-02 -5.497373342514038086e-01 3.293952941894531250e-01
2.980393469333648682e-01 -1.934709846973419189e-01 3.660923838615417480e-01
-2.060463726520538330e-01 -2.548672556877136230e-01 4.305263459682464600e-01
-6.592828780412673950e-02 -3.415944874286651611e-01 -5.782918334007263184e-01
1.870349943637847900e-01 -1.949155032634735107e-01 -5.656394958496093750e-01
3.426676094532012939e-01 -4.585211873054504395e-01 -3.429425507783889771e-02
-2.389962375164031982e-01 -3.093880712985992432e-01 -4.344544410705566406e-01
1.532781124114990234e-01 1.139494329690933228e-01 1.571426838636398315e-01
2.828420102596282959e-01 3.357072174549102783e-02 -2.139409333467483521e-01
9.925193339586257935e-02 -1.280457973480224609e-01 5.158264040946960449e-01
3.325159251689910889e-01 -3.152594566345214844e-01 -3.569515943527221680e-01
-3.460872173309326172e-01 -1.739750802516937256e-01 2.191010862588882446e-02
1.684031486511230469e-01 8.702002465724945068e-02 -3.185074627399444580e-01
1.103100553154945374e-02 7.035033404827117920e-02 -4.308457970619201660e-01
-6.235702335834503174e-02 -6.117179989814758301e-01 1.337290704250335693e-01
-6.850071251392364502e-03 6.155700981616973877e-02 3.461120724678039551e-01
-1.931346356868743896e-01 8.556897938251495361e-02 6.456242501735687256e-02
-2.015167474746704102e-01 -1.797987520694732666e-02 -3.936660587787628174e-01
-1.310710012912750244e-01 1.177655011415481567e-01 -2.000706940889358521e-01
-2.075817435979843140e-02 1.376280635595321655e-01 -2.616873681545257568e-01
-2.923652827739715576e-01 -3.379720747470855713e-01 -3.048603236675262451e-01
7.702301442623138428e-02 -5.182583928108215332e-01 -4.331901073455810547e-01
2.755586504936218262e-01 -5.129618048667907715e-01 -2.061854898929595947e-01
-5.227929353713989258e-02 1.479440778493881226e-01 8.339715003967285156e-02
-7.486606389284133911e-02 -1.696303933858871460e-01 -5.967695116996765137e-01
-5.680888891220092773e-02 -4.362700879573822021e-02 4.587859809398651123e-01
3.499545454978942871e-01 -4.247384667396545410e-01 -1.608155667781829834e-01
-1.116617992520332336e-01 -5.764414668083190918e-01 2.032980173826217651e-01
1.590237021446228027e-01 -5.617330670356750488e-01 -2.983320057392120361e-01
-2.237792015075683594e-01 6.754364073276519775e-02 -9.672597050666809082e-02
1.930058896541595459e-01 7.705856859683990479e-02 2.091421037912368774e-01
-1.334421336650848389e-01 -8.283410966396331787e-02 4.448931515216827393e-01
-1.930721402168273926e-01 -1.829133033752441406e-01 4.377362728118896484e-01
1.720592193305492401e-02 -1.871685981750488281e-01 -6.210586428642272949e-01
3.997046053409576416e-01 -2.188259065151214600e-01 -1.160780042409896851e-01
1.667954623699188232e-01 -6.092958450317382812e-01 2.504907175898551941e-02
2.521851360797882080e-01 -5.541672706604003906e-01 -1.119941622018814087e-01
8.941404521465301514e-03 -2.236446738243103027e-02 -5.432608127593994141e-01
-3.403572738170623779e-01 -2.962054610252380371e-01 -1.379207223653793335e-01
3.728171586990356445e-01 -1.109888330101966858e-01 9.656387567520141602e-02
1.705171465873718262e-01 -4.002222418785095215e-01 -5.158616900444030762e-01
-1.755965054035186768e-01 -2.151678949594497681e-01 -5.321732163429260254e-01
1.642754971981048584e-01 -3.625191450119018555e-01 4.875439405441284180e-01
-1.238953098654747009e-01 -5.907889604568481445e-01 -1.541186422109603882e-01
2.548822164535522461e-01 -5.445788502693176270e-01 -1.557512730360031128e-01
2.369570136070251465e-01 7.662309706211090088e-02 -2.119706422090530396e-01
-1.147021278738975525e-01 1.335841268301010132e-01 4.602113738656044006e-02
1.126505807042121887e-01 -6.020292043685913086e-01 1.879151314496994019e-01
2.059104852378368378e-02 8.455459773540496826e-02 3.073185384273529053e-01
1.219446435570716858e-01 -2.426786422729492188e-01 5.351463556289672852e-01
-9.816422313451766968e-02 -4.378959536552429199e-02 -5.245640277862548828e-01
-1.023172214627265930e-01 -1.327482461929321289e-01 -5.725900530815124512e-01
-3.512839972972869873e-01 -2.107926160097122192e-01 -3.947885707020759583e-02
-1.467829942703247070e-01 8.755101263523101807e-02 -2.805708646774291992e-01
3.566858768463134766e-01 -3.411972224712371826e-01 2.123857140541076660e-01
-6.955925375223159790e-03 -4.662963747978210449e-01 -5.024788975715637207e-01
4.547632485628128052e-02 -6.373164057731628418e-01 -2.510770969092845917e-02
1.792808473110198975e-01 1.775334775447845459e-02 -4.341654777526855469e-01
2.348785698413848877e-01 6.442178785800933838e-02 -2.603243291378021240e-01
2.435395717620849609e-01 -5.656211972236633301e-01 -6.246469169855117798e-02
2.906617224216461182e-01 -9.344565868377685547e-02 3.206536173820495605e-01
-2.408081665635108948e-02 -5.926917195320129395e-01 -2.747042179107666016e-01
-7.446876913309097290e-02 -6.135956645011901855e-01 -1.335565149784088135e-01
-3.017826080322265625e-01 -4.268171191215515137e-01 -8.671211451292037964e-02
1.040414720773696899e-01 -5.610902309417724609e-01 3.062789738178253174e-01
3.542418181896209717e-01 -4.236887395381927490e-02 -3.645958378911018372e-03
-2.921999692916870117e-01 -4.249667823314666748e-01 -1.680486202239990234e-01
-2.967549264430999756e-01 -4.398905038833618164e-01 -8.787177503108978271e-04
-3.284556567668914795e-01 -1.052101552486419678e-01 -1.263781338930130005e-01
-1.175184175372123718e-01 1.085998564958572388e-01 1.632805615663528442e-01
1.218218579888343811e-01 -5.310338139533996582e-01 3.516163229942321777e-01
2.948496937751770020e-01 -3.213167190551757812e-03 1.825026869773864746e-01
3.383313417434692383e-01 -4.160814881324768066e-01 1.799969673156738281e-01
2.390574812889099121e-01 -2.395172268152236938e-01 4.515080451965332031e-01
4.303656890988349915e-02 -6.272391676902770996e-01 1.158441454172134399e-01
-2.992786467075347900e-03 -2.858960926532745361e-01 -6.143018007278442383e-01
2.238707244396209717e-01 -4.604003429412841797e-01 3.571040332317352295e-01
-2.506765723228454590e-01 4.037840664386749268e-02 -5.655270069837570190e-03
2.950151860713958740e-01 -4.792399406433105469e-01 -2.401480674743652344e-01
-3.005073070526123047e-01 -2.607748508453369141e-01 2.605434954166412354e-01
3.720491826534271240e-01 -1.768197119235992432e-01 -2.553381323814392090e-01
3.266080319881439209e-01 2.768814563751220703e-03 -4.793485626578330994e-03
-2.137716710567474365e-01 2.499103546142578125e-03 2.527590990066528320e-01
3.905268311500549316e-01 -3.014634847640991211e-01 -1.574978381395339966e-01
-1.532524228096008301e-01 1.961152255535125732e-02 3.168176114559173584e-01
6.009935215115547180e-02 7.267357409000396729e-02 -4.229522049427032471e-01
-3.418816328048706055e-01 -1.570739895105361938e-01 -1.160956770181655884e-01
-1.249376311898231506e-02 -1.858506351709365845e-01 5.446668267250061035e-01
-8.990366011857986450e-02 -5.545283555984497070e-01 -3.255999684333801270e-01
3.265525698661804199e-01 -1.333899945020675659e-01 2.814360857009887695e-01
1.569848060607910156e-01 1.315539926290512085e-01 -1.695585697889328003e-01
-9.051477164030075073e-02 -2.466949224472045898e-01 -5.934022665023803711e-01
3.404736220836639404e-01 -1.680560410022735596e-02 -6.304630637168884277e-02
3.879259228706359863e-01 -3.063718676567077637e-01 1.057896763086318970e-01
1.703472733497619629e-01 -2.881434559822082520e-02 4.060962498188018799e-01
-1.885963678359985352e-01 6.475119292736053467e-02 1.642898917198181152e-01
-1.682973802089691162e-01 -5.648329257965087891e-01 -1.566490232944488525e-01
-7.714110612869262695e-02 -6.210142374038696289e-01 -2.953331917524337769e-03
2.229286134243011475e-01 -1.302874684333801270e-01 -5.169296264648437500e-01
-1.059310957789421082e-01 -5.863989591598510742e-01 -2.125799357891082764e-01
-2.842153012752532959e-01 -1.121944263577461243e-01 -3.264327943325042725e-01
-9.149528294801712036e-02 4.987098276615142822e-02 3.272451758384704590e-01
1.278508361428976059e-02 1.617308706045150757e-01 3.912500664591789246e-02
-8.722495287656784058e-03 1.542696207761764526e-01 8.522836863994598389e-02
-1.556687951087951660e-01 -1.217787340283393860e-01 4.504708349704742432e-01
3.476418554782867432e-01 -5.043011903762817383e-02 9.329952299594879150e-02
5.380340665578842163e-02 -6.152135729789733887e-01 -2.071329355239868164e-01
3.913235366344451904e-01 -1.387629956007003784e-01 -1.774894073605537415e-02
-1.845620870590209961e-01 -5.095680356025695801e-01 -2.947087585926055908e-01
-2.455903291702270508e-01 -4.235000014305114746e-01 -3.232662379741668701e-01
1.075947880744934082e-01 -3.140842318534851074e-01 -5.944439172744750977e-01
3.209055364131927490e-01 6.955206394195556641e-03 -1.217557340860366821e-01
3.872628808021545410e-01 -1.582374572753906250e-01 8.485485613346099854e-02
1.855278909206390381e-01 -5.702102184295654297e-01 1.989312767982482910e-01
-1.423387527465820312e-01 1.211749464273452759e-01 -1.428222954273223877e-01
3.073507547378540039e-01 -4.484734535217285156e-01 2.204194515943527222e-01
1.299983263015747070e-01 5.961789190769195557e-02 3.151062726974487305e-01
-3.456847369670867920e-01 -2.855438888072967529e-01 3.709638491272926331e-02
1.248385757207870483e-01 -5.827368497848510742e-01 -2.757641375064849854e-01
-4.762177169322967529e-02 -2.273824661970138550e-01 -6.120358109474182129e-01
-1.202866211533546448e-01 5.292211472988128662e-02 -3.921944200992584229e-01
2.444691956043243408e-01 -5.152619481086730957e-01 -2.789104282855987549e-01
1.171019002795219421e-01 7.858897745609283447e-02 -3.865385055541992188e-01
-1.422348022460937500e-01 -4.746201634407043457e-02 -4.943763315677642822e-01
1.236536204814910889e-01 -3.724230825901031494e-01 5.047472119331359863e-01
3.756322562694549561e-01 -2.273140698671340942e-01 -2.577170133590698242e-01
-2.399469539523124695e-02 -3.334436714649200439e-01 -5.951716303825378418e-01
-8.731357753276824951e-02 -2.373162657022476196e-01 5.276207327842712402e-01
3.235154971480369568e-02 3.303150832653045654e-02 3.911838829517364502e-01
-2.434518635272979736e-01 -3.943076729774475098e-01 -3.638797402381896973e-01
3.888662755489349365e-01 -3.516580462455749512e-01 -3.231361880898475647e-02
-2.068809047341346741e-02 -4.971790313720703125e-02 -5.606524348258972168e-01
-1.797310113906860352e-01 -4.761407971382141113e-01 3.195782899856567383e-01
-1.752408742904663086e-01 3.528581559658050537e-02 -3.534333109855651855e-01
2.434685826301574707e-01 -4.292928576469421387e-01 -4.175183176994323730e-01
-3.287650346755981445e-01 -3.550148606300354004e-01 -1.175084114074707031e-01
7.583498954772949219e-02 -4.343013167381286621e-01 -5.315569043159484863e-01
3.463869541883468628e-02 1.649206131696701050e-01 -7.663667201995849609e-05
-2.028959691524505615e-01 -4.368154108524322510e-01 3.362375795841217041e-01
-2.750169038772583008e-01 -1.361161470413208008e-02 -2.009864598512649536e-01
-1.175274625420570374e-01 1.254395693540573120e-01 9.136027097702026367e-02
1.250564604997634888e-01 3.757832944393157959e-02 -4.495575428009033203e-01
2.324482202529907227e-01 -5.018827915191650391e-01 -3.287524580955505371e-01
-2.185182869434356689e-01 -5.390341281890869141e-01 -2.110710367560386658e-02
-1.986730396747589111e-01 -3.875201940536499023e-01 3.888176679611206055e-01
6.277713179588317871e-02 -5.890685319900512695e-01 2.580298185348510742e-01
3.198358714580535889e-01 -1.059049367904663086e-02 1.126396358013153076e-01
2.555824816226959229e-01 -7.043534517288208008e-02 -4.404997527599334717e-01
3.848222792148590088e-01 -2.403114140033721924e-01 1.490229666233062744e-01
-1.417606174945831299e-01 -5.874304771423339844e-01 -1.159704327583312988e-01
-1.884532570838928223e-01 9.817196428775787354e-02 -3.506586700677871704e-02
-3.115775883197784424e-01 -3.950576782226562500e-01 -1.373464763164520264e-01
-3.411756157875061035e-01 -1.721644103527069092e-01 7.191498577594757080e-02
-2.200461924076080322e-01 -3.992700576782226562e-01 -4.002563357353210449e-01
-1.489264965057373047e-01 -5.304206609725952148e-01 2.682571113109588623e-01
3.505294322967529297e-01 -2.844994962215423584e-01 2.611838579177856445e-01
-1.400924026966094971e-01 4.741816222667694092e-02 2.853651344776153564e-01
3.305478692054748535e-01 -2.339422702789306641e-02 -1.918383836746215820e-01
2.786917090415954590e-01 -1.161272674798965454e-01 -4.398657381534576416e-01
5.318124592304229736e-02 -6.164577007293701172e-01 1.687807440757751465e-01
-1.250242590904235840e-01 -5.998165011405944824e-01 -7.908274233341217041e-02
3.944204002618789673e-02 -2.075535058975219727e-01 5.512548089027404785e-01
-1.729468405246734619e-01 -5.717597007751464844e-01 -8.607532083988189697e-02
3.282081484794616699e-01 -2.094073295593261719e-01 3.142441511154174805e-01
3.557736054062843323e-03 2.398788928985595703e-03 4.283058643341064453e-01
-1.192673966288566589e-01 1.954533159732818604e-02 -4.436042606830596924e-01
2.427072525024414062e-01 -5.319562554359436035e-01 -2.390022128820419312e-01
-2.866957336664199829e-03 1.091829389333724976e-01 -3.516676127910614014e-01
-1.635831296443939209e-01 -3.583969473838806152e-01 4.469365775585174561e-01
1.671961247920989990e-01 -1.059757173061370850e-01 4.704225659370422363e-01
-3.784676641225814819e-02 8.892171084880828857e-02 2.857711911201477051e-01
5.091635137796401978e-02 1.229962855577468872e-01 2.120949476957321167e-01
-3.042741417884826660e-01 -6.840106844902038574e-02 -1.988820135593414307e-01
-5.039760470390319824e-02 -5.090482234954833984e-01 -4.348729252815246582e-01
-5.146364867687225342e-02 -3.731476068496704102e-01 5.116195082664489746e-01
2.365803122520446777e-01 -5.709275603294372559e-01 1.918360218405723572e-02
1.138455420732498169e-01 -4.613175988197326660e-03 4.157220721244812012e-01
1.220931634306907654e-01 -3.970096707344055176e-01 -5.457976460456848145e-01
-2.309572994709014893e-01 -1.062050908803939819e-01 -4.300546050071716309e-01
2.907418906688690186e-01 -1.587868332862854004e-01 -4.419780075550079346e-01
-1.917828619480133057e-01 -5.553678274154663086e-01 7.306030392646789551e-02
8.785426616668701172e-02 -2.282461524009704590e-02 -5.342549681663513184e-01
-3.344928324222564697e-01 -2.408099919557571411e-01 -2.087502479553222656e-01
2.924093306064605713e-01 -6.150686740875244141e-02 2.838382720947265625e-01
-2.553036212921142578e-01 3.580932319164276123e-02 -7.428933680057525635e-02
-2.668997645378112793e-01 -3.303324878215789795e-01 -3.720392286777496338e-01
-2.759079635143280029e-01 -4.154830574989318848e-01 2.047548890113830566e-01
-1.218538954854011536e-01 -1.957632005214691162e-01 5.030640959739685059e-01
-2.858557403087615967e-01 -5.440063774585723877e-02 -2.498813271522521973e-01
-3.479991257190704346e-01 -2.282299697399139404e-01 -1.167287975549697876e-01
1.807156801223754883e-01 1.286405473947525024e-01 -9.039430320262908936e-02
3.294558525085449219e-01 -1.281049847602844238e-02 6.907385587692260742e-02
1.692039072513580322e-01 -1.265661418437957764e-02 -4.797217845916748047e-01
-2.584883868694305420e-01 -9.451594948768615723e-02 2.906761765480041504e-01
3.152308464050292969e-01 -3.248407840728759766e-01 3.264198303222656250e-01
-3.250984549522399902e-01 -8.336944878101348877e-02 -6.156013160943984985e-02
2.280196845531463623e-01 5.977839231491088867e-03 -3.926800489425659180e-01
3.757486045360565186e-01 -2.542813420295715332e-01 1.871141344308853149e-01
-2.266820967197418213e-01 5.102653801441192627e-02 9.238946437835693359e-02
-2.613910436630249023e-01 -2.788188159465789795e-01 3.442247509956359863e-01
-9.301414340734481812e-02 1.271342188119888306e-01 -2.323808372020721436e-01
1.753766536712646484e-01 -5.001128911972045898e-01 -4.023402929306030273e-01
2.337913811206817627e-01 -1.966389119625091553e-01 4.512725174427032471e-01
1.073833089321851730e-02 -5.512889623641967773e-01 3.439375162124633789e-01
-2.898439466953277588e-01 -1.796685159206390381e-01 -3.502686321735382080e-01
-6.134612113237380981e-02 1.544270664453506470e-01 1.244478672742843628e-02
1.496636308729648590e-02 1.415997594594955444e-01 1.527521014213562012e-01
2.818316519260406494e-01 -4.028065502643585205e-01 3.332725465297698975e-01
-3.279286921024322510e-01 -3.680034279823303223e-01 -7.428859919309616089e-02
6.153057143092155457e-02 -6.311301589012145996e-01 7.818219065666198730e-02
-8.734291791915893555e-02 -5.132641196250915527e-01 3.641759753227233887e-01
-2.876204550266265869e-01 -4.450792074203491211e-01 -1.241794079542160034e-01
3.543189167976379395e-01 -3.802673518657684326e-01 -2.340288013219833374e-01
2.630434632301330566e-01 2.380983531475067139e-02 2.036128640174865723e-01
1.453472115099430084e-02 -3.922066390514373779e-01 -5.688666701316833496e-01
3.822514414787292480e-01 -1.658433526754379272e-01 -2.015658020973205566e-01
1.224673837423324585e-01 1.516489833593368530e-01 -8.446938544511795044e-02
-1.989461779594421387e-01 -5.331321358680725098e-01 -1.940062046051025391e-01
-2.366582155227661133e-01 3.037063777446746826e-02 -2.233151942491531372e-01
3.124552071094512939e-01 -4.353781342506408691e-01 -2.799040377140045166e-01
-2.970393896102905273e-01 -3.216714262962341309e-01 2.455946356058120728e-01
1.567084491252899170e-01 9.701360762119293213e-02 2.066175192594528198e-01
3.765728473663330078e-01 -9.142231941223144531e-02 -7.240808755159378052e-02
-2.588387727737426758e-01 -2.123671770095825195e-02 -2.771705985069274902e-01
2.099276483058929443e-01 -5.890212059020996094e-01 -1.642026193439960480e-02
2.134806104004383087e-02 2.118177711963653564e-02 -4.998596608638763428e-01
-8.631835132837295532e-02 1.461018621921539307e-02 3.824997246265411377e-01
5.708881840109825134e-02 -5.923347473144531250e-01 -2.859719693660736084e-01
1.862872540950775146e-01 -5.931831598281860352e-01 9.619814157485961914e-02
2.012148797512054443e-01 9.871621429920196533e-02 -2.228720784187316895e-01
-2.742465436458587646e-01 8.854970335960388184e-03 -1.054391413927078247e-01
1.062319129705429077e-01 -6.290177702903747559e-01 -4.375282675027847290e-02
8.542412519454956055e-02 2.292399108409881592e-02 -4.874197840690612793e-01
-1.920608282089233398e-01 -5.014648437500000000e-01 2.551068663597106934e-01
-3.007213473320007324e-01 -2.969284355640411377e-02 -5.559175461530685425e-02
3.076932728290557861e-01 -2.654941678047180176e-01 -4.239778518676757812e-01
-3.268691301345825195e-01 -1.354181021451950073e-01 1.184421777725219727e-01
3.959245383739471436e-01 -3.062746226787567139e-01 -1.011001169681549072e-01
-1.669047176837921143e-01 -1.614265441894531250e-01 -5.327141880989074707e-01
1.416396498680114746e-01 -5.247108936309814453e-01 -3.907121717929840088e-01
3.217278122901916504e-01 -4.892696142196655273e-01 -1.521815173327922821e-02
3.504108786582946777e-01 -2.285199463367462158e-01 2.657481431961059570e-01
9.946032613515853882e-02 1.438726335763931274e-01 -2.065918594598770142e-01
-1.083833724260330200e-02 1.485673636198043823e-01 -2.200930714607238770e-01
3.733947277069091797e-01 -3.449966609477996826e-01 1.423439979553222656e-01
-3.423831164836883545e-01 -2.409204393625259399e-01 -1.628879904747009277e-01
-2.923636436462402344e-01 -3.723970651626586914e-01 -2.679370641708374023e-01
1.005663499236106873e-01 1.155001670122146606e-01 -3.115840554237365723e-01
-1.512810289859771729e-01 -3.108081817626953125e-01 4.769495129585266113e-01
-3.436360955238342285e-01 -3.136231303215026855e-01 -2.017505466938018799e-02
2.277352474629878998e-02 -3.926143348217010498e-01 5.149430632591247559e-01
3.415916264057159424e-01 -3.396582603454589844e-01 2.580967843532562256e-01
-2.975097000598907471e-01 -9.244123101234436035e-02 -2.662588357925415039e-01
1.922415196895599365e-01 1.234801560640335083e-01 -3.393666818737983704e-02
-1.523232161998748779e-01 -4.963116347789764404e-02 4.013272225856781006e-01
4.388680309057235718e-02 -2.279294282197952271e-01 -6.228297352790832520e-01
3.422237038612365723e-01 -1.797827631235122681e-01 -3.477774560451507568e-01
-2.257650494575500488e-01 1.203405857086181641e-02 -2.998727560043334961e-01
-2.783762812614440918e-01 -2.236298173666000366e-01 -3.828089237213134766e-01
-1.384069770574569702e-02 -5.817428827285766602e-01 2.737298011779785156e-01
2.963033914566040039e-01 -4.917823076248168945e-01 1.558740586042404175e-01
-1.806725859642028809e-01 -2.901483178138732910e-01 4.543420374393463135e-01
-3.223094940185546875e-01 -2.398923188447952271e-01 -2.609852254390716553e-01
3.464606106281280518e-01 -7.831975817680358887e-02 -2.464243620634078979e-01
-6.440789997577667236e-02 1.020678430795669556e-01 2.403275221586227417e-01
-9.309529513120651245e-02 9.162874221801757812e-01 -3.883601725101470947e-01
-4.390712082386016846e-02 1.061600089073181152e+00 -1.622847318649291992e-01
8.525206148624420166e-02 1.034297227859497070e+00 -1.141097694635391235e-01
-1.050277277827262878e-01 9.592149257659912109e-01 -2.027784436941146851e-01
9.808611124753952026e-02 8.286244273185729980e-01 -3.800417184829711914e-01
7.201863080263137817e-02 7.874743342399597168e-01 -4.769414961338043213e-01
-6.101457029581069946e-02 7.114714384078979492e-01 -4.820980727672576904e-01
8.899172395467758179e-02 9.996162652969360352e-01 3.251350224018096924e-01
-1.010668091475963593e-02 8.940559029579162598e-01 -5.917491316795349121e-01
3.297293325886130333e-03 1.050160646438598633e+00 3.952786624431610107e-01
3.116727992892265320e-02 9.858433604240417480e-01 5.298401713371276855e-01
-1.140685826539993286e-01 9.584797620773315430e-01 6.447885185480117798e-02
-1.006311848759651184e-01 7.058526873588562012e-01 2.546249032020568848e-01
-1.235951632261276245e-01 7.886881828308105469e-01 2.122268229722976685e-01
-1.339449733495712280e-01 8.398137092590332031e-01 -3.196570277214050293e-02
-6.412524729967117310e-02 1.000981569290161133e+00 3.856747746467590332e-01
-9.943283349275588989e-02 7.234036922454833984e-01 -3.495655357837677002e-01
-8.557122945785522461e-02 6.388244032859802246e-01 2.892845869064331055e-02
-8.087443560361862183e-02 1.013846397399902344e+00 2.378966659307479858e-01
-1.264965087175369263e-01 9.018933773040771484e-01 9.106581658124923706e-02
1.192418783903121948e-01 9.067231416702270508e-01 2.537502348423004150e-01
8.488427847623825073e-02 1.044875621795654297e+00 1.089560538530349731e-01
7.347649335861206055e-02 6.522876620292663574e-01 -7.915610820055007935e-02
6.878314539790153503e-03 9.396901130676269531e-01 -5.501463413238525391e-01
6.758533418178558350e-02 1.067951679229736328e+00 5.961176007986068726e-02
-3.644322976469993591e-02 1.076538562774658203e+00 1.517931669950485229e-01
-1.008644774556159973e-01 9.944673776626586914e-01 6.571234017610549927e-02
9.655797481536865234e-02 8.581676483154296875e-01 -3.913818895816802979e-01
1.147212609648704529e-01 9.686766862869262695e-01 -8.301148563623428345e-02
-1.031800359487533569e-01 7.528633475303649902e-01 3.353125154972076416e-01
-1.134645640850067139e-01 9.162480831146240234e-01 2.567414939403533936e-01
1.223289668560028076e-01 7.864829301834106445e-01 -7.376353442668914795e-02
1.155043467879295349e-01 7.481080889701843262e-01 -7.300310768187046051e-03
1.075924709439277649e-01 7.513009309768676758e-01 -2.071498036384582520e-01
-1.312079578638076782e-01 8.593993782997131348e-01 -1.065133959054946899e-01
1.249888241291046143e-01 7.958726882934570312e-01 -1.575197651982307434e-02
8.053179830312728882e-02 9.708026647567749023e-01 -3.573059439659118652e-01
-8.927357196807861328e-02 8.621191978454589844e-01 4.603769481182098389e-01
-1.065030768513679504e-01 9.098490476608276367e-01 -3.169032931327819824e-01
6.091086193919181824e-02 1.070278286933898926e+00 1.532038450241088867e-01
1.156071871519088745e-01 8.279095292091369629e-01 -2.500277459621429443e-01
-7.519915699958801270e-02 6.711764335632324219e-01 2.996228933334350586e-01
-1.043965891003608704e-01 9.445105195045471191e-01 -2.571351230144500732e-01
1.083796750754117966e-02 7.164554595947265625e-01 -5.367134809494018555e-01
-9.629192948341369629e-02 7.453715801239013672e-01 -3.999039232730865479e-01
-4.790659993886947632e-02 8.464723229408264160e-01 -5.786420106887817383e-01
1.173169091343879700e-01 7.569437623023986816e-01 -3.917862474918365479e-02
9.203650057315826416e-02 8.888462781906127930e-01 -4.035533070564270020e-01
-1.032836828380823135e-02 5.972884893417358398e-01 -1.429612636566162109e-01
7.633158564567565918e-02 9.046596288681030273e-01 -4.587007761001586914e-01
1.821143086999654770e-04 9.762501716613769531e-01 -4.996913075447082520e-01
-1.248658820986747742e-01 7.410522699356079102e-01 -1.190198808908462524e-01
4.461408779025077820e-02 8.720507025718688965e-01 -5.605177879333496094e-01
-6.561306118965148926e-02 1.052521944046020508e+00 9.811873733997344971e-02
-5.143091082572937012e-02 9.885543584823608398e-01 4.596256315708160400e-01
-9.272541105747222900e-02 9.704484939575195312e-01 3.053255975246429443e-01
1.128073707222938538e-01 9.561278223991394043e-01 2.388365715742111206e-01
-5.062678456306457520e-02 1.062904953956604004e+00 -1.040598303079605103e-01
-8.610495179891586304e-02 1.023445606231689453e+00 8.002225309610366821e-02
-7.959967851638793945e-02 1.028703212738037109e+00 -9.998294711112976074e-02
-6.128960102796554565e-02 9.414140582084655762e-01 5.040498971939086914e-01
-7.283201068639755249e-02 7.029596567153930664e-01 3.911061584949493408e-01
-1.267358511686325073e-01 8.600661754608154297e-01 -1.922729164361953735e-01
-7.044085860252380371e-02 1.037563085556030273e+00 -1.357864141464233398e-01
2.442888170480728149e-02 1.052815794944763184e+00 -2.937849462032318115e-01
1.227166354656219482e-01 7.960860133171081543e-01 1.342415958642959595e-01
7.096862792968750000e-02 9.882172346115112305e-01 4.379289746284484863e-01
-7.359299808740615845e-02 9.757572412490844727e-01 4.037865102291107178e-01
1.092780828475952148e-01 8.205779790878295898e-01 3.365423083305358887e-01
6.866030395030975342e-02 6.437190771102905273e-01 -3.849138505756855011e-03
4.662073403596878052e-02 9.018810391426086426e-01 -5.409083962440490723e-01
-1.072768121957778931e-01 8.831560015678405762e-01 -3.488611876964569092e-01
-1.242875233292579651e-01 9.205444455146789551e-01 -1.983810402452945709e-02
-7.267726957798004150e-02 6.283537149429321289e-01 -1.637278050184249878e-01
9.837152063846588135e-02 7.872446179389953613e-01 3.725785315036773682e-01
8.810845017433166504e-02 7.232446670532226562e-01 3.070974349975585938e-01
8.358620852231979370e-02 7.251859307289123535e-01 -3.400225937366485596e-01
-1.132259964942932129e-01 9.292928576469421387e-01 -2.135639488697052002e-01
-5.439934879541397095e-02 1.065944433212280273e+00 5.570475477725267410e-03
6.588228791952133179e-02 9.007635712623596191e-01 5.446023344993591309e-01
2.087989635765552521e-02 7.024469375610351562e-01 4.829516708850860596e-01
-6.611126661300659180e-02 6.951061487197875977e-01 -4.410079419612884521e-01
-9.579098969697952271e-02 6.577125787734985352e-01 -1.299290508031845093e-01
1.153047084808349609e-01 9.658437967300415039e-01 1.669633686542510986e-01
-1.619527488946914673e-02 6.531286835670471191e-01 3.792254030704498291e-01
1.071112528443336487e-01 7.234067320823669434e-01 -7.396281510591506958e-02
8.031390607357025146e-02 7.907145023345947266e-01 4.663908779621124268e-01
-1.298618912696838379e-01 7.691832184791564941e-01 -9.977115690708160400e-02
5.875424295663833618e-02 8.127017617225646973e-01 -5.309404134750366211e-01
-6.123400479555130005e-02 1.043995618820190430e+00 2.319266051054000854e-01
7.567341625690460205e-02 7.556527853012084961e-01 4.394229352474212646e-01
3.561284020543098450e-02 1.090190052986145020e+00 6.009113788604736328e-02
-1.145520359277725220e-01 7.208821177482604980e-01 1.695128530263900757e-01
-8.780517429113388062e-02 8.023548722267150879e-01 4.585948884487152100e-01
-6.512370705604553223e-02 8.966565728187561035e-01 -5.148441791534423828e-01
4.201569035649299622e-02 7.583138942718505859e-01 5.382068753242492676e-01
-4.539200291037559509e-02 1.072571277618408203e+00 -3.286906331777572632e-02
3.058217465877532959e-02 1.057467699050903320e+00 3.534884452819824219e-01
7.546592503786087036e-02 8.600311875343322754e-01 -4.828808605670928955e-01
-1.281709522008895874e-01 8.348101973533630371e-01 1.768445074558258057e-01
4.184415191411972046e-02 8.639854192733764648e-01 6.006341576576232910e-01
1.249471455812454224e-01 8.114625811576843262e-01 -9.485606104135513306e-02
-1.302621513605117798e-01 8.781378269195556641e-01 7.240250706672668457e-02
4.127918928861618042e-02 1.081290841102600098e+00 1.838505417108535767e-01
-1.384594570845365524e-02 6.501995921134948730e-01 -4.161708354949951172e-01
-1.172480285167694092e-01 7.113357782363891602e-01 8.154176175594329834e-02
8.569429814815521240e-02 8.167378902435302734e-01 -4.383985698223114014e-01
-5.222933739423751831e-02 9.263728260993957520e-01 -5.148252844810485840e-01
5.207287147641181946e-02 6.249825358390808105e-01 2.739988826215267181e-02
1.277260035276412964e-01 9.121119379997253418e-01 3.953966498374938965e-02
1.272964030504226685e-01 8.147135972976684570e-01 5.542063713073730469e-02
-1.087493076920509338e-01 9.754658937454223633e-01 4.126311838626861572e-02
-1.232061013579368591e-01 9.237987995147705078e-01 5.808072537183761597e-02
-1.315174698829650879e-01 8.541601896286010742e-01 9.717329591512680054e-02
-8.169512450695037842e-02 7.328038215637207031e-01 -4.482940435409545898e-01
4.766144230961799622e-02 8.350313305854797363e-01 5.859473347663879395e-01
1.062196120619773865e-01 7.308037281036376953e-01 -1.463878899812698364e-01
-8.156415075063705444e-02 8.228546380996704102e-01 -4.999557733535766602e-01
9.617523290216922760e-03 1.081750631332397461e+00 2.483697980642318726e-01
-1.273740082979202271e-01 7.477074861526489258e-01 -7.315878570079803467e-02
-1.258904933929443359e-01 7.451151013374328613e-01 6.840118020772933960e-02
9.729507565498352051e-02 7.005879282951354980e-01 1.084700077772140503e-01
-3.571952134370803833e-02 1.071641445159912109e+00 -1.298554539680480957e-01
-1.320423334836959839e-01 8.624765276908874512e-01 -6.868680566549301147e-02
9.079192578792572021e-02 1.020508408546447754e+00 2.310635298490524292e-01
-3.450870141386985779e-02 9.969404935836791992e-01 -4.303759038448333740e-01
-2.853042446076869965e-02 1.048386096954345703e+00 3.576506376266479492e-01
-3.977707028388977051e-02 5.984674692153930664e-01 -3.950292617082595825e-02
-7.186256349086761475e-02 9.080551266670227051e-01 -4.842909872531890869e-01
-1.097810491919517517e-01 9.689304232597351074e-01 9.839543700218200684e-02
-1.285065859556198120e-01 7.748195528984069824e-01 -1.505066752433776855e-01
-1.422375161200761795e-02 1.023192763328552246e+00 4.593009054660797119e-01
1.280874013900756836e-01 8.954581022262573242e-01 -4.647441208362579346e-02
-9.415733814239501953e-02 9.998143315315246582e-01 1.672057211399078369e-01
3.741319850087165833e-02 1.087891817092895508e+00 -1.842822507023811340e-02
5.576674640178680420e-02 7.767971754074096680e-01 -5.200414061546325684e-01
-9.066510945558547974e-02 1.012870430946350098e+00 -6.855840235948562622e-02
8.122151345014572144e-02 1.040133833885192871e+00 2.113203853368759155e-01
2.959954366087913513e-02 6.280878782272338867e-01 2.297018319368362427e-01
1.260312497615814209e-01 9.118006825447082520e-01 1.318603307008743286e-01
1.037061884999275208e-01 9.960299134254455566e-01 2.052915841341018677e-01
-9.337519854307174683e-02 6.844665408134460449e-01 -2.934359610080718994e-01
-1.055994629859924316e-01 9.238396286964416504e-01 3.127557337284088135e-01
-1.304738968610763550e-01 8.209872245788574219e-01 1.373720914125442505e-01
-1.255122572183609009e-01 7.380977869033813477e-01 3.118916228413581848e-02
9.566226601600646973e-02 7.307581305503845215e-01 2.727357447147369385e-01
1.292989552021026611e-01 8.425756692886352539e-01 6.766577064990997314e-02
1.131388247013092041e-01 8.670583367347717285e-01 3.293937146663665771e-01
9.683793783187866211e-02 9.622551202774047852e-01 -2.863617241382598877e-01
4.120506346225738525e-02 6.464031934738159180e-01 2.779159545898437500e-01
1.160992681980133057e-01 7.668843865394592285e-01 1.561545580625534058e-01
-8.668505400419235229e-02 9.505711793899536133e-01 3.881722986698150635e-01
4.212956130504608154e-02 6.546090245246887207e-01 -3.389888107776641846e-01
1.267408430576324463e-01 8.631277680397033691e-01 -1.138144060969352722e-01
3.237145021557807922e-02 7.714484930038452148e-01 -5.656732320785522461e-01
1.244977563619613647e-01 9.306158423423767090e-01 -3.402695804834365845e-02
5.187301710247993469e-02 1.003104209899902344e+00 4.650266468524932861e-01
3.368882834911346436e-02 6.858251094818115234e-01 -4.493390917778015137e-01
-1.276220083236694336e-01 8.053620457649230957e-01 -2.013855129480361938e-01
7.014692574739456177e-02 9.281203746795654297e-01 5.168858766555786133e-01
1.150245890021324158e-01 8.113628625869750977e-01 2.759168744087219238e-01
9.857128374278545380e-03 1.095606923103332520e+00 4.345155507326126099e-02
9.479970484972000122e-02 7.152036428451538086e-01 -2.253922522068023682e-01
-4.317694157361984253e-02 6.127975583076477051e-01 -2.228792011737823486e-01
-1.254466455429792404e-02 6.962622404098510742e-01 -5.164040327072143555e-01
9.555050730705261230e-02 1.027663946151733398e+00 8.502449095249176025e-02
1.032499074935913086e-01 9.322891235351562500e-01 3.642741739749908447e-01
5.618373677134513855e-02 8.544610142707824707e-01 -5.405034422874450684e-01
-1.131715252995491028e-01 8.933594226837158203e-01 -2.915912866592407227e-01
-5.893671885132789612e-02 6.105649471282958984e-01 2.208613976836204529e-02
-3.192937001585960388e-02 1.058625817298889160e+00 3.037196397781372070e-01
9.703839570283889771e-02 7.998705506324768066e-01 -3.699259161949157715e-01
1.232615262269973755e-01 8.340222835540771484e-01 2.048794180154800415e-01
-1.329929828643798828e-01 8.212230205535888672e-01 7.601544260978698730e-02
2.694190852344036102e-02 7.243157029151916504e-01 5.143153667449951172e-01
1.195714995265007019e-02 7.499710917472839355e-01 -5.732172727584838867e-01
