-3.118599057197570801e-01 -3.906042277812957764e-01 1.477655768394470215e-01
-1.993307173252105713e-01 -3.533188700675964355e-01 1.071955114603042603e-01
-2.703660428524017334e-01 -3.936535716056823730e-01 4.391968250274658203e-01
-4.177961051464080811e-01 -5.224100351333618164e-01 1.482341289520263672e-01
-4.641549885272979736e-01 -5.446360707283020020e-01 -2.507787942886352539e-01
-2.744214832782745361e-01 -4.475239515304565430e-01 -2.387890368700027466e-01
-5.172622203826904297e-01 -5.383976101875305176e-01 -5.125027894973754883e-01
-2.623673975467681885e-01 -3.868645727634429932e-01 4.075374603271484375e-01
-3.297356665134429932e-01 -4.173976182937622070e-01 4.573068618774414062e-01
-5.266040563583374023e-01 -5.477854013442993164e-01 2.547463476657867432e-01
-4.639492034912109375e-01 -4.697803258895874023e-01 -2.623637020587921143e-01
-2.925577163696289062e-01 -4.174894094467163086e-01 5.025279521942138672e-01
-5.748735070228576660e-01 -5.723103880882263184e-01 -1.455311477184295654e-01
-2.748870849609375000e-01 -3.741796910762786865e-01 8.150354027748107910e-03
-5.616360306739807129e-01 -5.729118585586547852e-01 -1.941424161195755005e-01
-4.592274427413940430e-01 -4.823323488235473633e-01 3.768088817596435547e-01
-3.614462018013000488e-01 -4.992331862449645996e-01 -1.345338225364685059e-01
-3.620669245719909668e-01 -4.162804484367370605e-01 -2.687410712242126465e-01
-4.668315947055816650e-01 -5.327538251876831055e-01 -4.964282214641571045e-01
-4.835175275802612305e-01 -5.038114786148071289e-01 -5.407165288925170898e-01
-3.993216753005981445e-01 -4.443173408508300781e-01 3.768162131309509277e-01
-4.288046360015869141e-01 -4.700071215629577637e-01 -5.515151619911193848e-01
-5.741155147552490234e-01 -5.503308176994323730e-01 -4.554411396384239197e-02
-2.674652934074401855e-01 -4.459980130195617676e-01 3.446397185325622559e-02
-3.918267190456390381e-01 -4.482888877391815186e-01 4.513069987297058105e-01
-2.829269170761108398e-01 -3.812147378921508789e-01 -2.171386629343032837e-01
-3.222500979900360107e-01 -4.001962840557098389e-01 -3.042455613613128662e-01
-4.268309473991394043e-01 -4.452106952667236328e-01 -2.774114720523357391e-02
-2.331643849611282349e-01 -4.183595180511474609e-01 -2.480614930391311646e-01
-3.231357038021087646e-01 -4.790874421596527100e-01 -3.679515048861503601e-02
-5.524559020996093750e-01 -5.519099235534667969e-01 -4.056533277034759521e-01
-4.632352888584136963e-01 -5.445415377616882324e-01 2.347822487354278564e-02
-2.211210280656814575e-01 -3.673339784145355225e-01 3.067908585071563721e-01
-4.132738113403320312e-01 -4.559448063373565674e-01 4.114186465740203857e-01
-4.664637148380279541e-01 -5.087447166442871094e-01 4.306597709655761719e-01
-2.225649207830429077e-01 -4.055458307266235352e-01 2.837722003459930420e-01
-4.697729945182800293e-01 -4.704711437225341797e-01 -1.374613493680953979e-01
-3.158496320247650146e-01 -4.049084484577178955e-01 3.993972539901733398e-01
-4.492664337158203125e-01 -5.399978756904602051e-01 -5.311190709471702576e-02
-3.072766065597534180e-01 -3.968367576599121094e-01 3.428432047367095947e-01
-2.957099974155426025e-01 -3.882542848587036133e-01 -2.730747461318969727e-01
-3.136080801486968994e-01 -3.986273705959320068e-01 -3.408242762088775635e-01
-3.572474420070648193e-01 -4.160187244415283203e-01 -3.165771067142486572e-01
-4.519665539264678955e-01 -4.681085348129272461e-01 -3.822621107101440430e-01
-4.421433806419372559e-01 -5.371150374412536621e-01 -1.381269097328186035e-01
-2.070435583591461182e-01 -3.537991642951965332e-01 1.187868416309356689e-03
-3.574728965759277344e-01 -4.351404905319213867e-01 -5.488691926002502441e-01
-4.788215756416320801e-01 -5.079784393310546875e-01 4.074342548847198486e-01
-4.719311594963073730e-01 -4.781703650951385498e-01 -3.490265607833862305e-01
-3.394577801227569580e-01 -4.012170135974884033e-01 -1.306552439928054810e-03
-4.373806118965148926e-01 -5.347760319709777832e-01 -2.480609901249408722e-02
-5.775021314620971680e-01 -5.712027549743652344e-01 -1.132629141211509705e-01
-3.231050968170166016e-01 -4.732826054096221924e-01 -3.364900052547454834e-01
-4.021219313144683838e-01 -5.193604230880737305e-01 -1.008132472634315491e-01
-3.357635438442230225e-01 -4.839380681514739990e-01 1.071305274963378906e-01
-5.267784595489501953e-01 -5.075390338897705078e-01 -5.966801941394805908e-02
-3.047425150871276855e-01 -4.579806029796600342e-01 -4.083057641983032227e-01
-3.060124218463897705e-01 -3.865805268287658691e-01 2.111532539129257202e-02
-4.453217089176177979e-01 -4.866954088211059570e-01 -5.889331698417663574e-01
-3.186973333358764648e-01 -4.729803502559661865e-01 1.674636751413345337e-01
-3.904466927051544189e-01 -5.078281164169311523e-01 2.065167129039764404e-01
-1.893831640481948853e-01 -3.555937409400939941e-01 1.763709038496017456e-01
-5.293154716491699219e-01 -5.650721788406372070e-01 4.460451751947402954e-02
-3.227080702781677246e-01 -4.750173389911651611e-01 -2.888217866420745850e-01
-4.310770928859710693e-01 -4.530313909053802490e-01 2.267392575740814209e-01
-3.217220902442932129e-01 -4.705252349376678467e-01 2.638886868953704834e-01
-3.151036202907562256e-01 -3.983232378959655762e-01 3.135170638561248779e-01
-2.538384199142456055e-01 -3.744581341743469238e-01 2.997616529464721680e-01
-4.310137331485748291e-01 -4.533928334712982178e-01 -3.242799639701843262e-01
-5.228937268257141113e-01 -5.087582468986511230e-01 1.154564917087554932e-01
-4.210834503173828125e-01 -4.998120963573455811e-01 4.480464756488800049e-01
-3.641328215599060059e-01 -4.946917891502380371e-01 2.190058827400207520e-01
-2.549741566181182861e-01 -3.964321315288543701e-01 -4.599222838878631592e-01
-2.395563870668411255e-01 -4.244165122509002686e-01 -2.209812700748443604e-01
-4.349908232688903809e-01 -5.052247643470764160e-01 -6.003094315528869629e-01
-3.015173077583312988e-01 -3.849947750568389893e-01 6.883478909730911255e-02
-4.408324360847473145e-01 -4.619576930999755859e-01 2.850089967250823975e-01
-2.251355051994323730e-01 -4.061847329139709473e-01 -3.202801346778869629e-01
-2.756448984146118164e-01 -3.866050243377685547e-01 3.672707676887512207e-01
-3.110252618789672852e-01 -4.563212692737579346e-01 3.822331130504608154e-01
-4.495979547500610352e-01 -4.718827307224273682e-01 -4.569196999073028564e-01
-3.678383529186248779e-01 -4.178865551948547363e-01 -2.355698794126510620e-01
-2.568245232105255127e-01 -3.679205775260925293e-01 7.038781791925430298e-02
-5.639691352844238281e-01 -5.464445948600769043e-01 -3.060779273509979248e-01
-3.520773947238922119e-01 -4.802218973636627197e-01 3.595038354396820068e-01
-3.161970973014831543e-01 -3.950929045677185059e-01 2.352285385131835938e-01
-3.042909801006317139e-01 -4.604311287403106689e-01 -3.669725954532623291e-01
-3.576465547084808350e-01 -4.114826917648315430e-01 -1.754088848829269409e-01
-4.502673447132110596e-01 -5.239509940147399902e-01 -5.219184160232543945e-01
-4.629754424095153809e-01 -4.669796824455261230e-01 -1.743512451648712158e-01
-2.293043434619903564e-01 -4.204964339733123779e-01 -9.190951287746429443e-02
-4.232380092144012451e-01 -5.175652503967285156e-01 2.901700437068939209e-01
-3.790963292121887207e-01 -4.944770336151123047e-01 3.441426753997802734e-01
-3.807678222656250000e-01 -4.360499680042266846e-01 3.984224796295166016e-01
-4.118889272212982178e-01 -4.417457878589630127e-01 2.172976732254028320e-01
-4.106746017932891846e-01 -4.737510681152343750e-01 5.000720620155334473e-01
-3.089926540851593018e-01 -4.658243656158447266e-01 -3.178665041923522949e-01
-4.092235565185546875e-01 -4.368509650230407715e-01 9.704640507698059082e-02
-3.562105298042297363e-01 -4.750456213951110840e-01 4.332015812397003174e-01
-3.212575912475585938e-01 -4.777159392833709717e-01 -1.332310587167739868e-01
-2.734189331531524658e-01 -3.818471431732177734e-01 -3.014212846755981445e-01
-5.200375318527221680e-01 -5.101449489593505859e-01 1.801330000162124634e-01
-1.942220181226730347e-01 -3.518565297126770020e-01 3.633812069892883301e-02
-2.869265675544738770e-01 -3.799287080764770508e-01 1.291452050209045410e-01
-1.818855404853820801e-01 -3.546931147575378418e-01 1.416221112012863159e-01
-4.716611206531524658e-01 -5.490978956222534180e-01 -9.691751748323440552e-02
-4.438038170337677002e-01 -4.566918313503265381e-01 -2.113727927207946777e-01
-2.801234424114227295e-01 -4.515748918056488037e-01 1.419899761676788330e-01
-5.203158855438232422e-01 -5.135107040405273438e-01 -3.923863470554351807e-01
-2.574061155319213867e-01 -4.397409260272979736e-01 -9.054395556449890137e-02
-4.034619927406311035e-01 -4.424580335617065430e-01 -3.948365151882171631e-01
-2.667960822582244873e-01 -4.041889309883117676e-01 -4.913800060749053955e-01
-5.368460416793823242e-01 -5.681476593017578125e-01 -8.742399513721466064e-04
-2.222868651151657104e-01 -3.572458028793334961e-01 5.272560566663742065e-02
-5.056701898574829102e-01 -5.586465001106262207e-01 4.932619631290435791e-02
-2.681552767753601074e-01 -4.249362349510192871e-01 4.200325608253479004e-01
-1.995116174221038818e-01 -3.613366484642028809e-01 2.549921870231628418e-01
-4.292839169502258301e-01 -4.496563673019409180e-01 -2.488858401775360107e-01
-5.391828417778015137e-01 -5.213311314582824707e-01 1.017118543386459351e-01
-2.472553849220275879e-01 -4.307863414287567139e-01 -1.965705752372741699e-01
-3.568874895572662354e-01 -4.095491468906402588e-01 4.102764278650283813e-02
-2.308469563722610474e-01 -3.614736199378967285e-01 1.635257005691528320e-01
-4.559637904167175293e-01 -5.350201725959777832e-01 2.117621004581451416e-01
-4.554243385791778564e-01 -5.383105278015136719e-01 -3.417503833770751953e-01
-3.479951024055480957e-01 -4.916925132274627686e-01 -1.791668683290481567e-01
-2.448746562004089355e-01 -3.784040808677673340e-01 3.722942173480987549e-01
-2.704623341560363770e-01 -4.434528648853302002e-01 -2.766703367233276367e-01
-2.264304161071777344e-01 -3.639817833900451660e-01 -2.116354405879974365e-01
-2.591802775859832764e-01 -4.344724118709564209e-01 -3.025158047676086426e-01
-3.017652630805969238e-01 -3.914223909378051758e-01 2.900927066802978516e-01
-3.526160418987274170e-01 -4.080806076526641846e-01 9.266710281372070312e-02
-4.938457012176513672e-01 -5.571576356887817383e-01 -9.217802435159683228e-02
-3.909361958503723145e-01 -5.140297412872314453e-01 -6.148802861571311951e-02
-4.380584955215454102e-01 -4.621774554252624512e-01 -4.144955277442932129e-01
-3.598126769065856934e-01 -4.970259070396423340e-01 -2.267902493476867676e-01
-5.668078660964965820e-01 -5.423785448074340820e-01 -1.797261089086532593e-02
-1.917351633310317993e-01 -3.910522162914276123e-01 2.689404040575027466e-02
-2.900065779685974121e-01 -4.342367649078369141e-01 -5.168765783309936523e-01
-5.682612657546997070e-01 -5.451440215110778809e-01 5.922041833400726318e-03
-4.655404984951019287e-01 -5.462344884872436523e-01 -2.643669210374355316e-02
-2.847434878349304199e-01 -4.265705645084381104e-01 4.748994112014770508e-01
-3.648552894592285156e-01 -4.132257699966430664e-01 -4.457388445734977722e-02
-4.160660207271575928e-01 -5.084166526794433594e-01 -5.318749547004699707e-01
-1.735462993383407593e-01 -3.560369312763214111e-01 -4.392274096608161926e-02
-5.749935507774353027e-01 -5.655190348625183105e-01 -2.552871108055114746e-01
-2.864813506603240967e-01 -4.578320086002349854e-01 1.003972813487052917e-02
-4.453273415565490723e-01 -4.707617461681365967e-01 3.599629700183868408e-01
-4.112891852855682373e-01 -4.933001399040222168e-01 -6.090914607048034668e-01
-4.700067937374114990e-01 -5.182605385780334473e-01 -5.845795869827270508e-01
-4.731774032115936279e-01 -5.225214958190917969e-01 3.885219395160675049e-01
-4.967606365680694580e-01 -4.871022999286651611e-01 -1.171897426247596741e-01
-1.968458741903305054e-01 -3.907586932182312012e-01 1.806932389736175537e-01
-4.213165044784545898e-01 -4.629214406013488770e-01 -5.284122824668884277e-01
-2.754952311515808105e-01 -3.797395229339599609e-01 -2.462560981512069702e-01
-3.379399478435516357e-01 -4.052665531635284424e-01 2.454384565353393555e-01
-5.536900758743286133e-01 -5.294783115386962891e-01 -1.770759820938110352e-01
-2.653559148311614990e-01 -3.778021037578582764e-01 -2.753242850303649902e-01
-2.475476264953613281e-01 -4.251438379287719727e-01 2.694629430770874023e-01
-4.386346042156219482e-01 -5.347491502761840820e-01 -2.167931050062179565e-01
-3.132603168487548828e-01 -4.736182391643524170e-01 -6.112868338823318481e-02
-5.001950263977050781e-01 -4.978160262107849121e-01 2.242854237556457520e-01
-2.145262360572814941e-01 2.705940976738929749e-02 -7.285755872726440430e-02
6.601899862289428711e-03 4.411878064274787903e-02 -7.283833622932434082e-01
6.072952747344970703e-01 5.725654587149620056e-02 -7.377427816390991211e-01
5.809421539306640625e-01 2.309978008270263672e-02 -5.260862708091735840e-01
3.316200375556945801e-01 7.169492542743682861e-02 -7.052524089813232422e-01
-6.224936246871948242e-02 7.092940062284469604e-02 5.083876848220825195e-01
2.070224881172180176e-01 2.765875495970249176e-02 -6.933288574218750000e-01
7.947397232055664062e-01 5.619364231824874878e-02 -5.322556495666503906e-01
-1.822655200958251953e-01 7.285127043724060059e-02 -1.917507350444793701e-01
6.654957532882690430e-01 1.697225123643875122e-02 -3.530599549412727356e-02
-1.946362257003784180e-01 7.340469211339950562e-02 8.393930643796920776e-02
4.471451044082641602e-01 7.929174602031707764e-02 -5.331986546516418457e-01
-6.593719124794006348e-02 1.915467344224452972e-02 -2.255936861038208008e-01
4.284416437149047852e-01 8.784517645835876465e-02 -1.100259125232696533e-01
3.362692296504974365e-01 8.502012491226196289e-02 -3.767282366752624512e-01
-2.432600855827331543e-01 3.957865014672279358e-02 -3.497669398784637451e-01
4.042691588401794434e-01 2.202340774238109589e-02 -6.032747626304626465e-01
1.197145581245422363e-01 6.481821089982986450e-02 -7.368290424346923828e-01
1.003830879926681519e-01 8.469773828983306885e-02 -2.721513807773590088e-01
-8.608803153038024902e-02 1.878702826797962189e-02 1.464717388153076172e-01
1.372790485620498657e-01 8.261553943157196045e-02 3.862603306770324707e-01
7.355693578720092773e-01 5.538585409522056580e-02 -6.231207847595214844e-01
4.852756261825561523e-01 8.705492317676544189e-02 2.701932564377784729e-02
1.582975834608078003e-01 1.245065405964851379e-02 -2.402054667472839355e-01
6.031743288040161133e-01 1.452787965536117554e-02 -4.004353284835815430e-02
1.626911908388137817e-01 3.024283237755298615e-02 -7.121621370315551758e-01
-2.159594893455505371e-01 4.123297333717346191e-02 -4.310590028762817383e-01
3.999348878860473633e-01 7.964027673006057739e-02 -5.419570803642272949e-01
5.581210255622863770e-01 7.931558787822723389e-02 3.958179056644439697e-01
4.595191478729248047e-01 2.612742595374584198e-02 6.300658583641052246e-01
1.910367906093597412e-01 1.113539934158325195e-02 1.690443158149719238e-01
-8.071488142013549805e-02 4.109615460038185120e-02 -6.345577836036682129e-01
1.152963638305664062e-01 8.615238219499588013e-02 -1.905090510845184326e-01
4.541766047477722168e-01 7.853049039840698242e-02 5.021060705184936523e-01
7.538094520568847656e-01 6.769669800996780396e-02 3.950985670089721680e-01
1.672512292861938477e-01 6.949979066848754883e-02 6.877959370613098145e-01
-2.643609642982482910e-01 3.232954069972038269e-02 8.431036025285720825e-02
1.560924351215362549e-01 1.079748570919036865e-02 3.765745833516120911e-02
2.660019695758819580e-01 7.743383198976516724e-02 5.716452598571777344e-01
4.920493364334106445e-01 6.880652904510498047e-02 -7.054308056831359863e-01
2.286498844623565674e-01 8.855634182691574097e-02 3.660455718636512756e-02
4.121598899364471436e-01 8.193764090538024902e-02 4.271850585937500000e-01
5.695583820343017578e-01 1.884660683572292328e-02 3.806364238262176514e-01
2.456024289131164551e-02 1.648921146988868713e-02 2.955108284950256348e-01
7.177938222885131836e-01 6.621818989515304565e-02 -5.472653508186340332e-01
-1.015993058681488037e-01 1.899947039783000946e-02 6.124613434076309204e-02
5.212914943695068359e-01 1.344523578882217407e-02 1.884273290634155273e-01
8.535485267639160156e-01 3.065784461796283722e-02 -1.105427071452140808e-01
-1.734768748283386230e-01 2.639369666576385498e-02 -2.441961467266082764e-01
3.084175586700439453e-01 7.960882782936096191e-02 -5.550338029861450195e-01
6.032959222793579102e-01 1.600927114486694336e-02 1.925400197505950928e-01
5.331041216850280762e-01 8.174416422843933105e-02 -3.935909569263458252e-01
5.735487341880798340e-01 2.898030541837215424e-02 5.996089577674865723e-01
6.712368130683898926e-01 1.979577727615833282e-02 2.416751682758331299e-01
4.011734724044799805e-01 1.142155379056930542e-02 -2.173305153846740723e-01
7.482987642288208008e-01 2.201666682958602905e-02 -1.513630449771881104e-01
4.811899065971374512e-01 8.681027591228485107e-02 9.095609188079833984e-02
2.841164469718933105e-01 8.148227632045745850e-02 -5.029044747352600098e-01
1.605795770883560181e-01 2.608376368880271912e-02 6.496391296386718750e-01
1.050533205270767212e-01 8.578449487686157227e-02 1.856715083122253418e-01
6.209299564361572266e-01 6.232402473688125610e-02 6.367737054824829102e-01
1.221829652786254883e-02 2.232652902603149414e-02 -4.709031879901885986e-01
3.599559664726257324e-01 8.495800197124481201e-02 3.342329561710357666e-01
1.202598810195922852e-01 8.090616762638092041e-02 4.339613020420074463e-01
7.633460760116577148e-01 7.217791676521301270e-02 -3.315758705139160156e-01
-7.739034295082092285e-02 7.821699976921081543e-02 2.715159952640533447e-01
4.602897763252258301e-01 8.375282585620880127e-02 -3.775310516357421875e-01
5.361807346343994141e-01 1.986632123589515686e-02 4.476858079433441162e-01
8.107130527496337891e-01 7.193109393119812012e-02 -1.415386497974395752e-01
1.549098044633865356e-01 8.075508475303649902e-02 -4.798096716403961182e-01
3.824583292007446289e-01 7.124155759811401367e-02 6.683853864669799805e-01
-5.008208751678466797e-02 2.160231769084930420e-02 3.809705376625061035e-01
-1.590571999549865723e-01 2.246125601232051849e-02 -4.043167456984519958e-02
6.281821727752685547e-01 2.330333180725574493e-02 4.359976053237915039e-01
3.807624876499176025e-01 8.637795597314834595e-02 -2.944875359535217285e-01
1.173605769872665405e-01 2.063688263297080994e-02 5.239756107330322266e-01
4.110474884510040283e-01 7.638218998908996582e-02 -6.132559180259704590e-01
3.798455595970153809e-01 7.369755953550338745e-02 -6.694944500923156738e-01
4.486689567565917969e-01 1.226228848099708557e-02 2.119486927986145020e-01
2.442541122436523438e-01 1.692010834813117981e-02 4.720382690429687500e-01
6.946452260017395020e-01 5.640854313969612122e-02 -6.654211878776550293e-01
6.417454481124877930e-01 2.635617740452289581e-02 -5.339151620864868164e-01
2.713963985443115234e-01 1.243324577808380127e-02 -3.083254098892211914e-01
-9.339037537574768066e-02 7.955739647150039673e-02 1.285152733325958252e-01
-1.211807727813720703e-01 2.117167040705680847e-02 1.864415407180786133e-01
5.068683028221130371e-01 1.850009150803089142e-02 -4.662328660488128662e-01
-2.415331006050109863e-01 4.125195741653442383e-02 4.002031683921813965e-01
7.909332513809204102e-01 2.731524221599102020e-02 -2.770684659481048584e-01
-2.541311383247375488e-01 6.763140857219696045e-02 -5.704260617494583130e-02
7.240563035011291504e-01 6.454437971115112305e-02 4.945812225341796875e-01
4.089248776435852051e-01 7.387426495552062988e-02 6.188667416572570801e-01
2.611348927021026611e-01 6.021165847778320312e-02 -8.139662146568298340e-01
1.323976218700408936e-01 1.229593530297279358e-02 -1.945104300975799561e-01
3.575710058212280273e-01 1.155159994959831238e-02 -2.515781223773956299e-01
8.605260848999023438e-01 6.663112342357635498e-02 6.530311703681945801e-02
-2.307070493698120117e-01 3.079285286366939545e-02 -1.984580755233764648e-01
3.575253486633300781e-01 8.742308616638183594e-02 1.916994750499725342e-01
6.372065544128417969e-01 8.159437775611877441e-02 -2.150467634201049805e-01
3.811349868774414062e-01 8.841338008642196655e-02 -9.404644370079040527e-02
1.683987528085708618e-01 7.941716164350509644e-02 5.027076005935668945e-01
3.184587061405181885e-01 9.902328252792358398e-03 8.045982569456100464e-02
1.836424171924591064e-01 1.393152400851249695e-02 3.419599831104278564e-01
8.909992575645446777e-01 6.029163300991058350e-02 1.315863728523254395e-01
1.062962561845779419e-01 8.674155175685882568e-02 -9.408327937126159668e-02
4.035697579383850098e-01 6.515238434076309204e-02 -7.730815410614013672e-01
6.753576397895812988e-01 5.009806156158447266e-02 6.430769562721252441e-01
7.418724894523620605e-01 2.117118984460830688e-02 -9.466253966093063354e-02
2.233394831418991089e-01 8.718733489513397217e-02 2.053715586662292480e-01
7.581182718276977539e-01 2.354300767183303833e-02 -2.170971035957336426e-01
1.091983914375305176e-02 1.447911933064460754e-02 1.042013168334960938e-01
6.504884362220764160e-01 8.165004849433898926e-02 -1.580114960670471191e-01
5.100297927856445312e-02 2.400847710669040680e-02 -5.471908450126647949e-01
4.511375427246093750e-01 3.306828811764717102e-02 7.207107543945312500e-01
4.448975920677185059e-01 5.960302799940109253e-02 -8.044709563255310059e-01
1.756232678890228271e-01 6.622321158647537231e-02 -7.463796138763427734e-01
8.098757266998291016e-01 2.755362540483474731e-02 -2.103570103645324707e-01
5.264578461647033691e-01 1.482950150966644287e-02 2.683418393135070801e-01
-9.615051746368408203e-02 6.369990855455398560e-02 -5.689017772674560547e-01
-1.240633726119995117e-01 2.453538402915000916e-02 3.362959921360015869e-01
3.559164702892303467e-01 8.845408260822296143e-02 7.860022038221359253e-02
3.189561367034912109e-01 1.006567850708961487e-02 -1.210953295230865479e-01
6.115786731243133545e-02 1.676549017429351807e-02 3.584548234939575195e-01
-6.773149967193603516e-02 2.493908442556858063e-02 4.488765001296997070e-01
5.239064693450927734e-01 8.582142740488052368e-02 -1.537010371685028076e-01
-1.624508798122406006e-01 2.445337362587451935e-02 2.212093174457550049e-01
-4.325807094573974609e-02 8.152684569358825684e-02 -1.654637753963470459e-01
8.513168990612030029e-02 8.186468482017517090e-02 3.721486330032348633e-01
6.977651119232177734e-01 1.870779506862163544e-02 4.882458224892616272e-02
2.711802423000335693e-01 8.604718744754791260e-02 2.922023236751556396e-01
-1.778220534324645996e-01 2.390663139522075653e-02 8.714965730905532837e-02
4.115642309188842773e-01 1.642917469143867493e-02 4.323477447032928467e-01
2.411602586507797241e-01 1.410498470067977905e-02 3.723206222057342529e-01
-2.396200299263000488e-01 3.440293669700622559e-02 3.023796081542968750e-01
5.950748920440673828e-01 7.649382203817367554e-02 -4.942637979984283447e-01
-1.675766706466674805e-02 1.578295603394508362e-02 1.470475792884826660e-01
4.474052190780639648e-01 2.043258398771286011e-02 5.256143808364868164e-01
6.967543959617614746e-01 3.332439810037612915e-02 -5.835301876068115234e-01
9.057231247425079346e-02 8.618854731321334839e-02 1.111585199832916260e-01
1.696854829788208008e-01 1.117619499564170837e-02 -1.444846093654632568e-01
-4.631295800209045410e-02 4.247220978140830994e-02 -6.768926978111267090e-01
2.895790338516235352e-01 6.674425303936004639e-02 7.363448143005371094e-01
3.942199051380157471e-01 8.015866577625274658e-02 4.876942336559295654e-01
5.053914785385131836e-01 4.327449947595596313e-02 -8.009261488914489746e-01
-2.989671230316162109e-01 5.902043730020523071e-02 -1.290012598037719727e-01
4.355623722076416016e-01 1.900766044855117798e-02 -5.220280289649963379e-01
1.181968450546264648e-01 1.606500893831253052e-02 -3.824693262577056885e-01
4.892798662185668945e-01 7.625704258680343628e-02 5.338792800903320312e-01
5.026177763938903809e-01 5.490296334028244019e-02 7.614293098449707031e-01
-9.900391101837158203e-03 2.733192034065723419e-02 -5.535073280334472656e-01
-3.054615259170532227e-01 3.894709795713424683e-02 4.980733618140220642e-03
4.441455006599426270e-01 1.150557771325111389e-02 1.535089015960693359e-01
-2.553257346153259277e-01 6.775941699743270874e-02 1.900679431855678558e-02
4.344533979892730713e-01 1.056394726037979126e-02 -6.669358350336551666e-03
4.236966073513031006e-01 8.298097550868988037e-02 -4.307007491588592529e-01
1.740896403789520264e-01 1.931571960449218750e-02 5.185645818710327148e-01
-1.312457621097564697e-01 7.781665027141571045e-02 8.389034867286682129e-02
2.942533493041992188e-01 2.894436381757259369e-02 -7.257804870605468750e-01
3.433452248573303223e-01 1.129838079214096069e-02 2.229678630828857422e-01
2.630878686904907227e-01 8.484024554491043091e-02 3.491074740886688232e-01
8.193657398223876953e-01 5.635844543576240540e-02 -4.857099950313568115e-01
5.203060507774353027e-01 1.292379572987556458e-02 -1.761839985847473145e-01
-4.064261913299560547e-03 8.354154229164123535e-02 -1.137727871537208557e-01
-2.220823168754577637e-01 2.737419866025447845e-02 9.395940229296684265e-03
-2.154287695884704590e-01 6.845908612012863159e-02 -2.447728812694549561e-01
5.809755325317382812e-01 1.513335853815078735e-02 -2.232777178287506104e-01
6.096195578575134277e-01 7.569226622581481934e-02 4.384964108467102051e-01
1.024968177080154419e-01 1.173727959394454956e-02 2.443354204297065735e-02
6.592438220977783203e-01 1.731366664171218872e-02 1.110362410545349121e-01
6.846520304679870605e-02 1.289026811718940735e-02 1.159806177020072937e-01
1.373762041330337524e-01 8.462502062320709229e-02 -3.193150460720062256e-01
-8.570373058319091797e-02 2.015230618417263031e-02 2.455941736698150635e-01
3.640787601470947266e-01 3.161941841244697571e-02 7.321575880050659180e-01
-1.521175503730773926e-01 7.143346965312957764e-02 -3.384051024913787842e-01
8.555892109870910645e-01 3.358126804232597351e-02 -2.499876916408538818e-01
3.305050730705261230e-01 8.881548047065734863e-02 1.261528767645359039e-02
-1.513459980487823486e-01 7.617673277854919434e-02 1.290095448493957520e-01
9.277772307395935059e-01 5.227338522672653198e-02 -1.218839175999164581e-02
8.032513260841369629e-01 4.285310953855514526e-02 4.517354667186737061e-01
4.513161778450012207e-01 1.178083196282386780e-02 -1.940285563468933105e-01
3.154009580612182617e-03 8.280093222856521606e-02 2.014373540878295898e-01
6.222155690193176270e-01 8.167156577110290527e-02 1.888540387153625488e-01
2.468965649604797363e-01 1.016976684331893921e-02 -1.122596040368080139e-01
3.323176503181457520e-02 8.483982086181640625e-02 9.164127707481384277e-02
7.776219248771667480e-01 7.508962601423263550e-02 -3.279896825551986694e-02
2.336345016956329346e-01 1.163005828857421875e-02 -2.455843687057495117e-01
-1.081863045692443848e-02 1.521877199411392212e-02 -8.682942390441894531e-02
6.086756289005279541e-02 2.163362130522727966e-02 5.093578696250915527e-01
6.097708940505981445e-01 8.376522362232208252e-02 -2.510827779769897461e-02
-1.062243282794952393e-01 2.697245031595230103e-02 -4.176862239837646484e-01
2.159188538789749146e-01 3.349537402391433716e-02 -7.639276981353759766e-01
-4.897606372833251953e-02 7.329382002353668213e-02 -4.755052626132965088e-01
-3.303232789039611816e-02 1.580541580915451050e-02 -2.565106377005577087e-02
3.579154312610626221e-01 2.665841020643711090e-02 6.716921925544738770e-01
4.767036437988281250e-01 1.377208530902862549e-02 2.745348513126373291e-01
-2.624365687370300293e-01 3.188962489366531372e-02 -2.472021803259849548e-02
9.939637780189514160e-02 3.072188235819339752e-02 -6.877998709678649902e-01
1.407006680965423584e-01 2.705631032586097717e-02 -6.592250466346740723e-01
4.671767652034759521e-01 7.692814618349075317e-02 -5.803167223930358887e-01
-1.058678030967712402e-01 3.017583489418029785e-02 5.024698376655578613e-01
2.874759435653686523e-01 7.525599747896194458e-02 6.156805157661437988e-01
3.615577816963195801e-01 2.364756539463996887e-02 6.221936941146850586e-01
-2.206629514694213867e-01 6.533519178628921509e-02 -3.124672770500183105e-01
4.164257645606994629e-01 8.399073779582977295e-02 3.494904339313507080e-01
5.652067065238952637e-01 3.053887374699115753e-02 -6.686956286430358887e-01
5.365853309631347656e-01 7.346358895301818848e-02 -6.098062396049499512e-01
6.923633813858032227e-01 1.946489699184894562e-02 1.578449308872222900e-01
-1.961322128772735596e-01 5.922146886587142944e-02 4.760715961456298828e-01
1.424632817506790161e-01 4.307365044951438904e-02 -8.021701574325561523e-01
5.065897107124328613e-01 1.463961228728294373e-02 -3.159064352512359619e-01
3.741084635257720947e-01 7.783648371696472168e-02 5.514752268791198730e-01
6.422042846679687500e-01 2.195816487073898315e-02 3.792398571968078613e-01
9.106399118900299072e-02 3.816047683358192444e-02 7.517775297164916992e-01
1.032968759536743164e-01 8.688150346279144287e-02 -3.023814782500267029e-02
7.784715890884399414e-01 7.315991818904876709e-02 1.661857664585113525e-01
3.746966719627380371e-01 8.363924920558929443e-02 3.834599256515502930e-01
-7.032653689384460449e-02 8.072361350059509277e-02 -1.244029477238655090e-01
3.953017592430114746e-01 1.236768811941146851e-02 2.664861381053924561e-01
5.426890254020690918e-01 3.725893422961235046e-02 7.086691856384277344e-01
5.015935897827148438e-01 8.421793580055236816e-02 2.627112269401550293e-01
8.311678171157836914e-01 2.905685082077980042e-02 1.126622781157493591e-01
5.030347704887390137e-01 7.145766168832778931e-02 6.140089631080627441e-01
9.024887681007385254e-01 3.933405131101608276e-02 -1.646996140480041504e-01
3.088550567626953125e-01 8.795872330665588379e-02 1.614561080932617188e-01
2.248268723487854004e-01 9.985521435737609863e-03 -2.003604173660278320e-02
3.810401260852813721e-01 4.241536557674407959e-02 8.025076985359191895e-01
5.042065382003784180e-01 8.055575937032699585e-02 -4.620523750782012939e-01
5.932431221008300781e-01 8.045368641614913940e-02 -3.687657713890075684e-01
1.826029717922210693e-01 8.758676797151565552e-02 1.313028633594512939e-01
3.546638488769531250e-01 6.778711825609207153e-02 -7.532864809036254883e-01
-9.855782985687255859e-02 4.843823239207267761e-02 6.515907049179077148e-01
3.923162817955017090e-02 7.809973508119583130e-02 4.517284333705902100e-01
-2.275204658508300781e-02 8.313020318746566772e-02 5.919878184795379639e-02
3.180315792560577393e-01 8.275750279426574707e-02 -4.645441472530364990e-01
8.454084396362304688e-03 2.446326985955238342e-02 5.275183320045471191e-01
-1.198205649852752686e-01 4.553106427192687988e-02 -6.082106232643127441e-01
1.829456537961959839e-01 8.544206619262695312e-02 2.910149693489074707e-01
-1.877899467945098877e-01 7.116623222827911377e-02 2.590749561786651611e-01
2.384747862815856934e-01 1.107303798198699951e-02 2.005269229412078857e-01
-1.142061054706573486e-01 2.243289537727832794e-02 -2.566391825675964355e-01
3.883917927742004395e-01 1.048020645976066589e-02 -1.316712349653244019e-01
-1.069032251834869385e-01 2.000662498176097870e-02 -1.357709765434265137e-01
-7.538309693336486816e-02 8.090010285377502441e-02 -6.150741502642631531e-02
2.398717701435089111e-01 7.019589841365814209e-02 6.931144595146179199e-01
-2.787553668022155762e-01 5.845207720994949341e-02 -2.465977668762207031e-01
-1.646625995635986328e-02 6.719979643821716309e-02 6.145531535148620605e-01
3.171359300613403320e-01 3.514182567596435547e-02 7.706990838050842285e-01
-2.116313576698303223e-02 1.613643392920494080e-02 -1.494812369346618652e-01
6.794163584709167480e-02 2.618548646569252014e-02 6.065226197242736816e-01
6.062058210372924805e-01 1.737084612250328064e-02 2.652932107448577881e-01
1.173629164695739746e-01 1.743041723966598511e-02 -4.305315315723419189e-01
9.609635174274444580e-02 4.562939330935478210e-02 -7.887697219848632812e-01
4.705990254878997803e-01 1.116953417658805847e-02 -5.225191637873649597e-02
9.926179051399230957e-02 2.915813587605953217e-02 6.686947345733642578e-01
5.612457394599914551e-01 1.677644997835159302e-02 -3.489599525928497314e-01
4.168528318405151367e-02 7.242479920387268066e-02 -5.887414813041687012e-01
5.510584115982055664e-01 1.794457063078880310e-02 -4.075479209423065186e-01
1.979018151760101318e-01 6.622432172298431396e-02 7.335065603256225586e-01
2.251444607973098755e-01 2.379795163869857788e-02 -6.362742781639099121e-01
8.457526564598083496e-01 4.033538326621055603e-02 -4.085549116134643555e-01
-1.577645540237426758e-01 7.073599845170974731e-02 3.551041483879089355e-01
-2.178859710693359375e-02 8.243068307638168335e-02 1.579693555831909180e-01
7.026156187057495117e-01 1.914595812559127808e-02 -1.270980387926101685e-01
9.776516258716583252e-02 8.351173996925354004e-02 3.148220777511596680e-01
1.023862361907958984e-01 1.378657668828964233e-02 -2.561703324317932129e-01
-1.030297577381134033e-01 7.099625468254089355e-02 4.509724974632263184e-01
3.111485838890075684e-01 7.655259966850280762e-02 -6.231691241264343262e-01
5.540149807929992676e-01 1.667701452970504761e-02 3.182932436466217041e-01
1.409972310066223145e-01 7.451159507036209106e-02 5.999941825866699219e-01
2.768263816833496094e-01 8.599090576171875000e-02 -3.293282687664031982e-01
-2.733128070831298828e-01 6.276831030845642090e-02 1.989664733409881592e-01
6.996175050735473633e-01 7.779037207365036011e-02 -2.699200510978698730e-01
7.606326937675476074e-01 5.279702693223953247e-02 5.329162478446960449e-01
4.801574349403381348e-01 2.989344298839569092e-02 6.728026866912841797e-01
4.685522913932800293e-01 1.474309340119361877e-02 -3.578993082046508789e-01
8.701711893081665039e-03 7.651013880968093872e-02 -4.702243208885192871e-01
5.435121059417724609e-01 7.166623324155807495e-02 5.832924842834472656e-01
2.449398040771484375e-01 2.148480154573917389e-02 5.861743688583374023e-01
2.935752570629119873e-01 2.034376375377178192e-02 5.641486644744873047e-01
1.763847321271896362e-01 8.804850280284881592e-02 3.474958240985870361e-02
-4.638424515724182129e-02 2.008210122585296631e-02 -3.149119019508361816e-01
7.678120732307434082e-01 2.463097125291824341e-02 1.815077662467956543e-01
-3.464433550834655762e-02 7.992866635322570801e-02 -2.880283296108245850e-01
-2.097215056419372559e-01 2.925728075206279755e-02 2.552476525306701660e-01
1.097750663757324219e-02 1.938791014254093170e-02 3.950499892234802246e-01
-1.663819551467895508e-01 7.565927505493164062e-02 -5.350892990827560425e-02
5.245728492736816406e-01 1.230822876095771790e-02 -6.370599567890167236e-02
-1.160907745361328125e-02 2.302043512463569641e-02 4.736270606517791748e-01
2.607583403587341309e-01 2.082138881087303162e-02 -5.843887329101562500e-01
4.350245594978332520e-01 1.505500450730323792e-02 -3.940832018852233887e-01
4.026708006858825684e-02 7.543923705816268921e-02 5.195516347885131836e-01
2.451615929603576660e-01 1.413320749998092651e-02 -3.815123736858367920e-01
5.157875418663024902e-01 8.494935929775238037e-02 1.967108547687530518e-01
8.313504457473754883e-01 6.870523840188980103e-02 1.434018611907958984e-01
4.206284880638122559e-02 8.341905474662780762e-02 2.428070306777954102e-01
-1.657140254974365234e-01 2.989428676664829254e-02 -3.688918948173522949e-01
5.970847606658935547e-02 8.587087690830230713e-02 3.021610900759696960e-03
8.070821166038513184e-01 7.260423898696899414e-02 1.901641115546226501e-02
-1.120599508285522461e-01 2.414852567017078400e-02 -3.278488218784332275e-01
5.299103260040283203e-01 8.139046281576156616e-02 3.555935323238372803e-01
5.354740619659423828e-01 3.779979050159454346e-02 -7.579696178436279297e-01
5.567609667778015137e-01 8.534921705722808838e-02 -8.613575994968414307e-02
3.775848150253295898e-01 4.785601049661636353e-02 -8.446748256683349609e-01
8.099604249000549316e-01 7.023136317729949951e-02 -2.505469024181365967e-01
4.713146090507507324e-01 8.700644224882125854e-02 -1.409204304218292236e-01
8.350257277488708496e-01 2.835786156356334686e-02 -7.915366441011428833e-04
6.122046709060668945e-01 7.789799571037292480e-02 3.726268410682678223e-01
-1.070275902748107910e-02 7.169982790946960449e-02 5.497549772262573242e-01
3.365709185600280762e-01 2.319384552538394928e-02 -6.367309093475341797e-01
9.006784558296203613e-01 5.769512429833412170e-02 -2.185236811637878418e-01
2.592329680919647217e-01 7.258864492177963257e-02 -6.877670288085937500e-01
7.434043288230895996e-01 2.343715913593769073e-02 -2.654880583286285400e-01
7.951678037643432617e-01 2.534999884665012360e-02 -1.458304226398468018e-01
-1.189829111099243164e-01 7.714717090129852295e-02 2.070609033107757568e-01
1.019827276468276978e-01 7.856721431016921997e-02 4.896646142005920410e-01
6.810838580131530762e-01 2.527756802737712860e-02 -4.586043655872344971e-01
3.253722786903381348e-01 1.379951089620590210e-02 3.631600737571716309e-01
-3.159037828445434570e-01 5.549170821905136108e-02 1.087699905037879944e-01
-1.210176944732666016e-01 7.237010449171066284e-02 3.870353400707244873e-01
6.414752006530761719e-01 7.927430421113967896e-02 2.724766135215759277e-01
-1.410106420516967773e-01 3.002650104463100433e-02 4.442158639430999756e-01
-3.063849210739135742e-01 4.512505605816841125e-02 -1.796868145465850830e-01
3.138587176799774170e-01 8.663389831781387329e-02 -2.962540388107299805e-01
1.289757639169692993e-01 1.342891156673431396e-02 2.725359499454498291e-01
2.325639426708221436e-01 8.309759199619293213e-02 4.117147624492645264e-01
6.331598162651062012e-01 3.077845834195613861e-02 -6.173814535140991211e-01
1.770169883966445923e-01 8.802526444196701050e-02 -7.022649794816970825e-02
5.219429731369018555e-02 5.644710361957550049e-02 -7.547919154167175293e-01
3.738788962364196777e-01 2.093889005482196808e-02 5.657859444618225098e-01
6.456403732299804688e-01 1.782058551907539368e-02 -2.437995374202728271e-01
3.423346281051635742e-01 8.771578222513198853e-02 -2.143463194370269775e-01
3.228788375854492188e-01 1.558717340230941772e-02 -4.459698796272277832e-01
-1.912668943405151367e-01 4.226805642247200012e-02 -4.866086840629577637e-01
-3.462165594100952148e-03 1.836267113685607910e-02 3.358824551105499268e-01
4.611502289772033691e-01 8.653046190738677979e-02 1.623085737228393555e-01
2.675956487655639648e-01 2.594474703073501587e-02 -6.806991100311279297e-01
5.879848003387451172e-01 1.459968090057373047e-02 1.165913566946983337e-01
6.684580445289611816e-01 8.077913522720336914e-02 9.924498200416564941e-02
3.599512577056884766e-02 3.185080736875534058e-02 -6.597008705139160156e-01
8.515364527702331543e-01 3.112488798797130585e-02 -1.658532023429870605e-01
4.486878514289855957e-01 5.169697478413581848e-02 7.925019860267639160e-01
-3.367128968238830566e-02 7.025528699159622192e-02 -5.529005527496337891e-01
2.822255194187164307e-01 5.126762390136718750e-02 8.235949873924255371e-01
6.292325258255004883e-01 4.504980146884918213e-02 6.820310950279235840e-01
-9.172329306602478027e-02 8.023324608802795410e-02 1.320516504347324371e-02
5.074251890182495117e-01 1.378297433257102966e-02 -2.661302983760833740e-01
-1.653648018836975098e-01 3.311589360237121582e-02 -4.321667253971099854e-01
-2.372777462005615234e-02 2.250775508582592010e-02 -4.313059151172637939e-01
2.425681799650192261e-01 6.138127297163009644e-02 7.813892364501953125e-01
4.775173962116241455e-01 8.728289604187011719e-02 -3.669311106204986572e-02
1.063126623630523682e-01 1.949751935899257660e-02 -4.841826558113098145e-01
4.344796538352966309e-01 8.793036639690399170e-02 1.676215231418609619e-02
6.804572939872741699e-01 8.083544671535491943e-02 -4.772606864571571350e-02
9.634076058864593506e-02 1.330215111374855042e-02 2.209316790103912354e-01
5.685646533966064453e-01 2.556447125971317291e-02 -5.880773067474365234e-01
-2.703468799591064453e-01 5.202851071953773499e-02 3.573670983314514160e-01
7.261158227920532227e-01 7.349063456058502197e-02 -3.784674406051635742e-01
2.556687593460083008e-01 2.951100096106529236e-02 7.155431509017944336e-01
1.916408538818359375e-03 8.405879884958267212e-02 -5.492357909679412842e-02
1.278608590364456177e-01 8.518145233392715454e-02 2.587736845016479492e-01
6.057807207107543945e-01 1.926062814891338348e-02 3.456749320030212402e-01
1.080405116081237793e-01 8.109141886234283447e-02 -4.359215795993804932e-01
1.259952038526535034e-01 6.424785405397415161e-02 7.321843504905700684e-01
-3.900745511054992676e-02 7.863417267799377441e-02 -3.350156545639038086e-01
9.416706860065460205e-02 7.857924699783325195e-02 -4.986691772937774658e-01
4.925529956817626953e-01 1.662451028823852539e-02 -4.146630764007568359e-01
4.132390022277832031e-04 8.250661194324493408e-02 -2.228662371635437012e-01
4.725822210311889648e-01 2.580536715686321259e-02 -6.498175859451293945e-01
9.186592102050781250e-01 5.542220175266265869e-02 4.819083586335182190e-02
-5.254313349723815918e-02 2.880301885306835175e-02 5.464158654212951660e-01
3.027302324771881104e-01 1.756570860743522644e-02 4.942041039466857910e-01
7.031698226928710938e-01 7.009495049715042114e-02 4.354774355888366699e-01
2.694110572338104248e-01 9.757339954376220703e-03 -3.526519611477851868e-02
6.159801483154296875e-01 8.322967588901519775e-02 6.598917394876480103e-02
6.457800269126892090e-01 1.996874436736106873e-02 -3.498154282569885254e-01
8.885577321052551270e-01 4.545649886131286621e-02 -3.255140483379364014e-01
-5.484426021575927734e-02 1.671839132905006409e-02 4.691405594348907471e-02
1.357338726520538330e-01 7.066117972135543823e-02 -6.768677234649658203e-01
7.081601619720458984e-01 2.118396759033203125e-02 2.096858322620391846e-01
2.262241989374160767e-01 8.236548304557800293e-02 -4.630439877510070801e-01
-9.483131766319274902e-02 7.612216472625732422e-02 -3.171697258949279785e-01
4.070161581039428711e-01 8.751530945301055908e-02 1.432587802410125732e-01
2.624135613441467285e-01 8.881743252277374268e-02 -1.029585208743810654e-02
2.195636928081512451e-01 7.654158771038055420e-02 -6.097643375396728516e-01
2.304475903511047363e-01 2.581088989973068237e-02 6.621448993682861328e-01
7.559842467308044434e-01 7.638350874185562134e-02 -1.085409149527549744e-01
-1.461839973926544189e-01 7.712332904338836670e-02 3.076957166194915771e-02
7.128953933715820312e-01 7.793592661619186401e-02 -2.158096432685852051e-01
3.049052059650421143e-01 5.426885932683944702e-02 -8.425126671791076660e-01
7.355688810348510742e-01 7.659094780683517456e-02 1.436799466609954834e-01
6.191695928573608398e-01 7.313461601734161377e-02 -5.462211370468139648e-01
2.460425049066543579e-01 7.970486581325531006e-02 -5.449856519699096680e-01
2.263095080852508545e-01 1.793798059225082397e-02 -5.045868158340454102e-01
6.421585083007812500e-01 6.869621574878692627e-02 5.398968458175659180e-01
-1.901030242443084717e-01 6.440528482198715210e-02 4.213755726814270020e-01
1.848199069499969482e-01 8.690253645181655884e-02 -2.245151698589324951e-01
4.977920651435852051e-02 7.622747868299484253e-02 -5.191757082939147949e-01
4.132695496082305908e-01 8.523111045360565186e-02 -3.402239680290222168e-01
3.096341490745544434e-01 7.131727784872055054e-02 6.790318489074707031e-01
7.133595943450927734e-01 7.868903875350952148e-02 -1.468385756015777588e-01
1.834582090377807617e-01 1.677441969513893127e-02 -4.522097706794738770e-01
-2.891249060630798340e-01 3.635613247752189636e-02 -7.119838893413543701e-02
7.760874629020690918e-01 7.470856606960296631e-02 6.897672265768051147e-02
1.916264891624450684e-01 2.162610925734043121e-02 5.780825018882751465e-01
1.802827119827270508e-01 8.611417561769485474e-02 -2.753193378448486328e-01
1.800924837589263916e-01 1.302641257643699646e-02 -2.954311668872833252e-01
-7.904940843582153320e-02 7.599765807390213013e-02 3.562185168266296387e-01
3.412075340747833252e-01 1.720694079995155334e-02 -4.962235391139984131e-01
4.393744170665740967e-01 3.282009437680244446e-02 -7.536488175392150879e-01
6.837281584739685059e-01 7.512129098176956177e-02 -4.104001224040985107e-01
7.255258560180664062e-01 5.387015640735626221e-02 5.776967406272888184e-01
5.984852313995361328e-01 1.443173736333847046e-02 2.931904420256614685e-02
-1.069066226482391357e-01 7.798062264919281006e-02 -1.943834722042083740e-01
2.678490579128265381e-01 1.230365782976150513e-02 2.918110489845275879e-01
3.062313795089721680e-02 1.709873229265213013e-02 -3.220187425613403320e-01
6.413520574569702148e-01 1.635534688830375671e-02 -1.324696540832519531e-01
8.518345355987548828e-01 6.107740104198455811e-02 -3.557513952255249023e-01
-1.444077491760253906e-01 6.286880373954772949e-02 5.220886468887329102e-01
2.111641466617584229e-01 2.153602428734302521e-02 -5.877257585525512695e-01
7.448135614395141602e-01 2.124248072504997253e-02 1.457227021455764771e-02
1.096265465021133423e-01 1.215047016739845276e-02 1.413023769855499268e-01
2.657055854797363281e-02 8.272194862365722656e-02 -2.660722136497497559e-01
3.206980228424072266e-01 3.428802639245986938e-02 -7.839372158050537109e-01
1.877748966217041016e-02 1.395713165402412415e-02 3.993260115385055542e-02
3.845244646072387695e-03 1.940791495144367218e-02 -3.734458386898040771e-01
4.161828160285949707e-01 8.605148643255233765e-02 2.470482587814331055e-01
7.276606559753417969e-01 3.007870353758335114e-02 -4.904935657978057861e-01
-2.611892223358154297e-01 6.242598593235015869e-02 2.632250487804412842e-01
5.071228146553039551e-01 1.223834604024887085e-02 9.976530820131301880e-02
5.645930767059326172e-03 3.071359917521476746e-02 -6.205314993858337402e-01
5.941789150238037109e-01 7.134553790092468262e-02 -6.032289266586303711e-01
7.750771045684814453e-01 3.444308042526245117e-02 -4.831127226352691650e-01
6.553158760070800781e-01 2.221245132386684418e-02 -4.128208458423614502e-01
5.615239739418029785e-01 7.612861692905426025e-02 4.796441495418548584e-01
2.000759541988372803e-01 1.537133753299713135e-02 4.085589349269866943e-01
8.609762191772460938e-01 6.727544963359832764e-02 -3.857883438467979431e-02
5.150173902511596680e-01 1.203183457255363464e-02 7.165310904383659363e-03
7.375828027725219727e-01 2.173820137977600098e-02 1.319155693054199219e-01
8.246360719203948975e-02 7.019902020692825317e-02 -6.535730957984924316e-01
8.006389141082763672e-01 2.857301011681556702e-02 2.293815314769744873e-01
2.579849362373352051e-01 8.794679492712020874e-02 -1.887720525264739990e-01
7.977626323699951172e-01 3.023846074938774109e-02 2.887303531169891357e-01
6.114724874496459961e-01 2.713781222701072693e-02 5.355142951011657715e-01
7.911751270294189453e-01 2.466855756938457489e-02 4.482353478670120239e-02
3.949744403362274170e-01 2.626618929207324982e-02 -6.815354824066162109e-01
8.645561933517456055e-01 3.749852627515792847e-02 2.415014207363128662e-01
5.953609943389892578e-01 8.368215709924697876e-02 -1.649275422096252441e-01
7.529754936695098877e-02 1.245656982064247131e-02 -5.722530931234359741e-02
-1.401855349540710449e-01 3.937125951051712036e-02 5.670115947723388672e-01
7.882440090179443359e-02 1.370597630739212036e-02 -2.126790881156921387e-01
8.529307842254638672e-01 5.962950736284255981e-02 2.973842322826385498e-01
3.208535909652709961e-01 8.082993328571319580e-02 4.870624244213104248e-01
-2.580612897872924805e-02 6.524322181940078735e-02 -6.298723220825195312e-01
2.693839967250823975e-01 1.537339761853218079e-02 -4.348260164260864258e-01
1.731939464807510376e-01 8.356943726539611816e-02 -3.946789503097534180e-01
3.800522983074188232e-01 1.270291954278945923e-02 -3.128253817558288574e-01
8.682038784027099609e-01 6.613402068614959717e-02 1.783933490514755249e-02
-5.885103344917297363e-02 3.282088041305541992e-02 5.976744294166564941e-01
7.326282262802124023e-01 2.740144357085227966e-02 -4.245493113994598389e-01
-1.374576985836029053e-01 7.483386993408203125e-02 -2.585711181163787842e-01
4.587376415729522705e-01 1.729864999651908875e-02 4.333261251449584961e-01
1.142201274633407593e-01 1.464113593101501465e-02 -3.170873224735260010e-01
2.359724044799804688e-01 1.017533242702484131e-02 9.647011756896972656e-02
5.649577975273132324e-01 8.117197453975677490e-02 3.207730054855346680e-01
2.541972994804382324e-01 8.871911466121673584e-02 -6.394705176353454590e-02
1.198339611291885376e-01 2.547995187342166901e-02 6.233661770820617676e-01
4.228097200393676758e-01 8.493423461914062500e-02 3.027866482734680176e-01
-1.031383872032165527e-02 2.799937315285205841e-02 5.760060548782348633e-01
1.435337513685226440e-01 1.217488199472427368e-02 2.038912475109100342e-01
-8.905711770057678223e-02 1.832706667482852936e-02 -3.089447133243083954e-02
