-9.234550409018993378e-03 -3.680854439735412598e-01 2.030329704284667969e-01
-1.842922866344451904e-01 -4.398509860038757324e-01 6.739068031311035156e-02
1.396452188491821289e-01 -2.968707680702209473e-01 -3.729890659451484680e-02
2.616178430616855621e-02 -3.202505111694335938e-01 1.880151182413101196e-01
2.238696813583374023e-02 -6.968737840652465820e-01 -1.199140697717666626e-01
-7.947568595409393311e-02 -2.989549636840820312e-01 1.436951756477355957e-01
4.331602901220321655e-02 -2.505942583084106445e-01 8.102283626794815063e-02
8.119790256023406982e-02 -6.737149953842163086e-01 -1.870799660682678223e-01
1.759249716997146606e-01 -5.149982571601867676e-01 -2.041344940662384033e-01
1.429645270109176636e-01 -4.631151258945465088e-01 -2.249513864517211914e-01
-2.693126350641250610e-02 -6.586290597915649414e-01 -2.546975016593933105e-01
-6.414955854415893555e-02 -5.069856047630310059e-01 -2.188305258750915527e-01
-7.920459657907485962e-02 -4.778024554252624512e-01 -1.905160844326019287e-01
-1.087707281112670898e-01 -6.896032691001892090e-01 -9.196290373802185059e-02
9.035471081733703613e-02 -3.348898589611053467e-01 1.534897387027740479e-01
-1.440929174423217773e-01 -3.892021179199218750e-01 -1.842106319963932037e-02
-4.584592953324317932e-02 -4.220801293849945068e-01 -1.744891554117202759e-01
-1.359046846628189087e-01 -5.329888463020324707e-01 -1.609460562467575073e-01
-1.201224774122238159e-01 -3.597476482391357422e-01 -1.847945898771286011e-02
-3.426422923803329468e-02 -2.670189738273620605e-01 1.161067932844161987e-01
-1.515786647796630859e-01 -6.491864919662475586e-01 -3.693000227212905884e-02
2.952746674418449402e-02 -3.531907200813293457e-01 1.917795836925506592e-01
6.159621104598045349e-02 -4.308980405330657959e-01 -2.228179425001144409e-01
-5.728861689567565918e-02 -5.660901069641113281e-01 1.181396842002868652e-01
1.575636714696884155e-01 -3.041568696498870850e-01 6.920989602804183960e-03
-9.802168607711791992e-02 -4.944942891597747803e-01 -1.838510036468505859e-01
5.966831464320421219e-03 -6.565389633178710938e-01 -2.642728090286254883e-01
-1.610086262226104736e-01 -6.333160400390625000e-01 -1.779784820973873138e-02
-2.175895497202873230e-02 -6.993247866630554199e-01 -8.748795092105865479e-02
-8.909097872674465179e-03 -4.189399182796478271e-01 1.945386379957199097e-01
-1.906259804964065552e-01 -4.709877669811248779e-01 6.578350812196731567e-02
1.174127459526062012e-01 -2.788565754890441895e-01 8.034248650074005127e-02
1.384041160345077515e-01 -6.070029139518737793e-01 -9.582544863224029541e-02
-1.411322653293609619e-01 -6.004709005355834961e-01 -1.671027988195419312e-01
4.186542704701423645e-02 -3.244696259498596191e-01 -1.136442050337791443e-01
5.204919353127479553e-02 -6.723613739013671875e-01 -2.416319549083709717e-01
1.819585822522640228e-02 -2.516784071922302246e-01 8.587481826543807983e-02
1.237485036253929138e-01 -4.427695274353027344e-01 -2.229436933994293213e-01
-3.948213905096054077e-02 -6.140815615653991699e-01 -2.603687644004821777e-01
-1.198430433869361877e-01 -3.357938528060913086e-01 1.376102864742279053e-01
-2.636858262121677399e-02 -6.775308251380920410e-01 -3.158509731292724609e-02
-1.273105852305889130e-02 -7.069349288940429688e-01 -1.908071935176849365e-01
1.651558093726634979e-02 -2.934638857841491699e-01 1.779031157493591309e-01
1.764300316572189331e-01 -5.437275767326354980e-01 -1.914708763360977173e-01
-1.029810532927513123e-01 -3.424332141876220703e-01 -1.844452694058418274e-02
-9.069316089153289795e-02 -4.967108368873596191e-01 1.660350859165191650e-01
-1.690873503684997559e-02 -7.102928161621093750e-01 -1.550036072731018066e-01
9.925714880228042603e-02 -2.872808575630187988e-01 1.210604310035705566e-01
5.775501206517219543e-02 -6.183296442031860352e-01 -2.775666117668151855e-01
-1.165499091148376465e-01 -5.104476809501647949e-01 1.512042284011840820e-01
2.124108001589775085e-02 -5.147600769996643066e-01 -2.627885043621063232e-01
7.346263527870178223e-02 -4.170439243316650391e-01 -2.131823599338531494e-01
1.527459323406219482e-01 -5.871900916099548340e-01 -9.184700250625610352e-02
-9.814830869436264038e-02 -6.905379295349121094e-01 -1.610563546419143677e-01
-1.080658659338951111e-01 -3.317699432373046875e-01 1.551615595817565918e-01
-1.225483492016792297e-01 -4.878866672515869141e-01 1.604627817869186401e-01
-1.684167087078094482e-01 -5.553114414215087891e-01 8.112820982933044434e-02
-1.924158781766891479e-01 -5.154927372932434082e-01 5.783198773860931396e-02
1.395116895437240601e-01 -6.137021183967590332e-01 -2.034992724657058716e-01
-1.748736500740051270e-01 -5.985972285270690918e-01 -9.621124714612960815e-02
1.761962473392486572e-01 -5.621064901351928711e-01 -1.496877074241638184e-01
-9.788696467876434326e-02 -6.966883540153503418e-01 -1.193586066365242004e-01
-3.898834111168980598e-03 -5.284018516540527344e-01 1.362405568361282349e-01
1.921357512474060059e-01 -5.120998620986938477e-01 -9.127473831176757812e-02
-1.133386865258216858e-01 -4.552752673625946045e-01 1.772305965423583984e-01
-7.950424402952194214e-02 -5.299328565597534180e-01 -2.177427113056182861e-01
-1.294566392898559570e-01 -6.450183391571044922e-01 -1.702808290719985962e-01
2.010566890239715576e-01 -4.658201932907104492e-01 -1.322271227836608887e-01
-8.466266095638275146e-02 -4.475113153457641602e-01 -1.641610711812973022e-01
1.802438944578170776e-01 -3.609420955181121826e-01 -9.644378721714019775e-02
1.537592709064483643e-01 -3.126273453235626221e-01 5.467032641172409058e-02
2.017566263675689697e-01 -4.155634641647338867e-01 -4.924368113279342651e-02
4.439316689968109131e-02 -3.332130908966064453e-01 1.833553314208984375e-01
2.728039771318435669e-02 -2.519476413726806641e-01 6.003237515687942505e-02
-1.142355725169181824e-01 -6.195006370544433594e-01 -2.005014866590499878e-01
2.951887995004653931e-02 -3.965682387351989746e-01 -1.892515867948532104e-01
-3.985258564352989197e-02 -4.442732930183410645e-01 1.914729773998260498e-01
1.859962493181228638e-01 -5.145093798637390137e-01 -6.614162772893905640e-02
-1.437031431123614311e-03 -6.731672286987304688e-01 -2.518485784530639648e-01
6.550270318984985352e-02 -5.459877252578735352e-01 8.284854143857955933e-02
-2.394147450104355812e-03 -4.531010985374450684e-01 1.801896095275878906e-01
1.060873828828334808e-02 -2.878497838973999023e-01 -4.210030660033226013e-02
-5.813197791576385498e-02 -3.767741620540618896e-01 -1.206490099430084229e-01
-1.020866259932518005e-01 -3.805662393569946289e-01 -7.828712463378906250e-02
-1.287891417741775513e-01 -4.734018146991729736e-01 -1.356243938207626343e-01
1.505427360534667969e-01 -5.018243193626403809e-01 -2.341193109750747681e-01
5.720525234937667847e-02 -6.510441303253173828e-01 -4.311650246381759644e-02
-7.375014573335647583e-02 -6.894147396087646484e-01 -5.435876548290252686e-02
9.582478553056716919e-03 -5.687073469161987305e-01 -2.756665050983428955e-01
1.785378009080886841e-01 -3.653322160243988037e-01 3.149653971195220947e-02
1.946420669555664062e-01 -4.062875211238861084e-01 -1.203528344631195068e-01
-2.614842168986797333e-02 -6.227843165397644043e-01 5.287303030490875244e-02
1.193105708807706833e-02 -6.150247454643249512e-01 -2.779530882835388184e-01
-1.702291965484619141e-01 -4.178365468978881836e-01 1.116297841072082520e-01
2.606949210166931152e-02 -6.821366548538208008e-01 -2.400374859571456909e-01
-1.221537962555885315e-01 -6.827188730239868164e-01 -1.051460281014442444e-01
-1.595437675714492798e-01 -4.205511808395385742e-01 -2.989457920193672180e-02
1.072189584374427795e-01 -3.497185707092285156e-01 -1.462638527154922485e-01
-3.232002258300781250e-02 -6.609234809875488281e-01 4.912279546260833740e-04
1.881524026393890381e-01 -3.703683614730834961e-01 2.152573317289352417e-03
-1.222365424036979675e-01 -5.703883171081542969e-01 1.047242134809494019e-01
-5.772523209452629089e-02 -6.599512100219726562e-01 -2.380086630582809448e-01
-2.869707532227039337e-05 -3.380179703235626221e-01 -1.147200912237167358e-01
2.013583779335021973e-01 -4.021192789077758789e-01 -7.571014016866683960e-02
-6.921302527189254761e-02 -6.108919382095336914e-01 7.397416234016418457e-02
-4.822292365133762360e-03 -2.820722460746765137e-01 1.696207523345947266e-01
1.672830283641815186e-01 -5.704430341720581055e-01 -1.902228593826293945e-01
1.518233418464660645e-01 -4.605237841606140137e-01 5.566693842411041260e-02
1.660563796758651733e-01 -3.310835957527160645e-01 4.311651736497879028e-02
-1.818901896476745605e-01 -5.584613084793090820e-01 -8.305390179157257080e-02
-1.062843427062034607e-01 -4.361278116703033447e-01 1.852771788835525513e-01
1.289906352758407593e-01 -6.326642632484436035e-01 -1.712015420198440552e-01
-3.265556693077087402e-02 -2.948795557022094727e-01 -2.164773829281330109e-02
1.610416620969772339e-01 -4.838239252567291260e-01 2.484573423862457275e-02
2.041682749986648560e-01 -4.285488128662109375e-01 -7.574544847011566162e-02
1.577744260430335999e-02 -5.284543633460998535e-01 1.280488520860671997e-01
-3.449685499072074890e-02 -2.796086668968200684e-01 1.563502997159957886e-01
1.098426207900047302e-01 -6.403785943984985352e-01 -2.240517735481262207e-01
5.935407802462577820e-02 -4.302691221237182617e-01 1.610316783189773560e-01
2.380483970046043396e-02 -2.549858987331390381e-01 1.170592308044433594e-01
-4.966736957430839539e-02 -7.094818353652954102e-01 -1.330544650554656982e-01
-1.186893228441476822e-02 -4.823235571384429932e-01 1.685249060392379761e-01
-7.597082108259201050e-02 -3.113594651222229004e-01 1.694566011428833008e-01
-5.002190358936786652e-03 -3.245687484741210938e-01 -9.371934831142425537e-02
8.445830643177032471e-02 -5.602002739906311035e-01 5.282283574342727661e-02
-1.943458337336778641e-04 -6.981561779975891113e-01 -2.171711325645446777e-01
-1.158076897263526917e-02 -2.711675763130187988e-01 1.523449420928955078e-01
1.880386471748352051e-01 -5.290839672088623047e-01 -1.068112179636955261e-01
-1.132550090551376343e-01 -3.635893166065216064e-01 -3.756557404994964600e-02
7.943732198327779770e-04 -4.503901600837707520e-01 -2.212948948144912720e-01
-1.175947301089763641e-02 -3.890824913978576660e-01 2.016992866992950439e-01
-4.464195296168327332e-02 -3.938315510749816895e-01 -1.493928432464599609e-01
-4.934659227728843689e-02 -6.554958820343017578e-01 1.299997419118881226e-02
1.482012718915939331e-01 -2.948754429817199707e-01 2.484656870365142822e-02
-1.025421693921089172e-01 -3.419937491416931152e-01 1.729663163423538208e-01
-1.397264003753662109e-02 -5.814708471298217773e-01 9.435644745826721191e-02
-8.626945316791534424e-02 -5.566620826721191406e-01 1.258863508701324463e-01
1.965286768972873688e-02 -4.247101247310638428e-01 -2.095565646886825562e-01
5.388346686959266663e-02 -2.766080498695373535e-01 -3.503597527742385864e-02
-1.315749883651733398e-01 -5.565868020057678223e-01 -1.748672574758529663e-01
-1.141668260097503662e-01 -6.819164156913757324e-01 -1.491940617561340332e-01
-1.361090540885925293e-01 -3.922017514705657959e-01 -4.021543264389038086e-02
-1.242000795900821686e-02 -4.234930872917175293e-01 -1.954574882984161377e-01
1.304296553134918213e-01 -4.770434200763702393e-01 -2.384154200553894043e-01
-1.097151041030883789e-01 -3.213640451431274414e-01 5.244977772235870361e-02
1.993468701839447021e-01 -3.925448060035705566e-01 -4.668496549129486084e-02
1.031223684549331665e-01 -4.431896805763244629e-01 -2.290739864110946655e-01
-1.252291500568389893e-01 -4.421813488006591797e-01 -1.146441325545310974e-01
-5.925428122282028198e-02 -3.547381162643432617e-01 -9.289626777172088623e-02
3.122205659747123718e-02 -4.954085946083068848e-01 1.434686779975891113e-01
-8.179645240306854248e-02 -6.916477680206298828e-01 -1.847374588251113892e-01
-1.742119491100311279e-01 -4.986044168472290039e-01 -7.669218629598617554e-02
7.409974187612533569e-02 -5.775858163833618164e-01 4.406329989433288574e-02
-9.788911789655685425e-03 -4.668577313423156738e-01 -2.275138050317764282e-01
-1.025032252073287964e-02 -5.599088668823242188e-01 -2.676442861557006836e-01
1.695790141820907593e-01 -5.144046545028686523e-01 -2.002814039587974548e-02
-6.879695504903793335e-02 -6.289411187171936035e-01 -2.408711463212966919e-01
-1.197689101099967957e-01 -6.376410722732543945e-01 -1.885094642639160156e-01
-1.098990738391876221e-01 -5.594985485076904297e-01 -2.004604637622833252e-01
-3.844432905316352844e-02 -2.853425443172454834e-01 7.456798106431961060e-03
-1.264236718416213989e-01 -3.339713215827941895e-01 8.999368548393249512e-02
1.925030648708343506e-01 -4.938162863254547119e-01 -6.229162961244583130e-02
-3.486556932330131531e-02 -5.800382494926452637e-01 1.017984300851821899e-01
9.465275704860687256e-02 -6.630688309669494629e-01 -1.510450839996337891e-01
-8.010389655828475952e-02 -3.440959453582763672e-01 -5.510398745536804199e-02
-1.274987310171127319e-01 -6.700115799903869629e-01 -4.741311818361282349e-02
1.932836025953292847e-01 -5.172313451766967773e-01 -1.329326480627059937e-01
-1.356016844511032104e-01 -4.989744126796722412e-01 1.480217874050140381e-01
-1.921966373920440674e-01 -5.654830932617187500e-01 -3.448776528239250183e-02
-1.396614164113998413e-01 -6.517024040222167969e-01 -1.790496148169040680e-02
7.626449316740036011e-02 -2.829388380050659180e-01 1.394467502832412720e-01
4.807950463145971298e-04 -2.598668932914733887e-01 1.287283599376678467e-01
-9.841274470090866089e-02 -6.048654317855834961e-01 -2.182312458753585815e-01
1.943596899509429932e-01 -4.535188674926757812e-01 -2.956326305866241455e-02
1.591659784317016602e-01 -5.867365002632141113e-01 -1.162756010890007019e-01
-7.745891809463500977e-02 -7.043660283088684082e-01 -1.355280578136444092e-01
-1.857514381408691406e-01 -5.910597443580627441e-01 -5.090111494064331055e-02
1.977193653583526611e-01 -4.373704791069030762e-01 -1.370336115360260010e-01
7.541768252849578857e-02 -4.943632185459136963e-01 -2.596834301948547363e-01
-1.732897609472274780e-01 -5.810092091560363770e-01 -1.064506024122238159e-01
-1.585381925106048584e-01 -4.784161150455474854e-01 -9.374302625656127930e-02
-2.844826318323612213e-02 -5.299564599990844727e-01 -2.504806518554687500e-01
1.855012327432632446e-01 -5.277882814407348633e-01 -1.734005212783813477e-01
-7.138552516698837280e-02 -4.916095137596130371e-01 -2.051862925291061401e-01
4.590404033660888672e-02 -6.309186816215515137e-01 1.197848469018936157e-03
-9.524621069431304932e-02 -6.877538561820983887e-01 -6.160594522953033447e-02
-1.855794638395309448e-01 -4.924460649490356445e-01 -4.021674767136573792e-02
-3.087582252919673920e-02 -6.367146372795104980e-01 3.623386472463607788e-02
-3.431664407253265381e-02 -3.173188567161560059e-01 1.937070935964584351e-01
3.310840204358100891e-02 -5.761141180992126465e-01 7.685098052024841309e-02
-1.865293979644775391e-01 -5.384378433227539062e-01 -6.444074213504791260e-02
-1.385814696550369263e-01 -3.595376610755920410e-01 1.315810084342956543e-01
6.049756705760955811e-02 -6.736711263656616211e-01 -9.987102448940277100e-02
2.488156035542488098e-02 -6.964303255081176758e-01 -2.098475694656372070e-01
-1.156472191214561462e-01 -3.818701505661010742e-01 -6.080345064401626587e-02
-1.550734639167785645e-01 -4.180047810077667236e-01 1.453431099653244019e-01
-3.723158687353134155e-02 -5.177131891250610352e-01 1.527720242738723755e-01
-1.362938135862350464e-01 -4.699670076370239258e-01 1.597702056169509888e-01
-1.595678925514221191e-02 -5.065703988075256348e-01 -2.464042156934738159e-01
1.384277939796447754e-01 -5.028384923934936523e-01 4.415113478899002075e-02
1.680938899517059326e-01 -3.221104741096496582e-01 -4.078679531812667847e-02
1.439390629529953003e-01 -4.085765182971954346e-01 -1.889244467020034790e-01
9.081292897462844849e-02 -4.064244329929351807e-01 -2.042014598846435547e-01
1.622264832258224487e-01 -5.009988546371459961e-01 8.177176117897033691e-03
2.016521058976650238e-02 -4.580038487911224365e-01 -2.330378293991088867e-01
5.396026000380516052e-02 -2.967872619628906250e-01 -7.430104911327362061e-02
1.576957255601882935e-01 -5.952606797218322754e-01 -1.604646742343902588e-01
3.203073516488075256e-02 -3.925364017486572266e-01 1.869872361421585083e-01
-1.841382235288619995e-01 -4.726112484931945801e-01 9.384356439113616943e-02
1.121090203523635864e-01 -2.697970271110534668e-01 1.676729694008827209e-02
6.434170156717300415e-02 -6.192392706871032715e-01 1.136969774961471558e-03
1.585456579923629761e-01 -3.186319470405578613e-01 -5.886833369731903076e-02
-8.127873390913009644e-02 -6.400201320648193359e-01 -2.285442054271697998e-01
-1.603982895612716675e-01 -4.999317824840545654e-01 1.270366162061691284e-01
-8.832572400569915771e-02 -5.083436965942382812e-01 -2.003591060638427734e-01
-3.257202729582786560e-02 -2.906227707862854004e-01 1.732846796512603760e-01
1.166003644466400146e-01 -2.873265743255615234e-01 -4.126670584082603455e-02
-1.754623502492904663e-01 -5.402326583862304688e-01 -9.581372141838073730e-02
-8.946100622415542603e-02 -6.468861699104309082e-01 2.514111250638961792e-02
-1.798333674669265747e-01 -5.861603617668151855e-01 2.511933445930480957e-02
-1.219959780573844910e-01 -6.215345859527587891e-01 4.883179068565368652e-02
1.269784569740295410e-01 -3.510270714759826660e-01 1.185305714607238770e-01
1.059321537613868713e-01 -3.704009950160980225e-01 -1.691514700651168823e-01
-5.991946160793304443e-02 -6.384130716323852539e-01 3.921165317296981812e-02
-2.791424654424190521e-02 -6.832709908485412598e-01 -2.357721924781799316e-01
1.432408839464187622e-01 -3.421351909637451172e-01 -1.192386075854301453e-01
1.173113137483596802e-01 -3.928841352462768555e-01 -1.875811368227005005e-01
1.953651458024978638e-01 -3.829431533813476562e-01 -8.302806317806243896e-02
1.265787780284881592e-01 -5.749781727790832520e-01 -2.553412318229675293e-01
-1.754791587591171265e-01 -4.400422871112823486e-01 1.105916202068328857e-01
1.921835541725158691e-01 -5.120278000831604004e-01 -1.570459306240081787e-01
-1.125716138631105423e-02 -2.576289176940917969e-01 9.429171681404113770e-02
1.587043702602386475e-02 -4.309605360031127930e-01 1.827448606491088867e-01
-1.907432228326797485e-01 -4.961431622505187988e-01 7.058215886354446411e-02
-1.208724901080131531e-01 -3.991410136222839355e-01 1.796673238277435303e-01
2.966771274805068970e-02 -2.727516293525695801e-01 1.545965373516082764e-01
1.353147625923156738e-01 -3.715173304080963135e-01 1.085252463817596436e-01
-2.586167864501476288e-02 -3.525311946868896484e-01 2.043286412954330444e-01
-1.571020483970642090e-01 -6.482031941413879395e-01 -5.993667617440223694e-02
-1.818541586399078369e-01 -4.357038140296936035e-01 2.807575464248657227e-02
5.325490608811378479e-03 -3.211818933486938477e-01 1.940165460109710693e-01
-1.379003375768661499e-01 -4.234746098518371582e-01 -7.698728889226913452e-02
1.425767093896865845e-01 -4.800718426704406738e-01 5.593221634626388550e-02
7.620505988597869873e-02 -6.554535627365112305e-01 -7.768173515796661377e-02
8.946485817432403564e-02 -3.301839530467987061e-01 -1.251611411571502686e-01
1.665432006120681763e-01 -5.804430842399597168e-01 -1.458575427532196045e-01
1.135552152991294861e-01 -2.698252797126770020e-01 5.582971870899200439e-02
-9.621927514672279358e-03 -4.999001622200012207e-01 1.575693935155868530e-01
9.566024690866470337e-02 -5.367834568023681641e-01 6.450568884611129761e-02
1.709228456020355225e-01 -5.487682819366455078e-01 -7.102040946483612061e-02
-1.322527527809143066e-01 -4.176484942436218262e-01 1.716928184032440186e-01
7.822471857070922852e-02 -3.138344287872314453e-01 1.575887799263000488e-01
-1.584029495716094971e-01 -5.823792219161987305e-01 6.675276905298233032e-02
-7.338619977235794067e-02 -3.811683654785156250e-01 2.014375329017639160e-01
8.949000388383865356e-02 -3.783080577850341797e-01 -1.793684363365173340e-01
1.687498539686203003e-01 -3.376802802085876465e-01 -7.957989722490310669e-02
1.040482670068740845e-01 -4.184090495109558105e-01 1.312948465347290039e-01
-8.307185024023056030e-02 -6.660372018814086914e-01 -5.429059267044067383e-03
-1.935791969299316406e-01 -5.551547408103942871e-01 1.511869579553604126e-02
-6.617829948663711548e-02 -5.640830397605895996e-01 -2.389914393424987793e-01
1.101284399628639221e-01 -6.279923319816589355e-01 -7.638209313154220581e-02
7.226160913705825806e-02 -3.392481207847595215e-01 -1.372332572937011719e-01
3.012038767337799072e-02 -3.749785423278808594e-01 -1.690239310264587402e-01
1.087353900074958801e-01 -3.576930761337280273e-01 1.386044174432754517e-01
1.812586635351181030e-01 -4.723862409591674805e-01 -6.712224334478378296e-03
-1.076643690466880798e-01 -3.609365522861480713e-01 1.797504127025604248e-01
-1.662210375070571899e-01 -4.352506995201110840e-01 1.303310543298721313e-01
-1.067567393183708191e-01 -3.809733688831329346e-01 1.868641972541809082e-01
-1.622060127556324005e-02 -6.297151446342468262e-01 -2.684210538864135742e-01
1.686506569385528564e-01 -3.763113617897033691e-01 -1.367974579334259033e-01
-3.943520784378051758e-02 -3.679529130458831787e-01 2.055703401565551758e-01
1.432831436395645142e-01 -5.661231875419616699e-01 -2.411603480577468872e-01
1.839241683483123779e-01 -3.523834645748138428e-01 -6.742668151855468750e-02
1.455153822898864746e-01 -3.198367357254028320e-01 8.064434677362442017e-02
5.028270930051803589e-02 -3.072110712528228760e-01 1.727887988090515137e-01
4.302863497287034988e-03 -7.065802812576293945e-01 -1.796743124723434448e-01
-1.304864138364791870e-01 -6.649302244186401367e-01 -1.466825604438781738e-01
-1.808467060327529907e-01 -6.012489795684814453e-01 -8.681973442435264587e-03
1.350371390581130981e-01 -6.207950115203857422e-01 -1.270722150802612305e-01
-8.018035441637039185e-02 -7.012761831283569336e-01 -1.577037870883941650e-01
-1.470036655664443970e-01 -4.857878088951110840e-01 -1.187198981642723083e-01
5.082443729043006897e-02 -4.855937063694000244e-01 1.384463459253311157e-01
1.562842428684234619e-01 -5.709130764007568359e-01 -6.844854354858398438e-02
1.245078258216381073e-02 -5.095472335815429688e-01 1.431182920932769775e-01
-6.141132116317749023e-02 -7.044674754142761230e-01 -1.748169213533401489e-01
1.018257737159729004e-01 -6.146480441093444824e-01 -3.706049919128417969e-02
-1.083212271332740784e-01 -5.986186265945434570e-01 8.193907141685485840e-02
6.841401010751724243e-02 -4.832479953765869141e-01 1.281177252531051636e-01
2.029288262128829956e-01 -4.644076526165008545e-01 -8.718398213386535645e-02
-1.820042133331298828e-01 -5.400177240371704102e-01 7.120184600353240967e-02
9.543459862470626831e-02 -6.259837150573730469e-01 -2.576739192008972168e-01
-9.469328820705413818e-02 -3.051289021968841553e-01 6.734009832143783569e-02
3.333646338433027267e-03 -7.066475749015808105e-01 -1.467010974884033203e-01
1.648125350475311279e-01 -3.134065270423889160e-01 -1.323173195123672485e-02
-1.819221377372741699e-01 -5.886410474777221680e-01 -7.619608938694000244e-02
7.507835328578948975e-02 -4.192681312561035156e-01 1.545804142951965332e-01
1.859558559954166412e-02 -4.795512557029724121e-01 1.590344309806823730e-01
9.384258836507797241e-02 -3.728260695934295654e-01 1.512090861797332764e-01
1.926169693470001221e-01 -4.926730990409851074e-01 -1.660323292016983032e-01
-1.441205590963363647e-01 -5.108116269111633301e-01 -1.387870609760284424e-01
-5.682363174855709076e-03 -6.196578741073608398e-01 4.904669523239135742e-02
6.793618947267532349e-02 -4.502805471420288086e-01 -2.362286299467086792e-01
-4.041376709938049316e-02 -5.051990151405334473e-01 -2.332534641027450562e-01
1.104967668652534485e-03 -5.209644436836242676e-01 -2.593604922294616699e-01
-3.740254789590835571e-02 -4.975149631500244141e-01 1.655504554510116577e-01
-2.952910400927066803e-02 -4.086487591266632080e-01 -1.734276264905929565e-01
7.279457151889801025e-02 -6.631592512130737305e-01 -2.382892519235610962e-01
1.862766444683074951e-01 -4.642319679260253906e-01 -1.780586391687393188e-01
3.836755082011222839e-02 -5.222439169883728027e-01 1.208795458078384399e-01
1.890415549278259277e-01 -3.561591506004333496e-01 -3.629144281148910522e-02
-8.879444748163223267e-02 -6.825626492500305176e-01 -4.254280403256416321e-02
-1.890407502651214600e-01 -5.836733579635620117e-01 -2.722225151956081390e-02
-1.239835545420646667e-01 -6.507599353790283203e-01 2.066291868686676025e-03
-1.614298671483993530e-01 -3.890649974346160889e-01 4.216250032186508179e-02
4.254064336419105530e-02 -4.415701925754547119e-01 -2.276491373777389526e-01
-1.454121470451354980e-01 -6.626365184783935547e-01 -8.401027321815490723e-02
6.321043521165847778e-02 -6.822714805603027344e-01 -2.038867473602294922e-01
1.407165825366973877e-01 -5.934820771217346191e-01 -7.188886404037475586e-02
-1.582858264446258545e-01 -4.080557227134704590e-01 -1.383106969296932220e-02
-2.340414794161915779e-03 -4.861871898174285889e-01 -2.418241351842880249e-01
-8.673612773418426514e-02 -5.874184370040893555e-01 9.804013371467590332e-02
2.823262475430965424e-02 -6.743144989013671875e-01 -6.019998714327812195e-02
7.556799054145812988e-02 -5.224850773811340332e-01 9.481346607208251953e-02
1.842103451490402222e-01 -4.868362247943878174e-01 -2.695111930370330811e-02
-1.735879778861999512e-01 -4.336509108543395996e-01 -8.435927331447601318e-03
-7.963702082633972168e-02 -4.781695008277893066e-01 1.770324409008026123e-01
-3.243606165051460266e-02 -6.089628338813781738e-01 7.103702425956726074e-02
1.428128033876419067e-01 -4.221304953098297119e-01 8.725875616073608398e-02
2.637781016528606415e-02 -3.527412414550781250e-01 -1.440384685993194580e-01
-1.464590057730674744e-02 -2.646674811840057373e-01 4.180123656988143921e-02
8.724398910999298096e-02 -2.642259001731872559e-01 5.799256265163421631e-03
-7.031612098217010498e-02 -3.059316277503967285e-01 3.224492073059082031e-03
-1.502987146377563477e-01 -5.583931207656860352e-01 -1.489782035350799561e-01
1.660711020231246948e-01 -5.536819100379943848e-01 -2.108182013034820557e-01
-3.289986029267311096e-02 -4.721642136573791504e-01 -2.191761732101440430e-01
1.283354759216308594e-01 -2.816141247749328613e-01 -5.269344896078109741e-03
1.129302382469177246e-02 -3.442112207412719727e-01 1.974275559186935425e-01
-7.984150201082229614e-02 -2.931763827800750732e-01 1.214961260557174683e-01
-5.649511143565177917e-02 -3.107036054134368896e-01 -2.654189243912696838e-02
-1.631221175193786621e-01 -3.887255191802978516e-01 8.800035715103149414e-02
-1.626850515604019165e-01 -5.633773803710937500e-01 -1.287159174680709839e-01
-2.790184505283832550e-02 -3.588743507862091064e-01 -1.233934685587882996e-01
9.718179702758789062e-02 -5.066500306129455566e-01 8.816507458686828613e-02
1.115937605500221252e-01 -5.253158211708068848e-01 -2.627112865447998047e-01
-1.609785482287406921e-02 -6.052795648574829102e-01 -2.708653211593627930e-01
-9.904203563928604126e-02 -4.259497523307800293e-01 -1.313439905643463135e-01
-1.481997370719909668e-01 -5.281055569648742676e-01 1.224223375320434570e-01
8.097257465124130249e-02 -2.843379378318786621e-01 -5.146829411387443542e-02
1.344321519136428833e-01 -6.255463957786560059e-01 -1.499603986740112305e-01
-1.517837345600128174e-01 -6.053572893142700195e-01 4.647698998451232910e-02
5.783026292920112610e-02 -5.294232368469238281e-01 -2.728898525238037109e-01
1.045973822474479675e-01 -6.563857197761535645e-01 -1.760917901992797852e-01
3.138228552415966988e-03 -3.830459415912628174e-01 -1.668326854705810547e-01
1.557658016681671143e-01 -5.314808487892150879e-01 -2.324782907962799072e-01
-1.078407987952232361e-01 -4.603600502014160156e-01 -1.508424878120422363e-01
1.698960661888122559e-01 -3.695206940174102783e-01 5.309406667947769165e-02
-3.680208697915077209e-02 -3.487195372581481934e-01 -1.044230908155441284e-01
-1.940746456384658813e-01 -5.450723767280578613e-01 -3.095517493784427643e-02
-6.739469617605209351e-02 -3.273068368434906006e-01 -4.348265007138252258e-02
-1.705902665853500366e-01 -4.751181900501251221e-01 1.223460882902145386e-01
-6.131539493799209595e-02 -7.040572166442871094e-01 -1.010433956980705261e-01
-1.141350790858268738e-01 -5.139522552490234375e-01 -1.780669987201690674e-01
-4.321217536926269531e-02 -7.001715898513793945e-01 -8.346792310476303101e-02
5.099816992878913879e-02 -5.870569944381713867e-01 5.294572561979293823e-02
-6.815518438816070557e-02 -5.370706319808959961e-01 1.420334279537200928e-01
1.708102226257324219e-01 -4.076812863349914551e-01 -1.652707606554031372e-01
-2.821959368884563446e-02 -3.206568062305450439e-01 -7.172144949436187744e-02
-9.469557553529739380e-02 -5.773547291755676270e-01 -2.191767096519470215e-01
5.068957805633544922e-02 -3.725225329399108887e-01 1.808782964944839478e-01
1.469922065734863281e-01 -3.401579260826110840e-01 8.857391774654388428e-02
-1.145270690321922302e-01 -3.964642286300659180e-01 -8.118127286434173584e-02
1.036553606390953064e-01 -3.138484954833984375e-01 1.350012868642807007e-01
-1.653729975223541260e-01 -6.135993599891662598e-01 1.395320892333984375e-02
-1.637300848960876465e-02 -2.828899025917053223e-01 -1.130500249564647675e-02
2.834096923470497131e-02 -3.148556649684906006e-01 -9.583044052124023438e-02
-7.175990194082260132e-02 -4.589733779430389404e-01 -1.838938146829605103e-01
-3.208236023783683777e-02 -3.962115347385406494e-01 2.034742981195449829e-01
1.158950477838516235e-01 -5.946522951126098633e-01 -2.679023891687393188e-02
1.956220418214797974e-01 -4.554459452629089355e-01 -1.526176631450653076e-01
1.490398198366165161e-01 -5.834860801696777344e-01 -2.233827561140060425e-01
1.685309559106826782e-01 -4.494383931159973145e-01 -1.966855078935623169e-01
-1.962592303752899170e-01 -5.215140581130981445e-01 -9.046016260981559753e-03
1.049671843647956848e-01 -3.900819420814514160e-01 1.385784298181533813e-01
7.269188016653060913e-02 -3.143777847290039062e-01 -1.039090976119041443e-01
-1.452328860759735107e-01 -3.686180114746093750e-01 2.870448678731918335e-02
3.571769222617149353e-02 -5.458134412765502930e-01 1.034644246101379395e-01
7.923901081085205078e-02 -6.692407131195068359e-01 -1.248345002532005310e-01
5.843011662364006042e-02 -2.644174098968505859e-01 -3.997527062892913818e-03
2.632991038262844086e-02 -6.319515109062194824e-01 -2.760658264160156250e-01
5.953185260295867920e-02 -3.783243000507354736e-01 -1.786202043294906616e-01
-1.442466229200363159e-01 -3.747661113739013672e-01 9.912375360727310181e-03
1.344160884618759155e-01 -4.254126250743865967e-01 -2.068288326263427734e-01
-1.678240112960338593e-02 -2.956447601318359375e-01 -3.797188028693199158e-02
1.033101603388786316e-01 -4.553450644016265869e-01 1.154978722333908081e-01
1.145890280604362488e-01 -2.955746948719024658e-01 1.099565029144287109e-01
2.001306563615798950e-01 -4.533012509346008301e-01 -5.361641943454742432e-02
-3.050756640732288361e-02 -5.930507779121398926e-01 -2.644479274749755859e-01
-1.032295869663357735e-03 -6.876171231269836426e-01 -2.361063063144683838e-01
8.628100156784057617e-03 -5.540796518325805664e-01 1.105321943759918213e-01
8.551705628633499146e-02 -2.611607611179351807e-01 8.971083164215087891e-02
1.754131913185119629e-01 -4.247740209102630615e-01 3.370772302150726318e-02
-1.793112158775329590e-01 -6.108632087707519531e-01 -3.741767257452011108e-02
-4.987743124365806580e-02 -5.436438918113708496e-01 -2.436173111200332642e-01
5.961940158158540726e-03 -5.800496339797973633e-01 8.763797581195831299e-02
1.462130695581436157e-01 -6.106551885604858398e-01 -1.793888509273529053e-01
-1.076822578907012939e-01 -3.148092031478881836e-01 1.068356633186340332e-01
1.885652989149093628e-01 -4.279310703277587891e-01 1.787766814231872559e-03
1.871190369129180908e-01 -4.034798145294189453e-01 1.217540353536605835e-02
1.196376681327819824e-01 -6.025848388671875000e-01 -4.550082236528396606e-02
9.901121258735656738e-02 -6.550843119621276855e-01 -2.132540494203567505e-01
-1.648051887750625610e-01 -6.125369668006896973e-01 -1.177026480436325073e-01
-5.784700810909271240e-02 -2.905485033988952637e-01 2.278731763362884521e-02
1.754809729754924774e-02 -4.601678252220153809e-01 1.696431338787078857e-01
1.777432560920715332e-01 -3.326530456542968750e-01 -2.145406790077686310e-02
-1.191609427332878113e-01 -5.779045820236206055e-01 -1.944918632507324219e-01
-1.229880675673484802e-01 -6.625185012817382812e-01 -2.112967520952224731e-02
4.673223942518234253e-02 -6.919941902160644531e-01 -1.486009657382965088e-01
-8.133576065301895142e-02 -3.667394518852233887e-01 -8.568713068962097168e-02
-1.659415289759635925e-02 -6.903131604194641113e-01 -6.441704928874969482e-02
-1.142520383000373840e-01 -3.413489460945129395e-01 6.339676678180694580e-03
1.615645289421081543e-01 -3.848822712898254395e-01 6.894753128290176392e-02
8.419592678546905518e-02 -6.390228867530822754e-01 -5.485314875841140747e-02
-1.480538770556449890e-02 -7.045897841453552246e-01 -1.115395128726959229e-01
2.011649906635284424e-01 -4.817743301391601562e-01 -1.038816273212432861e-01
5.947251617908477783e-02 -2.571295499801635742e-01 2.243225648999214172e-02
1.488817930221557617e-01 -3.768954277038574219e-01 -1.565763652324676514e-01
1.231950819492340088e-01 -5.480703711509704590e-01 2.176175266504287720e-02
-8.954139798879623413e-02 -3.087899088859558105e-01 3.432221710681915283e-02
9.381685405969619751e-02 -5.621707439422607422e-01 -2.741197645664215088e-01
-1.723841279745101929e-01 -6.253422498703002930e-01 -5.293580517172813416e-02
-1.175997555255889893e-01 -6.395672559738159180e-01 2.545063942670822144e-02
8.630243130028247833e-03 -3.912397623062133789e-01 1.961476504802703857e-01
1.289913654327392578e-01 -5.927061438560485840e-01 -2.463566064834594727e-01
-1.858746856451034546e-01 1.515291184186935425e-01 2.284002751111984253e-01
1.460995972156524658e-01 1.935853958129882812e-01 1.654683947563171387e-01
1.730291917920112610e-02 1.794446855783462524e-01 -4.390583932399749756e-01
-6.854410469532012939e-02 1.528638154268264771e-01 3.071071207523345947e-01
-2.850571274757385254e-01 1.908931136131286621e-01 1.270041763782501221e-01
-3.919182717800140381e-01 1.859353780746459961e-01 -7.482631132006645203e-03
1.514608711004257202e-01 1.684771627187728882e-01 4.136369824409484863e-01
3.395574092864990234e-01 1.852942109107971191e-01 1.368818134069442749e-01
-5.273018777370452881e-02 1.474774181842803955e-01 1.687114089727401733e-01
2.947219908237457275e-01 1.564071774482727051e-01 2.037994712591171265e-01
-1.651899516582489014e-01 1.504707485437393188e-01 -2.313301414251327515e-01
8.406482636928558350e-02 1.475724428892135620e-01 -1.670652329921722412e-01
-4.310256242752075195e-01 1.780606806278228760e-01 1.276758164167404175e-01
-1.249603480100631714e-01 1.462713927030563354e-01 3.253812342882156372e-02
2.883450128138065338e-02 1.535858809947967529e-01 -3.377640545368194580e-01
7.485955208539962769e-02 1.508608013391494751e-01 -2.747512757778167725e-01
-1.057966798543930054e-01 1.959117352962493896e-01 -1.336309313774108887e-01
4.166311621665954590e-01 1.675107032060623169e-01 -1.336821168661117554e-01
6.514225900173187256e-02 1.952733248472213745e-01 -1.691085845232009888e-01
-4.130626022815704346e-01 1.603529602289199829e-01 -9.779371321201324463e-02
2.494042813777923584e-01 1.787733882665634155e-01 3.394231200218200684e-01
-4.923826456069946289e-02 1.550511121749877930e-01 -3.605404794216156006e-01
-2.887729406356811523e-01 1.508021205663681030e-01 -5.688706878572702408e-03
2.551665008068084717e-01 1.912775486707687378e-01 1.013779342174530029e-01
2.320885956287384033e-01 1.828899532556533813e-01 -3.305712044239044189e-01
-2.326778322458267212e-01 1.934072077274322510e-01 -1.196180880069732666e-01
-3.586319684982299805e-01 1.865683943033218384e-01 -1.447999328374862671e-01
2.099989801645278931e-01 1.499872505664825439e-01 1.297800689935684204e-01
3.160007894039154053e-01 1.879251599311828613e-01 -1.169828325510025024e-01
-5.771688371896743774e-02 1.927459836006164551e-01 -2.652344107627868652e-01
-3.452514708042144775e-01 1.568852514028549194e-01 1.663605570793151855e-01
-2.825508117675781250e-01 1.594185084104537964e-01 -3.080331981182098389e-01
-1.154938787221908569e-01 1.965713500976562500e-01 5.484140291810035706e-02
2.611339092254638672e-01 1.903765797615051270e-01 1.316068321466445923e-01
3.391774743795394897e-02 1.463189423084259033e-01 1.100122332572937012e-01
3.256223499774932861e-01 1.883713304996490479e-01 2.564021572470664978e-02
-1.374206840991973877e-01 1.964569836854934692e-01 -3.834191709756851196e-02
2.613658905029296875e-01 1.600714474916458130e-01 2.977946698665618896e-01
4.320749342441558838e-01 1.673177182674407959e-01 -5.290750041604042053e-02
2.536600530147552490e-01 1.503247171640396118e-01 -4.813218861818313599e-02
-1.723557561635971069e-01 1.587479859590530396e-01 -3.722362220287322998e-01
-3.564700484275817871e-01 1.564948856830596924e-01 -1.486829817295074463e-01
-2.481709122657775879e-01 1.869441270828247070e-01 -2.895337343215942383e-01
-3.115662038326263428e-01 1.556118279695510864e-01 -2.098095715045928955e-01
-3.976962566375732422e-01 1.611717641353607178e-01 1.503532677888870239e-01
-3.038682043552398682e-01 1.869606971740722656e-01 -2.314927279949188232e-01
2.015297673642635345e-02 1.955327838659286499e-01 -1.743193566799163818e-01
-2.281561940908432007e-01 1.528536379337310791e-01 -2.428023517131805420e-01
-2.431966066360473633e-01 1.549164354801177979e-01 -2.735342681407928467e-01
7.717022299766540527e-02 1.968579590320587158e-01 1.658569090068340302e-03
-1.319791097193956375e-02 1.457336395978927612e-01 -8.961661159992218018e-02
-8.004596084356307983e-02 1.904253065586090088e-01 -3.119921684265136719e-01
-1.461796611547470093e-01 1.947750598192214966e-01 1.450156569480895996e-01
8.662000298500061035e-02 1.482090055942535400e-01 1.772422045469284058e-01
-3.006864786148071289e-01 1.514667421579360962e-01 2.916477620601654053e-02
-3.186055272817611694e-02 1.647952497005462646e-01 4.320018589496612549e-01
-2.186513692140579224e-01 1.550789326429367065e-01 2.791121304035186768e-01
-2.469325959682464600e-01 1.523203104734420776e-01 -2.089870721101760864e-01
-2.307833433151245117e-01 1.540631055831909180e-01 2.503497600555419922e-01
2.553233504295349121e-01 1.863434314727783203e-01 -2.607017159461975098e-01
1.576198041439056396e-01 1.898257583379745483e-01 -2.767246961593627930e-01
-2.264208942651748657e-01 1.943845897912979126e-01 -4.936792701482772827e-02
3.081381916999816895e-01 1.560286432504653931e-01 1.733156889677047729e-01
4.194630980491638184e-01 1.637346893548965454e-01 2.651868015527725220e-02
1.449574232101440430e-01 1.496437638998031616e-01 -2.042527049779891968e-01
6.385937333106994629e-02 1.772795170545578003e-01 -4.435613751411437988e-01
-1.068488582968711853e-01 1.516427099704742432e-01 2.730912864208221436e-01
-3.021909110248088837e-02 1.971098929643630981e-01 6.349863111972808838e-02
-2.177908718585968018e-01 1.899181604385375977e-01 -2.564551234245300293e-01
-2.875178456306457520e-01 1.523704081773757935e-01 1.318346858024597168e-01
3.674630224704742432e-01 1.810697615146636963e-01 1.687477380037307739e-01
1.660853922367095947e-01 1.869837790727615356e-01 3.079492449760437012e-01
2.068347632884979248e-01 1.540587693452835083e-01 -2.673778235912322998e-01
-3.247392773628234863e-01 1.885607391595840454e-01 -1.545848548412322998e-01
1.764433532953262329e-01 1.478963345289230347e-01 5.630416050553321838e-02
2.200742214918136597e-01 1.502621173858642578e-01 -1.397897601127624512e-01
8.766350895166397095e-02 1.955707371234893799e-01 -1.396486163139343262e-01
-6.116406619548797607e-02 1.828975230455398560e-01 -4.134731888771057129e-01
-1.636909246444702148e-01 1.934518814086914062e-01 1.837990134954452515e-01
3.384000062942504883e-01 1.837199628353118896e-01 -1.913393884897232056e-01
9.496070444583892822e-03 1.825001388788223267e-01 4.030060470104217529e-01
1.985680460929870605e-01 1.926344782114028931e-01 -1.567277461290359497e-01
3.170713484287261963e-01 1.555133759975433350e-01 -1.538557112216949463e-01
2.132243365049362183e-01 1.896707564592361450e-01 -2.344564646482467651e-01
2.576884031295776367e-01 1.834701448678970337e-01 -3.019288182258605957e-01
8.549585938453674316e-02 1.938465982675552368e-01 -2.135979831218719482e-01
4.353321790695190430e-01 1.746025532484054565e-01 6.957920268177986145e-04
2.124030701816082001e-02 1.905281543731689453e-01 -3.138934373855590820e-01
1.751639395952224731e-01 1.909446418285369873e-01 2.234738767147064209e-01
1.103431954979896545e-01 1.810080409049987793e-01 -4.108354449272155762e-01
-8.146524429321289062e-03 1.974176019430160522e-01 -2.489008195698261261e-02
1.260191500186920166e-01 1.466246694326400757e-01 3.499350324273109436e-02
9.504354745149612427e-02 1.896426528692245483e-01 -3.119533658027648926e-01
1.704463064670562744e-01 1.491548866033554077e-01 1.468008905649185181e-01
-7.135298103094100952e-03 1.680011898279190063e-01 -4.588444530963897705e-01
1.701054871082305908e-01 1.488918364048004150e-01 -1.493637859821319580e-01
2.878831326961517334e-01 1.731066554784774780e-01 3.312441110610961914e-01
-9.962153434753417969e-02 1.472359001636505127e-01 1.381903886795043945e-01
-1.664856076240539551e-01 1.867074668407440186e-01 3.272628486156463623e-01
1.200496256351470947e-01 1.473272144794464111e-01 -1.247400641441345215e-01
-1.179064717143774033e-02 1.971087157726287842e-01 -8.004632592201232910e-02
-1.941175200045108795e-03 1.964667737483978271e-01 -1.299988031387329102e-01
-2.835705876350402832e-01 1.924518346786499023e-01 4.291106015443801880e-04
-3.499407768249511719e-01 1.597448438405990601e-01 -2.339317798614501953e-01
-3.001846969127655029e-01 1.662009507417678833e-01 -3.488844931125640869e-01
2.564716935157775879e-01 1.504250168800354004e-01 3.166178241372108459e-02
-4.163643717765808105e-02 1.886607110500335693e-01 3.317468166351318359e-01
-2.028887905180454254e-02 1.480818539857864380e-01 1.962225586175918579e-01
-2.173153460025787354e-01 1.947692334651947021e-01 -1.142704486846923828e-02
1.027049571275711060e-01 1.962444186210632324e-01 5.566301569342613220e-02
2.946842014789581299e-01 1.899266391992568970e-01 -7.309208810329437256e-02
3.328351080417633057e-01 1.604759991168975830e-01 -2.321672886610031128e-01
2.060135304927825928e-01 1.822920441627502441e-01 3.412047624588012695e-01
-3.443920239806175232e-02 1.538368612527847290e-01 3.279541134834289551e-01
-7.014565169811248779e-02 1.956182569265365601e-01 -1.666222065687179565e-01
7.762581110000610352e-02 1.483888626098632812e-01 -2.030924856662750244e-01
-2.000034600496292114e-01 1.617084145545959473e-01 -3.865667283535003662e-01
-2.150715142488479614e-01 1.826709210872650146e-01 -3.662519156932830811e-01
-3.599826991558074951e-01 1.870696842670440674e-01 1.043319553136825562e-01
4.596383124589920044e-02 1.499136537313461304e-01 -2.595216929912567139e-01
-1.607669889926910400e-01 1.959252059459686279e-01 -6.064400076866149902e-02
3.840243816375732422e-01 1.806412637233734131e-01 -1.482985913753509521e-01
-2.222943305969238281e-01 1.523560136556625366e-01 2.188751697540283203e-01
-3.211939334869384766e-01 1.593155115842819214e-01 -2.662093043327331543e-01
3.002896718680858612e-02 1.941291093826293945e-01 2.092025130987167358e-01
2.319426387548446655e-01 1.918968558311462402e-01 -1.342706829309463501e-01
4.900868982076644897e-02 1.464376896619796753e-01 -1.261623203754425049e-01
-1.688848286867141724e-01 1.473694890737533569e-01 -8.572508394718170166e-02
-3.350436091423034668e-01 1.838595271110534668e-01 2.292736768722534180e-01
3.816255629062652588e-01 1.586552858352661133e-01 3.512966260313987732e-02
3.689843118190765381e-01 1.809648722410202026e-01 -1.799821257591247559e-01
2.789357900619506836e-01 1.910698413848876953e-01 -3.165081143379211426e-02
-1.677790582180023193e-01 1.931982040405273438e-01 -2.059601843357086182e-01
-1.471957284957170486e-02 1.520503759384155273e-01 -3.130854666233062744e-01
5.297198146581649780e-02 1.971175223588943481e-01 -1.585751026868820190e-02
8.929989486932754517e-02 1.856019496917724609e-01 -3.736788928508758545e-01
3.423607945442199707e-01 1.562690585851669312e-01 -1.130210459232330322e-01
2.495678663253784180e-01 1.505742073059082031e-01 7.703775167465209961e-02
3.897454142570495605e-01 1.595245152711868286e-01 -4.641898721456527710e-02
1.696309745311737061e-01 1.495770812034606934e-01 -1.791925728321075439e-01
2.186146080493927002e-01 1.510595381259918213e-01 1.614136993885040283e-01
-2.296262606978416443e-02 1.930792182683944702e-01 -2.597164809703826904e-01
-3.848561346530914307e-01 1.849120557308197021e-01 -1.271734833717346191e-01
3.426021337509155273e-01 1.813866496086120605e-01 2.109976410865783691e-01
2.017347663640975952e-01 1.485189497470855713e-01 -5.805224180221557617e-02
1.856046617031097412e-01 1.935757100582122803e-01 1.168765574693679810e-01
2.810682356357574463e-01 1.884560436010360718e-01 1.632148623466491699e-01
-3.400863111019134521e-01 1.538293510675430298e-01 5.461071059107780457e-02
-2.749610245227813721e-01 1.503230780363082886e-01 -4.678056761622428894e-02
-1.622866839170455933e-01 1.537469774484634399e-01 -3.070453405380249023e-01
-2.412317544221878052e-01 1.936391294002532959e-01 6.512555480003356934e-02
-1.495562195777893066e-01 1.960292160511016846e-01 5.727056786417961121e-02
-2.919194698333740234e-01 1.916387379169464111e-01 6.671281158924102783e-02
-1.951448023319244385e-01 1.482652723789215088e-01 9.056827425956726074e-02
2.211112380027770996e-01 1.526697576045989990e-01 -2.218532860279083252e-01
1.222953796386718750e-01 1.584416925907135010e-01 3.641388118267059326e-01
-2.379371225833892822e-01 1.937850862741470337e-01 -7.881103456020355225e-02
-3.830324113368988037e-01 1.564822196960449219e-01 -2.355109341442584991e-02
-2.407745569944381714e-01 1.889997720718383789e-01 2.397832572460174561e-01
2.149322479963302612e-01 1.937551945447921753e-01 -1.857168972492218018e-04
1.838166452944278717e-02 1.908436417579650879e-01 2.928165197372436523e-01
2.604044079780578613e-01 1.787081360816955566e-01 -3.447234928607940674e-01
4.041410386562347412e-01 1.681354790925979614e-01 1.616026610136032104e-01
2.390675246715545654e-01 1.926679313182830811e-01 4.521004483103752136e-02
-1.020664200186729431e-01 1.932353228330612183e-01 2.246450036764144897e-01
-2.698306739330291748e-01 1.590372771024703979e-01 2.971355020999908447e-01
2.356614023447036743e-01 1.926178783178329468e-01 -7.838241755962371826e-02
-6.984935700893402100e-02 1.456069350242614746e-01 2.493083849549293518e-02
-3.731332123279571533e-01 1.818681657314300537e-01 -2.199078500270843506e-01
1.883111447095870972e-01 1.941085457801818848e-01 7.611660659313201904e-02
-1.726294755935668945e-01 1.939547955989837646e-01 -1.737717688083648682e-01
-1.956554800271987915e-01 1.507141888141632080e-01 -2.143189460039138794e-01
-3.941463828086853027e-01 1.659786701202392578e-01 2.180583477020263672e-01
3.709804117679595947e-01 1.842245608568191528e-01 7.038794457912445068e-02
-1.828340440988540649e-01 1.943792402744293213e-01 -1.432685554027557373e-01
9.298887848854064941e-02 1.460076123476028442e-01 1.085343584418296814e-02
-1.519400328397750854e-01 1.701745539903640747e-01 4.244839251041412354e-01
-7.655523717403411865e-02 1.967861801385879517e-01 7.448865473270416260e-02
6.270039826631546021e-02 1.849820613861083984e-01 3.724614977836608887e-01
3.259097039699554443e-02 1.605575084686279297e-01 -4.191101491451263428e-01
9.781189262866973877e-03 1.460518985986709595e-01 -1.138323247432708740e-01
-1.829147785902023315e-01 1.493449807167053223e-01 -1.789805740118026733e-01
-3.222465813159942627e-01 1.551320850849151611e-01 -1.794163286685943604e-01
-2.506826519966125488e-01 1.804154962301254272e-01 -3.638529181480407715e-01
2.739604115486145020e-01 1.596762239933013916e-01 -2.947008609771728516e-01
1.284200698137283325e-01 1.467209756374359131e-01 -5.790115147829055786e-02
2.679517865180969238e-01 1.883751302957534790e-01 -2.002033889293670654e-01
-1.488769054412841797e-01 1.477309614419937134e-01 -1.396278440952301025e-01
2.683465778827667236e-01 1.539909988641738892e-01 1.837026923894882202e-01
7.043635100126266479e-02 1.530965864658355713e-01 -3.213995397090911865e-01
-1.714788377285003662e-01 1.604442447423934937e-01 3.724376261234283447e-01
-3.266644477844238281e-01 1.565621793270111084e-01 1.910628676414489746e-01
