7.966265082359313965e-02 9.091280400753021240e-03 8.413873612880706787e-02
4.291021525859832764e-01 2.966253086924552917e-02 2.789008319377899170e-01
1.927669644355773926e-01 7.675220072269439697e-02 -7.371984720230102539e-01
1.058932691812515259e-01 7.992833852767944336e-02 8.623607456684112549e-03
4.019766747951507568e-01 3.572342172265052795e-02 -7.523832917213439941e-01
3.587208688259124756e-01 1.132069900631904602e-02 3.977260887622833252e-01
3.522956669330596924e-01 -2.008710056543350220e-03 -5.868165940046310425e-02
4.216963648796081543e-01 2.127501554787158966e-02 1.975266039371490479e-01
1.153648644685745239e-01 8.096751570701599121e-02 1.357191503047943115e-01
3.212729692459106445e-01 9.785094112157821655e-02 5.705042183399200439e-02
4.034146666526794434e-01 1.845427975058555603e-02 2.895882129669189453e-01
3.292613625526428223e-01 1.725238747894763947e-02 5.796224474906921387e-01
3.810235261917114258e-01 9.199942648410797119e-02 -1.055692657828330994e-01
4.620320200920104980e-01 5.870151147246360779e-02 -2.607625722885131836e-01
4.667321145534515381e-01 4.554858431220054626e-02 -1.261460483074188232e-01
1.732292026281356812e-01 9.287036955356597900e-02 -1.507831662893295288e-01
3.894128799438476562e-01 9.385362267494201660e-03 -4.525468945503234863e-01
3.995667099952697754e-01 2.327464148402214050e-02 -6.626892089843750000e-01
4.636945128440856934e-01 5.089603364467620850e-02 4.282078146934509277e-02
1.509238779544830322e-01 5.887760221958160400e-02 -8.224790692329406738e-01
3.918612003326416016e-01 8.956581354141235352e-02 2.028724551200866699e-02
3.291731178760528564e-01 7.968302071094512939e-02 -7.380084395408630371e-01
1.326940357685089111e-01 6.162062659859657288e-02 -7.415815591812133789e-01
3.936417698860168457e-01 7.643792033195495605e-02 -6.031554341316223145e-01
3.327787518501281738e-01 -4.291620105504989624e-03 -2.984370887279510498e-01
1.381157338619232178e-01 7.919958233833312988e-02 3.802211880683898926e-01
2.531908154487609863e-01 9.775721281766891479e-02 1.602305769920349121e-01
3.640313148498535156e-01 8.282907307147979736e-03 3.078854382038116455e-01
3.090272247791290283e-01 -4.144705832004547119e-03 1.811344921588897705e-01
2.104442119598388672e-01 9.566050767898559570e-02 1.488672643899917603e-01
2.550935149192810059e-01 9.844486415386199951e-02 -2.391543686389923096e-01
3.936806023120880127e-01 8.939293771982192993e-02 -1.768019795417785645e-01
2.855187058448791504e-01 9.183447062969207764e-02 -5.384550094604492188e-01
2.215660214424133301e-01 -1.129818335175514221e-02 -2.100738584995269775e-01
1.232552826404571533e-01 6.133968010544776917e-02 5.690821409225463867e-01
3.432474732398986816e-01 -2.208072692155838013e-03 -3.448422551155090332e-01
2.496607899665832520e-01 9.491974115371704102e-02 -4.219366312026977539e-01
1.434431970119476318e-01 1.333013176918029785e-03 3.142358362674713135e-01
4.439756870269775391e-01 3.286184743046760559e-02 -4.503975510597229004e-01
1.606384664773941040e-01 7.980822026729583740e-02 4.661013484001159668e-01
2.984753847122192383e-01 -7.178526371717453003e-03 -3.576242625713348389e-01
2.713802456855773926e-01 8.908925950527191162e-02 4.663615226745605469e-01
1.397382616996765137e-01 7.127810269594192505e-02 5.257365703582763672e-01
3.831761479377746582e-01 9.146140515804290771e-02 -1.796190440654754639e-02
1.077645123004913330e-01 6.529846042394638062e-02 -5.880863070487976074e-01
9.106300771236419678e-02 6.196739897131919861e-02 4.023267626762390137e-01
1.438204646110534668e-01 6.977003067731857300e-02 -6.920651793479919434e-01
8.148123323917388916e-02 6.059151887893676758e-02 -4.787331223487854004e-01
3.680652678012847900e-01 4.921145737171173096e-04 -1.577518582344055176e-01
1.903402954339981079e-01 6.203461438417434692e-03 -7.537364959716796875e-01
4.117481708526611328e-01 1.469453237950801849e-02 -4.038776755332946777e-01
1.861248910427093506e-01 -6.447829306125640869e-03 1.996916234493255615e-01
1.334453225135803223e-01 -2.158839255571365356e-03 -3.754387497901916504e-01
4.653676748275756836e-01 4.469535499811172485e-02 -2.223159521818161011e-01
7.854874432086944580e-02 7.537886500358581543e-03 -7.524999231100082397e-02
4.399793744087219238e-01 7.171127200126647949e-02 1.413353681564331055e-01
3.372883200645446777e-01 9.439629316329956055e-02 -3.579238951206207275e-01
4.366737604141235352e-01 3.067358955740928650e-02 2.251515090465545654e-01
1.193100810050964355e-01 8.351625502109527588e-02 -6.386932730674743652e-02
4.475419521331787109e-01 5.068382248282432556e-02 2.605291306972503662e-01
2.907857894897460938e-01 7.881025969982147217e-02 -7.889254689216613770e-01
3.666989803314208984e-01 1.099109649658203125e-02 3.550176620483398438e-01
2.192585468292236328e-01 -9.125020354986190796e-03 -3.927772343158721924e-01
2.878914475440979004e-01 -4.916939884424209595e-03 2.264115512371063232e-01
2.902373373508453369e-01 -2.867043018341064453e-03 2.905209064483642578e-01
1.306561529636383057e-01 8.521124720573425293e-02 -1.964329183101654053e-01
1.161290705204010010e-01 8.217816054821014404e-02 -1.692342758178710938e-01
3.989350795745849609e-01 8.136417716741561890e-03 -2.595311403274536133e-02
3.593606948852539062e-01 2.544725313782691956e-02 5.820590853691101074e-01
9.239403903484344482e-02 5.776292830705642700e-02 4.544620513916015625e-01
3.568841814994812012e-01 6.620408594608306885e-02 -8.338624835014343262e-01
1.405022740364074707e-01 1.723285764455795288e-02 -7.712316513061523438e-01
2.209762930870056152e-01 7.554838806390762329e-02 -8.022210597991943359e-01
3.614593446254730225e-01 2.350334078073501587e-03 -4.232100844383239746e-01
1.268114894628524780e-01 6.097137928009033203e-03 -5.731772184371948242e-01
2.264464348554611206e-01 7.190331816673278809e-03 -8.034496307373046875e-01
4.284196496009826660e-01 5.409495532512664795e-02 4.005869030952453613e-01
2.966234087944030762e-01 5.842436850070953369e-02 -9.649057388305664062e-01
4.497304558753967285e-02 4.746855050325393677e-02 6.862689554691314697e-02
3.797108232975006104e-01 4.506070166826248169e-03 5.312767624855041504e-02
3.559287190437316895e-01 9.505593031644821167e-02 -1.860238462686538696e-01
3.252953290939331055e-01 4.737086594104766846e-03 -6.624276041984558105e-01
4.644001722335815430e-01 4.133407026529312134e-02 -1.913731098175048828e-01
1.118003576993942261e-01 8.128593116998672485e-02 3.958950936794281006e-02
2.905274033546447754e-01 9.335625916719436646e-02 -4.904399216175079346e-01
2.416411191225051880e-01 8.406519889831542969e-03 5.784418582916259766e-01
4.458275437355041504e-01 2.996764332056045532e-02 1.024617254734039307e-01
1.181795299053192139e-01 1.587815582752227783e-03 -4.092732369899749756e-01
2.470482885837554932e-01 -9.053722023963928223e-03 1.275182068347930908e-01
1.122587025165557861e-01 1.399151980876922607e-03 -3.524298667907714844e-01
1.281215548515319824e-01 -3.330893814563751221e-03 -2.555882930755615234e-01
3.509942293167114258e-01 1.855541020631790161e-03 1.915055811405181885e-01
3.656569421291351318e-01 7.565236091613769531e-02 -7.145276665687561035e-01
2.448264509439468384e-01 -9.642921388149261475e-03 9.509681165218353271e-02
1.425416171550750732e-01 7.272368669509887695e-02 -6.448128223419189453e-01
1.734072417020797729e-01 7.715734839439392090e-02 5.502666234970092773e-01
4.359718561172485352e-01 6.326517462730407715e-02 -5.287115573883056641e-01
2.178770899772644043e-01 -6.412837654352188110e-03 2.484690248966217041e-01
1.700558066368103027e-01 7.784956693649291992e-02 -6.597153544425964355e-01
3.422801792621612549e-01 -1.337021589279174805e-03 1.144998818635940552e-01
8.467106521129608154e-02 3.837831318378448486e-02 4.811710715293884277e-01
4.351183772087097168e-01 7.593831419944763184e-02 8.559907972812652588e-02
3.708567917346954346e-01 1.873547025024890900e-02 4.668259620666503906e-01
8.890035748481750488e-02 5.098432302474975586e-02 -6.236662268638610840e-01
1.970222890377044678e-01 6.415251642465591431e-03 5.310680866241455078e-01
3.032092452049255371e-01 4.382833838462829590e-03 4.402322173118591309e-01
1.874857693910598755e-01 2.090439386665821075e-02 6.880049109458923340e-01
3.156208693981170654e-01 6.072665750980377197e-02 -9.367067813873291016e-01
3.870502114295959473e-01 3.074317052960395813e-02 5.280351638793945312e-01
8.703501522541046143e-02 9.907443076372146606e-03 -3.982373178005218506e-01
2.130626291036605835e-01 -1.128048449754714966e-02 -1.773595511913299561e-01
4.150108098983764648e-01 8.363342285156250000e-02 5.434772372245788574e-02
2.399048656225204468e-01 9.498952329158782959e-02 2.765256762504577637e-01
6.277440488338470459e-02 5.648155882954597473e-02 -3.576728701591491699e-01
1.804482787847518921e-01 8.577764034271240234e-02 -5.272189974784851074e-01
1.764906346797943115e-01 9.174956381320953369e-02 -2.836959660053253174e-01
3.859432339668273926e-01 8.404643833637237549e-02 -4.856167733669281006e-01
7.450093328952789307e-02 9.696278721094131470e-03 -2.088190317153930664e-01
6.387664377689361572e-02 2.389522828161716461e-02 2.554592192173004150e-01
2.473834753036499023e-01 -1.048295572400093079e-02 -3.012951612472534180e-01
2.413719594478607178e-01 9.114874154329299927e-02 4.035986065864562988e-01
3.319074809551239014e-01 8.193764835596084595e-02 5.275982618331909180e-01
1.135560572147369385e-01 -1.142539083957672119e-03 -1.281020790338516235e-02
7.819019258022308350e-02 9.335406124591827393e-03 -2.679861783981323242e-01
9.976841509342193604e-02 6.860838085412979126e-02 3.619868755340576172e-01
3.031234741210937500e-01 8.799727261066436768e-02 4.678529500961303711e-01
4.320127964019775391e-01 7.517267018556594849e-02 -3.621024489402770996e-01
1.658328771591186523e-01 -3.443848341703414917e-03 -4.926794767379760742e-01
1.275704950094223022e-01 -2.899706363677978516e-03 5.355603992938995361e-02
3.913506269454956055e-01 6.987912952899932861e-02 -6.991282701492309570e-01
3.655161261558532715e-01 9.319535642862319946e-02 8.571222424507141113e-02
2.959019243717193604e-01 9.875765442848205566e-02 -2.165661454200744629e-01
1.188402026891708374e-01 -7.236599922180175781e-04 9.441059827804565430e-02
1.843883693218231201e-01 9.097705036401748657e-02 2.576518058776855469e-01
3.900068998336791992e-01 7.674660533666610718e-03 9.094329178333282471e-02
2.394483834505081177e-01 8.686850965023040771e-02 5.005726814270019531e-01
2.329520583152770996e-01 9.647531807422637939e-02 -3.126192688941955566e-01
5.056534707546234131e-02 5.599017813801765442e-02 -5.450387671589851379e-02
3.132880926132202148e-01 2.691041491925716400e-02 -9.411634206771850586e-01
2.569817304611206055e-01 9.335772693157196045e-02 -4.860583543777465820e-01
1.608568578958511353e-01 -5.888786166906356812e-03 1.325870454311370850e-01
3.706099689006805420e-01 9.001749753952026367e-02 -3.807839453220367432e-01
1.708629876375198364e-01 3.088655136525630951e-02 7.262763977050781250e-01
3.850312530994415283e-01 7.598879188299179077e-02 -6.458947658538818359e-01
1.878362298011779785e-01 -5.037676542997360229e-03 2.569233179092407227e-01
1.559982001781463623e-01 1.001209020614624023e-02 5.171257257461547852e-01
4.489083886146545410e-01 2.787250094115734100e-02 -2.463617026805877686e-01
1.963585615158081055e-01 9.359119087457656860e-02 -3.122434616088867188e-01
6.060232222080230713e-02 1.879519782960414886e-02 -3.039377927780151367e-01
2.719986736774444580e-01 9.687562286853790283e-02 2.233518362045288086e-01
2.707279920578002930e-01 9.448261559009552002e-02 3.201105892658233643e-01
3.979316949844360352e-01 1.196104288101196289e-02 1.725191175937652588e-01
1.619521677494049072e-01 9.134122729301452637e-02 3.150372207164764404e-02
4.092262685298919678e-01 8.272168785333633423e-02 1.694690883159637451e-01
2.302349656820297241e-01 9.770166873931884766e-02 -2.118082344532012939e-01
3.029604554176330566e-01 8.773256093263626099e-02 -6.277353763580322266e-01
1.440696120262145996e-01 4.916611686348915100e-02 -8.544790148735046387e-01
3.088588416576385498e-01 1.024097949266433716e-02 5.308396816253662109e-01
4.131536483764648438e-01 8.528161048889160156e-02 -1.093703731894493103e-01
2.437151223421096802e-01 8.227366209030151367e-02 -7.285019159317016602e-01
1.670468151569366455e-01 6.888795644044876099e-02 -7.759088277816772461e-01
2.399791181087493896e-01 -6.923228502273559570e-04 4.133312106132507324e-01
3.749321997165679932e-01 8.551673591136932373e-02 3.235467076301574707e-01
4.047837257385253906e-01 7.828702032566070557e-02 3.153482675552368164e-01
2.585817277431488037e-01 5.623396113514900208e-02 -9.843823313713073730e-01
2.492461055517196655e-01 -3.204837441444396973e-03 3.454353511333465576e-01
4.060696661472320557e-01 8.131802082061767578e-02 -4.318377077579498291e-01
2.584355771541595459e-01 2.966761961579322815e-02 7.709808945655822754e-01
1.875828206539154053e-01 3.283843398094177246e-03 -7.022297382354736328e-01
3.374361097812652588e-01 1.317028887569904327e-02 -7.704339623451232910e-01
2.357276827096939087e-01 4.045039415359497070e-03 -7.594085335731506348e-01
2.356108278036117554e-01 7.902301847934722900e-02 -7.715852260589599609e-01
7.579571008682250977e-02 6.108882278203964233e-02 2.956239879131317139e-01
1.515432298183441162e-01 7.823939621448516846e-02 -5.847365856170654297e-01
2.263568490743637085e-01 1.251925900578498840e-02 -8.677539229393005371e-01
1.739254891872406006e-01 5.641624331474304199e-03 4.856501221656799316e-01
1.163305938243865967e-01 2.025511115789413452e-03 1.925244927406311035e-01
3.076312243938446045e-01 -6.589926779270172119e-03 5.671565234661102295e-02
9.299327433109283447e-02 7.356096059083938599e-02 -2.849803268909454346e-01
1.319598555564880371e-01 5.696486681699752808e-02 -7.763614058494567871e-01
7.162690162658691406e-02 6.733381003141403198e-02 6.106603145599365234e-02
2.698455154895782471e-01 9.621199220418930054e-02 -3.865977227687835693e-01
3.869917392730712891e-01 2.388124912977218628e-02 -7.288485169410705566e-01
4.324670433998107910e-01 7.124902307987213135e-02 2.325437664985656738e-01
2.446860074996948242e-01 -5.699198693037033081e-03 2.722740769386291504e-01
3.108507096767425537e-01 9.531212598085403442e-02 2.480457723140716553e-01
2.696070075035095215e-01 1.803355291485786438e-02 6.792618036270141602e-01
2.067430019378662109e-01 2.724410593509674072e-02 7.492187619209289551e-01
4.566017985343933105e-01 4.446509107947349548e-02 1.446210891008377075e-01
4.112128615379333496e-01 2.322058938443660736e-02 -5.935802459716796875e-01
2.341584861278533936e-01 1.783107221126556396e-02 6.897222995758056641e-01
2.990369498729705811e-01 -6.825868040323257446e-03 9.369300305843353271e-02
2.047581523656845093e-01 7.342074811458587646e-02 6.591735482215881348e-01
4.043853282928466797e-01 9.300738573074340820e-03 -6.389977037906646729e-02
1.308452785015106201e-01 8.514529466629028320e-02 9.730629622936248779e-02
3.844380974769592285e-01 9.166236966848373413e-03 -4.864450991153717041e-01
1.068077534437179565e-01 2.961274608969688416e-02 -7.307062745094299316e-01
1.900819092988967896e-01 9.321641921997070312e-02 1.809614300727844238e-01
9.839519858360290527e-02 1.818859763443470001e-02 -6.126469373703002930e-01
1.705334782600402832e-01 -9.010132402181625366e-03 -5.721903592348098755e-02
3.542914390563964844e-01 5.017819255590438843e-02 -9.147387146949768066e-01
3.772573471069335938e-01 7.577423751354217529e-02 4.847913384437561035e-01
8.942185342311859131e-02 1.751140505075454712e-02 3.640199899673461914e-01
2.762754857540130615e-01 -2.898968756198883057e-03 3.199845552444458008e-01
1.107910424470901489e-01 4.389286041259765625e-02 5.984876155853271484e-01
1.614430546760559082e-01 5.073809996247291565e-02 -8.930243849754333496e-01
1.839052736759185791e-01 -7.651112973690032959e-04 3.726868033409118652e-01
2.578373253345489502e-01 9.303523600101470947e-02 3.632275760173797607e-01
1.769791245460510254e-01 6.236310303211212158e-02 -8.607826232910156250e-01
3.759038150310516357e-01 8.968494087457656860e-02 1.878139376640319824e-01
8.879604935646057129e-02 6.050778925418853760e-02 -5.343977212905883789e-01
2.761695683002471924e-01 9.952425956726074219e-02 -1.474661380052566528e-01
2.664905488491058350e-01 7.691580057144165039e-02 6.589170098304748535e-01
1.843428909778594971e-01 3.892834112048149109e-02 7.696895599365234375e-01
4.099811315536499023e-01 1.262661069631576538e-02 5.551753938198089600e-02
1.601826250553131104e-01 8.533772826194763184e-02 -4.496257305145263672e-01
1.470431089401245117e-01 -6.715171039104461670e-04 2.723815739154815674e-01
2.056116759777069092e-01 -1.058647409081459045e-02 -2.645626664161682129e-03
1.250336915254592896e-01 8.471951633691787720e-02 -1.051092743873596191e-01
3.436569571495056152e-01 9.445250034332275391e-02 1.695165932178497314e-01
6.465841829776763916e-02 1.333441957831382751e-02 -2.331882715225219727e-02
1.636844575405120850e-01 -7.742837071418762207e-03 -2.730486392974853516e-01
2.391525655984878540e-01 -1.131524890661239624e-02 -5.902912467718124390e-02
9.932845830917358398e-02 5.036380141973495483e-03 1.596910655498504639e-01
2.128995656967163086e-01 -1.047482341527938843e-02 2.847637236118316650e-02
1.482496559619903564e-01 8.916550874710083008e-02 -1.316942274570465088e-01
2.412188500165939331e-01 -1.148838549852371216e-02 -1.320860385894775391e-01
3.116065263748168945e-01 1.708135195076465607e-02 6.151592731475830078e-01
3.703750967979431152e-01 1.824803650379180908e-03 3.386996686458587646e-03
2.959553003311157227e-01 -8.958492428064346313e-03 -1.136052459478378296e-01
4.592530727386474609e-01 6.481434404850006104e-02 -9.887435287237167358e-02
2.137070000171661377e-01 -5.249314010143280029e-03 2.856508195400238037e-01
1.960848867893218994e-01 -6.893180310726165771e-03 -4.566351771354675293e-01
1.134290397167205811e-01 7.304467260837554932e-02 -4.886836409568786621e-01
2.858963012695312500e-01 -9.723603725433349609e-03 -1.440033465623855591e-01
3.118539452552795410e-01 9.874328970909118652e-02 -1.460344344377517700e-01
2.823314666748046875e-01 -7.054816931486129761e-03 1.513380408287048340e-01
7.802516222000122070e-02 7.696464657783508301e-03 -1.148894801735877991e-01
3.833723664283752441e-01 9.159630537033081055e-02 -6.113852560520172119e-02
1.562215983867645264e-01 -5.713865160942077637e-03 -3.565748035907745361e-01
2.629303932189941406e-01 9.954263269901275635e-02 -7.329270243644714355e-03
3.795032501220703125e-01 9.076908230781555176e-02 -2.755142450332641602e-01
1.966839879751205444e-01 9.162752330303192139e-02 2.864253818988800049e-01
3.989191651344299316e-01 8.852723240852355957e-02 -1.443898230791091919e-01
2.913555502891540527e-01 9.697511792182922363e-03 -8.123276233673095703e-01
2.113722115755081177e-01 -9.588733315467834473e-03 -3.546148240566253662e-01
2.606255710124969482e-01 9.902575612068176270e-02 6.877100467681884766e-02
2.075743377208709717e-01 9.664772450923919678e-02 2.812215685844421387e-02
3.458627462387084961e-01 9.020471572875976562e-02 -4.836631715297698975e-01
9.922215342521667480e-02 1.722883433103561401e-03 -4.981978982686996460e-02
3.527179360389709473e-01 7.600145041942596436e-02 5.582069754600524902e-01
2.946136593818664551e-01 1.286679878830909729e-02 -8.478512167930603027e-01
4.540677368640899658e-02 5.017336830496788025e-02 1.509862393140792847e-02
2.356085777282714844e-01 5.361056327819824219e-02 8.048908114433288574e-01
2.769851684570312500e-01 8.655286580324172974e-02 -6.645446419715881348e-01
2.372514903545379639e-01 7.794297486543655396e-02 6.397485136985778809e-01
4.853367805480957031e-02 3.639253228902816772e-02 -3.336127996444702148e-01
2.415636181831359863e-01 1.702066510915756226e-03 -7.190102338790893555e-01
4.342181384563446045e-01 2.031204476952552795e-02 -2.349499613046646118e-02
3.235703706741333008e-01 -3.552235662937164307e-03 -4.181665778160095215e-01
2.522346377372741699e-01 -1.097537577152252197e-02 -2.332209348678588867e-01
9.685152769088745117e-02 2.460357546806335449e-02 -6.597295403480529785e-01
2.933682501316070557e-01 -1.101531088352203369e-04 3.607081174850463867e-01
1.754648089408874512e-01 6.695435941219329834e-02 6.712545156478881836e-01
2.778971195220947266e-01 -2.563338726758956909e-03 -5.977600812911987305e-01
2.788379192352294922e-01 9.855432808399200439e-02 1.217282265424728394e-01
7.001172006130218506e-02 1.611993461847305298e-02 1.837158799171447754e-01
1.852999776601791382e-01 -2.445720136165618896e-03 3.316549956798553467e-01
1.221152991056442261e-01 8.023004233837127686e-02 -3.555358946323394775e-01
3.807589411735534668e-01 9.420286864042282104e-03 -5.200595855712890625e-01
1.071030199527740479e-01 5.349006503820419312e-03 2.328245639801025391e-01
2.111010253429412842e-01 3.692347928881645203e-02 6.388194561004638672e-01
3.558152019977569580e-01 6.659375876188278198e-02 -4.030930250883102417e-02
-3.505053743720054626e-02 8.345504105091094971e-02 1.572359204292297363e-01
-1.215205565094947815e-01 7.804516702890396118e-02 -6.145986318588256836e-01
-1.792672872543334961e-01 5.303997173905372620e-02 7.069963216781616211e-01
-1.556553244590759277e-01 1.977725699543952942e-02 -6.566034555435180664e-01
-6.058178842067718506e-02 1.327477395534515381e-02 -3.333701491355895996e-01
-2.961112856864929199e-01 3.044977597892284393e-02 4.170316755771636963e-01
-1.984027922153472900e-01 1.501002162694931030e-02 -3.351710736751556396e-01
-6.094013899564743042e-02 1.263768598437309265e-02 -1.685300469398498535e-02
-2.069656550884246826e-01 2.144774235785007477e-02 -6.734055280685424805e-01
-6.360320746898651123e-02 1.295449212193489075e-02 3.190321475267410278e-02
-3.384034931659698486e-01 2.926473319530487061e-02 -6.946167349815368652e-01
-2.156317234039306641e-03 1.407897472381591797e-02 1.448676586151123047e-01
-2.195691168308258057e-01 8.014516532421112061e-02 -3.986345827579498291e-01
-3.184603750705718994e-01 7.467733323574066162e-02 -4.584643542766571045e-01
-3.038367629051208496e-01 3.321675583720207214e-02 -8.221899271011352539e-01
-3.202085569500923157e-02 7.924836128950119019e-02 -5.732097029685974121e-01
-3.160874918103218079e-02 7.642154395580291748e-02 -6.706138849258422852e-01
-4.702808856964111328e-01 5.975508689880371094e-02 -3.266904354095458984e-01
-3.350405991077423096e-01 2.144900523126125336e-02 -3.857101798057556152e-01
-2.550506293773651123e-01 2.031468227505683899e-02 -5.671957135200500488e-01
-7.235836982727050781e-02 2.164633944630622864e-02 4.703004658222198486e-01
-2.411336451768875122e-01 8.087690174579620361e-02 -2.119949758052825928e-01
-1.232635043561458588e-02 2.105989120900630951e-02 4.671877324581146240e-01
-1.687224209308624268e-01 7.710148394107818604e-02 -6.215197443962097168e-01
-2.119568586349487305e-01 8.071552217006683350e-02 9.266944974660873413e-02
-2.086370289325714111e-01 7.171729952096939087e-02 4.628533422946929932e-01
3.669565320014953613e-01 6.394152343273162842e-02 1.490606367588043213e-01
2.585990726947784424e-01 7.575963437557220459e-02 -1.351535469293594360e-01
1.642273217439651489e-01 2.279627323150634766e-02 4.078616797924041748e-01
-9.888064861297607422e-02 7.400804013013839722e-02 -7.431855797767639160e-01
-2.328371442854404449e-02 1.743745990097522736e-02 3.388576209545135498e-01
-5.634280294179916382e-02 1.627741754055023193e-02 2.797523736953735352e-01
-2.292545139789581299e-02 4.606663063168525696e-02 7.916610240936279297e-01
1.239359825849533081e-01 8.103178441524505615e-02 -2.989219427108764648e-01
7.824327051639556885e-02 2.294894494116306305e-02 -6.746953725814819336e-01
1.104265451431274414e-02 1.967768371105194092e-02 -6.388147473335266113e-01
2.721128463745117188e-01 2.289396710693836212e-02 2.457199245691299438e-02
-4.547327458858489990e-01 6.241492927074432373e-02 -7.080689072608947754e-02
-4.396170377731323242e-01 3.031907603144645691e-02 -2.275362014770507812e-01
-1.720981597900390625e-01 8.245941996574401855e-02 4.861099272966384888e-02
-4.013055264949798584e-01 7.005798071622848511e-02 -3.042387664318084717e-01
8.154800534248352051e-02 8.194234967231750488e-02 -3.277012705802917480e-01
-2.639135122299194336e-01 2.338300645351409912e-02 -6.659961938858032227e-01
-1.181227490305900574e-01 1.795833185315132141e-02 3.175640106201171875e-01
-8.942790329456329346e-03 7.263687252998352051e-02 -7.606449127197265625e-01
3.549205064773559570e-01 6.681487709283828735e-02 1.389237493276596069e-02
-2.353198975324630737e-01 3.691685199737548828e-02 5.980574488639831543e-01
1.276318728923797607e-02 7.202136516571044922e-02 5.961673855781555176e-01
1.981159299612045288e-01 7.955867052078247070e-02 -1.008035391569137573e-01
-1.211227625608444214e-01 7.733360677957534790e-02 4.061923921108245850e-01
-2.118753455579280853e-02 7.445254176855087280e-02 5.387489795684814453e-01
-2.616902589797973633e-01 3.166140988469123840e-02 4.960984289646148682e-01
-1.990630924701690674e-01 7.541319727897644043e-02 -6.534072756767272949e-01
4.109912812709808350e-01 5.229577794671058655e-02 4.746777564287185669e-02
-3.616142272949218750e-01 6.892340630292892456e-02 1.994195282459259033e-01
1.371565461158752441e-01 1.680447533726692200e-02 1.524986326694488525e-01
-4.164060577750205994e-02 2.518570981919765472e-02 -8.073813915252685547e-01
2.657111585140228271e-01 7.568191736936569214e-02 -3.431931138038635254e-03
2.361002564430236816e-01 2.409109845757484436e-02 -4.015848636627197266e-01
-3.176474198698997498e-02 8.470341563224792480e-02 -1.735238432884216309e-01
4.090018570423126221e-02 1.824389025568962097e-02 -5.609045028686523438e-01
-3.150895535945892334e-01 7.701615989208221436e-02 -2.712118923664093018e-01
1.136117130517959595e-01 6.931766867637634277e-02 6.169389486312866211e-01
-1.300661861896514893e-01 8.107075095176696777e-02 -4.726703464984893799e-01
-3.662062287330627441e-01 4.148144274950027466e-02 -8.105137944221496582e-01
-1.977028250694274902e-01 6.527783721685409546e-02 -8.784215450286865234e-01
-6.994508206844329834e-03 8.428131788969039917e-02 6.714754551649093628e-02
2.905166745185852051e-01 3.069275431334972382e-02 3.838478624820709229e-01
1.896034479141235352e-01 8.001230657100677490e-02 2.200365811586380005e-02
3.823543488979339600e-01 3.915271908044815063e-02 -2.097246348857879639e-01
-2.060405462980270386e-01 7.931488752365112305e-02 -4.802037477493286133e-01
-2.907887697219848633e-01 7.857199758291244507e-02 -2.277364432811737061e-01
-3.905343115329742432e-01 2.665263973176479340e-02 1.635255664587020874e-02
-2.397409975528717041e-01 1.630268618464469910e-02 -1.727099716663360596e-02
1.618632674217224121e-01 2.408894523978233337e-02 -5.848348140716552734e-01
3.086531162261962891e-01 7.006570696830749512e-02 2.319154143333435059e-01
2.616632878780364990e-01 2.360035106539726257e-02 1.881213188171386719e-01
-3.370004892349243164e-01 2.106194570660591125e-02 -3.317570388317108154e-01
3.263186812400817871e-01 6.963713467121124268e-02 -1.357222050428390503e-01
-4.330699145793914795e-01 2.972203679382801056e-02 -3.043108284473419189e-01
-4.370890259742736816e-01 3.446400538086891174e-02 7.501182705163955688e-02
-6.314698606729507446e-02 3.059224039316177368e-02 6.572340726852416992e-01
2.499876320362091064e-01 2.127929031848907471e-02 -1.044578701257705688e-01
6.590533256530761719e-02 8.383470773696899414e-02 7.536441087722778320e-03
-2.248623669147491455e-01 1.936699263751506805e-02 2.308681309223175049e-01
3.100201487541198730e-01 7.149887084960937500e-02 1.148177459836006165e-01
-3.924790620803833008e-01 2.507002837955951691e-02 -1.524224579334259033e-01
-2.868971228599548340e-01 2.284847944974899292e-02 2.354122996330261230e-01
-2.658844590187072754e-01 3.145723789930343628e-02 -8.407596349716186523e-01
-2.676222920417785645e-01 2.690758369863033295e-02 -7.543025016784667969e-01
-1.138757318258285522e-01 1.273832842707633972e-02 -1.013048291206359863e-01
-1.198141947388648987e-01 2.895600162446498871e-02 -8.818709254264831543e-01
8.731439709663391113e-02 8.085545152425765991e-02 -3.906770646572113037e-01
-1.404981911182403564e-01 7.024347782135009766e-02 -8.187852501869201660e-01
-1.368867158889770508e-01 1.381518691778182983e-02 -3.381318747997283936e-01
-2.794803380966186523e-01 7.748004049062728882e-02 -4.167800247669219971e-01
2.164815366268157959e-01 2.175265178084373474e-02 2.527362108230590820e-01
-4.196221232414245605e-01 2.948308363556861877e-02 -1.651378720998764038e-02
1.013876125216484070e-02 1.270877942442893982e-02 -6.005343794822692871e-02
-4.640990495681762695e-01 3.847896680235862732e-02 -4.716456532478332520e-01
-2.846041321754455566e-01 7.347530126571655273e-02 2.740946710109710693e-01
2.827523946762084961e-01 7.181249558925628662e-02 -2.883012890815734863e-01
3.361063301563262939e-01 2.922616899013519287e-02 -1.044110655784606934e-01
6.783484667539596558e-02 7.133579254150390625e-02 -7.384540438652038574e-01
-2.207457870244979858e-01 8.138971030712127686e-02 -2.620836198329925537e-01
-2.339489459991455078e-01 7.535631954669952393e-02 3.187300264835357666e-01
-1.874407380819320679e-01 7.577886432409286499e-02 3.810673356056213379e-01
-2.773800194263458252e-01 1.730103045701980591e-02 -2.394582629203796387e-01
3.334060311317443848e-02 4.567266255617141724e-02 7.938601970672607422e-01
1.969152539968490601e-01 7.110834121704101562e-02 4.966349899768829346e-01
-3.974733874201774597e-02 8.197340369224548340e-02 2.589344978332519531e-01
-5.530474334955215454e-02 5.906256288290023804e-02 7.533645033836364746e-01
3.730067312717437744e-01 5.660629644989967346e-02 3.241928219795227051e-01
2.080544531345367432e-01 1.955913938581943512e-02 -2.402440607547760010e-01
3.150229156017303467e-01 2.967494912445545197e-02 2.597754299640655518e-01
-3.567509055137634277e-01 4.807201027870178223e-02 4.580070078372955322e-01
-5.798532813787460327e-02 1.545632630586624146e-02 2.359731197357177734e-01
2.440623939037322998e-01 7.689698040485382080e-02 7.310470193624496460e-02
2.943166792392730713e-01 5.035608634352684021e-02 5.866055488586425781e-01
-2.752718627452850342e-01 5.596315860748291016e-02 5.818109512329101562e-01
7.311040908098220825e-02 8.266031742095947266e-02 1.591398715972900391e-01
1.981278061866760254e-01 7.934786379337310791e-02 8.280328661203384399e-02
1.474202275276184082e-01 2.379274740815162659e-02 4.615784585475921631e-01
-2.173209190368652344e-01 2.000003866851329803e-02 -6.108544468879699707e-01
-1.574445217847824097e-01 8.172072470188140869e-02 1.522068679332733154e-01
-1.047073975205421448e-01 1.662739366292953491e-02 2.693269550800323486e-01
6.831574440002441406e-02 7.893981039524078369e-02 -5.128607153892517090e-01
1.834705621004104614e-01 7.683748751878738403e-02 -3.951649069786071777e-01
7.810296118259429932e-02 2.073290385305881500e-02 4.291078746318817139e-01
-4.815700948238372803e-01 4.546569660305976868e-02 3.388114273548126221e-03
9.207373857498168945e-02 1.462211832404136658e-02 5.552024394273757935e-02
8.251428604125976562e-03 1.455973088741302490e-02 -4.006367921829223633e-01
1.818252503871917725e-01 7.970662415027618408e-02 -2.025071829557418823e-01
-2.599187791347503662e-01 1.654214411973953247e-02 -1.244862452149391174e-01
2.876491844654083252e-02 7.944364845752716064e-02 -5.313246846199035645e-01
2.534025609493255615e-01 2.686819806694984436e-02 -4.492004513740539551e-01
3.295700997114181519e-03 1.827618479728698730e-02 3.716478645801544189e-01
-7.080677151679992676e-02 7.672638446092605591e-02 4.603392183780670166e-01
-2.666853368282318115e-03 7.733533531427383423e-02 -6.301061511039733887e-01
-3.237047195434570312e-01 1.985887251794338226e-02 -2.701754570007324219e-01
2.287162244319915771e-01 7.731914520263671875e-02 -1.866388916969299316e-01
2.866950929164886475e-01 2.430237643420696259e-02 -1.359912604093551636e-01
-3.305825889110565186e-01 6.899516284465789795e-02 2.928444445133209229e-01
8.670359849929809570e-02 7.223717123270034790e-02 5.729102492332458496e-01
-1.309136301279067993e-01 1.291460543870925903e-02 -1.527155786752700806e-01
3.179883658885955811e-01 2.695569954812526703e-02 -6.554147601127624512e-02
8.353763818740844727e-02 8.275606483221054077e-02 -2.489534020423889160e-01
-2.819107174873352051e-01 1.892294548451900482e-02 -4.216993153095245361e-01
1.962390840053558350e-01 1.809042319655418396e-02 -1.113295480608940125e-01
9.229983389377593994e-02 8.329817652702331543e-02 -1.240179091691970825e-01
1.938461214303970337e-01 1.930295489728450775e-02 1.689482331275939941e-01
-3.380337655544281006e-01 6.230047717690467834e-02 -7.713338732719421387e-01
-1.672796308994293213e-01 1.359452307224273682e-02 -1.236850172281265259e-01
2.997080683708190918e-01 2.627165801823139191e-02 1.553154289722442627e-01
1.892153620719909668e-01 3.051242977380752563e-02 -6.821691393852233887e-01
-2.051246762275695801e-01 8.226196467876434326e-02 -1.483623832464218140e-01
1.223465427756309509e-02 8.423507213592529297e-02 -2.155833542346954346e-01
-4.980272948741912842e-01 4.838711023330688477e-02 -2.153998911380767822e-01
1.505884975194931030e-01 8.142174780368804932e-02 -1.447730660438537598e-01
-3.284648060798645020e-02 1.307444274425506592e-02 -3.014095723628997803e-01
1.449302732944488525e-01 6.948344409465789795e-02 -6.899124979972839355e-01
-1.252756118774414062e-01 8.255492895841598511e-02 -3.774561583995819092e-01
-2.611851096153259277e-01 2.029151469469070435e-02 1.922759115695953369e-01
1.502221673727035522e-01 1.982777565717697144e-02 3.113199472427368164e-01
3.790127038955688477e-01 6.236308068037033081e-02 -8.237989246845245361e-02
2.217395007610321045e-01 7.640010118484497070e-02 -2.950343489646911621e-01
-5.923639237880706787e-02 1.234417036175727844e-02 -1.429507732391357422e-01
-3.565379604697227478e-02 1.434571295976638794e-02 1.708536446094512939e-01
-2.995804883539676666e-02 2.210615016520023346e-02 -7.320590615272521973e-01
-2.843064069747924805e-01 7.704143226146697998e-02 1.088714674115180969e-01
-1.690414845943450928e-01 1.511834189295768738e-02 9.332587569952011108e-02
-3.553908467292785645e-01 7.147015631198883057e-02 -4.898635745048522949e-01
2.706804573535919189e-01 4.419621452689170837e-02 -6.702169179916381836e-01
-2.863407731056213379e-01 7.858692109584808350e-02 -4.862498119473457336e-02
-3.418610394001007080e-01 2.249522507190704346e-02 -4.313162267208099365e-01
2.916949242353439331e-02 1.588217169046401978e-02 2.507175505161285400e-01
-1.572792828083038330e-01 8.318741619586944580e-02 -2.478194832801818848e-01
-4.894879758358001709e-01 4.657095298171043396e-02 -4.005573093891143799e-01
-4.432718455791473389e-01 5.797029286623001099e-02 -5.632543563842773438e-01
-7.836302369832992554e-02 7.716938853263854980e-02 -6.538154482841491699e-01
6.772152334451675415e-02 8.340417593717575073e-02 8.525242656469345093e-02
2.464938461780548096e-01 6.788444519042968750e-02 4.902119338512420654e-01
-7.304492592811584473e-02 8.376041054725646973e-02 -3.084625899791717529e-01
1.838181912899017334e-02 8.441782742738723755e-02 -1.682406067848205566e-01
-3.871197700500488281e-01 3.111771307885646820e-02 -6.193002462387084961e-01
-7.208947092294692993e-02 2.535647340118885040e-02 5.609994530677795410e-01
-1.320154368877410889e-01 1.333728432655334473e-02 -1.671041548252105713e-02
1.513914316892623901e-01 3.001858852803707123e-02 -7.332167625427246094e-01
-1.150090247392654419e-01 1.500586047768592834e-02 1.687641739845275879e-01
-6.509733945131301880e-02 6.487451493740081787e-02 6.948825716972351074e-01
-3.015106171369552612e-02 3.344086185097694397e-02 7.039445042610168457e-01
4.213056713342666626e-02 8.404146879911422729e-02 4.275468736886978149e-02
6.886962801218032837e-02 7.942906022071838379e-02 3.606435358524322510e-01
-6.629493832588195801e-02 8.120051026344299316e-02 -4.900814294815063477e-01
-5.853890627622604370e-02 1.461324840784072876e-02 -4.431656897068023682e-01
-2.122710198163986206e-01 7.964130491018295288e-02 1.689902544021606445e-01
2.104384303092956543e-01 1.955928653478622437e-02 1.155840232968330383e-01
-3.742019534111022949e-01 7.302363216876983643e-02 -1.658206731081008911e-01
-6.272682547569274902e-02 7.488753646612167358e-02 5.154420137405395508e-01
-1.886791437864303589e-01 3.276619687676429749e-02 6.029845476150512695e-01
2.791474759578704834e-02 1.700505241751670837e-02 -5.203706622123718262e-01
2.121761143207550049e-01 7.895740866661071777e-02 -5.708222463726997375e-02
3.122666478157043457e-01 6.965169310569763184e-02 -2.434772551059722900e-01
1.325140744447708130e-01 1.557483151555061340e-02 -1.754927486181259155e-01
-1.899916827678680420e-01 6.709223985671997070e-02 5.741090774536132812e-01
-2.654831409454345703e-01 6.788445264101028442e-02 4.565534889698028564e-01
2.639377415180206299e-01 7.397919148206710815e-02 2.264379560947418213e-01
4.844851046800613403e-02 1.731394603848457336e-02 3.130289316177368164e-01
1.972207427024841309e-01 1.835001818835735321e-02 -1.622969657182693481e-01
-2.474105954170227051e-01 2.807345613837242126e-02 -8.009393215179443359e-01
-2.551423907279968262e-01 2.664866857230663300e-02 4.100370705127716064e-01
3.416526317596435547e-01 2.960223890841007233e-02 -2.247574925422668457e-02
-2.477521896362304688e-01 7.946522533893585205e-02 7.097943872213363647e-02
2.802483737468719482e-01 7.089583575725555420e-02 -3.413936495780944824e-01
-2.758972644805908203e-01 1.800127513706684113e-02 -3.646332025527954102e-01
1.266018897294998169e-01 1.515119895339012146e-02 -6.256613135337829590e-02
1.514414548873901367e-01 8.105602860450744629e-02 1.121347472071647644e-01
-3.443375229835510254e-01 2.148201502859592438e-02 -8.344936370849609375e-02
2.152744531631469727e-01 4.101708903908729553e-02 -7.595486044883728027e-01
-9.625583887100219727e-03 1.498372107744216919e-02 -4.448826313018798828e-01
2.454917132854461670e-01 7.647812366485595703e-02 1.212145015597343445e-01
1.868499517440795898e-01 2.213798463344573975e-02 -4.650836288928985596e-01
-3.945886194705963135e-01 4.061354324221611023e-02 3.324256539344787598e-01
-1.619010865688323975e-01 7.814934104681015015e-02 3.317524492740631104e-01
-2.186258286237716675e-01 2.593527361750602722e-02 4.483840167522430420e-01
-3.521268442273139954e-02 7.836279273033142090e-02 4.206562340259552002e-01
-3.261326253414154053e-01 4.372167587280273438e-02 5.078720450401306152e-01
-2.605147659778594971e-01 7.885205000638961792e-02 -3.780266940593719482e-01
3.071389347314834595e-02 8.444594591856002808e-02 -1.109094917774200439e-01
-2.855859398841857910e-01 3.741793707013130188e-02 5.321788191795349121e-01
-1.410504579544067383e-01 7.783691585063934326e-02 3.688234984874725342e-01
-1.387712359428405762e-01 2.154592238366603851e-02 4.241460859775543213e-01
-1.572651118040084839e-01 2.625790610909461975e-02 -8.252593874931335449e-01
-4.187587276101112366e-02 1.820261776447296143e-02 -6.141873598098754883e-01
-3.275740444660186768e-01 4.572067409753799438e-02 -8.863984942436218262e-01
1.955615580081939697e-01 7.488749921321868896e-02 3.821323513984680176e-01
1.136386990547180176e-01 2.675130777060985565e-02 5.667565464973449707e-01
-8.032923936843872070e-02 4.780324175953865051e-02 -1.016651153564453125e+00
3.189115226268768311e-02 8.066616952419281006e-02 3.237249553203582764e-01
-1.798525750637054443e-01 7.981707155704498291e-02 2.280542850494384766e-01
-7.567572593688964844e-02 1.652813702821731567e-02 -5.501562356948852539e-01
-1.139954328536987305e-01 8.104474842548370361e-02 2.579956054687500000e-01
-3.914968073368072510e-01 2.550806477665901184e-02 -7.652632892131805420e-02
-2.924397289752960205e-01 7.778773456811904907e-02 1.045004278421401978e-02
3.661915063858032227e-01 6.160487607121467590e-02 2.547379732131958008e-01
-2.850274145603179932e-01 7.898493111133575439e-02 -1.482564061880111694e-01
-2.285931408405303955e-01 1.647276803851127625e-02 -3.942726254463195801e-01
9.695853292942047119e-02 7.758437097072601318e-02 4.134347140789031982e-01
-1.342927217483520508e-01 2.807412855327129364e-02 5.780147314071655273e-01
3.307490050792694092e-01 3.768776729702949524e-02 -4.462263882160186768e-01
3.349867463111877441e-01 5.979594215750694275e-02 4.245674908161163330e-01
-2.980165779590606689e-01 1.999935135245323181e-02 5.939453095197677612e-02
-5.815755575895309448e-02 8.412639796733856201e-02 7.781463116407394409e-02
2.714917361736297607e-01 7.430866360664367676e-02 -1.874213516712188721e-01
-1.474154591560363770e-01 7.904473692178726196e-02 -5.602799654006958008e-01
-3.809224665164947510e-01 3.013029508292675018e-02 1.947609484195709229e-01
-3.742428496479988098e-02 1.322431117296218872e-02 7.227333635091781616e-02
-1.051976904273033142e-02 1.512823998928070068e-02 2.214772403240203857e-01
-9.948088973760604858e-02 8.047141879796981812e-02 -5.204117298126220703e-01
3.079222440719604492e-01 4.278084635734558105e-02 5.352979898452758789e-01
2.270562052726745605e-01 7.044575363397598267e-02 -5.183054804801940918e-01
2.875148057937622070e-01 7.090473920106887817e-02 2.887459099292755127e-01
-2.239592373371124268e-03 3.512405976653099060e-02 -9.362117648124694824e-01
4.059000909328460693e-01 4.931043088436126709e-02 -1.473533958196640015e-01
-2.308543771505355835e-01 2.247848361730575562e-02 3.369052410125732422e-01
-3.189826011657714844e-01 7.401913404464721680e-02 1.488795578479766846e-01
-1.182683780789375305e-01 3.483518958091735840e-02 -9.562543630599975586e-01
2.861991524696350098e-02 6.880936771631240845e-02 -8.163307905197143555e-01
2.888323366641998291e-01 3.572497516870498657e-02 4.953707754611968994e-01
2.391872406005859375e-01 7.058412581682205200e-02 4.367236793041229248e-01
-1.622648537158966064e-01 1.367521286010742188e-02 -2.538570463657379150e-01
1.459512487053871155e-02 2.745260298252105713e-02 -8.250916600227355957e-01
1.688858866691589355e-01 6.515508890151977539e-02 6.420368552207946777e-01
-1.828933358192443848e-01 2.641935646533966064e-02 5.022110939025878906e-01
-2.160135060548782349e-01 2.344682626426219940e-02 3.889043629169464111e-01
1.335516571998596191e-01 8.221697807312011719e-02 -8.948399871587753296e-02
-1.050327792763710022e-01 7.184400409460067749e-02 -7.932173609733581543e-01
2.936388254165649414e-01 6.566277146339416504e-02 -4.567583203315734863e-01
2.523936629295349121e-01 2.287439629435539246e-02 -2.681267559528350830e-01
-1.030504405498504639e-01 1.541887223720550537e-02 -4.884873032569885254e-01
-1.466330587863922119e-01 1.566559076309204102e-02 -4.765908122062683105e-01
-2.987138926982879639e-01 6.861069053411483765e-02 -7.155408263206481934e-01
3.336333334445953369e-01 2.875568158924579620e-02 3.980907052755355835e-02
-1.428036689758300781e-01 4.272521659731864929e-02 7.273669242858886719e-01
4.008499085903167725e-01 5.292177572846412659e-02 1.955177187919616699e-01
-8.720067888498306274e-02 2.416449040174484253e-02 -7.932305932044982910e-01
-2.030004560947418213e-01 7.375795394182205200e-02 -7.002719640731811523e-01
-1.750429123640060425e-01 1.426257565617561340e-02 -1.162511110305786133e-02
-3.179727494716644287e-01 7.214900851249694824e-02 -5.746890306472778320e-01
-1.963207125663757324e-01 1.594738289713859558e-02 -4.280874133110046387e-01
-2.904691994190216064e-01 6.631768494844436646e-02 -7.755975723266601562e-01
-4.187192916870117188e-01 5.836232006549835205e-02 2.340103387832641602e-01
3.501996397972106934e-02 8.239436149597167969e-02 -3.676591813564300537e-01
-2.316783815622329712e-01 1.786078512668609619e-02 -4.865029156208038330e-01
-2.555152773857116699e-01 7.445235550403594971e-02 -6.153728365898132324e-01
-6.338059902191162109e-02 7.831314951181411743e-02 -6.142852306365966797e-01
-7.105610519647598267e-02 8.348275721073150635e-02 1.350101232528686523e-01
-8.416061848402023315e-02 2.354029379785060883e-02 5.143628716468811035e-01
-3.566652536392211914e-02 8.426381647586822510e-02 -2.537333667278289795e-01
-3.540203571319580078e-01 2.299254573881626129e-02 -5.195565521717071533e-03
2.118782103061676025e-01 3.062906675040721893e-02 -6.423960328102111816e-01
-2.613048851490020752e-01 7.950019836425781250e-02 -3.095252513885498047e-01
-3.110393583774566650e-01 2.225256152451038361e-02 1.411562263965606689e-01
1.137032508850097656e-01 3.031072579324245453e-02 -7.862504124641418457e-01
5.122081935405731201e-02 6.156384572386741638e-02 7.427978515625000000e-01
-1.411677598953247070e-01 7.654280960559844971e-02 -6.581438779830932617e-01
-2.643783092498779297e-01 7.708989828824996948e-02 1.731284856796264648e-01
2.458569705486297607e-01 2.437696792185306549e-02 2.925886809825897217e-01
-3.625361621379852295e-01 6.632051616907119751e-02 -6.428006887435913086e-01
2.244944572448730469e-01 7.713017612695693970e-02 -2.293496876955032349e-01
8.135355263948440552e-02 7.668078690767288208e-02 -5.823802351951599121e-01
3.887872099876403809e-01 4.647205770015716553e-02 -2.768118381500244141e-01
1.928202807903289795e-01 2.688087709248065948e-02 4.868001639842987061e-01
6.138202548027038574e-02 6.568164378404617310e-02 6.950986385345458984e-01
7.035315781831741333e-02 7.516912370920181274e-02 5.077030658721923828e-01
-1.485404372215270996e-01 6.365709006786346436e-02 -9.206781387329101562e-01
-9.376496076583862305e-02 8.446460962295532227e-02 -4.016339033842086792e-02
-1.881682425737380981e-01 2.052661217749118805e-02 3.366764485836029053e-01
-1.868328154087066650e-01 2.363066934049129486e-02 -7.516185045242309570e-01
-2.279865592718124390e-01 1.564737036824226379e-02 -3.025682866573333740e-01
1.994522213935852051e-01 4.219913855195045471e-02 6.965592503547668457e-01
4.488153755664825439e-02 3.105532936751842499e-02 6.727797985076904297e-01
-1.569538712501525879e-01 7.315243035554885864e-02 4.904598295688629150e-01
-3.227207064628601074e-02 4.381054639816284180e-02 -1.000793695449829102e+00
-1.305299401283264160e-01 8.337217569351196289e-02 -2.899969220161437988e-01
-3.875224292278289795e-01 7.011697441339492798e-02 2.877112478017807007e-02
2.227424681186676025e-01 1.948007941246032715e-02 -2.263025939464569092e-02
1.673569530248641968e-02 8.447403460741043091e-02 4.812501370906829834e-03
3.862287849187850952e-02 7.008089125156402588e-02 6.314197778701782227e-01
6.289295852184295654e-03 1.283673569560050964e-02 -2.135886847972869873e-01
1.095114201307296753e-01 7.888597995042800903e-02 -4.567218124866485596e-01
-2.636172771453857422e-01 7.133398950099945068e-02 3.833420872688293457e-01
1.230290904641151428e-02 6.392933428287506104e-02 7.216849327087402344e-01
-3.603748679161071777e-01 2.457439526915550232e-02 -4.741126000881195068e-01
-3.818148076534271240e-01 5.493157729506492615e-02 3.795379102230072021e-01
2.097720801830291748e-01 7.767497748136520386e-02 1.998023092746734619e-01
-8.474153280258178711e-02 1.274208724498748779e-02 -2.531357109546661377e-01
-2.210715226829051971e-02 1.280433684587478638e-02 1.328731328248977661e-02
1.964384317398071289e-01 2.160592377185821533e-02 2.999041378498077393e-01
-7.060185074806213379e-02 3.495707362890243530e-02 -9.557468891143798828e-01
1.544398069381713867e-02 1.367261633276939392e-02 9.535751491785049438e-02
-1.003417968750000000e-01 8.379372954368591309e-02 6.666407734155654907e-02
1.283512562513351440e-01 7.910372316837310791e-02 3.122775256633758545e-01
9.981220960617065430e-02 1.441943272948265076e-02 -2.707385271787643433e-02
1.516018062829971313e-01 2.691375650465488434e-02 5.379416346549987793e-01
-3.392356038093566895e-01 2.070713788270950317e-02 -1.941665261983871460e-01
-4.939462542533874512e-01 5.248261243104934692e-02 -2.789013683795928955e-01
8.531938493251800537e-02 2.129692398011684418e-02 -6.185876727104187012e-01
-3.153991401195526123e-01 2.337039075791835785e-02 -5.657873749732971191e-01
-4.050697386264801025e-01 3.167379647493362427e-02 -5.750363469123840332e-01
-3.959679007530212402e-01 2.531289495527744293e-02 -2.497777044773101807e-01
-1.770016402006149292e-01 1.820629276335239410e-02 2.608855366706848145e-01
1.596591919660568237e-01 7.608193904161453247e-02 -4.825193285942077637e-01
-1.738567352294921875e-01 1.802153512835502625e-02 -5.747987031936645508e-01
-4.144473373889923096e-01 3.003283217549324036e-02 -4.793976843357086182e-01
8.501926064491271973e-02 1.395377144217491150e-02 -7.858750224113464355e-02
1.361589282751083374e-01 1.561807468533515930e-02 8.227750658988952637e-04
-3.442853987216949463e-01 2.641799673438072205e-02 -6.029976010322570801e-01
