-9.566314518451690674e-03 1.683616489171981812e-01 -4.268343746662139893e-01
-7.795739173889160156e-02 1.965098381042480469e-01 -2.769329845905303955e-01
-2.196674644947052002e-01 1.941995322704315186e-01 1.133713126182556152e-01
9.274081885814666748e-02 1.635883748531341553e-01 -3.146222233772277832e-01
7.340727746486663818e-02 1.659529507160186768e-01 -3.835618197917938232e-01
-7.637947797775268555e-03 1.903036832809448242e-01 -4.121384322643280029e-01
-1.688807308673858643e-01 1.616727411746978760e-01 1.472118198871612549e-01
-2.924573421478271484e-01 1.863947361707687378e-01 2.112326025962829590e-01
1.805353015661239624e-01 1.758497059345245361e-01 -9.495718777179718018e-02
5.241604149341583252e-02 1.671589612960815430e-01 -4.096930325031280518e-01
8.820043504238128662e-02 1.903267055749893188e-01 -3.846787810325622559e-01
4.513418674468994141e-02 1.898978650569915771e-01 -4.126440882682800293e-01
1.008209586143493652e-01 1.619975119829177856e-01 -1.858673244714736938e-01
-2.009021341800689697e-01 1.605341285467147827e-01 -1.746585965156555176e-01
-1.258271038532257080e-01 1.623004972934722900e-01 -2.969298958778381348e-01
-2.213241457939147949e-01 1.656152456998825073e-01 2.094233036041259766e-01
-4.925995692610740662e-02 1.606412380933761597e-01 -2.956430315971374512e-01
-1.364611983299255371e-01 1.599319577217102051e-01 1.012239903211593628e-01
-8.492648601531982422e-03 1.870799511671066284e-01 -4.440001249313354492e-01
-4.469202458858489990e-02 1.573946475982666016e-01 -1.254512667655944824e-01
-3.177214264869689941e-01 1.902613490819931030e-01 1.047213226556777954e-01
-3.594064116477966309e-01 1.872232109308242798e-01 1.704525202512741089e-02
7.876329123973846436e-03 1.975866109132766724e-01 -1.902675330638885498e-01
-3.778019919991493225e-02 1.687533408403396606e-01 -4.248982369899749756e-01
-2.479430139064788818e-01 1.604393720626831055e-01 -5.877749621868133545e-02
-3.400292992591857910e-02 1.578266918659210205e-01 -5.483569949865341187e-02
-3.084172606468200684e-01 1.657331287860870361e-01 1.431872099637985229e-01
-2.236926555633544922e-02 1.607063561677932739e-01 -2.998712360858917236e-01
-1.556486934423446655e-01 1.616522818803787231e-01 -2.589266896247863770e-01
-1.323228776454925537e-01 1.969846189022064209e-01 -2.261660397052764893e-01
1.331992447376251221e-02 1.884758472442626953e-01 -4.330703914165496826e-01
-5.986393243074417114e-02 1.956288367509841919e-01 5.371712148189544678e-02
-2.709666490554809570e-01 1.936103403568267822e-01 -1.162026152014732361e-01
-1.697509586811065674e-01 1.582939028739929199e-01 2.398496121168136597e-02
-8.804287761449813843e-02 1.978671997785568237e-01 -2.187821269035339355e-01
-4.355669021606445312e-03 1.591947823762893677e-01 -1.878401637077331543e-02
-2.924045324325561523e-01 1.638250648975372314e-01 1.149340271949768066e-01
-1.331752538681030273e-01 1.613756865262985229e-01 -2.717035412788391113e-01
-1.179391518235206604e-01 1.917501837015151978e-01 1.629678905010223389e-01
-2.255096584558486938e-01 1.915111839771270752e-01 -2.540577054023742676e-01
-2.676813006401062012e-01 1.925641894340515137e-01 -1.606521159410476685e-01
-7.486776262521743774e-02 1.986773610115051270e-01 -8.369816094636917114e-02
4.837876558303833008e-02 1.964226067066192627e-01 -1.782180368900299072e-01
4.786995053291320801e-02 1.951809823513031006e-01 -2.926182150840759277e-01
1.034894734621047974e-01 1.638160645961761475e-01 -7.099277526140213013e-02
-2.274220436811447144e-01 1.678182333707809448e-01 -2.828297913074493408e-01
-1.628495752811431885e-03 1.581478714942932129e-01 -1.588971614837646484e-01
-8.375294506549835205e-03 1.959553658962249756e-01 -3.005011677742004395e-01
9.497335553169250488e-02 1.933616846799850464e-01 -1.130306199193000793e-01
2.026513218879699707e-03 1.898426711559295654e-01 1.091186851263046265e-01
1.543586999177932739e-01 1.886323988437652588e-01 -1.421861350536346436e-01
1.490103751420974731e-01 1.661334037780761719e-01 -2.742772102355957031e-01
9.340608119964599609e-02 1.618270277976989746e-01 -2.291408926248550415e-01
-1.812691390514373779e-01 1.591122299432754517e-01 6.386534869670867920e-02
7.180027663707733154e-02 1.639540195465087891e-01 9.760335087776184082e-04
-1.191290318965911865e-01 1.580900400876998901e-01 -1.721259355545043945e-01
-4.758565127849578857e-02 1.977294832468032837e-01 -3.568412363529205322e-02
1.611076295375823975e-02 1.973436921834945679e-01 -1.335583925247192383e-01
-7.233697175979614258e-02 1.876258403062820435e-01 1.907880306243896484e-01
-3.872265815734863281e-01 1.749315857887268066e-01 6.765687465667724609e-02
-2.408505231142044067e-02 1.621551662683486938e-01 8.905629813671112061e-02
-6.072418019175529480e-02 1.964278668165206909e-01 3.032100200653076172e-02
-5.933204665780067444e-02 1.906089931726455688e-01 1.490651667118072510e-01
-2.668352127075195312e-01 1.946242302656173706e-01 2.527931332588195801e-02
-1.429967880249023438e-01 1.574490070343017578e-01 -4.249766096472740173e-02
2.629525959491729736e-03 1.604751050472259521e-01 -2.890456318855285645e-01
-7.324402034282684326e-02 1.974500417709350586e-01 6.575733423233032227e-04
-5.858857184648513794e-02 1.592061370611190796e-01 4.283221065998077393e-02
9.474307298660278320e-03 1.589333117008209229e-01 -2.171747088432312012e-01
-3.750521317124366760e-02 1.687216609716415405e-01 1.836864054203033447e-01
-7.445341348648071289e-02 1.733826994895935059e-01 -4.424367249011993408e-01
7.464693486690521240e-02 1.953240483999252319e-01 -1.846974492073059082e-01
-2.209725230932235718e-02 1.982322931289672852e-01 -1.274221688508987427e-01
1.625513881444931030e-01 1.887514740228652954e-01 -2.746110856533050537e-01
7.556891441345214844e-02 1.616876572370529175e-01 -2.697619497776031494e-01
-3.096044957637786865e-01 1.737412661314010620e-01 2.397719025611877441e-01
-2.477909773588180542e-01 1.882242709398269653e-01 2.137426137924194336e-01
1.160500049591064453e-01 1.642096638679504395e-01 -2.947875261306762695e-01
-3.327729105949401855e-01 1.658675372600555420e-01 7.056793570518493652e-02
-1.696108877658843994e-01 1.674126535654067993e-01 2.317207753658294678e-01
-2.541140317916870117e-01 1.739206165075302124e-01 2.680867612361907959e-01
9.007188677787780762e-02 1.907257139682769775e-01 -2.314639836549758911e-02
3.097108751535415649e-02 1.826865524053573608e-01 1.420392990112304688e-01
-2.828524708747863770e-01 1.905187517404556274e-01 1.542285978794097900e-01
-2.175339758396148682e-01 1.802486628293991089e-01 -3.495085835456848145e-01
-1.488868296146392822e-01 1.922943443059921265e-01 -3.231585025787353516e-01
-3.342324495315551758e-01 1.664811819791793823e-01 9.885370731353759766e-02
-2.604813277721405029e-01 1.894925832748413086e-01 1.902808248996734619e-01
-2.711166739463806152e-01 1.946426182985305786e-01 -2.785019576549530029e-02
-2.349815368652343750e-01 1.606986820697784424e-01 8.518525958061218262e-02
-2.522282600402832031e-01 1.936753094196319580e-01 1.025837510824203491e-01
-3.841446638107299805e-01 1.738559007644653320e-01 2.662101387977600098e-02
-3.406860530376434326e-01 1.876256912946701050e-01 -8.549147844314575195e-02
8.694398403167724609e-02 1.943881958723068237e-01 -1.442869752645492554e-01
-2.257423102855682373e-01 1.593712568283081055e-01 -4.129176214337348938e-02
6.599108874797821045e-02 1.625790894031524658e-01 -3.147268593311309814e-01
-1.377212852239608765e-01 1.985553503036499023e-01 -1.073311194777488708e-01
-2.253967523574829102e-01 1.600860953330993652e-01 -1.083947941660881042e-01
-1.758235991001129150e-01 1.633497923612594604e-01 1.797893047332763672e-01
-1.555422842502593994e-01 1.645270884037017822e-01 -3.125976920127868652e-01
-9.570562839508056641e-02 1.655335128307342529e-01 1.890425682067871094e-01
-1.133862212300300598e-01 1.588358581066131592e-01 -2.112347632646560669e-01
-3.696733713150024414e-01 1.848501861095428467e-01 9.258948266506195068e-02
1.271730214357376099e-01 1.890140622854232788e-01 -6.725607812404632568e-02
-3.011479973793029785e-01 1.678726226091384888e-01 -1.688843071460723877e-01
-3.058183789253234863e-01 1.634257733821868896e-01 3.046318888664245605e-02
-1.800205409526824951e-01 1.977008730173110962e-01 -2.188430726528167725e-02
-1.529270112514495850e-01 1.942963898181915283e-01 1.241525113582611084e-01
6.236587464809417725e-02 1.938396990299224854e-01 -3.252862691879272461e-01
-1.901600211858749390e-01 1.587557643651962280e-01 -1.087378561496734619e-01
-3.529897928237915039e-01 1.698678582906723022e-01 1.390798240900039673e-01
1.114767640829086304e-01 1.926032006740570068e-01 -2.882429659366607666e-01
-4.809804633259773254e-02 1.573505103588104248e-01 -9.443338215351104736e-02
-2.235568910837173462e-01 1.634321808815002441e-01 1.726320683956146240e-01
-2.152646332979202271e-01 1.703272610902786255e-01 -3.208576142787933350e-01
-7.883328199386596680e-02 1.702057272195816040e-01 -4.219221770763397217e-01
-6.977005302906036377e-02 1.669883131980895996e-01 -3.965689539909362793e-01
1.167552769184112549e-01 1.877369135618209839e-01 -2.194402366876602173e-02
-2.244329005479812622e-01 1.900144964456558228e-01 -2.779217660427093506e-01
-1.505306363105773926e-01 1.923806816339492798e-01 1.616314053535461426e-01
-8.932036906480789185e-02 1.893501877784729004e-01 -3.986357748508453369e-01
-1.112340539693832397e-01 1.962282359600067139e-01 -2.678868770599365234e-01
3.470733761787414551e-03 1.654929220676422119e-01 -3.938728570938110352e-01
-3.245913982391357422e-01 1.662097722291946411e-01 -6.959031522274017334e-02
-3.640022277832031250e-01 1.843559592962265015e-01 -6.247083097696304321e-02
1.053525954484939575e-01 1.917551159858703613e-01 -8.209889382123947144e-02
8.699335157871246338e-02 1.926003992557525635e-01 -6.344468146562576294e-02
1.602299362421035767e-01 1.678155362606048584e-01 -1.381812840700149536e-01
-9.986120462417602539e-02 1.576077044010162354e-01 -1.560567319393157959e-01
-2.753544449806213379e-01 1.938458681106567383e-01 5.422565340995788574e-02
-2.660515308380126953e-01 1.632343083620071411e-01 -1.407503783702850342e-01
-3.456539288163185120e-02 1.984294652938842773e-01 -1.595238447189331055e-01
-2.127707302570343018e-01 1.965325176715850830e-01 2.162282168865203857e-02
3.842510282993316650e-03 1.945380866527557373e-01 2.094484120607376099e-02
-1.633421480655670166e-01 1.578578650951385498e-01 -1.076266169548034668e-02
-1.600189507007598877e-02 1.970438659191131592e-01 -4.010769724845886230e-02
1.675325483083724976e-01 1.798820048570632935e-01 -6.046858802437782288e-02
-3.092581033706665039e-02 1.647248864173889160e-01 1.371221989393234253e-01
-3.332743644714355469e-01 1.807469874620437622e-01 2.192341983318328857e-01
-3.568365573883056641e-01 1.875703036785125732e-01 4.109516739845275879e-02
1.073614060878753662e-01 1.631520688533782959e-01 -2.696311175823211670e-01
5.768696963787078857e-02 1.957053393125534058e-01 -1.267178654670715332e-01
-2.875235676765441895e-01 1.875920593738555908e-01 -2.144766896963119507e-01
-1.847291290760040283e-01 1.942090988159179688e-01 -2.521924078464508057e-01
-9.676700830459594727e-02 1.987104117870330811e-01 -7.347376644611358643e-02
7.252815365791320801e-02 1.605524867773056030e-01 -1.846815347671508789e-01
9.146481752395629883e-03 1.970129013061523438e-01 -8.205161243677139282e-02
-1.723770201206207275e-01 1.967046707868576050e-01 -1.915038526058197021e-01
-2.916432321071624756e-01 1.837770044803619385e-01 -2.413764744997024536e-01
-1.528708338737487793e-01 1.968803405761718750e-01 4.665684700012207031e-02
-2.250548750162124634e-01 1.644400954246520996e-01 -2.368422895669937134e-01
2.786921709775924683e-02 1.878982335329055786e-01 1.054757833480834961e-01
-1.410315930843353271e-01 1.963011920452117920e-01 6.834755837917327881e-02
2.975328266620635986e-02 1.594680547714233398e-01 -2.244873493909835815e-01
-4.030246660113334656e-02 1.961325407028198242e-01 2.259828895330429077e-02
4.969961941242218018e-02 1.929273754358291626e-01 -3.586960434913635254e-01
1.532698571681976318e-01 1.673257797956466675e-01 -3.074333071708679199e-01
-1.690652370452880859e-01 1.956123709678649902e-01 8.937618136405944824e-02
-6.112451106309890747e-02 1.634057015180587769e-01 -3.505333662033081055e-01
8.127027750015258789e-02 1.610631048679351807e-01 -1.421484947204589844e-01
1.462593972682952881e-01 1.906362175941467285e-01 -2.152321040630340576e-01
1.745832413434982300e-01 1.686465442180633545e-01 -2.606564760208129883e-01
-2.260376662015914917e-01 1.965067684650421143e-01 -1.320930570363998413e-02
-5.964161455631256104e-02 1.609188765287399292e-01 9.192623198032379150e-02
5.499640107154846191e-02 1.961527913808822632e-01 -1.997645944356918335e-01
-2.807874381542205811e-01 1.737865507602691650e-01 -2.605881094932556152e-01
-3.556654453277587891e-01 1.684083342552185059e-01 7.606403529644012451e-02
1.867785155773162842e-01 2.055334299802780151e-01 4.768666923046112061e-01
4.484059214591979980e-01 1.052221357822418213e-01 1.212322786450386047e-01
2.342326045036315918e-01 2.111399173736572266e-01 -1.551483571529388428e-02
3.833146691322326660e-01 1.064108535647392273e-01 3.419754505157470703e-01
-1.029051691293716431e-01 1.489521563053131104e-01 2.735552191734313965e-01
2.787784934043884277e-01 1.083319336175918579e-01 4.525952935218811035e-01
2.716648578643798828e-01 1.747093051671981812e-01 5.267702937126159668e-01
-1.004810482263565063e-01 1.615889221429824829e-01 3.974682688713073730e-01
4.350856542587280273e-01 1.478674113750457764e-01 -5.111825466156005859e-02
-4.489082098007202148e-02 2.308765351772308350e-01 3.818226605653762817e-02
3.817234933376312256e-02 1.423263400793075562e-01 -3.142928481101989746e-01
1.511622518301010132e-01 1.091830283403396606e-01 4.418781399726867676e-01
2.826945781707763672e-01 1.105003207921981812e-01 -3.211101889610290527e-01
5.928657203912734985e-02 1.316955238580703735e-01 5.120778083801269531e-01
2.789124846458435059e-01 9.880024194717407227e-02 3.881091773509979248e-01
2.464509010314941406e-01 9.244980663061141968e-02 3.288305401802062988e-01
1.805899739265441895e-01 1.234089583158493042e-01 5.387032032012939453e-01
1.404890716075897217e-01 9.921084344387054443e-02 -1.801897883415222168e-01
-5.380734801292419434e-02 2.340166866779327393e-01 1.680407077074050903e-01
-2.273541688919067383e-02 2.093410789966583252e-01 -1.894114613533020020e-01
5.471186339855194092e-02 2.031156420707702637e-01 5.695621967315673828e-01
6.723888218402862549e-02 2.309872508049011230e-01 3.221846222877502441e-01
3.623566627502441406e-01 1.703141927719116211e-01 3.665889501571655273e-01
3.373366594314575195e-01 1.761603504419326782e-01 -1.722801029682159424e-01
1.633018255233764648e-04 1.395542174577713013e-01 -2.512204945087432861e-01
1.562206745147705078e-01 8.886332809925079346e-02 1.428382545709609985e-01
1.507844328880310059e-01 9.133803099393844604e-02 -7.152634859085083008e-02
3.624759912490844727e-01 1.834908276796340942e-01 1.972419619560241699e-01
2.399195581674575806e-01 1.674641370773315430e-01 -3.480478823184967041e-01
8.847713470458984375e-02 1.996280699968338013e-01 -2.768516540527343750e-01
1.070821583271026611e-01 2.276170253753662109e-01 6.774008274078369141e-03
3.130031228065490723e-01 8.560261130332946777e-02 -1.234712451696395874e-01
2.567042112350463867e-01 2.084144353866577148e-01 2.704555988311767578e-01
5.426942557096481323e-02 1.028685569763183594e-01 1.285610347986221313e-01
3.821271061897277832e-01 1.779236942529678345e-01 7.650925219058990479e-02
-1.246569603681564331e-01 2.142630517482757568e-01 3.562533259391784668e-01
-4.263728857040405273e-03 1.210341602563858032e-01 -9.646853804588317871e-02
-1.396909356117248535e-03 2.318695485591888428e-01 3.411594033241271973e-01
4.023166298866271973e-01 1.621484011411666870e-01 2.788206338882446289e-01
1.762596368789672852e-01 2.221140265464782715e-01 4.823589324951171875e-02
4.353027343750000000e-01 1.261266916990280151e-01 2.789812088012695312e-01
4.049871861934661865e-02 1.126249283552169800e-01 -1.290290355682373047e-01
2.165306359529495239e-01 9.569790959358215332e-02 -2.239708304405212402e-01
-1.259037703275680542e-01 1.673568338155746460e-01 3.446604609489440918e-01
9.512665122747421265e-02 9.766606986522674561e-02 -3.624045848846435547e-02
1.329719275236129761e-01 2.085842788219451904e-01 -2.052171528339385986e-01
1.951853930950164795e-01 2.103655338287353516e-01 4.199194312095642090e-01
2.102555781602859497e-01 9.947440028190612793e-02 3.910264968872070312e-01
1.796999424695968628e-01 2.004710733890533447e-01 5.193090438842773438e-01
2.303349971771240234e-02 1.105825304985046387e-01 -2.174331247806549072e-02
-1.369152516126632690e-01 1.603640913963317871e-01 1.129510998725891113e-01
-1.226966828107833862e-01 1.610517352819442749e-01 3.093422055244445801e-01
1.723213493824005127e-01 1.004104167222976685e-01 3.780627548694610596e-01
1.989841461181640625e-02 2.054515480995178223e-01 -2.351158261299133301e-01
-7.684643566608428955e-02 1.892385482788085938e-01 -1.967226862907409668e-01
1.375748515129089355e-01 9.026984870433807373e-02 9.537659585475921631e-02
1.561926007270812988e-01 9.528537094593048096e-02 -1.548171341419219971e-01
9.559252858161926270e-02 2.245635688304901123e-01 3.981630802154541016e-01
3.820795416831970215e-01 1.781207919120788574e-01 1.261648237705230713e-01
-3.060325980186462402e-02 2.334973961114883423e-01 8.088998496532440186e-02
-4.963889718055725098e-03 2.269418090581893921e-01 4.103197157382965088e-01
3.983473181724548340e-01 1.121340692043304443e-01 -2.177831828594207764e-01
-9.403847157955169678e-02 1.477875411510467529e-01 -4.623891413211822510e-02
2.180130332708358765e-01 1.336292326450347900e-01 5.718879103660583496e-01
2.344587445259094238e-02 2.306946069002151489e-01 3.599697351455688477e-01
4.577502608299255371e-01 1.181004494428634644e-01 1.516270786523818970e-01
2.058282196521759033e-01 8.368604630231857300e-02 4.029726237058639526e-02
3.986949920654296875e-01 1.699636131525039673e-01 9.993113577365875244e-03
1.255032718181610107e-01 1.854949444532394409e-01 6.095023155212402344e-01
-8.210375905036926270e-02 2.228219211101531982e-01 -1.834514737129211426e-02
1.609731763601303101e-01 2.174969762563705444e-01 3.974598050117492676e-01
2.064464986324310303e-02 1.242522001266479492e-01 4.040992259979248047e-01
-1.209392398595809937e-01 1.730878949165344238e-01 -9.269395470619201660e-02
3.305494189262390137e-01 1.171999126672744751e-01 4.570569992065429688e-01
-1.455093920230865479e-02 2.215159237384796143e-01 -1.074190139770507812e-01
3.011295497417449951e-01 8.056637644767761230e-02 1.929236203432083130e-02
2.005760818719863892e-01 2.195882350206375122e-01 7.973819971084594727e-02
2.177830338478088379e-01 2.144220471382141113e-01 3.025139272212982178e-01
9.264326095581054688e-02 2.133408188819885254e-01 -1.864688992500305176e-01
-9.118494391441345215e-02 1.436257660388946533e-01 -8.271433413028717041e-03
4.457207918167114258e-01 1.449296325445175171e-01 1.606815606355667114e-01
3.343051671981811523e-01 8.286417275667190552e-02 1.411301344633102417e-01
2.964029312133789062e-01 1.914627104997634888e-01 -1.287501901388168335e-01
9.708400070667266846e-02 9.563417732715606689e-02 9.499026834964752197e-02
3.013852834701538086e-01 1.682727038860321045e-01 -2.845535874366760254e-01
-5.465033650398254395e-02 2.307804673910140991e-01 3.193207979202270508e-01
2.826491594314575195e-01 2.035900950431823730e-01 2.495015114545822144e-01
-3.063976764678955078e-03 2.161457389593124390e-01 4.991560876369476318e-01
1.764300167560577393e-01 8.620180189609527588e-02 2.952691167593002319e-02
2.783550620079040527e-01 8.052780479192733765e-02 3.426036238670349121e-02
-2.172483503818511963e-02 1.335877478122711182e-01 3.976766169071197510e-01
-1.374045759439468384e-01 1.905130445957183838e-01 -5.516645312309265137e-02
-6.138147413730621338e-02 1.773220300674438477e-01 5.266729593276977539e-01
3.439509272575378418e-01 1.412079781293869019e-01 4.830740690231323242e-01
2.944087982177734375e-01 9.411791712045669556e-02 3.413006961345672607e-01
1.368608027696609497e-01 1.225484684109687805e-01 -3.371211886405944824e-01
2.748617529869079590e-01 8.081051707267761230e-02 9.280215203762054443e-02
6.486168503761291504e-02 1.128210499882698059e-01 3.718688488006591797e-01
3.562077283859252930e-01 1.854171007871627808e-01 3.506842255592346191e-02
9.490912407636642456e-02 1.433933526277542114e-01 5.866050720214843750e-01
1.567945778369903564e-01 2.209698855876922607e-01 3.544821441173553467e-01
1.835055649280548096e-02 2.311022579669952393e-01 4.268087446689605713e-03
-2.891474962234497070e-02 2.111343890428543091e-01 5.123639106750488281e-01
-5.846975743770599365e-02 2.337328791618347168e-01 1.963731646537780762e-01
3.435407876968383789e-01 1.056918054819107056e-01 3.916375339031219482e-01
2.987802624702453613e-01 9.385751932859420776e-02 -2.218941748142242432e-01
-6.485611200332641602e-03 2.034980654716491699e-01 5.538409948348999023e-01
2.536492347717285156e-01 2.106309682130813599e-01 2.168000042438507080e-01
3.584101498126983643e-01 9.187946468591690063e-02 -1.619844436645507812e-01
2.287302911281585693e-02 1.274044960737228394e-01 4.353820681571960449e-01
1.924677193164825439e-02 1.480482369661331177e-01 5.469139814376831055e-01
1.851474791765213013e-01 1.102133095264434814e-01 -3.093840777873992920e-01
-9.784370660781860352e-03 1.161424592137336731e-01 1.385301351547241211e-01
2.580502629280090332e-01 8.915922045707702637e-02 2.892169952392578125e-01
8.737924695014953613e-02 1.113010421395301819e-01 -2.171460688114166260e-01
2.986832261085510254e-01 1.970027685165405273e-01 -4.442894458770751953e-02
4.609843492507934570e-01 1.288487464189529419e-01 1.828599721193313599e-02
2.472563087940216064e-01 2.125792354345321655e-01 1.469833403825759888e-01
-6.695412099361419678e-02 1.429987996816635132e-01 -1.118382960557937622e-01
1.417265832424163818e-01 2.128570377826690674e-01 -1.605370640754699707e-01
-1.949211955070495605e-02 1.201782822608947754e-01 -5.372561514377593994e-03
1.026175618171691895e-01 2.188473343849182129e-01 4.557549357414245605e-01
1.674452722072601318e-01 2.214096486568450928e-01 3.194844126701354980e-01
2.256646901369094849e-01 2.149357795715332031e-01 4.818572849035263062e-02
4.312187433242797852e-03 2.159747481346130371e-01 -1.630448997020721436e-01
9.300310909748077393e-02 2.091531902551651001e-01 -2.185943424701690674e-01
1.843594610691070557e-01 9.612256288528442383e-02 -2.020139992237091064e-01
-8.234089612960815430e-02 2.285628616809844971e-01 3.052819371223449707e-01
-7.918334007263183594e-02 1.358003318309783936e-01 8.216138184070587158e-02
2.583485841751098633e-01 2.037027776241302490e-01 -7.220740616321563721e-02
4.046286344528198242e-01 1.571232527494430542e-01 3.066244125366210938e-01
3.529804348945617676e-01 8.817821741104125977e-02 -1.256290078163146973e-01
2.502957880496978760e-01 1.716058254241943359e-01 5.602839589118957520e-01
4.059005379676818848e-01 1.685325801372528076e-01 1.451509296894073486e-01
1.174142956733703613e-02 2.331807166337966919e-01 4.854436963796615601e-02
-1.266544610261917114e-01 2.171907275915145874e-01 3.807194530963897705e-02
2.139154821634292603e-01 8.545610308647155762e-02 -7.133594155311584473e-02
1.273039877414703369e-01 9.348013252019882202e-02 1.940652728080749512e-01
4.066169857978820801e-01 1.113150268793106079e-01 3.208426237106323242e-01
9.226906299591064453e-02 2.299724668264389038e-01 3.059033751487731934e-01
1.296347379684448242e-01 2.267500311136245728e-01 3.008020818233489990e-01
3.133790493011474609e-01 9.219880402088165283e-02 3.120942115783691406e-01
-3.977383673191070557e-02 2.329686284065246582e-01 2.922612428665161133e-01
9.723546355962753296e-02 2.316424548625946045e-01 2.299529314041137695e-01
-6.543850898742675781e-02 2.105154395103454590e-01 -1.394369602203369141e-01
3.828185200691223145e-01 1.459933221340179443e-01 4.097097516059875488e-01
1.708160489797592163e-01 2.033997774124145508e-01 -2.176825404167175293e-01
9.702402353286743164e-02 2.315222769975662231e-01 1.077003702521324158e-01
1.623080223798751831e-01 2.255699932575225830e-01 1.540081501007080078e-01
1.716482341289520264e-01 2.232119590044021606e-01 2.542425990104675293e-01
1.219938844442367554e-01 2.290571033954620361e-01 2.505242824554443359e-01
3.332990407943725586e-01 1.026788204908370972e-01 -2.617815136909484863e-01
3.261881470680236816e-01 1.736238151788711548e-01 -2.153149545192718506e-01
3.723123669624328613e-02 2.325025945901870728e-01 3.182319998741149902e-01
4.283686876296997070e-01 1.018298417329788208e-01 1.982619315385818481e-01
7.340688258409500122e-02 1.182131394743919373e-01 -2.487332224845886230e-01
3.725204467773437500e-01 1.211892813444137573e-01 4.166210591793060303e-01
1.016984581947326660e-01 2.272920608520507812e-01 3.473106920719146729e-01
3.864129483699798584e-01 1.730262339115142822e-01 -2.310378849506378174e-02
-1.425499767065048218e-01 2.099351882934570312e-01 3.212601542472839355e-01
-2.860109508037567139e-02 1.317315697669982910e-01 -1.367935538291931152e-01
2.401231974363327026e-01 2.137334942817687988e-01 1.801397502422332764e-01
-5.224567651748657227e-02 1.495971083641052246e-01 4.472102820873260498e-01
2.737508714199066162e-01 1.806571632623672485e-01 -2.577749192714691162e-01
-1.450106352567672729e-01 1.679011583328247070e-01 2.358548045158386230e-01
3.963630795478820801e-01 8.767737448215484619e-02 1.699583977460861206e-02
-1.194454729557037354e-02 1.170868128538131714e-01 1.655468940734863281e-01
2.921859323978424072e-01 1.962119042873382568e-01 -8.050297200679779053e-02
8.506238460540771484e-02 9.911508858203887939e-02 1.900741755962371826e-01
3.756152391433715820e-01 9.894822537899017334e-02 -1.960251629352569580e-01
3.704705834388732910e-01 1.741257160902023315e-01 3.056244254112243652e-01
-7.142275571823120117e-04 2.337070852518081665e-01 3.014523983001708984e-01
2.104652225971221924e-01 2.052804827690124512e-01 4.429242014884948730e-01
-4.177428781986236572e-02 1.241370141506195068e-01 9.667664021253585815e-02
1.018987447023391724e-01 2.317025214433670044e-01 1.837573051452636719e-01
1.347836554050445557e-01 1.380067020654678345e-01 5.842618942260742188e-01
3.373254537582397461e-01 8.207192271947860718e-02 -1.209019124507904053e-02
2.661400437355041504e-01 2.086324393749237061e-01 1.878126263618469238e-01
3.823410272598266602e-01 1.488355398178100586e-01 -2.261914014816284180e-01
2.536204457283020020e-01 8.159027993679046631e-02 1.118536740541458130e-01
3.041127920150756836e-01 8.950302749872207642e-02 -1.783903539180755615e-01
3.455654084682464600e-01 1.264008283615112305e-01 -3.125151097774505615e-01
4.440698027610778809e-01 1.277676522731781006e-01 2.439413517713546753e-01
3.019879162311553955e-01 9.845708310604095459e-02 -2.548544704914093018e-01
3.919283151626586914e-01 1.579711586236953735e-01 3.472564518451690674e-01
4.969172924757003784e-02 2.305736839771270752e-01 3.484628796577453613e-01
2.585067451000213623e-01 8.712620288133621216e-02 -1.466167569160461426e-01
2.621332705020904541e-01 1.955217719078063965e-01 4.291940331459045410e-01
3.788188099861145020e-01 8.591182529926300049e-02 1.128259822726249695e-01
-1.442972570657730103e-01 2.131279259920120239e-01 7.414728403091430664e-02
1.105640977621078491e-01 2.111737728118896484e-01 5.111445188522338867e-01
1.133129447698593140e-01 9.421816468238830566e-02 1.566822379827499390e-01
-1.116036623716354370e-01 2.183209061622619629e-01 1.442544162273406982e-03
3.841670155525207520e-01 9.026302397251129150e-02 -9.890560805797576904e-02
2.604761421680450439e-01 9.382849186658859253e-02 -2.238740921020507812e-01
-1.139375418424606323e-01 1.521055549383163452e-01 1.913449913263320923e-02
2.066517174243927002e-01 2.108174264430999756e-01 -9.434901177883148193e-02
5.946946889162063599e-02 1.050415784120559692e-01 -6.725996732711791992e-02
4.393165707588195801e-01 1.035864800214767456e-01 -6.025876104831695557e-02
1.605115532875061035e-01 1.486980915069580078e-01 6.116628050804138184e-01
3.107337653636932373e-01 1.095267236232757568e-01 -3.056902289390563965e-01
3.481546044349670410e-01 1.886864453554153442e-01 7.460877299308776855e-02
2.752345204353332520e-01 1.589417755603790283e-01 5.564005970954895020e-01
1.108579337596893311e-01 1.295962035655975342e-01 -3.438988327980041504e-01
7.071807980537414551e-03 2.345451116561889648e-01 8.849081397056579590e-02
4.653553664684295654e-02 1.224016547203063965e-01 -2.343584895133972168e-01
7.425434887409210205e-02 1.074337586760520935e-01 3.234325349330902100e-01
-9.563453495502471924e-02 2.280546724796295166e-01 1.008411496877670288e-01
3.389846086502075195e-01 1.864515691995620728e-01 2.917365729808807373e-01
2.538945972919464111e-01 8.177755773067474365e-02 -1.711134612560272217e-02
2.635679244995117188e-01 1.023482084274291992e-01 -2.858782708644866943e-01
2.538221478462219238e-01 1.107614636421203613e-01 4.740800857543945312e-01
-8.171413838863372803e-02 2.151702940464019775e-01 4.395818114280700684e-01
1.441237926483154297e-01 2.115284651517868042e-01 4.804430902004241943e-01
2.346619665622711182e-01 1.033719778060913086e-01 -2.891273498535156250e-01
2.663388848304748535e-01 8.619680255651473999e-02 2.449928224086761475e-01
6.823194772005081177e-02 2.132126986980438232e-01 5.178974866867065430e-01
2.631292492151260376e-02 1.185999587178230286e-01 3.572359681129455566e-01
2.992616295814514160e-01 2.012238055467605591e-01 1.940816938877105713e-01
2.542270720005035400e-01 2.109912037849426270e-01 1.007423400878906250e-01
1.924633532762527466e-01 1.026797890663146973e-01 4.122611880302429199e-01
3.036922812461853027e-01 1.993336528539657593e-01 2.271280437707901001e-01
2.716401815414428711e-01 8.063433319330215454e-02 6.549566984176635742e-02
3.807070255279541016e-01 1.283634155988693237e-01 -2.664527297019958496e-01
2.792131304740905762e-01 1.223457604646682739e-01 5.140665769577026367e-01
1.535782217979431152e-01 1.287946552038192749e-01 -3.664974272251129150e-01
2.177162468433380127e-02 1.090155616402626038e-01 6.256616115570068359e-02
2.353520095348358154e-01 1.969801932573318481e-01 4.678994417190551758e-01
-1.173313707113265991e-01 1.586886495351791382e-01 -3.466689586639404297e-02
4.430176615715026855e-01 1.007590889930725098e-01 8.400942385196685791e-02
3.652378320693969727e-01 8.489369601011276245e-02 -3.989396989345550537e-02
1.307900547981262207e-01 1.827418953180313110e-01 -3.430563509464263916e-01
4.768421500921249390e-02 2.333694994449615479e-01 2.847565710544586182e-01
4.179899096488952637e-01 1.312694549560546875e-01 3.354607224464416504e-01
-1.049131602048873901e-01 2.279544770717620850e-01 1.609305590391159058e-01
2.506199479103088379e-01 9.796892106533050537e-02 3.851982653141021729e-01
2.426724433898925781e-01 1.558828949928283691e-01 5.862078666687011719e-01
1.295295953750610352e-01 9.922416508197784424e-02 3.132449984550476074e-01
1.268334984779357910e-01 9.177455306053161621e-02 2.537475526332855225e-02
2.041403949260711670e-02 1.196714341640472412e-01 -1.563796103000640869e-01
4.074475765228271484e-01 9.898044914007186890e-02 -1.356497108936309814e-01
1.030680090188980103e-01 1.548857986927032471e-01 -3.806305825710296631e-01
2.720110416412353516e-01 1.670001000165939331e-01 -3.231866359710693359e-01
3.487266898155212402e-01 1.794772744178771973e-01 -1.076859980821609497e-01
2.296991050243377686e-01 9.027525782585144043e-02 2.950059175491333008e-01
-1.226082444190979004e-03 1.765701472759246826e-01 -3.050421476364135742e-01
4.254505038261413574e-01 1.506106257438659668e-01 -8.106514811515808105e-02
6.640032678842544556e-02 1.021250784397125244e-01 -2.516186237335205078e-02
1.646039187908172607e-01 9.206937998533248901e-02 -1.191616952419281006e-01
1.408687084913253784e-01 2.025834619998931885e-01 5.415390729904174805e-01
-8.207608759403228760e-02 2.311296164989471436e-01 1.463223695755004883e-01
1.125780791044235229e-01 1.014819294214248657e-01 -1.586023271083831787e-01
-1.032043248414993286e-01 1.750614494085311890e-01 4.466778934001922607e-01
4.544011354446411133e-01 1.402907967567443848e-01 7.024276256561279297e-02
5.729544162750244141e-02 2.278500497341156006e-01 3.869564831256866455e-01
1.117076724767684937e-01 1.137301772832870483e-01 4.446843266487121582e-01
4.207287430763244629e-01 1.621122062206268311e-01 1.192535161972045898e-01
3.100783228874206543e-01 1.497403085231781006e-01 -3.326212763786315918e-01
-8.132031559944152832e-02 2.262171208858489990e-01 3.450500369071960449e-01
-1.544245928525924683e-01 1.818497925996780396e-01 3.060830384492874146e-02
2.269429862499237061e-01 1.872861534357070923e-01 5.341160297393798828e-01
2.005160450935363770e-01 8.823223412036895752e-02 -1.108984202146530151e-01
-1.447119861841201782e-01 1.760875731706619263e-01 -4.120886325836181641e-03
3.996720910072326660e-02 1.121766269207000732e-01 3.066607713699340820e-01
3.063631951808929443e-01 8.354148268699645996e-02 1.875083595514297485e-01
-1.549367159605026245e-01 1.728614866733551025e-01 1.880409419536590576e-01
-9.758427739143371582e-03 1.438215970993041992e-01 4.911020696163177490e-01
-1.138903200626373291e-02 2.354353666305541992e-01 1.371458470821380615e-01
5.105005204677581787e-02 1.052212417125701904e-01 2.059582173824310303e-01
1.890980154275894165e-01 1.613202095031738281e-01 6.143964529037475586e-01
1.951049864292144775e-01 2.076665163040161133e-01 -1.518038511276245117e-01
-4.553152620792388916e-02 1.263235062360763550e-01 1.922311782836914062e-01
1.441951543092727661e-01 1.018479913473129272e-01 3.666517734527587891e-01
4.078282117843627930e-01 9.143292158842086792e-02 1.327494680881500244e-01
9.385882318019866943e-02 1.090350449085235596e-01 3.790688812732696533e-01
1.672250628471374512e-01 1.967268586158752441e-01 5.504267215728759766e-01
-7.967759668827056885e-02 1.357057988643646240e-01 1.123222559690475464e-01
3.364402651786804199e-01 1.922755986452102661e-01 9.927048534154891968e-02
1.088698506355285645e-01 1.997416317462921143e-01 5.719790458679199219e-01
1.384489089250564575e-01 1.069569438695907593e-01 4.124953746795654297e-01
3.068113923072814941e-01 1.972772181034088135e-01 2.612485289573669434e-01
3.106802701950073242e-01 8.545828610658645630e-02 2.232032418251037598e-01
-5.693387985229492188e-02 2.214751541614532471e-01 -7.006807625293731689e-02
2.120099365711212158e-01 8.913865685462951660e-02 -1.415779292583465576e-01
3.342552185058593750e-01 8.268009126186370850e-02 -4.221458733081817627e-02
4.552063345909118652e-01 1.390726566314697266e-01 1.033232808113098145e-01
3.518231809139251709e-01 1.684195846319198608e-01 -1.946731805801391602e-01
2.184855937957763672e-02 1.255795061588287354e-01 -2.108544707298278809e-01
2.279086410999298096e-01 1.929689347743988037e-01 5.046329498291015625e-01
-2.754150331020355225e-02 2.353537380695343018e-01 2.038315683603286743e-01
1.404369324445724487e-01 2.278896570205688477e-01 2.057670354843139648e-01
3.320541381835937500e-01 8.127432316541671753e-02 5.731593817472457886e-02
4.029719233512878418e-01 1.563805937767028809e-01 -1.311378329992294312e-01
1.120267733931541443e-01 2.187046706676483154e-01 -1.238025873899459839e-01
2.270182371139526367e-01 8.670885115861892700e-02 2.338613420724868774e-01
4.536679387092590332e-01 1.248810440301895142e-01 1.929693520069122314e-01
2.940188646316528320e-01 1.835196316242218018e-01 4.503558576107025146e-01
2.800562679767608643e-01 8.170688152313232422e-02 -4.046569764614105225e-02
3.570752143859863281e-01 8.284201472997665405e-02 3.070879727602005005e-02
1.097585707902908325e-01 2.309657782316207886e-01 1.442675888538360596e-01
1.375155150890350342e-01 1.034914702177047729e-01 -2.209067046642303467e-01
1.602396965026855469e-01 8.935815840959548950e-02 1.782747805118560791e-01
7.877404987812042236e-02 9.937201440334320068e-02 1.632037460803985596e-01
2.046576589345932007e-01 8.449496328830718994e-02 1.336163729429244995e-01
-5.728864669799804688e-02 2.325540184974670410e-01 2.713913917541503906e-01
-1.116015464067459106e-01 1.493565142154693604e-01 5.105797946453094482e-02
-1.294071525335311890e-01 1.766721308231353760e-01 3.785907924175262451e-01
3.260079026222229004e-01 9.890694916248321533e-02 3.632255196571350098e-01
1.107425242662429810e-01 1.194432526826858521e-01 4.852750897407531738e-01
-2.814930677413940430e-02 2.232176363468170166e-01 4.368999600410461426e-01
2.238603979349136353e-01 9.825789183378219604e-02 -2.500627636909484863e-01
1.459726691246032715e-01 2.248728573322296143e-01 2.571871131658554077e-02
1.126649901270866394e-01 9.336638450622558594e-02 7.176557183265686035e-02
-1.061039716005325317e-01 2.124258875846862793e-01 -5.942468345165252686e-02
5.890724807977676392e-02 2.339816242456436157e-01 1.171735897660255432e-01
6.181496381759643555e-02 1.405052840709686279e-01 5.560312271118164062e-01
8.898566663265228271e-02 2.310731858015060425e-01 6.490506231784820557e-02
3.646123111248016357e-01 1.731634736061096191e-01 3.374654054641723633e-01
1.482722759246826172e-01 2.015527933835983276e-01 -2.472625970840454102e-01
2.240840494632720947e-01 2.001092582941055298e-01 -1.839478611946105957e-01
2.987300753593444824e-01 8.052014559507369995e-02 7.325439155101776123e-02
4.312508702278137207e-01 1.565503031015396118e-01 6.313773989677429199e-02
3.239722251892089844e-01 1.577507257461547852e-01 -2.951381206512451172e-01
-9.405264258384704590e-02 1.431869417428970337e-01 2.316759228706359863e-01
-1.683077663183212280e-01 1.943650096654891968e-01 1.737252175807952881e-01
-1.416588574647903442e-01 1.704105734825134277e-01 2.891557216644287109e-01
4.178157448768615723e-02 1.509118080139160156e-01 5.767784118652343750e-01
1.272680908441543579e-01 1.094896048307418823e-01 -2.579486370086669922e-01
4.080362319946289062e-01 1.666533648967742920e-01 1.765640825033187866e-01
5.022249370813369751e-02 2.102774083614349365e-01 5.379523038864135742e-01
-8.293172717094421387e-02 2.214370369911193848e-01 3.936040997505187988e-01
-8.144170045852661133e-03 1.568405926227569580e-01 5.475728511810302734e-01
4.010695219039916992e-01 1.618638932704925537e-01 -9.260793030261993408e-02
1.399740725755691528e-01 2.268742918968200684e-01 6.907683610916137695e-02
-7.827806472778320312e-02 1.433991789817810059e-01 3.222706913948059082e-01
2.143205404281616211e-01 8.458616584539413452e-02 1.627843677997589111e-01
-5.201989412307739258e-02 2.338051497936248779e-01 2.350159883499145508e-01
3.975318074226379395e-01 9.111397713422775269e-02 1.691682636737823486e-01
-8.702483773231506348e-02 2.308502197265625000e-01 1.852045059204101562e-01
-9.312349557876586914e-02 2.293659895658493042e-01 2.431876212358474731e-01
1.214382722973823547e-01 2.232458591461181641e-01 -5.351150035858154297e-02
-1.271305978298187256e-02 1.169227883219718933e-01 5.585284903645515442e-02
4.392270445823669434e-01 1.467916071414947510e-01 1.999052166938781738e-01
2.742288112640380859e-01 9.809511154890060425e-02 -2.583287358283996582e-01
-1.653392612934112549e-02 1.291956901550292969e-01 3.679701983928680420e-01
2.602536976337432861e-01 1.156124696135520935e-01 -3.438547551631927490e-01
1.779683232307434082e-01 1.847381591796875000e-01 -3.217302560806274414e-01
-3.861430287361145020e-02 2.295345664024353027e-01 6.929926574230194092e-03
7.111865282058715820e-02 1.120315119624137878e-01 -1.946629583835601807e-01
2.845590114593505859e-01 8.352555334568023682e-02 -9.094050526618957520e-02
2.182842493057250977e-01 9.510857611894607544e-02 3.499229550361633301e-01
4.310529828071594238e-01 9.622143208980560303e-02 5.259975790977478027e-03
8.127219974994659424e-02 1.419989764690399170e-01 -3.541541397571563721e-01
1.913647651672363281e-01 1.088660806417465210e-01 4.599281847476959229e-01
9.468948841094970703e-02 2.215978354215621948e-01 -1.027041673660278320e-01
1.993654221296310425e-01 2.181338965892791748e-01 2.244427800178527832e-02
1.660864651203155518e-01 2.206760197877883911e-01 -1.932987570762634277e-02
-6.457355618476867676e-02 1.326941251754760742e-01 1.481387019157409668e-02
5.867569148540496826e-02 1.411733925342559814e-01 -3.327848613262176514e-01
1.911873221397399902e-01 2.159244120121002197e-01 -4.898722469806671143e-02
3.836933374404907227e-01 1.567304134368896484e-01 3.775548934936523438e-01
-2.549798786640167236e-02 1.439598649740219116e-01 4.657962620258331299e-01
2.628762125968933105e-01 2.062549591064453125e-01 -9.250745177268981934e-03
-4.620119929313659668e-02 1.990694403648376465e-01 5.370622873306274414e-01
1.219557672739028931e-01 2.296020388603210449e-01 1.176450252532958984e-01
1.044188737869262695e-01 1.111054420471191406e-01 4.141091108322143555e-01
2.280282825231552124e-01 2.069163769483566284e-01 3.908209800720214844e-01
1.270767897367477417e-01 1.162663251161575317e-01 -3.004442453384399414e-01
6.797313690185546875e-03 1.142944395542144775e-01 2.167904078960418701e-01
1.096177101135253906e-02 2.351030707359313965e-01 2.542556524276733398e-01
2.090557068586349487e-01 1.907761394977569580e-01 -2.700154185295104980e-01
3.944283127784729004e-01 8.729563653469085693e-02 6.654882431030273438e-02
-3.512410819530487061e-02 1.264297515153884888e-01 -4.603801667690277100e-02
3.382198512554168701e-01 1.883209645748138428e-01 2.646251916885375977e-01
2.135242819786071777e-01 1.758359223604202271e-01 5.838019847869873047e-01
-1.123313754796981812e-01 1.480987370014190674e-01 1.265077143907546997e-01
5.355975776910781860e-02 1.589814275503158569e-01 -3.539216816425323486e-01
2.321923375129699707e-01 2.142537087202072144e-01 2.343319356441497803e-01
-1.474711149930953979e-01 2.157619744539260864e-01 2.103731781244277954e-01
2.797651886940002441e-01 8.429836481809616089e-02 2.105700224637985229e-01
2.585645914077758789e-01 2.011912763118743896e-01 -1.070459485054016113e-01
1.110804080963134766e-02 2.355944216251373291e-01 2.259645462036132812e-01
4.186284542083740234e-02 2.260926663875579834e-01 -7.006919384002685547e-02
7.928102463483810425e-02 1.043320298194885254e-01 2.876942455768585205e-01
6.294171512126922607e-02 1.098771393299102783e-01 -1.537823379039764404e-01
3.684675395488739014e-01 1.683306992053985596e-01 -1.517285406589508057e-01
-5.764174461364746094e-02 1.462221294641494751e-01 -1.622204780578613281e-01
1.094741597771644592e-01 9.885841608047485352e-02 -1.123285144567489624e-01
7.174148410558700562e-02 9.961006045341491699e-02 6.383760273456573486e-02
1.082007661461830139e-01 1.001950651407241821e-01 2.874590158462524414e-01
-7.462491095066070557e-02 1.356040388345718384e-01 2.102344632148742676e-01
4.319962263107299805e-01 1.003467738628387451e-01 1.654528975486755371e-01
1.612978577613830566e-01 1.863265782594680786e-01 5.925548076629638672e-01
4.461918771266937256e-02 2.350504696369171143e-01 1.593250632286071777e-01
3.644222021102905273e-01 8.404903858900070190e-02 -1.194640994071960449e-02
3.708231449127197266e-01 1.084247231483459473e-01 -2.486465573310852051e-01
5.413651466369628906e-03 1.173021048307418823e-01 2.759425640106201172e-01
-1.491390019655227661e-01 1.708406955003738403e-01 6.537921726703643799e-02
1.501075327396392822e-01 1.658384203910827637e-01 -3.822185099124908447e-01
3.524109721183776855e-01 9.983384609222412109e-02 3.439875245094299316e-01
3.578309118747711182e-01 8.633604645729064941e-02 1.835264563560485840e-01
1.139484196901321411e-01 9.352347999811172485e-02 1.225478723645210266e-01
2.265770733356475830e-02 1.706968843936920166e-01 -3.297553360462188721e-01
-9.939569234848022461e-02 1.574753969907760620e-01 -1.006245911121368408e-01
4.158421158790588379e-01 1.385274380445480347e-01 -1.776297986507415771e-01
4.025453329086303711e-01 1.060036867856979370e-01 -1.881804168224334717e-01
2.961710095405578613e-01 2.024142891168594360e-01 1.576689481735229492e-01
7.208630442619323730e-02 1.936842799186706543e-01 -3.027011752128601074e-01
2.036854773759841919e-01 1.856067776679992676e-01 -3.023442924022674561e-01
1.896548867225646973e-01 8.907946199178695679e-02 2.363613843917846680e-01
3.995932638645172119e-02 2.197929024696350098e-01 -1.394313573837280273e-01
2.030397951602935791e-01 8.532693982124328613e-02 -4.403686523437500000e-02
1.560618430376052856e-01 1.146054863929748535e-01 -3.147381246089935303e-01
2.817218303680419922e-01 2.053698003292083740e-01 9.154333919286727905e-02
1.548954993486404419e-01 2.258583307266235352e-01 2.312138676643371582e-01
3.869801759719848633e-01 9.475922584533691406e-02 2.459512799978256226e-01
3.063035011291503906e-01 8.708219230175018311e-02 2.520263791084289551e-01
-1.073721796274185181e-01 2.261019051074981689e-01 2.684761881828308105e-01
-2.835498750209808350e-02 1.351694613695144653e-01 -1.660811305046081543e-01
1.986464262008666992e-01 2.143279165029525757e-01 3.625109195709228516e-01
-5.016677081584930420e-02 1.266896575689315796e-01 1.452539116144180298e-01
3.718578815460205078e-01 1.778139472007751465e-01 2.506127059459686279e-01
1.794187575578689575e-01 9.470697492361068726e-02 3.168075680732727051e-01
1.788596510887145996e-01 8.667761087417602539e-02 -1.624052226543426514e-02
4.394964575767517090e-01 1.255554705858230591e-01 -1.266004443168640137e-01
-1.207725256681442261e-01 1.798412650823593140e-01 4.147806465625762939e-01
7.869429141283035278e-02 2.241770327091217041e-01 -8.043548464775085449e-02
-3.423854708671569824e-02 2.272054404020309448e-01 -3.100389242172241211e-02
-1.199267655611038208e-01 1.526049971580505371e-01 2.016101479530334473e-01
-1.825335621833801270e-02 2.192944288253784180e-01 4.726425111293792725e-01
1.084239780902862549e-02 2.358550578355789185e-01 1.936497837305068970e-01
4.104361683130264282e-02 2.167347967624664307e-01 5.004601478576660156e-01
1.500284820795059204e-01 9.194012731313705444e-02 2.213053405284881592e-01
4.229588508605957031e-01 1.070824861526489258e-01 2.570898234844207764e-01
4.072784632444381714e-02 1.051158979535102844e-01 8.235824108123779297e-02
7.780499756336212158e-02 1.832804530858993530e-01 -3.379520177841186523e-01
3.386472910642623901e-02 2.235298454761505127e-01 -1.015352308750152588e-01
1.718317568302154541e-01 8.650040626525878906e-02 7.276469469070434570e-02
3.673853874206542969e-01 1.468893438577651978e-01 4.403761923313140869e-01
2.205306291580200195e-02 1.093077808618545532e-01 3.516405075788497925e-02
1.061148941516876221e-02 2.285239696502685547e-01 -3.717955946922302246e-02
1.264991313219070435e-01 2.295265197753906250e-01 1.704143583774566650e-01
-1.969709992408752441e-03 2.319343388080596924e-01 2.334217727184295654e-02
2.597748637199401855e-01 8.111867308616638184e-02 1.189875602722167969e-02
1.166163161396980286e-01 2.011606544256210327e-01 -2.636069357395172119e-01
1.893896609544754028e-01 2.219838201999664307e-01 1.458255052566528320e-01
-4.103168845176696777e-03 1.219176948070526123e-01 3.155233263969421387e-01
1.903584450483322144e-01 8.733671158552169800e-02 1.966286003589630127e-01
-1.435924917459487915e-01 1.765885651111602783e-01 3.205453753471374512e-01
1.968590915203094482e-01 8.449784666299819946e-02 9.635075926780700684e-02
2.853367924690246582e-01 1.901139914989471436e-01 -1.682140827178955078e-01
-7.473289966583251953e-03 1.488077193498611450e-01 5.184779167175292969e-01
-7.767643034458160400e-02 2.149449288845062256e-01 -9.459143877029418945e-02
-3.152562677860260010e-02 1.973331123590469360e-01 -2.342291772365570068e-01
3.234342336654663086e-01 1.938169896602630615e-01 1.542679220438003540e-02
1.553584039211273193e-01 1.092531383037567139e-01 -2.838681340217590332e-01
8.370526880025863647e-02 1.212530434131622314e-01 4.722789525985717773e-01
5.097514390945434570e-02 1.034297943115234375e-01 4.482819139957427979e-02
1.056709885597229004e-02 1.112714856863021851e-01 9.421939402818679810e-02
-6.393426656723022461e-02 2.317105233669281006e-01 9.354245662689208984e-02
2.395702153444290161e-02 2.036681622266769409e-01 5.642380714416503906e-01
1.371083855628967285e-01 1.938465237617492676e-01 5.817037820816040039e-01
1.804462671279907227e-01 2.147896587848663330e-01 -8.844645321369171143e-02
5.330196022987365723e-02 2.345197498798370361e-01 2.198771834373474121e-01
3.375085443258285522e-02 2.148948609828948975e-01 -1.799196004867553711e-01
-8.961677551269531250e-02 2.271950393915176392e-01 6.049942225217819214e-02
