-4.330377876758575439e-01 -5.534024238586425781e-01 3.828066587448120117e-02
-4.155492186546325684e-01 -7.524814009666442871e-01 -1.522917300462722778e-02
-4.635928273200988770e-01 -5.905907750129699707e-01 -1.480866670608520508e-01
-4.294715523719787598e-01 -4.741668701171875000e-01 -9.263215959072113037e-02
-3.887425959110260010e-01 -4.844647049903869629e-01 1.862460225820541382e-01
-4.594424366950988770e-01 -6.113007068634033203e-01 -8.640538156032562256e-02
-3.601002097129821777e-01 -6.493735313415527344e-01 1.694640368223190308e-01
-4.716816544532775879e-01 -6.606560349464416504e-01 -1.700862795114517212e-01
-3.869645595550537109e-01 -6.338523626327514648e-01 3.162361979484558105e-01
-4.647402465343475342e-01 -6.461322307586669922e-01 -1.041080653667449951e-01
-3.924640119075775146e-01 -7.705850005149841309e-01 2.668525576591491699e-01
-4.511192440986633301e-01 -5.787659883499145508e-01 -5.494198203086853027e-02
-4.074916243553161621e-01 -7.310840487480163574e-01 2.421699762344360352e-01
-3.883310258388519287e-01 -4.513073265552520752e-01 1.417897641658782959e-03
-4.279688298702239990e-01 -7.927039861679077148e-01 8.863047510385513306e-02
-3.707448542118072510e-01 -5.430641174316406250e-01 5.167715251445770264e-02
-4.265898168087005615e-01 -5.100410580635070801e-01 -1.793538182973861694e-01
-3.669515848159790039e-01 -7.441007494926452637e-01 2.772091031074523926e-01
-3.569378554821014404e-01 -4.897547960281372070e-01 1.393126547336578369e-01
-3.420094251632690430e-01 -5.299067497253417969e-01 3.792466521263122559e-01
-4.327060580253601074e-01 -7.722668647766113281e-01 9.993822872638702393e-02
-4.162722229957580566e-01 -6.798462271690368652e-01 2.031572461128234863e-01
-3.756474554538726807e-01 -5.104313492774963379e-01 2.497907727956771851e-02
-4.643782973289489746e-01 -5.792041420936584473e-01 -1.794848591089248657e-01
-4.550021886825561523e-01 -6.036704182624816895e-01 -5.885948240756988525e-02
-3.521604835987091064e-01 -6.032105684280395508e-01 1.869471669197082520e-01
-3.571741580963134766e-01 -6.870871186256408691e-01 4.055256247520446777e-01
-4.577019810676574707e-01 -5.547561645507812500e-01 -2.407818287611007690e-01
-4.162306487560272217e-01 -7.306714057922363281e-01 -4.767633974552154541e-02
-4.704028069972991943e-01 -6.752452254295349121e-01 -1.479041427373886108e-01
-4.465981721878051758e-01 -6.752141118049621582e-01 3.828191757202148438e-02
-3.953004479408264160e-01 -5.196788907051086426e-01 -6.959265470504760742e-02
-4.203455746173858643e-01 -6.806281805038452148e-01 1.836574971675872803e-01
-4.067883193492889404e-01 -7.675372362136840820e-01 5.204705893993377686e-02
-3.938012421131134033e-01 -6.396772861480712891e-01 -2.596112340688705444e-02
-4.343968927860260010e-01 -7.268888950347900391e-01 -1.230247914791107178e-01
-3.989920616149902344e-01 -5.333251357078552246e-01 1.987122893333435059e-01
-3.969447612762451172e-01 -4.530802965164184570e-01 -3.529054671525955200e-02
-4.297203719615936279e-01 -6.631154417991638184e-01 1.310608386993408203e-01
-3.593456745147705078e-01 -7.295479774475097656e-01 3.233999013900756836e-01
-4.033021926879882812e-01 -5.379709601402282715e-01 1.829797327518463135e-01
-4.074507355690002441e-01 -6.312019228935241699e-01 2.285547256469726562e-01
-4.274605810642242432e-01 -7.173385024070739746e-01 1.510415971279144287e-01
-4.431986510753631592e-01 -5.572170019149780273e-01 -2.315603941679000854e-02
-3.449316620826721191e-01 -5.764069557189941406e-01 4.133964776992797852e-01
-4.363652467727661133e-01 -7.467002868652343750e-01 9.707406163215637207e-02
-4.014147818088531494e-01 -6.511714458465576172e-01 -5.423182249069213867e-02
-3.606096208095550537e-01 -5.925110578536987305e-01 1.263535916805267334e-01
-3.963008821010589600e-01 -5.988253951072692871e-01 -5.950501561164855957e-02
-4.358223974704742432e-01 -6.112822294235229492e-01 -2.093410938978195190e-01
-3.433451950550079346e-01 -5.502568483352661133e-01 2.281136810779571533e-01
-4.521921277046203613e-01 -7.723753452301025391e-01 -7.068115472793579102e-02
-4.713417291641235352e-01 -6.633921265602111816e-01 -2.386447638273239136e-01
-3.800815641880035400e-01 -4.423035383224487305e-01 6.136032566428184509e-02
-4.558385014533996582e-01 -5.399283766746520996e-01 -1.668305546045303345e-01
-4.188229441642761230e-01 -6.369271278381347656e-01 -1.374580115079879761e-01
-4.344405233860015869e-01 -7.445847988128662109e-01 -1.009535193443298340e-01
-3.861106932163238525e-01 -6.253437995910644531e-01 3.152169287204742432e-03
-3.692465424537658691e-01 -5.691398978233337402e-01 3.473925590515136719e-01
-3.713490664958953857e-01 -4.703116714954376221e-01 6.421249359846115112e-02
-3.810985684394836426e-01 -6.256486773490905762e-01 2.918525412678718567e-02
-4.121412038803100586e-01 -6.471667885780334473e-01 -1.041668504476547241e-01
-3.917990028858184814e-01 -5.283150672912597656e-01 -5.443175137042999268e-02
-3.843450546264648438e-01 -5.916287899017333984e-01 -5.061984062194824219e-03
-4.351505339145660400e-01 -5.530027151107788086e-01 -2.149599641561508179e-01
-4.348647296428680420e-01 -7.821858525276184082e-01 7.350917905569076538e-02
-3.863260746002197266e-01 -7.114367485046386719e-01 3.266904354095458984e-01
-4.697781801223754883e-01 -6.450015306472778320e-01 -1.551539748907089233e-01
-4.073651134967803955e-01 -6.520571708679199219e-01 -8.042243123054504395e-02
-4.324268102645874023e-01 -7.697721719741821289e-01 -5.318219959735870361e-02
-4.141850471496582031e-01 -5.139583945274353027e-01 1.007059365510940552e-01
-3.899033367633819580e-01 -4.809910058975219727e-01 -3.449894487857818604e-02
-4.051559567451477051e-01 -7.836512327194213867e-01 9.937141835689544678e-02
-4.572288990020751953e-01 -7.620090842247009277e-01 -9.622941911220550537e-02
-3.917074501514434814e-01 -6.554757952690124512e-01 -4.701890051364898682e-03
-4.416669607162475586e-01 -6.798270940780639648e-01 6.927271187305450439e-02
-3.714653253555297852e-01 -7.379514575004577637e-01 2.141274511814117432e-01
-4.510396122932434082e-01 -6.422904729843139648e-01 -3.772832453250885010e-03
-3.694244325160980225e-01 -6.451012492179870605e-01 3.801699280738830566e-01
-4.259907007217407227e-01 -5.690857172012329102e-01 -1.870145350694656372e-01
-4.360003173351287842e-01 -7.921076416969299316e-01 1.476154476404190063e-02
-3.532788753509521484e-01 -5.667370557785034180e-01 3.918465375900268555e-01
-4.006469547748565674e-01 -7.830969691276550293e-01 1.251133680343627930e-01
-4.507003128528594971e-01 -5.972597599029541016e-01 -3.352377563714981079e-02
-4.457837045192718506e-01 -5.097266435623168945e-01 -1.368939578533172607e-01
-3.398413658142089844e-01 -5.609526634216308594e-01 2.596343159675598145e-01
-3.582021594047546387e-01 -5.381960868835449219e-01 1.237470507621765137e-01
-4.241805970668792725e-01 -6.937677264213562012e-01 -1.184033900499343872e-01
-4.389143586158752441e-01 -4.965814054012298584e-01 -1.784481257200241089e-01
-4.086259901523590088e-01 -5.472224950790405273e-01 1.659198403358459473e-01
-3.776013553142547607e-01 -6.259876489639282227e-01 3.479279875755310059e-01
-3.865813314914703369e-01 -5.624541640281677246e-01 -2.574282884597778320e-02
-3.882104158401489258e-01 -6.591051220893859863e-01 3.187514543533325195e-01
-4.484858810901641846e-01 -7.188781499862670898e-01 -1.744434684514999390e-01
-4.252063632011413574e-01 -7.714391946792602539e-01 -2.357701212167739868e-02
-4.115814566612243652e-01 -7.057081460952758789e-01 -5.477668344974517822e-02
-4.525335133075714111e-01 -7.087906599044799805e-01 5.170375108718872070e-03
-3.660019040107727051e-01 -5.477756857872009277e-01 3.422504067420959473e-01
-3.551319837570190430e-01 -5.658435225486755371e-01 1.493999660015106201e-01
-4.510739445686340332e-01 -7.719393968582153320e-01 -3.204195201396942139e-02
-4.375650882720947266e-01 -5.031825900077819824e-01 -6.940132379531860352e-02
-3.862563371658325195e-01 -4.585191607475280762e-01 1.510652899742126465e-01
-3.813049495220184326e-01 -5.414878129959106445e-01 2.821113467216491699e-01
-3.975365459918975830e-01 -5.646170377731323242e-01 2.329598516225814819e-01
-4.504377543926239014e-01 -6.716330051422119141e-01 1.284647732973098755e-02
-3.504599332809448242e-01 -5.531815290451049805e-01 1.767054796218872070e-01
-4.342973530292510986e-01 -6.877220869064331055e-01 1.127901226282119751e-01
-3.922456502914428711e-01 -5.746195912361145020e-01 -4.938606917858123779e-02
-4.609814882278442383e-01 -6.402558684349060059e-01 -7.650607824325561523e-02
-3.887590169906616211e-01 -5.573275685310363770e-01 2.651535272598266602e-01
-3.859383165836334229e-01 -6.793190240859985352e-01 4.487796500325202942e-02
-3.391405045986175537e-01 -5.920541286468505859e-01 2.805859148502349854e-01
-4.161982238292694092e-01 -7.898476719856262207e-01 6.086107343435287476e-02
-4.021327793598175049e-01 -4.685163497924804688e-01 -7.427528500556945801e-02
-3.626458942890167236e-01 -6.207319498062133789e-01 1.305723190307617188e-01
-3.330133855342864990e-01 -5.934691429138183594e-01 3.523146510124206543e-01
-4.586082696914672852e-01 -6.801198124885559082e-01 -2.312691956758499146e-01
-3.719174861907958984e-01 -5.137523412704467773e-01 4.432854428887367249e-02
-4.714674055576324463e-01 -6.227737665176391602e-01 -2.124492675065994263e-01
-4.363134205341339111e-01 -5.998515486717224121e-01 6.052306294441223145e-02
-3.775126636028289795e-01 -6.658852100372314453e-01 3.578680157661437988e-01
-4.564489126205444336e-01 -7.290024161338806152e-01 -2.625637501478195190e-02
-4.172436296939849854e-01 -7.744459509849548340e-01 1.586250215768814087e-02
-3.802037239074707031e-01 -7.663077116012573242e-01 2.250948995351791382e-01
-4.705626070499420166e-01 -6.950587034225463867e-01 -1.519360691308975220e-01
-3.786479234695434570e-01 -6.392844915390014648e-01 5.130377784371376038e-02
-3.740350604057312012e-01 -5.316308736801147461e-01 3.278458118438720703e-02
-4.135120213031768799e-01 -7.481545805931091309e-01 2.103811055421829224e-01
-3.941671550273895264e-01 -6.246458888053894043e-01 -3.681865334510803223e-02
-3.900851011276245117e-01 -6.704916954040527344e-01 1.541870087385177612e-02
-4.170173406600952148e-01 -5.701963305473327637e-01 -1.549707502126693726e-01
-4.239419400691986084e-01 -4.663782119750976562e-01 -1.097522675991058350e-01
-4.033322632312774658e-01 -6.782037615776062012e-01 2.612823843955993652e-01
-4.021696150302886963e-01 -5.378404855728149414e-01 -9.949178993701934814e-02
-4.106360077857971191e-01 -7.861493825912475586e-01 1.847452074289321899e-01
-3.643827438354492188e-01 -4.658718109130859375e-01 2.439049631357192993e-01
-3.492883443832397461e-01 -6.456607580184936523e-01 2.429154813289642334e-01
-4.122539758682250977e-01 -7.965576648712158203e-01 1.217846721410751343e-01
-4.304996132850646973e-01 -5.939099788665771484e-01 -1.973907202482223511e-01
-3.927061557769775391e-01 -5.967536568641662598e-01 2.756477594375610352e-01
-4.097966849803924561e-01 -4.764527082443237305e-01 -1.075345724821090698e-01
-4.070502221584320068e-01 -7.387240529060363770e-01 4.392988979816436768e-03
-3.520990908145904541e-01 -6.368784904479980469e-01 2.131002992391586304e-01
-3.756271302700042725e-01 -6.998869180679321289e-01 3.623344302177429199e-01
-4.007971286773681641e-01 -4.680376648902893066e-01 1.002208217978477478e-01
-3.369038403034210205e-01 -6.418958306312561035e-01 3.719924688339233398e-01
-3.436655402183532715e-01 -4.967536926269531250e-01 2.394358515739440918e-01
-4.114777147769927979e-01 -5.433154106140136719e-01 1.478499919176101685e-01
-3.485996723175048828e-01 -6.842424273490905762e-01 3.059501647949218750e-01
-4.125368893146514893e-01 -5.686390995979309082e-01 -1.380812823772430420e-01
-3.946664929389953613e-01 -7.797154188156127930e-01 1.542315781116485596e-01
-4.329475462436676025e-01 -6.671348214149475098e-01 1.149752289056777954e-01
-3.344286382198333740e-01 -6.247560977935791016e-01 3.962107300758361816e-01
-3.468154668807983398e-01 -4.763104915618896484e-01 2.758105397224426270e-01
-4.477134346961975098e-01 -6.084313988685607910e-01 -3.943659365177154541e-03
-3.902662098407745361e-01 -7.822127938270568848e-01 2.224982827901840210e-01
-4.692295193672180176e-01 -6.013727784156799316e-01 -2.289846390485763550e-01
-4.040623605251312256e-01 -4.933048188686370850e-01 1.260655224323272705e-01
-4.010336101055145264e-01 -6.355879306793212891e-01 -6.248201429843902588e-02
-3.854543566703796387e-01 -5.981377363204956055e-01 3.058787882328033447e-01
-4.183057248592376709e-01 -6.930643916130065918e-01 -9.544739127159118652e-02
-3.602595329284667969e-01 -6.659989953041076660e-01 1.849582642316818237e-01
-4.150307774543762207e-01 -6.272530555725097656e-01 1.908815801143646240e-01
-3.759933412075042725e-01 -7.243949770927429199e-01 1.566247344017028809e-01
-3.333078324794769287e-01 -5.709127187728881836e-01 3.319894075393676758e-01
-4.379122853279113770e-01 -7.891105413436889648e-01 3.144657984375953674e-02
-4.645746946334838867e-01 -6.659033298492431641e-01 -9.273058176040649414e-02
-3.967186510562896729e-01 -6.655454635620117188e-01 -2.154000848531723022e-02
-4.422586560249328613e-01 -6.506990194320678711e-01 -2.114592939615249634e-01
-3.358176946640014648e-01 -6.125749349594116211e-01 3.332293629646301270e-01
-4.202042520046234131e-01 -4.602503776550292969e-01 -6.341609358787536621e-02
-3.971675038337707520e-01 -4.706175327301025391e-01 1.238690391182899475e-01
-4.643632173538208008e-01 -5.758134126663208008e-01 -2.390389889478683472e-01
-4.689673483371734619e-01 -7.188205718994140625e-01 -1.615103930234909058e-01
-4.672127962112426758e-01 -6.746565699577331543e-01 -1.136729568243026733e-01
-4.129599332809448242e-01 -5.865888595581054688e-01 -1.354399025440216064e-01
-3.652310669422149658e-01 -5.794966220855712891e-01 9.289015829563140869e-02
-3.617717325687408447e-01 -4.527563154697418213e-01 2.098075598478317261e-01
-3.749699294567108154e-01 -4.981442093849182129e-01 2.607046365737915039e-01
-4.316645562648773193e-01 -5.136852264404296875e-01 -4.935219883918762207e-03
-4.281392395496368408e-01 -6.914694905281066895e-01 -1.354750245809555054e-01
-4.590037763118743896e-01 -6.549272537231445312e-01 -5.318069458007812500e-02
-4.225324392318725586e-01 -5.832459330558776855e-01 -1.725618094205856323e-01
-4.560818076133728027e-01 -7.525359392166137695e-01 -4.076896607875823975e-02
-4.463937580585479736e-01 -6.932902336120605469e-01 4.355153813958168030e-02
-4.635513722896575928e-01 -7.237594723701477051e-01 -8.445540070533752441e-02
-3.734505474567413330e-01 -4.440201222896575928e-01 1.564201712608337402e-01
-4.050486087799072266e-01 -6.295647621154785156e-01 -8.396385610103607178e-02
-3.942930400371551514e-01 -6.555818915367126465e-01 2.940613031387329102e-01
-3.944603800773620605e-01 -6.739774942398071289e-01 2.972225546836853027e-01
-4.680632948875427246e-01 -6.519088745117187500e-01 -1.318292319774627686e-01
-3.413141667842864990e-01 -4.941082596778869629e-01 2.736974358558654785e-01
-3.541747629642486572e-01 -5.385719537734985352e-01 1.493537127971649170e-01
-4.444509148597717285e-01 -6.245999336242675781e-01 2.821343019604682922e-02
-4.409996867179870605e-01 -7.447518110275268555e-01 7.097548246383666992e-02
-3.749319911003112793e-01 -7.069163322448730469e-01 1.382650882005691528e-01
-4.726623296737670898e-01 -6.392660140991210938e-01 -2.250042408704757690e-01
-4.016626179218292236e-01 -6.395053863525390625e-01 2.578851580619812012e-01
-3.573125302791595459e-01 -6.144703030586242676e-01 4.053950309753417969e-01
-3.923081159591674805e-01 -5.374244451522827148e-01 2.327784299850463867e-01
-4.554196894168853760e-01 -6.328167915344238281e-01 -2.516203522682189941e-01
-4.046616852283477783e-01 -4.931701123714447021e-01 -1.009072363376617432e-01
-4.489766657352447510e-01 -7.239722013473510742e-01 2.731232345104217529e-02
-3.635933101177215576e-01 -6.054686307907104492e-01 1.152562797069549561e-01
-4.066845476627349854e-01 -5.222231149673461914e-01 -1.169389337301254272e-01
-4.136051833629608154e-01 -5.929453969001770020e-01 1.779195964336395264e-01
-4.062569439411163330e-01 -5.921463370323181152e-01 -1.061077713966369629e-01
-3.587213456630706787e-01 -6.920460462570190430e-01 2.290559262037277222e-01
-3.756737709045410156e-01 -6.082600355148315430e-01 4.804179444909095764e-02
-4.048033356666564941e-01 -6.089423298835754395e-01 -9.319226443767547607e-02
-3.466826379299163818e-01 -5.698250532150268555e-01 2.085442543029785156e-01
-3.603719174861907959e-01 -7.293617129325866699e-01 2.998430728912353516e-01
-4.421044290065765381e-01 -5.199336409568786621e-01 -7.127083837985992432e-02
-3.510138988494873047e-01 -7.061771154403686523e-01 3.538507223129272461e-01
-3.948616683483123779e-01 -5.642629861831665039e-01 -6.416711211204528809e-02
-3.370551168918609619e-01 -6.441681385040283203e-01 3.975409269332885742e-01
-4.303326904773712158e-01 -7.643134593963623047e-01 1.200516223907470703e-01
-4.611422717571258545e-01 -7.036405801773071289e-01 -5.769331753253936768e-02
-3.439772129058837891e-01 -6.770647764205932617e-01 3.495884537696838379e-01
-3.842811882495880127e-01 -5.323128104209899902e-01 -1.906704902648925781e-02
-3.763061165809631348e-01 -7.272837162017822266e-01 3.495706319808959961e-01
-4.483519196510314941e-01 -5.332289338111877441e-01 -9.895442426204681396e-02
-3.572516143321990967e-01 -7.235991358757019043e-01 3.511296510696411133e-01
-4.094576537609100342e-01 -5.726411938667297363e-01 1.835562884807586670e-01
-3.824207484722137451e-01 -6.639755368232727051e-01 3.408740162849426270e-01
-4.494705498218536377e-01 -6.977276206016540527e-01 2.476865425705909729e-02
-4.490215480327606201e-01 -7.573014497756958008e-01 1.090686768293380737e-02
-4.537553787231445312e-01 -5.647487640380859375e-01 -9.308725595474243164e-02
-3.470991551876068115e-01 -6.927328109741210938e-01 3.654283285140991211e-01
-3.508094549179077148e-01 -6.978095769882202148e-01 3.925879001617431641e-01
-4.447562992572784424e-01 -7.273538708686828613e-01 5.338203161954879761e-02
-3.873469233512878418e-01 -5.681139230728149414e-01 2.791809439659118652e-01
-4.194542765617370605e-01 -7.909222245216369629e-01 1.379142999649047852e-01
-3.546222746372222900e-01 -5.111251473426818848e-01 3.388198614120483398e-01
-3.616804182529449463e-01 -5.087381005287170410e-01 3.175823092460632324e-01
-4.421033561229705811e-01 -5.302374362945556641e-01 -5.281670391559600830e-02
-3.995288312435150146e-01 -6.876348853111267090e-01 2.783805429935455322e-01
-3.411034941673278809e-01 -6.666180491447448730e-01 3.694809675216674805e-01
-3.595115244388580322e-01 -5.434473752975463867e-01 3.583149909973144531e-01
-4.469184279441833496e-01 -5.667430758476257324e-01 -3.802011162042617798e-02
-3.638214766979217529e-01 -4.979086220264434814e-01 2.978926301002502441e-01
-3.921715617179870605e-01 -7.491559386253356934e-01 9.798413515090942383e-02
-3.712973296642303467e-01 -7.202474474906921387e-01 1.815351396799087524e-01
-3.744406998157501221e-01 -7.576336264610290527e-01 2.481505572795867920e-01
-3.519335091114044189e-01 -4.760164618492126465e-01 1.882923543453216553e-01
-4.218790829181671143e-01 -5.371681451797485352e-01 8.585064858198165894e-02
-3.909943699836730957e-01 -7.052718997001647949e-01 4.445885121822357178e-02
-3.621679544448852539e-01 -6.494307518005371094e-01 4.009373188018798828e-01
-3.809066414833068848e-01 -4.562188386917114258e-01 1.683287322521209717e-01
-3.990315794944763184e-01 -7.312604188919067383e-01 3.409228473901748657e-02
-4.262957572937011719e-01 -6.067023873329162598e-01 1.216144412755966187e-01
-4.258235692977905273e-01 -5.667190551757812500e-01 9.341475367546081543e-02
-3.361586630344390869e-01 -5.325810909271240234e-01 2.955779731273651123e-01
-3.849436938762664795e-01 -5.131344795227050781e-01 2.392919510602951050e-01
-4.439382851123809814e-01 -6.375737786293029785e-01 3.894278779625892639e-02
-3.960542678833007812e-01 -7.341793775558471680e-01 5.352491140365600586e-02
-3.817216157913208008e-01 -6.860198974609375000e-01 3.448821306228637695e-01
-3.860417306423187256e-01 -4.767615795135498047e-01 -1.457487791776657104e-02
-3.599072992801666260e-01 -6.004117727279663086e-01 3.932871818542480469e-01
-4.621999859809875488e-01 -7.463784217834472656e-01 -1.009369790554046631e-01
-4.072340726852416992e-01 -7.133857011795043945e-01 -2.709434181451797485e-02
-3.620730936527252197e-01 -4.571393728256225586e-01 1.392774581909179688e-01
-3.316120207309722900e-01 -5.681608319282531738e-01 3.676142692565917969e-01
-4.025295674800872803e-01 -7.643728256225585938e-01 2.439170628786087036e-01
-4.515195786952972412e-01 -5.295011997222900391e-01 -1.409646123647689819e-01
-4.433541297912597656e-01 -5.006458759307861328e-01 -1.600621938705444336e-01
-4.367651641368865967e-01 -5.905441045761108398e-01 -2.176563888788223267e-01
-3.956782519817352295e-01 -6.923429965972900391e-01 7.015071809291839600e-03
-3.816046416759490967e-01 -4.889690279960632324e-01 3.929957747459411621e-04
-4.731633067131042480e-01 -6.693246364593505859e-01 -2.011895924806594849e-01
-4.621234536170959473e-01 -7.476965188980102539e-01 -1.306043863296508789e-01
-3.846969008445739746e-01 -4.934135377407073975e-01 2.162363678216934204e-01
-4.373428523540496826e-01 -5.792673230171203613e-01 3.749436512589454651e-02
-3.420476317405700684e-01 -5.841767191886901855e-01 2.508312165737152100e-01
-4.193600118160247803e-01 -6.535998582839965820e-01 1.808798462152481079e-01
-4.053315520286560059e-01 -5.741577744483947754e-01 -1.075987815856933594e-01
-3.569104373455047607e-01 -4.689951539039611816e-01 1.579082310199737549e-01
-4.442762136459350586e-01 -7.844855785369873047e-01 -1.883896440267562866e-02
-3.323795199394226074e-01 -5.795966386795043945e-01 4.011326432228088379e-01
-4.664312601089477539e-01 -7.187972664833068848e-01 -1.120998710393905640e-01
-4.098305404186248779e-01 -6.938254833221435547e-01 2.347865700721740723e-01
-3.336809277534484863e-01 -6.118735074996948242e-01 3.662059307098388672e-01
-4.063379168510437012e-01 -6.068501472473144531e-01 2.213149517774581909e-01
-3.324942588806152344e-01 -6.028587222099304199e-01 3.823051452636718750e-01
-4.441045820713043213e-01 -7.059282064437866211e-01 5.874571204185485840e-02
-4.394854605197906494e-01 -7.755804657936096191e-01 5.496970564126968384e-02
-4.388673305511474609e-01 -7.205582261085510254e-01 -1.449738144874572754e-01
-3.595955669879913330e-01 -7.208149433135986328e-01 3.727407455444335938e-01
-4.254581332206726074e-01 -6.420497894287109375e-01 1.453005373477935791e-01
-3.500390052795410156e-01 -5.040356516838073730e-01 1.811026483774185181e-01
-4.640370905399322510e-01 -7.231899499893188477e-01 -1.886456757783889771e-01
-3.753450214862823486e-01 -4.899503290653228760e-01 3.158487752079963684e-02
-3.878440260887145996e-01 -6.091575026512145996e-01 -1.440172642469406128e-02
-4.492188096046447754e-01 -5.156729817390441895e-01 -1.761002987623214722e-01
-4.286732375621795654e-01 -4.925995171070098877e-01 -2.292872220277786255e-02
-4.183807075023651123e-01 -4.842841625213623047e-01 3.011170029640197754e-02
-4.221783280372619629e-01 -7.571793198585510254e-01 -3.635680675506591797e-02
-4.143623411655426025e-01 -6.926303505897521973e-01 2.140488475561141968e-01
-4.189854860305786133e-01 -5.032315254211425781e-01 5.869238078594207764e-02
-3.795509934425354004e-01 -5.327523946762084961e-01 4.357308149337768555e-03
-4.301656782627105713e-01 -6.474563479423522949e-01 1.227138191461563110e-01
-3.550639748573303223e-01 -6.944695711135864258e-01 2.630561888217926025e-01
-3.431441187858581543e-01 -6.623272299766540527e-01 3.227098882198333740e-01
-3.456606864929199219e-01 -6.655533313751220703e-01 3.010070919990539551e-01
-4.051167964935302734e-01 -4.518636763095855713e-01 -5.664744973182678223e-02
-4.353708028793334961e-01 -6.542692184448242188e-01 9.694466739892959595e-02
-4.608626961708068848e-01 -7.361875772476196289e-01 -6.767062842845916748e-02
-3.921380639076232910e-01 -5.167013406753540039e-01 2.123845219612121582e-01
-4.198398292064666748e-01 -5.828558206558227539e-01 1.390460729598999023e-01
-4.207668304443359375e-01 -5.522885322570800781e-01 -1.703707426786422729e-01
-3.439032137393951416e-01 -6.016619205474853516e-01 2.466277182102203369e-01
-3.370819091796875000e-01 -5.608514547348022461e-01 2.851313650608062744e-01
-4.719825685024261475e-01 -6.400952935218811035e-01 -1.918004006147384644e-01
-3.852545320987701416e-01 -7.451407909393310547e-01 3.144403696060180664e-01
-3.959209322929382324e-01 -7.075997591018676758e-01 2.926787137985229492e-01
-4.013689458370208740e-01 -5.577022433280944824e-01 -9.419526159763336182e-02
-3.654238283634185791e-01 -6.251304745674133301e-01 3.869712948799133301e-01
-4.160547852516174316e-01 -7.849298715591430664e-01 1.656582653522491455e-01
-3.921712338924407959e-01 -5.008239150047302246e-01 1.934017837047576904e-01
-4.313493072986602783e-01 -5.330501198768615723e-01 2.482901513576507568e-02
-4.306568205356597900e-01 -6.653223633766174316e-01 -1.645930856466293335e-01
-4.254890084266662598e-01 -7.210941910743713379e-01 -9.673118591308593750e-02
-4.717680513858795166e-01 -6.914646625518798828e-01 -1.722892969846725464e-01
-4.534776508808135986e-01 -7.468501329421997070e-01 -1.463169157505035400e-01
-3.906094133853912354e-01 -7.185908555984497070e-01 3.103758692741394043e-01
-3.420686125755310059e-01 -6.185320019721984863e-01 2.754497528076171875e-01
-3.835025131702423096e-01 -5.282593965530395508e-01 2.610458731651306152e-01
-3.482100665569305420e-01 -4.965061247348785400e-01 1.989763826131820679e-01
-3.859104216098785400e-01 -4.459169507026672363e-01 1.190678179264068604e-01
-3.772466182708740234e-01 -6.821912527084350586e-01 9.584479033946990967e-02
-3.642878532409667969e-01 -7.236586809158325195e-01 2.413062453269958496e-01
-3.424196243286132812e-01 -6.343941092491149902e-01 2.886829078197479248e-01
-4.120338559150695801e-01 -4.690990746021270752e-01 3.783514723181724548e-02
-3.429834544658660889e-01 -5.206578373908996582e-01 2.314397543668746948e-01
-3.891303837299346924e-01 -4.744447469711303711e-01 1.686862707138061523e-01
-3.824736475944519043e-01 -6.951200962066650391e-01 7.970888167619705200e-02
-4.329507052898406982e-01 -7.280014753341674805e-01 1.210939362645149231e-01
-3.316174149513244629e-01 -5.825961828231811523e-01 3.846489191055297852e-01
-4.327244162559509277e-01 -7.094889879226684570e-01 1.235671788454055786e-01
-4.326838254928588867e-01 -4.912745356559753418e-01 -5.767248570919036865e-02
-4.312128722667694092e-01 -5.221565961837768555e-01 1.093536615371704102e-02
-3.494440019130706787e-01 -5.663322210311889648e-01 1.875751912593841553e-01
-3.418178558349609375e-01 -6.430550813674926758e-01 3.054834008216857910e-01
-4.105932414531707764e-01 -6.455767154693603516e-01 2.199501246213912964e-01
-4.574176967144012451e-01 -6.989213228225708008e-01 -2.929462492465972900e-02
-3.546782433986663818e-01 -5.855587124824523926e-01 3.995543718338012695e-01
-4.575322568416595459e-01 -7.572420835494995117e-01 -6.457737088203430176e-02
-3.323177099227905273e-01 -5.592725276947021484e-01 3.863406181335449219e-01
-3.818159997463226318e-01 -6.556714773178100586e-01 4.653451964259147644e-02
-3.883971869945526123e-01 -7.780739068984985352e-01 2.509146928787231445e-01
-4.517278373241424561e-01 -6.191244125366210938e-01 -2.299483865499496460e-02
-4.126457870006561279e-01 -6.035646200180053711e-01 -1.283863037824630737e-01
-3.651988208293914795e-01 -6.665551066398620605e-01 1.530178785324096680e-01
-4.603440165519714355e-01 -7.392499446868896484e-01 -1.630491614341735840e-01
-3.395917117595672607e-01 -6.477907896041870117e-01 3.390090465545654297e-01
-3.958177864551544189e-01 -5.815280079841613770e-01 2.528082728385925293e-01
-3.903613388538360596e-01 -7.304999828338623047e-01 7.929168641567230225e-02
-3.800687193870544434e-01 -5.869762897491455078e-01 1.477109640836715698e-02
-4.368434250354766846e-01 -4.867694377899169922e-01 -1.441043913364410400e-01
-4.034215211868286133e-01 -5.123665332794189453e-01 -1.024159044027328491e-01
-4.079647362232208252e-01 -7.549166679382324219e-01 2.385789901018142700e-02
-3.962358534336090088e-01 -5.008766651153564453e-01 -7.007676362991333008e-02
-4.698982536792755127e-01 -6.279515624046325684e-01 -1.728531569242477417e-01
-4.519994854927062988e-01 -5.776725411415100098e-01 -2.529954314231872559e-01
-3.479860126972198486e-01 -6.412371397018432617e-01 4.267653226852416992e-01
-3.401470780372619629e-01 -6.614190936088562012e-01 3.963257074356079102e-01
-4.027607738971710205e-01 -6.978944540023803711e-01 -2.204772084951400757e-02
-4.117750525474548340e-01 -6.020625829696655273e-01 1.927398443222045898e-01
-3.749308586120605469e-01 -7.413410544395446777e-01 3.401294946670532227e-01
-3.827497363090515137e-01 -5.716845989227294922e-01 -4.320137202739715576e-03
-4.107606709003448486e-01 -7.171599864959716797e-01 2.305262684822082520e-01
-3.969669938087463379e-01 -6.316065192222595215e-01 2.749296426773071289e-01
-4.225564599037170410e-01 -6.594007015228271484e-01 -1.384395360946655273e-01
-3.692906498908996582e-01 -7.468914985656738281e-01 2.603090703487396240e-01
-4.390339255332946777e-01 -6.944425106048583984e-01 8.739456534385681152e-02
-4.149650037288665771e-01 -7.001155018806457520e-01 -7.494828104972839355e-02
-4.498000144958496094e-01 -5.504676103591918945e-01 -8.138829469680786133e-02
-3.971410989761352539e-01 -7.507671117782592773e-01 2.736232280731201172e-01
-4.489866495132446289e-01 -7.706671953201293945e-01 -7.514387369155883789e-03
-3.916213810443878174e-01 -5.501419305801391602e-01 -5.200549960136413574e-02
-4.077454805374145508e-01 -7.496907711029052734e-01 2.340868413448333740e-01
-3.663264214992523193e-01 -7.454958558082580566e-01 3.154693841934204102e-01
-4.287119805812835693e-01 -5.863500833511352539e-01 9.382642805576324463e-02
-4.200069308280944824e-01 -6.282684803009033203e-01 1.667278259992599487e-01
-4.450301826000213623e-01 -5.491517782211303711e-01 -4.645249247550964355e-02
-4.359343647956848145e-01 -6.362041234970092773e-01 8.548313379287719727e-02
-3.728898763656616211e-01 -5.515137910842895508e-01 3.219464421272277832e-01
-3.819541335105895996e-01 -6.148741245269775391e-01 3.276298940181732178e-01
-3.964389562606811523e-01 -4.995456039905548096e-01 1.721062660217285156e-01
-3.392510116100311279e-01 -5.124320983886718750e-01 3.525838255882263184e-01
-4.530548453330993652e-01 -5.305482745170593262e-01 -2.131846696138381958e-01
-4.110173285007476807e-01 -6.740491390228271484e-01 -8.042378723621368408e-02
-4.268345236778259277e-01 -5.440074801445007324e-01 -1.900679618120193481e-01
-4.106500148773193359e-01 -4.813973307609558105e-01 7.123927026987075806e-02
-4.449664354324340820e-01 -7.497959136962890625e-01 4.396293684840202332e-02
-4.344785511493682861e-01 -5.150100588798522949e-01 -2.220628410577774048e-02
-3.656346201896667480e-01 -5.451537370681762695e-01 8.057534694671630859e-02
-4.245892465114593506e-01 -5.084929466247558594e-01 3.275838494300842285e-02
-4.550909996032714844e-01 -5.827865600585937500e-01 -8.089573681354522705e-02
-3.658368289470672607e-01 -5.118938088417053223e-01 7.827262580394744873e-02
-3.848780989646911621e-01 -6.413931250572204590e-01 1.979818940162658691e-02
-4.019015133380889893e-01 -7.622100710868835449e-01 6.734862178564071655e-02
-3.668215572834014893e-01 -6.949011683464050293e-01 3.859964013099670410e-01
-3.602367639541625977e-01 -6.792442202568054199e-01 2.004229277372360229e-01
-4.419692456722259521e-01 -6.512897014617919922e-01 5.756524205207824707e-02
-3.732621073722839355e-01 -4.734773039817810059e-01 2.308628261089324951e-01
-4.068604111671447754e-01 -6.882731914520263672e-01 -5.005197227001190186e-02
-3.874358832836151123e-01 -6.842304468154907227e-01 3.249270915985107422e-01
-3.948719203472137451e-01 -4.454276263713836670e-01 7.234618812799453735e-02
-4.290983974933624268e-01 -7.440511584281921387e-01 -8.261032402515411377e-02
-4.188083708286285400e-01 -4.749941527843475342e-01 7.230579853057861328e-03
-4.217450916767120361e-01 -5.664333105087280273e-01 1.155240833759307861e-01
-3.537926077842712402e-01 -6.243335008621215820e-01 1.905766725540161133e-01
-3.471917808055877686e-01 -6.191796064376831055e-01 2.342117875814437866e-01
-4.315870404243469238e-01 -5.313776135444641113e-01 -2.011874467134475708e-01
-4.216298460960388184e-01 -7.374504208564758301e-01 -6.201216578483581543e-02
-4.669671654701232910e-01 -6.984272599220275879e-01 -2.192273586988449097e-01
-4.702787101268768311e-01 -6.212358474731445312e-01 -2.474151402711868286e-01
-3.790022730827331543e-01 -4.437993168830871582e-01 1.391079425811767578e-01
-4.391326904296875000e-01 -5.311698913574218750e-01 -2.954918891191482544e-02
-3.712257742881774902e-01 -6.781101822853088379e-01 1.273310482501983643e-01
-4.260767698287963867e-01 -5.450471043586730957e-01 7.058098167181015015e-02
-3.543146848678588867e-01 -5.076133012771606445e-01 1.500259935855865479e-01
-4.525768458843231201e-01 -7.428597211837768555e-01 -4.045009613037109375e-03
-3.461354672908782959e-01 -5.259177684783935547e-01 2.052555084228515625e-01
-4.527334570884704590e-01 -7.593254446983337402e-01 -2.038968354463577271e-02
-4.403288066387176514e-01 -5.685152411460876465e-01 8.447974920272827148e-03
-4.366909563541412354e-01 -5.088908672332763672e-01 -4.977676272392272949e-02
-3.704515397548675537e-01 -4.814093708992004395e-01 2.534053921699523926e-01
-3.914833962917327881e-01 -4.491353929042816162e-01 1.029040068387985229e-01
-3.601232767105102539e-01 -7.241342663764953613e-01 2.828180193901062012e-01
-4.281283020973205566e-01 -6.298108696937561035e-01 1.252829134464263916e-01
-4.276547729969024658e-01 -5.608410835266113281e-01 7.760888338088989258e-02
-4.227165281772613525e-01 -6.499243974685668945e-01 1.626871526241302490e-01
-4.624306857585906982e-01 -6.630221605300903320e-01 -7.608069479465484619e-02
-3.869380652904510498e-01 -7.347986698150634766e-01 1.051232144236564636e-01
-3.740946054458618164e-01 -6.337857842445373535e-01 7.251163572072982788e-02
-3.952148556709289551e-01 -4.461218416690826416e-01 -1.402141898870468140e-02
-4.589097499847412109e-01 -6.548123955726623535e-01 -2.477171272039413452e-01
-4.440076351165771484e-01 -6.015267372131347656e-01 1.470522582530975342e-02
-3.754715621471405029e-01 -4.655453264713287354e-01 4.594708979129791260e-02
-4.486541748046875000e-01 -5.232155323028564453e-01 -1.255057156085968018e-01
-3.851658999919891357e-01 -6.901361346244812012e-01 5.958787724375724792e-02
-4.126342535018920898e-01 -4.897379875183105469e-01 -1.269244998693466187e-01
-3.976314961910247803e-01 -7.244930863380432129e-01 2.832759618759155273e-01
-4.458202123641967773e-01 -7.519006133079528809e-01 -1.236045509576797485e-01
-4.367087185382843018e-01 -5.518894195556640625e-01 1.367691904306411743e-02
-3.772244453430175781e-01 -5.483429431915283203e-01 1.810681074857711792e-02
-4.371411800384521484e-01 -7.057897448539733887e-01 -1.543658822774887085e-01
-4.096633791923522949e-01 -4.628970921039581299e-01 -9.042696654796600342e-02
-4.332643747329711914e-01 -5.802803635597229004e-01 6.279539316892623901e-02
-3.815309107303619385e-01 -7.213065028190612793e-01 1.174254119396209717e-01
-4.588409066200256348e-01 -5.576540827751159668e-01 -1.557554155588150024e-01
-4.353259503841400146e-01 -6.404100060462951660e-01 -1.953875571489334106e-01
-4.058609306812286377e-01 -5.112441182136535645e-01 1.409792304039001465e-01
-4.156807363033294678e-01 -5.421590209007263184e-01 -1.523098647594451904e-01
-4.086450934410095215e-01 -7.633681297302246094e-01 2.215654104948043823e-01
-3.395804166793823242e-01 -5.109958648681640625e-01 2.692990899085998535e-01
-4.015849232673645020e-01 -7.151140570640563965e-01 1.675322651863098145e-03
-3.771280348300933838e-01 -7.401570677757263184e-01 1.766681671142578125e-01
-4.374869167804718018e-01 -4.931068420410156250e-01 -9.857197105884552002e-02
-4.218494892120361328e-01 -5.217784643173217773e-01 6.766905635595321655e-02
-4.395287036895751953e-01 -6.164929270744323730e-01 5.305793881416320801e-02
4.089478254318237305e-01 -4.269862771034240723e-01 -2.879431843757629395e-01
3.924562633037567139e-01 -5.655075907707214355e-01 -4.679341316223144531e-01
5.173717737197875977e-01 -6.425150036811828613e-01 1.803164035081863403e-01
4.403805434703826904e-01 -6.993231177330017090e-01 -8.140097558498382568e-02
5.210895538330078125e-01 -6.573286056518554688e-01 7.533769309520721436e-02
4.845427870750427246e-01 -5.864599943161010742e-01 -2.049062401056289673e-01
4.442165493965148926e-01 -6.428182721138000488e-01 -5.416110157966613770e-03
5.152930021286010742e-01 -7.296251058578491211e-01 4.234407842159271240e-02
4.668095111846923828e-01 -5.971804261207580566e-01 1.168939620256423950e-01
4.448818266391754150e-01 -7.719691991806030273e-01 -3.143153786659240723e-01
5.005754828453063965e-01 -5.217072963714599609e-01 1.696804612874984741e-01
4.103727638721466064e-01 -6.137230396270751953e-01 -1.929917931556701660e-01
4.982525706291198730e-01 -7.321004271507263184e-01 -1.377011090517044067e-01
4.089758992195129395e-01 -6.710717082023620605e-01 -2.772203087806701660e-01
4.363446235656738281e-01 -5.268864631652832031e-01 -3.924013078212738037e-01
4.849758744239807129e-01 -4.796449840068817139e-01 -7.337925583124160767e-02
4.782024919986724854e-01 -7.719957828521728516e-01 -2.189015448093414307e-01
4.783915877342224121e-01 -6.890789270401000977e-01 -2.686736583709716797e-01
4.874350130558013916e-01 -7.780454754829406738e-01 -1.549664288759231567e-01
3.942699432373046875e-01 -6.254521608352661133e-01 -4.318556785583496094e-01
4.002685546875000000e-01 -6.415600776672363281e-01 -3.237137794494628906e-01
5.101460814476013184e-01 -7.054365873336791992e-01 -5.546995997428894043e-02
3.981963098049163818e-01 -4.814408719539642334e-01 -2.652757465839385986e-01
4.880881011486053467e-01 -5.007550716400146484e-01 -8.842691779136657715e-02
4.637635052204132080e-01 -7.291061878204345703e-01 6.001591682434082031e-04
5.131353139877319336e-01 -6.045020222663879395e-01 1.914188265800476074e-03
4.921706318855285645e-01 -7.035347223281860352e-01 -1.890087425708770752e-01
4.924803078174591064e-01 -6.474645137786865234e-01 1.715810447931289673e-01
5.052667856216430664e-01 -6.428295969963073730e-01 -9.317650645971298218e-02
5.085691213607788086e-01 -6.277979016304016113e-01 -5.902308225631713867e-02
4.280005991458892822e-01 -5.832021236419677734e-01 -4.511423707008361816e-01
4.192430675029754639e-01 -4.828832149505615234e-01 -4.025285840034484863e-01
4.188141226768493652e-01 -4.993884265422821045e-01 -4.210637211799621582e-01
4.073504209518432617e-01 -6.927875876426696777e-01 -3.862958848476409912e-01
4.237723052501678467e-01 -6.877769231796264648e-01 -1.753316819667816162e-01
4.831186532974243164e-01 -6.650125384330749512e-01 -2.431383132934570312e-01
4.097235500812530518e-01 -6.364483237266540527e-01 -2.202999889850616455e-01
4.487169981002807617e-01 -4.110956192016601562e-01 -4.608904570341110229e-02
4.074839353561401367e-01 -4.625463783740997314e-01 -1.931845545768737793e-01
4.859457612037658691e-01 -6.531087160110473633e-01 1.523380726575851440e-01
4.036308228969573975e-01 -5.114674568176269531e-01 -2.036199271678924561e-01
5.057282447814941406e-01 -7.309365272521972656e-01 -8.001354336738586426e-02
4.377714097499847412e-01 -4.548813700675964355e-01 -3.066377043724060059e-01
4.484021961688995361e-01 -4.540331661701202393e-01 -2.591779828071594238e-01
4.426482915878295898e-01 -7.754023671150207520e-01 -2.640003561973571777e-01
4.178110063076019287e-01 -4.266398549079895020e-01 -1.614654809236526489e-01
4.490279257297515869e-01 -4.758687615394592285e-01 -2.886527180671691895e-01
4.774373471736907959e-01 -4.670537710189819336e-01 -1.077510714530944824e-01
4.358910620212554932e-01 -4.615205526351928711e-01 -1.969833672046661377e-02
4.499334990978240967e-01 -7.789892554283142090e-01 -1.904929578304290771e-01
4.339421391487121582e-01 -5.686283111572265625e-01 -1.964555680751800537e-02
4.350096881389617920e-01 -4.845122694969177246e-01 -1.289279758930206299e-02
4.429511427879333496e-01 -4.269080758094787598e-01 -2.485770732164382935e-02
4.680443108081817627e-01 -4.751796126365661621e-01 -1.868030130863189697e-01
5.053362846374511719e-01 -5.329328775405883789e-01 1.947025954723358154e-02
4.761793017387390137e-01 -6.596209406852722168e-01 -2.794817686080932617e-01
4.490564167499542236e-01 -4.726574420928955078e-01 4.356473684310913086e-02
5.162329077720642090e-01 -5.731762647628784180e-01 1.452174037694931030e-01
5.195539593696594238e-01 -6.626134514808654785e-01 1.594066470861434937e-01
4.708873033523559570e-01 -4.602861404418945312e-01 -1.415030807256698608e-01
4.767192304134368896e-01 -4.461790621280670166e-01 -5.576244741678237915e-02
5.134428739547729492e-01 -5.539340972900390625e-01 1.349529474973678589e-01
4.023118019104003906e-01 -4.486542642116546631e-01 -2.660090923309326172e-01
5.016356706619262695e-01 -6.318788528442382812e-01 -1.163831129670143127e-01
4.691042602062225342e-01 -7.925756573677062988e-01 -2.050364613533020020e-01
5.003712177276611328e-01 -7.511960268020629883e-01 -1.043842732906341553e-01
4.609665572643280029e-01 -6.065303683280944824e-01 -3.387189209461212158e-01
4.783137738704681396e-01 -5.589430332183837891e-01 -2.218595594167709351e-01
4.414853751659393311e-01 -5.532073974609375000e-01 -3.921895325183868408e-01
4.915230572223663330e-01 -4.706448912620544434e-01 3.826525807380676270e-02
4.148209691047668457e-01 -7.151520252227783203e-01 -3.325368762016296387e-01
4.278680086135864258e-01 -6.695074439048767090e-01 -1.235199049115180969e-01
4.191082417964935303e-01 -6.420496106147766113e-01 -1.542491316795349121e-01
4.160849153995513916e-01 -6.433873176574707031e-01 -1.775236129760742188e-01
4.610354900360107422e-01 -5.750775933265686035e-01 -3.231469988822937012e-01
4.807079732418060303e-01 -4.761042296886444092e-01 1.268314868211746216e-01
4.695871770381927490e-01 -7.961157560348510742e-01 -1.606566011905670166e-01
4.247909188270568848e-01 -6.226900219917297363e-01 -1.001310646533966064e-01
3.986253440380096436e-01 -4.775928556919097900e-01 -4.093933701515197754e-01
3.994938731193542480e-01 -6.236161589622497559e-01 -3.037043809890747070e-01
5.101559162139892578e-01 -7.379234433174133301e-01 -2.744369953870773315e-02
4.706342220306396484e-01 -5.248353481292724609e-01 -2.348171621561050415e-01
5.050936937332153320e-01 -7.650473117828369141e-01 1.384735107421875000e-02
4.807061851024627686e-01 -4.997377395629882812e-01 1.484653204679489136e-01
3.955205976963043213e-01 -5.501962304115295410e-01 -2.837724089622497559e-01
4.286507666110992432e-01 -6.190211176872253418e-01 -7.404275983572006226e-02
4.288240969181060791e-01 -5.269620418548583984e-01 -4.173387885093688965e-01
5.016430616378784180e-01 -5.112259984016418457e-01 2.667313814163208008e-02
4.497305750846862793e-01 -7.675291299819946289e-01 -1.489883512258529663e-01
4.642097949981689453e-01 -5.371148586273193359e-01 -2.805321812629699707e-01
4.488264918327331543e-01 -4.955232143402099609e-01 -3.133467435836791992e-01
4.527780115604400635e-01 -6.092041730880737305e-01 -3.748221993446350098e-01
5.208859443664550781e-01 -6.773111820220947266e-01 1.301169544458389282e-01
4.313480854034423828e-01 -4.368118643760681152e-01 -6.363082677125930786e-02
3.995420932769775391e-01 -6.023050546646118164e-01 -4.883365035057067871e-01
4.539890289306640625e-01 -4.142268300056457520e-01 -1.257336735725402832e-01
4.629027843475341797e-01 -4.469110965728759766e-01 -1.662805825471878052e-01
4.451131522655487061e-01 -4.313035607337951660e-01 -2.308978438377380371e-01
5.010554194450378418e-01 -6.041939854621887207e-01 -1.052563339471817017e-01
4.270938634872436523e-01 -6.432610750198364258e-01 -4.628737568855285645e-01
5.099588036537170410e-01 -6.585530638694763184e-01 -5.919712781906127930e-02
4.900064170360565186e-01 -5.580040812492370605e-01 -1.472750306129455566e-01
4.073231220245361328e-01 -5.049542188644409180e-01 -1.753731369972229004e-01
5.123905539512634277e-01 -7.188898324966430664e-01 -2.462130784988403320e-02
5.031924247741699219e-01 -6.235893964767456055e-01 -1.006076559424400330e-01
4.397652447223663330e-01 -6.725730895996093750e-01 -4.264333844184875488e-01
5.119286179542541504e-01 -6.745897531509399414e-01 1.743818074464797974e-01
3.930523693561553955e-01 -5.145204663276672363e-01 -4.412306547164916992e-01
4.197402596473693848e-01 -4.573070406913757324e-01 -1.102662384510040283e-01
4.520227611064910889e-01 -7.658010721206665039e-01 -1.288702636957168579e-01
5.091506242752075195e-01 -5.353830456733703613e-01 1.461545079946517944e-01
4.063318073749542236e-01 -5.444444417953491211e-01 -1.857163608074188232e-01
4.379458725452423096e-01 -5.796457529067993164e-01 -2.649217844009399414e-03
4.712740480899810791e-01 -7.249264121055603027e-01 3.785800933837890625e-02
5.128780603408813477e-01 -5.502453446388244629e-01 1.093283444643020630e-01
4.334172606468200684e-01 -6.919925808906555176e-01 -4.361812472343444824e-01
4.173966348171234131e-01 -7.146111726760864258e-01 -2.887712717056274414e-01
4.455904662609100342e-01 -4.079450666904449463e-01 -1.505669504404067993e-01
4.583055377006530762e-01 -5.561038255691528320e-01 -3.237992227077484131e-01
4.339133203029632568e-01 -7.416638731956481934e-01 -3.876317143440246582e-01
4.674022197723388672e-01 -4.818342924118041992e-01 1.087602227926254272e-01
3.989153206348419189e-01 -4.649499654769897461e-01 -2.768046557903289795e-01
4.701559245586395264e-01 -4.462090730667114258e-01 -1.139960065484046936e-01
4.366574287414550781e-01 -7.338777780532836914e-01 -1.601778715848922729e-01
5.193046331405639648e-01 -6.733870506286621094e-01 4.161758720874786377e-02
4.475272297859191895e-01 -7.450794577598571777e-01 -1.101921275258064270e-01
3.984213769435882568e-01 -6.511859893798828125e-01 -4.281011819839477539e-01
4.799923896789550781e-01 -5.433185100555419922e-01 -1.981731951236724854e-01
4.238701462745666504e-01 -4.729833602905273438e-01 -7.635221630334854126e-02
4.833559989929199219e-01 -5.475787520408630371e-01 1.716410070657730103e-01
4.046993851661682129e-01 -5.014753937721252441e-01 -4.446539878845214844e-01
4.819804131984710693e-01 -7.236026525497436523e-01 7.772818207740783691e-02
5.143696069717407227e-01 -5.869516134262084961e-01 3.736217319965362549e-02
4.336031377315521240e-01 -5.963084101676940918e-01 -3.267323225736618042e-02
4.055192470550537109e-01 -5.232274532318115234e-01 -1.885101497173309326e-01
4.242862462997436523e-01 -5.628227591514587402e-01 -7.161448895931243896e-02
3.942566812038421631e-01 -5.981647372245788574e-01 -3.362064361572265625e-01
4.733648002147674561e-01 -6.528380513191223145e-01 1.131099611520767212e-01
4.807538092136383057e-01 -5.757260322570800781e-01 1.657262593507766724e-01
3.934031426906585693e-01 -4.796571135520935059e-01 -3.601710200309753418e-01
5.134392976760864258e-01 -5.650963187217712402e-01 1.681191474199295044e-01
4.091273248195648193e-01 -4.761059284210205078e-01 -1.709906458854675293e-01
5.127276182174682617e-01 -7.373607158660888672e-01 9.141847491264343262e-03
4.296690821647644043e-01 -4.285044670104980469e-01 -8.352162688970565796e-02
5.203756093978881836e-01 -6.303095221519470215e-01 7.781040668487548828e-02
4.745156466960906982e-01 -6.142805814743041992e-01 1.372528523206710815e-01
4.548700749874114990e-01 -4.732048809528350830e-01 -2.569105625152587891e-01
4.713919758796691895e-01 -7.394239902496337891e-01 -2.846792638301849365e-01
4.010085761547088623e-01 -6.658618450164794922e-01 -4.094985723495483398e-01
3.955099880695343018e-01 -6.342799067497253418e-01 -3.971909880638122559e-01
5.208541154861450195e-01 -6.802858114242553711e-01 7.620041072368621826e-02
4.111632704734802246e-01 -6.034983396530151367e-01 -1.789394021034240723e-01
4.919474720954895020e-01 -6.373425722122192383e-01 -1.846374124288558960e-01
4.516924023628234863e-01 -4.501833319664001465e-01 3.627897799015045166e-02
4.745071828365325928e-01 -5.344144105911254883e-01 1.480503827333450317e-01
3.905217647552490234e-01 -5.765743255615234375e-01 -3.722119033336639404e-01
5.164340734481811523e-01 -7.221505045890808105e-01 8.695746958255767822e-02
4.784097373485565186e-01 -7.956178784370422363e-01 -1.150999143719673157e-01
