-1.358297467231750488e-01 -2.192547917366027832e-01 6.963805556297302246e-01
2.771496474742889404e-01 -1.254971623420715332e-01 5.684993863105773926e-01
1.595306545495986938e-01 -2.030905932188034058e-01 -1.112751364707946777e-01
4.297759234905242920e-01 -3.215668201446533203e-01 -1.441926956176757812e-01
4.930198788642883301e-01 -4.253139793872833252e-01 8.481159210205078125e-01
1.387141495943069458e-01 -5.442121028900146484e-01 1.874023079872131348e-01
2.507142424583435059e-01 -1.504810154438018799e-01 8.327819108963012695e-01
-1.888161897659301758e-01 -2.807198464870452881e-01 -4.574593901634216309e-02
4.261854887008666992e-01 -1.550901979207992554e-01 5.653415322303771973e-01
-2.367466688156127930e-01 -3.614707589149475098e-01 4.805320501327514648e-02
1.047282740473747253e-01 -1.228392869234085083e-01 3.743591606616973877e-01
4.643390178680419922e-01 -5.099439024925231934e-01 2.799084782600402832e-01
2.414503693580627441e-02 -5.166828632354736328e-01 1.603284478187561035e-02
2.992097735404968262e-01 -4.216326773166656494e-01 9.737402200698852539e-01
-1.184594035148620605e-01 -1.692422628402709961e-01 4.275963902473449707e-01
-2.453960478305816650e-01 -3.674390614032745361e-01 1.061654388904571533e-01
1.123076528310775757e-01 -1.349051147699356079e-01 2.141702771186828613e-01
2.819771170616149902e-01 -1.317777335643768311e-01 6.751974821090698242e-01
1.804195046424865723e-01 -5.303251743316650391e-01 6.539821624755859375e-04
1.764560639858245850e-01 -4.172635078430175781e-01 -3.062094449996948242e-01
3.310984373092651367e-01 -3.252254128456115723e-01 1.077307939529418945e+00
1.112386956810951233e-01 -3.522620201110839844e-01 -3.305173516273498535e-01
-1.328109204769134521e-02 -5.061406493186950684e-01 1.610815525054931641e-03
5.971107482910156250e-01 -4.319317638874053955e-01 2.951416671276092529e-01
5.513010025024414062e-01 -2.305179387331008911e-01 7.535313367843627930e-01
-1.608565151691436768e-01 -4.537542760372161865e-01 3.793240487575531006e-01
-9.215882420539855957e-02 -1.918218731880187988e-01 7.059324979782104492e-01
2.511939406394958496e-01 -1.270890235900878906e-01 3.544789552688598633e-01
1.100044101476669312e-01 -5.061526894569396973e-01 6.514484882354736328e-01
7.121145725250244141e-03 -2.160403430461883545e-01 -1.241273880004882812e-01
1.026584208011627197e-02 -2.882836461067199707e-01 -2.654878497123718262e-01
1.557020843029022217e-02 -1.426153779029846191e-01 2.230380177497863770e-01
1.017543449997901917e-01 -4.378342926502227783e-01 8.882948160171508789e-01
3.662554919719696045e-02 -1.798766702413558960e-01 -1.578143239021301270e-02
2.651636004447937012e-01 -4.824665784835815430e-01 8.103553056716918945e-01
9.019386768341064453e-02 -3.679895699024200439e-01 1.001240253448486328e+00
8.896595239639282227e-02 -4.465566873550415039e-01 -2.693652510643005371e-01
-4.623755812644958496e-02 -1.875327974557876587e-01 1.577347517013549805e-02
5.990359783172607422e-01 -3.062530755996704102e-01 2.053874582052230835e-01
9.281665831804275513e-02 -5.309652090072631836e-01 4.537464082241058350e-01
-2.226231992244720459e-01 -3.790837526321411133e-01 4.847525358200073242e-01
2.274935841560363770e-01 -4.125551879405975342e-01 -2.968077063560485840e-01
4.647713899612426758e-01 -3.557102382183074951e-01 9.885292053222656250e-01
5.224095582962036133e-01 -2.261659204959869385e-01 2.168342024087905884e-01
6.668414920568466187e-02 -1.242669522762298584e-01 4.470528066158294678e-01
-1.157308220863342285e-01 -3.101374506950378418e-01 8.251900672912597656e-01
4.003323316574096680e-01 -5.000020265579223633e-01 6.697258949279785156e-01
-2.455989420413970947e-01 -3.237363696098327637e-01 4.773442447185516357e-01
1.767295598983764648e-01 -4.492374658584594727e-01 -2.680062651634216309e-01
1.042237430810928345e-01 -5.411552190780639648e-01 3.078334629535675049e-01
-2.364674508571624756e-01 -2.502155900001525879e-01 3.678673803806304932e-01
-9.918543696403503418e-02 -1.964493691921234131e-01 4.828444123268127441e-02
5.102654695510864258e-01 -2.214494049549102783e-01 8.301310539245605469e-01
6.161546707153320312e-02 -5.356720089912414551e-01 2.837471365928649902e-01
-2.620773911476135254e-01 -3.045803010463714600e-01 3.407810926437377930e-01
-1.819577813148498535e-01 -2.362250089645385742e-01 6.150348186492919922e-01
3.400962948799133301e-01 -4.516187906265258789e-01 8.944648504257202148e-01
4.019380211830139160e-01 -5.280405879020690918e-01 2.886710166931152344e-01
-2.126544415950775146e-01 -4.241039156913757324e-01 2.055562883615493774e-01
9.735500812530517578e-02 -1.929754912853240967e-01 -8.154383301734924316e-02
4.726841449737548828e-01 -1.719313263893127441e-01 5.959349870681762695e-01
5.347912907600402832e-01 -4.054066538810729980e-01 8.341583013534545898e-01
1.340317130088806152e-01 -4.834475517272949219e-01 7.695909738540649414e-01
1.107684746384620667e-01 -5.370681285858154297e-01 9.563896059989929199e-02
3.456946015357971191e-01 -4.065091609954833984e-01 -2.334936261177062988e-01
2.547071874141693115e-02 -1.389294266700744629e-01 6.323963403701782227e-01
1.186040639877319336e-01 -4.768294692039489746e-01 -2.131406664848327637e-01
-2.004832625389099121e-01 -2.909656763076782227e-01 6.429803371429443359e-01
4.692187905311584473e-02 -1.423263251781463623e-01 1.897042542695999146e-01
-2.183372974395751953e-01 -2.729297876358032227e-01 4.975956678390502930e-02
1.884059458971023560e-01 -4.261510670185089111e-01 9.547587633132934570e-01
1.536533534526824951e-01 -3.835060596466064453e-01 1.014464855194091797e+00
-1.475782096385955811e-01 -3.389626443386077881e-01 7.544221878051757812e-01
4.839560985565185547e-01 -4.978787302970886230e-01 2.143917083740234375e-01
3.604357242584228516e-01 -5.098603963851928711e-01 7.174342870712280273e-03
2.517125308513641357e-01 -2.669661939144134521e-01 -2.227443456649780273e-01
5.646275877952575684e-01 -4.272982478141784668e-01 1.343434005975723267e-01
-2.012814879417419434e-01 -2.286971658468246460e-01 5.081726312637329102e-01
5.435937643051147461e-01 -2.714062929153442383e-01 8.783813714981079102e-01
2.607004344463348389e-02 -1.978904753923416138e-01 8.949303030967712402e-01
2.244301885366439819e-01 -1.226379275321960449e-01 6.007182002067565918e-01
4.289760291576385498e-01 -5.193207859992980957e-01 4.401857554912567139e-01
2.013646066188812256e-02 -4.488468170166015625e-01 7.900078296661376953e-01
5.813052058219909668e-01 -4.481261372566223145e-01 5.303163528442382812e-01
6.154807806015014648e-01 -2.782824933528900146e-01 6.632513999938964844e-01
6.925816833972930908e-02 -1.266697496175765991e-01 3.488860130310058594e-01
1.000306680798530579e-01 -1.825624257326126099e-01 9.150674939155578613e-01
4.553193151950836182e-01 -2.742746770381927490e-01 1.001123905181884766e+00
5.170018076896667480e-01 -1.993521153926849365e-01 6.956181526184082031e-01
9.147087484598159790e-02 -5.056568384170532227e-01 -1.098506450653076172e-01
9.424199908971786499e-02 -5.145916342735290527e-01 5.876973271369934082e-01
5.290777683258056641e-01 -2.910332083702087402e-01 9.233860969543457031e-01
5.983197689056396484e-02 -3.912069499492645264e-01 9.501963853836059570e-01
4.083108305931091309e-01 -2.052953988313674927e-01 9.330910444259643555e-01
6.173371076583862305e-01 -4.137891829013824463e-01 3.423364460468292236e-01
2.354155927896499634e-01 -2.461548149585723877e-01 1.064160704612731934e+00
-1.249019503593444824e-01 -4.753911793231964111e-01 3.593379855155944824e-01
1.409956514835357666e-01 -5.263219475746154785e-01 -1.996141672134399414e-02
5.009349584579467773e-01 -4.839499592781066895e-01 1.664865314960479736e-01
-2.464942932128906250e-01 -2.776597440242767334e-01 1.673657000064849854e-01
-6.317988038063049316e-02 -4.680197834968566895e-01 5.992481112480163574e-01
1.340425163507461548e-01 -4.936317801475524902e-01 7.284904718399047852e-01
6.327022612094879150e-02 -2.451723217964172363e-01 -2.127386331558227539e-01
-1.816514134407043457e-01 -2.339437752962112427e-01 6.620973348617553711e-02
-1.139234006404876709e-01 -1.829241514205932617e-01 6.067286729812622070e-01
2.814266383647918701e-01 -1.674027740955352783e-01 8.970103263854980469e-01
6.262075901031494141e-01 -2.867689132690429688e-01 4.044519662857055664e-01
-1.544387042522430420e-01 -4.276190996170043945e-01 5.539186000823974609e-01
4.143442213535308838e-01 -5.182160139083862305e-01 1.694632917642593384e-01
5.089111328125000000e-01 -4.219112992286682129e-01 -1.151323318481445312e-02
5.290799140930175781e-01 -2.697079777717590332e-01 9.079313278198242188e-02
1.522081345319747925e-01 -4.616284966468811035e-01 8.525071144104003906e-01
1.641028821468353271e-01 -4.758101701736450195e-01 -2.176576852798461914e-01
-4.389289021492004395e-02 -2.453261613845825195e-01 -1.646614670753479004e-01
-7.611954212188720703e-02 -1.551967710256576538e-01 4.846333265304565430e-01
-2.565957307815551758e-01 -3.376816213130950928e-01 1.366092860698699951e-01
5.310412645339965820e-01 -4.269644320011138916e-01 7.858659029006958008e-01
1.791873127222061157e-01 -5.198296308517456055e-01 -6.258618831634521484e-02
2.467816174030303955e-01 -1.972133070230484009e-01 -6.158298254013061523e-02
2.813716530799865723e-01 -3.634112775325775146e-01 1.059517621994018555e+00
5.679452419281005859e-01 -4.077370166778564453e-01 7.635959386825561523e-01
1.798382699489593506e-01 -5.418428778648376465e-01 1.080807745456695557e-01
6.237156391143798828e-01 -4.096626639366149902e-01 3.863074481487274170e-01
4.525195360183715820e-01 -4.274674355983734131e-01 -9.746852517127990723e-02
2.502052783966064453e-01 -5.415111780166625977e-01 4.453301429748535156e-01
3.484511375427246094e-01 -2.754597663879394531e-01 -1.715662479400634766e-01
4.146917164325714111e-02 -1.322948932647705078e-01 5.899544358253479004e-01
-1.958012580871582031e-01 -3.573695421218872070e-01 -8.308380842208862305e-02
-1.742978394031524658e-01 -3.803703486919403076e-01 -1.125519573688507080e-01
4.338161349296569824e-01 -5.057473778724670410e-01 5.820126533508300781e-01
4.209200739860534668e-01 -1.695568710565567017e-01 2.759077548980712891e-01
-5.457885563373565674e-02 -5.079161524772644043e-01 2.762660384178161621e-01
2.833349108695983887e-01 -5.385509729385375977e-01 1.205507814884185791e-01
2.375700622797012329e-01 -5.368960499763488770e-01 5.016236901283264160e-01
1.407109200954437256e-02 -5.036947131156921387e-01 -5.607506632804870605e-02
-2.411485910415649414e-01 -3.819976150989532471e-01 3.649335801601409912e-01
6.016420722007751465e-01 -2.529717087745666504e-01 6.163371801376342773e-01
4.317742884159088135e-01 -1.899535059928894043e-01 8.544707298278808594e-01
-2.578718662261962891e-01 -3.597604632377624512e-01 2.976111769676208496e-01
2.583016455173492432e-02 -2.287013232707977295e-01 -1.655508279800415039e-01
5.842561721801757812e-01 -2.673244178295135498e-01 7.689720392227172852e-01
8.607160300016403198e-02 -4.939764142036437988e-01 6.900863647460937500e-01
1.887959986925125122e-01 -1.538414359092712402e-01 9.281870722770690918e-02
5.491476058959960938e-01 -2.319180071353912354e-01 2.761432826519012451e-01
4.321664571762084961e-01 -1.587117761373519897e-01 6.193629503250122070e-01
4.545732438564300537e-01 -3.979530930519104004e-01 9.449284076690673828e-01
2.054750770330429077e-01 -5.461208820343017578e-01 3.644849956035614014e-01
3.796638250350952148e-01 -5.245728492736816406e-01 1.418266743421554565e-01
-1.732672452926635742e-01 -4.532090723514556885e-01 1.689060926437377930e-01
5.935747623443603516e-01 -3.066417574882507324e-01 8.007124662399291992e-01
2.386302798986434937e-01 -4.622310400009155273e-01 -2.291697859764099121e-01
1.574659347534179688e-02 -4.841875433921813965e-01 -1.433481574058532715e-01
5.879389047622680664e-01 -4.046243131160736084e-01 1.618169844150543213e-01
5.673750042915344238e-01 -3.106803894042968750e-01 8.651367425918579102e-01
-2.558629214763641357e-02 -1.608422994613647461e-01 6.956090927124023438e-01
-7.049530744552612305e-02 -4.119856059551239014e-01 -2.260249257087707520e-01
-1.906690001487731934e-01 -4.242811501026153564e-01 4.386137723922729492e-01
4.208033382892608643e-01 -4.504284858703613281e-01 8.531665802001953125e-01
6.384183168411254883e-01 -3.670834600925445557e-01 5.923960804939270020e-01
1.212251856923103333e-01 -5.412125587463378906e-01 1.469485312700271606e-01
2.754971385002136230e-01 -1.419939696788787842e-01 2.284346073865890503e-01
4.635440111160278320e-01 -1.800369322299957275e-01 3.175288736820220947e-01
3.324660062789916992e-01 -1.326298117637634277e-01 5.194913148880004883e-01
-1.233193278312683105e-02 -4.937149882316589355e-01 5.617881417274475098e-01
-4.734030365943908691e-02 -1.614123731851577759e-01 1.653612256050109863e-01
5.367395877838134766e-01 -4.617946147918701172e-01 1.659091264009475708e-01
-1.245089471340179443e-01 -4.808838963508605957e-01 2.553690075874328613e-01
3.989787697792053223e-01 -3.136928677558898926e-01 1.053709506988525391e+00
4.799030125141143799e-01 -1.739507019519805908e-01 5.052790641784667969e-01
-2.239738106727600098e-01 -2.405833899974822998e-01 2.201424539089202881e-01
1.293564140796661377e-01 -1.213523894548416138e-01 5.648335218429565430e-01
2.784006595611572266e-01 -5.270105600357055664e-01 5.810273885726928711e-01
2.495626062154769897e-01 -1.677879393100738525e-01 5.388206243515014648e-02
-2.090945541858673096e-01 -2.604846954345703125e-01 5.794466733932495117e-01
5.632974505424499512e-01 -2.267504036426544189e-01 6.809197664260864258e-01
2.426512539386749268e-01 -5.473954081535339355e-01 2.449526190757751465e-01
1.086741611361503601e-01 -1.274801641702651978e-01 6.389691829681396484e-01
1.604910641908645630e-01 -1.216636300086975098e-01 5.964770317077636719e-01
-6.184309720993041992e-03 -3.535290360450744629e-01 9.393061399459838867e-01
6.389087438583374023e-01 -3.504490256309509277e-01 3.455114066600799561e-01
6.424552202224731445e-01 -3.103162646293640137e-01 5.150235891342163086e-01
5.949003696441650391e-01 -2.424370646476745605e-01 5.017683506011962891e-01
-1.773457825183868408e-01 -4.497799873352050781e-01 2.970710992813110352e-01
2.810968160629272461e-01 -1.252776831388473511e-01 4.868393540382385254e-01
-1.006302833557128906e-01 -2.164898961782455444e-01 -2.944952249526977539e-02
2.337601482868194580e-01 -4.986201822757720947e-01 -1.382900476455688477e-01
2.303851842880249023e-01 -1.471094787120819092e-01 1.529370993375778198e-01
2.172903716564178467e-02 -4.717320799827575684e-01 7.149841785430908203e-01
2.804318964481353760e-01 -1.896125674247741699e-01 9.667513370513916016e-01
-1.360442340373992920e-01 -1.883442848920822144e-01 1.836562305688858032e-01
5.112624168395996094e-01 -3.842637538909912109e-01 9.065496921539306641e-01
-2.537641823291778564e-01 -3.674001693725585938e-01 1.857911795377731323e-01
9.172002226114273071e-02 -2.739387154579162598e-01 1.036252140998840332e+00
6.408354043960571289e-01 -3.762831091880798340e-01 4.063178896903991699e-01
5.152727961540222168e-01 -2.132930755615234375e-01 2.597632706165313721e-01
5.054568052291870117e-01 -4.955426454544067383e-01 3.267410993576049805e-01
6.416581869125366211e-01 -3.716853260993957520e-01 5.428985357284545898e-01
1.433506608009338379e-02 -5.081009268760681152e-01 5.167198777198791504e-01
-1.574525535106658936e-01 -3.904438316822052002e-01 6.575375795364379883e-01
-9.085765480995178223e-02 -4.223955869674682617e-01 7.116052508354187012e-01
5.057559609413146973e-01 -4.600275754928588867e-01 6.916883587837219238e-02
3.302643895149230957e-01 -5.087266564369201660e-01 6.772925853729248047e-01
1.943941563367843628e-01 -5.462381839752197266e-01 1.812357902526855469e-01
3.413046598434448242e-01 -3.973756432533264160e-01 1.007904529571533203e+00
5.623418092727661133e-01 -4.401243329048156738e-01 6.655876636505126953e-01
7.741659134626388550e-02 -2.015350311994552612e-01 9.451832175254821777e-01
3.699364662170410156e-01 -1.427360922098159790e-01 4.186848700046539307e-01
5.586514472961425781e-01 -4.688864946365356445e-01 3.727064132690429688e-01
-1.397279202938079834e-01 -2.595923244953155518e-01 7.619917392730712891e-01
5.652175545692443848e-01 -2.632346749305725098e-01 8.156294226646423340e-01
1.620723158121109009e-01 -1.413071453571319580e-01 1.626944541931152344e-01
5.261225700378417969e-01 -3.353410959243774414e-01 9.328683018684387207e-01
3.757871687412261963e-01 -1.874103546142578125e-01 9.317544102668762207e-02
3.747138977050781250e-01 -5.207803249359130859e-01 5.552664995193481445e-01
-1.402997672557830811e-01 -4.578802883625030518e-01 1.779988408088684082e-02
-8.764132857322692871e-02 -4.537191987037658691e-01 -1.198488771915435791e-01
4.088624715805053711e-01 -2.141297161579132080e-01 3.686961531639099121e-02
-1.144872009754180908e-01 -3.710559904575347900e-01 7.774264812469482422e-01
-1.442923247814178467e-01 -4.649109244346618652e-01 8.811470866203308105e-02
1.822159588336944580e-01 -1.215623170137405396e-01 3.760387599468231201e-01
1.640618443489074707e-01 -1.297013908624649048e-01 2.597022056579589844e-01
1.408516466617584229e-01 -3.836759328842163086e-01 -3.289947509765625000e-01
-2.091706395149230957e-01 -3.766663968563079834e-01 -3.139838576316833496e-02
6.328246593475341797e-01 -3.387336730957031250e-01 6.633394360542297363e-01
2.525736391544342041e-01 -5.459132790565490723e-01 2.041728496551513672e-01
-1.338745355606079102e-01 -2.891117930412292480e-01 -1.513913869857788086e-01
2.372824251651763916e-01 -3.228641152381896973e-01 -2.930923700332641602e-01
4.263815283775329590e-01 -1.586896479129791260e-01 4.081650078296661377e-01
8.472848683595657349e-02 -1.555888652801513672e-01 8.058404922485351562e-02
2.605881690979003906e-01 -1.254149228334426880e-01 4.016496837139129639e-01
1.857047230005264282e-01 -5.010709166526794434e-01 -1.421904563903808594e-01
2.338447421789169312e-01 -1.286799758672714233e-01 3.112532496452331543e-01
4.018669128417968750e-01 -4.816407859325408936e-01 -5.050984025001525879e-02
3.158476352691650391e-01 -4.892634749412536621e-01 7.758405804634094238e-01
1.126935333013534546e-01 -1.204762160778045654e-01 4.944672584533691406e-01
4.523946344852447510e-01 -5.030124783515930176e-01 1.465378403663635254e-01
-1.204867064952850342e-01 -1.894797831773757935e-01 1.292982250452041626e-01
7.959553599357604980e-02 -1.469175815582275391e-01 1.350311636924743652e-01
-1.122743785381317139e-01 -1.663488894701004028e-01 3.737002015113830566e-01
-9.553471207618713379e-02 -2.232980430126190186e-01 7.881335616111755371e-01
4.754909276962280273e-01 -2.125388681888580322e-01 8.672251105308532715e-01
2.343854159116744995e-01 -3.891729712486267090e-01 1.027726650238037109e+00
1.909216493368148804e-01 -1.276965886354446411e-01 6.829074025154113770e-01
6.122604608535766602e-01 -3.026914596557617188e-01 2.645550370216369629e-01
2.539506554603576660e-01 -5.084494948387145996e-01 6.986125111579895020e-01
-6.641119718551635742e-03 -1.899238675832748413e-01 8.389701247215270996e-01
5.034607648849487305e-01 -2.535302639007568359e-01 9.197670221328735352e-01
-2.280314266681671143e-02 -2.684923708438873291e-01 9.404584765434265137e-01
-1.487601101398468018e-01 -2.159012258052825928e-01 6.527900695800781250e-01
5.107460618019104004e-01 -1.899430453777313232e-01 6.247648596763610840e-01
1.030845046043395996e-01 -5.392128825187683105e-01 3.560362458229064941e-01
-3.854852914810180664e-02 -5.033068656921386719e-01 4.288315773010253906e-01
4.433261752128601074e-01 -4.758148789405822754e-01 7.401573657989501953e-01
3.580732643604278564e-01 -1.455050408840179443e-01 3.382008075714111328e-01
2.868536114692687988e-02 -5.050405263900756836e-01 5.623507499694824219e-01
5.134395360946655273e-01 -3.697291612625122070e-01 -4.227301478385925293e-02
-7.094132900238037109e-02 -4.503017067909240723e-01 6.579440236091613770e-01
-1.743662953376770020e-01 -4.184499382972717285e-01 -4.288515448570251465e-02
-3.485381603240966797e-04 -4.751981198787689209e-01 6.726577281951904297e-01
4.716462790966033936e-01 -2.394303679466247559e-01 5.708608031272888184e-02
3.666423261165618896e-01 -2.134875655174255371e-01 -1.409187912940979004e-02
5.535112619400024414e-01 -2.109561860561370850e-01 5.280808210372924805e-01
-2.627424597740173340e-01 -3.462086021900177002e-01 2.431924641132354736e-01
6.417278647422790527e-01 -3.136884570121765137e-01 4.394491910934448242e-01
4.689234793186187744e-01 -3.400099277496337891e-01 -1.059242784976959229e-01
3.677686154842376709e-01 -4.831464886665344238e-01 -8.794698119163513184e-02
-1.617148220539093018e-01 -2.426887750625610352e-01 -1.135197281837463379e-02
2.199664115905761719e-01 -4.904547929763793945e-01 7.762622833251953125e-01
4.934661090373992920e-01 -1.972438991069793701e-01 7.637251615524291992e-01
5.448642969131469727e-01 -4.655083119869232178e-01 2.199505865573883057e-01
-7.563728094100952148e-02 -3.321622908115386963e-01 8.754471540451049805e-01
-2.019316256046295166e-01 -4.139228165149688721e-01 3.608584403991699219e-02
-5.924600362777709961e-02 -5.070501565933227539e-01 2.188143879175186157e-01
-3.549350798130035400e-02 -2.224318981170654297e-01 8.756686449050903320e-01
1.418213695287704468e-01 -4.434293508529663086e-01 8.972167968750000000e-01
3.117316663265228271e-01 -2.149839252233505249e-01 1.013303756713867188e+00
1.871500909328460693e-01 -5.477595925331115723e-01 2.631573677062988281e-01
1.145729944109916687e-01 -5.329793691635131836e-01 4.632839560508728027e-02
2.061847150325775146e-01 -1.196321398019790649e-01 4.611935317516326904e-01
-1.250249147415161133e-02 -5.207216739654541016e-01 2.346825152635574341e-01
3.057178258895874023e-01 -5.126989483833312988e-01 -3.896144032478332520e-02
5.792912840843200684e-01 -2.623381614685058594e-01 2.537156939506530762e-01
5.729981660842895508e-01 -2.886552810668945312e-01 1.581546217203140259e-01
5.246418714523315430e-01 -4.324960112571716309e-01 3.991234302520751953e-02
1.847934126853942871e-01 -4.474499821662902832e-01 9.044474959373474121e-01
3.910118341445922852e-01 -2.171632945537567139e-01 9.760237336158752441e-01
-3.314749896526336670e-02 -4.312694966793060303e-01 -2.324972152709960938e-01
6.077705025672912598e-01 -3.865036368370056152e-01 2.078278362751007080e-01
1.954206824302673340e-02 -5.172959566116333008e-01 4.499640464782714844e-01
6.136296987533569336e-01 -2.616958022117614746e-01 5.486644506454467773e-01
6.270895898342132568e-02 -5.082771778106689453e-01 -8.003905415534973145e-02
3.641208410263061523e-01 -5.303965806961059570e-01 4.679652452468872070e-01
-1.932033002376556396e-01 -3.516555130481719971e-01 6.374423503875732422e-01
-1.661340892314910889e-01 -3.048054873943328857e-01 -1.221849322319030762e-01
1.775359809398651123e-01 -4.929137825965881348e-01 7.538397312164306641e-01
1.532486081123352051e-02 -4.526154696941375732e-01 -2.284376025199890137e-01
2.316276729106903076e-01 -5.004051923751831055e-01 7.358965873718261719e-01
-1.601205766201019287e-02 -4.056315422058105469e-01 -2.764853835105895996e-01
3.596719205379486084e-01 -4.659844636917114258e-01 8.436093330383300781e-01
-7.000255584716796875e-02 -4.826406240463256836e-01 5.035092234611511230e-01
-5.055955052375793457e-02 -4.995398521423339844e-01 3.600513935089111328e-02
-8.913165330886840820e-02 -3.389238715171813965e-01 -2.401971817016601562e-01
2.895176410675048828e-03 -3.840292692184448242e-01 9.116454124450683594e-01
-2.086664736270904541e-01 -4.276131391525268555e-01 2.569410800933837891e-01
4.234223365783691406e-01 -1.593251526355743408e-01 6.711407303810119629e-01
-3.496664762496948242e-02 -3.169596791267395020e-01 9.323509335517883301e-01
-1.157844066619873047e-01 -3.307932615280151367e-01 -2.097308039665222168e-01
1.536093056201934814e-01 -5.332660675048828125e-01 5.022386312484741211e-01
1.349030137062072754e-01 -5.151826143264770508e-01 -8.148464560508728027e-02
1.489210128784179688e-02 -1.342317014932632446e-01 3.346258997917175293e-01
-1.446064114570617676e-01 -1.828922480344772339e-01 2.879338860511779785e-01
-1.052618920803070068e-01 -2.384234368801116943e-01 -8.907893300056457520e-02
2.478844374418258667e-01 -1.227071136236190796e-01 4.422913193702697754e-01
2.940934896469116211e-01 -1.511997580528259277e-01 8.171321153640747070e-01
-1.477009654045104980e-01 -4.127690196037292480e-01 -1.173619627952575684e-01
1.303923577070236206e-01 -4.598567485809326172e-01 -2.517194747924804688e-01
4.871663451194763184e-01 -5.034223198890686035e-01 3.777680397033691406e-01
2.919478416442871094e-01 -3.439299762248992920e-01 -2.774357795715332031e-01
5.307877063751220703e-01 -3.034477531909942627e-01 3.167438507080078125e-02
-7.256361842155456543e-02 -2.827024459838867188e-01 -2.078292369842529297e-01
3.878951072692871094e-02 -1.739290952682495117e-01 8.400908708572387695e-01
-9.660464525222778320e-02 -2.604046165943145752e-01 -1.484839320182800293e-01
-3.916765749454498291e-02 -1.514311432838439941e-01 2.380931675434112549e-01
-1.627034842967987061e-01 -4.076659679412841797e-01 5.998882055282592773e-01
-6.669053435325622559e-02 -1.508906334638595581e-01 3.753810524940490723e-01
7.727354019880294800e-02 -3.113499283790588379e-01 -3.066736459732055664e-01
-5.312700569629669189e-02 -2.080844938755035400e-01 8.230968713760375977e-01
1.519583612680435181e-01 -5.379475355148315430e-01 7.196301221847534180e-02
1.429860442876815796e-01 -5.445272922515869141e-01 3.242498934268951416e-01
6.919979304075241089e-02 -3.178413808345794678e-01 1.023556828498840332e+00
-1.084050238132476807e-01 -4.657721221446990967e-01 5.019750595092773438e-01
-1.501080989837646484e-01 -1.966832578182220459e-01 5.610721111297607422e-01
3.484818339347839355e-01 -5.376540422439575195e-01 3.639984428882598877e-01
3.249604701995849609e-01 -1.524643152952194214e-01 2.139854580163955688e-01
-1.687515377998352051e-01 -3.056595325469970703e-01 7.255853414535522461e-01
1.735083013772964478e-01 -2.632786333560943604e-01 1.066489338874816895e+00
-1.810947358608245850e-01 -3.366116881370544434e-01 6.840900182723999023e-01
5.289517641067504883e-01 -1.983966082334518433e-01 4.608178138732910156e-01
-1.184540688991546631e-01 -4.813148975372314453e-01 3.180505037307739258e-01
-1.203919947147369385e-02 -1.657027751207351685e-01 8.801409602165222168e-02
4.971429705619812012e-01 -2.206598222255706787e-01 1.743880957365036011e-01
3.259337544441223145e-01 -1.454219818115234375e-01 2.710103094577789307e-01
-5.453826487064361572e-02 -1.798551827669143677e-01 7.336494922637939453e-01
7.332587987184524536e-02 -3.774977922439575195e-01 -3.264094591140747070e-01
1.422040760517120361e-01 -1.486818343400955200e-01 1.128134131431579590e-01
-2.198529243469238281e-01 -2.488952875137329102e-01 1.409470289945602417e-01
3.350287079811096191e-01 -1.400012820959091187e-01 6.862858533859252930e-01
5.729147791862487793e-01 -4.572340250015258789e-01 4.896486997604370117e-01
3.736323118209838867e-02 -5.282216668128967285e-01 3.613871335983276367e-01
3.294313549995422363e-01 -1.435750424861907959e-01 7.311847209930419922e-01
-5.232287943363189697e-02 -1.529249697923660278e-01 5.678263306617736816e-01
3.658498823642730713e-01 -5.159257650375366211e-01 6.047857999801635742e-01
4.184208810329437256e-01 -1.897369176149368286e-01 1.496498584747314453e-01
2.139821648597717285e-01 -1.684447675943374634e-01 3.111201524734497070e-02
1.221454888582229614e-01 -2.192769050598144531e-01 1.002343177795410156e+00
2.807162702083587646e-01 -4.998484849929809570e-01 -1.100410223007202148e-01
3.128882646560668945e-01 -2.183515727519989014e-01 -7.980260252952575684e-02
6.740540266036987305e-04 -1.717532873153686523e-01 4.394131898880004883e-02
4.697651863098144531e-01 -1.809675395488739014e-01 7.250785827636718750e-01
-2.717703580856323242e-02 1.082705408334732056e-01 4.847716391086578369e-01
5.905497074127197266e-01 1.119593977928161621e-01 3.372518122196197510e-01
1.469946503639221191e-01 1.218573227524757385e-01 3.063427805900573730e-01
-1.084393560886383057e-01 1.164296939969062805e-01 5.066937208175659180e-01
1.713933944702148438e-01 1.164983659982681274e-01 2.579257786273956299e-01
3.662714958190917969e-01 1.250319629907608032e-01 4.867945611476898193e-01
3.610972166061401367e-01 1.223891973495483398e-01 3.051344454288482666e-01
6.434370577335357666e-02 1.091540753841400146e-01 5.275380611419677734e-01
-5.073180794715881348e-02 1.090876609086990356e-01 4.842627048492431641e-01
3.548046052455902100e-01 1.258271187543869019e-01 3.870981931686401367e-01
1.467759013175964355e-01 1.270642280578613281e-01 4.424509406089782715e-01
2.944952249526977539e-01 1.268630623817443848e-01 4.530592560768127441e-01
4.714747071266174316e-01 1.130525991320610046e-01 4.978518187999725342e-01
3.812595605850219727e-01 1.035199463367462158e-01 3.061470687389373779e-01
9.311452507972717285e-02 1.260061860084533691e-01 4.059840142726898193e-01
2.671078741550445557e-01 1.265083253383636475e-01 3.892675042152404785e-01
3.042373061180114746e-01 1.029691100120544434e-01 3.049667775630950928e-01
7.621347904205322266e-03 1.242643818259239197e-01 4.040435552597045898e-01
-1.755902171134948730e-02 1.193444505333900452e-01 3.365874588489532471e-01
1.543867290019989014e-01 1.031978577375411987e-01 4.288877546787261963e-01
8.168691396713256836e-02 1.195366680622100830e-01 2.986387312412261963e-01
4.082745015621185303e-01 1.206636428833007812e-01 2.903437614440917969e-01
5.269944667816162109e-03 1.250662654638290405e-01 4.686261415481567383e-01
2.916315197944641113e-02 1.219811365008354187e-01 3.450247645378112793e-01
3.090645372867584229e-01 1.211416274309158325e-01 5.508742332458496094e-01
4.837736785411834717e-01 1.089641004800796509e-01 4.588674306869506836e-01
-1.237854361534118652e-02 1.062608882784843445e-01 4.450086355209350586e-01
2.355992794036865234e-02 1.243909671902656555e-01 5.162413716316223145e-01
1.321759521961212158e-01 1.254501938819885254e-01 5.247784256935119629e-01
2.435282617807388306e-01 1.048177853226661682e-01 4.737100899219512939e-01
3.842577338218688965e-03 1.054820269346237183e-01 4.298800230026245117e-01
4.642195999622344971e-01 1.044800505042076111e-01 3.562474846839904785e-01
3.470469713211059570e-01 1.127269491553306580e-01 2.350806295871734619e-01
4.386265873908996582e-01 1.049118638038635254e-01 2.950086891651153564e-01
3.905658721923828125e-01 1.046347916126251221e-01 4.327749609947204590e-01
2.534148991107940674e-01 1.036543995141983032e-01 4.467958807945251465e-01
1.612492501735687256e-01 1.268681585788726807e-01 4.847481846809387207e-01
-8.437812328338623047e-02 1.217677667737007141e-01 4.429670572280883789e-01
5.306414365768432617e-01 1.205102205276489258e-01 3.495844900608062744e-01
2.267901599407196045e-02 1.254466325044631958e-01 4.479148387908935547e-01
7.324466109275817871e-02 1.140863224864006042e-01 2.721634507179260254e-01
1.979763805866241455e-02 1.075917333364486694e-01 4.950552582740783691e-01
4.571520090103149414e-01 1.094621419906616211e-01 4.783711135387420654e-01
-8.228173851966857910e-02 1.215325221419334412e-01 4.884524941444396973e-01
3.907220959663391113e-01 1.254523843526840210e-01 3.945487737655639648e-01
4.520141780376434326e-01 1.202130243182182312e-01 2.965860068798065186e-01
7.639899849891662598e-02 1.256497651338577271e-01 4.018537104129791260e-01
1.547232121229171753e-01 1.098648682236671448e-01 5.424573421478271484e-01
3.727084994316101074e-01 1.188893616199493408e-01 5.419789552688598633e-01
1.128444448113441467e-01 1.245613023638725281e-01 5.377863049507141113e-01
4.124983549118041992e-01 1.044938638806343079e-01 4.173687100410461426e-01
8.705280721187591553e-02 1.037924215197563171e-01 3.435586094856262207e-01
2.646242380142211914e-01 1.271226704120635986e-01 4.405399560928344727e-01
2.391867041587829590e-01 1.261574327945709229e-01 5.056057572364807129e-01
2.329913675785064697e-01 1.271567046642303467e-01 4.253683090209960938e-01
7.326328754425048828e-02 1.262610405683517456e-01 4.767999649047851562e-01
5.214605331420898438e-01 1.070123091340065002e-01 3.119646310806274414e-01
3.849980235099792480e-01 1.235854178667068481e-01 3.311842381954193115e-01
1.843333244323730469e-02 1.055423319339752197e-01 3.465858697891235352e-01
3.473921120166778564e-01 1.041728556156158447e-01 2.816479206085205078e-01
3.726419806480407715e-01 1.029348298907279968e-01 3.287046551704406738e-01
2.228482663631439209e-01 1.101617440581321716e-01 2.400801777839660645e-01
4.333581030368804932e-02 1.237935200333595276e-01 5.346236228942871094e-01
2.835389673709869385e-01 1.028196364641189575e-01 3.086087107658386230e-01
4.783538579940795898e-01 1.174479126930236816e-01 2.770121991634368896e-01
5.159611701965332031e-01 1.216358989477157593e-01 3.660738468170166016e-01
1.669085025787353516e-01 1.228737011551856995e-01 3.159270286560058594e-01
2.532708942890167236e-01 1.073119267821311951e-01 2.477573901414871216e-01
2.912195622920989990e-01 1.266381889581680298e-01 4.723638892173767090e-01
-1.230399310588836670e-02 1.236351877450942993e-01 4.024178981781005859e-01
5.332183837890625000e-01 1.081310287117958069e-01 4.066675305366516113e-01
1.905901581048965454e-01 1.272244751453399658e-01 4.375401437282562256e-01
2.599114179611206055e-01 1.266120523214340210e-01 4.863294959068298340e-01
5.192334949970245361e-02 1.249877214431762695e-01 3.944996893405914307e-01
4.446225464344024658e-01 1.040929555892944336e-01 3.321226835250854492e-01
4.388939142227172852e-01 1.232967451214790344e-01 3.462347090244293213e-01
4.151718616485595703e-01 1.076973453164100647e-01 4.762889146804809570e-01
-3.551283478736877441e-02 1.065694466233253479e-01 3.872086703777313232e-01
1.912044137716293335e-01 1.028736978769302368e-01 3.202372193336486816e-01
4.615985155105590820e-01 1.228586584329605103e-01 4.671958684921264648e-01
5.231963098049163818e-02 1.074303761124610901e-01 5.026034116744995117e-01
8.838516473770141602e-02 1.112402230501174927e-01 5.498552322387695312e-01
4.513353705406188965e-01 1.075265705585479736e-01 4.575605094432830811e-01
2.244982719421386719e-01 1.272486597299575806e-01 4.508414566516876221e-01
2.435205429792404175e-01 1.047079712152481079e-01 2.726560831069946289e-01
4.394370913505554199e-01 1.042022034525871277e-01 3.842890262603759766e-01
3.444860875606536865e-01 1.024957150220870972e-01 3.654794692993164062e-01
2.978851497173309326e-01 1.256366670131683350e-01 3.627784252166748047e-01
-3.898355364799499512e-02 1.066137105226516724e-01 4.147973954677581787e-01
-2.657726407051086426e-03 1.248448416590690613e-01 4.475497603416442871e-01
2.520349025726318359e-01 1.022684276103973389e-01 3.932041823863983154e-01
2.865772545337677002e-01 1.030790805816650391e-01 4.246441423892974854e-01
2.831878662109375000e-01 1.270050555467605591e-01 4.341043233871459961e-01
1.867454648017883301e-01 1.104425862431526184e-01 5.469342470169067383e-01
9.337730705738067627e-02 1.046988070011138916e-01 4.595455527305603027e-01
2.194928377866744995e-01 1.268572658300399780e-01 4.036217331886291504e-01
-1.021322011947631836e-01 1.100945919752120972e-01 4.441413581371307373e-01
5.585305690765380859e-01 1.197348311543464661e-01 3.834974467754364014e-01
1.094212830066680908e-01 1.243902072310447693e-01 3.550714850425720215e-01
5.228644013404846191e-01 1.064642071723937988e-01 3.391225934028625488e-01
1.685991287231445312e-01 1.267230510711669922e-01 4.054166078567504883e-01
3.089194595813751221e-01 1.134971901774406433e-01 2.356065660715103149e-01
4.331775009632110596e-02 1.184478402137756348e-01 3.024500012397766113e-01
-1.096160709857940674e-01 1.110429912805557251e-01 3.960013985633850098e-01
2.991332709789276123e-01 1.054659634828567505e-01 4.774177670478820801e-01
4.250535964965820312e-01 1.098875775933265686e-01 4.961642622947692871e-01
3.828808963298797607e-01 1.212673857808113098e-01 2.930170893669128418e-01
3.384543359279632568e-01 1.060857474803924561e-01 4.785721898078918457e-01
-7.315629720687866211e-02 1.162740215659141541e-01 3.482765257358551025e-01
-7.996654510498046875e-02 1.088467389345169067e-01 3.876132071018218994e-01
4.361825585365295410e-01 1.160992980003356934e-01 2.568002939224243164e-01
2.097171992063522339e-01 1.036596000194549561e-01 4.493469595909118652e-01
3.606017231941223145e-01 1.092819422483444214e-01 5.116060376167297363e-01
2.080355286598205566e-01 1.023054122924804688e-01 3.421575725078582764e-01
4.269314408302307129e-01 1.241413801908493042e-01 3.641365766525268555e-01
4.740563035011291504e-01 1.071246787905693054e-01 4.380220472812652588e-01
-6.684285402297973633e-02 1.226890534162521362e-01 4.497499465942382812e-01
1.910499930381774902e-01 1.225118562579154968e-01 3.071511983871459961e-01
1.409640610218048096e-01 1.266012191772460938e-01 4.089982509613037109e-01
2.654852867126464844e-01 1.109633296728134155e-01 5.441618561744689941e-01
1.947315037250518799e-02 1.083723604679107666e-01 3.044532239437103271e-01
-1.004616618156433105e-01 1.124746575951576233e-01 4.924900531768798828e-01
5.685477256774902344e-01 1.181272715330123901e-01 3.460041880607604980e-01
3.158728778362274170e-01 1.232708320021629333e-01 3.137675225734710693e-01
2.399992346763610840e-01 1.253869980573654175e-01 5.220536589622497559e-01
-6.163093447685241699e-02 1.111098676919937134e-01 5.061077475547790527e-01
1.430580317974090576e-01 1.249960362911224365e-01 3.583774268627166748e-01
3.735142350196838379e-01 1.240604072809219360e-01 5.026233196258544922e-01
3.411141037940979004e-01 1.197861284017562866e-01 2.717204093933105469e-01
3.539163768291473389e-01 1.247944012284278870e-01 3.509034514427185059e-01
2.662334442138671875e-01 1.256345361471176147e-01 5.120456814765930176e-01
4.968905150890350342e-01 1.221168860793113708e-01 4.465222060680389404e-01
2.709223330020904541e-01 1.179363802075386047e-01 2.559877038002014160e-01
1.163796111941337585e-01 1.127789989113807678e-01 2.582814097404479980e-01
3.999547958374023438e-01 1.031741052865982056e-01 3.426131904125213623e-01
-1.077815890312194824e-01 1.202210634946823120e-01 4.726699590682983398e-01
3.200432658195495605e-01 1.040169596672058105e-01 2.815220057964324951e-01
9.050829708576202393e-02 1.065077707171440125e-01 4.963671565055847168e-01
3.682759404182434082e-01 1.094726920127868652e-01 2.385609596967697144e-01
4.801494181156158447e-01 1.052013188600540161e-01 3.206205964088439941e-01
1.950369328260421753e-01 1.269765198230743408e-01 4.130921661853790283e-01
-2.435392141342163086e-02 1.241204813122749329e-01 4.375794231891632080e-01
4.139570593833923340e-01 1.054205149412155151e-01 4.394046962261199951e-01
3.600784540176391602e-01 1.257477104663848877e-01 4.679082930088043213e-01
1.554683744907379150e-01 1.271259039640426636e-01 4.577699899673461914e-01
2.884174883365631104e-01 1.222023665904998779e-01 2.968715429306030273e-01
3.213373720645904541e-01 1.264592409133911133e-01 4.625357389450073242e-01
3.090628087520599365e-01 1.265728324651718140e-01 4.045623540878295898e-01
2.537394464015960693e-01 1.254819333553314209e-01 3.556216955184936523e-01
-4.545637965202331543e-02 1.225878894329071045e-01 5.079486370086669922e-01
4.662326872348785400e-01 1.229319795966148376e-01 3.544470369815826416e-01
3.572285771369934082e-01 1.037729233503341675e-01 4.242593348026275635e-01
3.855623006820678711e-01 1.243531182408332825e-01 3.493464887142181396e-01
5.417646169662475586e-01 1.205858290195465088e-01 3.721811771392822266e-01
4.852829575538635254e-01 1.050683781504631042e-01 3.449619710445404053e-01
-1.091160774230957031e-01 1.126944124698638916e-01 3.779597282409667969e-01
2.128897011280059814e-01 1.265322715044021606e-01 4.986070096492767334e-01
-1.017202138900756836e-01 1.208314597606658936e-01 4.576988220214843750e-01
1.188483461737632751e-01 1.044410020112991333e-01 4.596447646617889404e-01
8.483989536762237549e-02 1.053279042243957520e-01 3.069547414779663086e-01
4.123243093490600586e-01 1.035752296447753906e-01 3.238212466239929199e-01
1.514052450656890869e-01 1.078495904803276062e-01 5.215644836425781250e-01
9.900122880935668945e-02 1.200294792652130127e-01 2.981777787208557129e-01
2.229571342468261719e-02 1.183985471725463867e-01 5.640306472778320312e-01
4.314277768135070801e-01 1.043338924646377563e-01 3.983900845050811768e-01
3.391557335853576660e-01 1.085749939084053040e-01 5.100959539413452148e-01
5.019280910491943359e-01 1.147363632917404175e-01 4.877744913101196289e-01
5.148153901100158691e-01 1.107293069362640381e-01 2.708777189254760742e-01
4.125308096408843994e-01 1.250650584697723389e-01 3.948231935501098633e-01
1.703935861587524414e-01 1.024680584669113159e-01 3.930487334728240967e-01
2.176234126091003418e-01 1.270389407873153687e-01 4.757165908813476562e-01
1.215978264808654785e-01 1.268848180770874023e-01 4.447978138923645020e-01
2.409522235393524170e-01 1.158769130706787109e-01 5.688982605934143066e-01
1.265593469142913818e-01 1.036248877644538879e-01 4.370451569557189941e-01
2.450214177370071411e-01 1.022783294320106506e-01 3.341080248355865479e-01
1.165655329823493958e-01 1.105816364288330078e-01 5.470616817474365234e-01
4.742841124534606934e-01 1.054916083812713623e-01 3.043442666530609131e-01
4.197108149528503418e-01 1.092156097292900085e-01 2.462364733219146729e-01
4.280841350555419922e-02 1.042917668819427490e-01 3.716046810150146484e-01
1.751753836870193481e-01 1.026424095034599304e-01 3.364520370960235596e-01
5.346986055374145508e-01 1.074666529893875122e-01 3.865394294261932373e-01
1.292537152767181396e-01 1.028195321559906006e-01 3.616159856319427490e-01
2.070684134960174561e-01 1.272479891777038574e-01 4.377486407756805420e-01
1.369894444942474365e-01 1.140256673097610474e-01 5.685148239135742188e-01
5.954591929912567139e-02 1.228855028748512268e-01 3.458368778228759766e-01
3.395332098007202148e-01 1.254040896892547607e-01 3.645096719264984131e-01
9.317751228809356689e-02 1.034447327256202698e-01 4.103477895259857178e-01
9.589184820652008057e-02 1.038683652877807617e-01 4.339775741100311279e-01
3.091239333152770996e-01 1.076462343335151672e-01 5.063673853874206543e-01
5.700564384460449219e-01 1.159657761454582214e-01 3.178710937500000000e-01
4.200506806373596191e-01 1.226127147674560547e-01 3.229613900184631348e-01
2.925260365009307861e-01 1.123971119523048401e-01 5.489647984504699707e-01
1.029694527387619019e-01 1.208764687180519104e-01 5.683794021606445312e-01
1.366002261638641357e-01 1.270029693841934204e-01 4.618743658065795898e-01
5.497491955757141113e-01 1.077539473772048950e-01 3.581200242042541504e-01
-5.738571286201477051e-02 1.081725656986236572e-01 3.672721087932586670e-01
7.454098761081695557e-02 1.248287782073020935e-01 5.263447165489196777e-01
1.415456533432006836e-01 1.064721345901489258e-01 2.730211615562438965e-01
4.102674722671508789e-01 1.236435845494270325e-01 3.411032557487487793e-01
2.531186938285827637e-01 1.267173886299133301e-01 3.973445594310760498e-01
-5.538281798362731934e-02 1.186948418617248535e-01 3.531077504158020020e-01
2.335810512304306030e-01 1.222641691565513611e-01 2.994202971458435059e-01
3.969686329364776611e-01 1.253269314765930176e-01 4.511251747608184814e-01
3.289701342582702637e-01 1.265740841627120972e-01 4.407054781913757324e-01
1.770239174365997314e-01 1.252591311931610107e-01 5.299910902976989746e-01
-2.852833271026611328e-02 1.218192875385284424e-01 3.750716149806976318e-01
5.047399997711181641e-01 1.191454380750656128e-01 3.052830696105957031e-01
3.386253714561462402e-01 1.027866154909133911e-01 3.947949111461639404e-01
5.573853850364685059e-02 1.241063922643661499e-01 3.700788617134094238e-01
2.292660474777221680e-01 1.039160117506980896e-01 4.553438723087310791e-01
2.288933694362640381e-01 1.020946651697158813e-01 3.731186687946319580e-01
2.736515402793884277e-01 1.269236803054809570e-01 4.145896136760711670e-01
9.618599712848663330e-02 1.032147854566574097e-01 3.888502717018127441e-01
3.146240711212158203e-01 1.254665553569793701e-01 5.008469223976135254e-01
3.746990859508514404e-01 1.228841841220855713e-01 3.154961466789245605e-01
3.790060281753540039e-01 1.028672009706497192e-01 3.449719250202178955e-01
3.944614529609680176e-01 1.144556552171707153e-01 2.429290115833282471e-01
2.710583209991455078e-01 1.054636090993881226e-01 4.820880293846130371e-01
3.258158564567565918e-01 1.030238345265388489e-01 4.113169908523559570e-01
2.145619839429855347e-01 1.241087988018989563e-01 3.288880586624145508e-01
2.944459319114685059e-01 1.021419763565063477e-01 3.588086664676666260e-01
3.201514482498168945e-04 1.067368909716606140e-01 3.358496129512786865e-01
-4.152843356132507324e-02 1.236146688461303711e-01 4.424056112766265869e-01
1.272385120391845703e-01 1.041667386889457703e-01 3.094481527805328369e-01
1.073804646730422974e-01 1.070512980222702026e-01 5.074924230575561523e-01
4.751442670822143555e-01 1.103462204337120056e-01 4.779168963432312012e-01
-1.091256737709045410e-02 1.056187003850936890e-01 3.954515755176544189e-01
3.961780667304992676e-01 1.255691349506378174e-01 4.243820607662200928e-01
-3.890806436538696289e-02 1.070093810558319092e-01 4.416067600250244141e-01
5.891345441341400146e-02 1.046170070767402649e-01 4.421563744544982910e-01
2.082182466983795166e-01 1.252760887145996094e-01 3.530928492546081543e-01
5.942009687423706055e-01 1.156405285000801086e-01 3.573083877563476562e-01
3.117539882659912109e-01 1.261929124593734741e-01 3.852690756320953369e-01
4.931829869747161865e-01 1.054331511259078979e-01 3.686966598033905029e-01
4.044552445411682129e-01 1.120063364505767822e-01 5.191119909286499023e-01
2.174636274576187134e-01 1.060127615928649902e-01 4.961098432540893555e-01
5.033333301544189453e-01 1.223670691251754761e-01 4.265281260013580322e-01
2.137587219476699829e-01 1.048426255583763123e-01 4.760714173316955566e-01
1.831696778535842896e-01 1.050581336021423340e-01 4.803896546363830566e-01
3.677011728286743164e-01 1.204511076211929321e-01 2.810766100883483887e-01
6.464785337448120117e-02 1.254587024450302124e-01 5.083053708076477051e-01
3.753715157508850098e-01 1.028596907854080200e-01 3.679630160331726074e-01
3.576129078865051270e-01 1.240865662693977356e-01 3.349348902702331543e-01
-2.775827050209045410e-02 1.100312173366546631e-01 3.203978836536407471e-01
2.359077632427215576e-01 1.028316318988800049e-01 3.113103210926055908e-01
-1.271432638168334961e-01 1.157902628183364868e-01 4.838466048240661621e-01
4.696459770202636719e-01 1.046448498964309692e-01 3.393161892890930176e-01
5.594612360000610352e-01 1.094189286231994629e-01 3.990920782089233398e-01
-5.485039949417114258e-02 1.079277172684669495e-01 4.535906910896301270e-01
6.079982221126556396e-02 1.039131358265876770e-01 3.687419891357421875e-01
4.492735266685485840e-01 1.219690516591072083e-01 4.904534816741943359e-01
1.673387587070465088e-01 1.087763160467147827e-01 5.321763753890991211e-01
8.901472389698028564e-02 1.252382546663284302e-01 3.824735879898071289e-01
3.821969926357269287e-01 1.043091192841529846e-01 2.861151993274688721e-01
1.573678106069564819e-01 1.024832949042320251e-01 3.660029470920562744e-01
2.976320385932922363e-01 1.036325097084045410e-01 2.878811061382293701e-01
3.097465634346008301e-01 1.110243797302246094e-01 5.373749732971191406e-01
3.802705407142639160e-01 1.083178520202636719e-01 4.960442781448364258e-01
1.972015351057052612e-01 1.257013380527496338e-01 5.209934115409851074e-01
2.566390931606292725e-01 1.249735355377197266e-01 5.260378718376159668e-01
7.159513235092163086e-02 1.062057241797447205e-01 4.868041872978210449e-01
2.909294366836547852e-01 1.022946909070014954e-01 3.337457180023193359e-01
2.686015963554382324e-01 1.023816242814064026e-01 3.265168368816375732e-01
3.323715627193450928e-01 1.179164946079254150e-01 2.558414340019226074e-01
1.912445276975631714e-01 1.074282526969909668e-01 5.166783332824707031e-01
3.127692639827728271e-01 1.218819394707679749e-01 2.934029400348663330e-01
4.163556396961212158e-01 1.037245318293571472e-01 3.846011757850646973e-01
3.845779299736022949e-01 1.257431507110595703e-01 4.370498061180114746e-01
-1.242643594741821289e-02 1.063974350690841675e-01 3.553525507450103760e-01
1.858421117067337036e-01 1.249179691076278687e-01 3.480798602104187012e-01
3.049801290035247803e-02 1.061690151691436768e-01 4.716458916664123535e-01
2.573883235454559326e-01 1.209425777196884155e-01 5.615861415863037109e-01
1.544778198003768921e-01 1.232492327690124512e-01 5.550290346145629883e-01
