5.243392288684844971e-02 9.196766465902328491e-02 -2.814808189868927002e-01
2.983768582344055176e-01 1.652283370494842529e-01 5.997083336114883423e-02
2.453495860099792480e-01 3.897037357091903687e-02 9.673647582530975342e-03
2.531158626079559326e-01 9.234344959259033203e-02 -3.982691168785095215e-01
3.145993053913116455e-01 1.630246639251708984e-01 4.854065924882888794e-02
2.662166953086853027e-01 4.333844780921936035e-02 -2.633000165224075317e-02
2.468725293874740601e-01 1.789147406816482544e-01 -4.424676299095153809e-04
6.181983649730682373e-02 1.311542838811874390e-01 -8.693964779376983643e-02
2.502833902835845947e-01 6.679803133010864258e-02 -3.229690790176391602e-01
1.710860133171081543e-01 1.804063022136688232e-01 -1.673221886157989502e-01
6.154705584049224854e-02 1.196315065026283264e-01 -9.570680558681488037e-03
1.780731379985809326e-01 1.728424727916717529e-01 -1.029232889413833618e-02
2.499472349882125854e-01 4.451457411050796509e-02 -1.771010160446166992e-01
6.854677200317382812e-02 8.776460587978363037e-02 8.059651404619216919e-02
2.333788424730300903e-01 1.832217574119567871e-01 -4.852739721536636353e-02
1.816870272159576416e-01 1.822561323642730713e-01 -1.964362263679504395e-01
2.187945842742919922e-01 1.869598627090454102e-01 -1.472596079111099243e-01
2.069061994552612305e-01 3.262359648942947388e-02 -1.199133098125457764e-01
2.076613456010818481e-01 3.354940563440322876e-02 3.107091039419174194e-02
6.804081797599792480e-02 1.234460473060607910e-01 -3.012604415416717529e-01
3.240487575531005859e-01 1.439963430166244507e-01 -3.352882862091064453e-01
9.171276539564132690e-02 1.456145942211151123e-01 -2.891535162925720215e-01
6.125095486640930176e-02 4.995202273130416870e-02 -7.041792571544647217e-02
2.600388824939727783e-01 5.290996283292770386e-02 -2.285453975200653076e-01
3.045650124549865723e-01 1.824590265750885010e-01 -1.434087604284286499e-01
3.525414466857910156e-01 9.564282745122909546e-02 -1.770471632480621338e-01
2.792912423610687256e-01 1.843536347150802612e-01 -2.296825349330902100e-01
8.373931050300598145e-02 4.552162438631057739e-02 2.190462499856948853e-02
1.037528142333030701e-01 1.114273443818092346e-01 -3.979655504226684570e-01
1.942457258701324463e-01 5.354753136634826660e-02 -3.136847913265228271e-01
3.464657068252563477e-01 1.673008501529693604e-01 -1.173652261495590210e-01
3.174746930599212646e-01 7.209821045398712158e-02 -1.940839886665344238e-01
2.359817624092102051e-01 1.780540347099304199e-01 -3.230373561382293701e-01
3.577692806720733643e-02 8.904212713241577148e-02 -1.800028979778289795e-01
2.412111759185791016e-01 1.066784039139747620e-01 -4.307482242584228516e-01
3.322356343269348145e-01 1.567165553569793701e-01 4.407802969217300415e-02
3.216422200202941895e-01 7.827373594045639038e-02 9.019548445940017700e-02
2.360880076885223389e-01 1.520624458789825439e-01 -4.202227890491485596e-01
2.318486720323562622e-01 3.491958230733871460e-02 -5.044404417276382446e-02
3.556619286537170410e-01 1.601489484310150146e-01 -8.206468075513839722e-02
3.508256077766418457e-01 1.142275333404541016e-01 7.869146019220352173e-02
1.258380711078643799e-01 8.861323446035385132e-02 -4.071127772331237793e-01
2.076148986816406250e-01 1.858743429183959961e-01 -1.967347860336303711e-01
2.269870489835739136e-01 1.136049851775169373e-01 -4.446893036365509033e-01
1.240325197577476501e-01 5.538383871316909790e-02 1.430442631244659424e-01
2.892235815525054932e-01 1.287744790315628052e-01 -3.987979888916015625e-01
1.192221567034721375e-01 1.215754151344299316e-01 1.357967257499694824e-01
3.428936600685119629e-01 9.947352856397628784e-02 -2.410570085048675537e-01
2.900223731994628906e-01 1.051870360970497131e-01 1.939859688282012939e-01
3.915832936763763428e-02 7.035479694604873657e-02 -1.301707774400711060e-01
1.755033284425735474e-01 5.490344390273094177e-02 -3.266144692897796631e-01
3.324807584285736084e-01 1.318471878767013550e-01 1.146605536341667175e-01
2.096344083547592163e-01 1.863036751747131348e-01 -1.651261001825332642e-01
1.448876112699508667e-01 1.737319827079772949e-01 -2.020429372787475586e-01
3.475617766380310059e-01 1.405756771564483643e-01 -2.771118283271789551e-01
1.618900895118713379e-01 1.726405322551727295e-01 -2.950259745121002197e-01
6.158478558063507080e-02 1.015949398279190063e-01 -3.134754896163940430e-01
3.072243928909301758e-01 1.164985373616218567e-01 1.709689199924468994e-01
1.238682419061660767e-01 1.611820459365844727e-01 -2.909493446350097656e-01
3.190743029117584229e-01 1.350626498460769653e-01 1.327657997608184814e-01
7.737675309181213379e-02 1.003582626581192017e-01 9.286796301603317261e-02
7.445366680622100830e-02 1.387268453836441040e-01 -6.793067604303359985e-02
1.480761170387268066e-01 1.669785529375076294e-01 -2.375909686088562012e-02
1.073023304343223572e-01 4.294744879007339478e-02 6.683105975389480591e-02
3.715543746948242188e-01 1.403592675924301147e-01 -1.362296044826507568e-01
2.440339624881744385e-01 1.688632220029830933e-01 6.875848025083541870e-02
2.113627791404724121e-01 4.226374626159667969e-02 -2.290836125612258911e-01
3.614903390407562256e-01 9.726992249488830566e-02 -4.014487564563751221e-02
3.700407147407531738e-01 1.284772902727127075e-01 -1.558944582939147949e-02
2.253072857856750488e-01 4.707581549882888794e-02 -2.478120028972625732e-01
2.206004410982131958e-01 1.731127202510833740e-01 3.534889966249465942e-02
1.889458447694778442e-01 1.474919617176055908e-01 1.396480202674865723e-01
1.051763594150543213e-01 3.413517028093338013e-02 -1.035812720656394958e-01
3.236510157585144043e-01 1.129506081342697144e-01 1.461593210697174072e-01
3.547474145889282227e-01 1.264121532440185547e-01 6.284653395414352417e-02
2.627941966056823730e-01 1.113732084631919861e-01 -4.182380139827728271e-01
2.789656221866607666e-01 7.925887405872344971e-02 1.812123656272888184e-01
1.829742491245269775e-01 3.377155214548110962e-02 -1.750407218933105469e-01
2.505117058753967285e-01 1.514538228511810303e-01 1.438783705234527588e-01
1.482301503419876099e-01 6.851686537265777588e-02 -3.749861121177673340e-01
2.657372057437896729e-01 1.552708595991134644e-01 -3.975484669208526611e-01
3.434921205043792725e-01 7.955095171928405762e-02 -5.822437256574630737e-02
1.536491215229034424e-01 8.774352818727493286e-02 2.101692855358123779e-01
1.621107608079910278e-01 1.339278817176818848e-01 1.588335037231445312e-01
2.106692492961883545e-01 1.838163882493972778e-01 -2.551237940788269043e-01
9.135296940803527832e-02 1.505805850028991699e-01 -9.069482982158660889e-02
1.590318679809570312e-01 3.550606966018676758e-02 7.566151767969131470e-02
4.028464853763580322e-02 1.061081364750862122e-01 -8.652225136756896973e-02
2.253946959972381592e-01 4.146350175142288208e-02 -2.011591047048568726e-01
2.650078833103179932e-01 1.847025454044342041e-01 -6.949906796216964722e-02
3.457788228988647461e-01 8.301209658384323120e-02 -1.157492026686668396e-01
2.544477880001068115e-01 1.769692003726959229e-01 -3.243605792522430420e-01
3.128147721290588379e-01 6.953533738851547241e-02 7.436683028936386108e-02
1.728894710540771484e-01 1.743458807468414307e-01 -3.537297993898391724e-02
1.743057072162628174e-01 1.807664781808853149e-01 -1.439107507467269897e-01
2.744848728179931641e-01 4.634727537631988525e-02 -9.102401137351989746e-02
1.108520478010177612e-01 8.578101545572280884e-02 -3.894824683666229248e-01
1.946783065795898438e-01 1.771752238273620605e-01 -2.363462001085281372e-02
2.494631558656692505e-01 5.558755248785018921e-02 -2.671521008014678955e-01
2.053075134754180908e-01 4.512771964073181152e-02 -2.569854855537414551e-01
3.064401149749755859e-01 1.800649166107177734e-01 -2.145841121673583984e-01
1.156291365623474121e-01 1.021759286522865295e-01 -4.112695753574371338e-01
3.394491076469421387e-01 1.623663604259490967e-01 -7.813081145286560059e-03
1.023775115609169006e-01 1.540722250938415527e-01 -2.681168913841247559e-01
1.681878268718719482e-01 1.678575426340103149e-01 1.302922517061233521e-02
3.362351357936859131e-01 1.540322154760360718e-01 -2.875063419342041016e-01
1.845700442790985107e-01 9.716673195362091064e-02 -4.390755891799926758e-01
3.137810528278350830e-01 6.566813588142395020e-02 -1.521096974611282349e-01
1.668436229228973389e-01 1.096148788928985596e-01 2.082196176052093506e-01
3.504488468170166016e-01 1.587484776973724365e-01 -2.846441417932510376e-02
2.124374806880950928e-01 8.974637091159820557e-02 -4.211127460002899170e-01
3.525753617286682129e-01 8.839818835258483887e-02 -2.351526916027069092e-02
1.201633810997009277e-01 1.549704223871231079e-01 -3.849595785140991211e-03
1.603642404079437256e-01 1.726318150758743286e-01 -4.821085184812545776e-02
1.569549143314361572e-01 3.232055157423019409e-02 4.315952211618423462e-02
3.298886418342590332e-01 1.720854938030242920e-01 -5.952627211809158325e-02
3.124329745769500732e-01 1.183849200606346130e-01 -3.580217957496643066e-01
1.516070663928985596e-01 5.758880078792572021e-02 1.730283498764038086e-01
1.000951230525970459e-01 1.207380816340446472e-01 1.029871180653572083e-01
3.853036463260650635e-02 1.067837104201316833e-01 -1.274090707302093506e-01
3.319585323333740234e-01 1.743055284023284912e-01 -1.342189013957977295e-01
1.928139030933380127e-01 1.816218644380569458e-01 -8.369777351617813110e-02
2.475614547729492188e-01 1.877779364585876465e-01 -1.984141170978546143e-01
3.507173359394073486e-01 1.630618572235107422e-01 -1.752362847328186035e-01
2.582435309886932373e-01 4.144749790430068970e-02 -8.665134012699127197e-02
3.624410629272460938e-01 9.764714539051055908e-02 -8.215723931789398193e-02
6.230476498603820801e-02 1.147258579730987549e-01 1.339750736951828003e-02
2.769301235675811768e-01 9.680472314357757568e-02 2.045645713806152344e-01
-1.689906232059001923e-02 3.664975985884666443e-02 -4.773350358009338379e-01
1.206581592559814453e-01 1.569814831018447876e-01 7.096321880817413330e-02
-3.698968291282653809e-01 1.147641241550445557e-01 2.478582561016082764e-01
-2.245666086673736572e-01 5.128604546189308167e-02 -3.382267057895660400e-01
2.258255630731582642e-01 1.098886579275131226e-01 -7.471070885658264160e-01
-4.391762614250183105e-02 3.172754868865013123e-02 5.059810876846313477e-01
2.966918647289276123e-01 1.156879514455795288e-01 3.209938108921051025e-01
3.068829700350761414e-02 1.626012921333312988e-01 -2.539674639701843262e-01
1.393038332462310791e-01 3.718695417046546936e-02 5.261837244033813477e-01
-3.637702167034149170e-01 8.523352444171905518e-02 3.103710412979125977e-01
-6.150386482477188110e-02 1.642659157514572144e-01 1.084046885371208191e-01
2.173176407814025879e-01 3.229631856083869934e-02 -4.948435723781585693e-02
1.704802662134170532e-01 1.085723936557769775e-01 7.338275313377380371e-01
-2.880545258522033691e-01 6.205314025282859802e-02 -2.660513818264007568e-01
3.467247188091278076e-01 1.087511554360389709e-01 -2.322181314229965210e-01
1.082453429698944092e-01 1.430861651897430420e-01 4.997249245643615723e-01
2.043582201004028320e-01 5.004150420427322388e-02 -5.695626139640808105e-01
-3.103357851505279541e-01 1.170844733715057373e-01 -4.530268907546997070e-01
-3.440059423446655273e-01 7.463908940553665161e-02 -1.243120580911636353e-01
2.824350073933601379e-02 4.291706904768943787e-02 7.066693305969238281e-01
2.197018414735794067e-01 1.407203525304794312e-01 2.142969518899917603e-01
-2.695734202861785889e-01 4.949119314551353455e-02 2.512444257736206055e-01
3.136212825775146484e-01 9.024358540773391724e-02 4.221427440643310547e-01
-1.759478151798248291e-01 7.331573963165283203e-02 -7.013939619064331055e-01
-1.183920800685882568e-01 1.546452194452285767e-01 -4.881984889507293701e-01
1.547767966985702515e-01 1.473464518785476685e-01 3.019863069057464600e-01
-1.126415431499481201e-01 4.144904762506484985e-02 6.235698461532592773e-01
1.924532949924468994e-01 1.119250953197479248e-01 6.742339730262756348e-01
-2.031683921813964844e-01 4.025211557745933533e-02 -1.323474943637847900e-01
-2.389524430036544800e-01 9.331279247999191284e-02 7.923061251640319824e-01
-2.617311179637908936e-01 1.390346586704254150e-01 4.635691642761230469e-01
2.049051076173782349e-01 5.885718017816543579e-02 6.518268585205078125e-01
4.260298982262611389e-02 2.790316939353942871e-02 4.246902763843536377e-01
1.544422954320907593e-01 1.480105221271514893e-01 -4.684707522392272949e-01
1.003160029649734497e-01 2.609742432832717896e-02 -1.903825253248214722e-01
1.910710036754608154e-01 1.496507227420806885e-01 1.272771693766117096e-02
1.715940237045288086e-01 2.790290117263793945e-02 1.240144371986389160e-01
-3.199965059757232666e-01 6.788823753595352173e-02 4.022687375545501709e-01
7.180817425251007080e-02 1.445407569408416748e-01 5.330336093902587891e-01
-3.440326452255249023e-01 6.965128332376480103e-02 4.800762608647346497e-02
-2.419817447662353516e-01 1.517869681119918823e-01 2.192879468202590942e-01
2.433767765760421753e-01 3.593677654862403870e-02 -7.995230704545974731e-02
-6.500778719782829285e-03 4.910323768854141235e-02 -6.688189506530761719e-01
-1.829663664102554321e-01 1.604272425174713135e-01 2.886457368731498718e-03
1.105969101190567017e-01 5.414848029613494873e-02 7.595602273941040039e-01
-7.865902781486511230e-02 2.958228439092636108e-02 -2.109531611204147339e-01
-6.709204614162445068e-02 1.630263775587081909e-01 1.807179450988769531e-01
-3.819696307182312012e-01 9.823698550462722778e-02 1.627610623836517334e-01
2.090066373348236084e-01 1.476743966341018677e-01 -8.778170496225357056e-02
2.058275490999221802e-01 1.427123546600341797e-01 -4.218255579471588135e-01
-2.865688502788543701e-01 1.420626342296600342e-01 3.072043955326080322e-01
1.563668623566627502e-02 2.477893978357315063e-02 -1.600944697856903076e-01
-2.881677448749542236e-02 3.319944813847541809e-02 -3.945679962635040283e-01
1.302492916584014893e-01 1.572157591581344604e-01 -1.357380300760269165e-01
-1.715521067380905151e-01 1.587996184825897217e-01 -2.582992613315582275e-01
-3.317525684833526611e-01 1.282011270523071289e-01 3.504544496536254883e-01
2.901305556297302246e-01 9.419730305671691895e-02 5.020538568496704102e-01
9.797149896621704102e-02 1.566254794597625732e-01 1.915158480405807495e-01
-3.314291536808013916e-01 6.626325845718383789e-02 -2.770814672112464905e-02
-2.927124798297882080e-01 6.138101965188980103e-02 4.465306401252746582e-01
-5.243179574608802795e-02 1.432044059038162231e-01 6.370936036109924316e-01
-5.783532932400703430e-02 1.537406593561172485e-01 -5.565544366836547852e-01
-1.501723378896713257e-01 3.335801139473915100e-02 -1.151914820075035095e-01
3.320879042148590088e-01 5.720691010355949402e-02 8.915790170431137085e-02
-6.599422544240951538e-02 1.023120507597923279e-01 9.262719154357910156e-01
2.162015438079833984e-01 4.526620358228683472e-02 4.875886738300323486e-01
-1.318435072898864746e-01 1.587725877761840820e-01 -3.628127872943878174e-01
-2.564525008201599121e-01 1.119566783308982849e-01 -6.315147876739501953e-01
3.519952297210693359e-02 1.600456833839416504e-01 2.178454995155334473e-01
2.843502759933471680e-01 8.326347917318344116e-02 -6.402627825736999512e-01
-2.798714041709899902e-01 5.545985326170921326e-02 3.908249735832214355e-01
-1.841432303190231323e-01 3.968887031078338623e-02 -2.081693708896636963e-01
1.612349897623062134e-01 3.298901021480560303e-02 3.926561772823333740e-01
8.713091909885406494e-02 2.949151396751403809e-02 4.341511726379394531e-01
3.084921240806579590e-01 1.202115118503570557e-01 1.748844981193542480e-01
4.844398051500320435e-02 4.007327929139137268e-02 6.622971892356872559e-01
-1.222864687442779541e-01 1.638822555541992188e-01 -9.963505715131759644e-02
2.217806316912174225e-02 1.342151761054992676e-01 7.138310670852661133e-01
7.152503728866577148e-02 2.476806193590164185e-02 -1.573405265808105469e-01
-1.729351282119750977e-01 1.342894732952117920e-01 -6.808312535285949707e-01
7.325409352779388428e-02 5.014035105705261230e-02 -6.897981762886047363e-01
9.461677074432373047e-02 1.558224111795425415e-01 -4.041616022586822510e-01
8.114770054817199707e-02 2.427095919847488403e-02 2.391937673091888428e-01
-2.319899946451187134e-01 6.841954588890075684e-02 -5.460630059242248535e-01
1.177407652139663696e-01 6.471418589353561401e-02 8.155306577682495117e-01
-2.001007795333862305e-01 7.314433157444000244e-02 8.053851127624511719e-01
4.256355017423629761e-02 1.544522345066070557e-01 3.780454695224761963e-01
-2.190338522195816040e-01 4.370682314038276672e-02 -1.714841127395629883e-01
2.334135025739669800e-01 1.271921396255493164e-01 4.255452752113342285e-01
1.374615281820297241e-01 1.329338848590850830e-01 -7.324174642562866211e-01
-3.931569308042526245e-02 1.121694669127464294e-01 -9.054488539695739746e-01
9.097911417484283447e-02 1.560904085636138916e-01 2.335322946310043335e-01
9.520325064659118652e-02 1.504179537296295166e-01 3.828064799308776855e-01
2.308139950037002563e-01 4.125687479972839355e-02 -3.574804961681365967e-01
1.304245442152023315e-01 1.380390524864196777e-01 -6.862854361534118652e-01
8.216738700866699219e-02 1.460699886083602905e-01 -6.367716193199157715e-01
-1.367066204547882080e-01 7.218293100595474243e-02 -7.531877756118774414e-01
2.462036162614822388e-01 1.413120031356811523e-01 -1.056748777627944946e-01
-1.556971818208694458e-01 1.623548269271850586e-01 -3.449175506830215454e-02
-7.284614443778991699e-02 7.838103175163269043e-02 -8.514915108680725098e-01
9.302392601966857910e-02 2.324777096509933472e-02 6.116380915045738220e-02
3.283709883689880371e-01 1.110048964619636536e-01 -3.778847455978393555e-01
4.119196906685829163e-03 1.631519198417663574e-01 1.252846270799636841e-01
2.527143955230712891e-01 8.691136538982391357e-02 -7.234865427017211914e-01
1.754236817359924316e-01 6.187003105878829956e-02 7.243193984031677246e-01
1.987840533256530762e-01 5.253517627716064453e-02 -6.093086600303649902e-01
-2.031287252902984619e-01 1.523212045431137085e-01 3.444238603115081787e-01
-2.562457621097564697e-01 5.386713519692420959e-02 4.776524007320404053e-01
-1.701204776763916016e-01 7.186087965965270996e-02 8.394238948822021484e-01
2.032522857189178467e-01 9.462200850248336792e-02 -8.155298233032226562e-01
6.652525067329406738e-02 4.647910594940185547e-02 7.284356951713562012e-01
1.890294402837753296e-01 1.408205330371856689e-01 3.405071198940277100e-01
-9.496626257896423340e-02 3.054364025592803955e-02 3.969873487949371338e-01
-2.247174084186553955e-01 4.334741085767745972e-02 3.497503697872161865e-01
-8.180373907089233398e-02 1.603063941001892090e-01 2.866474986076354980e-01
-3.541108369827270508e-01 7.696903496980667114e-02 -6.526964902877807617e-02
-1.916798204183578491e-01 3.790750354528427124e-02 3.200936615467071533e-01
-3.148319125175476074e-01 1.413016170263290405e-01 3.942958638072013855e-02
8.190030232071876526e-03 1.550103127956390381e-01 4.040783941745758057e-01
3.391975164413452148e-02 1.628874242305755615e-01 6.587547808885574341e-02
-1.478538960218429565e-01 3.307275101542472839e-02 3.247493207454681396e-01
-6.866171211004257202e-02 2.511494606733322144e-02 1.327908188104629517e-01
1.866615712642669678e-01 3.236307203769683838e-02 2.948700785636901855e-01
2.895665466785430908e-01 5.146376788616180420e-02 3.064999878406524658e-01
-2.725134603679180145e-02 2.633175253868103027e-02 -1.830775141716003418e-01
1.152769774198532104e-01 4.686454311013221741e-02 6.893944740295410156e-01
2.627093493938446045e-01 5.275571346282958984e-02 4.420952796936035156e-01
2.668456137180328369e-01 6.209991127252578735e-02 5.171297192573547363e-01
-2.072190791368484497e-01 5.267695710062980652e-02 -4.191116988658905029e-01
2.123221158981323242e-01 3.917025029659271240e-02 3.912476003170013428e-01
1.146629303693771362e-01 2.521640062332153320e-02 2.154254913330078125e-01
2.843773365020751953e-01 6.738652288913726807e-02 -5.618461966514587402e-01
3.078885078430175781e-01 1.250470429658889771e-01 3.213503211736679077e-02
-1.573234051465988159e-01 3.210951760411262512e-02 3.636608645319938660e-02
3.082281053066253662e-01 6.436543911695480347e-02 -4.502825140953063965e-01
-1.096177250146865845e-01 3.381099179387092590e-02 -2.757174372673034668e-01
-1.885487884283065796e-01 3.544537350535392761e-02 9.221951663494110107e-02
2.712946236133575439e-01 4.079966992139816284e-02 -1.089885979890823364e-01
2.122428268194198608e-01 8.341994881629943848e-02 7.193309068679809570e-01
6.760619580745697021e-02 1.052208468317985535e-01 8.735756278038024902e-01
-1.173570454120635986e-01 1.637050807476043701e-01 6.460135430097579956e-02
3.524464368820190430e-01 9.952767193317413330e-02 -3.078905045986175537e-01
2.349397391080856323e-01 4.457112029194831848e-02 -4.152845740318298340e-01
7.853870093822479248e-02 7.756295800209045410e-02 -8.838086128234863281e-01
7.168884575366973877e-02 2.683699876070022583e-02 -2.487087100744247437e-01
1.586088091135025024e-01 1.543409824371337891e-01 -9.093791246414184570e-02
-3.338689357042312622e-02 1.646329611539840698e-01 7.196840643882751465e-02
1.876643300056457520e-01 2.958211302757263184e-02 -8.688520640134811401e-02
-2.248034030199050903e-01 1.348742991685867310e-01 6.049114465713500977e-01
-2.998463809490203857e-01 5.535830184817314148e-02 1.082079410552978516e-01
2.388326823711395264e-01 3.650983422994613647e-02 1.843557655811309814e-01
-3.464291393756866455e-01 8.981373161077499390e-02 4.670727252960205078e-01
3.086597323417663574e-01 4.882113635540008545e-02 5.313897132873535156e-02
-1.729928888380527496e-02 2.788831293582916260e-02 4.183916747570037842e-01
1.605926752090454102e-01 7.350116223096847534e-02 7.931277751922607422e-01
-1.760959774255752563e-01 3.698413819074630737e-02 3.635430335998535156e-01
-3.091295063495635986e-01 1.064458563923835754e-01 6.143948435783386230e-01
3.101507425308227539e-01 5.621204897761344910e-02 2.684937715530395508e-01
-2.618226222693920135e-02 1.646752059459686279e-01 -1.934573352336883545e-01
3.180086314678192139e-01 7.053773105144500732e-02 3.733495473861694336e-01
3.129763007164001465e-01 1.248066946864128113e-01 -1.202675700187683105e-01
-1.093136370182037354e-01 1.238722279667854309e-01 8.168965578079223633e-01
-2.815288007259368896e-01 1.413550376892089844e-01 -3.091951906681060791e-01
6.679989397525787354e-02 2.338626980781555176e-02 1.999322474002838135e-01
9.746877849102020264e-02 2.824586629867553711e-02 3.841851651668548584e-01
1.639158092439174652e-02 7.043413072824478149e-02 -8.537963628768920898e-01
3.377200663089752197e-01 8.745086193084716797e-02 3.079730272293090820e-01
2.986951172351837158e-01 7.255303859710693359e-02 4.653432071208953857e-01
-1.827220767736434937e-01 1.475955545902252197e-01 4.890436232089996338e-01
-2.036965936422348022e-01 3.835624456405639648e-02 -2.668368443846702576e-02
6.613438948988914490e-03 1.628049314022064209e-01 -2.860256135463714600e-01
-2.284898310899734497e-01 1.069184094667434692e-01 -7.007235884666442871e-01
8.356717228889465332e-02 1.200170814990997314e-01 7.827583551406860352e-01
8.306528627872467041e-02 3.983242809772491455e-02 6.360191702842712402e-01
2.309024035930633545e-01 5.629662424325942993e-02 5.732096433639526367e-01
2.123412191867828369e-01 3.383372351527214050e-02 2.335603982210159302e-01
1.179671734571456909e-01 2.421748638153076172e-02 3.002741187810897827e-02
-2.181758284568786621e-01 5.958325788378715515e-02 6.743654608726501465e-01
1.748178154230117798e-01 1.484283357858657837e-01 1.905709058046340942e-01
3.165314495563507080e-01 8.842841535806655884e-02 -5.432522296905517578e-01
-3.361852467060089111e-02 2.992349117994308472e-02 4.674808681011199951e-01
-1.845280081033706665e-01 1.291660815477371216e-01 7.199894189834594727e-01
-6.217407807707786560e-02 1.491777896881103516e-01 -6.300621628761291504e-01
-2.226862162351608276e-01 1.459207981824874878e-01 -4.419916570186614990e-01
-3.217116296291351318e-01 1.208523809909820557e-01 -3.848933279514312744e-01
1.766952276229858398e-01 1.284336149692535400e-01 -7.154577970504760742e-01
2.307960987091064453e-01 6.098346412181854248e-02 -6.383267641067504883e-01
-5.429797992110252380e-02 1.532145738601684570e-01 4.728927016258239746e-01
2.379650771617889404e-01 5.773592740297317505e-02 -5.928537249565124512e-01
1.651341617107391357e-01 4.791469126939773560e-02 6.306168437004089355e-01
-2.187322676181793213e-01 5.826641246676445007e-02 -4.682154655456542969e-01
5.222798511385917664e-02 6.006744503974914551e-02 -7.862526774406433105e-01
6.707350909709930420e-02 3.574502095580101013e-02 5.851401686668395996e-01
1.870439052581787109e-01 2.896998822689056396e-02 -1.502911746501922607e-02
-1.220347881317138672e-01 3.933874145150184631e-02 5.719849467277526855e-01
1.624162048101425171e-01 2.683255076408386230e-02 2.922909893095493317e-02
-1.677987724542617798e-01 4.515113309025764465e-02 -3.954874277114868164e-01
-1.023999601602554321e-01 5.272146686911582947e-02 -6.277361512184143066e-01
-1.306820660829544067e-01 6.332632154226303101e-02 -6.961839199066162109e-01
-2.458438724279403687e-01 5.265963822603225708e-02 -2.810752093791961670e-01
3.358728289604187012e-01 6.014994159340858459e-02 -2.084792852401733398e-01
1.057606935501098633e-01 2.404396235942840576e-02 -3.573267534375190735e-02
7.231681048870086670e-02 1.603927314281463623e-01 9.593437612056732178e-02
1.453065723180770874e-01 2.965606003999710083e-02 -2.542297542095184326e-01
1.959997564554214478e-01 1.412335634231567383e-01 -4.942163825035095215e-01
-6.699510663747787476e-02 5.223756656050682068e-02 -6.619209647178649902e-01
-2.159468084573745728e-01 1.524284183979034424e-01 -3.202656805515289307e-01
-8.904221653938293457e-02 7.038851082324981689e-02 8.981935977935791016e-01
-3.170374333858489990e-01 6.550905108451843262e-02 -1.544777005910873413e-01
1.166370660066604614e-01 1.321720778942108154e-01 6.337743997573852539e-01
1.415593922138214111e-01 2.966409176588058472e-02 3.437263667583465576e-01
-1.714409589767456055e-01 4.775999113917350769e-02 6.247498989105224609e-01
-4.351075738668441772e-02 1.573654413223266602e-01 -4.850574135780334473e-01
-1.111526936292648315e-01 1.341113001108169556e-01 7.309364676475524902e-01
-2.793610095977783203e-03 1.479781270027160645e-01 -6.578750610351562500e-01
1.526787132024765015e-01 5.167740210890769958e-02 -6.590030193328857422e-01
-3.188810944557189941e-01 6.066559255123138428e-02 1.454352885484695435e-01
-3.810696303844451904e-02 1.233570128679275513e-01 -8.671461343765258789e-01
3.270433247089385986e-01 5.395155027508735657e-02 -2.585947141051292419e-02
2.447130903601646423e-02 1.277781426906585693e-01 7.724722623825073242e-01
1.648270189762115479e-01 5.213145166635513306e-02 6.722003221511840820e-01
-2.236406654119491577e-01 4.617447406053543091e-02 4.435262680053710938e-01
-2.332074344158172607e-01 1.206801906228065491e-01 7.172816395759582520e-01
-9.318324923515319824e-02 4.300883784890174866e-02 6.698945164680480957e-01
-2.012657672166824341e-01 1.587261110544204712e-01 4.068760201334953308e-02
1.535347700119018555e-01 3.652860596776008606e-02 4.884759783744812012e-01
-7.882572710514068604e-02 2.854059636592864990e-02 3.563361167907714844e-01
-2.087943702936172485e-01 1.508236527442932129e-01 -3.850153088569641113e-01
3.674785196781158447e-01 8.321049809455871582e-02 -1.721418797969818115e-01
-3.055714666843414307e-01 7.360448688268661499e-02 -3.490743041038513184e-01
-2.093296200037002563e-01 1.554221510887145996e-01 -2.457952052354812622e-01
1.864567846059799194e-01 1.474517881870269775e-01 -3.640422523021697998e-01
7.405166327953338623e-02 2.600344270467758179e-02 3.355837762355804443e-01
-2.799517512321472168e-01 7.008291780948638916e-02 6.088799238204956055e-01
-2.960463762283325195e-01 7.370653003454208374e-02 -3.909582793712615967e-01
-3.741790056228637695e-01 8.818255364894866943e-02 -8.757131174206733704e-03
1.763321757316589355e-01 4.291237518191337585e-02 5.482082366943359375e-01
1.198327988386154175e-01 2.585424482822418213e-02 -1.390447765588760376e-01
-1.625524610280990601e-01 1.488889455795288086e-01 -5.274266004562377930e-01
-1.115101128816604614e-01 2.965970337390899658e-02 -1.068546846508979797e-01
2.479702085256576538e-01 1.266560852527618408e-01 -5.620227456092834473e-01
1.204435080289840698e-01 2.941777557134628296e-02 -2.900404036045074463e-01
-3.221333324909210205e-01 1.052749082446098328e-01 5.748341679573059082e-01
-1.511046588420867920e-01 1.143712997436523438e-01 -8.117584586143493652e-01
9.783260524272918701e-02 1.322642415761947632e-01 -7.812682986259460449e-01
-1.814558207988739014e-01 4.137597605586051941e-02 -2.686126232147216797e-01
5.983274057507514954e-02 1.548434942960739136e-01 -4.937187135219573975e-01
1.508566439151763916e-01 2.633831650018692017e-02 -4.184719920158386230e-02
1.523281037807464600e-01 1.532773524522781372e-01 9.948231279850006104e-02
3.164630234241485596e-01 1.116893216967582703e-01 -4.450523257255554199e-01
-3.006236553192138672e-01 6.303969025611877441e-02 -2.140715569257736206e-01
2.026807218790054321e-01 7.209574431180953979e-02 -7.602368593215942383e-01
2.239133119583129883e-01 1.428441107273101807e-01 1.131199598312377930e-01
2.750791609287261963e-01 1.276912838220596313e-01 2.364947497844696045e-01
-2.478182166814804077e-01 1.440278291702270508e-01 4.139529466629028320e-01
1.518443226814270020e-01 4.349088296294212341e-02 -5.543231368064880371e-01
1.923695057630538940e-01 1.190479099750518799e-01 6.225148439407348633e-01
-2.099130451679229736e-01 3.857531026005744934e-02 1.939070224761962891e-01
1.137012392282485962e-01 6.827136874198913574e-02 -8.240354061126708984e-01
3.204802274703979492e-01 1.196595206856727600e-01 7.503554970026016235e-02
-3.731318935751914978e-02 3.103349357843399048e-02 -3.303496241569519043e-01
1.277914941310882568e-01 2.719826251268386841e-02 2.844492495059967041e-01
1.840204149484634399e-01 3.634602576494216919e-02 -3.677293360233306885e-01
-9.107314050197601318e-02 2.651693671941757202e-02 3.927198424935340881e-02
2.270732671022415161e-01 1.266461014747619629e-01 -6.245748400688171387e-01
1.977822333574295044e-01 1.323327571153640747e-01 4.622046649456024170e-01
2.369996905326843262e-01 3.600201383233070374e-02 -1.503627151250839233e-01
2.751148939132690430e-01 4.248033091425895691e-02 1.570906937122344971e-01
-3.376236557960510254e-01 1.213770136237144470e-01 4.103977978229522705e-01
7.520957291126251221e-02 1.393874138593673706e-01 6.036490201950073242e-01
2.217979729175567627e-02 5.549236387014389038e-02 -7.448985576629638672e-01
2.284625321626663208e-01 3.798432648181915283e-02 -2.775494158267974854e-01
-2.951480746269226074e-01 5.446232482790946960e-02 1.844688951969146729e-01
-9.274415671825408936e-02 3.890813514590263367e-02 -4.322722852230072021e-01
-1.083035953342914581e-02 1.449522674083709717e-01 -6.986225247383117676e-01
-1.729032546281814575e-01 1.388424038887023926e-01 6.324930787086486816e-01
-2.236703634262084961e-01 1.516685485839843750e-01 3.018506169319152832e-01
-3.057648241519927979e-01 1.423734575510025024e-01 1.500295996665954590e-01
1.075166612863540649e-01 3.754005208611488342e-02 5.769196748733520508e-01
2.570773065090179443e-01 1.237820237874984741e-01 3.871859908103942871e-01
-3.663527071475982666e-01 1.072540879249572754e-01 3.449094891548156738e-01
2.891596257686614990e-01 1.093345433473587036e-01 -5.837099552154541016e-01
-2.561113536357879639e-01 1.378530859947204590e-01 -4.627692103385925293e-01
1.754173934459686279e-01 3.682250156998634338e-02 4.465900361537933350e-01
2.265472561120986938e-01 1.426333785057067871e-01 -3.074296712875366211e-01
5.769189819693565369e-02 2.258320152759552002e-02 1.142116487026214600e-01
3.298313170671463013e-02 1.583545207977294922e-01 2.825834751129150391e-01
-2.134746760129928589e-01 3.999987989664077759e-02 2.710344791412353516e-01
-7.602341473102569580e-02 1.576689779758453369e-01 3.681182265281677246e-01
9.795984625816345215e-02 1.515188664197921753e-01 -5.144830346107482910e-01
-3.626544773578643799e-01 1.150914654135704041e-01 -1.799543648958206177e-01
4.716464504599571228e-02 6.230158731341362000e-02 8.587435483932495117e-01
-2.855850160121917725e-01 1.316448897123336792e-01 4.983605444431304932e-01
2.160564661026000977e-01 1.219011694192886353e-01 -6.952795982360839844e-01
-2.695137560367584229e-01 4.954900592565536499e-02 -2.159628830850124359e-02
3.247084096074104309e-04 1.443196684122085571e-01 6.042933464050292969e-01
2.010379731655120850e-01 3.109592944383621216e-02 1.563085317611694336e-01
3.351811692118644714e-02 1.631973385810852051e-01 -1.973265260457992554e-01
-2.375032603740692139e-01 1.120714098215103149e-01 7.567842006683349609e-01
-1.417819559574127197e-01 5.354000627994537354e-02 7.427555322647094727e-01
-6.240938231348991394e-02 1.401043236255645752e-01 6.767591238021850586e-01
-1.336818486452102661e-01 1.140413805842399597e-01 8.611622452735900879e-01
-1.258355230093002319e-01 1.620959490537643433e-01 1.616824269294738770e-01
-2.128598242998123169e-01 1.568315476179122925e-01 1.238466128706932068e-01
-2.056612521409988403e-01 1.335304081439971924e-01 -6.305439472198486328e-01
-1.200900040566921234e-02 1.603672355413436890e-01 2.698885202407836914e-01
1.217607110738754272e-01 1.385031044483184814e-01 5.457624793052673340e-01
-1.342124640941619873e-01 1.572875678539276123e-01 3.362580537796020508e-01
-1.753698140382766724e-01 1.266478598117828369e-01 -7.297738194465637207e-01
-2.641317844390869141e-01 1.505724936723709106e-01 1.145042330026626587e-01
-2.071506902575492859e-02 1.617335379123687744e-01 2.253237813711166382e-01
2.865385115146636963e-01 5.792555958032608032e-02 4.100859463214874268e-01
2.127761989831924438e-01 6.188097596168518066e-02 -6.778956651687622070e-01
-3.619983196258544922e-01 1.193781718611717224e-01 -1.389823555946350098e-01
6.050589308142662048e-02 5.264594033360481262e-02 7.884126305580139160e-01
2.165026031434535980e-03 3.007370978593826294e-02 -3.414993584156036377e-01
1.595152020454406738e-01 1.383856236934661865e-01 -6.337729096412658691e-01
-3.296266496181488037e-02 7.507710903882980347e-02 9.268605709075927734e-01
-9.475873410701751709e-02 1.615181267261505127e-01 -3.268026709556579590e-01
-2.489528208971023560e-01 5.733476951718330383e-02 5.637687444686889648e-01
-2.146274596452713013e-01 3.900267928838729858e-02 1.489141583442687988e-01
-6.828209757804870605e-02 2.540462464094161987e-02 1.891815513372421265e-01
-5.046456307172775269e-02 1.624802201986312866e-01 -3.244612514972686768e-01
-4.786790907382965088e-02 6.480644643306732178e-02 -7.913587093353271484e-01
-1.160414963960647583e-01 3.165290877223014832e-02 -1.828619986772537231e-01
-1.402977555990219116e-01 4.529727622866630554e-02 -4.618446230888366699e-01
-8.300164341926574707e-02 1.650632321834564209e-01 -7.391667459160089493e-03
1.077485531568527222e-01 9.505152702331542969e-02 -9.090331196784973145e-01
1.625404506921768188e-02 2.780109643936157227e-02 -2.817468941211700439e-01
3.594084829092025757e-02 7.870728522539138794e-02 9.188900589942932129e-01
1.245460510253906250e-01 3.258002921938896179e-02 4.581344723701477051e-01
-2.909015715122222900e-01 1.461692750453948975e-01 -6.322882324457168579e-02
2.026147767901420593e-02 2.626032382249832153e-02 -2.285722494125366211e-01
-1.030568126589059830e-02 2.364708483219146729e-02 2.204782962799072266e-01
4.558279365301132202e-02 3.765072673559188843e-02 -5.187361240386962891e-01
-5.875154212117195129e-02 1.496097743511199951e-01 5.404109358787536621e-01
3.210485875606536865e-01 5.260509625077247620e-02 -1.122563630342483521e-01
4.298559576272964478e-02 1.633322387933731079e-01 -1.078784093260765076e-01
-8.109635114669799805e-02 1.590167582035064697e-01 3.283108472824096680e-01
1.699014753103256226e-01 1.228097677230834961e-01 -7.711254954338073730e-01
3.179747760295867920e-01 5.345139652490615845e-02 1.419090479612350464e-01
1.667457818984985352e-01 1.519903242588043213e-01 -2.726107537746429443e-01
2.174753099679946899e-01 1.178130060434341431e-01 5.746117234230041504e-01
-7.767754793167114258e-02 1.552385985851287842e-01 4.278318881988525391e-01
-5.106760561466217041e-02 6.021219119429588318e-02 8.596977591514587402e-01
2.664502859115600586e-01 1.328254044055938721e-01 -3.653880953788757324e-01
-9.673519432544708252e-02 1.446888744831085205e-01 6.109834909439086914e-01
2.328123152256011963e-01 3.968073800206184387e-02 3.262552618980407715e-01
-7.307501137256622314e-02 2.621909230947494507e-02 2.442058920860290527e-01
-1.143042743206024170e-01 1.384333074092864990e-01 6.835397481918334961e-01
3.290120959281921387e-01 6.032474339008331299e-02 -2.772686183452606201e-01
-2.826524153351783752e-02 3.610974922776222229e-02 6.059440374374389648e-01
-5.179710686206817627e-02 1.592437624931335449e-01 -4.341112077236175537e-01
1.412957012653350830e-01 1.215219870209693909e-01 -8.158655166625976562e-01
1.655220240354537964e-01 1.399480104446411133e-01 4.279563724994659424e-01
-3.383710086345672607e-01 6.709310412406921387e-02 1.041464582085609436e-01
-1.215062588453292847e-01 1.630187928676605225e-01 -1.965079307556152344e-01
-3.165514469146728516e-01 6.402228772640228271e-02 3.452474176883697510e-01
-2.001491636037826538e-01 1.469534933567047119e-01 -4.827291965484619141e-01
-2.508426904678344727e-01 1.489393115043640137e-01 -2.718580067157745361e-01
1.147091835737228394e-01 1.256964355707168579e-01 7.009643316268920898e-01
-1.672881841659545898e-01 3.745071962475776672e-02 4.161263108253479004e-01
-3.415615260601043701e-01 1.332248747348785400e-01 -1.749341376125812531e-02
-2.620855532586574554e-02 1.354244202375411987e-01 7.240931987762451172e-01
-2.057861536741256714e-01 1.406762152910232544e-01 -5.583990812301635742e-01
-9.476736187934875488e-02 4.984076321125030518e-02 7.524554133415222168e-01
1.254421621561050415e-01 1.467505991458892822e-01 -5.632101297378540039e-01
1.354348957538604736e-01 1.133243218064308167e-01 -8.605390191078186035e-01
-1.909715533256530762e-01 4.489589110016822815e-02 5.285526514053344727e-01
-5.361178517341613770e-02 1.640002727508544922e-01 -2.461311966180801392e-01
-4.915136843919754028e-02 2.640473097562789917e-02 -1.430772393941879272e-01
1.778499484062194824e-01 6.154183298349380493e-02 -7.240045070648193359e-01
7.146814465522766113e-02 1.149572283029556274e-01 -8.972637653350830078e-01
-2.853373289108276367e-01 5.244892090559005737e-02 1.927081122994422913e-02
-1.870501041412353516e-02 6.422472745180130005e-02 8.858226537704467773e-01
-1.943746954202651978e-01 1.320867836475372314e-01 6.810581684112548828e-01
-1.666734367609024048e-01 3.430046886205673218e-02 -6.802274286746978760e-02
1.339060626924037933e-02 6.350079178810119629e-02 -8.090553879737854004e-01
2.099798172712326050e-01 3.431825339794158936e-02 -2.266673445701599121e-01
5.482310429215431213e-02 1.487931609153747559e-01 4.821070432662963867e-01
9.884881973266601562e-02 1.471058130264282227e-01 4.451503455638885498e-01
1.545177996158599854e-01 3.547820076346397400e-02 -4.031553864479064941e-01
1.602567434310913086e-01 4.389821365475654602e-02 5.917029380798339844e-01
-1.298142820596694946e-01 2.928683906793594360e-02 8.660055696964263916e-02
-1.031520813703536987e-01 3.389025852084159851e-02 4.825454056262969971e-01
3.103604912757873535e-02 1.376603394746780396e-01 6.695075035095214844e-01
-1.559076607227325439e-01 5.167071521282196045e-02 -5.279630422592163086e-01
-1.794623285531997681e-01 1.430935859680175781e-01 5.673966407775878906e-01
-3.779915869235992432e-01 8.953206986188888550e-02 1.110513433814048767e-01
-3.497070074081420898e-02 1.552308946847915649e-01 4.255626201629638672e-01
-2.286900728940963745e-01 1.556423008441925049e-01 -9.592293202877044678e-02
5.463989824056625366e-02 1.585542857646942139e-01 -3.937198221683502197e-01
-9.118872694671154022e-04 1.363057047128677368e-01 -7.884302139282226562e-01
2.986709177494049072e-01 1.165421903133392334e-01 -4.825922846794128418e-01
-2.805988788604736328e-01 1.347996592521667480e-01 -4.177866280078887939e-01
-2.224667072296142578e-01 5.687660351395606995e-02 6.337782740592956543e-01
2.969951182603836060e-02 3.484018146991729736e-02 -4.640412032604217529e-01
-2.943743169307708740e-01 9.958661347627639771e-02 -5.336127877235412598e-01
-1.298693269491195679e-01 1.281924545764923096e-01 7.744073271751403809e-01
3.172032535076141357e-01 1.136941164731979370e-01 2.312076836824417114e-01
2.268627285957336426e-01 3.323510661721229553e-02 6.436039227992296219e-03
1.066088378429412842e-01 9.120143949985504150e-02 8.703923225402832031e-01
2.943801879882812500e-02 9.596125036478042603e-02 -9.316127896308898926e-01
2.644894123077392578e-01 1.276680529117584229e-01 2.931686937808990479e-01
7.689359784126281738e-02 1.614333242177963257e-01 -4.852312058210372925e-02
-2.776160277426242828e-02 2.482251077890396118e-02 -1.023896932601928711e-01
3.607326149940490723e-01 1.006884723901748657e-01 -1.060676947236061096e-02
3.211363554000854492e-01 5.347195267677307129e-02 -1.586328744888305664e-01
-3.376032710075378418e-01 1.034381687641143799e-01 5.191012620925903320e-01
1.703741401433944702e-01 2.904943376779556274e-02 2.195339351892471313e-01
-3.520306050777435303e-01 8.453920483589172363e-02 -2.046871185302734375e-01
3.188334107398986816e-01 1.228100359439849854e-01 -7.619077712297439575e-02
3.517139256000518799e-01 6.569002568721771240e-02 4.344672337174415588e-02
4.605490714311599731e-02 4.653466492891311646e-02 -6.503398418426513672e-01
-7.394905388355255127e-02 1.433261334896087646e-01 -6.989565491676330566e-01
-2.652249336242675781e-01 1.510722041130065918e-01 5.899695679545402527e-03
-4.939487576484680176e-02 3.641125559806823730e-02 -4.424394965171813965e-01
-4.647553339600563049e-02 4.627049341797828674e-02 -6.072854995727539062e-01
1.937879920005798340e-01 1.494498699903488159e-01 -1.999565660953521729e-01
8.362844586372375488e-02 3.476082161068916321e-02 -4.564224183559417725e-01
2.363695055246353149e-01 1.427383273839950562e-01 -1.867213100194931030e-02
1.128400117158889771e-01 2.448653429746627808e-02 1.621288061141967773e-01
1.945987641811370850e-01 3.536953404545783997e-02 -3.151196539402008057e-01
-2.656746506690979004e-01 5.316479876637458801e-02 -1.918150782585144043e-01
-1.061501353979110718e-01 5.553046986460685730e-02 7.972714900970458984e-01
8.126807212829589844e-02 1.533033847808837891e-01 3.409061729907989502e-01
3.216187059879302979e-01 6.145744398236274719e-02 -3.472444117069244385e-01
2.826421856880187988e-01 5.034657195210456848e-02 -3.537607789039611816e-01
-2.475743442773818970e-01 1.278270483016967773e-01 -5.822964310646057129e-01
-1.512594074010848999e-01 3.129453212022781372e-02 1.375222951173782349e-01
-3.440190851688385010e-01 1.311311423778533936e-01 1.744001954793930054e-01
3.253403604030609131e-01 1.200337484478950500e-01 -1.774583011865615845e-01
3.422811627388000488e-01 8.680649846792221069e-02 -4.201985001564025879e-01
-7.494358718395233154e-02 5.692387744784355164e-02 8.283249139785766602e-01
1.472722366452217102e-02 3.618171066045761108e-02 6.134331226348876953e-01
6.584583222866058350e-02 1.398672759532928467e-01 -7.315317988395690918e-01
3.445494472980499268e-01 1.051260158419609070e-01 1.424296945333480835e-01
-1.430775672197341919e-01 3.077697753906250000e-02 1.913123875856399536e-01
-1.138905435800552368e-01 1.603353321552276611e-01 2.605049908161163330e-01
-2.116054669022560120e-02 1.652683913707733154e-01 -5.530884116888046265e-02
-3.388410806655883789e-01 1.340809613466262817e-01 1.081736236810684204e-01
-1.832317262887954712e-01 5.859749764204025269e-02 7.319445610046386719e-01
3.504318296909332275e-01 6.391873955726623535e-02 -7.423434406518936157e-02
1.548777222633361816e-01 1.489083468914031982e-01 2.584114968776702881e-01
1.159390807151794434e-01 1.523096710443496704e-01 2.843928039073944092e-01
2.698236405849456787e-01 1.355719119310379028e-01 -2.224166691303253174e-01
2.184598594903945923e-01 1.461561918258666992e-01 -1.345690488815307617e-01
-1.694280058145523071e-01 1.523902267217636108e-01 4.119006991386413574e-01
-2.701236903667449951e-01 1.476917564868927002e-01 -2.000850290060043335e-01
4.210878908634185791e-02 1.530328541994094849e-01 -5.524281859397888184e-01
-7.245978713035583496e-02 1.653090417385101318e-01 -4.661602899432182312e-02
2.818603813648223877e-01 5.214565992355346680e-02 3.562686741352081299e-01
-7.209204137325286865e-02 1.384626030921936035e-01 -7.495315670967102051e-01
-9.822593629360198975e-02 1.517423093318939209e-01 -5.647601485252380371e-01
-1.239933520555496216e-01 6.879180669784545898e-02 8.697628974914550781e-01
-7.860597968101501465e-02 1.646305024623870850e-01 -1.733165532350540161e-01
1.299700438976287842e-01 4.617141932249069214e-02 -6.133713126182556152e-01
-2.253106608986854553e-02 2.394508570432662964e-02 -4.944828152656555176e-02
8.993703126907348633e-02 1.575571000576019287e-01 -3.522579967975616455e-01
1.222732216119766235e-01 1.017546728253364563e-01 8.310153484344482422e-01
2.969439625740051270e-01 5.170285701751708984e-02 -3.091576993465423584e-01
-1.918146759271621704e-02 1.613238602876663208e-01 -3.697491884231567383e-01
2.108464203774929047e-02 2.245373278856277466e-02 4.393157362937927246e-02
3.713404759764671326e-02 2.272262424230575562e-02 -2.025266736745834351e-02
-7.921999692916870117e-02 3.334627673029899597e-02 -3.283746540546417236e-01
-2.738178074359893799e-01 7.163703441619873047e-02 -4.526893496513366699e-01
-4.710670560598373413e-02 5.562552064657211304e-02 -7.142602205276489258e-01
-1.027751713991165161e-01 2.885538339614868164e-02 2.990249991416931152e-01
1.457998007535934448e-01 4.059540852904319763e-02 -5.149689912796020508e-01
-2.822653651237487793e-01 6.420491635799407959e-02 5.376626253128051758e-01
-5.101162474602460861e-03 1.137089952826499939e-01 8.787130713462829590e-01
5.970558896660804749e-02 1.319088041782379150e-01 -8.094811439514160156e-01
2.533006668090820312e-01 1.063243895769119263e-01 5.626077055931091309e-01
2.440942376852035522e-01 5.006173625588417053e-02 -4.830060899257659912e-01
1.016295552253723145e-01 3.830534592270851135e-02 -5.141529440879821777e-01
2.777735590934753418e-01 1.343396008014678955e-01 -1.657277792692184448e-01
-1.759517565369606018e-02 4.973733797669410706e-02 7.840458750724792480e-01
7.472547888755798340e-02 1.430324912071228027e-01 -6.867647767066955566e-01
-2.341655641794204712e-01 1.389580070972442627e-01 -5.118338465690612793e-01
-2.315115742385387421e-02 2.321976423263549805e-02 6.906829029321670532e-02
-3.097599744796752930e-01 7.135170698165893555e-02 -3.014034926891326904e-01
-6.127774342894554138e-02 3.396556898951530457e-02 5.419481992721557617e-01
-3.624308854341506958e-02 1.585689187049865723e-01 3.409647047519683838e-01
3.674997091293334961e-01 9.415752440690994263e-02 -9.764739125967025757e-02
6.020550057291984558e-02 1.515593826770782471e-01 4.191391170024871826e-01
-3.724964559078216553e-01 1.186793744564056396e-01 6.778459995985031128e-02
-2.844188511371612549e-01 1.462676525115966797e-01 -1.428390890359878540e-01
-1.308875381946563721e-01 3.703493252396583557e-02 -3.107526004314422607e-01
2.841676399111747742e-02 3.991219773888587952e-02 -5.547493696212768555e-01
-2.518840432167053223e-01 4.544852674007415771e-02 2.049432992935180664e-01
-3.619646653532981873e-02 1.255017817020416260e-01 8.140586018562316895e-01
-2.130501121282577515e-01 4.085132852196693420e-02 -9.384879469871520996e-02
-2.590124011039733887e-01 4.841573536396026611e-02 3.067650496959686279e-01
1.546818166971206665e-01 1.543007940053939819e-01 -2.014048546552658081e-01
9.759186208248138428e-02 1.247600913047790527e-01 -8.362849354743957520e-01
-9.525056183338165283e-02 1.645883321762084961e-01 -1.346956491470336914e-01
2.540396153926849365e-01 1.340847313404083252e-01 -4.076427817344665527e-01
-8.363364264369010925e-03 3.246409818530082703e-02 5.416218042373657227e-01
-1.536127924919128418e-01 1.617741584777832031e-01 9.249380230903625488e-02
5.997652187943458557e-04 1.496540457010269165e-01 5.190995335578918457e-01
2.090030163526535034e-01 -3.191253840923309326e-01 -2.240031361579895020e-01
-2.193666398525238037e-01 -2.734232544898986816e-01 1.878073662519454956e-01
-9.371100366115570068e-02 -2.299434244632720947e-01 3.354390263557434082e-01
-5.564181506633758545e-02 -2.327935844659805298e-01 -4.310200512409210205e-01
