-4.638788476586341858e-02 -2.384344488382339478e-01 5.457060784101486206e-02
-4.993193596601486206e-02 -2.646658122539520264e-01 1.009215600788593292e-02
3.011907637119293213e-02 -2.871409952640533447e-01 -3.273703157901763916e-02
6.339174509048461914e-02 -2.807044386863708496e-01 1.484901644289493561e-03
-5.039096623659133911e-02 -2.253967970609664917e-01 5.796142667531967163e-02
1.038495898246765137e-01 -1.618950664997100830e-01 1.018216274678707123e-02
3.778889402747154236e-02 -2.702264785766601562e-01 -6.748404353857040405e-02
9.979886561632156372e-02 -2.080121934413909912e-01 5.904016643762588501e-02
2.622418478131294250e-02 -2.846376001834869385e-01 3.866583108901977539e-02
5.935773253440856934e-02 -1.696896106004714966e-01 -9.797602146863937378e-02
1.081984490156173706e-01 -1.730391830205917358e-01 4.882318899035453796e-03
5.959635227918624878e-02 -1.618622094392776489e-01 8.352445811033248901e-02
5.955054238438606262e-02 -2.062024772167205811e-01 -9.992579370737075806e-02
9.121066331863403320e-02 -2.577782571315765381e-01 1.969255506992340088e-02
-4.156740754842758179e-02 -1.094434633851051331e-01 -2.129430696368217468e-02
8.699297159910202026e-02 -2.558016180992126465e-01 -2.758098766207695007e-02
-2.860803902149200439e-02 -2.627528905868530273e-01 -7.853979617357254028e-02
1.122712492942810059e-01 -2.015442848205566406e-01 1.189706660807132721e-02
1.078705489635467529e-01 -2.134902626276016235e-01 3.710608184337615967e-02
-2.003296278417110443e-03 -2.329488694667816162e-01 8.960207551717758179e-02
-8.105010539293289185e-02 -1.714095175266265869e-01 9.654887020587921143e-03
-7.763394713401794434e-02 -2.013376802206039429e-01 -8.201242238283157349e-02
-8.356942236423492432e-02 -2.222066223621368408e-01 -1.453873794525861740e-02
3.400538861751556396e-02 -2.020729631185531616e-01 1.014438197016716003e-01
4.650696180760860443e-03 -2.350953221321105957e-01 -1.120181381702423096e-01
-8.000513911247253418e-02 -2.175363004207611084e-01 9.029684588313102722e-03
9.150651097297668457e-02 -1.919176876544952393e-01 -6.446322798728942871e-02
-6.430160254240036011e-02 -1.261861026287078857e-01 -4.070793092250823975e-02
6.880607455968856812e-02 -1.757456213235855103e-01 8.554045110940933228e-02
-2.758336439728736877e-02 -2.758843302726745605e-01 2.471323311328887939e-02
-7.620497047901153564e-02 -2.390639632940292358e-01 -1.994088478386402130e-02
5.619394779205322266e-02 -1.852141618728637695e-01 -1.036548614501953125e-01
2.050084248185157776e-02 -1.178342327475547791e-01 -8.278279006481170654e-02
-6.539883464574813843e-02 -1.833326816558837891e-01 4.487757384777069092e-02
7.002052664756774902e-02 -2.763492166996002197e-01 1.668648049235343933e-02
-1.210797671228647232e-02 -2.407597899436950684e-01 8.105508983135223389e-02
7.089911401271820068e-02 -2.259402573108673096e-01 8.614896982908248901e-02
1.084662824869155884e-01 -2.148033082485198975e-01 -1.769227907061576843e-02
4.474693909287452698e-02 -1.939823627471923828e-01 9.959197044372558594e-02
6.592392921447753906e-02 -2.291465699672698975e-01 -8.603123575448989868e-02
-3.062688186764717102e-02 -2.611581087112426758e-01 4.887920245528221130e-02
6.875476986169815063e-02 -1.633916199207305908e-01 -8.643846213817596436e-02
-3.323765844106674194e-02 -1.875368654727935791e-01 7.894840091466903687e-02
8.461254835128784180e-02 -2.262739241123199463e-01 7.461184263229370117e-02
9.120069444179534912e-05 -2.903473973274230957e-01 -1.401868555694818497e-02
-7.126470655202865601e-02 -1.708929091691970825e-01 3.112292289733886719e-02
8.943516016006469727e-02 -1.380812376737594604e-01 -2.408842556178569794e-03
3.176043182611465454e-02 -2.908360362052917480e-01 -4.472900182008743286e-04
-5.609253048896789551e-02 -1.548925787210464478e-01 -1.015003696084022522e-01
3.193101286888122559e-02 -1.041775867342948914e-01 -4.191708937287330627e-02
8.171381801366806030e-02 -2.604676485061645508e-01 4.344280436635017395e-02
9.833206981420516968e-02 -2.344520688056945801e-01 -3.267187625169754028e-02
1.085408106446266174e-01 -2.248101532459259033e-01 -2.469396218657493591e-03
8.416592329740524292e-02 -2.371057271957397461e-01 -5.866396799683570862e-02
-8.552064001560211182e-02 -1.780392527580261230e-01 -6.429889798164367676e-02
9.830038249492645264e-02 -2.421082258224487305e-01 -2.083382382988929749e-02
8.349110931158065796e-02 -1.783281862735748291e-01 -7.414405047893524170e-02
7.078304886817932129e-03 -2.783329784870147705e-01 4.953925311565399170e-02
-5.191697180271148682e-02 -2.579093277454376221e-01 -6.200760230422019958e-02
-6.450730562210083008e-02 -1.379786431789398193e-01 -7.502774894237518311e-02
9.211841039359569550e-03 -2.160667628049850464e-01 -1.204125881195068359e-01
4.102646186947822571e-02 -2.748237848281860352e-01 -5.737750977277755737e-02
7.188397645950317383e-02 -1.223927736282348633e-01 1.064443960785865784e-02
-5.930741317570209503e-03 -1.348101198673248291e-01 6.617679446935653687e-02
5.633169040083885193e-02 -2.481568604707717896e-01 -8.066055178642272949e-02
-3.986003249883651733e-02 -2.752192020416259766e-01 -2.716566994786262512e-02
1.005904674530029297e-01 -1.708156317472457886e-01 -3.689000755548477173e-02
2.838779613375663757e-02 -2.266909182071685791e-01 -1.110124289989471436e-01
9.186521172523498535e-02 -2.175684720277786255e-01 6.927163898944854736e-02
6.927649676799774170e-02 -2.732685804367065430e-01 -2.419386059045791626e-02
4.427305981516838074e-02 -2.338079512119293213e-01 -9.966105222702026367e-02
9.625317156314849854e-02 -1.883774101734161377e-01 -5.545970425009727478e-02
8.588708937168121338e-02 -1.381051391363143921e-01 2.415914461016654968e-02
2.233042567968368530e-02 -1.627658754587173462e-01 9.184177219867706299e-02
-3.506182879209518433e-02 -1.081478372216224670e-01 -6.421377416700124741e-03
4.899761825799942017e-02 -2.067219763994216919e-01 9.909382462501525879e-02
4.970332980155944824e-02 -2.272588610649108887e-01 9.507596492767333984e-02
-6.984452903270721436e-02 -1.318956762552261353e-01 -3.229418769478797913e-02
-4.467299208045005798e-02 -1.203581690788269043e-01 1.485782302916049957e-02
4.371603578329086304e-02 -2.735049128532409668e-01 5.800319463014602661e-02
1.092064529657363892e-01 -1.952408701181411743e-01 -2.026096731424331665e-02
8.610641211271286011e-02 -2.630708217620849609e-01 -6.200509611517190933e-03
-6.771698594093322754e-02 -1.693278700113296509e-01 -9.608441591262817383e-02
7.242774590849876404e-04 -1.467044055461883545e-01 7.858172059059143066e-02
-7.105883210897445679e-02 -2.453707456588745117e-01 -4.066049307584762573e-02
-8.387622237205505371e-02 -2.001564353704452515e-01 6.969155743718147278e-03
8.241158723831176758e-02 -1.225466579198837280e-01 1.538114100694656372e-01
8.775730431079864502e-02 -3.011912107467651367e-03 1.219403892755508423e-01
1.523194462060928345e-02 -6.050439924001693726e-02 1.689433902502059937e-01
-2.269189059734344482e-02 -8.499173074960708618e-02 -8.654156327247619629e-02
-2.739612013101577759e-02 -1.260080337524414062e-01 1.842277944087982178e-01
1.434295177459716797e-01 -6.497961282730102539e-02 -4.517588019371032715e-02
1.118715405464172363e-01 9.902782738208770752e-03 8.869177103042602539e-02
-5.690500885248184204e-02 -1.650294065475463867e-01 8.980630338191986084e-02
9.448841959238052368e-02 -1.808556541800498962e-02 2.587248682975769043e-01
1.397191435098648071e-01 -5.232008174061775208e-02 2.952576875686645508e-01
-3.036521375179290771e-03 -6.333656609058380127e-02 3.709598258137702942e-02
1.358284056186676025e-01 -8.543054014444351196e-02 4.957605153322219849e-02
8.572150766849517822e-02 -1.124573051929473877e-01 2.129497528076171875e-01
-2.070964872837066650e-02 -1.638273894786834717e-01 -1.503110826015472412e-01
7.612971961498260498e-02 -1.275195032358169556e-01 -3.074084967374801636e-02
6.903210282325744629e-02 -6.564769148826599121e-02 -1.933120191097259521e-01
2.966894954442977905e-02 -1.563732326030731201e-01 7.726690918207168579e-02
1.108715757727622986e-01 -1.852332428097724915e-02 2.897949814796447754e-01
2.384893223643302917e-02 -4.353748634457588196e-02 -2.345784753561019897e-02
1.848393082618713379e-01 2.153084427118301392e-02 2.131409943103790283e-01
4.323138296604156494e-02 -6.196789443492889404e-02 2.639260590076446533e-01
-1.472223550081253052e-02 -7.437276095151901245e-02 -4.237939417362213135e-02
2.573041245341300964e-02 -1.583423912525177002e-01 -3.160283714532852173e-02
1.008909791707992554e-01 -8.827998489141464233e-02 2.748074531555175781e-01
-4.709307104349136353e-02 -1.827857494354248047e-01 -4.558439552783966064e-02
7.409937679767608643e-03 -8.109094202518463135e-02 2.138331979513168335e-01
1.007819548249244690e-02 -1.547302156686782837e-01 -1.324482113122940063e-01
2.178053185343742371e-02 -1.313011050224304199e-01 2.322734892368316650e-01
8.092166483402252197e-02 -1.280755102634429932e-01 5.939646810293197632e-02
2.985426783561706543e-02 -3.876413032412528992e-02 -1.095265150070190430e-02
-5.163706839084625244e-02 -1.175242215394973755e-01 -1.083889901638031006e-01
1.608828753232955933e-01 1.194657385349273682e-02 2.544719576835632324e-01
1.731417775154113770e-01 2.226288616657257080e-02 4.546196013689041138e-02
1.247077137231826782e-01 -7.156930863857269287e-03 -8.640888333320617676e-02
1.281357407569885254e-01 -2.541011944413185120e-02 3.146438002586364746e-01
1.295999735593795776e-01 -8.142750710248947144e-02 2.235589176416397095e-01
-2.825877070426940918e-02 -1.767161786556243896e-01 5.777378752827644348e-02
4.058820754289627075e-02 -3.098974749445915222e-02 8.084829896688461304e-02
5.404949188232421875e-02 -1.440289914608001709e-01 3.063306212425231934e-03
5.603640526533126831e-02 -4.842402786016464233e-02 -1.615347862243652344e-01
2.019878476858139038e-02 -1.575283408164978027e-01 -7.789018750190734863e-02
8.356845378875732422e-02 -5.627759546041488647e-02 -1.807634085416793823e-01
7.508122920989990234e-02 -9.654854238033294678e-02 -1.702851951122283936e-01
1.947493851184844971e-02 -7.108189910650253296e-02 2.245554327964782715e-01
1.576533466577529907e-01 -5.669610947370529175e-02 -4.313603043556213379e-03
3.268758952617645264e-02 -3.607774898409843445e-02 9.449761360883712769e-03
9.833507239818572998e-02 3.358907997608184814e-03 6.207183748483657837e-02
9.911851584911346436e-02 -9.817412495613098145e-02 2.438965290784835815e-01
4.275080561637878418e-02 -4.674442857503890991e-02 2.190053910017013550e-01
1.381207704544067383e-01 3.004252910614013672e-03 2.640791237354278564e-01
1.985165774822235107e-01 -5.572944879531860352e-03 2.053280025720596313e-01
4.691106081008911133e-02 -2.621979638934135437e-02 2.838337235152721405e-02
-5.986972153186798096e-02 -1.734034717082977295e-01 -1.225671619176864624e-01
-6.519725173711776733e-02 -1.524746865034103394e-01 7.280565798282623291e-02
1.797470450401306152e-02 -1.082312315702438354e-01 -2.175948470830917358e-01
3.003212064504623413e-02 -1.545151621103286743e-01 -5.394161492586135864e-02
1.497549712657928467e-01 2.327454835176467896e-02 8.683335781097412109e-02
1.433995813131332397e-01 -2.454185113310813904e-02 3.132651448249816895e-01
1.753639280796051025e-01 1.324354112148284912e-02 2.518894076347351074e-01
7.963647693395614624e-02 -1.273990124464035034e-01 1.126069128513336182e-01
4.280236735939979553e-02 -4.283319786190986633e-02 -1.167179793119430542e-01
7.970141619443893433e-02 -5.171330645680427551e-02 3.065187335014343262e-01
-3.054226189851760864e-02 -8.811154961585998535e-02 -2.421947568655014038e-02
7.899004966020584106e-03 -1.503237485885620117e-01 -1.568116098642349243e-01
1.745776832103729248e-01 -2.970651537179946899e-02 -9.773544967174530029e-03
4.274331778287887573e-02 -1.494379937648773193e-01 -2.392395585775375366e-02
1.886762976646423340e-01 -3.000583127140998840e-02 1.134066581726074219e-01
6.084873899817466736e-02 -1.905214041471481323e-02 1.169393882155418396e-01
3.002211451530456543e-04 -1.693989634513854980e-01 5.746783688664436340e-02
1.673621982336044312e-01 -4.305067658424377441e-02 -6.651937961578369141e-03
-1.840545237064361572e-02 -1.569858491420745850e-01 1.601285785436630249e-01
1.032329201698303223e-01 1.637622714042663574e-03 -6.473314017057418823e-03
-4.183775931596755981e-02 -1.089588254690170288e-01 9.193792939186096191e-02
-2.130609750747680664e-02 -1.269049495458602905e-01 1.979794800281524658e-01
9.461884200572967529e-02 -8.590169250965118408e-03 2.151032388210296631e-01
-7.762305438518524170e-03 -9.308293461799621582e-02 1.946058422327041626e-01
-4.590766876935958862e-02 -1.198876500129699707e-01 -1.480322927236557007e-01
1.635278165340423584e-01 -5.257077515125274658e-02 2.179854065179824829e-01
1.003468781709671021e-01 -1.191936433315277100e-02 -8.719012141227722168e-02
8.778066933155059814e-02 -4.772923886775970459e-03 1.498635858297348022e-01
1.301138103008270264e-01 -7.616008073091506958e-02 -6.194934993982315063e-02
1.200124472379684448e-01 -7.819857448339462280e-02 -9.508000314235687256e-02
1.265248656272888184e-02 -1.657771468162536621e-01 2.046117931604385376e-02
5.607887730002403259e-02 -2.018212527036666870e-02 5.589046701788902283e-02
1.180899590253829956e-01 5.670554935932159424e-03 -1.794815063476562500e-02
-6.737455725669860840e-03 -1.221730560064315796e-01 2.241294085979461670e-01
1.295340657234191895e-01 -6.472291052341461182e-02 2.867088317871093750e-01
3.236819803714752197e-02 -1.097191572189331055e-01 -2.101732939481735229e-01
1.032988876104354858e-01 3.087572753429412842e-03 1.583642363548278809e-01
1.288644969463348389e-01 1.410119980573654175e-02 2.990336902439594269e-02
2.664573490619659424e-02 -1.464755684137344360e-01 -1.282545179128646851e-01
1.230517849326133728e-01 9.005144238471984863e-03 -3.430690616369247437e-03
1.505614221096038818e-01 -7.116611301898956299e-02 4.725757613778114319e-02
-1.192089170217514038e-02 -1.517115533351898193e-01 1.777773648500442505e-01
1.561960875988006592e-01 2.160023897886276245e-02 4.335318505764007568e-02
-1.745792478322982788e-02 -9.078019857406616211e-02 1.494797170162200928e-01
1.415582001209259033e-01 -4.263552650809288025e-02 3.071184158325195312e-01
1.585252135992050171e-01 6.600648164749145508e-03 -3.421387821435928345e-02
1.330783367156982422e-01 -8.604557067155838013e-02 2.200137451291084290e-02
9.629904478788375854e-02 -1.151885837316513062e-01 1.366266310214996338e-01
1.814448833465576172e-01 2.456622570753097534e-02 7.213354855775833130e-02
9.600929915904998779e-03 -5.459609627723693848e-02 -3.694921731948852539e-02
8.307494968175888062e-02 -8.265637606382369995e-02 -1.763763278722763062e-01
2.025226354598999023e-01 1.301221549510955811e-02 1.854303032159805298e-01
4.884086549282073975e-02 -3.102313354611396790e-02 -6.266652047634124756e-02
1.260553672909736633e-02 -8.624390512704849243e-02 2.381534874439239502e-01
-4.782859236001968384e-02 -1.831181049346923828e-01 -3.114014863967895508e-02
7.193720340728759766e-02 -1.179309040307998657e-01 2.223695069551467896e-01
9.869103133678436279e-02 -2.204652875661849976e-02 2.797401249408721924e-01
-4.390918463468551636e-02 -1.724776625633239746e-01 -1.332314461469650269e-01
-1.086339354515075684e-02 -1.037750095129013062e-01 2.054219394922256470e-01
1.118374168872833252e-01 -1.029961779713630676e-01 2.454020082950592041e-03
6.962069123983383179e-02 -1.207118481397628784e-02 4.764082655310630798e-02
-9.244322776794433594e-03 -8.742842078208923340e-02 -1.602870970964431763e-01
1.903263330459594727e-01 2.645168453454971313e-02 1.229630336165428162e-01
5.957676470279693604e-02 -2.890322729945182800e-02 1.974029690027236938e-01
1.297330111265182495e-02 -6.223074719309806824e-02 -1.217540651559829712e-01
6.566648930311203003e-02 -3.166515007615089417e-02 -1.176963001489639282e-01
-6.499186903238296509e-02 -1.338450908660888672e-01 -9.625573456287384033e-02
-4.773841053247451782e-02 -1.799749433994293213e-01 -8.822156488895416260e-02
3.938827663660049438e-02 -1.492547392845153809e-01 1.141930446028709412e-01
-3.316538035869598389e-02 -1.811344176530838013e-01 -2.145646512508392334e-02
1.564098000526428223e-01 -6.653940677642822266e-02 6.791487336158752441e-02
5.866381898522377014e-02 -1.419408023357391357e-01 3.228198736906051636e-02
1.951581835746765137e-01 -4.057697951793670654e-03 2.283389717340469360e-01
1.623373031616210938e-01 -1.478359848260879517e-02 -6.168004870414733887e-02
1.368219256401062012e-01 -8.574592322111129761e-02 1.027454137802124023e-01
-1.934069395065307617e-02 -7.843239605426788330e-02 4.539495334029197693e-02
1.707289665937423706e-01 -5.204770714044570923e-02 1.505347490310668945e-01
1.606347262859344482e-01 2.615355700254440308e-02 1.349915266036987305e-01
-5.051843822002410889e-02 -1.130866035819053650e-01 4.435969516634941101e-02
-7.656606286764144897e-02 -1.553097963333129883e-01 -8.122403174638748169e-03
-6.557183712720870972e-02 -1.714516729116439819e-01 4.726641252636909485e-02
1.152362525463104248e-01 -7.650628685951232910e-04 2.353667020797729492e-01
5.917958170175552368e-02 -6.188528239727020264e-02 2.920447587966918945e-01
1.868416517972946167e-01 2.549750357866287231e-02 1.817068904638290405e-01
-7.423502951860427856e-02 -1.692162454128265381e-01 1.081621274352073669e-02
6.199172511696815491e-02 -2.443120628595352173e-02 1.797065287828445435e-01
4.959506168961524963e-02 -4.569821059703826904e-02 -1.439392268657684326e-01
6.092964112758636475e-02 -2.308328077197074890e-02 1.633693575859069824e-01
-3.976853191852569580e-02 -9.736969321966171265e-02 -9.950801730155944824e-03
1.558790802955627441e-01 -1.585267856717109680e-02 3.040394186973571777e-01
1.529142856597900391e-01 1.673630625009536743e-02 8.547469973564147949e-03
9.165505319833755493e-02 -1.158500313758850098e-01 1.636047363281250000e-01
1.531476676464080811e-01 2.289815247058868408e-02 6.449895352125167847e-02
5.231842398643493652e-03 -1.649807393550872803e-01 9.303021430969238281e-02
1.359636187553405762e-01 -6.007304787635803223e-02 -8.948794007301330566e-02
-4.959665238857269287e-03 -8.017382770776748657e-02 -1.453519612550735474e-01
1.690330207347869873e-01 -4.930390417575836182e-02 3.662633895874023438e-02
1.619484275579452515e-01 2.588240057229995728e-02 1.528452038764953613e-01
1.284925937652587891e-01 -7.636085897684097290e-02 2.520176470279693604e-01
4.251919686794281006e-02 -7.319882512092590332e-02 2.795649468898773193e-01
1.451646536588668823e-02 -1.551520824432373047e-01 -1.174459457397460938e-01
-3.307294845581054688e-02 -1.083249151706695557e-01 1.375034153461456299e-01
-1.388869434595108032e-02 -1.728748083114624023e-01 6.807284057140350342e-02
9.601916372776031494e-02 1.696467399597167969e-03 4.234669357538223267e-02
1.309986412525177002e-01 1.769550144672393799e-02 9.671086072921752930e-02
1.801400184631347656e-01 -2.964287623763084412e-02 1.988012716174125671e-02
-7.087721675634384155e-02 -1.511978805065155029e-01 -1.137775331735610962e-01
1.884602010250091553e-01 -2.875027433037757874e-02 9.016656875610351562e-02
5.751197785139083862e-02 -1.194884255528450012e-01 2.413251847028732300e-01
-5.598001182079315186e-02 -1.161556839942932129e-01 -2.560070902109146118e-02
8.529193699359893799e-02 -3.184862434864044189e-03 7.535706460475921631e-02
4.489525407552719116e-02 -1.062571629881858826e-01 -2.017730027437210083e-01
7.510894536972045898e-02 -2.068307250738143921e-02 2.130596637725830078e-01
2.728395909070968628e-02 -6.219268217682838440e-02 -1.601174771785736084e-01
1.426102072000503540e-01 1.102695614099502563e-02 -1.879344880580902100e-02
1.215498596429824829e-01 -9.566111862659454346e-02 1.345723494887351990e-02
-4.180670529603958130e-02 -1.815472245216369629e-01 -5.992589145898818970e-02
-4.980541765689849854e-02 -1.101872622966766357e-01 2.382539771497249603e-02
1.921729743480682373e-02 -5.098589509725570679e-02 1.292269825935363770e-01
1.040420308709144592e-01 5.091965198516845703e-03 1.333153843879699707e-01
-3.850314766168594360e-02 -1.219002678990364075e-01 1.467019021511077881e-01
5.520031973719596863e-02 -7.837935537099838257e-02 -2.045981436967849731e-01
-4.826240241527557373e-02 -1.360366940498352051e-01 1.298125684261322021e-01
2.025680541992187500e-01 -2.683192491531372070e-03 1.706506013870239258e-01
1.707814931869506836e-01 -5.011704564094543457e-02 6.237609684467315674e-02
5.964142456650733948e-02 -1.413762122392654419e-01 5.256939679384231567e-02
8.454598486423492432e-03 -5.408224835991859436e-02 4.766782000660896301e-02
4.523627460002899170e-03 -6.089447811245918274e-02 -6.835877895355224609e-02
1.254322677850723267e-01 -7.486250251531600952e-02 2.661650776863098145e-01
8.228750526905059814e-02 -4.982046782970428467e-03 5.148999020457267761e-02
1.331760585308074951e-01 -8.663835376501083374e-02 1.568817794322967529e-01
-3.772807121276855469e-02 -9.548972547054290771e-02 8.468676358461380005e-03
2.256978303194046021e-02 -1.532417535781860352e-01 1.413859426975250244e-01
3.091048076748847961e-02 -4.772729799151420593e-02 -1.054881960153579712e-01
4.997653886675834656e-02 -2.464982867240905762e-02 1.408265158534049988e-02
2.219726517796516418e-02 -4.329384863376617432e-02 4.094443470239639282e-02
1.867741197347640991e-01 -3.275531530380249023e-02 1.497914493083953857e-01
-2.109175920486450195e-02 -9.766945242881774902e-02 -1.606848984956741333e-01
9.587016701698303223e-02 -1.114481911063194275e-01 1.788979321718215942e-01
3.904895484447479248e-02 -1.469867676496505737e-01 -7.733733952045440674e-02
1.626219972968101501e-02 -4.837519302964210510e-02 6.293091922998428345e-02
6.075754761695861816e-02 -1.403411924839019775e-01 1.528314501047134399e-02
1.551903411746025085e-02 -6.368587911128997803e-02 1.853439956903457642e-01
9.300982952117919922e-02 -1.148888468742370605e-01 -3.165987879037857056e-02
-6.819444149732589722e-02 -1.557239890098571777e-01 -1.309635788202285767e-01
1.091314256191253662e-01 -9.955590963363647461e-02 2.025583833456039429e-01
4.724732786417007446e-02 -1.144091337919235229e-01 -1.862097084522247314e-01
4.084508866071701050e-02 -5.476410686969757080e-02 -1.599263399839401245e-01
-2.117916941642761230e-02 -7.933949679136276245e-02 2.534753270447254181e-02
1.218721866607666016e-01 5.119726061820983887e-03 2.206342369318008423e-01
6.873825192451477051e-02 -1.427032053470611572e-02 1.088969409465789795e-03
1.750444769859313965e-01 -3.788017109036445618e-02 2.287875413894653320e-01
1.082494407892227173e-01 -1.082043275237083435e-01 4.153376445174217224e-02
1.462321281433105469e-01 1.911788433790206909e-02 1.883914023637771606e-01
-9.878352284431457520e-04 -6.766401976346969604e-02 -9.146943688392639160e-02
1.875829398632049561e-01 4.854947328567504883e-04 1.459534838795661926e-02
4.142864793539047241e-02 -4.233044385910034180e-02 1.938254386186599731e-01
1.831424236297607422e-01 2.796702831983566284e-02 1.391980946063995361e-01
6.198026984930038452e-02 -3.071463853120803833e-02 2.164708226919174194e-01
-4.363633692264556885e-03 -1.369110047817230225e-01 -2.038153260946273804e-01
1.487192809581756592e-01 1.727617532014846802e-02 2.108369916677474976e-01
1.661793142557144165e-02 -7.750391960144042969e-02 -1.852944940328598022e-01
1.267005130648612976e-02 -5.827110633254051208e-02 -9.606598317623138428e-02
1.948519051074981689e-01 1.965405046939849854e-02 8.100420236587524414e-02
1.240624114871025085e-01 -9.640114754438400269e-02 7.459762692451477051e-02
7.891936600208282471e-02 -1.224678009748458862e-02 -3.686412423849105835e-02
1.493919193744659424e-01 -4.513174667954444885e-02 -7.584260404109954834e-02
-1.759975403547286987e-02 -1.771565377712249756e-01 -1.189435273408889771e-02
5.939668044447898865e-02 -1.325246393680572510e-01 -8.719912171363830566e-02
1.910856664180755615e-01 -2.429543435573577881e-02 1.818569749593734741e-01
8.806073665618896484e-02 -2.146072685718536377e-03 1.040056422352790833e-01
1.325410902500152588e-01 1.745481789112091064e-02 6.501990556716918945e-02
1.562627553939819336e-01 -6.750344485044479370e-02 1.321802139282226562e-01
-4.620261490345001221e-03 -1.727980226278305054e-01 -1.609399914741516113e-04
-3.526570647954940796e-02 -9.724218398332595825e-02 -9.061254560947418213e-02
7.322544604539871216e-02 -1.033420115709304810e-02 9.484257549047470093e-02
1.156781986355781555e-01 -1.015717387199401855e-01 2.696502394974231720e-02
-4.023615270853042603e-02 -9.947733581066131592e-02 -6.084138900041580200e-02
1.767286956310272217e-01 -3.793829306960105896e-02 3.147532045841217041e-02
2.815221250057220459e-02 -1.585566103458404541e-01 1.706494763493537903e-02
1.605265960097312927e-02 -4.849755764007568359e-02 -1.030348986387252808e-02
-5.192761868238449097e-02 -1.815333068370819092e-01 1.651334762573242188e-02
3.394853323698043823e-03 -5.844366550445556641e-02 -1.938864588737487793e-02
3.029232844710350037e-02 -1.373185068368911743e-01 -1.576211601495742798e-01
8.186428248882293701e-02 -1.006954610347747803e-01 -1.457766443490982056e-01
7.265838235616683960e-02 -3.618665784597396851e-02 2.669785618782043457e-01
1.194967031478881836e-01 -1.485638320446014404e-03 -6.203290820121765137e-02
1.300858408212661743e-01 -5.221296101808547974e-02 -1.186266541481018066e-01
-3.342578560113906860e-02 -9.701047092676162720e-02 8.439610898494720459e-02
7.666470855474472046e-02 -1.840306445956230164e-02 -7.459470629692077637e-02
1.224376112222671509e-01 -9.744757413864135742e-02 1.118020713329315186e-01
-6.408267468214035034e-02 -1.399095207452774048e-01 -1.259756386280059814e-01
9.991902112960815430e-02 -6.003138795495033264e-02 -1.670599132776260376e-01
8.648747950792312622e-02 -1.685487478971481323e-02 -8.846613764762878418e-02
4.283557459712028503e-02 -3.613958880305290222e-02 1.623652875423431396e-01
7.836151123046875000e-02 -1.119759902358055115e-01 2.343859970569610596e-01
1.512583494186401367e-01 -6.079896166920661926e-02 -2.250075340270996094e-02
3.811365365982055664e-02 -3.395178541541099548e-02 -2.271285653114318848e-02
1.473259925842285156e-01 -3.962254524230957031e-02 -8.924625813961029053e-02
7.627364993095397949e-02 -1.198959499597549438e-01 2.004383802413940430e-01
-2.287757396697998047e-02 -1.762689948081970215e-01 -7.251714169979095459e-02
6.929364800453186035e-02 -1.618890836834907532e-02 1.510062217712402344e-01
7.852627336978912354e-02 -1.183024793863296509e-01 -8.804136514663696289e-02
2.034066319465637207e-01 2.960570156574249268e-03 1.114819422364234924e-01
1.007660850882530212e-02 -1.657993793487548828e-01 -3.536978363990783691e-02
6.442153453826904297e-02 -1.827991381287574768e-02 -2.225848287343978882e-02
5.615399777889251709e-02 -1.407653987407684326e-01 1.152636110782623291e-01
-1.485349237918853760e-02 -1.568911522626876831e-01 -1.683133393526077271e-01
-1.458009332418441772e-02 -1.760576516389846802e-01 1.200825721025466919e-02
6.872038543224334717e-02 -1.331190764904022217e-01 1.246650144457817078e-01
-4.314710944890975952e-02 -1.065798997879028320e-01 6.814049184322357178e-02
2.016729116439819336e-01 9.813681244850158691e-04 9.379227459430694580e-02
-3.503227233886718750e-02 -9.583234041929244995e-02 5.985112115740776062e-02
5.102708935737609863e-02 -2.484627068042755127e-02 -5.085553973913192749e-03
1.673959791660308838e-01 -5.592633783817291260e-02 9.216853976249694824e-02
2.283436432480812073e-02 -4.384374991059303284e-02 7.633250951766967773e-02
-7.820758968591690063e-02 -1.592613756656646729e-01 -3.019594401121139526e-02
8.501174300909042358e-02 -1.220628693699836731e-01 -1.987940818071365356e-02
1.804100573062896729e-01 -4.099762067198753357e-02 1.055756509304046631e-01
1.934416592121124268e-01 -2.317675948143005371e-02 1.400105506181716919e-01
-7.315116375684738159e-02 -1.633634567260742188e-01 2.844597958028316498e-02
9.395543485879898071e-03 -7.345991581678390503e-02 1.985047012567520142e-01
-2.616714686155319214e-02 -1.703012138605117798e-01 1.040149778127670288e-01
-7.219005376100540161e-02 -1.694841682910919189e-01 -1.029086709022521973e-01
1.772844493389129639e-01 -4.505936801433563232e-02 1.379256844520568848e-01
1.025450453162193298e-01 -3.277390077710151672e-02 3.069759607315063477e-01
1.667338311672210693e-01 -5.705405026674270630e-02 1.089111715555191040e-01
1.721609830856323242e-01 -2.181227505207061768e-02 -3.231438249349594116e-02
4.293448105454444885e-02 -5.378071218729019165e-02 2.434822618961334229e-01
1.927216053009033203e-01 1.716177165508270264e-02 6.186819821596145630e-02
1.761588752269744873e-01 2.737056463956832886e-02 1.000837758183479309e-01
-5.335467308759689331e-02 -1.783775389194488525e-01 4.386261850595474243e-02
2.402516826987266541e-02 -8.749239891767501831e-02 2.628608942031860352e-01
-1.214062422513961792e-02 -7.281034439802169800e-02 6.489129364490509033e-02
-5.585094541311264038e-02 -1.314114332199096680e-01 -1.415793448686599731e-01
1.834262013435363770e-01 -4.768371582031250000e-06 2.651976943016052246e-01
5.440369248390197754e-03 -7.274252921342849731e-02 1.805038303136825562e-01
-2.178564667701721191e-02 -8.832338452339172363e-02 1.139301806688308716e-01
2.644650638103485107e-03 -1.633894145488739014e-01 -1.012236475944519043e-01
1.790572404861450195e-01 2.427929639816284180e-02 1.985779255628585815e-01
-5.891038477420806885e-02 -1.255873888731002808e-01 4.568887874484062195e-02
1.024294346570968628e-01 -4.619878530502319336e-02 3.193182945251464844e-01
3.243524581193923950e-02 -1.208972781896591187e-01 2.534871399402618408e-01
3.374167904257774353e-02 -8.626066148281097412e-02 2.770116925239562988e-01
6.629094481468200684e-02 -1.274551600217819214e-01 1.862350553274154663e-01
3.433324769139289856e-02 -5.811215937137603760e-02 2.317717224359512329e-01
7.671229541301727295e-03 -5.437700450420379639e-02 9.061787277460098267e-03
-8.399106562137603760e-03 -6.758759915828704834e-02 1.709072291851043701e-02
-8.508026599884033203e-03 -7.384332269430160522e-02 1.102562397718429565e-01
1.204507648944854736e-01 -1.915654540061950684e-02 3.019121289253234863e-01
1.550169661641120911e-02 -1.638868451118469238e-01 5.002125352621078491e-02
-6.275560706853866577e-02 -1.455473750829696655e-01 -1.428619325160980225e-01
4.849668964743614197e-02 -1.319850236177444458e-01 -1.307405531406402588e-01
2.751852944493293762e-02 -1.515384465456008911e-01 -9.442073106765747070e-02
8.214714378118515015e-02 -1.188307553529739380e-01 -6.727019697427749634e-02
2.026514708995819092e-02 -1.283259391784667969e-01 -1.974110901355743408e-01
7.171170413494110107e-02 -1.340097635984420776e-01 4.671289026737213135e-02
-6.956518441438674927e-02 -1.362779438495635986e-01 -4.576841741800308228e-02
-2.711503952741622925e-02 -8.529721945524215698e-02 -3.819736838340759277e-02
-3.350427746772766113e-02 -9.755279868841171265e-02 -1.058930605649948120e-01
6.646956503391265869e-02 -5.551244691014289856e-02 -1.827069073915481567e-01
-5.084075033664703369e-03 -7.632665336132049561e-02 -1.266766041517257690e-01
3.416313976049423218e-02 -7.916952669620513916e-02 -2.043872624635696411e-01
3.050320968031883240e-02 -5.507189780473709106e-02 -1.406505405902862549e-01
2.045804560184478760e-01 3.273524343967437744e-03 1.401629149913787842e-01
-5.842638015747070312e-02 -1.217173039913177490e-01 2.243852987885475159e-02
-7.712975889444351196e-02 -1.537664532661437988e-01 -5.137038975954055786e-02
9.244976192712783813e-02 -1.189901828765869141e-01 1.539018377661705017e-02
1.410187780857086182e-01 -7.693666964769363403e-02 1.912509799003601074e-01
1.725476980209350586e-01 -3.184299916028976440e-02 2.603099048137664795e-01
6.627456098794937134e-02 -1.371803879737854004e-01 6.961441785097122192e-02
1.906085014343261719e-01 1.438637077808380127e-02 4.570125788450241089e-02
-1.605451107025146484e-04 -6.745081394910812378e-02 1.227480843663215637e-01
-7.259543985128402710e-02 -1.488274782896041870e-01 1.981016993522644043e-02
1.210638284683227539e-01 -9.644223749637603760e-02 1.527104079723358154e-01
1.422440707683563232e-01 -7.355296611785888672e-02 2.091780602931976318e-01
-7.788901776075363159e-02 -1.611953079700469971e-01 -6.761712580919265747e-02
-1.680974662303924561e-02 -8.525294810533523560e-02 1.277244687080383301e-01
-6.343058496713638306e-02 -1.277436763048171997e-01 -6.630692631006240845e-02
3.771560639142990112e-02 -1.532682329416275024e-01 -4.318468272686004639e-04
1.164425760507583618e-01 1.157555729150772095e-02 6.792095303535461426e-02
-2.349135279655456543e-02 -1.185374557971954346e-01 -1.993258446455001831e-01
-5.933773517608642578e-02 -1.816579103469848633e-01 6.689131259918212891e-04
1.308242380619049072e-01 -7.071325182914733887e-02 -7.880456745624542236e-02
1.589255928993225098e-01 -6.328996270895004272e-02 1.648592352867126465e-01
9.224584698677062988e-02 -1.180917322635650635e-01 -1.937530934810638428e-03
8.979202806949615479e-02 -9.325996041297912598e-03 -5.214000493288040161e-02
6.863705068826675415e-02 -1.315752267837524414e-01 1.432038247585296631e-01
1.643836796283721924e-01 -5.148167908191680908e-02 1.310964301228523254e-02
8.039639145135879517e-02 -3.557496517896652222e-02 2.810855507850646973e-01
-2.821361273527145386e-02 -1.799054890871047974e-01 1.496918499469757080e-03
3.287497907876968384e-02 -1.241716891527175903e-01 -1.889389157295227051e-01
-7.349235564470291138e-02 -1.765702366828918457e-01 -3.185680508613586426e-02
-2.165380120277404785e-02 -1.778842508792877197e-01 -3.745467960834503174e-02
-5.352317541837692261e-02 -1.495260894298553467e-01 1.168381646275520325e-01
1.193231716752052307e-02 -6.003793329000473022e-02 1.488245576620101929e-01
1.216250583529472351e-01 1.392791420221328735e-02 1.127228438854217529e-01
1.406776607036590576e-01 1.270018517971038818e-02 2.230166196823120117e-01
1.412909477949142456e-01 -1.883541420102119446e-02 -1.002144515514373779e-01
5.162108689546585083e-02 -1.394660025835037231e-01 1.522535085678100586e-01
5.014852806925773621e-02 -2.541887387633323669e-02 1.034262329339981079e-01
9.028661251068115234e-02 -1.214502602815628052e-01 8.911715447902679443e-02
1.059274375438690186e-01 -9.636409580707550049e-02 -8.059233427047729492e-02
2.012238800525665283e-01 1.655118912458419800e-02 1.064411401748657227e-01
-6.239842623472213745e-02 -1.789372563362121582e-01 -8.917269110679626465e-02
1.880642622709274292e-01 -2.663755789399147034e-02 1.977215111255645752e-01
1.556008160114288330e-01 -5.066295340657234192e-02 -3.938447684049606323e-02
5.198791623115539551e-02 -1.425625681877136230e-01 -4.265856742858886719e-02
2.025921940803527832e-01 1.799781620502471924e-02 1.374310106039047241e-01
1.684077978134155273e-01 -2.377745509147644043e-02 2.856421470642089844e-01
1.539787501096725464e-01 -4.422537982463836670e-02 -6.210912019014358521e-02
1.176995038986206055e-01 -9.141474962234497070e-02 -4.892478138208389282e-02
5.831689387559890747e-02 -3.193992748856544495e-02 -1.024869978427886963e-01
1.673657000064849854e-01 -3.849770128726959229e-02 -2.121734619140625000e-02
-4.914967715740203857e-02 -1.777683198451995850e-01 -1.061725467443466187e-01
1.871607601642608643e-01 -2.666244655847549438e-02 5.954006686806678772e-02
1.441389471292495728e-01 -7.618308812379837036e-02 1.726788282394409180e-01
5.464032292366027832e-04 -9.345987439155578613e-02 2.198030352592468262e-01
3.737194836139678955e-02 -1.448152959346771240e-01 1.599941849708557129e-01
-5.373064428567886353e-02 -1.223520487546920776e-01 7.184086740016937256e-02
6.709225475788116455e-02 -9.989339113235473633e-02 2.832219302654266357e-01
7.021192461252212524e-02 -8.573317527770996094e-02 -1.915643960237503052e-01
7.948420196771621704e-02 -3.977054730057716370e-02 -1.578462421894073486e-01
7.989092171192169189e-02 -1.413697749376296997e-02 1.919553279876708984e-01
-7.766402512788772583e-02 -1.699250042438507080e-01 -4.798379540443420410e-02
-3.881751000881195068e-02 -1.269383579492568970e-01 -1.832688450813293457e-01
1.085206046700477600e-01 -8.979402482509613037e-02 -9.740002453327178955e-02
1.277199983596801758e-01 -8.436934649944305420e-02 -3.334490209817886353e-02
1.276336908340454102e-01 -9.218045324087142944e-02 1.398567855358123779e-01
1.205874830484390259e-01 1.236307621002197266e-02 1.444245874881744385e-01
1.618618667125701904e-01 -3.856931254267692566e-02 2.761755585670471191e-01
1.610001176595687866e-01 -4.735940694808959961e-01 7.733177859336137772e-03
1.882120966911315918e-01 -5.309332013130187988e-01 -2.885049581527709961e-02
2.268261015415191650e-01 -7.363581657409667969e-01 -1.306362170726060867e-02
2.936880290508270264e-01 -8.019757866859436035e-01 -1.139885094016790390e-02
1.897212713956832886e-01 -6.649588346481323242e-01 1.399170793592929840e-02
2.486903667449951172e-01 -7.465013861656188965e-01 4.716079309582710266e-02
2.519939541816711426e-01 -7.000142335891723633e-01 5.371022224426269531e-02
2.204248905181884766e-01 -6.750722527503967285e-01 -3.105310350656509399e-02
2.216893285512924194e-01 -6.624807715415954590e-01 -3.407936543226242065e-02
1.635107994079589844e-01 -5.138345956802368164e-01 2.618880942463874817e-02
2.756686508655548096e-01 -6.214528083801269531e-01 -3.240705467760562897e-03
2.284919023513793945e-01 -5.933710336685180664e-01 5.089969187974929810e-02
2.577964365482330322e-01 -6.510289907455444336e-01 4.898140206933021545e-02
2.264821231365203857e-01 -5.540570020675659180e-01 4.211120307445526123e-02
2.777042388916015625e-01 -8.082733154296875000e-01 3.263746574521064758e-02
2.635299563407897949e-01 -8.097702264785766602e-01 1.999963540583848953e-03
2.327415198087692261e-01 -7.641990184783935547e-01 2.226372435688972473e-02
1.965902894735336304e-01 -6.510161161422729492e-01 -1.893974840641021729e-02
2.174230366945266724e-01 -6.463845372200012207e-01 5.354980751872062683e-02
2.153603136539459229e-01 -7.152389287948608398e-01 3.463348373770713806e-02
2.096107304096221924e-01 -4.833529293537139893e-01 -2.719503827393054962e-03
1.943493932485580444e-01 -5.984240770339965820e-01 -2.985322475433349609e-02
2.174077481031417847e-01 -6.881969571113586426e-01 -2.558889985084533691e-02
1.664354205131530762e-01 -5.737382173538208008e-01 8.317767642438411713e-04
2.874102890491485596e-01 -7.907102108001708984e-01 3.733699768781661987e-02
2.874442338943481445e-01 -6.608661413192749023e-01 -3.766991198062896729e-03
2.080783098936080933e-01 -6.150860786437988281e-01 -3.483139723539352417e-02
2.688979506492614746e-01 -6.086198091506958008e-01 2.112418413162231445e-02
2.317530959844589233e-01 -5.812667012214660645e-01 -3.484900295734405518e-02
2.831976115703582764e-01 -6.782875061035156250e-01 3.408448770642280579e-02
1.887056380510330200e-01 -6.550129652023315430e-01 -2.570871263742446899e-03
2.355092018842697144e-01 -5.884307622909545898e-01 -3.485728800296783447e-02
2.278392612934112549e-01 -6.929770708084106445e-01 -3.065856918692588806e-02
1.667795181274414062e-01 -5.641167163848876953e-01 -5.941072478890419006e-03
2.484035342931747437e-01 -7.323164343833923340e-01 -2.923313528299331665e-02
2.533064782619476318e-01 -7.933124303817749023e-01 -2.840729430317878723e-03
2.189721763134002686e-01 -5.494841933250427246e-01 4.415142536163330078e-02
2.637405097484588623e-01 -6.357671022415161133e-01 4.155474528670310974e-02
1.776215136051177979e-01 -6.241381168365478516e-01 1.656586490571498871e-02
1.751310825347900391e-01 -5.229935646057128906e-01 -2.196111530065536499e-02
1.617684066295623779e-01 -4.882837533950805664e-01 1.976326107978820801e-02
2.308894991874694824e-01 -5.466884970664978027e-01 3.630444407463073730e-02
2.913539409637451172e-01 -7.334443926811218262e-01 3.699594363570213318e-02
2.701993882656097412e-01 -6.054505705833435059e-01 1.261381432414054871e-02
2.518003582954406738e-01 -6.976892352104187012e-01 -3.566264361143112183e-02
2.592056989669799805e-01 -6.012020111083984375e-01 3.311664238572120667e-02
2.960883975028991699e-01 -7.502291202545166016e-01 3.380274027585983276e-02
1.960262060165405273e-01 -6.161515712738037109e-01 -2.814342826604843140e-02
2.510265111923217773e-01 -5.948952436447143555e-01 3.912122175097465515e-02
2.511116266250610352e-01 -5.984532237052917480e-01 -2.901391312479972839e-02
2.353956997394561768e-01 -6.066766381263732910e-01 -3.729601949453353882e-02
2.418367117643356323e-01 -6.869119405746459961e-01 -3.603992611169815063e-02
2.567310333251953125e-01 -7.589187622070312500e-01 4.610569775104522705e-02
2.521995306015014648e-01 -7.671027183532714844e-01 4.206497967243194580e-02
2.189485132694244385e-01 -7.365294694900512695e-01 2.216616272926330566e-02
1.618131101131439209e-01 -4.916596710681915283e-01 -6.101921200752258301e-03
2.435310631990432739e-01 -7.643883824348449707e-01 -1.414080243557691574e-02
2.887073457241058350e-01 -7.161891460418701172e-01 3.713255003094673157e-02
3.011415004730224609e-01 -8.080020546913146973e-01 2.375238575041294098e-02
1.613039970397949219e-01 -5.465431809425354004e-01 3.562375437468290329e-03
1.972544342279434204e-01 -5.651620030403137207e-01 -3.321030363440513611e-02
1.658571064472198486e-01 -5.363461971282958984e-01 -1.170955877751111984e-02
1.697688102722167969e-01 -5.129565000534057617e-01 3.257646411657333374e-02
2.977079153060913086e-01 -7.089296579360961914e-01 2.017903514206409454e-02
2.226510643959045410e-01 -5.206903219223022461e-01 2.984979376196861267e-02
2.802768945693969727e-01 -6.343286633491516113e-01 -3.916341811418533325e-04
2.784164249897003174e-01 -6.305068731307983398e-01 1.442564651370048523e-02
2.398939728736877441e-01 -6.703319549560546875e-01 5.514539033174514771e-02
2.095183432102203369e-01 -5.984615683555603027e-01 5.264879390597343445e-02
1.810686588287353516e-01 -6.318417787551879883e-01 -8.577648550271987915e-04
2.254979908466339111e-01 -5.123897194862365723e-01 -1.093272212892770767e-02
1.901810318231582642e-01 -4.753386974334716797e-01 2.409113198518753052e-02
2.524136304855346680e-01 -7.453982234001159668e-01 -2.699967101216316223e-02
2.898508608341217041e-01 -8.159869909286499023e-01 2.802534401416778564e-02
1.948110610246658325e-01 -6.759908795356750488e-01 9.268582798540592194e-04
2.045902609825134277e-01 -6.299061775207519531e-01 5.033591017127037048e-02
2.551048398017883301e-01 -7.262297272682189941e-01 5.170249193906784058e-02
2.137849330902099609e-01 -4.988216757774353027e-01 2.356660366058349609e-02
1.818410009145736694e-01 -4.690799117088317871e-01 -1.134069357067346573e-02
2.495806217193603516e-01 -7.521334290504455566e-01 -2.374169975519180298e-02
2.476560026407241821e-01 -6.321257352828979492e-01 -3.660882264375686646e-02
2.846972346305847168e-01 -6.612246036529541016e-01 2.381124347448348999e-02
2.260681092739105225e-01 -6.430643796920776367e-01 5.509404093027114868e-02
1.632657051086425781e-01 -4.768556654453277588e-01 1.744927093386650085e-02
2.056793868541717529e-01 -7.069848179817199707e-01 1.942878589034080505e-02
2.371675968170166016e-01 -7.708251476287841797e-01 2.435488253831863403e-02
1.757860332727432251e-01 -6.147961616516113281e-01 1.430887728929519653e-03
2.813090384006500244e-01 -8.165447711944580078e-01 -5.481578409671783447e-03
1.944050490856170654e-01 -5.849533081054687500e-01 4.852572456002235413e-02
1.933347582817077637e-01 -5.981659293174743652e-01 4.750706627964973450e-02
2.894747257232666016e-01 -6.909255385398864746e-01 -1.624652743339538574e-02
2.698756456375122070e-01 -6.439958214759826660e-01 -2.602634578943252563e-02
2.132937759160995483e-01 -5.769020915031433105e-01 5.094937607645988464e-02
2.823839783668518066e-01 -6.780371665954589844e-01 -2.193813025951385498e-02
2.210513353347778320e-01 -7.268276214599609375e-01 -1.152715738862752914e-02
2.410494536161422729e-01 -5.346400737762451172e-01 7.107472978532314301e-03
2.359884977340698242e-01 -7.325668334960937500e-01 4.571050405502319336e-02
1.891633570194244385e-01 -5.740565657615661621e-01 -2.928563952445983887e-02
2.820188105106353760e-01 -8.001375198364257812e-01 3.609312325716018677e-02
3.032415509223937988e-01 -7.275448441505432129e-01 3.486171830445528030e-03
2.640045285224914551e-01 -5.948722958564758301e-01 -1.100133638828992844e-02
2.819876670837402344e-01 -8.240820169448852539e-01 2.183997631072998047e-02
2.689700126647949219e-01 -6.319053173065185547e-01 3.482272103428840637e-02
2.842656075954437256e-01 -6.500636339187622070e-01 1.537873037159442902e-02
2.483843863010406494e-01 -7.163056135177612305e-01 5.254435539245605469e-02
1.814904510974884033e-01 -5.797713994979858398e-01 -2.285272255539894104e-02
1.684874892234802246e-01 -5.705382823944091797e-01 2.652959898114204407e-02
2.174796909093856812e-01 -5.541838407516479492e-01 -3.361473977565765381e-02
1.686054021120071411e-01 -4.659709930419921875e-01 1.638431474566459656e-02
1.981846541166305542e-01 -6.643157005310058594e-01 -1.514476817101240158e-02
2.709223330020904541e-01 -6.574478149414062500e-01 4.122172668576240540e-02
2.869939804077148438e-01 -8.295506238937377930e-01 1.067340373992919922e-02
2.644846439361572266e-01 -5.999655723571777344e-01 2.390561997890472412e-02
3.022841513156890869e-01 -7.336679697036743164e-01 -5.189501680433750153e-03
2.496232390403747559e-01 -7.159019708633422852e-01 -3.299988061189651489e-02
2.460698932409286499e-01 -5.820429921150207520e-01 3.853740915656089783e-02
-1.254827678203582764e-01 -7.154858857393264771e-02 3.787047415971755981e-02
-1.320647746324539185e-01 1.017908938229084015e-02 -8.065357059240341187e-02
-5.759740620851516724e-02 -8.089947700500488281e-02 -3.668335825204849243e-02
1.508065909147262573e-01 -3.762939013540744781e-03 -3.761377930641174316e-02
1.518915146589279175e-01 1.338578201830387115e-02 -2.850157395005226135e-02
-1.427602320909500122e-01 -5.041508004069328308e-02 1.159107983112335205e-01
-1.453627347946166992e-01 -5.203064903616905212e-02 -6.933909654617309570e-02
-1.266012191772460938e-01 -3.432380780577659607e-02 -1.116304546594619751e-01
-8.886410295963287354e-02 5.608259141445159912e-02 8.363888412714004517e-02
-1.269919425249099731e-01 -4.875813424587249756e-02 1.266502290964126587e-01
-1.275186091661453247e-01 4.368173703551292419e-02 1.854692585766315460e-02
1.070883721113204956e-01 -1.334625482559204102e-02 -1.953464597463607788e-01
2.244528010487556458e-02 -7.337044924497604370e-02 -3.509473055601119995e-02
-8.157296478748321533e-02 5.356506630778312683e-02 1.085586771368980408e-01
1.313496232032775879e-01 2.280446514487266541e-02 1.825670339167118073e-02
5.206016078591346741e-02 -6.748226284980773926e-02 -1.032994985580444336e-01
1.227419078350067139e-01 3.858549892902374268e-02 -1.352190375328063965e-01
-1.278458721935749054e-02 3.515322878956794739e-02 1.481554508209228516e-01
-1.222364157438278198e-01 4.715114459395408630e-02 3.296514600515365601e-02
7.752910256385803223e-02 6.465274840593338013e-02 -3.933387994766235352e-02
-3.540735691785812378e-03 3.701384738087654114e-02 -1.472762376070022583e-01
-1.327895820140838623e-01 -2.330806339159607887e-03 -9.515391290187835693e-02
-1.368198841810226440e-01 -3.919133916497230530e-02 1.415271162986755371e-01
-7.842373847961425781e-02 6.032250821590423584e-02 5.274585634469985962e-02
1.268062144517898560e-01 4.977627471089363098e-02 -5.399558693170547485e-02
1.417676955461502075e-01 2.087675966322422028e-04 -7.326226681470870972e-03
6.622847914695739746e-02 1.930410973727703094e-03 -2.051629424095153809e-01
-1.548483371734619141e-01 -5.117006227374076843e-02 -5.464288592338562012e-02
4.677746817469596863e-02 -2.558079361915588379e-02 9.669511765241622925e-02
-1.745809242129325867e-02 -6.872852891683578491e-02 4.492789506912231445e-02
-8.106178045272827148e-02 -7.885503023862838745e-02 6.344802677631378174e-03
-1.580791622400283813e-01 1.806152798235416412e-02 1.378838121891021729e-01
-1.354755312204360962e-01 1.640959084033966064e-02 -6.483232975006103516e-02
-1.436125189065933228e-01 -5.609298124909400940e-03 1.664427816867828369e-01
1.088388264179229736e-01 5.699533969163894653e-02 -4.619865119457244873e-02
4.408895596861839294e-02 -6.135741993784904480e-02 9.564928710460662842e-03
9.043550491333007812e-02 -2.990786731243133545e-02 3.892435878515243530e-02
9.562015533447265625e-03 2.269591577351093292e-02 1.463747322559356689e-01
-5.067482218146324158e-02 -4.706573113799095154e-02 -1.657903343439102173e-01
-3.596725314855575562e-02 -7.690880447626113892e-02 -9.616890549659729004e-02
-1.783476769924163818e-01 -2.048448659479618073e-04 -1.263077557086944580e-02
-3.019905090332031250e-02 -3.560611512511968613e-03 1.649500280618667603e-01
