-2.596257328987121582e-01 -1.388796418905258179e-01 3.490124344825744629e-01
-3.563807606697082520e-01 -1.480642706155776978e-02 -4.049623757600784302e-02
-9.617120027542114258e-03 -1.024591177701950073e-02 2.492001056671142578e-01
3.342865407466888428e-02 -7.797092944383621216e-02 3.382397815585136414e-02
-1.878592222929000854e-01 -2.474956214427947998e-03 -2.037873119115829468e-01
-3.771578073501586914e-01 -7.772640883922576904e-02 1.937535852193832397e-01
-8.615419268608093262e-02 -7.872819900512695312e-02 -2.938940525054931641e-01
-3.492067456245422363e-01 -2.175919711589813232e-03 1.680395901203155518e-01
-2.124208211898803711e-02 -8.184041082859039307e-02 -1.903908997774124146e-01
-1.855820417404174805e-02 -1.605914533138275146e-01 2.025714665651321411e-01
-4.355093836784362793e-02 -8.268152922391891479e-02 4.280996918678283691e-01
-2.026084214448928833e-01 -7.175179570913314819e-02 -3.508239388465881348e-01
-1.675412952899932861e-01 -1.207790374755859375e-01 4.441413879394531250e-01
-1.907245963811874390e-01 8.971229195594787598e-03 -1.620456725358963013e-01
-3.664934337139129639e-01 -1.281155198812484741e-01 1.241426318883895874e-01
-2.238306403160095215e-01 4.246156662702560425e-02 2.496182024478912354e-01
-1.379177421331405640e-01 -2.119583785533905029e-01 3.998581320047378540e-02
-3.128497600555419922e-01 2.182308584451675415e-02 8.451277017593383789e-02
-3.861539065837860107e-01 -6.349010765552520752e-02 -7.391552627086639404e-02
-3.963834047317504883e-02 1.082406938076019287e-02 9.945194423198699951e-02
-1.651062667369842529e-01 -1.111188530921936035e-02 -2.243036478757858276e-01
-3.195446729660034180e-01 -6.885540485382080078e-02 3.653516173362731934e-01
-2.009541243314743042e-01 -1.858145296573638916e-01 2.374966293573379517e-01
-3.664178550243377686e-01 -1.160404011607170105e-01 1.694874465465545654e-01
-2.843064963817596436e-01 1.194601505994796753e-02 -9.576623141765594482e-02
-2.603466510772705078e-01 -1.967582702636718750e-01 -1.718111634254455566e-01
-1.834502220153808594e-01 -2.140835225582122803e-01 -9.051653742790222168e-02
-1.860485374927520752e-01 -2.026587873697280884e-01 1.441685110330581665e-01
3.739073872566223145e-03 -1.874197274446487427e-02 1.128831803798675537e-01
-3.902440071105957031e-01 -9.043470025062561035e-02 -6.612086296081542969e-02
-8.069284260272979736e-02 -4.576459899544715881e-02 4.734058976173400879e-01
-3.121078014373779297e-03 -1.567645072937011719e-01 1.608119308948516846e-01
-2.709153294563293457e-01 3.178784251213073730e-02 2.530695199966430664e-01
-2.933538556098937988e-01 -1.616212129592895508e-01 2.227726578712463379e-01
-2.206587940454483032e-01 -2.052947580814361572e-01 -1.711551994085311890e-01
-3.093890249729156494e-01 1.783698052167892456e-02 4.578392952680587769e-03
-1.639308333396911621e-01 -5.314008891582489014e-02 -3.182647228240966797e-01
-2.284361422061920166e-01 -2.093343436717987061e-01 -9.745153784751892090e-02
-3.505519628524780273e-01 -6.461091339588165283e-03 -1.292970776557922363e-02
-1.125503405928611755e-01 -1.989964544773101807e-01 -1.849621087312698364e-01
-2.383862435817718506e-02 4.530698060989379883e-04 8.387436717748641968e-02
-3.670896887779235840e-01 -5.126343667507171631e-02 2.372249960899353027e-01
-3.569530546665191650e-01 -1.534189283847808838e-01 -3.354420512914657593e-02
-2.714189291000366211e-01 -3.618809208273887634e-02 4.373074769973754883e-01
-3.130335807800292969e-01 -1.109312474727630615e-02 -1.510488390922546387e-01
2.522684633731842041e-02 -1.195185482501983643e-01 1.890041828155517578e-01
-3.081305325031280518e-01 -2.179696783423423767e-02 3.684688806533813477e-01
-1.695231944322586060e-01 -2.024410814046859741e-01 -2.127799242734909058e-01
-7.673557102680206299e-02 2.430100739002227783e-02 2.867738306522369385e-01
-4.078727960586547852e-02 -1.214238032698631287e-01 3.739804029464721680e-01
-3.859450221061706543e-01 -1.124131903052330017e-01 4.558931663632392883e-02
-2.489391267299652100e-01 4.030549526214599609e-02 2.172828018665313721e-01
-2.093568146228790283e-01 -1.983994543552398682e-01 1.572215259075164795e-01
-2.412450760602951050e-01 1.338194310665130615e-02 3.937195539474487305e-01
1.005573570728302002e-02 -1.265188157558441162e-01 2.428008913993835449e-01
-3.668199181556701660e-01 -1.024308353662490845e-01 2.023759186267852783e-01
-3.569384217262268066e-01 -7.896587252616882324e-03 2.113474905490875244e-02
3.259505331516265869e-02 -9.359668195247650146e-02 6.919279694557189941e-03
-3.213368952274322510e-01 -1.662405431270599365e-01 1.206071525812149048e-01
-1.432979702949523926e-01 -2.111007571220397949e-01 -1.236339360475540161e-01
-1.497606933116912842e-02 -3.159217536449432373e-03 1.177643388509750366e-01
-3.362014293670654297e-01 -4.625257849693298340e-02 -2.091188877820968628e-01
-3.869814872741699219e-01 -4.391054064035415649e-02 7.209349423646926880e-02
-2.954894006252288818e-01 2.952169626951217651e-02 1.364128589630126953e-01
-1.812197566032409668e-01 -2.539193257689476013e-02 -2.680686712265014648e-01
-2.266645431518554688e-01 3.516840189695358276e-02 3.129868805408477783e-01
-3.428104519844055176e-01 -1.004768162965774536e-02 2.486514747142791748e-01
-4.354572296142578125e-02 -1.846011430025100708e-01 1.201276332139968872e-01
-3.909446597099304199e-01 -6.972594559192657471e-02 -4.674401134252548218e-02
-4.874856770038604736e-02 -1.508184522390365601e-02 3.979198932647705078e-01
-3.849477767944335938e-01 -1.159254312515258789e-01 -4.648722708225250244e-02
-3.138728141784667969e-01 -1.027996093034744263e-02 3.361364006996154785e-01
-2.761053442955017090e-01 -1.853124499320983887e-01 1.340307593345642090e-01
1.087588071823120117e-02 -1.363804340362548828e-01 2.026398479938507080e-01
-3.851042389869689941e-01 -4.572972655296325684e-02 -1.849176734685897827e-02
-3.435221016407012939e-01 -4.443379864096641541e-02 3.101098239421844482e-01
-1.880871057510375977e-01 -1.172707304358482361e-01 -3.745080232620239258e-01
-4.996702075004577637e-02 -5.146503821015357971e-02 4.420745372772216797e-01
-1.258350461721420288e-01 4.119434207677841187e-02 1.290753483772277832e-01
-3.366035819053649902e-01 -1.214194893836975098e-01 -2.576221227645874023e-01
-3.675206303596496582e-01 -1.341721713542938232e-01 8.524887263774871826e-02
-2.594874799251556396e-01 3.022008389234542847e-02 2.939894795417785645e-01
-3.158437609672546387e-01 1.365564763545989990e-03 -9.030298888683319092e-02
-1.093342006206512451e-01 -5.212206020951271057e-02 -2.813832759857177734e-01
-3.310503065586090088e-02 -1.354225575923919678e-01 3.297246694564819336e-01
-2.412722855806350708e-01 9.168989956378936768e-03 -1.515125632286071777e-01
-1.877419203519821167e-01 -4.671006277203559875e-02 -3.137919902801513672e-01
9.973794221878051758e-04 -4.860300198197364807e-02 -6.695121526718139648e-02
-2.699129283428192139e-02 -4.840934276580810547e-02 -1.484305411577224731e-01
-2.100822478532791138e-01 -1.819636821746826172e-01 -2.943540215492248535e-01
-1.744014024734497070e-01 2.641532570123672485e-02 -7.354901731014251709e-02
-3.539313673973083496e-01 -1.038524359464645386e-01 -2.260389477014541626e-01
-2.376738041639328003e-01 -1.335154473781585693e-02 -2.325343042612075806e-01
-3.099569082260131836e-01 -1.443411409854888916e-01 2.522441148757934570e-01
-2.927507758140563965e-01 2.106419950723648071e-02 2.704594135284423828e-01
-5.499348789453506470e-02 -1.857557743787765503e-01 1.502111107110977173e-01
-1.637468487024307251e-01 4.439149051904678345e-02 9.371050447225570679e-02
-2.526009976863861084e-01 -1.134675741195678711e-02 4.345307946205139160e-01
-2.513945698738098145e-01 -9.028917551040649414e-02 4.419790506362915039e-01
-2.348060309886932373e-01 -1.404176652431488037e-01 3.702453374862670898e-01
-2.098577916622161865e-01 -2.112214267253875732e-01 -1.129726767539978027e-01
-1.526401937007904053e-01 -2.078400850296020508e-01 1.053199917078018188e-01
-3.819558024406433105e-01 -1.090378761291503906e-01 -1.069081276655197144e-01
-1.342998296022415161e-01 2.657461166381835938e-02 3.713898062705993652e-01
1.771780848503112793e-02 -1.411152780055999756e-01 1.275019645690917969e-01
-3.061338663101196289e-01 -5.396518483757972717e-02 3.925244212150573730e-01
-2.189768403768539429e-01 -2.115732431411743164e-01 -6.652005016803741455e-02
-2.072291821241378784e-01 2.664312720298767090e-02 -7.685683667659759521e-02
-2.122055739164352417e-01 -1.801449060440063477e-02 4.740079641342163086e-01
-1.200648248195648193e-01 -2.068352103233337402e-01 -1.359871774911880493e-01
-9.686841815710067749e-02 3.518778085708618164e-02 1.453659385442733765e-01
-3.308249711990356445e-01 1.316905766725540161e-02 9.712654352188110352e-02
-2.837877869606018066e-01 -1.703140139579772949e-01 2.033869028091430664e-01
-2.741970419883728027e-01 -1.953226178884506226e-01 4.703269898891448975e-02
-2.089005708694458008e-02 -1.663187593221664429e-01 1.769749373197555542e-01
-2.484558522701263428e-01 -1.795444041490554810e-01 -2.776724696159362793e-01
-2.917037010192871094e-01 -1.837680339813232422e-01 -1.839476972818374634e-01
-2.646704912185668945e-01 -1.387141644954681396e-03 4.032391905784606934e-01
-1.144606620073318481e-01 2.869872003793716431e-02 3.389706611633300781e-01
-3.584164083003997803e-01 -8.009384572505950928e-02 -2.079477757215499878e-01
-2.793844640254974365e-01 -1.746342182159423828e-01 -2.548050880432128906e-01
-2.227912992238998413e-01 2.502930909395217896e-02 3.702305555343627930e-01
-1.397636681795120239e-01 -1.699328124523162842e-01 -3.112815022468566895e-01
-2.854433655738830566e-01 -1.364216208457946777e-01 3.205068111419677734e-01
-4.698379337787628174e-02 -8.095875382423400879e-03 -6.414355337619781494e-02
-2.702232003211975098e-01 -4.271320998668670654e-03 -1.826422363519668579e-01
-6.362620741128921509e-02 1.645608991384506226e-02 3.765752539038658142e-02
-1.032261773943901062e-01 -2.010489404201507568e-01 -1.543681621551513672e-01
-1.304927319288253784e-01 2.986627817153930664e-02 -1.356178522109985352e-02
-3.824539780616760254e-01 -1.046508401632308960e-01 1.163051724433898926e-01
-2.133010774850845337e-01 4.102566838264465332e-02 3.817789256572723389e-02
2.560272812843322754e-03 -1.178572624921798706e-01 -1.365215331315994263e-01
-2.101099640130996704e-01 -3.215064480900764465e-02 -2.861937880516052246e-01
2.727218270301818848e-01 -4.733252525329589844e-01 -9.921684861183166504e-02
2.969253063201904297e-01 -6.353090405464172363e-01 -1.427140384912490845e-01
-3.777848929166793823e-02 -7.389081716537475586e-01 -3.430306166410446167e-02
2.343604564666748047e-01 -5.185173749923706055e-01 -2.207392901182174683e-01
2.048535645008087158e-01 -4.194400012493133545e-01 1.909269019961357117e-02
-1.682747602462768555e-01 -6.900023221969604492e-01 -7.945087552070617676e-02
2.343787550926208496e-01 -4.474708437919616699e-01 1.714799255132675171e-01
2.872317135334014893e-01 -4.553733766078948975e-01 6.680148839950561523e-02
3.101965487003326416e-01 -4.716009199619293213e-01 5.736288800835609436e-02
2.490910589694976807e-01 -5.526582598686218262e-01 -2.283855080604553223e-01
1.603601872920989990e-02 -4.404872655868530273e-01 1.844286024570465088e-01
6.321118026971817017e-02 -5.526342988014221191e-01 -3.443994224071502686e-01
9.584303200244903564e-02 -5.961644053459167480e-01 2.986185252666473389e-01
1.708202362060546875e-01 -6.493493318557739258e-01 -2.807890474796295166e-01
-7.860288023948669434e-04 -7.328476905822753906e-01 5.217626318335533142e-02
-1.185028478503227234e-01 -7.095170021057128906e-01 -1.045902259647846222e-02
-4.406385123729705811e-03 -5.836340785026550293e-01 2.721013426780700684e-01
3.183774054050445557e-01 -5.795257091522216797e-01 -1.333650350570678711e-01
-2.176364064216613770e-01 -6.395085453987121582e-01 -6.837642937898635864e-02
1.432008743286132812e-01 -5.327804684638977051e-01 -3.022693693637847900e-01
1.137745603919029236e-01 -4.904499053955078125e-01 2.818358242511749268e-01
1.472220569849014282e-02 -4.137538075447082520e-01 9.608303010463714600e-02
-1.923847943544387817e-02 -4.951599240303039551e-01 -3.048435747623443604e-01
1.373238861560821533e-01 -4.498834609985351562e-01 2.292556166648864746e-01
2.629764080047607422e-01 -5.084584951400756836e-01 2.480823397636413574e-01
3.174730241298675537e-01 -5.664233565330505371e-01 2.108148485422134399e-01
-9.311596304178237915e-02 -4.296512603759765625e-01 -2.990792691707611084e-02
-9.632364660501480103e-02 -5.719171166419982910e-01 -3.408125638961791992e-01
1.664552241563796997e-01 -4.139515757560729980e-01 9.727361798286437988e-02
-4.814811050891876221e-02 -4.238044023513793945e-01 6.860642135143280029e-02
2.661716341972351074e-01 -6.324020028114318848e-01 2.234274297952651978e-01
1.938901543617248535e-01 -4.177019000053405762e-01 7.761870324611663818e-02
4.586661979556083679e-02 -4.096793234348297119e-01 9.661661088466644287e-02
2.433683872222900391e-01 -4.918068647384643555e-01 -1.786819249391555786e-01
-1.960686743259429932e-01 -6.173300147056579590e-01 5.149341747164726257e-02
2.979177832603454590e-01 -4.648777544498443604e-01 8.250359445810317993e-03
3.375446796417236328e-01 -5.524867773056030273e-01 -8.112430572509765625e-02
1.209231466054916382e-01 -7.373926639556884766e-01 -1.326613426208496094e-01
-7.856405526399612427e-02 -4.272183775901794434e-01 1.988451182842254639e-02
-1.974978744983673096e-01 -6.122527122497558594e-01 -2.490055859088897705e-01
2.191061079502105713e-01 -4.235794544219970703e-01 4.699243232607841492e-02
-3.530472517013549805e-03 -4.287649095058441162e-01 1.404284536838531494e-01
2.969177365303039551e-01 -6.104943752288818359e-01 -1.639701277017593384e-01
2.161715924739837646e-01 -5.861387252807617188e-01 2.880584895610809326e-01
-2.366221845149993896e-01 -5.832639932632446289e-01 -1.298304051160812378e-01
3.123247623443603516e-01 -6.626391410827636719e-01 -3.292101249098777771e-02
3.517031967639923096e-01 -5.559391975402832031e-01 1.343210488557815552e-01
2.042887210845947266e-01 -4.661143124103546143e-01 2.361503541469573975e-01
2.306825518608093262e-01 -5.521500110626220703e-01 2.868069112300872803e-01
-1.482976973056793213e-01 -6.729861497879028320e-01 -2.481420338153839111e-01
-3.556873649358749390e-02 -4.156177937984466553e-01 -7.771299779415130615e-02
2.539543509483337402e-01 -4.372743368148803711e-01 5.516314879059791565e-02
2.624981105327606201e-01 -5.772553086280822754e-01 -2.195833176374435425e-01
3.288733065128326416e-01 -6.279900074005126953e-01 1.341936588287353516e-01
2.509686052799224854e-01 -7.004470825195312500e-01 -7.920691370964050293e-02
1.696247905492782593e-01 -7.339976429939270020e-01 9.870484471321105957e-03
-2.137706875801086426e-01 -5.870941281318664551e-01 2.946380525827407837e-02
1.738178133964538574e-01 -7.147569656372070312e-01 -1.688368171453475952e-01
3.404348492622375488e-01 -5.233576297760009766e-01 1.413253396749496460e-01
-8.683193475008010864e-02 -6.942589879035949707e-01 9.404830634593963623e-02
-1.679120659828186035e-01 -5.276989340782165527e-01 -2.590583264827728271e-01
1.032253280282020569e-01 -6.335405111312866211e-01 2.753867506980895996e-01
-1.721481978893280029e-01 -6.640564203262329102e-01 2.632412686944007874e-02
5.119090527296066284e-02 -7.481024265289306641e-01 -2.871182747185230255e-02
5.229815840721130371e-02 -4.330299496650695801e-01 1.840925514698028564e-01
-1.393946707248687744e-01 -7.003145813941955566e-01 -1.803414374589920044e-01
2.037185430526733398e-01 -4.224593937397003174e-01 -2.532343938946723938e-02
1.423515081405639648e-01 -7.091051340103149414e-01 -2.156085520982742310e-01
-6.153106689453125000e-03 -4.074441194534301758e-01 -2.649625949561595917e-02
-1.468295454978942871e-01 -5.541712045669555664e-01 -3.026870191097259521e-01
6.280080229043960571e-02 -5.233619809150695801e-01 2.938089966773986816e-01
-5.037675797939300537e-02 -7.241611480712890625e-01 4.155756905674934387e-02
2.909694612026214600e-01 -6.738692522048950195e-01 -7.333430647850036621e-02
1.090455353260040283e-01 -4.794776439666748047e-01 -2.649860680103302002e-01
1.816547214984893799e-01 -7.307786345481872559e-01 -6.670694053173065186e-02
-8.987993746995925903e-02 -6.883094906806945801e-01 -2.749429643154144287e-01
1.590536683797836304e-01 -4.347158372402191162e-01 1.905089616775512695e-01
1.382873654365539551e-01 -4.138711988925933838e-01 1.214742660522460938e-01
-9.018635004758834839e-02 -7.106320261955261230e-01 -2.195487767457962036e-01
-2.685851603746414185e-02 -7.260754108428955078e-01 -2.123608887195587158e-01
-1.662725806236267090e-01 -6.890705823898315430e-01 -1.536125391721725464e-01
1.679614484310150146e-01 -4.214661121368408203e-01 1.399456113576889038e-01
-3.443936258554458618e-02 -6.235197782516479492e-01 2.356923818588256836e-01
3.572541773319244385e-01 -5.879672765731811523e-01 -8.924301713705062866e-03
-6.785143166780471802e-02 -4.250780344009399414e-01 -9.597484767436981201e-02
4.355730116367340088e-02 -7.346734404563903809e-01 -1.895115077495574951e-01
2.306553125381469727e-01 -6.603878140449523926e-01 -2.129368335008621216e-01
-1.991526484489440918e-01 -4.951206743717193604e-01 -7.897509634494781494e-02
2.169114947319030762e-01 -6.794221997261047363e-01 -2.009622603654861450e-01
2.811692953109741211e-01 -5.820370316505432129e-01 2.488857209682464600e-01
-5.814293771982192993e-02 -6.021707653999328613e-01 -3.554381132125854492e-01
-6.350628286600112915e-02 -4.420576691627502441e-01 -1.837481707334518433e-01
1.666843891143798828e-01 -5.161060094833374023e-01 2.964341640472412109e-01
1.136154606938362122e-01 -7.316995263099670410e-01 8.252017199993133545e-02
1.021514013409614563e-01 -4.154109954833984375e-01 1.380410939455032349e-01
1.850406974554061890e-01 -7.214170694351196289e-01 8.031246066093444824e-02
9.655972570180892944e-02 -7.458465099334716797e-01 -1.093967631459236145e-02
1.855643838644027710e-01 -5.822169780731201172e-01 2.990875840187072754e-01
2.907652258872985840e-01 -5.530547499656677246e-01 2.436069548130035400e-01
2.786085605621337891e-01 -6.184372305870056152e-01 -1.884500384330749512e-01
-1.675756275653839111e-01 -6.574726700782775879e-01 5.094704404473304749e-02
3.094125092029571533e-01 -4.798065423965454102e-01 -2.387189865112304688e-02
-1.547792255878448486e-01 -5.192096829414367676e-01 1.240837723016738892e-01
1.489140987396240234e-01 -6.130652427673339844e-01 -3.144117891788482666e-01
-3.948347270488739014e-02 -4.139656424522399902e-01 -3.397952765226364136e-03
7.081080228090286255e-03 -7.203708887100219727e-01 1.041324436664581299e-01
9.004382789134979248e-02 -6.888360977172851562e-01 -2.838128209114074707e-01
2.985274195671081543e-01 -4.949546158313751221e-01 -9.657806158065795898e-02
-1.341009438037872314e-01 -6.313415765762329102e-01 1.396760940551757812e-01
3.234545290470123291e-01 -5.121622681617736816e-01 1.703679710626602173e-01
1.863367855548858643e-02 -7.476039528846740723e-01 -8.768533915281295776e-02
5.949963629245758057e-02 -4.082968831062316895e-01 -8.707611262798309326e-02
2.109350562095642090e-01 -4.562036395072937012e-01 2.142879515886306763e-01
2.828576266765594482e-01 -4.594616889953613281e-01 -2.535309456288814545e-02
7.689239084720611572e-02 -7.178041338920593262e-01 1.347864568233489990e-01
-1.495183706283569336e-01 -7.011062502861022949e-01 -1.351898014545440674e-01
-4.939518123865127563e-02 -4.611068069934844971e-01 1.762478500604629517e-01
1.528779417276382446e-01 -7.139331698417663574e-01 1.344059556722640991e-01
-2.089395523071289062e-01 -5.649487376213073730e-01 -2.277032136917114258e-01
-9.944888204336166382e-02 -4.367634057998657227e-01 2.846490964293479919e-02
-2.127711772918701172e-01 -6.019960045814514160e-01 -2.231746912002563477e-01
2.016078829765319824e-01 -7.174845933914184570e-01 -1.149302124977111816e-01
-1.579773426055908203e-01 -6.201512217521667480e-01 1.176109910011291504e-01
-9.792443364858627319e-02 -4.583791494369506836e-01 -2.031312435865402222e-01
-9.456764906644821167e-02 -7.112087011337280273e-01 3.119063749909400940e-02
4.383695498108863831e-02 -4.580552577972412109e-01 2.297402322292327881e-01
-1.370331645011901855e-01 -5.412066578865051270e-01 1.627356559038162231e-01
2.150920629501342773e-01 -5.301898121833801270e-01 2.890131473541259766e-01
-7.637346535921096802e-02 -7.284315228462219238e-01 -1.504257917404174805e-01
-2.073783427476882935e-02 -6.460414528846740723e-01 2.239559590816497803e-01
5.044247582554817200e-02 -6.805151104927062988e-01 2.095210403203964233e-01
2.536969184875488281e-01 -6.795830130577087402e-01 -1.463213264942169189e-01
-1.647084355354309082e-01 -5.436181426048278809e-01 -2.784419953823089600e-01
-1.608682870864868164e-01 -4.906129837036132812e-01 -2.057128250598907471e-01
2.485221624374389648e-01 -7.045785188674926758e-01 5.191275849938392639e-02
-9.807137399911880493e-02 -4.918671250343322754e-01 1.713292151689529419e-01
2.978468686342239380e-02 -4.254010021686553955e-01 -1.658258885145187378e-01
2.845358848571777344e-01 -5.066738128662109375e-01 2.253353297710418701e-01
-1.389849781990051270e-01 -4.503030180931091309e-01 -4.997441545128822327e-02
-9.671784192323684692e-02 -6.133124828338623047e-01 1.946769952774047852e-01
-4.318027943372726440e-02 -7.164615988731384277e-01 -2.361335605382919312e-01
3.601673617959022522e-02 -7.365078926086425781e-01 5.653137341141700745e-02
9.300243109464645386e-02 -7.017652988433837891e-01 -2.612856328487396240e-01
-2.259121537208557129e-01 -5.325794816017150879e-01 -9.072533249855041504e-02
1.369376629590988159e-01 -5.835725665092468262e-01 -3.239246606826782227e-01
-4.377635568380355835e-02 -6.265598535537719727e-01 -3.520131409168243408e-01
2.700778543949127197e-01 -6.462847590446472168e-01 2.003052532672882080e-01
2.070862650871276855e-01 -4.376056194305419922e-01 -9.866608679294586182e-02
1.862789392471313477e-01 -4.410565495491027832e-01 -1.357675194740295410e-01
-1.777084916830062866e-02 -7.035328149795532227e-01 -2.747201025485992432e-01
3.438552469015121460e-02 -4.074283838272094727e-01 7.381407916545867920e-02
9.311139583587646484e-02 -4.028004407882690430e-01 5.223530903458595276e-02
1.532874405384063721e-01 -4.208828508853912354e-01 -9.691970050334930420e-02
1.221502572298049927e-01 -6.238613128662109375e-01 -3.252899050712585449e-01
2.616317272186279297e-01 -4.735845625400543213e-01 2.036049515008926392e-01
2.239879369735717773e-01 -6.250998973846435547e-01 -2.511041462421417236e-01
4.085410013794898987e-02 -4.021893739700317383e-01 -5.201911553740501404e-03
3.528681397438049316e-01 -5.898542404174804688e-01 1.179724931716918945e-01
2.393832802772521973e-01 -6.757526993751525879e-01 -1.776005327701568604e-01
1.237494871020317078e-02 -6.897754669189453125e-01 1.796752810478210449e-01
-7.701943069696426392e-02 -4.326149225234985352e-01 6.049563363194465637e-02
-1.241786107420921326e-01 -6.186748147010803223e-01 1.625945270061492920e-01
-9.073068946599960327e-02 -7.228209972381591797e-01 -2.193291299045085907e-02
8.481601625680923462e-02 -6.853554248809814453e-01 2.081522047519683838e-01
2.937999069690704346e-01 -6.481453180313110352e-01 1.659556329250335693e-01
3.283480107784271240e-01 -4.894300699234008789e-01 7.767981290817260742e-02
3.508735597133636475e-01 -5.934528708457946777e-01 -3.812976181507110596e-02
-2.223623096942901611e-01 -6.356233954429626465e-01 -1.041125655174255371e-01
3.067333400249481201e-01 -5.608892440795898438e-01 -1.518437117338180542e-01
3.346079289913177490e-01 -6.359411478042602539e-01 -3.109490498900413513e-02
6.514446437358856201e-02 -7.388272881507873535e-01 5.250174179673194885e-02
1.019055098295211792e-01 -4.020134806632995605e-01 2.331020683050155640e-02
5.921866372227668762e-02 -6.641728878021240234e-01 2.354833781719207764e-01
-4.211521893739700317e-02 -6.880276203155517578e-01 1.499005556106567383e-01
1.656323969364166260e-01 -7.294209599494934082e-01 -1.171587109565734863e-01
2.986983656883239746e-01 -6.477707624435424805e-01 -1.208274662494659424e-01
3.150204122066497803e-01 -4.783481359481811523e-01 9.613938629627227783e-02
1.830686330795288086e-01 -7.079875469207763672e-01 1.358927190303802490e-01
2.878585159778594971e-01 -4.694850444793701172e-01 1.522227674722671509e-01
7.379563152790069580e-02 -4.229477643966674805e-01 1.623830348253250122e-01
-1.727550029754638672e-01 -5.432497262954711914e-01 1.111865043640136719e-01
1.022629365324974060e-01 -4.072731733322143555e-01 -6.442052870988845825e-02
-1.694244146347045898e-01 -5.830404162406921387e-01 1.208951026201248169e-01
6.980373710393905640e-02 -4.405914247035980225e-01 2.067105323076248169e-01
-1.187235862016677856e-02 -4.127242267131805420e-01 5.798227712512016296e-02
-3.859496861696243286e-02 -4.138896167278289795e-01 -4.328674823045730591e-02
-9.063258022069931030e-02 -5.736210942268371582e-01 2.153823077678680420e-01
-2.221243083477020264e-01 -5.713738799095153809e-01 -1.982966214418411255e-01
2.194751799106597900e-01 -6.777147650718688965e-01 1.878909468650817871e-01
-1.204987838864326477e-01 -6.451159119606018066e-01 -3.106667399406433105e-01
1.265636384487152100e-01 -6.412966251373291016e-01 2.687932848930358887e-01
1.249986290931701660e-01 -4.603564441204071045e-01 -2.263161092996597290e-01
1.002103835344314575e-02 -7.431590557098388672e-01 -1.401993334293365479e-01
9.248407185077667236e-02 -4.442050457000732422e-01 -2.073129117488861084e-01
5.030729621648788452e-02 -4.981124103069305420e-01 -3.060159385204315186e-01
-6.229551136493682861e-02 -7.337034940719604492e-01 -4.088577628135681152e-02
1.595767140388488770e-01 -5.026693344116210938e-01 -2.668400704860687256e-01
1.600478589534759521e-02 -4.863934516906738281e-01 2.526196241378784180e-01
2.275022864341735840e-01 -7.000122070312500000e-01 -1.364728212356567383e-01
5.228039622306823730e-02 -4.182665646076202393e-01 -1.386304348707199097e-01
1.279684305191040039e-01 -7.407686710357666016e-01 1.494884863495826721e-02
1.293562501668930054e-01 -4.504221379756927490e-01 -2.039756327867507935e-01
-2.465903759002685547e-03 -4.318487644195556641e-01 -1.820498406887054443e-01
-2.167480438947677612e-02 -7.435651421546936035e-01 -8.215714991092681885e-02
2.146414518356323242e-01 -4.731088876724243164e-01 -1.803241521120071411e-01
5.201592296361923218e-02 -6.261522173881530762e-01 -3.491463363170623779e-01
1.635557264089584351e-01 -4.413750171661376953e-01 -1.583165526390075684e-01
3.020249605178833008e-01 -4.897207617759704590e-01 1.752658486366271973e-01
9.730610251426696777e-02 -4.032499790191650391e-01 -2.845256961882114410e-02
3.194049745798110962e-02 -4.089823961257934570e-01 -8.873255550861358643e-02
8.224479854106903076e-03 -4.914388060569763184e-01 -3.019430637359619141e-01
-7.238700240850448608e-02 -7.209916710853576660e-01 2.509130537509918213e-02
1.832691729068756104e-01 -4.436142146587371826e-01 2.025796622037887573e-01
-2.274530231952667236e-01 -5.384814143180847168e-01 -1.201733648777008057e-01
-1.885397136211395264e-01 -4.872639775276184082e-01 -1.126123964786529541e-01
8.278052508831024170e-02 -6.188312768936157227e-01 2.842853367328643799e-01
-2.292347252368927002e-01 -6.184121370315551758e-01 -1.381822079420089722e-01
1.950940191745758057e-01 -6.441597938537597656e-01 -2.654380500316619873e-01
-5.902336537837982178e-02 -5.459735393524169922e-01 2.402542829513549805e-01
1.478717029094696045e-01 -6.956160068511962891e-01 -2.395160794258117676e-01
3.359015285968780518e-01 -5.955025553703308105e-01 1.640648692846298218e-01
-1.609152257442474365e-01 -6.898940801620483398e-01 -3.581270948052406311e-02
-1.182788386940956116e-01 -7.005878686904907227e-01 2.932557463645935059e-02
-2.259483933448791504e-01 -5.602290630340576172e-01 -1.372391637414693832e-02
-2.209879755973815918e-01 -6.264856457710266113e-01 -4.199902713298797607e-02
2.974384725093841553e-01 -6.565281152725219727e-01 1.401425004005432129e-01
6.268534809350967407e-02 -4.849764108657836914e-01 -2.875482439994812012e-01
1.077954098582267761e-02 -5.104346275329589844e-01 2.686162590980529785e-01
-1.293044090270996094e-01 -4.586375355720520020e-01 -1.614176630973815918e-01
1.134660914540290833e-01 -4.226107597351074219e-01 1.645311266183853149e-01
2.613089680671691895e-01 -4.434870779514312744e-01 -2.726892009377479553e-03
2.029301226139068604e-01 -6.612749695777893066e-01 -2.419243007898330688e-01
1.527924537658691406e-01 -6.193816661834716797e-01 2.857971191406250000e-01
1.024402678012847900e-03 -4.063062667846679688e-01 9.663384407758712769e-04
1.733615994453430176e-01 -6.494899988174438477e-01 2.534786462783813477e-01
7.999196648597717285e-02 -6.544085144996643066e-01 2.515961825847625732e-01
4.252953082323074341e-02 -7.486414909362792969e-01 -8.103489875793457031e-02
-2.330213487148284912e-01 -5.622841715812683105e-01 -5.192250013351440430e-02
-4.584468901157379150e-03 -7.158366441726684570e-01 -2.492124289274215698e-01
9.733162820339202881e-02 -4.927090704441070557e-01 -2.868867218494415283e-01
7.210665196180343628e-02 -4.018785357475280762e-01 3.782559558749198914e-02
9.255149215459823608e-02 -7.473625540733337402e-01 -5.932168662548065186e-02
-6.729864329099655151e-02 -6.729717850685119629e-01 -3.095137476921081543e-01
9.607157856225967407e-02 -4.367309510707855225e-01 2.029443085193634033e-01
3.950896486639976501e-02 -6.442360877990722656e-01 2.526900470256805420e-01
3.101820647716522217e-01 -6.686381697654724121e-01 1.551629230380058289e-02
2.006299495697021484e-01 -5.932495594024658203e-01 -2.815764844417572021e-01
-2.121411561965942383e-01 -5.307035446166992188e-01 6.109155714511871338e-03
3.442735970020294189e-01 -5.109686851501464844e-01 2.576982975006103516e-02
1.575606167316436768e-01 -4.922221004962921143e-01 2.815193831920623779e-01
2.368184030055999756e-01 -6.906173229217529297e-01 1.390544772148132324e-01
-1.176416352391242981e-01 -4.406872987747192383e-01 -1.472331862896680832e-02
-1.943900287151336670e-01 -6.474723815917968750e-01 -2.153548449277877808e-01
-1.784845292568206787e-01 -6.830442547798156738e-01 -1.253127008676528931e-01
-5.600664764642715454e-02 -5.174955129623413086e-01 -3.218786120414733887e-01
1.248704269528388977e-01 -4.136081039905548096e-01 -8.731973171234130859e-02
2.535263597965240479e-01 -5.107201337814331055e-01 -1.910273432731628418e-01
2.008774876594543457e-01 -6.753020286560058594e-01 2.043885737657546997e-01
8.136247843503952026e-02 -7.353014945983886719e-01 7.116250693798065186e-02
1.313341856002807617e-01 -5.990988612174987793e-01 2.992615103721618652e-01
-2.104804813861846924e-01 -6.364585757255554199e-01 -1.914475560188293457e-01
3.294809162616729736e-01 -4.899202883243560791e-01 4.783218726515769958e-02
2.708787024021148682e-01 -6.961960196495056152e-01 6.556786596775054932e-03
1.207819730043411255e-01 -4.215612411499023438e-01 -1.265753954648971558e-01
1.588361263275146484e-01 -4.116774201393127441e-01 -3.238037973642349243e-02
-2.188924252986907959e-01 -5.429436564445495605e-01 -1.788703650236129761e-01
8.475664258003234863e-02 -6.435597538948059082e-01 -3.310856223106384277e-01
5.319349095225334167e-02 -4.140295088291168213e-01 1.223530471324920654e-01
1.497628092765808105e-01 -7.238139510154724121e-01 -1.649733781814575195e-01
1.035028472542762756e-01 -6.058766245841979980e-01 -3.385348320007324219e-01
-1.381317079067230225e-01 -5.127039551734924316e-01 -2.720504701137542725e-01
3.494275808334350586e-01 -5.605370998382568359e-01 -4.798492044210433960e-02
1.633609235286712646e-01 -4.098381698131561279e-01 5.446359887719154358e-02
-1.932002604007720947e-01 -4.934039115905761719e-01 -2.312034368515014648e-02
-1.380360126495361328e-01 -4.804598093032836914e-01 9.792608022689819336e-02
-2.319284379482269287e-01 -5.746120214462280273e-01 -1.618888676166534424e-01
1.141543537378311157e-01 -6.983195543289184570e-01 1.839230209589004517e-01
3.017922341823577881e-01 -4.794756770133972168e-01 -4.857871681451797485e-02
1.213909536600112915e-01 -7.442356944084167480e-01 -3.137131035327911377e-02
-3.933987021446228027e-02 -4.711764454841613770e-01 -2.651860117912292480e-01
2.703850343823432922e-02 -5.687651634216308594e-01 -3.565457761287689209e-01
9.840611368417739868e-03 -4.647848606109619141e-01 -2.618857026100158691e-01
3.306923508644104004e-01 -6.477643847465515137e-01 1.041935011744499207e-02
-6.899086385965347290e-02 -6.576886773109436035e-01 1.766561120748519897e-01
1.474475562572479248e-01 -6.975957155227661133e-01 1.800476312637329102e-01
2.105146050453186035e-01 -4.290788173675537109e-01 1.300209760665893555e-01
-1.061846241354942322e-01 -6.043580770492553711e-01 -3.382087349891662598e-01
-1.551003009080886841e-02 -4.403513073921203613e-01 -2.037838697433471680e-01
3.428126275539398193e-01 -6.055861711502075195e-01 1.337863355875015259e-01
-7.496297359466552734e-03 -5.504935383796691895e-01 2.732512652873992920e-01
1.556226611137390137e-01 -4.833854734897613525e-01 -2.456637471914291382e-01
6.722414493560791016e-02 -6.990401148796081543e-01 -2.759236991405487061e-01
2.762551307678222656e-01 -6.781738400459289551e-01 -1.017195433378219604e-01
1.649704277515411377e-01 -4.169335961341857910e-01 -6.198167428374290466e-02
2.041677832603454590e-01 -7.252799868583679199e-01 -3.664556890726089478e-02
-3.286816924810409546e-02 -7.334488034248352051e-01 1.717515662312507629e-02
1.490487903356552124e-01 -7.376269102096557617e-01 -8.542106300592422485e-02
3.069971203804016113e-01 -5.954294800758361816e-01 2.138814330101013184e-01
-1.294628977775573730e-01 -6.589336395263671875e-01 1.105205565690994263e-01
-6.834422796964645386e-02 -6.959414482116699219e-01 1.101584434509277344e-01
-1.206315234303474426e-01 -5.680322647094726562e-01 -3.273307979106903076e-01
3.371766507625579834e-01 -5.211591720581054688e-01 -4.432559013366699219e-02
-1.784441769123077393e-01 -6.448130011558532715e-01 -2.504056394100189209e-01
-1.407544314861297607e-01 -4.650132060050964355e-01 5.160028114914894104e-02
8.026332408189773560e-02 -4.660247266292572021e-01 -2.546032965183258057e-01
-1.417320370674133301e-01 -7.050788998603820801e-01 -6.537186354398727417e-02
1.719935536384582520e-01 -4.738612771034240723e-01 -2.198777347803115845e-01
1.407627165317535400e-01 -6.538618206977844238e-01 -2.972162365913391113e-01
-1.744745671749114990e-01 -4.918996095657348633e-01 -1.827555745840072632e-01
3.053144365549087524e-02 -7.479580640792846680e-01 -4.031834751367568970e-02
2.016911506652832031e-01 -4.254581928253173828e-01 -5.129881203174591064e-02
3.548522889614105225e-01 -5.366092324256896973e-01 8.517324924468994141e-03
-1.066961064934730530e-01 -4.447469115257263184e-01 -1.417272090911865234e-01
1.862996667623519897e-01 -6.651512980461120605e-01 2.281608283519744873e-01
2.851519286632537842e-01 -5.643185377120971680e-01 -1.872163414955139160e-01
3.583969771862030029e-01 -5.983658432960510254e-01 6.055877730250358582e-02
-3.004582226276397705e-02 -5.851965546607971191e-01 2.576746940612792969e-01
9.265949577093124390e-02 -4.767224490642547607e-01 2.663825154304504395e-01
-1.410373747348785400e-01 -6.860334277153015137e-01 -2.284431606531143188e-01
-1.870232224464416504e-01 -5.706236362457275391e-01 9.240929782390594482e-02
-1.771183013916015625e-01 -4.752903580665588379e-01 -7.599336653947830200e-02
1.100716590881347656e-01 -4.522294104099273682e-01 2.344221472740173340e-01
2.612438797950744629e-01 -4.471607804298400879e-01 -2.923567220568656921e-02
-2.302179932594299316e-01 -6.039715409278869629e-01 -1.624788194894790649e-01
-2.013353705406188965e-01 -6.412464380264282227e-01 1.118201762437820435e-03
1.472350656986236572e-01 -7.336701750755310059e-01 5.137714371085166931e-02
1.739051043987274170e-01 -6.986432075500488281e-01 1.676723361015319824e-01
2.645096778869628906e-01 -6.146531105041503906e-01 -2.101225256919860840e-01
-5.246622860431671143e-02 -7.227090597152709961e-01 -2.099624574184417725e-01
4.189325124025344849e-02 -4.771763980388641357e-01 2.539802193641662598e-01
-9.514622390270233154e-03 -4.171059727668762207e-01 -1.181225031614303589e-01
-2.955470234155654907e-02 -5.374932289123535156e-01 2.583240270614624023e-01
3.336050212383270264e-01 -5.031188726425170898e-01 -1.089422963559627533e-02
5.490372702479362488e-02 -7.426414489746093750e-01 2.753780782222747803e-02
-1.922336220741271973e-01 -5.135617852210998535e-01 -1.967612802982330322e-01
1.212705224752426147e-01 -5.361073017120361328e-01 -3.154383897781372070e-01
2.780598998069763184e-01 -4.523870646953582764e-01 9.866321086883544922e-02
6.594251841306686401e-02 -4.351404309272766113e-01 -1.923930048942565918e-01
-2.256770431995391846e-02 -5.184725522994995117e-01 -3.289930820465087891e-01
1.317545920610427856e-01 -4.058878421783447266e-01 6.234581395983695984e-02
2.386664450168609619e-01 -4.883321523666381836e-01 2.462502121925354004e-01
3.611264526844024658e-01 -5.851613283157348633e-01 2.366991341114044189e-02
-1.172671839594841003e-01 -7.018253803253173828e-01 -2.159097343683242798e-01
-6.341985613107681274e-02 -5.714292526245117188e-01 2.379525899887084961e-01
-5.934026092290878296e-02 -4.876750111579895020e-01 2.046915143728256226e-01
2.218323051929473877e-01 -5.694019198417663574e-01 -2.614291608333587646e-01
-1.749788224697113037e-01 -5.148023366928100586e-01 8.322887122631072998e-02
-1.658281981945037842e-01 -4.747533500194549561e-01 -1.420964002609252930e-01
3.520093262195587158e-01 -5.240512490272521973e-01 7.795767486095428467e-02
1.068523377180099487e-01 -4.089275598526000977e-01 1.043002754449844360e-01
2.380253374576568604e-02 -7.157346010208129883e-01 -2.504856586456298828e-01
3.823262825608253479e-02 -4.237617254257202148e-01 1.519634872674942017e-01
-1.437525749206542969e-01 -4.889886379241943359e-01 -2.267983108758926392e-01
1.766254901885986328e-01 -7.300376892089843750e-01 3.624426946043968201e-02
-1.481786072254180908e-01 -4.590694010257720947e-01 -1.122621148824691772e-01
-6.150270998477935791e-02 -4.202969670295715332e-01 -6.145602837204933167e-02
3.557505458593368530e-02 -4.591835141181945801e-01 -2.510432600975036621e-01
-6.685309857130050659e-02 -6.790139675140380859e-01 1.460400670766830444e-01
1.973502039909362793e-01 -4.554927945137023926e-01 -1.620466262102127075e-01
1.474247127771377563e-01 -6.624469757080078125e-01 2.422111034393310547e-01
2.436213791370391846e-01 -6.558235287666320801e-01 2.096958756446838379e-01
-1.818963885307312012e-01 -4.795186817646026611e-01 -5.106899887323379517e-02
1.369465142488479614e-02 -6.113734245300292969e-01 -3.591331243515014648e-01
3.156328201293945312e-01 -4.968950152397155762e-01 -5.876963585615158081e-02
2.343140244483947754e-01 -7.140916585922241211e-01 -2.359225787222385406e-02
5.080510675907135010e-02 -5.495060682296752930e-01 2.968187630176544189e-01
2.717977166175842285e-01 -4.646486341953277588e-01 -7.627329230308532715e-02
-2.306969463825225830e-01 -6.063730120658874512e-01 -5.368716642260551453e-02
5.764002725481987000e-02 -7.303639650344848633e-01 8.983711898326873779e-02
1.994199305772781372e-02 -6.703426837921142578e-01 -3.236951529979705811e-01
-1.178669407963752747e-01 -7.140363454818725586e-01 -3.850916028022766113e-02
-1.950045526027679443e-01 -5.315979123115539551e-01 -2.224060297012329102e-01
1.448486745357513428e-01 -7.404017448425292969e-01 -5.219629406929016113e-02
-1.356902718544006348e-02 -4.618335366249084473e-01 -2.539399862289428711e-01
1.137095540761947632e-01 -6.760655641555786133e-01 2.249739170074462891e-01
4.538213461637496948e-02 -7.045094370841979980e-01 1.622160077095031738e-01
7.211191952228546143e-02 -4.045048356056213379e-01 7.129321992397308350e-02
7.288116216659545898e-02 -7.459832429885864258e-01 3.359392285346984863e-04
1.590775698423385620e-02 -7.121844291687011719e-01 1.321553289890289307e-01
3.023082762956619263e-02 -5.729691386222839355e-01 2.892512381076812744e-01
2.347235083580017090e-01 -4.331435859203338623e-01 1.057191193103790283e-01
-2.194276750087738037e-01 -5.314714908599853516e-01 -2.499512955546379089e-02
-1.216135993599891663e-01 -4.764043986797332764e-01 1.173735857009887695e-01
-4.419594258069992065e-02 -7.351962327957153320e-01 -1.533286869525909424e-01
-2.602541446685791016e-02 -4.763753414154052734e-01 2.173956036567687988e-01
9.268914163112640381e-02 -7.415447831153869629e-01 -1.333807557821273804e-01
1.249334365129470825e-01 -6.871072649955749512e-01 -2.689070999622344971e-01
-1.288806796073913574e-01 -6.775864362716674805e-01 7.630655169486999512e-02
3.024213910102844238e-01 -4.720262885093688965e-01 1.205370873212814331e-01
2.248390018939971924e-01 -7.140507102012634277e-01 -7.616312801837921143e-02
-7.866623252630233765e-02 -7.082372307777404785e-01 6.500978767871856689e-02
4.725772887468338013e-03 -7.316284775733947754e-01 -2.012922465801239014e-01
-2.163758128881454468e-02 -6.443769335746765137e-01 -3.454366028308868408e-01
1.601490825414657593e-01 -4.597390890121459961e-01 2.421554028987884521e-01
1.753053069114685059e-01 -6.712997555732727051e-01 -2.548137009143829346e-01
-2.265326976776123047e-01 -5.440523028373718262e-01 -1.470736861228942871e-01
1.772592365741729736e-01 -6.935176849365234375e-01 -2.181925475597381592e-01
-1.417638659477233887e-01 -4.733991622924804688e-01 7.454182207584381104e-02
-8.235972374677658081e-02 -7.193478345870971680e-01 -1.947211772203445435e-01
-1.208317503333091736e-01 -7.162502408027648926e-01 -8.801252394914627075e-02
1.973333060741424561e-01 -5.279243588447570801e-01 -2.625622749328613281e-01
7.911834865808486938e-03 -5.489500761032104492e-01 -3.506388068199157715e-01
1.256342530250549316e-01 -4.043850898742675781e-01 -3.807725384831428528e-03
6.791716814041137695e-02 -7.451723814010620117e-01 -1.222829520702362061e-01
2.564196586608886719e-01 -4.781592190265655518e-01 -1.374990195035934448e-01
2.505539655685424805e-01 -5.628589391708374023e-01 2.759228050708770752e-01
6.817499548196792603e-02 -7.373151183128356934e-01 -1.710764318704605103e-01
4.171147197484970093e-02 -5.085506439208984375e-01 2.801062166690826416e-01
2.016892433166503906e-01 -6.084003448486328125e-01 2.822764515876770020e-01
-2.269060611724853516e-01 -5.964230298995971680e-01 -2.073732018470764160e-02
1.420573294162750244e-01 -6.809390783309936523e-01 2.144086658954620361e-01
2.458931803703308105e-01 -4.351915717124938965e-01 8.379413187503814697e-02
2.723308205604553223e-01 -6.914998888969421387e-01 6.173327937722206116e-02
-2.022768557071685791e-01 -6.520178318023681641e-01 -3.212715685367584229e-02
2.874056696891784668e-01 -6.756385564804077148e-01 9.992489218711853027e-02
2.782338261604309082e-01 -6.898650527000427246e-01 -3.475847095251083374e-02
2.094982564449310303e-01 -7.124456763267517090e-01 9.218715131282806396e-02
-9.212181717157363892e-02 -7.261259555816650391e-01 -1.251510977745056152e-01
3.166719973087310791e-01 -6.344644427299499512e-01 -9.919661283493041992e-02
1.646906137466430664e-01 -7.214933037757873535e-01 9.983125329017639160e-02
4.628663510084152222e-02 -7.164064645767211914e-01 1.325836032629013062e-01
1.658583283424377441e-01 -5.983059406280517578e-01 2.967133224010467529e-01
-1.169237121939659119e-01 -4.492425620555877686e-01 4.899590089917182922e-02
-1.136493906378746033e-01 -5.544298291206359863e-01 1.930799484252929688e-01
2.181046903133392334e-01 -4.926430583000183105e-01 -2.077129781246185303e-01
-9.319364279508590698e-02 -4.683778584003448486e-01 1.420843750238418579e-01
3.439947068691253662e-01 -5.811057090759277344e-01 -6.957460194826126099e-02
1.429837644100189209e-01 -4.192384481430053711e-01 1.448961645364761353e-01
1.273173838853836060e-01 -4.731534123420715332e-01 2.644933164119720459e-01
2.380982935428619385e-01 -6.182947158813476562e-01 2.583281099796295166e-01
-1.215085759758949280e-01 -4.458585381507873535e-01 -1.124652624130249023e-01
-2.101871967315673828e-01 -5.434790253639221191e-01 -2.052066028118133545e-01
1.032565683126449585e-01 -7.355352640151977539e-01 -1.590906083583831787e-01
-7.678817957639694214e-02 -4.374425113201141357e-01 -1.532828658819198608e-01
-4.396093636751174927e-02 -4.234699010848999023e-01 -1.229141801595687866e-01
1.916858851909637451e-01 -4.168532788753509521e-01 -3.015007823705673218e-03
-9.737604111433029175e-02 -4.777179062366485596e-01 -2.487038671970367432e-01
3.192251324653625488e-01 -5.385618805885314941e-01 -1.144694387912750244e-01
1.360011398792266846e-01 -5.187752842903137207e-01 3.005979657173156738e-01
1.497793197631835938e-02 -4.052388072013854980e-01 2.468538284301757812e-02
1.141218319535255432e-01 -5.635029673576354980e-01 -3.310872912406921387e-01
7.034996151924133301e-02 -4.027565121650695801e-01 -3.612629696726799011e-02
1.403336599469184875e-02 -7.011755704879760742e-01 1.575746983289718628e-01
-1.015664264559745789e-01 -6.408041119575500488e-01 1.665739715099334717e-01
3.279895782470703125e-01 -6.464456915855407715e-01 7.829372584819793701e-02
6.114586070179939270e-02 -4.900411963462829590e-01 2.727228999137878418e-01
-8.573178201913833618e-02 -4.896705150604248047e-01 -2.765551209449768066e-01
3.448714017868041992e-01 -6.289156675338745117e-01 4.200657084584236145e-02
1.769732311367988586e-02 -6.936067938804626465e-01 -2.939001321792602539e-01
-2.647891640663146973e-02 -7.347712516784667969e-01 -1.737851202487945557e-01
-2.090820372104644775e-01 -6.155341267585754395e-01 2.077696099877357483e-02
3.464621305465698242e-01 -5.778694152832031250e-01 1.493031084537506104e-01
-1.577355563640594482e-01 -4.662127494812011719e-01 1.685114577412605286e-03
1.832931637763977051e-01 -7.266854047775268555e-01 -9.975817799568176270e-02
3.026709258556365967e-01 -6.183742880821228027e-01 1.989638954401016235e-01
-2.105556130409240723e-01 -5.195233821868896484e-01 -1.561429947614669800e-01
-1.539900600910186768e-01 -5.850129127502441406e-01 1.430094838142395020e-01
3.578247725963592529e-01 -5.600833892822265625e-01 -8.547257632017135620e-03
-1.802483797073364258e-01 -6.146816611289978027e-01 8.588024973869323730e-02
2.323476076126098633e-01 -4.396479725837707520e-01 1.460280418395996094e-01
3.138475120067596436e-01 -6.558624505996704102e-01 -5.676954239606857300e-02
-8.619026094675064087e-02 -5.261360406875610352e-01 -3.193384408950805664e-01
1.660804152488708496e-01 -5.730032920837402344e-01 -3.054949045181274414e-01
-2.047081887722015381e-01 -5.452761650085449219e-01 4.565300419926643372e-02
2.748860716819763184e-01 -6.471523046493530273e-01 -1.675148457288742065e-01
-1.166010424494743347e-01 -4.569118320941925049e-01 7.841792702674865723e-02
-2.209081947803497314e-01 -6.105038523674011230e-01 -1.950740814208984375e-01
3.617726862430572510e-01 -5.537349581718444824e-01 4.077720269560813904e-02
-1.164799407124519348e-01 -6.935374736785888672e-01 -2.409762144088745117e-01
1.372143998742103577e-02 -5.133011341094970703e-01 -3.254858851432800293e-01
-1.629409790039062500e-01 -4.823742210865020752e-01 4.898780211806297302e-02
3.412591516971588135e-01 -6.308745145797729492e-01 -7.979797199368476868e-03
1.009114012122154236e-01 -6.641069054603576660e-01 -3.086688220500946045e-01
3.042069971561431885e-01 -5.210828781127929688e-01 -1.263500005006790161e-01
1.029274091124534607e-01 -5.551049113273620605e-01 3.076587021350860596e-01
3.525003492832183838e-01 -6.060710549354553223e-01 9.098544716835021973e-02
-1.359962224960327148e-01 -5.310503244400024414e-01 -2.941934764385223389e-01
-4.296376556158065796e-02 -4.465032815933227539e-01 1.527359783649444580e-01
-1.249842867255210876e-01 -4.699866473674774170e-01 -2.049894630908966064e-01
-5.338286608457565308e-02 -7.324477434158325195e-01 -8.244110271334648132e-03
2.139219641685485840e-01 -7.221667766571044922e-01 -8.438073098659515381e-03
-1.120749861001968384e-02 -6.662546396255493164e-01 -3.283962905406951904e-01
1.371977850794792175e-02 -4.427731633186340332e-01 -2.156513333320617676e-01
3.170616924762725830e-01 -6.495819687843322754e-01 1.111042648553848267e-01
-2.353079617023468018e-02 -5.870493054389953613e-01 -3.608123362064361572e-01
-4.280532151460647583e-02 -6.842741966247558594e-01 -3.020772933959960938e-01
3.169771432876586914e-01 -5.299541950225830078e-01 2.014476060867309570e-01
1.753273904323577881e-01 -4.311920404434204102e-01 1.722832173109054565e-01
2.647857666015625000e-01 -4.895464181900024414e-01 2.260217964649200439e-01
-1.122586056590080261e-01 -4.739939570426940918e-01 -2.286498844623565674e-01
