1.817477345466613770e-01 4.270594418048858643e-01 -3.525122255086898804e-02
1.148022413253784180e-01 3.886999785900115967e-01 6.612054258584976196e-02
1.634760797023773193e-01 4.208810627460479736e-01 -6.012015789747238159e-02
1.609009057283401489e-01 5.181434750556945801e-01 -1.168204285204410553e-02
1.392478197813034058e-01 5.155408382415771484e-01 5.975837260484695435e-02
1.694551706314086914e-01 4.500441849231719971e-01 1.011650487780570984e-01
1.589486002922058105e-01 4.001377224922180176e-01 -2.853729389607906342e-02
1.679364591836929321e-01 4.014116823673248291e-01 5.071324855089187622e-02
1.610619723796844482e-01 5.145990252494812012e-01 -2.990582026541233063e-02
1.058323234319686890e-01 3.893351256847381592e-01 5.961477756500244141e-03
9.167183935642242432e-02 4.995983541011810303e-01 -2.125535160303115845e-03
7.388319075107574463e-02 4.453148543834686279e-01 5.909759551286697388e-02
1.678662598133087158e-01 4.195872843265533447e-01 -5.285649001598358154e-02
8.911702036857604980e-02 3.995741009712219238e-01 2.317780256271362305e-02
1.822759807109832764e-01 4.183297753334045410e-01 4.475748538970947266e-02
7.380730658769607544e-02 4.639407396316528320e-01 6.593238562345504761e-03
7.519128173589706421e-02 4.423685669898986816e-01 -1.028188504278659821e-02
9.882864356040954590e-02 4.188781380653381348e-01 -4.923532158136367798e-02
7.182996720075607300e-02 4.368285834789276123e-01 2.358850277960300446e-02
1.686973571777343750e-01 4.055710732936859131e-01 -2.361210621893405914e-02
9.562358260154724121e-02 4.483268558979034424e-01 1.098081469535827637e-01
1.779540181159973145e-01 4.880671203136444092e-01 -5.283614248037338257e-02
1.263725757598876953e-01 5.218266248703002930e-01 2.325307950377464294e-02
1.052805334329605103e-01 3.877792358398437500e-01 3.735594451427459717e-02
1.212988644838333130e-01 3.973355591297149658e-01 -3.800936788320541382e-02
1.139690726995468140e-01 5.077456831932067871e-01 -4.131434857845306396e-02
7.851115614175796509e-02 4.193992912769317627e-01 5.684481561183929443e-02
9.497341513633728027e-02 4.999725818634033203e-01 -1.715614087879657745e-02
1.302619427442550659e-01 5.043175816535949707e-01 8.526297658681869507e-02
1.845686733722686768e-01 4.446419179439544678e-01 7.057354599237442017e-02
1.130884215235710144e-01 4.957891404628753662e-01 9.097469598054885864e-02
1.149744838476181030e-01 5.168663263320922852e-01 -1.055213809013366699e-02
1.857755929231643677e-01 4.958751201629638672e-01 1.868227310478687286e-02
1.822563558816909790e-01 5.010725259780883789e-01 -9.289626032114028931e-03
1.680997908115386963e-01 4.645074605941772461e-01 1.008584350347518921e-01
8.598688244819641113e-02 4.940505623817443848e-01 1.882442645728588104e-02
1.921247839927673340e-01 4.355323910713195801e-01 2.198327518999576569e-02
1.486394256353378296e-01 3.927693963050842285e-01 6.792704761028289795e-02
9.897348284721374512e-02 3.917330801486968994e-01 4.357382655143737793e-02
8.154468238353729248e-02 4.198397994041442871e-01 7.092487812042236328e-02
1.538216471672058105e-01 5.014526844024658203e-01 8.232455700635910034e-02
9.472389519214630127e-02 3.942499756813049316e-01 2.719362080097198486e-02
1.614714413881301880e-01 4.101304709911346436e-01 -4.683331400156021118e-02
1.384143978357315063e-01 4.730944335460662842e-01 -8.909011632204055786e-02
1.442697048187255859e-01 4.447419941425323486e-01 -8.816616982221603394e-02
1.801446527242660522e-01 4.896896481513977051e-01 5.932759493589401245e-02
1.812459975481033325e-01 4.215921759605407715e-01 5.718017369508743286e-02
9.874345362186431885e-02 4.427892863750457764e-01 -6.512589752674102783e-02
9.175059944391250610e-02 4.248622059822082520e-01 9.874901920557022095e-02
1.439391821622848511e-01 4.738597869873046875e-01 1.160678863525390625e-01
1.294707506895065308e-01 3.956407010555267334e-01 8.873014897108078003e-02
1.918146908283233643e-01 4.531806111335754395e-01 -2.818401716649532318e-02
7.138324528932571411e-02 4.532320499420166016e-01 2.282680571079254150e-02
8.909856528043746948e-02 4.855036735534667969e-01 7.076104730367660522e-02
9.530422091484069824e-02 3.945358097553253174e-01 1.644550263881683350e-02
1.838031411170959473e-01 4.374461770057678223e-01 6.860425323247909546e-02
1.519946753978729248e-01 5.221695899963378906e-01 1.076022535562515259e-02
1.588466465473175049e-01 5.036446452140808105e-01 -5.820862948894500732e-02
9.581431746482849121e-02 5.027627944946289062e-01 -9.878072887659072876e-03
9.122426807880401611e-02 4.175877571105957031e-01 -3.483910858631134033e-02
1.043998524546623230e-01 3.882873952388763428e-01 2.187367528676986694e-02
1.216065883636474609e-01 3.885390162467956543e-01 -1.404456607997417450e-02
9.398952126502990723e-02 4.582762420177459717e-01 1.053583100438117981e-01
1.518357992172241211e-01 4.027498066425323486e-01 -4.336484521627426147e-02
1.110861673951148987e-01 5.164495110511779785e-01 5.898855626583099365e-03
1.133063435554504395e-01 3.972193896770477295e-01 -3.201878815889358521e-02
1.364036947488784790e-01 3.838738501071929932e-01 4.184813052415847778e-02
1.615579575300216675e-01 3.932388424873352051e-01 1.455916743725538254e-02
8.326648175716400146e-02 4.072276651859283447e-01 1.851263083517551422e-02
7.286891341209411621e-02 4.306441843509674072e-01 3.257831558585166931e-02
1.668141484260559082e-01 4.821297824382781982e-01 9.207785874605178833e-02
1.132354736328125000e-01 3.857421875000000000e-01 4.830206558108329773e-02
1.221634969115257263e-01 5.155285000801086426e-01 -3.095844201743602753e-02
8.529371023178100586e-02 4.646488428115844727e-01 -4.082817584276199341e-02
1.035792157053947449e-01 5.051063299179077148e-01 5.873349308967590332e-02
1.725824624300003052e-01 4.161388874053955078e-01 7.354732602834701538e-02
1.320908218622207642e-01 3.923522531986236572e-01 -2.878318540751934052e-02
8.042564988136291504e-02 4.834511876106262207e-01 3.711713850498199463e-02
1.226511225104331970e-01 3.936530351638793945e-01 8.441195636987686157e-02
1.889599263668060303e-01 4.263047277927398682e-01 1.075414940714836121e-02
1.954135298728942871e-01 4.657387137413024902e-01 1.827944070100784302e-02
1.798086315393447876e-01 4.463130831718444824e-01 8.277120441198348999e-02
1.605376899242401123e-01 4.865283370018005371e-01 9.516860544681549072e-02
1.911677122116088867e-01 4.774683713912963867e-01 -2.375306002795696259e-02
1.180170252919197083e-01 5.079874992370605469e-01 7.188376039266586304e-02
1.727810502052307129e-01 4.249929189682006836e-01 -5.220870673656463623e-02
1.310674995183944702e-01 4.315617084503173828e-01 1.240639686584472656e-01
7.861141115427017212e-02 4.300320744514465332e-01 7.229946553707122803e-02
1.119743883609771729e-01 4.591012299060821533e-01 -8.068404346704483032e-02
1.215932890772819519e-01 3.919653892517089844e-01 -2.506499923765659332e-02
1.708419024944305420e-01 4.242160320281982422e-01 8.717606216669082642e-02
1.113042235374450684e-01 5.129505395889282227e-01 -2.052613534033298492e-02
7.630929350852966309e-02 4.697698056697845459e-01 5.018521100282669067e-02
1.844258308410644531e-01 4.855969250202178955e-01 5.300635099411010742e-02
1.451126039028167725e-01 4.123001098632812500e-01 1.060271784663200378e-01
1.427151411771774292e-01 3.871268332004547119e-01 5.442831665277481079e-02
9.020532667636871338e-02 4.680872857570648193e-01 -5.007721483707427979e-02
1.062499061226844788e-01 4.906289577484130859e-01 9.206499159336090088e-02
1.234018132090568542e-01 5.131394267082214355e-01 -3.959795087575912476e-02
1.868514567613601685e-01 4.591389298439025879e-01 -4.675279557704925537e-02
7.581526041030883789e-02 4.369333088397979736e-01 6.606715172529220581e-02
1.025319173932075500e-01 3.890117406845092773e-01 3.024956583976745605e-02
1.033823341131210327e-01 4.629052877426147461e-01 1.135714277625083923e-01
1.027787029743194580e-01 3.905645608901977539e-01 5.229228734970092773e-02
8.213531970977783203e-02 4.715034365653991699e-01 -2.704023756086826324e-02
8.635383099317550659e-02 4.832175672054290771e-01 -2.599341608583927155e-02
7.157576084136962891e-02 4.394345879554748535e-01 3.485772758722305298e-02
1.746843755245208740e-01 5.083345174789428711e-01 2.630022540688514709e-02
1.086255982518196106e-01 3.944622874259948730e-01 -1.966209150850772858e-02
9.526552259922027588e-02 4.820229411125183105e-01 8.871043473482131958e-02
1.918026357889175415e-01 4.352589249610900879e-01 -1.682963222265243530e-03
1.445953696966171265e-01 4.786615371704101562e-01 -8.670393377542495728e-02
1.939446479082107544e-01 4.570565223693847656e-01 -1.837226934731006622e-02
1.203692704439163208e-01 4.072407186031341553e-01 1.062118858098983765e-01
1.116807833313941956e-01 3.893218040466308594e-01 -6.523787975311279297e-03
1.705332845449447632e-01 4.042319953441619873e-01 -1.343943737447261810e-02
1.502815186977386475e-01 4.525421559810638428e-01 1.198094263672828674e-01
1.096814647316932678e-01 3.919412195682525635e-01 7.171255350112915039e-02
1.130024343729019165e-01 4.914474785327911377e-01 9.703077375888824463e-02
1.318578422069549561e-01 5.153100490570068359e-01 6.024852395057678223e-02
1.677124202251434326e-01 5.125391483306884766e-01 3.353820741176605225e-02
1.359029114246368408e-01 4.001156687736511230e-01 9.500388801097869873e-02
1.751663535833358765e-01 4.069404602050781250e-01 -4.503965377807617188e-03
1.902912706136703491e-01 4.433123171329498291e-01 4.951511323451995850e-02
8.177100867033004761e-02 4.806962907314300537e-01 5.529113113880157471e-02
1.151267141103744507e-01 4.153940081596374512e-01 -6.203066557645797729e-02
1.523941159248352051e-01 3.904996514320373535e-01 5.149687081575393677e-02
1.115540787577629089e-01 5.101275444030761719e-01 -3.103598020970821381e-02
1.591175049543380737e-01 5.198084115982055664e-01 1.113676652312278748e-02
1.599549651145935059e-01 4.722371995449066162e-01 -8.308594673871994019e-02
1.160521879792213440e-01 3.859792947769165039e-01 3.367950208485126495e-03
1.502761989831924438e-01 3.959202170372009277e-01 7.455877214670181274e-02
1.800953149795532227e-01 4.113277196884155273e-01 7.034249603748321533e-03
1.134833022952079773e-01 3.847545385360717773e-01 2.133334055542945862e-02
8.726380765438079834e-02 4.330242574214935303e-01 9.561233222484588623e-02
1.541408002376556396e-01 5.203322768211364746e-01 2.647878415882587433e-02
1.904458254575729370e-01 4.620799720287322998e-01 5.298747867345809937e-02
1.809094101190567017e-01 5.012069940567016602e-01 -1.811000518500804901e-02
1.701603829860687256e-01 5.059493780136108398e-01 5.027826875448226929e-02
1.340232491493225098e-01 5.232394933700561523e-01 -2.064842730760574341e-03
7.703575491905212402e-02 4.726657569408416748e-01 -1.824749633669853210e-03
1.760659515857696533e-01 4.178546369075775146e-01 6.730109453201293945e-02
1.087145581841468811e-01 4.870247840881347656e-01 -6.515602022409439087e-02
1.763125956058502197e-01 4.510395228862762451e-01 9.037435054779052734e-02
1.737278848886489868e-01 5.003222823143005371e-01 -4.347836971282958984e-02
-1.803190112113952637e-01 -9.858972430229187012e-01 2.560660615563392639e-02
-1.022506877779960632e-01 -9.391448497772216797e-01 1.478293538093566895e-02
-1.432139426469802856e-02 -9.476702809333801270e-01 2.511006966233253479e-02
-6.420077383518218994e-02 -9.452510476112365723e-01 -1.053017377853393555e-01
-1.590496450662612915e-01 -9.525600075721740723e-01 1.043442711234092712e-01
-2.545462250709533691e-01 -9.590200185775756836e-01 1.874437183141708374e-02
-1.594670414924621582e-01 -9.396964311599731445e-01 1.550478860735893250e-03
-5.889168009161949158e-02 -9.481250643730163574e-01 7.826496660709381104e-02
-1.340601295232772827e-01 -9.895848035812377930e-01 -3.196802362799644470e-02
-6.816965341567993164e-02 -9.483932852745056152e-01 -1.255709677934646606e-01
-1.242815852165222168e-01 -9.841337203979492188e-01 -1.108637824654579163e-01
-1.841482818126678467e-01 -9.840008616447448730e-01 -8.157207071781158447e-02
-2.000169903039932251e-01 -9.449352025985717773e-01 3.227945789694786072e-02
-6.481753289699554443e-02 -9.426299333572387695e-01 4.175717383623123169e-02
-1.036483868956565857e-01 -9.782775044441223145e-01 1.009952723979949951e-01
6.513513624668121338e-03 -9.546768069267272949e-01 3.492931276559829712e-02
-7.543390989303588867e-02 -9.884409308433532715e-01 -4.467643052339553833e-02
-2.388435602188110352e-02 -9.839517474174499512e-01 -2.071988023817539215e-02
-1.294156610965728760e-01 -9.384585022926330566e-01 -3.068001382052898407e-02
-5.827961117029190063e-02 -9.523422718048095703e-01 9.524242579936981201e-02
-2.455442994832992554e-01 -9.758248329162597656e-01 -6.378321908414363861e-03
-2.183214128017425537e-01 -9.793034791946411133e-01 -7.650130987167358398e-02
-4.458945244550704956e-02 -9.439877271652221680e-01 -7.720006257295608521e-02
2.202987670898437500e-02 -9.565956592559814453e-01 -8.668071590363979340e-03
-8.455552160739898682e-02 -9.716058373451232910e-01 1.153591275215148926e-01
-5.947556346654891968e-02 -9.472675919532775879e-01 -1.152785345911979675e-01
-9.368805587291717529e-02 -9.686661362648010254e-01 1.214485913515090942e-01
-7.729467749595642090e-02 -9.874197244644165039e-01 -6.830094009637832642e-02
-1.605543643236160278e-01 -9.874420166015625000e-01 -6.212959811091423035e-02
-3.371059149503707886e-02 -9.849261045455932617e-01 3.575999289751052856e-04
-1.266200989484786987e-01 -9.885156154632568359e-01 -6.502513587474822998e-02
-1.630942374467849731e-01 -9.765460491180419922e-01 -1.375888288021087646e-01
-1.298819929361343384e-01 -9.650485515594482422e-01 -1.644249856472015381e-01
-7.587879151105880737e-02 -9.399545192718505859e-01 -5.219538137316703796e-02
-1.208801269531250000e-01 -9.886030554771423340e-01 2.520130202174186707e-02
-2.240941226482391357e-01 -9.699431657791137695e-01 -1.100706681609153748e-01
-5.748702585697174072e-02 -9.818794727325439453e-01 6.646687537431716919e-02
-4.942142218351364136e-02 -9.416184425354003906e-01 4.269432276487350464e-03
-2.294109761714935303e-02 -9.821656942367553711e-01 2.320107072591781616e-02
-2.539072036743164062e-01 -9.700214862823486328e-01 -5.129998177289962769e-02
-8.611667156219482422e-02 -9.440141916275024414e-01 6.625384092330932617e-02
-6.053153052926063538e-02 -9.878239035606384277e-01 -2.965861186385154724e-02
-1.688888370990753174e-01 -9.450781345367431641e-01 -1.021235287189483643e-01
-1.211024820804595947e-03 -9.788572788238525391e-01 -5.181435868144035339e-02
-2.556782960891723633e-01 -9.597035646438598633e-01 -5.156855657696723938e-02
-1.454909592866897583e-01 -9.388981461524963379e-01 -6.298287771642208099e-03
-1.973454654216766357e-01 -9.455463886260986328e-01 -7.914164662361145020e-02
-1.142136827111244202e-01 -9.416688680648803711e-01 5.252919346094131470e-02
-1.339707374572753906e-01 -9.890404343605041504e-01 -5.163453146815299988e-02
-9.302155673503875732e-02 -9.894289970397949219e-01 -7.512211799621582031e-03
-9.643700718879699707e-02 -9.420835375785827637e-01 5.350990593433380127e-02
-1.609775573015213013e-01 -9.413047432899475098e-01 -7.080088555812835693e-02
-9.781128168106079102e-02 -9.473918676376342773e-01 8.959507197141647339e-02
-1.197083964943885803e-01 -9.752919077873229980e-01 1.115200370550155640e-01
-1.382773518562316895e-01 -9.889506101608276367e-01 1.243744790554046631e-02
-1.543226987123489380e-01 -9.411847591400146484e-01 3.654551506042480469e-02
2.813754975795745850e-02 -9.658076167106628418e-01 -3.355618193745613098e-02
-1.980285495519638062e-01 -9.828927516937255859e-01 -7.543972134590148926e-02
-1.913410723209381104e-01 -9.428337812423706055e-01 -5.309582874178886414e-02
-1.029399558901786804e-01 -9.384398460388183594e-01 -1.080296654254198074e-02
-1.842913329601287842e-01 -9.510773420333862305e-01 8.754044771194458008e-02
1.193660497665405273e-02 -9.560778737068176270e-01 -7.322903722524642944e-02
-1.215660572052001953e-02 -9.491487741470336914e-01 3.504418954253196716e-02
-5.124644935131072998e-02 -9.869470596313476562e-01 -3.680941462516784668e-02
-2.240144759416580200e-01 -9.751514792442321777e-01 -9.343154728412628174e-02
-8.738483488559722900e-02 -9.474817514419555664e-01 8.754569292068481445e-02
-1.779115647077560425e-01 -9.436599612236022949e-01 -8.292186260223388672e-02
-1.841818988323211670e-01 -9.577665925025939941e-01 1.055099368095397949e-01
-1.483470052480697632e-01 -9.402323961257934570e-01 2.652551978826522827e-02
-2.476617097854614258e-01 -9.576504230499267578e-01 -6.879113614559173584e-02
-1.084788739681243896e-01 -9.775092601776123047e-01 -1.439721584320068359e-01
-1.225569471716880798e-01 -9.879510402679443359e-01 3.516323864459991455e-02
-2.872674167156219482e-02 -9.460160136222839355e-01 3.445347398519515991e-02
-1.798770725727081299e-01 -9.868918657302856445e-01 -4.297637194395065308e-02
-4.627229273319244385e-02 -9.478719234466552734e-01 -1.097954586148262024e-01
1.577383279800415039e-02 -9.690642356872558594e-01 -7.556571066379547119e-02
-1.100299730896949768e-01 -9.891741275787353516e-01 -5.278775095939636230e-02
-1.413551121950149536e-01 -9.883194565773010254e-01 2.378767728805541992e-02
-1.775725185871124268e-02 -9.455329179763793945e-01 -4.324970394372940063e-02
1.491315662860870361e-02 -9.749609827995300293e-01 -3.212705999612808228e-02
-6.742531061172485352e-02 -9.883449077606201172e-01 -1.761431433260440826e-02
-2.595283389091491699e-01 -9.687349200248718262e-01 -1.352741569280624390e-02
-2.000317126512527466e-01 -9.550627470016479492e-01 -1.260363161563873291e-01
-7.929134368896484375e-02 -9.391547441482543945e-01 -2.580576948821544647e-02
-1.671850830316543579e-01 -9.876151680946350098e-01 -5.006707459688186646e-02
-5.504561215639114380e-02 -9.455189108848571777e-01 -1.010703295469284058e-01
-7.775156199932098389e-02 -9.815505743026733398e-01 -1.202768087387084961e-01
-4.743553698062896729e-02 -9.720610976219177246e-01 -1.409329175949096680e-01
-1.769304871559143066e-01 -9.801933169364929199e-01 -1.149773374199867249e-01
-1.813437640666961670e-01 -9.475967884063720703e-01 7.289540767669677734e-02
-1.062307730317115784e-01 -9.872928261756896973e-01 4.269117861986160278e-02
-1.906764805316925049e-01 -9.520643353462219238e-01 -1.237047314643859863e-01
-5.568451061844825745e-02 -9.610987305641174316e-01 1.105290949344635010e-01
-1.655982136726379395e-01 -9.815621376037597656e-01 -1.140187531709671021e-01
-2.549891471862792969e-01 -9.716492295265197754e-01 -4.616630263626575470e-03
-1.203136667609214783e-01 -9.867233633995056152e-01 4.995221644639968872e-02
-1.383933275938034058e-01 -9.430473446846008301e-01 -1.007283106446266174e-01
-4.408538341522216797e-03 -9.752405881881713867e-01 4.633484035730361938e-02
-1.225809678435325623e-01 -9.396154284477233887e-01 2.640879154205322266e-02
-1.282986700534820557e-01 -9.837938547134399414e-01 7.366689294576644897e-02
-2.110305428504943848e-02 -9.520766139030456543e-01 -1.079628840088844299e-01
-2.248999774456024170e-01 -9.488759040832519531e-01 -6.314783543348312378e-02
-2.054916024208068848e-01 -9.481522440910339355e-01 -9.010105580091476440e-02
-2.104005664587020874e-01 -9.837277531623840332e-01 -2.619553916156291962e-02
-2.091640532016754150e-01 -9.776577353477478027e-01 -1.001155599951744080e-01
-1.261210888624191284e-01 -9.703947305679321289e-01 1.214191764593124390e-01
-2.543830871582031250e-01 -9.722498059272766113e-01 -2.228865772485733032e-02
-8.763226866722106934e-02 -9.389103651046752930e-01 -3.400816395878791809e-02
-1.511093676090240479e-01 -9.698050618171691895e-01 -1.568500697612762451e-01
-2.179775089025497437e-01 -9.455972909927368164e-01 -1.834933459758758545e-02
-4.594836384057998657e-02 -9.507853984832763672e-01 8.206854760646820068e-02
-2.280013561248779297e-01 -9.801416993141174316e-01 -4.065550118684768677e-02
-6.221013143658638000e-02 -9.876812100410461426e-01 -4.264557734131813049e-02
-1.773503273725509644e-01 -9.449053406715393066e-01 -9.462314099073410034e-02
-1.298626512289047241e-01 -9.384817481040954590e-01 -6.945562548935413361e-03
-5.971451103687286377e-02 -9.684807062149047852e-01 -1.524948924779891968e-01
-9.174762666225433350e-02 -9.827942252159118652e-01 7.693998515605926514e-02
-1.007325947284698486e-01 -9.403978586196899414e-01 3.576694056391716003e-02
-6.053008139133453369e-03 -9.515595436096191406e-01 -8.477062731981277466e-02
-2.313832938671112061e-02 -9.449127316474914551e-01 6.466099992394447327e-03
-3.134635090827941895e-02 -9.492998719215393066e-01 6.245294958353042603e-02
-5.468925088644027710e-02 -9.830752611160278320e-01 5.576681345701217651e-02
-2.282351553440093994e-01 -9.662466645240783691e-01 7.480613887310028076e-02
-8.271906524896621704e-02 -9.856270551681518555e-01 5.217218399047851562e-02
-5.517694726586341858e-02 -9.545855522155761719e-01 -1.415001004934310913e-01
-3.938773274421691895e-02 -9.832914471626281738e-01 -7.998923957347869873e-02
-2.224624156951904297e-02 -9.806640148162841797e-01 -8.072966337203979492e-02
-5.258218944072723389e-02 -9.409109354019165039e-01 -2.456229180097579956e-02
-1.428274214267730713e-01 -9.411985874176025391e-01 4.281904175877571106e-02
-2.009705305099487305e-01 -9.442549347877502441e-01 2.106126397848129272e-02
-1.084703281521797180e-01 -9.405879378318786621e-01 -7.947947084903717041e-02
-1.732557862997055054e-01 -9.843315482139587402e-01 -8.878947794437408447e-02
-1.410404592752456665e-01 -9.386696219444274902e-01 -2.499390579760074615e-02
-1.421287655830383301e-02 -9.457716941833496094e-01 -1.483030244708061218e-02
-2.348408997058868408e-01 -9.785467386245727539e-01 4.801535978913307190e-03
-8.689409494400024414e-02 -9.397197365760803223e-01 -5.792539566755294800e-02
-5.321431159973144531e-02 -9.855314493179321289e-01 -7.096327096223831177e-02
-1.459126919507980347e-01 -9.413891434669494629e-01 -8.187640458345413208e-02
-3.201512247323989868e-02 -9.547318220138549805e-01 8.505911380052566528e-02
-1.173542439937591553e-02 -9.489439129829406738e-01 -7.545447349548339844e-02
-9.341795742511749268e-02 -9.866892695426940918e-01 4.597567766904830933e-02
-9.335818886756896973e-02 -9.490864276885986328e-01 -1.363482773303985596e-01
-9.731330722570419312e-02 -9.444673657417297363e-01 7.276188582181930542e-02
-1.586101502180099487e-01 -9.729074835777282715e-01 -1.491943001747131348e-01
-1.880457103252410889e-01 -9.674738049507141113e-01 1.070061177015304565e-01
-1.198749840259552002e-01 -9.440915584564208984e-01 7.253102213144302368e-02
-1.477734893560409546e-01 -9.482443928718566895e-01 -1.297695487737655640e-01
-7.681335508823394775e-02 -9.881471395492553711e-01 -5.438824743032455444e-02
-1.950413435697555542e-01 -9.500475525856018066e-01 -1.118366420269012451e-01
-1.856074631214141846e-01 -9.593482017517089844e-01 -1.438340991735458374e-01
-1.131056174635887146e-01 -9.889224767684936523e-01 1.913382112979888916e-02
-1.950440108776092529e-01 -9.606018662452697754e-01 1.028034910559654236e-01
-2.252119630575180054e-01 -9.778301715850830078e-01 4.002468287944793701e-02
-7.620416581630706787e-03 -9.704791903495788574e-01 6.788744777441024780e-02
-1.835587769746780396e-01 -9.415267705917358398e-01 3.829967230558395386e-03
-1.637693941593170166e-01 -9.847313165664672852e-01 -9.221945703029632568e-02
-3.436981141567230225e-02 -9.835687279701232910e-01 2.699743956327438354e-02
-7.696984708309173584e-02 -9.551692008972167969e-01 1.105379760265350342e-01
-3.717516362667083740e-02 -9.515221118927001953e-01 -1.204910948872566223e-01
-2.091612964868545532e-01 -9.559618234634399414e-01 -1.205392479896545410e-01
1.054917275905609131e-02 -9.766110181808471680e-01 -2.216492220759391785e-02
-8.920799195766448975e-02 -9.894072413444519043e-01 -1.966257579624652863e-02
-1.493089795112609863e-01 -9.570482969284057617e-01 1.172284632921218872e-01
-2.356787621974945068e-01 -9.748536348342895508e-01 3.966220095753669739e-02
-1.882847398519515991e-01 -9.856921434402465820e-01 -5.244134366512298584e-02
-1.442458182573318481e-01 -9.877256751060485840e-01 -7.035029679536819458e-02
-1.124702021479606628e-01 -9.495957493782043457e-01 -1.402310729026794434e-01
-1.301055848598480225e-01 -9.883028864860534668e-01 2.861201390624046326e-02
1.058627665042877197e-02 -9.625684022903442383e-01 -9.222759306430816650e-02
-2.232167124748229980e-01 -9.466371536254882812e-01 -2.758377604186534882e-02
-9.171308577060699463e-02 -9.386547207832336426e-01 -2.023953758180141449e-02
-1.218866258859634399e-01 -9.495571851730346680e-01 1.007913500070571899e-01
-9.213245660066604614e-02 -9.785826206207275391e-01 9.781277179718017578e-02
-1.591519713401794434e-01 -9.757012128829956055e-01 1.039148792624473572e-01
-2.104060351848602295e-01 -9.823223352432250977e-01 2.395456656813621521e-02
-1.098919510841369629e-01 -9.864084124565124512e-01 5.273028463125228882e-02
-1.823249757289886475e-01 -9.421898126602172852e-01 -5.842918530106544495e-02
-1.296815276145935059e-01 -9.387077093124389648e-01 3.578608855605125427e-03
-1.506170630455017090e-01 -9.656345844268798828e-01 1.223054826259613037e-01
-2.181853652000427246e-01 -9.545738101005554199e-01 -1.071301922202110291e-01
1.207195222377777100e-02 -9.535657763481140137e-01 -5.530928820371627808e-02
-1.925300359725952148e-01 -9.860625863075256348e-01 -2.161176502704620361e-02
-2.111768126487731934e-01 -9.631460309028625488e-01 9.251883625984191895e-02
3.555789589881896973e-03 -9.781963825225830078e-01 -2.208422869443893433e-03
-1.269634664058685303e-01 -9.895414113998413086e-01 -4.020368307828903198e-02
-2.086085081100463867e-02 -9.664313197135925293e-01 8.754836767911911011e-02
-8.234608173370361328e-02 -9.869179129600524902e-01 3.798920288681983948e-02
-1.250623911619186401e-02 -9.468889236450195312e-01 -5.238019302487373352e-02
-8.168433606624603271e-02 -9.444555044174194336e-01 -1.081885024905204773e-01
-1.192623227834701538e-01 -9.392470121383666992e-01 -5.901572480797767639e-02
-3.507941961288452148e-03 -9.747664332389831543e-01 -9.068582952022552490e-02
-7.909673452377319336e-02 -9.427061676979064941e-01 5.225165188312530518e-02
-1.154807209968566895e-01 -9.897912740707397461e-01 -8.573226630687713623e-03
5.839169025421142578e-03 -9.502900838851928711e-01 -3.391630947589874268e-02
-1.524282544851303101e-01 -9.491284489631652832e-01 9.418577700853347778e-02
-1.136583685874938965e-01 -9.861371517181396484e-01 -9.521310776472091675e-02
-2.397855371236801147e-02 -9.830706119537353516e-01 1.195816323161125183e-02
-8.799958229064941406e-02 -9.525420069694519043e-01 1.070245206356048584e-01
-1.031928211450576782e-01 -9.894863367080688477e-01 -4.105992242693901062e-02
-1.843664944171905518e-01 -9.826782941818237305e-01 -9.315624833106994629e-02
-1.143404617905616760e-01 -9.422480463981628418e-01 -9.728652983903884888e-02
-1.330514401197433472e-01 -9.471082091331481934e-01 8.917178958654403687e-02
-1.146228462457656860e-01 -9.880940914154052734e-01 -7.284256815910339355e-02
-5.270430445671081543e-02 -9.519259929656982422e-01 -1.322986483573913574e-01
-1.493119001388549805e-01 -9.598248600959777832e-01 -1.589879840612411499e-01
-1.530594825744628906e-01 -9.792887568473815918e-01 9.276667237281799316e-02
-1.631522476673126221e-01 -9.396920204162597656e-01 -2.755329385399818420e-02
-1.384044438600540161e-01 -9.483881592750549316e-01 -1.328118145465850830e-01
-2.004326730966567993e-01 -9.746592640876770020e-01 8.470889180898666382e-02
-1.592909842729568481e-01 -9.865138530731201172e-01 -7.668541371822357178e-02
-1.655600965023040771e-01 -9.508481621742248535e-01 9.628033638000488281e-02
-1.719007939100265503e-01 -9.402313232421875000e-01 -1.538073830306529999e-02
-1.721043437719345093e-01 -9.876902699470520020e-01 -3.577023744583129883e-04
-7.551476359367370605e-02 -9.410116076469421387e-01 3.042612969875335693e-02
-2.424868494272232056e-01 -9.536877274513244629e-01 -6.050262227654457092e-02
-2.593204975128173828e-01 -9.596892595291137695e-01 -2.927115187048912048e-02
-2.292713969945907593e-01 -9.477866888046264648e-01 -1.682987250387668610e-02
-2.044512033462524414e-01 -9.838722348213195801e-01 1.297749951481819153e-02
-7.303059101104736328e-05 -9.486166834831237793e-01 -2.341498062014579773e-02
-2.456856667995452881e-01 -9.715704917907714844e-01 -6.931170076131820679e-02
-1.075555384159088135e-02 -9.749881625175476074e-01 -1.003013551235198975e-01
-6.563940644264221191e-02 -9.409309029579162598e-01 1.882967352867126465e-02
-7.563100755214691162e-02 -9.431675076484680176e-01 -9.524521231651306152e-02
-1.076346188783645630e-01 -9.826608896255493164e-01 8.074750006198883057e-02
-9.159152209758758545e-02 -9.893561005592346191e-01 -3.461546450853347778e-02
-2.545178532600402832e-01 -9.715189337730407715e-01 -3.599857538938522339e-02
-2.559808641672134399e-02 -9.468926191329956055e-01 -8.057323098182678223e-02
-2.075814306735992432e-01 -9.440194964408874512e-01 -2.633609808981418610e-02
-1.037730276584625244e-02 -9.801928997039794922e-01 1.867805048823356628e-02
-8.080400526523590088e-03 -9.472022056579589844e-01 -2.804873511195182800e-03
-4.818516969680786133e-02 -9.445725679397583008e-01 -8.727759122848510742e-02
-6.386916339397430420e-02 -9.400362968444824219e-01 -2.472486346960067749e-02
1.471778750419616699e-02 -9.744392633438110352e-01 -4.456331580877304077e-02
-5.460783839225769043e-03 -9.780183434486389160e-01 -7.305370271205902100e-02
-2.095747292041778564e-01 -9.834403991699218750e-01 -4.212670028209686279e-02
-5.062436312437057495e-02 -9.445425868034362793e-01 4.780720919370651245e-02
-1.034162044525146484e-01 -9.554154276847839355e-01 -1.565092056989669800e-01
-2.247778326272964478e-01 -9.478210210800170898e-01 -4.984163865447044373e-02
2.570822834968566895e-03 -9.564616680145263672e-01 4.997947812080383301e-02
-1.394541263580322266e-01 -9.581246972084045410e-01 -1.591522544622421265e-01
-2.439391762018203735e-01 -9.528012871742248535e-01 -4.696065187454223633e-02
-2.286466658115386963e-01 -9.575189948081970215e-01 6.742643564939498901e-02
-8.543376624584197998e-02 -9.543854594230651855e-01 -1.516036689281463623e-01
-5.012764036655426025e-02 -9.658181667327880859e-01 -1.501207351684570312e-01
-1.996570974588394165e-01 -9.445706009864807129e-01 -6.451883167028427124e-02
-2.365520298480987549e-01 -9.503685235977172852e-01 1.027222536504268646e-02
1.360699534416198730e-03 -9.501735568046569824e-01 -5.525064468383789062e-02
-1.400928050279617310e-01 -9.819657802581787109e-01 -1.215771511197090149e-01
-2.185752987861633301e-01 -9.462620019912719727e-01 7.654642686247825623e-03
-1.785622835159301758e-01 -9.873892664909362793e-01 -1.342256832867860794e-02
-1.554435789585113525e-01 -9.507904648780822754e-01 -1.375956386327743530e-01
-2.886378020048141479e-02 -9.615554213523864746e-01 9.416706115007400513e-02
-1.756063252687454224e-01 -9.571715593338012695e-01 -1.459009349346160889e-01
-2.344577908515930176e-01 -9.548693299293518066e-01 5.000833421945571899e-02
-1.646800339221954346e-01 -9.846287369728088379e-01 5.478308349847793579e-02
-1.764604896306991577e-01 -9.527342915534973145e-01 -1.348472535610198975e-01
-1.905626505613327026e-01 -9.418781995773315430e-01 -1.625263318419456482e-02
-7.212363928556442261e-02 -9.793107509613037109e-01 -1.293233335018157959e-01
-4.740336537361145020e-02 -9.856905937194824219e-01 -5.993182584643363953e-02
-2.231014072895050049e-01 -9.466371536254882812e-01 -6.678648293018341064e-03
-1.473952382802963257e-01 -9.424303770065307617e-01 -9.203911572694778442e-02
-2.631804347038269043e-02 -9.801903963088989258e-01 -9.038254618644714355e-02
-1.400459557771682739e-02 -9.798841476440429688e-01 3.039615601301193237e-02
-1.194153130054473877e-01 -9.896087646484375000e-01 7.235463708639144897e-04
-1.726675629615783691e-01 -9.717048406600952148e-01 -1.460129916667938232e-01
-6.823372840881347656e-02 -9.743234515190124512e-01 1.040792688727378845e-01
-6.849823892116546631e-02 -9.741457700729370117e-01 -1.457630991935729980e-01
-1.474611461162567139e-03 -9.491891264915466309e-01 8.024834096431732178e-03
-3.324469923973083496e-02 -9.850478768348693848e-01 -3.621102124452590942e-02
-1.503151804208755493e-01 -9.437052607536315918e-01 -1.017475277185440063e-01
-2.019961178302764893e-01 -9.604373574256896973e-01 -1.342200785875320435e-01
-1.691848039627075195e-01 -9.433315396308898926e-01 -8.734741061925888062e-02
-1.951065361499786377e-01 -9.727643132209777832e-01 9.406530112028121948e-02
-3.891728073358535767e-02 -9.492076635360717773e-01 6.920152157545089722e-02
-1.330558955669403076e-01 -9.524525403976440430e-01 -1.483681052923202515e-01
-2.491988241672515869e-03 -9.797793030738830566e-01 -3.907617181539535522e-02
-1.061049774289131165e-01 -9.737679958343505859e-01 -1.545058190822601318e-01
-1.032758802175521851e-01 -9.384647011756896973e-01 -3.129443153738975525e-02
-1.592993587255477905e-01 -9.465172290802001953e-01 -1.166204512119293213e-01
-1.911616027355194092e-01 -9.795446991920471191e-01 -1.078628078103065491e-01
-6.564415991306304932e-02 -9.866313338279724121e-01 -6.954082101583480835e-02
-1.343492120504379272e-01 -9.722217917442321777e-01 -1.564687192440032959e-01
-6.601852178573608398e-02 -9.811716675758361816e-01 -1.172574684023857117e-01
-8.881273120641708374e-02 -9.724929332733154297e-01 -1.550871580839157104e-01
-5.234938114881515503e-02 -9.782857894897460938e-01 8.233180642127990723e-02
-5.402223020792007446e-02 -9.418348073959350586e-01 1.846066117286682129e-02
-9.080850332975387573e-02 -9.587280154228210449e-01 -1.603154093027114868e-01
-7.856236398220062256e-02 -9.414095282554626465e-01 -7.858254015445709229e-02
-2.233736962080001831e-01 -9.815679788589477539e-01 -1.426584459841251373e-02
1.236863434314727783e-02 -9.747357964515686035e-01 8.356975391507148743e-03
-9.810417890548706055e-02 -9.790405631065368652e-01 -1.372662335634231567e-01
-1.274651885032653809e-01 -9.861785173416137695e-01 -9.383837133646011353e-02
-4.151400178670883179e-02 -9.429531693458557129e-01 1.588480174541473389e-02
-7.208281755447387695e-02 -9.395119547843933105e-01 -1.831595599651336670e-02
-9.194555133581161499e-02 -9.877015352249145508e-01 3.281386941671371460e-02
-1.032607629895210266e-01 -9.841622114181518555e-01 7.045627385377883911e-02
1.551188528537750244e-02 -9.728704094886779785e-01 -5.751153826713562012e-02
-1.577641665935516357e-01 -9.470555782318115234e-01 8.250588178634643555e-02
-1.736356467008590698e-01 -9.407772421836853027e-01 6.624089553952217102e-03
-4.041917622089385986e-03 -9.803237318992614746e-01 -1.186042372137308121e-02
-7.122695446014404297e-02 -9.885241389274597168e-01 -3.008352965116500854e-02
-1.863299608230590820e-01 -9.865583777427673340e-01 -3.311616927385330200e-02
-6.869874894618988037e-02 -9.868640899658203125e-01 2.795815840363502502e-02
-2.155848145484924316e-01 -9.764358401298522949e-01 6.273832172155380249e-02
-6.464882194995880127e-02 -9.425866603851318359e-01 -8.220606297254562378e-02
-1.371491551399230957e-01 -9.896053671836853027e-01 -1.702066883444786072e-02
-1.559851318597793579e-01 -9.887959957122802734e-01 -6.032487377524375916e-03
-2.166735231876373291e-01 -9.707586169242858887e-01 8.078500628471374512e-02
2.047617733478546143e-02 -9.556068778038024902e-01 -3.249371796846389771e-02
-3.394835442304611206e-02 -9.780418872833251953e-01 6.912463903427124023e-02
-1.244828850030899048e-02 -9.759173393249511719e-01 5.510023236274719238e-02
-1.959925293922424316e-01 -9.544925689697265625e-01 9.113557636737823486e-02
-2.212207466363906860e-01 -9.799708724021911621e-01 -6.444116681814193726e-02
-1.568614244461059570e-01 -9.426084160804748535e-01 5.106215924024581909e-02
6.836205720901489258e-03 -9.745445847511291504e-01 -7.141651958227157593e-02
-2.154996991157531738e-02 -9.705484509468078613e-01 -1.254818141460418701e-01
-2.597829997539520264e-01 -9.641088247299194336e-01 7.994748651981353760e-03
-1.927057206630706787e-01 -9.856814742088317871e-01 4.287861287593841553e-03
-1.210827678442001343e-01 -9.610889554023742676e-01 1.250753998756408691e-01
-1.139196828007698059e-01 -9.386770129203796387e-01 -4.504669085144996643e-02
-3.661275655031204224e-02 -9.562055468559265137e-01 -1.344246864318847656e-01
-1.760651767253875732e-01 -9.875305891036987305e-01 -2.966496534645557404e-02
-3.273431956768035889e-02 -9.430544376373291016e-01 -3.080828487873077393e-02
-2.202653437852859497e-01 -9.594344496726989746e-01 8.088146150112152100e-02
-1.357547193765640259e-01 -9.430554509162902832e-01 6.296998262405395508e-02
-1.413555443286895752e-01 -9.391670227050781250e-01 9.422652423381805420e-03
-5.165799707174301147e-02 -9.477692246437072754e-01 7.157524675130844116e-02
-6.381452083587646484e-02 -9.413162469863891602e-01 -6.439352035522460938e-02
-2.362376898527145386e-01 -9.532860517501831055e-01 -7.343465089797973633e-02
-1.749560385942459106e-01 -9.730418324470520020e-01 1.047916114330291748e-01
-2.099695801734924316e-01 -9.511824846267700195e-01 6.664375960826873779e-02
-1.525166332721710205e-01 -9.542273283004760742e-01 -1.487565189599990845e-01
-1.540482491254806519e-01 -9.856832623481750488e-01 -8.920785039663314819e-02
-1.380012929439544678e-02 -9.583252668380737305e-01 7.642500847578048706e-02
-1.871368587017059326e-01 -9.849098920822143555e-01 -6.724238395690917969e-02
-5.160892009735107422e-02 -9.860695004463195801e-01 1.856767013669013977e-02
-1.797124743461608887e-02 -9.734458327293395996e-01 7.168214768171310425e-02
-6.356522440910339355e-03 -9.473832845687866211e-01 -3.452380001544952393e-02
-1.439252644777297974e-01 -9.856744408607482910e-01 5.552729964256286621e-02
2.703823149204254150e-03 -9.518903493881225586e-01 2.547755464911460876e-02
-1.601506620645523071e-01 -9.838051795959472656e-01 -1.020204275846481323e-01
-1.513231843709945679e-01 -9.390373826026916504e-01 -2.254493907094001770e-02
-2.095150947570800781e-02 -9.771219491958618164e-01 5.997604876756668091e-02
-1.602177023887634277e-01 -9.825716614723205566e-01 7.270080596208572388e-02
-9.546443819999694824e-03 -9.800788164138793945e-01 -6.115291640162467957e-02
-4.302917420864105225e-02 -9.859321713447570801e-01 -4.463732242584228516e-02
-1.202085614204406738e-01 -9.871793985366821289e-01 -8.434212952852249146e-02
-1.410225629806518555e-01 -9.695138335227966309e-01 1.210506260395050049e-01
-2.162330597639083862e-01 -9.801581501960754395e-01 3.685582429170608521e-02
-1.195255741477012634e-01 -9.898607730865478516e-01 -2.157691679894924164e-02
-9.444537758827209473e-02 -9.390196800231933594e-01 -4.675380140542984009e-02
-1.802630722522735596e-01 -9.474322199821472168e-01 -1.096642166376113892e-01
-2.294541001319885254e-01 -9.790194630622863770e-01 -5.387483909726142883e-02
-7.097385823726654053e-02 -9.883918166160583496e-01 -4.009829834103584290e-03
-3.035401552915573120e-02 -9.847851991653442383e-01 -1.218903344124555588e-02
-5.283049494028091431e-02 -9.426516294479370117e-01 -7.096773386001586914e-02
-1.550822257995605469e-01 -9.820616841316223145e-01 -1.160746514797210693e-01
-5.940816551446914673e-02 -9.775266051292419434e-01 8.962521702051162720e-02
-2.056103199720382690e-02 -9.448749423027038574e-01 -6.029226817190647125e-03
-1.097918525338172913e-01 -9.760175347328186035e-01 1.091419458389282227e-01
-1.464817225933074951e-01 -9.883612990379333496e-01 -5.806868523359298706e-02
-4.230938851833343506e-02 -9.419639706611633301e-01 -1.036400720477104187e-02
-1.795878112316131592e-01 -9.455047249794006348e-01 6.045558303594589233e-02
-1.384099870920181274e-01 -9.389016032218933105e-01 -4.225641116499900818e-02
-2.344767600297927856e-01 -9.665806889533996582e-01 -1.016380935907363892e-01
-1.890977770090103149e-01 -9.796890020370483398e-01 7.195311039686203003e-02
-1.436030417680740356e-01 -9.890580177307128906e-01 -4.333239421248435974e-02
-2.113503962755203247e-01 -9.834329485893249512e-01 -2.122925594449043274e-03
-4.841388761997222900e-02 -9.414236545562744141e-01 -3.537268936634063721e-02
-1.012291237711906433e-01 -9.854505658149719238e-01 6.007604300975799561e-02
-4.517212510108947754e-02 -9.858388900756835938e-01 1.058792322874069214e-02
-6.838786602020263672e-02 -9.855408668518066406e-01 -8.536779135465621948e-02
-5.668555572628974915e-02 -9.868569374084472656e-01 -5.348432064056396484e-02
-1.458328664302825928e-01 -9.389805197715759277e-01 -3.567878901958465576e-02
-1.211831271648406982e-01 -9.388144612312316895e-01 9.665751829743385315e-03
-3.995152562856674194e-02 -9.859722852706909180e-01 -2.715926058590412140e-02
-1.302700936794281006e-01 -9.895302653312683105e-01 -4.116091877222061157e-04
-9.768702089786529541e-03 -9.815378785133361816e-01 -2.878836914896965027e-02
-2.033162564039230347e-01 -9.845715761184692383e-01 -3.460258990526199341e-02
-1.028866320848464966e-01 -9.506539106369018555e-01 -1.435667574405670166e-01
2.098113298416137695e-03 -9.745493531227111816e-01 -8.181379735469818115e-02
-6.137685850262641907e-02 -9.874325990676879883e-01 6.885593757033348083e-03
-2.014659941196441650e-01 -9.433349967002868652e-01 -1.993615180253982544e-03
-4.499932378530502319e-02 -9.753430485725402832e-01 -1.307062953710556030e-01
-1.355420649051666260e-01 -9.398353695869445801e-01 -6.532180309295654297e-02
-2.697356790304183960e-02 -9.609424471855163574e-01 -1.347039639949798584e-01
-8.936603367328643799e-02 -9.392284750938415527e-01 8.163109421730041504e-03
-2.381117641925811768e-01 -9.634751081466674805e-01 6.237316131591796875e-02
-2.086946666240692139e-01 -9.463354945182800293e-01 -6.953758001327514648e-02
-1.119860410690307617e-01 -9.513916373252868652e-01 1.070866435766220093e-01
1.790557801723480225e-02 -9.574461579322814941e-01 1.909964904189109802e-02
-6.584199517965316772e-02 -9.616253972053527832e-01 1.153052151203155518e-01
-5.718734860420227051e-02 -9.854128360748291016e-01 3.543625026941299438e-02
-8.921419084072113037e-02 -9.864682555198669434e-01 -8.713229000568389893e-02
-2.458403259515762329e-01 -9.523751139640808105e-01 -2.588496170938014984e-02
-2.021697461605072021e-01 -9.812755584716796875e-01 4.837709665298461914e-02
-3.949075937271118164e-02 -9.842924475669860840e-01 -6.825941801071166992e-02
-1.193596571683883667e-01 -9.438005685806274414e-01 -1.096155643463134766e-01
-2.203926295042037964e-01 -9.632676243782043457e-01 -1.197038814425468445e-01
-2.574456632137298584e-01 -9.577052593231201172e-01 -1.736981421709060669e-02
-1.621020138263702393e-01 -9.398279190063476562e-01 -3.841926902532577515e-02
-7.122966647148132324e-02 -9.401581883430480957e-01 1.003530621528625488e-02
-4.916990548372268677e-02 -9.869291782379150391e-01 -1.933271065354347229e-02
2.206546068191528320e-02 -9.626625776290893555e-01 -6.559463590383529663e-02
-3.561097383499145508e-02 -9.710245728492736816e-01 9.338615834712982178e-02
-5.869625508785247803e-02 -9.875669479370117188e-01 -4.736368544399738312e-03
-5.943156033754348755e-02 -9.421480894088745117e-01 3.061342239379882812e-02
2.268972992897033691e-02 -9.702548980712890625e-01 1.371821388602256775e-03
-2.208411842584609985e-01 -9.510701894760131836e-01 -8.783137798309326172e-02
-1.799865514039993286e-01 -9.852188229560852051e-01 3.549524024128913879e-02
-6.582957506179809570e-02 -9.833106994628906250e-01 -1.033287271857261658e-01
-1.168401166796684265e-01 -9.828409552574157715e-01 -1.196804791688919067e-01
-1.536544561386108398e-01 -9.865842461585998535e-01 4.159799963235855103e-02
-2.295403778553009033e-01 -9.738370776176452637e-01 5.561348050832748413e-02
2.428521215915679932e-02 -9.607014060020446777e-01 8.934039622545242310e-03
-1.901286691427230835e-01 -9.862529039382934570e-01 -8.292332291603088379e-03
-1.939208209514617920e-01 -9.726456999778747559e-01 -1.317891478538513184e-01
-3.480303287506103516e-02 -9.430315494537353516e-01 -8.973591029644012451e-04
-4.365535080432891846e-02 -9.421696662902832031e-01 -4.538467898964881897e-02
-1.157484725117683411e-01 -9.382938146591186523e-01 -2.465646713972091675e-02
-1.396516561508178711e-01 -9.860599637031555176e-01 -9.192636609077453613e-02
-9.109154343605041504e-02 -9.884387254714965820e-01 -6.064507365226745605e-02
-1.107582971453666687e-01 -9.461146593093872070e-01 -1.241628378629684448e-01
-1.898005306720733643e-01 -9.851574897766113281e-01 2.235251665115356445e-02
-6.062897667288780212e-02 -9.696196317672729492e-01 1.101279258728027344e-01
-1.591616868972778320e-01 -9.886191487312316895e-01 -3.261117637157440186e-02
-1.438236832618713379e-01 -9.467204809188842773e-01 8.513894677162170410e-02
-1.239140927791595459e-01 -9.739171266555786133e-01 -1.540471017360687256e-01
-2.591113746166229248e-02 -9.778863191604614258e-01 -1.043698415160179138e-01
-1.516956537961959839e-01 -9.438210725784301758e-01 6.407761573791503906e-02
-2.376190423965454102e-01 -9.564112424850463867e-01 -8.557294309139251709e-02
-1.560670137405395508e-02 -9.502052664756774902e-01 4.840396344661712646e-02
-1.355662494897842407e-01 -9.785434603691101074e-01 9.973459690809249878e-02
-1.617452204227447510e-01 -9.402026534080505371e-01 1.271812617778778076e-02
-1.965355873107910156e-01 -9.763089418411254883e-01 -1.184399276971817017e-01
-1.273917406797409058e-01 -9.878435134887695312e-01 -7.508584856986999512e-02
-1.083214581012725830e-02 -9.810307025909423828e-01 -5.050933361053466797e-02
1.204961538314819336e-02 -9.643515348434448242e-01 4.611136019229888916e-02
-1.683037132024765015e-01 -9.439766407012939453e-01 5.646987259387969971e-02
-2.136447131633758545e-01 -9.460356235504150391e-01 1.919373869895935059e-02
-2.103266119956970215e-01 -9.537364244461059570e-01 7.682429254055023193e-02
-1.499845981597900391e-01 -9.835692644119262695e-01 7.020861655473709106e-02
-2.248376905918121338e-01 -9.520596861839294434e-01 5.189927667379379272e-02
-5.186549574136734009e-02 -9.833405613899230957e-01 -9.288156777620315552e-02
-1.564204096794128418e-01 -9.884366989135742188e-01 -4.543693363666534424e-02
-1.063066422939300537e-01 -9.393167495727539062e-01 -5.942693352699279785e-02
-1.248468309640884399e-01 -9.477601051330566406e-01 -1.320372670888900757e-01
-2.289488315582275391e-01 -9.786664247512817383e-01 2.418769150972366333e-02
-4.493576288223266602e-02 -9.567176699638366699e-01 9.891528636217117310e-02
-1.637909412384033203e-01 -9.804012775421142578e-01 8.351828157901763916e-02
-1.946251988410949707e-01 -9.837533831596374512e-01 3.416208177804946899e-02
-2.156917154788970947e-01 -9.472624659538269043e-01 3.047915175557136536e-02
-2.102352529764175415e-01 -9.473108649253845215e-01 4.073990136384963989e-02
2.763889729976654053e-03 -9.494192600250244141e-01 -1.163329090923070908e-02
5.861632525920867920e-03 -9.718847274780273438e-01 4.327765107154846191e-02
-6.219090521335601807e-02 -9.870055317878723145e-01 1.779861375689506531e-02
-1.008250862360000610e-01 -9.387457966804504395e-01 2.862112596631050110e-03
-2.418310344219207764e-01 -9.514653682708740234e-01 -3.720207884907722473e-02
-1.075781062245368958e-01 -9.682227969169616699e-01 1.236868202686309814e-01
-1.624068170785903931e-01 -9.716994762420654297e-01 1.125144362449645996e-01
-9.761715680360794067e-02 -9.409241080284118652e-01 -8.138592541217803955e-02
1.726369559764862061e-02 -9.539811015129089355e-01 -1.761826500296592712e-02
-8.205106854438781738e-02 -9.881619811058044434e-01 1.862644776701927185e-02
-5.307465046644210815e-02 -9.847076535224914551e-01 -8.085326105356216431e-02
-1.198562681674957275e-01 -9.849544167518615723e-01 6.581071019172668457e-02
-6.743065267801284790e-02 -9.838744401931762695e-01 5.874964594841003418e-02
-1.740004867315292358e-01 -9.425403475761413574e-01 3.723483532667160034e-02
-1.116373166441917419e-01 -9.626914262771606445e-01 -1.651723086833953857e-01
-1.830949485301971436e-01 -9.835056662559509277e-01 5.029672384262084961e-02
-2.168698608875274658e-01 -9.818061590194702148e-01 -5.105711892247200012e-02
-9.769722819328308105e-04 -9.597172737121582031e-01 -1.067243441939353943e-01
-1.423414945602416992e-01 -9.765329360961914062e-01 -1.441861838102340698e-01
-1.798688620328903198e-02 -9.508224129676818848e-01 -9.811931103467941284e-02
-1.183326318860054016e-01 -9.468628168106079102e-01 8.892956376075744629e-02
-9.742431342601776123e-02 -9.542729854583740234e-01 1.134355664253234863e-01
1.103824377059936523e-02 -9.522554874420166016e-01 -4.305244982242584229e-02
2.784170210361480713e-03 -9.678448438644409180e-01 -1.023511812090873718e-01
-1.397529691457748413e-01 -9.845930337905883789e-01 6.586514413356781006e-02
