4.384628683328628540e-02 -7.678002864122390747e-02 3.638679534196853638e-02
4.024978727102279663e-03 -7.104027271270751953e-02 9.144065529108047485e-02
-1.852391511201858521e-01 -1.746161133050918579e-01 1.993082612752914429e-01
-1.230025514960289001e-01 -8.376114070415496826e-02 5.665366724133491516e-02
-9.688614308834075928e-02 -2.152513116598129272e-01 -2.342719137668609619e-01
-2.100227028131484985e-02 -7.090237736701965332e-02 1.136094033718109131e-01
-9.457226842641830444e-02 -2.340995073318481445e-01 7.348322868347167969e-02
-1.124814301729202271e-01 -9.743837267160415649e-02 -1.812959909439086914e-01
-1.193992719054222107e-01 -2.275352180004119873e-01 1.214004307985305786e-01
6.514629721641540527e-02 -8.753273636102676392e-02 9.703999012708663940e-02
2.177193760871887207e-02 -7.437956333160400391e-02 -5.558338016271591187e-02
-8.265353739261627197e-03 -2.179188728332519531e-01 -1.696966290473937988e-01
-6.869485974311828613e-02 -2.277036309242248535e-01 1.402253359556198120e-01
-7.332926988601684570e-02 -2.362416237592697144e-01 -6.434429436922073364e-02
3.030034899711608887e-02 -2.151321470737457275e-01 -5.332197248935699463e-02
1.006819307804107666e-01 -1.605396121740341187e-01 -5.727853998541831970e-02
1.372594386339187622e-02 -2.103110253810882568e-01 1.544588357210159302e-01
-3.677607700228691101e-02 -7.354377210140228271e-02 1.436610668897628784e-01
-1.383295059204101562e-01 -2.313831597566604614e-01 -5.653198435902595520e-02
-1.356834471225738525e-01 -2.310159504413604736e-01 4.685005545616149902e-02
4.444734752178192139e-02 -1.067237406969070435e-01 -2.082615494728088379e-01
-7.248263806104660034e-03 -8.029206842184066772e-02 1.925075352191925049e-01
-7.706805318593978882e-02 -7.913212478160858154e-02 -1.120609864592552185e-01
-2.168496996164321899e-01 -1.548251807689666748e-01 -4.514506552368402481e-03
-1.214088797569274902e-01 -2.348249852657318115e-01 -3.422976657748222351e-02
-1.162845790386199951e-01 -2.145826071500778198e-01 -2.255051434040069580e-01
-6.912279129028320312e-02 -1.849937736988067627e-01 -3.153315186500549316e-01
6.005376577377319336e-02 -1.981749534606933594e-01 -8.502261340618133545e-02
1.061612218618392944e-01 -1.365176737308502197e-01 7.820007205009460449e-02
-8.407655358314514160e-02 -2.208567857742309570e-01 -2.118909657001495361e-01
-4.634000360965728760e-04 -2.058630287647247314e-01 -2.217589616775512695e-01
-1.244606971740722656e-01 -1.061704307794570923e-01 2.330962568521499634e-01
-6.955893337726593018e-02 -2.071065902709960938e-01 2.495752573013305664e-01
-1.725336909294128418e-02 -1.927260011434555054e-01 -2.821134328842163086e-01
9.568001329898834229e-02 -1.700980514287948608e-01 4.733218997716903687e-02
1.031855791807174683e-01 -1.490932255983352661e-01 -7.487520575523376465e-02
-2.180989831686019897e-01 -1.742240637540817261e-01 -2.272054366767406464e-02
8.791320025920867920e-03 -1.201712638139724731e-01 3.054036200046539307e-01
-1.213269159197807312e-01 -1.068322509527206421e-01 -2.100180536508560181e-01
-1.075029447674751282e-01 -2.149143368005752563e-01 2.084918618202209473e-01
-8.416326344013214111e-02 -2.036520987749099731e-01 2.603697478771209717e-01
-3.477030247449874878e-02 -2.213541716337203979e-01 1.623825728893280029e-01
-1.591416150331497192e-01 -9.849584847688674927e-02 -1.135546341538429260e-02
9.514696896076202393e-02 -1.722985059022903442e-01 -2.104487270116806030e-02
7.990032434463500977e-02 -1.389966905117034912e-01 2.025011777877807617e-01
-1.425802558660507202e-01 -2.202422022819519043e-01 1.403307914733886719e-01
-2.111131846904754639e-01 -1.429723948240280151e-01 -2.340101823210716248e-02
-1.924785971641540527e-01 -1.537058502435684204e-01 -1.738813668489456177e-01
-1.379960030317306519e-01 -2.321514934301376343e-01 -6.874440703541040421e-03
-1.234159767627716064e-01 -2.143457233905792236e-01 1.983293592929840088e-01
1.022235602140426636e-01 -1.334867030382156372e-01 1.087743192911148071e-01
-1.828434467315673828e-01 -1.332919746637344360e-01 1.771880388259887695e-01
-1.611671447753906250e-01 -2.019383460283279419e-01 -2.096385359764099121e-01
3.671704232692718506e-02 -9.758374840021133423e-02 -1.893614977598190308e-01
5.909357219934463501e-03 -7.088129222393035889e-02 -3.426666185259819031e-02
-3.719539195299148560e-02 -1.446667611598968506e-01 3.415218889713287354e-01
-1.021159738302230835e-01 -1.658535450696945190e-01 3.224007189273834229e-01
7.054163515567779541e-02 -1.937323212623596191e-01 3.859823197126388550e-02
-5.982273072004318237e-02 -7.547342777252197266e-02 1.457414031028747559e-01
-6.126011162996292114e-02 -2.338393628597259521e-01 6.862469762563705444e-02
7.763060927391052246e-02 -1.895802319049835205e-01 -9.791497141122817993e-04
-1.650080457329750061e-02 -7.129791378974914551e-02 -6.806035339832305908e-02
9.626522660255432129e-03 -1.964652836322784424e-01 -2.415906786918640137e-01
1.205948740243911743e-02 -2.135239392518997192e-01 -1.549437046051025391e-01
1.628011465072631836e-02 -7.159370183944702148e-02 -1.879772730171680450e-02
-7.416255772113800049e-02 -2.147826403379440308e-01 2.185875922441482544e-01
-1.439401805400848389e-01 -1.423839181661605835e-01 2.797906100749969482e-01
-4.405220597982406616e-02 -6.861756742000579834e-02 5.240811035037040710e-03
-8.150330185890197754e-02 -9.382091462612152100e-02 -2.031419873237609863e-01
-6.659883260726928711e-02 -2.338839173316955566e-01 -1.037089824676513672e-01
-4.847144708037376404e-02 -2.047143280506134033e-01 -2.692819535732269287e-01
7.690779864788055420e-03 -2.094889879226684570e-01 1.726713180541992188e-01
-1.566323339939117432e-01 -2.061526179313659668e-01 1.864477246999740601e-01
-2.098683565855026245e-01 -1.929024755954742432e-01 -4.190334677696228027e-02
3.337652236223220825e-02 -1.524797081947326660e-01 -2.779292464256286621e-01
-3.877949714660644531e-02 -1.199805140495300293e-01 -2.988226711750030518e-01
2.337113767862319946e-02 -1.243259459733963013e-01 -2.726854979991912842e-01
-1.295406371355056763e-01 -1.049987152218818665e-01 -1.875191181898117065e-01
-1.721959710121154785e-01 -1.054222434759140015e-01 1.537306793034076691e-02
-1.698895543813705444e-01 -2.226487696170806885e-01 -2.684876881539821625e-02
-3.721310198307037354e-02 -1.920170038938522339e-01 -2.965168654918670654e-01
-3.159876912832260132e-02 -8.074218034744262695e-02 -1.564699858427047729e-01
-4.874717816710472107e-02 -1.663405746221542358e-01 3.338004946708679199e-01
-5.854307860136032104e-02 -7.876324653625488281e-02 1.759846955537796021e-01
-1.143776476383209229e-01 -1.198846176266670227e-01 -2.613601982593536377e-01
-1.358676105737686157e-01 -8.806312084197998047e-02 -5.389516707509756088e-03
-4.160246998071670532e-02 -2.152406126260757446e-01 -2.257205247879028320e-01
-2.080498635768890381e-02 -2.256165444850921631e-01 -1.304455697536468506e-01
5.259060114622116089e-02 -1.809530556201934814e-01 2.013966888189315796e-01
-1.412481069564819336e-01 -9.411174058914184570e-02 1.156109347939491272e-01
-1.165041327476501465e-02 -8.297023922204971313e-02 2.103879451751708984e-01
-5.614223703742027283e-02 -1.906915456056594849e-01 -3.052680790424346924e-01
-1.156718283891677856e-01 -1.510942131280899048e-01 -3.075657188892364502e-01
-7.881363481283187866e-02 -7.287520170211791992e-02 -9.550863876938819885e-03
-1.787601411342620850e-01 -2.142520844936370850e-01 -9.947069734334945679e-02
-1.678878813982009888e-01 -1.137380525469779968e-01 -1.267299205064773560e-01
-1.885066479444503784e-01 -1.522764563560485840e-01 1.924373507499694824e-01
-1.780581772327423096e-01 -1.660865992307662964e-01 -2.221857160329818726e-01
-2.107536196708679199e-01 -1.844587326049804688e-01 7.412506639957427979e-02
-1.777760088443756104e-01 -2.125886529684066772e-01 9.571819007396697998e-02
-4.750721156597137451e-02 -2.306906580924987793e-01 -1.233597248792648315e-01
-6.967468559741973877e-02 -1.932406574487686157e-01 2.909074127674102783e-01
-6.627026945352554321e-02 -1.993316560983657837e-01 2.746302187442779541e-01
1.017255932092666626e-01 -1.151244863867759705e-01 -3.098486177623271942e-02
1.053525358438491821e-01 -1.549009829759597778e-01 -2.481661550700664520e-02
-1.060535907745361328e-01 -9.947359561920166016e-02 -2.011639624834060669e-01
-6.847551465034484863e-02 -8.929272741079330444e-02 -1.913245171308517456e-01
6.733525544404983521e-03 -7.565806061029434204e-02 -9.794277697801589966e-02
5.329497903585433960e-02 -1.057076305150985718e-01 -1.894631385803222656e-01
8.021040260791778564e-02 -1.856667846441268921e-01 5.067443847656250000e-02
2.948769181966781616e-02 -1.157193481922149658e-01 2.793602943420410156e-01
-1.018532067537307739e-01 -2.311514317989349365e-01 -1.344546526670455933e-01
-2.152409404516220093e-03 -2.171650081872940063e-01 1.410368084907531738e-01
-1.404563188552856445e-01 -2.174504101276397705e-01 1.610292196273803711e-01
-1.251179277896881104e-01 -2.017899304628372192e-01 -2.593096196651458740e-01
-9.326481074094772339e-02 -2.369021028280258179e-01 1.100803073495626450e-02
-1.303197741508483887e-01 -8.801080286502838135e-02 9.353629499673843384e-02
-9.099586308002471924e-02 -1.089385598897933960e-01 -2.533880770206451416e-01
-1.556401252746582031e-01 -9.687733650207519531e-02 5.099344998598098755e-02
2.358504384756088257e-02 -1.704436689615249634e-01 -2.780278921127319336e-01
7.970820367336273193e-02 -1.018981486558914185e-01 1.356329321861267090e-01
-1.515112519264221191e-01 -9.530808776617050171e-02 -2.690418250858783722e-02
-2.139410376548767090e-01 -1.823783665895462036e-01 -5.973022803664207458e-02
-8.437162637710571289e-02 -7.598379999399185181e-02 1.051282361149787903e-01
-1.676909923553466797e-01 -1.234053820371627808e-01 1.954555213451385498e-01
6.908829510211944580e-02 -1.872430890798568726e-01 -1.220674365758895874e-01
-1.373999267816543579e-01 -1.384586691856384277e-01 -2.703530192375183105e-01
-7.698133587837219238e-02 -2.368121445178985596e-01 1.704330183565616608e-02
-1.726836562156677246e-01 -1.536911576986312866e-01 2.349098175764083862e-01
9.429652988910675049e-02 -1.035942733287811279e-01 9.735477156937122345e-03
-1.795491576194763184e-01 -1.269484460353851318e-01 -1.486006826162338257e-01
-2.125774323940277100e-01 -1.900953650474548340e-01 5.523835774511098862e-03
1.058054715394973755e-01 -1.537224352359771729e-01 3.561244159936904907e-02
-1.221155300736427307e-01 -2.290132939815521240e-01 -1.329898834228515625e-01
6.944317370653152466e-02 -8.642277866601943970e-02 1.539791747927665710e-02
-8.685365319252014160e-02 -2.056075334548950195e-01 -2.704010605812072754e-01
-2.068452909588813782e-02 -6.905563920736312866e-02 -2.992747910320758820e-02
-1.297279000282287598e-01 -9.345288574695587158e-02 1.536814719438552856e-01
-2.068627327680587769e-01 -1.803952455520629883e-01 1.111814603209495544e-01
-9.018859267234802246e-02 -1.273481845855712891e-01 -2.981154322624206543e-01
-1.293898820877075195e-01 -2.062542587518692017e-01 2.248076349496841431e-01
5.789614468812942505e-02 -1.700737625360488892e-01 -2.170213460922241211e-01
6.598491221666336060e-02 -1.761151105165481567e-01 1.802643537521362305e-01
1.932489126920700073e-02 -1.743023842573165894e-01 2.781142592430114746e-01
-9.571111202239990234e-02 -1.967879831790924072e-01 2.767067849636077881e-01
-5.731187015771865845e-02 -1.051817238330841064e-01 2.931218743324279785e-01
3.653895854949951172e-02 -1.868607997894287109e-01 2.177494168281555176e-01
-4.955698177218437195e-02 -8.435422927141189575e-02 2.174899876117706299e-01
-1.311639547348022461e-01 -9.931766986846923828e-02 1.881807297468185425e-01
-3.719901293516159058e-02 -2.191224098205566406e-01 1.793189793825149536e-01
-1.128819659352302551e-01 -8.273382484912872314e-02 1.018810197710990906e-01
6.169666349887847900e-02 -1.496747881174087524e-01 2.423032820224761963e-01
-7.002422213554382324e-02 -8.310016989707946777e-02 -1.527161002159118652e-01
-8.006031811237335205e-02 -8.652085065841674805e-02 2.058330923318862915e-01
-7.168216258287429810e-02 -1.560397446155548096e-01 3.394895792007446289e-01
3.480048477649688721e-02 -9.246724098920822144e-02 -1.703460365533828735e-01
-1.983908712863922119e-01 -1.259519457817077637e-01 -5.963609088212251663e-03
5.253982543945312500e-02 -9.052671492099761963e-02 1.653811931610107422e-01
-4.984544962644577026e-02 -2.340805530548095703e-01 -7.539492100477218628e-02
-1.764941513538360596e-01 -1.084465682506561279e-01 3.806424140930175781e-02
-5.445962026715278625e-02 -2.109655439853668213e-01 2.312618643045425415e-01
-1.049218326807022095e-02 -2.229566276073455811e-01 1.085780188441276550e-01
-1.223622784018516541e-01 -1.117673963308334351e-01 2.551910877227783203e-01
-1.813022941350936890e-01 -1.878851652145385742e-01 -1.977209448814392090e-01
-1.598608195781707764e-01 -2.130930870771408081e-01 -1.692554354667663574e-01
5.807723850011825562e-02 -2.025554478168487549e-01 4.824710078537464142e-03
-4.091690853238105774e-02 -1.691330671310424805e-01 -3.279763162136077881e-01
-1.739995479583740234e-01 -2.114457190036773682e-01 1.178120002150535583e-01
-7.231850177049636841e-02 -1.219625920057296753e-01 -2.971766293048858643e-01
-2.108076810836791992e-01 -1.844138503074645996e-01 -8.222348988056182861e-02
1.908561587333679199e-02 -7.387490570545196533e-02 1.037730649113655090e-01
-1.300247386097908020e-02 -1.687238216400146484e-01 -3.154300749301910400e-01
-1.998789310455322266e-01 -1.320449262857437134e-01 -6.686874479055404663e-02
4.793097078800201416e-02 -2.020156830549240112e-01 1.041648238897323608e-01
6.171494722366333008e-02 -1.038798466324806213e-01 -1.651434600353240967e-01
-9.709777683019638062e-02 -8.642319589853286743e-02 1.804026216268539429e-01
2.096106112003326416e-02 -2.194524705410003662e-01 -1.693582348525524139e-02
-1.869204044342041016e-01 -1.165048182010650635e-01 5.073468014597892761e-02
-2.536780200898647308e-02 -2.064128816127777100e-01 -2.488166093826293945e-01
-5.064081400632858276e-02 -2.145102024078369141e-01 2.136313170194625854e-01
-9.168423712253570557e-03 -9.407584369182586670e-02 -2.193299084901809692e-01
-1.098021715879440308e-01 -1.951496750116348267e-01 -2.857833206653594971e-01
-1.534073203802108765e-01 -2.268250584602355957e-01 4.431614279747009277e-02
-1.975440084934234619e-01 -1.377490758895874023e-01 1.282331645488739014e-01
-1.365928724408149719e-02 -2.284713238477706909e-01 -6.373976916074752808e-02
-2.170927822589874268e-01 -1.748331189155578613e-01 -4.277662932872772217e-02
1.084587723016738892e-01 -1.372745186090469360e-01 -3.011724539101123810e-02
1.772420853376388550e-02 -2.160107493400573730e-01 9.418587386608123779e-02
-2.152207642793655396e-01 -1.615221798419952393e-01 -6.514969468116760254e-02
-3.492187708616256714e-02 -1.025068461894989014e-01 2.893267571926116943e-01
8.138880133628845215e-02 -1.776372194290161133e-01 1.105561032891273499e-01
7.533494383096694946e-03 -1.088356450200080872e-01 2.878688871860504150e-01
-8.045104146003723145e-02 -7.544150948524475098e-02 -6.143800541758537292e-02
8.019097149372100830e-03 -1.380748897790908813e-01 -3.015658855438232422e-01
-9.891614317893981934e-02 -1.053578704595565796e-01 -2.338633388280868530e-01
4.438446462154388428e-02 -2.000731229782104492e-01 1.338940858840942383e-01
-8.340150862932205200e-02 -1.720703989267349243e-01 3.251497745513916016e-01
-1.341224908828735352e-01 -1.517309546470642090e-01 2.979317307472229004e-01
-7.369475066661834717e-02 -7.280727475881576538e-02 -3.224263712763786316e-02
-3.635612875223159790e-02 -2.017955482006072998e-01 2.573852837085723877e-01
1.015489399433135986e-01 -1.575289517641067505e-01 7.237490266561508179e-02
-1.547668576240539551e-01 -9.975097328424453735e-02 -7.283230125904083252e-02
-1.520079672336578369e-01 -9.697312116622924805e-02 -5.380012094974517822e-02
3.092423081398010254e-02 -7.452904433012008667e-02 7.370020449161529541e-02
2.088951319456100464e-02 -1.842209994792938232e-01 2.529854476451873779e-01
-1.675255149602890015e-01 -1.040588468313217163e-01 -3.684785962104797363e-02
-7.043659687042236328e-02 -2.270951122045516968e-01 -1.729170680046081543e-01
-9.090735018253326416e-02 -1.171289980411529541e-01 3.023163974285125732e-01
4.162827134132385254e-02 -8.525590598583221436e-02 -1.159437373280525208e-01
-1.022148728370666504e-01 -7.816907763481140137e-02 6.968979537487030029e-02
-9.232449531555175781e-02 -7.519997656345367432e-02 2.643992658704519272e-03
-7.556895911693572998e-02 -2.355029881000518799e-01 5.140393972396850586e-02
4.358878731727600098e-02 -2.098189741373062134e-01 1.845009252429008484e-02
2.045568823814392090e-02 -2.193620204925537109e-01 -3.741687908768653870e-02
1.629438251256942749e-02 -7.084660232067108154e-02 1.674037799239158630e-02
-2.103716135025024414e-01 -1.551132351160049438e-01 9.853707998991012573e-02
-1.871128976345062256e-01 -1.550561487674713135e-01 -1.923948377370834351e-01
4.973676800727844238e-02 -8.020050078630447388e-02 -3.646499663591384888e-02
-1.697041243314743042e-01 -2.017686516046524048e-01 -1.921227574348449707e-01
7.413153350353240967e-02 -9.143687784671783447e-02 -4.523995518684387207e-02
-7.000751793384552002e-02 -7.170175015926361084e-02 6.494254618883132935e-02
-2.212166786193847656e-02 -1.928495168685913086e-01 2.756743729114532471e-01
-1.853331029415130615e-01 -1.185485795140266418e-01 9.353691339492797852e-02
5.688444525003433228e-02 -1.825490295886993408e-01 -1.880108565092086792e-01
1.575478911399841309e-02 -2.143136262893676758e-01 -1.380156278610229492e-01
-1.438663899898529053e-01 -1.164792031049728394e-01 -2.059824764728546143e-01
8.815053105354309082e-02 -9.821436554193496704e-02 3.299311175942420959e-02
6.687678396701812744e-04 -9.176884591579437256e-02 -2.042298913002014160e-01
8.769470453262329102e-02 -1.274634450674057007e-01 1.732823252677917480e-01
-6.278485059738159180e-02 -1.032440364360809326e-01 -2.526078522205352783e-01
-2.169357836246490479e-01 -1.773100495338439941e-01 3.230250626802444458e-02
-2.145855575799942017e-01 -1.506668329238891602e-01 3.872115537524223328e-02
3.716751933097839355e-02 -1.119295656681060791e-01 -2.328069955110549927e-01
-1.473725587129592896e-02 -9.991851449012756348e-02 -2.428972125053405762e-01
2.844966948032379150e-03 -2.248727381229400635e-01 -4.345283284783363342e-02
-1.608843207359313965e-01 -2.100243270397186279e-01 1.610242575407028198e-01
-9.529031813144683838e-04 -1.895845532417297363e-01 -2.739165127277374268e-01
-1.730885505676269531e-01 -1.069558858871459961e-01 5.797605589032173157e-02
-7.629273831844329834e-02 -9.224539250135421753e-02 2.386085391044616699e-01
-2.820277772843837738e-02 -2.072178423404693604e-01 2.312915325164794922e-01
5.152355879545211792e-03 -1.859336793422698975e-01 2.689504027366638184e-01
4.236107319593429565e-02 -1.353128403425216675e-01 2.799901366233825684e-01
-1.156907975673675537e-01 -2.324956357479095459e-01 7.333385944366455078e-02
-8.557754755020141602e-02 -7.470605522394180298e-02 7.589615136384963989e-02
-9.284110367298126221e-02 -9.922021627426147461e-02 -2.161938995122909546e-01
-3.840561211109161377e-02 -1.503406465053558350e-01 -3.307324349880218506e-01
-2.064401954412460327e-01 -1.815033853054046631e-01 -1.178422793745994568e-01
7.404311001300811768e-02 -1.376897841691970825e-01 -2.003506273031234741e-01
-2.058750689029693604e-01 -1.369711160659790039e-01 6.015148386359214783e-02
7.906448841094970703e-02 -9.743066877126693726e-02 -7.357398420572280884e-02
4.079680889844894409e-02 -1.990876793861389160e-01 1.521601825952529907e-01
6.075251847505569458e-02 -1.652178317308425903e-01 2.230671048164367676e-01
9.311179816722869873e-02 -1.118244081735610962e-01 1.146895810961723328e-01
4.571632295846939087e-02 -1.683604717254638672e-01 -2.456119954586029053e-01
-1.743952333927154541e-01 -1.721615493297576904e-01 2.276970744132995605e-01
-1.371083855628967285e-01 -2.139642387628555298e-01 1.840414404869079590e-01
-1.644949913024902344e-01 -1.571633815765380859e-01 -2.472039461135864258e-01
6.976936012506484985e-02 -1.789346039295196533e-01 -1.586790084838867188e-01
2.229776978492736816e-02 -2.184008210897445679e-01 2.662235870957374573e-02
-1.705778837203979492e-01 -1.332626640796661377e-01 2.141275107860565186e-01
-8.599148690700531006e-02 -1.138116121292114258e-01 -2.712101042270660400e-01
-4.274405539035797119e-03 -7.290638238191604614e-02 -8.018962293863296509e-02
-1.380968689918518066e-01 -1.004035323858261108e-01 -1.426437944173812866e-01
2.699896693229675293e-02 -2.147098481655120850e-01 6.672992557287216187e-02
6.054616719484329224e-02 -2.011492103338241577e-01 -1.482800394296646118e-02
-1.363945305347442627e-01 -2.293693125247955322e-01 -9.999962896108627319e-02
5.346339941024780273e-02 -2.008458673954010010e-01 8.647484332323074341e-02
4.267275333404541016e-03 -6.965295970439910889e-02 5.458082631230354309e-02
-5.222696438431739807e-02 -2.240349650382995605e-01 1.593014597892761230e-01
-1.175884231925010681e-01 -2.041673064231872559e-01 2.426398545503616333e-01
4.121302813291549683e-02 -2.112599909305572510e-01 -9.529603645205497742e-03
-1.324882805347442627e-01 -2.223030328750610352e-01 -1.691195219755172729e-01
-1.613597869873046875e-01 -1.040051952004432678e-01 1.132684201002120972e-01
-1.608678698539733887e-02 -1.483531892299652100e-01 -3.223147690296173096e-01
-2.932452596724033356e-02 -2.310896813869476318e-01 4.782991483807563782e-02
-2.049596160650253296e-01 -1.337709724903106689e-01 3.537947684526443481e-02
4.153594374656677246e-03 -2.234594523906707764e-01 -7.205270230770111084e-02
2.437375485897064209e-03 -2.223724573850631714e-01 -9.873951971530914307e-02
9.134146571159362793e-02 -1.521295309066772461e-01 -1.394140124320983887e-01
-1.667856425046920776e-02 -8.952081203460693359e-02 -2.027079164981842041e-01
-1.442979574203491211e-01 -9.286391735076904297e-02 8.021901547908782959e-02
-1.240511760115623474e-01 -1.676994860172271729e-01 3.045670688152313232e-01
9.989388287067413330e-02 -1.106892675161361694e-01 -1.061005890369415283e-02
-1.598395556211471558e-01 -2.260626256465911865e-01 -4.151548817753791809e-02
2.581056952476501465e-02 -2.146819084882736206e-01 -9.374093264341354370e-02
1.052626222372055054e-02 -1.989507377147674561e-01 2.192863374948501587e-01
-8.881501853466033936e-02 -2.302647829055786133e-01 1.195032671093940735e-01
-1.221983879804611206e-01 -1.431480348110198975e-01 3.076030611991882324e-01
9.025244414806365967e-02 -1.021928042173385620e-01 -3.668554499745368958e-02
-8.924350142478942871e-02 -1.065000742673873901e-01 2.783225774765014648e-01
5.976483225822448730e-03 -7.379268109798431396e-02 1.274093985557556152e-01
2.568176761269569397e-02 -1.883873641490936279e-01 -3.691770136356353760e-02
9.256874024868011475e-02 -1.266576349735260010e-01 -2.529357671737670898e-01
1.607961803674697876e-01 -1.351677924394607544e-01 2.254285216331481934e-01
1.212150007486343384e-01 -1.647015959024429321e-01 6.264866143465042114e-02
6.829706579446792603e-02 -4.939305782318115234e-02 -9.076314419507980347e-02
1.373605430126190186e-01 -1.383768618106842041e-01 2.619307935237884521e-01
-3.221832215785980225e-02 -1.295302212238311768e-01 1.080592051148414612e-01
7.722562551498413086e-02 -4.825770854949951172e-02 -3.817839920520782471e-02
1.504396796226501465e-01 -1.306724846363067627e-01 2.633655071258544922e-01
2.809213846921920776e-02 -9.905284643173217773e-02 -3.307985067367553711e-01
7.743372768163681030e-02 -9.154421836137771606e-02 2.354867160320281982e-01
1.102441102266311646e-01 -5.642189830541610718e-02 -2.003163397312164307e-01
2.542592957615852356e-02 -1.858233511447906494e-01 -8.195459842681884766e-02
8.535504341125488281e-02 -1.666548997163772583e-01 -1.041261181235313416e-01
7.585114240646362305e-02 -6.814637780189514160e-02 1.470028460025787354e-01
6.933570653200149536e-02 -6.088884547352790833e-02 -2.346970140933990479e-01
7.937335968017578125e-02 -4.726050794124603271e-02 -8.041538298130035400e-02
5.167849361896514893e-02 -8.298961073160171509e-02 -3.060716390609741211e-01
-7.807146012783050537e-02 -1.292213499546051025e-01 -1.447794139385223389e-01
1.986944824457168579e-01 -6.478348374366760254e-02 -3.303769975900650024e-03
-6.087519973516464233e-02 -1.203053072094917297e-01 -3.147281706333160400e-02
-4.245989024639129639e-02 -9.690371155738830566e-02 -2.185868322849273682e-01
-4.518606513738632202e-02 -1.860952675342559814e-01 -5.086521431803703308e-02
9.144800901412963867e-02 -5.454970896244049072e-02 8.765653520822525024e-02
-8.441917598247528076e-03 -7.495212554931640625e-02 -1.252850294113159180e-01
-7.789073884487152100e-02 -1.307425051927566528e-01 -1.158898472785949707e-01
-7.584089040756225586e-02 -1.680057644844055176e-01 -6.944388151168823242e-02
2.013777345418930054e-01 -7.779143750667572021e-02 1.777457594871520996e-01
1.889753192663192749e-01 -1.081098988652229309e-01 -2.722784876823425293e-02
1.019910275936126709e-01 -6.721299886703491211e-02 -2.447513639926910400e-01
1.318074166774749756e-01 -1.321464478969573975e-01 -1.520832777023315430e-01
1.616351902484893799e-01 -1.070347130298614502e-01 -1.377722024917602539e-01
-6.716029345989227295e-02 -1.312413662672042847e-01 -2.278398908674716949e-02
-7.442784309387207031e-02 -1.251017004251480103e-01 -1.914150416851043701e-01
3.374141082167625427e-02 -1.476555764675140381e-01 -2.807454466819763184e-01
3.746460378170013428e-02 -1.698812097311019897e-01 -1.886052191257476807e-01
1.019982621073722839e-02 -1.737479716539382935e-01 -2.014998197555541992e-01
1.409611105918884277e-01 -1.273371726274490356e-01 2.808475196361541748e-01
-5.292405933141708374e-02 -1.276856660842895508e-01 3.403003141283988953e-02
8.256879448890686035e-02 -1.734868586063385010e-01 1.626585423946380615e-01
-5.507232248783111572e-02 -1.053313463926315308e-01 -2.053095102310180664e-01
7.891806960105895996e-02 -1.411498785018920898e-01 -2.387842833995819092e-01
8.707579225301742554e-03 -9.694982320070266724e-02 1.288818418979644775e-01
2.021113336086273193e-01 -6.412355601787567139e-02 1.021248549222946167e-01
1.996301710605621338e-01 -1.071585938334465027e-01 4.262679815292358398e-02
-6.308555603027343750e-02 -1.154628768563270569e-01 -7.784520089626312256e-02
1.388325393199920654e-01 -1.428389251232147217e-01 -7.973935455083847046e-02
6.942686438560485840e-02 -9.289387613534927368e-02 -3.084904551506042480e-01
1.818805336952209473e-01 -5.400206148624420166e-02 -3.357244282960891724e-02
3.369938582181930542e-02 -1.598311960697174072e-01 2.239866852760314941e-01
6.658651679754257202e-02 -1.667767018079757690e-01 -1.519570946693420410e-01
-5.714546889066696167e-02 -1.806879937648773193e-01 -1.272958815097808838e-01
1.058031544089317322e-01 -1.680841147899627686e-01 1.549630463123321533e-01
1.460978984832763672e-01 -1.464137285947799683e-01 2.088037133216857910e-01
9.019678831100463867e-02 -1.752213835716247559e-01 2.005198597908020020e-02
1.172108203172683716e-02 -1.586737930774688721e-01 -2.661393880844116211e-01
-7.625843584537506104e-02 -1.635049134492874146e-01 -5.089119076728820801e-02
1.929002553224563599e-01 -1.080516129732131958e-01 -4.620837047696113586e-03
5.567120760679244995e-02 -1.819710433483123779e-01 -4.588936641812324524e-02
5.406137183308601379e-02 -1.846987903118133545e-01 7.060265541076660156e-02
9.947573393583297729e-02 -1.721725612878799438e-01 1.188158318400382996e-01
2.017980515956878662e-01 -9.494908899068832397e-02 5.417648702859878540e-03
1.978334188461303711e-01 -9.155216068029403687e-02 -2.658372744917869568e-02
1.614074558019638062e-01 -1.424611359834671021e-01 1.674028933048248291e-01
1.612013876438140869e-01 -1.263864040374755859e-01 -7.753288745880126953e-02
9.096938371658325195e-02 -1.598595082759857178e-01 -1.336658000946044922e-01
5.860705673694610596e-02 -7.988338172435760498e-02 1.702558398246765137e-01
9.325260668992996216e-02 -4.580935090780258179e-02 -1.037916317582130432e-01
1.072540730237960815e-01 -1.249321848154067993e-01 2.938818931579589844e-01
-6.289854645729064941e-03 -8.680375665426254272e-02 -2.820257842540740967e-01
5.559403076767921448e-02 -9.299935400485992432e-02 2.097348868846893311e-01
1.611400395631790161e-03 -7.064829766750335693e-02 -1.058864519000053406e-01
8.871947973966598511e-02 -1.764422357082366943e-01 5.075691640377044678e-02
-3.034532070159912109e-03 -1.834352463483810425e-01 -1.467429697513580322e-01
1.006167754530906677e-01 -1.692986339330673218e-01 -1.883164420723915100e-02
1.691689491271972656e-01 -5.033099651336669922e-02 9.682838618755340576e-02
7.023611664772033691e-02 -8.060692995786666870e-02 -2.949731647968292236e-01
-5.297193676233291626e-02 -1.123635917901992798e-01 -2.637436091899871826e-01
1.455007195472717285e-01 -4.548832029104232788e-02 -7.727576792240142822e-02
1.867749094963073730e-01 -5.808710306882858276e-02 1.289243996143341064e-01
8.645166456699371338e-02 -5.076005309820175171e-02 -1.698623597621917725e-01
1.633192598819732666e-01 -8.693057298660278320e-02 -1.576664745807647705e-01
3.723280876874923706e-02 -6.578762084245681763e-02 3.799411654472351074e-02
-3.288107365369796753e-02 -1.659912168979644775e-01 1.110828742384910583e-01
4.998822510242462158e-02 -1.158577203750610352e-01 -3.206990063190460205e-01
1.843483150005340576e-01 -5.154939740896224976e-02 2.921008691191673279e-02
-4.600265622138977051e-02 -1.158485561609268188e-01 2.314094081521034241e-02
1.963044404983520508e-01 -1.032191142439842224e-01 2.059405744075775146e-01
-5.141828209161758423e-02 -1.007257252931594849e-01 -1.656295955181121826e-01
-7.398457825183868408e-02 -1.390889734029769897e-01 -4.065515846014022827e-02
-7.972793281078338623e-02 -1.397406011819839478e-01 -8.480495214462280273e-02
3.391475230455398560e-02 -1.023528128862380981e-01 1.986096501350402832e-01
1.691798567771911621e-01 -1.288494616746902466e-01 -2.811902761459350586e-02
1.450017392635345459e-01 -9.402681887149810791e-02 2.770191729068756104e-01
-2.723937481641769409e-02 -9.094934165477752686e-02 -3.372368589043617249e-02
-2.014070749282836914e-03 -1.771279573440551758e-01 1.370984613895416260e-01
-5.614808946847915649e-02 -1.701571941375732422e-01 -2.136675119400024414e-01
-1.037791371345520020e-04 -1.904675513505935669e-01 2.121232822537422180e-02
1.922621876001358032e-01 -1.205336600542068481e-01 1.212500110268592834e-01
1.572508066892623901e-01 -9.257677942514419556e-02 -1.703945994377136230e-01
1.900515258312225342e-01 -7.527080923318862915e-02 -7.006679475307464600e-02
5.723819136619567871e-03 -1.268756389617919922e-01 1.924973428249359131e-01
-4.077172279357910156e-02 -1.829671561717987061e-01 -1.458534002304077148e-01
-7.043416798114776611e-02 -1.747961342334747314e-01 -1.157977432012557983e-01
2.011075317859649658e-01 -7.242017239332199097e-02 1.615987718105316162e-01
4.029221832752227783e-03 -1.859606802463531494e-01 -1.154654473066329956e-01
1.997779756784439087e-01 -1.100358590483665466e-01 6.927718967199325562e-02
-1.730038970708847046e-02 -8.866298198699951172e-02 -2.666835784912109375e-01
-3.469082713127136230e-02 -1.072520092129707336e-01 3.331103548407554626e-02
1.090439707040786743e-01 -1.450956165790557861e-01 2.698636353015899658e-01
1.972205936908721924e-02 -8.879862725734710693e-02 -3.145026862621307373e-01
1.294371187686920166e-01 -4.507369548082351685e-02 -9.928485751152038574e-02
1.409932971000671387e-01 -4.418137669563293457e-02 3.524070978164672852e-02
4.125470295548439026e-02 -6.237719953060150146e-02 -2.200894951820373535e-01
1.710880696773529053e-01 -1.324344873428344727e-01 9.502829983830451965e-03
-3.375652432441711426e-02 -8.871151506900787354e-02 -1.308852136135101318e-01
-7.149457931518554688e-02 -1.513236314058303833e-01 -9.284384548664093018e-03
1.415107026696205139e-02 -1.655696928501129150e-01 -2.377217113971710205e-01
1.327313482761383057e-01 -6.260976195335388184e-02 1.844818294048309326e-01
8.337118476629257202e-02 -1.768769323825836182e-01 1.145411357283592224e-01
-4.301688820123672485e-02 -1.599988788366317749e-01 9.325402975082397461e-02
1.003645136952400208e-01 -4.941404610872268677e-02 5.640618503093719482e-02
-2.241825312376022339e-02 -1.184080913662910461e-01 1.120695248246192932e-01
1.352615654468536377e-01 -4.285562038421630859e-02 -4.073985666036605835e-02
1.378175914287567139e-01 -4.323548078536987305e-02 1.085204258561134338e-02
4.440490528941154480e-02 -5.895757675170898438e-02 -6.063895300030708313e-03
1.631314605474472046e-01 -1.433720588684082031e-01 1.237272694706916809e-01
1.522475108504295349e-02 -1.903365105390548706e-01 5.793659016489982605e-03
1.243390738964080811e-01 -1.266595721244812012e-01 -1.890304684638977051e-01
1.978642940521240234e-01 -5.934301018714904785e-02 7.614197582006454468e-02
-3.696271777153015137e-02 -9.559370577335357666e-02 -5.307619646191596985e-02
1.838900893926620483e-01 -5.285143852233886719e-02 8.351920545101165771e-02
1.426180750131607056e-01 -5.734099820256233215e-02 1.606519222259521484e-01
1.945926547050476074e-01 -9.251191467046737671e-02 -4.174400866031646729e-02
1.221991330385208130e-01 -4.590568691492080688e-02 5.018466711044311523e-02
7.525563240051269531e-02 -7.339149713516235352e-02 1.709988415241241455e-01
-1.916830241680145264e-02 -1.672109514474868774e-01 1.382375657558441162e-01
2.015817612409591675e-01 -1.082189530134201050e-01 1.460834443569183350e-01
1.311824321746826172e-01 -7.272546738386154175e-02 -2.183838486671447754e-01
3.663979843258857727e-02 -6.821797788143157959e-02 -2.528851628303527832e-01
1.339690089225769043e-01 -5.105013400316238403e-02 1.138328388333320618e-01
-8.260910212993621826e-02 -1.435578465461730957e-01 -1.825759708881378174e-01
-6.771810352802276611e-03 -1.199088320136070251e-01 1.553010940551757812e-01
7.065530866384506226e-02 -1.609362065792083740e-01 -1.758864521980285645e-01
3.044193238019943237e-02 -1.603093147277832031e-01 -2.424989044666290283e-01
1.266250163316726685e-01 -8.046327531337738037e-02 -2.338288724422454834e-01
6.406971812248229980e-02 -5.244172364473342896e-02 -1.420558802783489227e-02
9.840086847543716431e-02 -5.854668840765953064e-02 -2.181397676467895508e-01
1.325735747814178467e-01 -8.158171176910400391e-02 2.518560290336608887e-01
1.275961995124816895e-01 -1.538988202810287476e-01 -4.897553473711013794e-02
1.122789978981018066e-01 -1.630221605300903320e-01 -3.468761593103408813e-02
1.774233728647232056e-01 -6.640612334012985229e-02 -1.029928550124168396e-01
-5.290166288614273071e-02 -1.064969524741172791e-01 -6.983247399330139160e-02
1.029956340789794922e-01 -1.588612049818038940e-01 2.287795841693878174e-01
-2.229439467191696167e-02 -8.322089165449142456e-02 -1.952439248561859131e-01
1.188401728868484497e-01 -4.288327693939208984e-02 -4.617983847856521606e-02
5.710478872060775757e-02 -1.447754055261611938e-01 -2.614190280437469482e-01
1.470690220594406128e-01 -1.492193341255187988e-01 1.344139128923416138e-02
1.865018531680107117e-02 -1.681196242570877075e-01 1.912167370319366455e-01
9.510207921266555786e-03 -9.596352279186248779e-02 -3.237361311912536621e-01
-7.374837994575500488e-02 -1.226568594574928284e-01 -1.601922512054443359e-01
1.504097580909729004e-01 -7.374632358551025391e-02 -1.837449967861175537e-01
1.075722724199295044e-01 -1.634335964918136597e-01 -5.191383510828018188e-02
5.250985920429229736e-02 -5.892300605773925781e-02 -2.091349363327026367e-01
-1.663427054882049561e-02 -9.831687062978744507e-02 5.961389094591140747e-02
-4.414279758930206299e-02 -1.200667917728424072e-01 -3.036024868488311768e-01
2.898453921079635620e-02 -1.741456240415573120e-01 1.792972683906555176e-01
1.661287844181060791e-01 -1.412084251642227173e-01 8.359103649854660034e-02
9.635360538959503174e-02 -1.345610022544860840e-01 -2.265558540821075439e-01
6.490955501794815063e-02 -1.594070494174957275e-01 -1.947165727615356445e-01
1.806762516498565674e-01 -1.205049380660057068e-01 -1.439316011965274811e-02
-1.012405008077621460e-02 -1.824686229228973389e-01 9.865865856409072876e-02
1.434639990329742432e-01 -7.792977243661880493e-02 -2.017504870891571045e-01
1.371725499629974365e-01 -1.529555320739746094e-01 -8.658721111714839935e-03
-6.504812836647033691e-02 -1.222791522741317749e-01 -4.784416034817695618e-02
2.898513525724411011e-02 -6.129331886768341064e-02 -5.738228559494018555e-02
1.395272091031074524e-02 -1.883575320243835449e-01 -6.825693696737289429e-02
1.515184640884399414e-01 -9.210903942584991455e-02 -1.848519742488861084e-01
3.942770883440971375e-02 -1.677264273166656494e-01 2.084580063819885254e-01
-3.404171019792556763e-02 -1.251931488513946533e-01 -3.205590546131134033e-01
7.786324620246887207e-02 -9.799309074878692627e-02 2.508257925510406494e-01
1.217463985085487366e-01 -1.643822342157363892e-01 1.152365580201148987e-01
1.240465119481086731e-01 -4.458329826593399048e-02 3.189858794212341309e-02
3.591274470090866089e-02 -1.259591281414031982e-01 2.402717173099517822e-01
7.174237817525863647e-02 -4.966513812541961670e-02 -1.304793357849121094e-01
1.230860650539398193e-01 -4.607430100440979004e-02 -1.180019825696945190e-01
4.054211080074310303e-02 -1.036420390009880066e-01 2.129357159137725830e-01
3.657932579517364502e-02 -7.856938242912292480e-02 -2.949285805225372314e-01
1.548153460025787354e-01 -1.441919505596160889e-01 1.901649236679077148e-01
4.483860731124877930e-02 -1.832261234521865845e-01 1.192920729517936707e-01
9.021226316690444946e-02 -1.711570471525192261e-01 -4.573651403188705444e-02
2.085279971361160278e-01 -9.379141777753829956e-02 6.661193817853927612e-02
7.553357630968093872e-02 -1.702767908573150635e-01 1.958437860012054443e-01
8.926406502723693848e-02 -7.848628610372543335e-02 2.102937698364257812e-01
1.765683740377426147e-01 -1.297490000724792480e-01 2.597216889262199402e-02
6.454598158597946167e-02 -1.224213764071464539e-01 2.702797055244445801e-01
1.433444768190383911e-01 -4.504919797182083130e-02 5.113389343023300171e-02
-6.880134344100952148e-03 -1.654777079820632935e-01 1.635661125183105469e-01
1.075361967086791992e-01 -1.081594973802566528e-01 2.880364358425140381e-01
-1.026414334774017334e-02 -1.210029423236846924e-01 -3.354085087776184082e-01
9.654581546783447266e-02 -7.499904930591583252e-02 -2.661750018596649170e-01
3.532346338033676147e-03 -7.133806496858596802e-02 -6.593619287014007568e-02
5.624795705080032349e-02 -6.004213169217109680e-02 4.871865361928939819e-02
7.561578601598739624e-02 -1.793173849582672119e-01 1.014742329716682434e-01
1.237831413745880127e-01 -1.538113951683044434e-01 2.224379777908325195e-01
-4.160951077938079834e-02 -1.860756278038024902e-01 -1.000148802995681763e-01
-6.034670770168304443e-02 -1.088204011321067810e-01 -1.270065307617187500e-01
6.522691994905471802e-02 -5.842247232794761658e-02 -2.183406352996826172e-01
1.885522753000259399e-01 -1.219870746135711670e-01 5.952920764684677124e-02
1.819325983524322510e-01 -1.049298048019409180e-01 -7.081752270460128784e-02
4.995529353618621826e-02 -1.727874279022216797e-01 1.920100152492523193e-01
2.108690515160560608e-02 -1.321786642074584961e-01 2.234972715377807617e-01
-4.511952400207519531e-02 -1.663741022348403931e-01 7.828126847743988037e-02
-2.526967972517013550e-02 -8.353695273399353027e-02 -1.486590802669525146e-01
1.214054003357887268e-01 -1.587520986795425415e-01 1.957491636276245117e-01
-5.527596175670623779e-02 -1.053650304675102234e-01 -1.071403622627258301e-01
-6.934083998203277588e-02 -1.742407381534576416e-01 -1.403062641620635986e-01
-4.761666059494018555e-04 -1.787142157554626465e-01 -1.806002855300903320e-01
9.089738130569458008e-02 -4.544126242399215698e-02 -6.660869717597961426e-02
5.957780033349990845e-02 -1.827500760555267334e-01 9.710726886987686157e-02
-4.894677549600601196e-02 -1.842027604579925537e-01 -3.022244013845920563e-02
4.609283059835433960e-03 -7.620103657245635986e-02 -1.370273530483245850e-04
-7.304988801479339600e-03 -1.131066605448722839e-01 1.386792659759521484e-01
6.633757799863815308e-02 -1.544347554445266724e-01 -2.138038575649261475e-01
3.179235383868217468e-02 -5.927770957350730896e-02 -1.361303031444549561e-01
1.836122274398803711e-01 -9.150202572345733643e-02 2.429513633251190186e-01
1.940309628844261169e-02 -1.179127767682075500e-01 2.048083841800689697e-01
1.153248250484466553e-01 -5.463417991995811462e-02 1.243470683693885803e-01
1.627807021141052246e-01 -1.121875718235969543e-01 2.738184332847595215e-01
2.174627408385276794e-02 -9.919054806232452393e-02 1.663557291030883789e-01
2.610770985484123230e-02 -1.805737912654876709e-01 1.449252068996429443e-01
8.250456303358078003e-03 -6.885041296482086182e-02 -1.809695959091186523e-01
1.366551220417022705e-01 -7.531613111495971680e-02 2.353146076202392578e-01
-2.320219576358795166e-02 -1.127842441201210022e-01 9.405623376369476318e-02
1.536675989627838135e-01 -1.382531076669692993e-01 -4.519128426909446716e-02
2.408539876341819763e-02 -7.702869176864624023e-02 -2.819868922233581543e-01
-4.008337855339050293e-03 -1.891285479068756104e-01 4.584557563066482544e-02
-5.120189487934112549e-02 -1.843667030334472656e-01 -7.973156869411468506e-02
1.882182806730270386e-02 -1.814763098955154419e-01 -1.387509703636169434e-01
6.931647658348083496e-02 -1.326760053634643555e-01 -2.753684222698211670e-01
6.067601218819618225e-02 -5.161939561367034912e-02 -5.375614017248153687e-02
1.544055342674255371e-01 -1.341818571090698242e-01 2.459870874881744385e-01
7.161515951156616211e-02 -6.739564239978790283e-02 -2.622733116149902344e-01
-3.013355284929275513e-02 -1.674135625362396240e-01 -2.472175657749176025e-01
1.448899507522583008e-01 -1.237737312912940979e-01 -1.432342827320098877e-01
2.054445073008537292e-02 -1.849154084920883179e-01 1.102556064724922180e-01
-7.064831256866455078e-02 -1.191923543810844421e-01 -1.356971859931945801e-01
-3.383016586303710938e-02 -8.893087506294250488e-02 -1.762925088405609131e-01
1.932090520858764648e-02 -8.415164798498153687e-02 1.022395193576812744e-01
1.187435239553451538e-01 -6.776662915945053101e-02 1.985559761524200439e-01
1.991882473230361938e-01 -1.043566614389419556e-01 2.230502665042877197e-02
6.101856380701065063e-02 -5.485726892948150635e-02 9.196765720844268799e-03
8.775230497121810913e-02 -1.686909794807434082e-01 -7.982300221920013428e-02
3.114548698067665100e-02 -1.887436360120773315e-01 2.979947999119758606e-02
-3.388493508100509644e-02 -1.004925519227981567e-01 -2.778269946575164795e-01
2.467400953173637390e-02 -1.757225245237350464e-01 -1.725950539112091064e-01
1.400450468063354492e-01 -1.001739501953125000e-01 -2.043282687664031982e-01
1.374711841344833374e-02 -1.520636528730392456e-01 2.118367254734039307e-01
7.037615776062011719e-02 -1.814433336257934570e-01 3.609227389097213745e-02
3.112040087580680847e-02 -7.017265260219573975e-02 5.276786535978317261e-02
1.147181391716003418e-01 -5.829874798655509949e-02 1.474517583847045898e-01
7.903558760881423950e-02 -1.321912258863449097e-01 -2.623713314533233643e-01
2.435049414634704590e-02 -1.833035945892333984e-01 1.249804571270942688e-01
9.512729942798614502e-02 -1.633102595806121826e-01 2.155781090259552002e-01
1.550278812646865845e-01 -1.477943658828735352e-01 6.997406482696533203e-02
1.271490007638931274e-02 -6.792940944433212280e-02 -5.393155291676521301e-02
1.490628123283386230e-01 -1.505765616893768311e-01 5.277758836746215820e-02
1.059561520814895630e-01 -1.513371765613555908e-01 -1.400954574346542358e-01
-4.385288059711456299e-02 -1.779799014329910278e-01 -1.842398047447204590e-01
1.217708140611648560e-01 -9.152014553546905518e-02 -2.447972297668457031e-01
1.651107966899871826e-01 -7.249954342842102051e-02 -1.478935480117797852e-01
1.580860614776611328e-01 -1.192992851138114929e-01 -1.162650361657142639e-01
9.588931500911712646e-02 -1.723303049802780151e-01 4.081148654222488403e-04
-6.394603848457336426e-02 -1.500979810953140259e-01 -2.627246081829071045e-01
1.486317813396453857e-01 -4.771725088357925415e-02 -9.483776241540908813e-02
2.058421820402145386e-01 -7.269269227981567383e-02 2.352357283234596252e-02
-3.125455230474472046e-02 -1.454239934682846069e-01 -3.072649240493774414e-01
1.774469017982482910e-01 -7.845175266265869141e-02 -1.169323623180389404e-01
6.718722730875015259e-02 -8.205270767211914062e-02 1.927409768104553223e-01
8.190836012363433838e-02 -1.148521378636360168e-01 -2.881716191768646240e-01
-5.468045920133590698e-02 -1.795587241649627686e-01 -7.172019220888614655e-03
1.022908538579940796e-01 -1.450308412313461304e-01 -1.782802641391754150e-01
1.241148710250854492e-01 -1.027062609791755676e-01 -2.343209385871887207e-01
-7.478784024715423584e-02 -1.628503799438476562e-01 -1.953811943531036377e-01
1.330218613147735596e-01 -1.106760054826736450e-01 2.929341495037078857e-01
-1.106122881174087524e-02 -1.036394685506820679e-01 -3.226619362831115723e-01
1.521246433258056641e-01 -4.473812133073806763e-02 -4.565560072660446167e-02
1.377805769443511963e-01 -1.525589078664779663e-01 1.920728981494903564e-01
1.502795070409774780e-01 -4.668240994215011597e-02 7.319709658622741699e-02
1.944614797830581665e-01 -5.678618699312210083e-02 4.120262712240219116e-02
9.043683856725692749e-02 -1.274430453777313232e-01 2.889948487281799316e-01
9.629955887794494629e-02 -4.558088630437850952e-02 -1.537515036761760712e-02
-3.989618271589279175e-02 -1.165191978216171265e-01 5.004429072141647339e-02
1.412134468555450439e-01 -1.556946188211441040e-01 1.153982505202293396e-01
1.726955473423004150e-01 -8.325208723545074463e-02 -1.320773661136627197e-01
3.516031056642532349e-02 -1.823290288448333740e-01 -1.010553687810897827e-01
4.712102934718132019e-02 -5.449565127491950989e-02 -1.061468645930290222e-01
6.716462224721908569e-02 -1.749850213527679443e-01 1.722083389759063721e-01
1.670102477073669434e-01 -6.403185427188873291e-02 -1.282218098640441895e-01
5.322707816958427429e-02 -6.637418270111083984e-02 -2.561018466949462891e-01
-3.489241003990173340e-03 -1.713480651378631592e-01 -2.245702743530273438e-01
1.577391922473907471e-01 -1.461212635040283203e-01 1.415698826313018799e-01
1.616393625736236572e-01 -4.521413892507553101e-02 3.626178950071334839e-04
1.093765646219253540e-01 -7.802613079547882080e-02 2.288350164890289307e-01
3.998916596174240112e-02 -5.795015394687652588e-02 -4.686662554740905762e-02
1.159701794385910034e-01 -1.663319468498229980e-01 4.165089875459671021e-02
1.931183040142059326e-01 -6.464733183383941650e-02 -3.604040294885635376e-02
3.481962159276008606e-02 -1.872786730527877808e-01 7.083513587713241577e-02
1.638498753309249878e-01 -4.971897602081298828e-02 -7.109884917736053467e-02
1.073884889483451843e-01 -1.362966895103454590e-01 -1.985480189323425293e-01
1.560921669006347656e-01 -5.190345644950866699e-02 -1.084522753953933716e-01
7.388284802436828613e-02 -1.803668439388275146e-01 8.087527751922607422e-02
1.235586106777191162e-01 -1.445627361536026001e-01 -1.230573728680610657e-01
1.274357885122299194e-01 -4.290068894624710083e-02 -7.121808826923370361e-03
1.068997755646705627e-02 -8.042632043361663818e-02 5.541606247425079346e-02
1.459349691867828369e-01 -1.404365599155426025e-01 -6.564872711896896362e-02
1.228984296321868896e-01 -9.407451748847961426e-02 2.752550840377807617e-01
2.086988538503646851e-01 -7.233413308858871460e-02 6.687738001346588135e-02
2.198379859328269958e-02 -1.049672961235046387e-01 1.828795373439788818e-01
2.106297165155410767e-01 -8.929041773080825806e-02 8.640036731958389282e-02
9.380315989255905151e-02 -1.554147899150848389e-01 2.492142617702484131e-01
9.861834347248077393e-02 -1.653964817523956299e-01 1.981460154056549072e-01
-4.795968532562255859e-02 -1.301477104425430298e-01 5.900844931602478027e-02
5.679214000701904297e-02 -1.769362390041351318e-01 -1.003710180521011353e-01
5.770139023661613464e-02 -1.825969517230987549e-01 -2.661003917455673218e-02
-5.361807346343994141e-02 -1.780245304107666016e-01 -1.680583357810974121e-01
1.966908127069473267e-01 -8.602488040924072266e-02 2.082861661911010742e-01
-6.589654088020324707e-02 -1.166954264044761658e-01 -2.149089872837066650e-01
4.316134378314018250e-02 -1.110172793269157410e-01 2.315844893455505371e-01
4.955615848302841187e-02 -1.519197225570678711e-01 -2.491775751113891602e-01
7.811526209115982056e-02 -4.777608066797256470e-02 -1.038803011178970337e-01
-2.438917756080627441e-03 -7.610511779785156250e-02 -2.230321168899536133e-01
