3.907188400626182556e-02 -8.083263635635375977e-01 -2.029895782470703125e-02
-6.243061646819114685e-02 -7.043459415435791016e-01 4.047761112451553345e-02
4.730368033051490784e-02 -6.619325280189514160e-01 5.860817804932594299e-02
-5.844650045037269592e-02 -6.094700098037719727e-01 -3.454266488552093506e-02
-4.527887701988220215e-02 -5.514372587203979492e-01 -3.558855131268501282e-02
-6.732562929391860962e-02 -6.968552470207214355e-01 -2.710551768541336060e-02
5.690077692270278931e-02 -7.731280922889709473e-01 1.487354561686515808e-02
1.381826680153608322e-02 -8.567380905151367188e-01 1.596491783857345581e-02
2.753455936908721924e-02 -5.921432971954345703e-01 6.538614630699157715e-02
-1.367653720080852509e-02 -4.857971370220184326e-01 -3.425000235438346863e-02
-1.830950193107128143e-02 -8.190905451774597168e-01 5.019238963723182678e-02
5.198088008910417557e-03 -7.786058187484741211e-01 6.247837468981742859e-02
7.232225500047206879e-03 -5.804953575134277344e-01 6.724425405263900757e-02
-1.824917644262313843e-02 -8.647994399070739746e-01 1.783557608723640442e-02
7.187042385339736938e-02 -6.984511017799377441e-01 1.160663738846778870e-02
7.006749510765075684e-02 -5.802409648895263672e-01 -2.273636683821678162e-02
-5.590183287858963013e-02 -7.075153589248657227e-01 -4.336829856038093567e-02
9.672146290540695190e-03 -5.222516655921936035e-01 -5.489663407206535339e-02
-6.869544833898544312e-02 -6.551969051361083984e-01 2.587646804749965668e-02
7.214543968439102173e-02 -6.953960657119750977e-01 -6.591307930648326874e-03
2.335591055452823639e-02 -8.079282641410827637e-01 -3.713859245181083679e-02
1.710529904812574387e-04 -8.172482848167419434e-01 5.167134106159210205e-02
-2.443319745361804962e-02 -7.623296380043029785e-01 -5.581084638833999634e-02
7.302986085414886475e-02 -6.142727136611938477e-01 2.265763469040393829e-02
-2.605801075696945190e-02 -8.069499731063842773e-01 -4.302807897329330444e-02
-1.676052925176918507e-03 -8.557270765304565430e-01 -1.896602101624011993e-02
-4.449136182665824890e-02 -5.409114360809326172e-01 -3.194979578256607056e-02
2.280170097947120667e-03 -6.902773976325988770e-01 -6.856507807970046997e-02
2.600889094173908234e-02 -7.558837532997131348e-01 -5.325970798730850220e-02
5.781648680567741394e-02 -6.220117807388305664e-01 -4.583500698208808899e-02
-6.710787862539291382e-02 -6.694675087928771973e-01 3.155491873621940613e-02
-7.183133810758590698e-02 -6.922773718833923340e-01 -1.501489430665969849e-02
-4.991928115487098694e-03 -5.510178208351135254e-01 6.056821718811988831e-02
2.951393462717533112e-02 -5.101302862167358398e-01 4.605263844132423401e-02
4.727676510810852051e-02 -7.737880945205688477e-01 -2.923506498336791992e-02
-5.655411258339881897e-02 -6.896290779113769531e-01 -4.368301481008529663e-02
4.433476552367210388e-02 -4.762908816337585449e-01 -1.543839648365974426e-02
-2.788444422185420990e-02 -5.886971950531005859e-01 -5.917595326900482178e-02
1.928825117647647858e-02 -5.546238422393798828e-01 6.134518980979919434e-02
-4.453892633318901062e-02 -6.017916798591613770e-01 -4.976370185613632202e-02
-3.746948018670082092e-02 -6.593519449234008789e-01 6.333217024803161621e-02
5.437695886939764023e-03 -8.287183046340942383e-01 4.557792097330093384e-02
4.482990130782127380e-02 -5.586715936660766602e-01 -5.091048032045364380e-02
6.460263580083847046e-02 -5.908195376396179199e-01 3.702505305409431458e-02
-5.050508677959442139e-02 -6.958855986595153809e-01 -4.948586970567703247e-02
2.390324324369430542e-02 -4.519552588462829590e-01 -1.657535787671804428e-03
2.371829375624656677e-02 -8.241029977798461914e-01 -2.796518430113792419e-02
-4.930842667818069458e-02 -8.336438536643981934e-01 8.797184564173221588e-03
1.554692536592483521e-02 -7.305846214294433594e-01 -6.210320442914962769e-02
3.040252067148685455e-02 -8.381537795066833496e-01 1.114614214748144150e-02
-4.190827906131744385e-02 -6.060543060302734375e-01 5.449740216135978699e-02
2.586212567985057831e-02 -7.225581407546997070e-01 6.623975187540054321e-02
5.394470319151878357e-02 -7.579841613769531250e-01 3.404703363776206970e-02
-3.818537294864654541e-02 -6.216260790824890137e-01 5.957763269543647766e-02
3.220059722661972046e-02 -5.194669961929321289e-01 -4.902226850390434265e-02
-6.297319382429122925e-02 -7.870376706123352051e-01 1.754930429160594940e-02
-5.255496129393577576e-02 -8.188098073005676270e-01 2.110914327204227448e-02
9.056538343429565430e-03 -6.843985319137573242e-01 7.332006096839904785e-02
1.256427355110645294e-02 -5.116128325462341309e-01 -5.161158740520477295e-02
-5.726991593837738037e-02 -5.526461601257324219e-01 4.075793549418449402e-05
-2.192088030278682709e-02 -7.874077558517456055e-01 5.894881486892700195e-02
-3.364418447017669678e-02 -7.771419286727905273e-01 5.669746920466423035e-02
-4.823034256696701050e-02 -5.531606078147888184e-01 3.192227333784103394e-02
-4.468527063727378845e-02 -7.568301558494567871e-01 -4.648091271519660950e-02
-6.868756562471389771e-02 -7.178055047988891602e-01 -2.180475741624832153e-02
4.081421345472335815e-02 -5.871486663818359375e-01 -5.728229507803916931e-02
-1.425325963646173477e-02 -6.773727536201477051e-01 7.253374159336090088e-02
7.185984402894973755e-02 -5.606966614723205566e-01 7.642960175871849060e-03
6.189804524183273315e-02 -6.458935737609863281e-01 4.443615302443504333e-02
2.512273192405700684e-02 -6.881747841835021973e-01 6.946294009685516357e-02
1.995673961937427521e-02 -5.699207782745361328e-01 6.411825120449066162e-02
-6.210556998848915100e-02 -7.837078571319580078e-01 -1.477008126676082611e-02
-3.533256053924560547e-02 -5.902903676033020020e-01 5.638518929481506348e-02
-1.569367386400699615e-02 -7.238937616348266602e-01 -6.409948319196701050e-02
-5.194150842726230621e-03 -5.951163768768310547e-01 6.864544749259948730e-02
-2.749668899923563004e-03 -5.475520491600036621e-01 -6.013518571853637695e-02
3.450030088424682617e-02 -6.812928915023803711e-01 6.582856178283691406e-02
6.936005502939224243e-02 -7.147252559661865234e-01 1.394778117537498474e-02
-6.221823021769523621e-02 -7.635877132415771484e-01 3.137265145778656006e-02
1.164824049919843674e-02 -4.638459086418151855e-01 -2.769940532743930817e-02
-7.111736387014389038e-02 -6.495649814605712891e-01 -1.290114037692546844e-02
7.018956542015075684e-02 -7.074242830276489258e-01 -9.104471653699874878e-03
1.272635813802480698e-02 -5.677366852760314941e-01 -6.402010470628738403e-02
4.306367039680480957e-02 -4.869641661643981934e-01 2.535283379256725311e-02
6.689869612455368042e-02 -7.100045084953308105e-01 -1.992028579115867615e-02
6.961455941200256348e-02 -5.438028573989868164e-01 9.356744121760129929e-04
-6.842456758022308350e-02 -6.553636193275451660e-01 -2.315170317888259888e-02
8.165354840457439423e-03 -6.077155470848083496e-01 7.069163769483566284e-02
-2.360519953072071075e-02 -6.285629868507385254e-01 6.776902079582214355e-02
-4.164601489901542664e-02 -5.218149423599243164e-01 2.408072538673877716e-02
6.355349905788898468e-03 -8.155292868614196777e-01 -4.155412688851356506e-02
5.259811878204345703e-02 -5.427767038345336914e-01 4.103547707200050354e-02
7.501827925443649292e-02 -5.869381427764892578e-01 -1.600652700290083885e-03
1.921191625297069550e-02 -4.724175631999969482e-01 3.054476529359817505e-02
1.836085319519042969e-02 -6.981495022773742676e-01 -6.552129983901977539e-02
-3.169030323624610901e-02 -7.104684114456176758e-01 -6.055022776126861572e-02
2.012949064373970032e-02 -8.185751438140869141e-01 4.365309700369834900e-02
-3.092750441282987595e-03 -7.963378429412841797e-01 5.884063988924026489e-02
6.918657571077346802e-02 -6.159183382987976074e-01 3.208820894360542297e-02
-6.954093277454376221e-02 -6.190446019172668457e-01 -4.065180197358131409e-03
-1.486949902027845383e-02 -7.764958143234252930e-01 -5.489629879593849182e-02
-3.198214992880821228e-02 -6.896188259124755859e-01 -6.185065209865570068e-02
2.736880816519260406e-02 -6.565080285072326660e-01 6.942334026098251343e-02
-2.833210676908493042e-02 -6.831560730934143066e-01 6.835211813449859619e-02
2.067501842975616455e-02 -6.704890131950378418e-01 -6.695996969938278198e-02
7.068274915218353271e-02 -6.864598393440246582e-01 2.296878211200237274e-02
5.467687174677848816e-02 -6.849244832992553711e-01 5.057832598686218262e-02
-6.607517600059509277e-02 -6.938151121139526367e-01 3.459491208195686340e-02
9.983180090785026550e-03 -4.507076144218444824e-01 -9.476439096033573151e-03
7.594469934701919556e-02 -6.536647081375122070e-01 -2.264534356072545052e-03
6.877620238810777664e-03 -6.228061914443969727e-01 7.209374755620956421e-02
4.103404004126787186e-03 -5.605238676071166992e-01 6.366255134344100952e-02
4.569307342171669006e-02 -8.027477264404296875e-01 -1.091195829212665558e-02
4.973821714520454407e-02 -6.847019791603088379e-01 -5.024877935647964478e-02
-3.773040696978569031e-02 -6.958608627319335938e-01 6.366416811943054199e-02
4.814100265502929688e-02 -5.496644377708435059e-01 -4.665831476449966431e-02
7.387162744998931885e-02 -6.759958863258361816e-01 1.308315340429544449e-02
-2.965645864605903625e-02 -6.502200961112976074e-01 6.689654290676116943e-02
5.158671364188194275e-02 -6.455336809158325195e-01 -5.163225904107093811e-02
6.076775118708610535e-02 -7.603744864463806152e-01 -3.864768659695982933e-03
-2.075877971947193146e-03 -7.732298970222473145e-01 -5.638159438967704773e-02
-2.400630153715610504e-02 -5.415034890174865723e-01 -5.134596303105354309e-02
-6.739232689142227173e-02 -7.689470648765563965e-01 1.282731629908084869e-02
7.126440107822418213e-02 -5.938738584518432617e-01 2.442551031708717346e-02
6.190686672925949097e-02 -7.287355661392211914e-01 3.089189529418945312e-02
4.444806650280952454e-02 -7.992698550224304199e-01 2.679583430290222168e-02
2.231768332421779633e-02 -7.378728985786437988e-01 6.554818153381347656e-02
-6.600506603717803955e-02 -6.053041219711303711e-01 1.663210988044738770e-02
-3.027194179594516754e-02 -4.837831258773803711e-01 -3.138576867058873177e-03
1.065291929990053177e-03 -7.673919200897216797e-01 6.534391641616821289e-02
-1.161496154963970184e-02 -4.602910280227661133e-01 2.059371909126639366e-03
-4.751295316964387894e-03 -7.407323718070983887e-01 6.969609111547470093e-02
-6.982009857892990112e-02 -7.511078715324401855e-01 1.335343159735202789e-02
-5.155732110142707825e-02 -5.642794966697692871e-01 -3.137512132525444031e-02
-1.356996037065982819e-02 -8.658280968666076660e-01 -6.886309944093227386e-03
-4.126955196261405945e-02 -7.529172301292419434e-01 5.673043429851531982e-02
-3.992230817675590515e-02 -5.508823394775390625e-01 4.168804362416267395e-02
5.391952767968177795e-02 -7.588968873023986816e-01 -2.590796723961830139e-02
5.895037949085235596e-02 -7.558517456054687500e-01 -1.640886440873146057e-02
4.396738950163125992e-05 -4.980005025863647461e-01 -4.593650996685028076e-02
6.866445392370223999e-02 -6.569465398788452148e-01 3.308389335870742798e-02
6.056421622633934021e-02 -6.900243759155273438e-01 4.277244210243225098e-02
-5.213072150945663452e-02 -5.529860854148864746e-01 -2.453907579183578491e-02
6.392707675695419312e-02 -5.277238488197326660e-01 -1.607866771519184113e-02
2.965515479445457458e-02 -6.035877466201782227e-01 6.592604517936706543e-02
1.448515430092811584e-02 -4.980684518814086914e-01 4.499709978699684143e-02
6.070344522595405579e-02 -7.192723751068115234e-01 -3.001290746033191681e-02
-6.698811054229736328e-02 -7.596659660339355469e-01 2.093419618904590607e-02
-4.560584574937820435e-02 -6.241110563278198242e-01 -5.181474238634109497e-02
6.796678900718688965e-02 -6.988518834114074707e-01 2.702533081173896790e-02
4.110044986009597778e-02 -4.910313785076141357e-01 -3.186560794711112976e-02
5.091353133320808411e-02 -7.849106788635253906e-01 -1.499071717262268066e-02
-6.353250239044427872e-03 -4.655205905437469482e-01 2.014844305813312531e-02
5.831557326018810272e-03 -5.094558000564575195e-01 4.960561543703079224e-02
-8.270141668617725372e-03 -7.035237550735473633e-01 -6.723185628652572632e-02
-2.985068224370479584e-02 -7.482327222824096680e-01 6.344911456108093262e-02
2.929500117897987366e-02 -7.241153717041015625e-01 -5.812196433544158936e-02
4.369834065437316895e-02 -8.128054141998291016e-01 1.038280408829450607e-02
-3.140313178300857544e-02 -4.980719089508056641e-01 2.227792516350746155e-02
3.267967328429222107e-02 -7.789304852485656738e-01 -4.239898920059204102e-02
1.961790025234222412e-02 -5.806202292442321777e-01 -6.463003903627395630e-02
5.218432098627090454e-02 -7.887724637985229492e-01 1.446397136896848679e-02
2.329173311591148376e-02 -7.669984102249145508e-01 5.961192771792411804e-02
-7.136354595422744751e-02 -7.233010530471801758e-01 1.797366887331008911e-02
-1.551588531583547592e-02 -7.667117118835449219e-01 6.472108513116836548e-02
-5.388082563877105713e-02 -5.805355906486511230e-01 3.460645303130149841e-02
-6.417347490787506104e-02 -6.386399865150451660e-01 -3.015370480716228485e-02
-3.412487916648387909e-03 -5.782574415206909180e-01 6.631612032651901245e-02
1.826511882245540619e-02 -6.278139948844909668e-01 7.102725654840469360e-02
-5.884660407900810242e-02 -7.537394762039184570e-01 3.952298313379287720e-02
5.364172160625457764e-02 -7.698917388916015625e-01 2.822692878544330597e-02
9.971023537218570709e-03 -7.885116934776306152e-01 5.898769944906234741e-02
-6.702250242233276367e-02 -7.375130057334899902e-01 -2.174290642142295837e-02
1.198147982358932495e-02 -4.941964447498321533e-01 -4.529748111963272095e-02
-1.622125320136547089e-02 -7.779717445373535156e-01 6.239504739642143250e-02
4.644798487424850464e-02 -5.223902463912963867e-01 -4.074079170823097229e-02
-4.211389273405075073e-02 -5.132644176483154297e-01 1.464246772229671478e-02
-2.359437942504882812e-02 -6.665667891502380371e-01 6.993990391492843628e-02
-6.002448499202728271e-02 -7.342281341552734375e-01 -3.496597707271575928e-02
3.725748136639595032e-02 -6.345924139022827148e-01 6.474052369594573975e-02
1.927998103201389313e-02 -4.810298085212707520e-01 -3.820118308067321777e-02
-2.466611005365848541e-02 -5.554661750793457031e-01 5.473110452294349670e-02
2.640151418745517731e-02 -4.622392654418945312e-01 1.888738013803958893e-02
6.065099313855171204e-02 -5.440120697021484375e-01 -3.104803897440433502e-02
7.526784390211105347e-02 -6.468508839607238770e-01 -1.017508935183286667e-02
-1.464308891445398331e-02 -5.175372362136840820e-01 4.742098972201347351e-02
7.533114403486251831e-02 -6.596369743347167969e-01 1.015642378479242325e-02
5.438806861639022827e-02 -5.588696002960205078e-01 4.347916319966316223e-02
-4.951630905270576477e-02 -5.269861817359924316e-01 2.136849565431475639e-03
2.583587542176246643e-02 -8.362884521484375000e-01 2.586888708174228668e-02
-5.307504907250404358e-02 -6.477843523025512695e-01 -4.677671566605567932e-02
-5.078201368451118469e-02 -7.517987489700317383e-01 4.930030554533004761e-02
1.790004223585128784e-02 -5.425222516059875488e-01 -5.895855650305747986e-02
-7.206007838249206543e-02 -6.422163844108581543e-01 -8.314317092299461365e-04
5.598913878202438354e-02 -6.514306664466857910e-01 5.118247494101524353e-02
4.068229347467422485e-02 -7.768682241439819336e-01 4.434369876980781555e-02
3.257101029157638550e-02 -8.322903513908386230e-01 -6.718111224472522736e-03
5.372958257794380188e-02 -7.405563592910766602e-01 4.097453877329826355e-02
3.997750207781791687e-02 -7.080407142639160156e-01 -5.457735434174537659e-02
-6.177299097180366516e-02 -5.790615081787109375e-01 1.451821345835924149e-02
8.017810992896556854e-03 -5.249536037445068359e-01 5.488416552543640137e-02
6.977561861276626587e-02 -6.347967386245727539e-01 3.166890516877174377e-02
-5.161432782188057899e-04 -4.910447299480438232e-01 4.074997082352638245e-02
-7.183380424976348877e-02 -6.675733327865600586e-01 -1.375130191445350647e-02
-1.838858798146247864e-02 -4.830068051815032959e-01 2.604653500020503998e-02
3.311313316226005554e-02 -8.260790705680847168e-01 2.429983392357826233e-02
-4.583833739161491394e-03 -8.094958662986755371e-01 -4.560970142483711243e-02
3.790164738893508911e-02 -4.743224978446960449e-01 2.083443664014339447e-02
1.811254071071743965e-03 -6.483643651008605957e-01 7.362147420644760132e-02
-4.605051875114440918e-02 -6.869492530822753906e-01 5.825491994619369507e-02
-1.230130437761545181e-02 -5.257972478866577148e-01 -5.222557112574577332e-02
-4.971017315983772278e-02 -6.394425034523010254e-01 5.254179984331130981e-02
2.628289535641670227e-02 -4.895799160003662109e-01 -4.036563634872436523e-02
-4.607094451785087585e-02 -8.385139703750610352e-01 -3.371824743226170540e-03
5.416522175073623657e-02 -6.050567626953125000e-01 -4.882507398724555969e-02
2.154891379177570343e-02 -7.795644998550415039e-01 5.724180862307548523e-02
4.203566908836364746e-02 -5.592231750488281250e-01 5.347272381186485291e-02
4.502477124333381653e-02 -5.690870881080627441e-01 -5.245095863938331604e-02
-3.143214806914329529e-02 -4.931039512157440186e-01 -1.911241933703422546e-02
4.452431201934814453e-02 -5.147334337234497070e-01 3.876483812928199768e-02
-4.824505373835563660e-02 -7.065534591674804688e-01 -5.071422830224037170e-02
-3.980789333581924438e-02 -5.030818581581115723e-01 5.430895835161209106e-03
8.019885979592800140e-03 -4.620941877365112305e-01 2.290354482829570770e-02
2.653012610971927643e-02 -8.311663866043090820e-01 -1.962064020335674286e-02
-7.718819193542003632e-03 -8.052546977996826172e-01 5.625651031732559204e-02
-2.291071228682994843e-03 -6.898776888847351074e-01 7.365574687719345093e-02
-1.319050788879394531e-02 -7.940934300422668457e-01 5.904225632548332214e-02
6.705836206674575806e-02 -5.337269902229309082e-01 -8.124094456434249878e-03
3.171110153198242188e-02 -5.199358463287353516e-01 4.855719208717346191e-02
9.445403702557086945e-03 -7.507945299148559570e-01 -5.989586189389228821e-02
-4.626125842332839966e-02 -5.880041718482971191e-01 4.668989405035972595e-02
2.603998221457004547e-02 -5.405850410461425781e-01 5.651506409049034119e-02
-6.318458169698715210e-02 -6.902308464050292969e-01 -3.485031053423881531e-02
5.910281464457511902e-02 -5.603735446929931641e-01 -3.768169879913330078e-02
-2.279829233884811401e-02 -4.859213829040527344e-01 -2.594609186053276062e-02
4.420061409473419189e-02 -7.275935411453247070e-01 -4.779048264026641846e-02
6.093679741024971008e-02 -5.972653031349182129e-01 -4.093495383858680725e-02
6.809864193201065063e-02 -5.521567463874816895e-01 1.875704713165760040e-02
4.004347696900367737e-02 -7.877912521362304688e-01 4.047080874443054199e-02
-4.860986769199371338e-02 -7.201682329177856445e-01 5.500392615795135498e-02
4.595391452312469482e-02 -8.723581433296203613e-01 7.044019550085067749e-02
-4.580381140112876892e-02 -8.145872354507446289e-01 6.447835825383663177e-03
4.851395264267921448e-02 -9.354238510131835938e-01 7.266552746295928955e-02
4.008306190371513367e-02 -8.612399697303771973e-01 6.963681429624557495e-02
8.690941333770751953e-02 -8.778049349784851074e-01 -1.840625889599323273e-02
-7.633110135793685913e-02 -9.714227914810180664e-01 1.236040145158767700e-02
-5.747741833329200745e-02 -8.400255441665649414e-01 3.213542699813842773e-02
6.141436100006103516e-02 -8.821315169334411621e-01 -6.519001722335815430e-02
6.048282608389854431e-02 -9.959670305252075195e-01 9.770238772034645081e-03
2.080290392041206360e-02 -8.697395324707031250e-01 -8.423877507448196411e-02
-4.413832444697618484e-03 -1.023394703865051270e+00 2.918505482375621796e-02
3.243457153439521790e-02 -1.020305037498474121e+00 1.030815299600362778e-03
4.487340897321701050e-02 -8.137503862380981445e-01 2.802976220846176147e-02
-4.245222359895706177e-02 -8.107476234436035156e-01 -1.023091026581823826e-03
-6.177488714456558228e-02 -9.799945354461669922e-01 3.864943608641624451e-02
1.753715611994266510e-02 -9.881556630134582520e-01 -6.475742161273956299e-02
-3.159342706203460693e-02 -8.199992179870605469e-01 -4.878280684351921082e-02
4.958915524184703827e-03 -8.129888772964477539e-01 4.576214030385017395e-02
4.871666058897972107e-02 -8.077851533889770508e-01 8.978692349046468735e-04
-8.623690903186798096e-02 -9.252781271934509277e-01 -1.967514865100383759e-02
-8.068563044071197510e-02 -9.311513900756835938e-01 -3.626390919089317322e-02
-9.625820675864815712e-04 -7.968028187751770020e-01 -2.738689072430133820e-02
-6.499044597148895264e-02 -9.300299882888793945e-01 5.630628764629364014e-02
-7.988531887531280518e-02 -9.559474587440490723e-01 -2.399004437029361725e-02
-7.707733660936355591e-02 -8.607536554336547852e-01 -1.507153175771236420e-02
2.481188066303730011e-02 -7.964382767677307129e-01 -1.602464728057384491e-02
-3.371084108948707581e-02 -1.006966114044189453e+00 4.163350909948348999e-02
1.361828669905662537e-02 -9.630023241043090820e-01 7.862763106822967529e-02
8.107519149780273438e-02 -8.877472877502441406e-01 3.753132000565528870e-02
-3.087865002453327179e-02 -9.604830145835876465e-01 7.396965473890304565e-02
-1.050108578056097031e-02 -1.014832496643066406e+00 -4.160562530159950256e-02
8.603042364120483398e-02 -8.760679364204406738e-01 1.811477169394493103e-02
2.491434570401906967e-04 -8.164326548576354980e-01 -5.768840387463569641e-02
-4.045236855745315552e-02 -1.008432745933532715e+00 3.315473720431327820e-02
8.357023447751998901e-02 -9.528006911277770996e-01 8.071248419582843781e-03
8.946003764867782593e-02 -9.165094494819641113e-01 -1.574060879647731781e-02
-1.491562742739915848e-02 -9.264037609100341797e-01 -8.869940042495727539e-02
-5.820864439010620117e-02 -8.986933827400207520e-01 6.230641156435012817e-02
4.196823760867118835e-02 -9.843784570693969727e-01 -5.482689291238784790e-02
5.067502707242965698e-02 -9.350894093513488770e-01 -7.222274690866470337e-02
5.190668627619743347e-02 -9.842912554740905762e-01 4.707736521959304810e-02
5.672079045325517654e-03 -8.396918773651123047e-01 6.758875399827957153e-02
4.750775918364524841e-02 -8.397438526153564453e-01 -5.941391736268997192e-02
-5.870037153363227844e-02 -9.414675831794738770e-01 -6.489863991737365723e-02
8.537471294403076172e-02 -9.174650311470031738e-01 -3.074230439960956573e-02
-7.585059851408004761e-02 -9.370273351669311523e-01 3.966451808810234070e-02
7.798580825328826904e-02 -8.688309788703918457e-01 3.525477275252342224e-02
8.857051283121109009e-02 -8.774738311767578125e-01 -4.364907508715987206e-04
-7.358670234680175781e-02 -9.515105485916137695e-01 3.845063596963882446e-02
-2.186237461864948273e-02 -8.720504045486450195e-01 -8.369901031255722046e-02
7.588367909193038940e-02 -8.915197253227233887e-01 -4.968040063977241516e-02
-6.130569148808717728e-03 -7.959986329078674316e-01 1.288297865539789200e-02
-3.863808140158653259e-02 -9.324209690093994141e-01 7.651478052139282227e-02
-2.577394247055053711e-02 -9.835650324821472168e-01 -6.649554520845413208e-02
-6.301192939281463623e-02 -9.864977002143859863e-01 2.944770455360412598e-02
1.617207936942577362e-02 -9.015918970108032227e-01 8.590673655271530151e-02
-9.243959560990333557e-03 -8.415046930313110352e-01 -7.473548501729965210e-02
5.868978425860404968e-02 -8.224237561225891113e-01 -2.762624248862266541e-02
3.844441100955009460e-02 -8.407303690910339355e-01 5.998468771576881409e-02
-1.680337078869342804e-02 -1.027916789054870605e+00 -2.816854976117610931e-03
-1.460175495594739914e-02 -8.010655641555786133e-01 -3.133770078420639038e-02
8.463723957538604736e-02 -9.495189189910888672e-01 -6.446732208132743835e-03
4.327061772346496582e-02 -1.000397682189941406e+00 -3.687249496579170227e-02
1.736132428050041199e-02 -1.025219559669494629e+00 1.480262726545333862e-02
-1.212040241807699203e-02 -7.958588600158691406e-01 -1.601166650652885437e-02
-6.475211679935455322e-02 -8.488194942474365234e-01 2.890441007912158966e-02
4.988325294107198715e-03 -9.422410130500793457e-01 8.493200689554214478e-02
8.217947930097579956e-02 -8.884011507034301758e-01 -3.771152719855308533e-02
-8.539021015167236328e-02 -9.266734719276428223e-01 1.753844134509563446e-02
-1.715171523392200470e-02 -8.814949393272399902e-01 -8.696632832288742065e-02
-6.874588876962661743e-02 -8.767542839050292969e-01 -5.091899260878562927e-02
2.015368081629276276e-02 -8.380225896835327148e-01 -7.173584401607513428e-02
-1.700414903461933136e-02 -8.839083313941955566e-01 8.180304616689682007e-02
3.865967690944671631e-02 -9.946441054344177246e-01 4.993731528520584106e-02
3.760929405689239502e-02 -8.259714841842651367e-01 4.912753775715827942e-02
2.721332572400569916e-02 -8.878849148750305176e-01 -8.588793128728866577e-02
3.917593881487846375e-02 -8.014312982559204102e-01 -6.057325750589370728e-03
6.147086992859840393e-02 -8.202888369560241699e-01 -1.230494957417249680e-02
2.275413274765014648e-02 -9.285528063774108887e-01 -8.654425293207168579e-02
-6.564433127641677856e-02 -9.897351264953613281e-01 -1.891860552132129669e-02
-3.776558116078376770e-02 -9.245375394821166992e-01 -8.182227611541748047e-02
-5.066940188407897949e-02 -9.045515656471252441e-01 6.931556016206741333e-02
-8.190942928194999695e-03 -9.259015917778015137e-01 8.639378100633621216e-02
6.074567884206771851e-02 -9.943635463714599609e-01 -1.294706854969263077e-02
8.996308594942092896e-02 -8.902591466903686523e-01 -9.878182783722877502e-03
7.304260879755020142e-02 -9.625909328460693359e-01 -3.293272107839584351e-02
-8.159933984279632568e-02 -9.125069379806518555e-01 -3.634696081280708313e-02
-1.953960163518786430e-04 -9.634933471679687500e-01 7.944086939096450806e-02
-7.147593051195144653e-02 -8.716444969177246094e-01 -4.380018636584281921e-02
6.049528345465660095e-02 -9.744045138359069824e-01 4.511428996920585632e-02
8.495119214057922363e-02 -8.645762801170349121e-01 7.853650487959384918e-03
-3.467329591512680054e-02 -9.816694259643554688e-01 -6.384293735027313232e-02
5.901323165744543076e-03 -9.956278800964355469e-01 -6.167024746537208557e-02
-7.229832559823989868e-02 -9.676069021224975586e-01 3.032847121357917786e-02
-4.500423744320869446e-02 -8.752515912055969238e-01 -7.390701025724411011e-02
6.614353507757186890e-02 -8.970535993576049805e-01 -6.252731382846832275e-02
-7.749197632074356079e-02 -8.603575825691223145e-01 5.681591574102640152e-04
6.288033723831176758e-02 -8.253473639488220215e-01 1.717606373131275177e-02
5.499441176652908325e-02 -9.085952043533325195e-01 -7.264487445354461670e-02
3.393991664052009583e-02 -8.537335395812988281e-01 -7.468735426664352417e-02
-6.258796155452728271e-02 -8.582987189292907715e-01 4.123959317803382874e-02
-6.933653354644775391e-02 -8.884209990501403809e-01 -5.421151593327522278e-02
4.364739730954170227e-02 -1.012788295745849609e+00 -3.769158851355314255e-03
8.624065667390823364e-02 -8.846907615661621094e-01 -2.558451704680919647e-02
3.189893811941146851e-02 -1.015752315521240234e+00 -2.319128252565860748e-02
3.001585137099027634e-03 -8.686615228652954102e-01 8.039320260286331177e-02
8.930112421512603760e-02 -9.298083782196044922e-01 1.845930004492402077e-03
2.867883630096912384e-02 -8.186156749725341797e-01 4.666227102279663086e-02
-8.478587120771408081e-02 -9.467632770538330078e-01 4.812597297132015228e-03
4.165498912334442139e-02 -9.250980019569396973e-01 -7.963338494300842285e-02
-5.306959524750709534e-02 -9.874756932258605957e-01 -4.510317370295524597e-02
3.668044134974479675e-02 -8.884838223457336426e-01 -8.242972195148468018e-02
4.742499068379402161e-02 -1.003066539764404297e+00 -2.655093930661678314e-02
-2.807365730404853821e-03 -1.029192686080932617e+00 -5.737021565437316895e-03
5.289243906736373901e-02 -9.736505150794982910e-01 5.435478314757347107e-02
-7.725293934345245361e-02 -8.682574033737182617e-01 1.875769533216953278e-02
5.808724462985992432e-02 -9.826937913894653320e-01 -3.903862088918685913e-02
2.227661013603210449e-02 -9.375641942024230957e-01 -8.504347503185272217e-02
-3.028187341988086700e-02 -1.005021333694458008e+00 -4.623395204544067383e-02
6.360112130641937256e-02 -9.783173799514770508e-01 3.662167489528656006e-02
6.688473373651504517e-02 -9.578093290328979492e-01 -4.726465418934822083e-02
-1.104594953358173370e-02 -8.050534725189208984e-01 -4.105996340513229370e-02
5.177870392799377441e-02 -8.540619611740112305e-01 -6.412880122661590576e-02
-2.153839729726314545e-02 -8.075380921363830566e-01 -3.907182440161705017e-02
-7.779114693403244019e-02 -9.652931690216064453e-01 -2.006102539598941803e-02
4.066392406821250916e-02 -9.129127264022827148e-01 -8.134805411100387573e-02
5.211672186851501465e-02 -8.202210068702697754e-01 -3.563280403614044189e-02
4.077315330505371094e-02 -9.289373159408569336e-01 7.796145230531692505e-02
4.845771193504333496e-02 -9.042940139770507812e-01 7.466889917850494385e-02
5.514797940850257874e-02 -8.935439586639404297e-01 -7.209369540214538574e-02
5.029950663447380066e-02 -8.202010393142700195e-01 3.141636773943901062e-02
6.050996854901313782e-02 -9.015512466430664062e-01 6.587439775466918945e-02
8.161201328039169312e-02 -8.555021286010742188e-01 -1.404559519141912460e-02
-3.544846177101135254e-02 -1.017590880393981934e+00 -2.028688415884971619e-02
-2.412788197398185730e-02 -9.630194306373596191e-01 -7.746523618698120117e-02
2.644123882055282593e-02 -8.039633035659790039e-01 -3.585692495107650757e-02
-6.794907152652740479e-02 -9.446652531623840332e-01 4.972967877984046936e-02
6.000567600131034851e-02 -8.585140109062194824e-01 -5.885110422968864441e-02
-8.100761333480477333e-04 -8.576382398605346680e-01 -8.270002901554107666e-02
4.489465802907943726e-02 -9.584391713142395020e-01 6.841713190078735352e-02
2.297374419867992401e-02 -1.002767205238342285e+00 5.169827491044998169e-02
2.631993964314460754e-03 -1.018160820007324219e+00 3.872817382216453552e-02
-5.659636110067367554e-02 -8.727234601974487305e-01 -6.382488459348678589e-02
-6.662140786647796631e-02 -8.905259966850280762e-01 5.144803971052169800e-02
1.919263228774070740e-02 -8.800693154335021973e-01 8.213865756988525391e-02
-2.105932123959064484e-02 -8.385177850723266602e-01 6.190242618322372437e-02
2.668295800685882568e-02 -9.382758140563964844e-01 8.207211643457412720e-02
6.851876527070999146e-02 -8.341935873031616211e-01 -2.508433908224105835e-02
6.671307981014251709e-02 -9.856148958206176758e-01 -1.483982242643833160e-02
-6.193173676729202271e-02 -9.777145385742187500e-01 -4.268314689397811890e-02
-3.700534999370574951e-02 -8.076595664024353027e-01 -1.662178896367549896e-02
-5.784597992897033691e-02 -8.849352002143859863e-01 5.952057987451553345e-02
-7.069990038871765137e-02 -9.331963062286376953e-01 4.867664724588394165e-02
-7.058477401733398438e-02 -9.712493419647216797e-01 -3.361507505178451538e-02
-2.837140671908855438e-02 -8.201014399528503418e-01 4.209747537970542908e-02
-7.461050152778625488e-02 -9.042395949363708496e-01 -4.946167394518852234e-02
3.702884167432785034e-02 -9.858703613281250000e-01 5.845522880554199219e-02
-5.758606642484664917e-02 -8.628969192504882812e-01 5.055644735693931580e-02
7.809217274188995361e-02 -9.306124448776245117e-01 -4.282739385962486267e-02
-3.980223089456558228e-02 -8.655689954757690430e-01 6.675583124160766602e-02
-4.084903001785278320e-02 -8.926013708114624023e-01 -7.992942631244659424e-02
-6.288768351078033447e-02 -8.352440595626831055e-01 -2.015582099556922913e-02
6.475767493247985840e-02 -8.420500159263610840e-01 3.720716014504432678e-02
-3.112792037427425385e-03 -8.947808742523193359e-01 8.586707711219787598e-02
4.826672747731208801e-02 -1.006417870521545410e+00 1.922083087265491486e-02
-4.732204973697662354e-02 -9.574298858642578125e-01 -6.866010278463363647e-02
8.192761987447738647e-02 -8.543540239334106445e-01 3.454365534707903862e-03
-7.427363842725753784e-02 -8.524888753890991211e-01 -3.905233694240450859e-03
7.691968232393264771e-02 -8.639732599258422852e-01 -3.791151568293571472e-02
1.697863265872001648e-02 -9.275958538055419922e-01 8.568790555000305176e-02
-5.617128312587738037e-02 -8.861665129661560059e-01 -6.816952675580978394e-02
-2.152111195027828217e-02 -8.232406377792358398e-01 4.950273782014846802e-02
7.919137924909591675e-02 -9.481689333915710449e-01 -3.122036345303058624e-02
-5.587245523929595947e-02 -8.609427809715270996e-01 -5.931713432073593140e-02
8.988332003355026245e-03 -9.842449426651000977e-01 6.956292688846588135e-02
7.622885704040527344e-02 -8.992711305618286133e-01 4.805766046047210693e-02
-3.617257252335548401e-02 -1.020558357238769531e+00 4.601029679179191589e-03
-2.562550269067287445e-02 -1.016127467155456543e+00 3.429620340466499329e-02
-3.328967466950416565e-02 -9.436319470405578613e-01 -8.045955002307891846e-02
-1.412063743919134140e-02 -9.523311853408813477e-01 8.135235309600830078e-02
-8.547060191631317139e-02 -9.379501342773437500e-01 1.144713722169399261e-02
1.967555843293666840e-02 -8.168085813522338867e-01 4.801843315362930298e-02
-7.920591533184051514e-02 -8.822733759880065918e-01 -3.310430422425270081e-02
-4.602656513452529907e-02 -9.951226711273193359e-01 4.394373670220375061e-02
5.747063830494880676e-02 -9.404206871986389160e-01 -6.540154665708541870e-02
8.524509519338607788e-02 -8.668016195297241211e-01 -1.369059644639492035e-02
8.898232132196426392e-02 -9.032161831855773926e-01 -2.021414600312709808e-02
7.270792126655578613e-02 -9.787482619285583496e-01 7.064919918775558472e-04
7.339851558208465576e-02 -9.689142107963562012e-01 -2.470381744205951691e-02
-6.685932166874408722e-03 -1.028433322906494141e+00 1.243016123771667480e-02
-2.619078382849693298e-02 -9.735378026962280273e-01 7.067912817001342773e-02
4.266044870018959045e-02 -9.469302296638488770e-01 -7.407375425100326538e-02
-4.820067062973976135e-02 -9.505760073661804199e-01 6.729160994291305542e-02
-4.894972965121269226e-02 -8.668243885040283203e-01 6.076320260763168335e-02
4.305202141404151917e-02 -1.010616302490234375e+00 -1.695966534316539764e-02
-5.376970022916793823e-02 -1.006451368331909180e+00 -1.098770741373300552e-02
2.317668497562408447e-02 -8.493038415908813477e-01 -7.662778347730636597e-02
8.256739377975463867e-02 -9.131693840026855469e-01 -3.829767182469367981e-02
5.975286290049552917e-02 -8.850147128105163574e-01 6.408274173736572266e-02
-8.590938895940780640e-02 -9.156225323677062988e-01 -2.270332165062427521e-02
-1.663204096257686615e-02 -9.772484898567199707e-01 -7.270417362451553345e-02
2.287438139319419861e-02 -1.022125244140625000e+00 -1.703531481325626373e-02
-1.046626269817352295e-02 -8.058377504348754883e-01 3.320650011301040649e-02
2.324236789718270302e-03 -1.016501426696777344e+00 -3.959292918443679810e-02
-5.532065778970718384e-02 -8.501910567283630371e-01 -5.330160632729530334e-02
3.346893191337585449e-02 -9.472324252128601074e-01 -7.865292578935623169e-02
1.939060352742671967e-02 -9.460312128067016602e-01 8.240211009979248047e-02
4.983381927013397217e-02 -9.893751740455627441e-01 -4.268437996506690979e-02
7.758699357509613037e-02 -9.295942783355712891e-01 4.372740536928176880e-02
8.441085368394851685e-02 -9.235912561416625977e-01 3.113412111997604370e-02
7.474245131015777588e-02 -8.796424865722656250e-01 -4.875652119517326355e-02
7.679790724068880081e-05 -8.794196844100952148e-01 8.324966579675674438e-02
-4.092017933726310730e-02 -1.013335466384887695e+00 2.297034487128257751e-02
5.014545843005180359e-02 -8.666710257530212402e-01 -7.029439508914947510e-02
-4.325220361351966858e-02 -8.892498016357421875e-01 7.192497700452804565e-02
7.061468064785003662e-02 -8.421161174774169922e-01 2.661898359656333923e-02
-6.910585612058639526e-02 -9.629353880882263184e-01 -4.318852350115776062e-02
-4.429696127772331238e-02 -1.015501260757446289e+00 2.162977820262312889e-03
-6.551264971494674683e-02 -8.367313742637634277e-01 -8.628071285784244537e-03
6.703827530145645142e-02 -9.878854751586914062e-01 -8.866616990417242050e-04
-3.229057788848876953e-02 -9.453670978546142578e-01 7.743349671363830566e-02
-2.699327468872070312e-02 -8.825948238372802734e-01 7.842707633972167969e-02
-5.143731087446212769e-02 -9.230725169181823730e-01 6.927743554115295410e-02
-1.982739195227622986e-02 -8.967754840850830078e-01 8.328505605459213257e-02
8.429464697837829590e-02 -9.408505558967590332e-01 -2.190842665731906891e-02
-3.061706013977527618e-02 -8.139244914054870605e-01 3.201748803257942200e-02
-2.681621350347995758e-03 -9.500482082366943359e-01 8.325512707233428955e-02
2.124425210058689117e-02 -1.003361821174621582e+00 -5.025263875722885132e-02
9.974671527743339539e-03 -8.769978284835815430e-01 8.254859596490859985e-02
3.297259286046028137e-02 -9.381116628646850586e-01 -8.127888292074203491e-02
-6.153319776058197021e-02 -9.988748431205749512e-01 2.407680964097380638e-03
3.339310362935066223e-02 -8.394473195075988770e-01 -6.786666065454483032e-02
-4.355820268392562866e-02 -9.136955142021179199e-01 7.460324466228485107e-02
-8.173801004886627197e-02 -8.824512362480163574e-01 1.729017309844493866e-02
8.340557664632797241e-02 -8.985129594802856445e-01 3.502140939235687256e-02
7.024484127759933472e-02 -8.498227000236511230e-01 3.551144897937774658e-02
1.069579925388097763e-02 -8.378003239631652832e-01 -7.330068945884704590e-02
1.119860075414180756e-02 -9.548512101173400879e-01 -8.269334584474563599e-02
-1.105170045047998428e-02 -9.384964108467102051e-01 8.464476466178894043e-02
-9.377846494317054749e-03 -8.992282748222351074e-01 -9.031534194946289062e-02
6.873182952404022217e-02 -9.049869179725646973e-01 5.808703973889350891e-02
-2.208398282527923584e-02 -9.354079365730285645e-01 -8.586583286523818970e-02
-8.064456284046173096e-02 -8.699979186058044434e-01 3.963820636272430420e-03
3.448358178138732910e-02 -8.722120523452758789e-01 7.585368305444717407e-02
1.894637756049633026e-02 -7.939594984054565430e-01 -6.373450160026550293e-03
7.106043398380279541e-02 -9.245594143867492676e-01 5.430799350142478943e-02
-4.710008203983306885e-02 -8.147322535514831543e-01 -8.978693746030330658e-03
6.083455309271812439e-02 -9.325035810470581055e-01 6.381941586732864380e-02
5.260026454925537109e-02 -9.246944785118103027e-01 -7.289949059486389160e-02
2.979355491697788239e-02 -9.162665009498596191e-01 8.322099596261978149e-02
-3.201783820986747742e-02 -8.538241386413574219e-01 6.579692661762237549e-02
6.589271873235702515e-02 -8.329350352287292480e-01 2.409945800900459290e-02
8.778009563684463501e-03 -7.952750921249389648e-01 1.390525698661804199e-02
-3.170517832040786743e-02 -8.121873736381530762e-01 -3.770031780004501343e-02
2.355539612472057343e-02 -8.429464697837829590e-01 6.707863509654998779e-02
-2.779107168316841125e-02 -8.628193140029907227e-01 -7.888077199459075928e-02
-5.948674306273460388e-02 -9.126099944114685059e-01 -6.805613636970520020e-02
-3.743097931146621704e-02 -8.402154445648193359e-01 -6.259933859109878540e-02
8.274491131305694580e-02 -9.501022100448608398e-01 -1.778922788798809052e-02
-6.868313252925872803e-02 -8.450612425804138184e-01 -2.106490917503833771e-02
-5.272290855646133423e-02 -9.841718673706054688e-01 4.680951312184333801e-02
-1.462398935109376907e-02 -9.679433703422546387e-01 -7.759363949298858643e-02
7.813477516174316406e-02 -8.449916243553161621e-01 -1.003881799988448620e-03
-1.992963813245296478e-02 -8.141970634460449219e-01 4.038129374384880066e-02
5.735654383897781372e-02 -8.295305967330932617e-01 3.439258784055709839e-02
-6.298752874135971069e-02 -9.681260585784912109e-01 -4.859896004199981689e-02
-8.232960850000381470e-02 -9.567843675613403320e-01 5.301658064126968384e-03
-6.921617686748504639e-02 -9.490163326263427734e-01 -5.050626769661903381e-02
-6.200717389583587646e-02 -9.884758591651916504e-01 -3.058622777462005615e-02
8.102048933506011963e-02 -9.356665611267089844e-01 -3.476711735129356384e-02
-7.494047284126281738e-02 -9.439649581909179688e-01 -4.355588182806968689e-02
-6.828074157238006592e-02 -9.895029067993164062e-01 -4.256346728652715683e-04
-9.658500552177429199e-03 -1.007357716560363770e+00 -5.093871429562568665e-02
-6.479161791503429413e-03 -9.804133176803588867e-01 -7.229826599359512329e-02
8.757245540618896484e-02 -9.233934283256530762e-01 2.114672586321830750e-02
-2.216143719851970673e-02 -8.027995824813842773e-01 1.879930496215820312e-02
-1.862777769565582275e-02 -8.449105620384216309e-01 -7.433404773473739624e-02
-2.110462076961994171e-02 -7.985265254974365234e-01 -1.381215546280145645e-02
-5.859580263495445251e-02 -9.569727778434753418e-01 -5.957636982202529907e-02
-3.258595988154411316e-02 -8.871458768844604492e-01 -8.307831734418869019e-02
7.067301869392395020e-02 -9.776909947395324707e-01 -1.851385459303855896e-02
-2.966081164777278900e-02 -8.411455750465393066e-01 -6.781625002622604370e-02
-1.794288866221904755e-02 -8.488402366638183594e-01 6.905771791934967041e-02
-6.501987576484680176e-02 -8.527038097381591797e-01 -4.121552780270576477e-02
6.577726453542709351e-04 -8.270588517189025879e-01 5.879878252744674683e-02
-8.624984882771968842e-03 -8.238531351089477539e-01 5.471747368574142456e-02
-5.962201207876205444e-02 -9.195069074630737305e-01 6.252630800008773804e-02
5.217287689447402954e-02 -8.296243548393249512e-01 -4.697441309690475464e-02
7.465463131666183472e-02 -9.697383642196655273e-01 2.089727111160755157e-02
-2.617229335010051727e-02 -8.011328577995300293e-01 5.885991267859935760e-03
8.295347541570663452e-02 -8.763173818588256836e-01 2.836486510932445526e-02
-3.339580819010734558e-02 -8.043585419654846191e-01 -5.086436867713928223e-04
3.174733370542526245e-02 -1.017454266548156738e+00 2.137469686567783356e-02
-7.596169412136077881e-02 -9.580070972442626953e-01 2.967416122555732727e-02
-8.359262347221374512e-02 -9.456995129585266113e-01 -1.922250352799892426e-02
-7.798484712839126587e-02 -9.104861617088317871e-01 3.787253051996231079e-02
7.693640142679214478e-02 -8.503574728965759277e-01 2.096341177821159363e-02
6.019781157374382019e-02 -8.712671399116516113e-01 5.973834916949272156e-02
7.612972054630517960e-03 -8.557609915733337402e-01 7.562447339296340942e-02
-4.969988018274307251e-03 -9.882662296295166016e-01 6.755650788545608521e-02
9.017116576433181763e-02 -8.990711569786071777e-01 1.166459172964096069e-02
-4.902767390012741089e-02 -8.205783963203430176e-01 1.639546267688274384e-02
-1.294835843145847321e-02 -8.679636120796203613e-01 7.838430255651473999e-02
2.277962630614638329e-04 -8.330166339874267578e-01 -7.078764587640762329e-02
-1.417222153395414352e-02 -9.151762127876281738e-01 8.579563349485397339e-02
6.955058872699737549e-02 -8.299511075019836426e-01 -2.469188766553997993e-04
-1.083939522504806519e-02 -8.501803278923034668e-01 -7.868827879428863525e-02
5.854857712984085083e-02 -9.922528862953186035e-01 -2.479607239365577698e-02
4.949473589658737183e-02 -9.936569929122924805e-01 4.010554030537605286e-02
-4.305290058255195618e-02 -8.492290973663330078e-01 5.608148127794265747e-02
-4.260168969631195068e-02 -8.194682002067565918e-01 -3.612274676561355591e-02
-5.931918323040008545e-02 -8.291460275650024414e-01 6.435141898691654205e-03
-8.624403178691864014e-02 -9.129198193550109863e-01 1.473636180162429810e-02
2.393868006765842438e-02 -9.483820796012878418e-01 -8.182819932699203491e-02
-4.832478240132331848e-02 -8.256335854530334473e-01 2.764252200722694397e-02
-8.548586815595626831e-02 -8.879752755165100098e-01 -2.329576294869184494e-03
-5.289610475301742554e-02 -1.001718282699584961e+00 -2.659194916486740112e-02
4.404904320836067200e-02 -9.732788801193237305e-01 -6.109948083758354187e-02
8.238584548234939575e-02 -9.517222046852111816e-01 1.802193559706211090e-02
5.102806910872459412e-02 -8.422275781631469727e-01 5.258114635944366455e-02
-5.173943191766738892e-02 -8.244064450263977051e-01 -2.844974398612976074e-02
9.086441993713378906e-02 -9.072445631027221680e-01 -7.987894117832183838e-03
6.470941752195358276e-02 -9.152451753616333008e-01 -6.372702866792678833e-02
4.084394499659538269e-02 -1.014916181564331055e+00 5.698880180716514587e-03
2.366146817803382874e-02 -8.721984028816223145e-01 7.919790595769882202e-02
5.994462594389915466e-02 -8.344546556472778320e-01 -4.212766885757446289e-02
-4.725689813494682312e-02 -9.752931594848632812e-01 -5.983363837003707886e-02
4.044500738382339478e-02 -9.582467079162597656e-01 -7.118444144725799561e-02
3.276698756963014603e-03 -1.029278755187988281e+00 2.417629817500710487e-03
-5.327308923006057739e-02 -9.203190207481384277e-01 -7.288355380296707153e-02
7.990396022796630859e-02 -9.026433825492858887e-01 -4.403579235076904297e-02
4.051131755113601685e-02 -8.063378334045410156e-01 -2.615536749362945557e-02
8.219964057207107544e-02 -9.132467508316040039e-01 3.804665803909301758e-02
4.467755090445280075e-03 -1.022506594657897949e+00 -2.848356589674949646e-02
3.957295045256614685e-02 -8.229620456695556641e-01 -5.182294920086860657e-02
-5.839123204350471497e-02 -8.392352461814880371e-01 -3.873175010085105896e-02
-7.428493350744247437e-02 -8.638475537300109863e-01 -3.141529858112335205e-02
-5.489983782172203064e-02 -9.896676540374755859e-01 3.914078697562217712e-02
-3.710256516933441162e-02 -1.000229239463806152e+00 4.665509238839149475e-02
-6.821257621049880981e-02 -9.330434203147888184e-01 -5.676679685711860657e-02
-1.788402721285820007e-02 -8.199850320816040039e-01 -5.683911591768264771e-02
1.647848822176456451e-02 -8.907964229583740234e-01 -8.882134407758712769e-02
3.537970036268234253e-02 -8.675696253776550293e-01 -7.884097844362258911e-02
9.086404740810394287e-02 -8.960065245628356934e-01 -2.769241807982325554e-03
8.392757177352905273e-02 -9.428006410598754883e-01 2.197461947798728943e-02
-1.723814406432211399e-03 -9.691951870918273926e-01 -7.811550796031951904e-02
1.224341057240962982e-02 -9.744297266006469727e-01 7.419139891862869263e-02
1.781111210584640503e-02 -9.138616919517517090e-01 -8.915898203849792480e-02
7.088098675012588501e-02 -9.082829356193542480e-01 -5.732682347297668457e-02
-3.866688907146453857e-02 -8.217156529426574707e-01 3.490661084651947021e-02
-4.577129706740379333e-02 -1.000323295593261719e+00 -3.903629630804061890e-02
-7.410622388124465942e-02 -9.772527813911437988e-01 -1.291153859347105026e-02
-5.617486685514450073e-02 -9.116247296333312988e-01 6.548332422971725464e-02
6.338048726320266724e-02 -9.670505523681640625e-01 -4.575664177536964417e-02
-5.885865166783332825e-02 -8.320649862289428711e-01 1.677392423152923584e-02
-7.279381155967712402e-02 -8.775894045829772949e-01 3.698309883475303650e-02
4.250322654843330383e-02 -9.724336266517639160e-01 6.344126164913177490e-02
-4.900816455483436584e-02 -8.287970423698425293e-01 -4.062498360872268677e-02
-2.975678630173206329e-02 -9.184132218360900879e-01 -8.560530096292495728e-02
4.113215953111648560e-02 -8.745435476303100586e-01 -7.789332419633865356e-02
-1.204985473304986954e-02 -8.264114856719970703e-01 -6.435529887676239014e-02
-8.493757992982864380e-02 -8.897083401679992676e-01 8.575053885579109192e-03
4.961469396948814392e-02 -1.007120013236999512e+00 -8.982313796877861023e-03
-7.889086008071899414e-02 -8.704700469970703125e-01 -2.356339246034622192e-02
6.949758529663085938e-02 -8.689036965370178223e-01 -5.242051929235458374e-02
8.501195907592773438e-02 -9.273988604545593262e-01 -2.837410382926464081e-02
-7.376532256603240967e-02 -9.730676412582397461e-01 -2.304129488766193390e-02
7.125589996576309204e-02 -8.581740260124206543e-01 4.031407088041305542e-02
-7.296425849199295044e-02 -9.095008373260498047e-01 4.634773358702659607e-02
6.268521398305892944e-02 -9.874598979949951172e-01 2.580485492944717407e-02
-4.269817471504211426e-02 -1.008392810821533203e+00 -3.054195456206798553e-02
-2.873165346682071686e-02 -8.534850478172302246e-01 -7.476512342691421509e-02
-8.161770552396774292e-02 -8.951860070228576660e-01 2.581920102238655090e-02
5.323791876435279846e-02 -1.004633903503417969e+00 2.274489263072609901e-03
2.254967764019966125e-02 -9.103334546089172363e-01 8.517765253782272339e-02
1.782699953764677048e-03 -8.737182021141052246e-01 -8.739461004734039307e-02
-6.862360984086990356e-02 -9.831687808036804199e-01 2.046464197337627411e-02
3.982368856668472290e-02 -8.028967380523681641e-01 7.776738144457340240e-03
1.729092933237552643e-02 -8.811925649642944336e-01 -8.738110214471817017e-02
-4.990208521485328674e-02 -8.452085256576538086e-01 4.701950773596763611e-02
-7.863580435514450073e-02 -9.482558965682983398e-01 2.942965179681777954e-02
8.874135464429855347e-02 -9.273363947868347168e-01 1.279578544199466705e-02
-1.172977965325117111e-02 -9.116160869598388672e-01 -9.022374451160430908e-02
