-5.242040753364562988e-02 1.451089978218078613e-03 -3.685969859361648560e-02
-4.634313583374023438e-01 -1.255777031183242798e-01 2.722599506378173828e-01
-4.460644721984863281e-02 -4.800276458263397217e-02 2.805617451667785645e-01
-1.928614974021911621e-01 -2.874099016189575195e-01 2.217443734407424927e-01
4.430699348449707031e-02 -5.710225552320480347e-02 -1.060407422482967377e-02
-3.509315848350524902e-01 -2.706922292709350586e-01 -2.774560153484344482e-01
-8.731347322463989258e-02 -9.711291640996932983e-02 -3.620329201221466064e-01
-5.538970232009887695e-02 -2.189306765794754028e-01 1.496818363666534424e-01
-3.187085092067718506e-01 -1.673704385757446289e-02 -1.565622985363006592e-01
-2.453216165304183960e-01 -3.853811323642730713e-02 2.279526144266128540e-01
-2.026039063930511475e-01 -2.682010531425476074e-01 -8.666576445102691650e-02
-5.794245004653930664e-01 -1.451949626207351685e-01 7.501877844333648682e-04
-5.546615719795227051e-01 -1.282485127449035645e-01 -2.524645626544952393e-01
-3.817180097103118896e-01 -2.719279527664184570e-01 4.990635812282562256e-01
-2.586406469345092773e-01 -2.322629243135452271e-01 -3.206239342689514160e-01
-2.774755060672760010e-01 -9.611439704895019531e-02 4.050576984882354736e-01
-4.762845635414123535e-01 -8.373995125293731689e-02 2.090775407850742340e-02
-3.748285174369812012e-01 -4.261626303195953369e-02 -3.105829656124114990e-01
-5.443308949470520020e-01 -1.765611916780471802e-01 2.604711353778839111e-01
-1.714983582496643066e-01 -2.766748666763305664e-01 2.791860997676849365e-01
-4.779852032661437988e-01 -3.406872749328613281e-01 1.077511385083198547e-01
-5.378360152244567871e-01 -1.094251424074172974e-01 -9.488794952630996704e-02
-1.509320139884948730e-01 -2.690919339656829834e-01 1.256628036499023438e-01
-4.368787705898284912e-01 -3.099017739295959473e-01 -1.612267196178436279e-01
-3.441690504550933838e-01 -3.505775332450866699e-02 4.872166737914085388e-02
-1.584424525499343872e-01 -2.738268971443176270e-01 1.913947761058807373e-01
-3.393477499485015869e-01 -2.435415834188461304e-01 -3.538428843021392822e-01
-3.641185760498046875e-01 -2.984714508056640625e-02 -1.640179455280303955e-01
-4.362356662750244141e-01 -2.338171005249023438e-01 4.853924512863159180e-01
-3.829262852668762207e-01 -3.290174007415771484e-01 3.053325414657592773e-01
-5.607091188430786133e-01 -1.242865771055221558e-01 -1.230119690299034119e-01
-2.011075019836425781e-01 -2.803698182106018066e-03 3.704135119915008545e-02
-3.034758269786834717e-01 -6.926389038562774658e-02 -4.700001180171966553e-01
-2.370670586824417114e-01 -8.083790540695190430e-03 -2.857051193714141846e-01
-1.652575284242630005e-01 8.339732885360717773e-04 -2.504754066467285156e-01
-1.995338201522827148e-01 -2.858822345733642578e-01 7.640529423952102661e-02
-1.144807487726211548e-01 -5.701571702957153320e-03 -2.715271115303039551e-01
-2.232109308242797852e-01 -4.370574653148651123e-02 2.688700258731842041e-01
-5.637610554695129395e-01 -1.271651685237884521e-01 -1.621863692998886108e-01
-6.024552583694458008e-01 -1.753606647253036499e-01 -2.431166172027587891e-01
-4.786852896213531494e-01 -3.292232155799865723e-01 3.043585121631622314e-01
-3.607173562049865723e-01 -1.286314576864242554e-01 4.177308082580566406e-01
-2.133024632930755615e-01 -1.448925137519836426e-01 5.148534178733825684e-01
-1.339411139488220215e-01 -1.891692578792572021e-01 5.015811920166015625e-01
-6.070637702941894531e-01 -1.674986034631729126e-01 -1.759402900934219360e-01
-5.337209701538085938e-01 -1.163648813962936401e-01 -2.773572206497192383e-01
-3.457342982292175293e-01 -2.599729597568511963e-02 -7.250365614891052246e-02
-1.321145296096801758e-01 -1.138389110565185547e-02 1.499580740928649902e-01
-1.689157336950302124e-01 -1.732721924781799316e-02 1.731900423765182495e-01
-1.746608912944793701e-01 -8.816980570554733276e-02 4.242744445800781250e-01
3.437936305999755859e-03 -1.729510724544525146e-02 -5.508328229188919067e-02
-5.722442269325256348e-01 -1.356208324432373047e-01 -1.930042058229446411e-01
-4.237638413906097412e-01 -2.730435729026794434e-01 -3.045928478240966797e-01
-5.943982601165771484e-01 -2.650142014026641846e-01 -2.428515553474426270e-01
-6.028757095336914062e-01 -1.922560334205627441e-01 1.367618739604949951e-01
-2.218574285507202148e-02 -1.225139424204826355e-01 3.802666068077087402e-01
-2.350675016641616821e-01 -2.982563376426696777e-01 3.016669154167175293e-01
-1.205796003341674805e-02 -1.864855438470840454e-01 1.340048760175704956e-01
-1.852198243141174316e-01 -7.354024797677993774e-02 3.864901065826416016e-01
-1.489945501089096069e-01 -2.621535956859588623e-01 3.809007629752159119e-02
-5.831730961799621582e-01 -2.876959741115570068e-01 -1.951199471950531006e-01
-5.234824419021606445e-01 -2.803426682949066162e-01 -2.723574042320251465e-01
-7.457964122295379639e-02 5.038931965827941895e-03 -1.030105724930763245e-01
-4.241831302642822266e-01 -1.442734301090240479e-01 -4.867815971374511719e-01
-1.216988712549209595e-01 -2.135890126228332520e-01 -1.748046875000000000e-01
-3.761106729507446289e-01 -3.402757644653320312e-02 -1.193897500634193420e-01
-4.194721579551696777e-02 -8.726477622985839844e-03 8.353678882122039795e-02
-3.966983258724212646e-01 -4.306019097566604614e-02 -2.324342429637908936e-01
-5.726294219493865967e-02 -2.184609323740005493e-01 2.403134405612945557e-01
-5.118361115455627441e-01 -2.694441676139831543e-01 -3.085598647594451904e-01
-4.795447587966918945e-01 -2.962159216403961182e-01 -2.296862006187438965e-01
3.134647011756896973e-02 -4.710149765014648438e-02 -8.039029687643051147e-02
-5.585174560546875000e-01 -1.244884803891181946e-01 -6.340001523494720459e-02
-4.749246239662170410e-01 -1.953903436660766602e-01 -4.461410045623779297e-01
-4.157039523124694824e-01 -1.068988144397735596e-01 -4.663086831569671631e-01
-1.153165698051452637e-01 4.026740789413452148e-04 -2.337912619113922119e-01
-2.661018967628479004e-01 -3.088687062263488770e-01 9.671950340270996094e-02
-3.790670931339263916e-01 -7.433453202247619629e-02 2.193567603826522827e-01
-3.153813779354095459e-01 -3.201388120651245117e-01 2.885651588439941406e-01
-4.826495647430419922e-01 -7.839407026767730713e-02 -9.883024543523788452e-02
-4.597797691822052002e-01 -3.291237950325012207e-01 -4.680331796407699585e-02
-1.039415448904037476e-01 -2.353529185056686401e-01 -5.261817947030067444e-03
-4.292030930519104004e-01 -6.038048863410949707e-02 -2.872177660465240479e-01
-6.304776668548583984e-01 -2.048466950654983521e-01 4.674588143825531006e-02
-1.608335375785827637e-01 -2.445544898509979248e-01 4.433852136135101318e-01
-2.446889877319335938e-02 -1.953666210174560547e-01 2.171159833669662476e-01
-2.940380573272705078e-02 -1.620487868785858154e-01 3.759616613388061523e-01
-8.342695236206054688e-02 -1.270042657852172852e-01 -3.267483711242675781e-01
-3.798721432685852051e-01 -3.228224515914916992e-01 3.511668145656585693e-01
-7.038189470767974854e-02 -5.746577680110931396e-02 3.274374008178710938e-01
-3.999079465866088867e-01 -2.609694004058837891e-01 -3.338359594345092773e-01
-4.175816178321838379e-01 -1.754386872053146362e-01 4.505584239959716797e-01
-3.502482771873474121e-01 -3.150876760482788086e-01 -5.360841751098632812e-02
-8.431768417358398438e-02 -2.353715896606445312e-01 1.164229363203048706e-01
-3.561296463012695312e-01 -2.929084002971649170e-02 -2.280913889408111572e-01
-2.397731840610504150e-01 -2.552190124988555908e-01 5.007886886596679688e-01
-4.084508121013641357e-01 -8.949067443609237671e-02 2.350240051746368408e-01
-3.189851045608520508e-01 -5.226708203554153442e-02 2.081901282072067261e-01
-3.773565292358398438e-01 -5.298563838005065918e-02 1.040781363844871521e-01
-9.197273850440979004e-02 -7.170575857162475586e-02 3.746021091938018799e-01
-6.158964633941650391e-01 -2.562974691390991211e-01 2.076703011989593506e-01
-5.876046419143676758e-01 -1.453829109668731689e-01 -1.202408298850059509e-01
-6.199527978897094727e-01 -2.181139886379241943e-01 1.439662724733352661e-01
-9.915892779827117920e-02 -8.912833034992218018e-02 4.142257869243621826e-01
-1.195444762706756592e-01 -5.746726691722869873e-02 3.447613716125488281e-01
-4.276150465011596680e-02 -9.389981627464294434e-03 -1.853788197040557861e-01
-4.413742423057556152e-01 -2.120627462863922119e-01 -4.388621151447296143e-01
-5.046693682670593262e-01 -1.668142378330230713e-01 3.160649538040161133e-01
-5.446513295173645020e-01 -1.157527565956115723e-01 -2.055270671844482422e-01
-2.032416313886642456e-01 -2.286323904991149902e-02 1.828824281692504883e-01
-3.305056989192962646e-01 -1.005623936653137207e-01 -4.985266923904418945e-01
-1.245206296443939209e-01 -2.577050626277923584e-01 2.301081866025924683e-01
-4.333637952804565430e-01 -2.836001515388488770e-01 -2.717987000942230225e-01
-5.593273639678955078e-01 -3.287155628204345703e-01 1.859079860150814056e-02
-2.206846177577972412e-01 -2.797827124595642090e-03 -2.542281746864318848e-01
-9.449048340320587158e-02 -2.089429348707199097e-01 -1.282503157854080200e-01
-2.342799901962280273e-01 -2.577532827854156494e-02 1.716701090335845947e-01
-2.980644106864929199e-01 -2.639527618885040283e-02 8.354309201240539551e-02
-4.255234003067016602e-01 -5.291271209716796875e-02 -9.435221552848815918e-02
-4.742646813392639160e-01 -2.695329189300537109e-01 4.474839270114898682e-01
-3.393367528915405273e-01 -2.777150273323059082e-01 -2.419479191303253174e-01
-4.553860425949096680e-02 -2.836924791336059570e-02 2.068813890218734741e-01
-2.286129295825958252e-01 -2.766091823577880859e-01 4.304773509502410889e-01
-3.044486939907073975e-01 -1.647238582372665405e-01 5.157649517059326172e-01
-5.627592802047729492e-01 -3.253651857376098633e-01 1.945980787277221680e-01
-6.366993188858032227e-01 -2.270251661539077759e-01 8.552269637584686279e-02
-4.950191378593444824e-01 -1.146275773644447327e-01 1.577703803777694702e-01
-1.244441866874694824e-01 -4.520025849342346191e-02 -3.874383866786956787e-01
-4.319198131561279297e-01 -3.207883536815643311e-01 3.685727119445800781e-01
-1.018735915422439575e-01 7.845684885978698730e-03 -7.410345971584320068e-02
-2.610157430171966553e-01 -4.918811470270156860e-02 2.615871131420135498e-01
-4.023423492908477783e-01 -3.243333399295806885e-01 -4.642175883054733276e-02
-4.682194590568542480e-01 -3.376862406730651855e-01 2.393470257520675659e-01
-3.872268199920654297e-01 -3.350953161716461182e-01 1.159954071044921875e-01
-1.222921609878540039e-01 7.221266627311706543e-03 -1.619411706924438477e-01
-4.248999357223510742e-01 -6.006362289190292358e-02 1.456577330827713013e-02
-5.088511705398559570e-01 -9.356971085071563721e-02 -6.619798392057418823e-02
-4.156601428985595703e-02 -3.638108074665069580e-02 2.367545664310455322e-01
-1.635341197252273560e-01 -2.543076872825622559e-01 -7.370124012231826782e-02
-6.056505441665649414e-01 -2.384608685970306396e-01 -2.669610083103179932e-01
-2.750495374202728271e-01 -1.320969313383102417e-01 4.824571013450622559e-01
-3.172405958175659180e-01 -2.946744859218597412e-01 -1.392897516489028931e-01
-2.737661302089691162e-01 -6.323620676994323730e-03 -1.469596177339553833e-01
-1.852622926235198975e-01 -9.093321114778518677e-02 -4.594800472259521484e-01
-5.781080722808837891e-01 -2.411126196384429932e-01 -3.102764189243316650e-01
-7.894803583621978760e-02 -1.950961202383041382e-01 4.245645105838775635e-01
-1.500658690929412842e-01 4.021540284156799316e-03 -2.188030928373336792e-01
-1.987169384956359863e-01 -2.885768413543701172e-01 1.312429755926132202e-01
7.163137197494506836e-03 -1.542083173990249634e-01 2.726544439792633057e-01
-2.547340989112854004e-01 -1.605087071657180786e-01 -4.607859551906585693e-01
-3.479882776737213135e-01 -1.538156270980834961e-01 -4.983897209167480469e-01
-3.806250393390655518e-01 -3.786599636077880859e-02 -5.848911404609680176e-02
-5.096188783645629883e-01 -3.181317746639251709e-01 -1.207197979092597961e-01
-2.761324942111968994e-01 -7.242366671562194824e-03 -1.790557205677032471e-01
-1.439127922058105469e-01 -2.571120560169219971e-01 3.500585258007049561e-01
-3.202319443225860596e-01 -2.085685729980468750e-02 -3.485114872455596924e-02
-3.568936884403228760e-01 -1.840885132551193237e-01 5.094409584999084473e-01
-1.955916583538055420e-01 -1.645559072494506836e-01 -4.093112945556640625e-01
-1.225284188985824585e-01 -1.869608908891677856e-01 -2.659917175769805908e-01
-2.600425481796264648e-02 -3.477469086647033691e-02 -2.393987178802490234e-01
-5.524992942810058594e-01 -3.318317532539367676e-01 4.995892941951751709e-02
2.483174204826354980e-02 -1.455474644899368286e-01 6.489609926939010620e-02
5.041670799255371094e-01 -3.336027264595031738e-01 3.034163713455200195e-01
1.343574374914169312e-01 -3.163197934627532959e-01 -1.318936347961425781e-01
5.709351897239685059e-01 -1.271972358226776123e-01 1.656915992498397827e-01
2.137050032615661621e-01 -2.281968891620635986e-01 -2.609992623329162598e-01
1.217716485261917114e-01 -5.541254281997680664e-01 6.180872768163681030e-02
3.329040408134460449e-01 -3.186853528022766113e-01 -4.072504639625549316e-01
4.749134778976440430e-01 -7.816010713577270508e-02 -2.613415718078613281e-01
2.623470425605773926e-01 -5.047925114631652832e-01 -3.248404860496520996e-01
4.311830997467041016e-01 -5.413680076599121094e-01 4.820405691862106323e-02
2.027797251939773560e-01 -1.425831466913223267e-01 -1.075488030910491943e-01
2.704248726367950439e-01 -1.778095364570617676e-01 4.602494835853576660e-01
2.709186673164367676e-01 -1.162354201078414917e-01 -2.265784889459609985e-01
4.859914779663085938e-01 -4.731310009956359863e-01 2.795809321105480194e-02
1.711337566375732422e-01 -3.131441175937652588e-01 3.940836787223815918e-01
4.866664409637451172e-01 3.496712446212768555e-02 1.336596012115478516e-01
4.972723722457885742e-01 -4.125879406929016113e-01 -1.916437596082687378e-01
2.576787471771240234e-01 -5.364289283752441406e-01 3.557974696159362793e-01
3.022053241729736328e-01 -1.170829534530639648e-01 -2.712041735649108887e-01
2.401785552501678467e-01 -1.786411106586456299e-01 4.270393252372741699e-01
5.797371268272399902e-01 -1.196247190237045288e-01 -1.177755743265151978e-02
5.267893671989440918e-01 -3.490964770317077637e-01 2.071678936481475830e-01
5.389854311943054199e-01 -7.053773105144500732e-02 2.500876188278198242e-01
2.860566377639770508e-01 -6.324132680892944336e-01 -4.644889384508132935e-02
5.555751919746398926e-01 -4.399365186691284180e-02 1.347049474716186523e-01
2.004458159208297729e-01 -5.556991100311279297e-01 3.021558523178100586e-01
4.942181706428527832e-01 -3.958453536033630371e-01 2.494060844182968140e-01
2.382691204547882080e-01 -4.597732424736022949e-01 4.300714731216430664e-01
5.603481531143188477e-01 -3.145070672035217285e-01 -1.105450838804244995e-02
2.734198570251464844e-01 -4.655368626117706299e-02 -7.860691845417022705e-02
2.021063417196273804e-01 -2.160628437995910645e-01 -2.248515635728836060e-01
2.739412188529968262e-01 -3.174155652523040771e-01 -3.808385133743286133e-01
2.500969767570495605e-01 -6.122018694877624512e-01 2.007055133581161499e-01
1.147127300500869751e-01 -3.455861508846282959e-01 -6.802920997142791748e-02
5.598281621932983398e-01 -1.586993932723999023e-01 2.275287657976150513e-01
4.913721680641174316e-01 -3.766230940818786621e-01 2.869509160518646240e-01
1.090823262929916382e-01 -3.145772218704223633e-01 4.102338850498199463e-02
3.945178389549255371e-01 4.661592841148376465e-02 8.751074224710464478e-02
5.726360082626342773e-01 -2.651728093624114990e-01 4.544009268283843994e-02
5.453950762748718262e-01 -2.300943583250045776e-01 -2.136081308126449585e-01
1.518648713827133179e-01 -3.492788374423980713e-01 -2.098415642976760864e-01
4.504445195198059082e-01 -1.666095703840255737e-01 -3.453370332717895508e-01
2.810758650302886963e-01 -6.240525841712951660e-01 1.385966241359710693e-01
2.082595676183700562e-01 -5.310701727867126465e-01 3.436224460601806641e-01
3.332878947257995605e-01 -4.341974854469299316e-02 3.656044006347656250e-01
4.393812716007232666e-01 -5.029939413070678711e-01 -1.834323406219482422e-01
2.996424436569213867e-01 -4.886306524276733398e-01 4.085243940353393555e-01
2.450949698686599731e-01 -8.484227955341339111e-02 -1.052063554525375366e-01
5.619156956672668457e-01 -1.266966015100479126e-01 2.108739614486694336e-01
2.077506035566329956e-01 -2.656476497650146484e-01 -2.805274724960327148e-01
3.921718597412109375e-01 -5.586410760879516602e-01 -1.558372974395751953e-01
4.098663330078125000e-01 -5.105259418487548828e-01 -2.389888912439346313e-01
5.708481073379516602e-01 -2.731578946113586426e-01 -1.870027184486389160e-02
5.164880752563476562e-01 1.777023077011108398e-02 2.558393217623233795e-02
2.879862189292907715e-01 -6.275634765625000000e-01 -8.176721632480621338e-02
1.536918282508850098e-01 -4.716005325317382812e-01 3.332818150520324707e-01
2.390791177749633789e-01 -5.538598299026489258e-01 3.271747231483459473e-01
1.895119845867156982e-01 -1.822684407234191895e-01 -1.433234810829162598e-01
2.551438212394714355e-01 -2.974729537963867188e-01 4.907940030097961426e-01
4.063486456871032715e-01 -4.396676123142242432e-01 3.760437965393066406e-01
5.139225721359252930e-01 -3.557378053665161133e-01 -2.219272702932357788e-01
4.581705033779144287e-01 3.586328029632568359e-02 1.933660060167312622e-01
3.988746404647827148e-01 9.619802236557006836e-03 2.960462570190429688e-01
3.763344883918762207e-01 -4.030416011810302734e-01 4.433224797248840332e-01
4.597621262073516846e-01 -4.164151251316070557e-01 3.109592795372009277e-01
3.463377356529235840e-01 2.926433086395263672e-02 1.082444936037063599e-01
4.798066020011901855e-01 -2.280222177505493164e-01 -3.381254673004150391e-01
5.520706176757812500e-01 -3.240432143211364746e-01 1.105809807777404785e-01
3.690485060214996338e-01 -5.628392696380615234e-01 -1.961942017078399658e-01
1.696393936872482300e-01 -4.487797021865844727e-01 3.746253848075866699e-01
2.358057349920272827e-01 -3.948311805725097656e-01 -3.536976575851440430e-01
3.284302949905395508e-01 -3.645294308662414551e-01 -4.042680859565734863e-01
4.162797629833221436e-01 -2.041313052177429199e-02 -2.015491873025894165e-01
3.539264798164367676e-01 -4.174590110778808594e-03 -1.239683330059051514e-01
1.145896911621093750e-01 -3.178619146347045898e-01 -2.910376340150833130e-02
1.208839565515518188e-01 -5.415005683898925781e-01 -2.352962642908096313e-02
3.026857376098632812e-01 -5.899598598480224609e-01 2.377710640430450439e-01
5.034291148185729980e-01 -2.671030163764953613e-01 3.551864624023437500e-01
1.050544679164886475e-01 -3.816780149936676025e-01 -3.786191344261169434e-02
4.640057086944580078e-01 -4.655955135822296143e-01 -1.963867545127868652e-01
4.554628729820251465e-01 -2.105329185724258423e-01 4.441705346107482910e-01
3.352571129798889160e-01 -5.696883797645568848e-01 -2.259394675493240356e-01
4.088845849037170410e-01 -2.041862010955810547e-01 -3.799211978912353516e-01
9.701038897037506104e-02 -4.375277757644653320e-01 1.242573335766792297e-01
4.548953175544738770e-01 -1.066854596138000488e-01 -3.024650812149047852e-01
5.212810039520263672e-01 -4.124616980552673340e-01 2.325998991727828979e-02
5.029255747795104980e-01 -4.163608253002166748e-01 1.717555522918701172e-01
4.542065858840942383e-01 -5.025708079338073730e-01 1.296103894710540771e-01
5.632506608963012695e-01 -9.915363788604736328e-02 1.861150562763214111e-01
2.017567902803421021e-01 -1.598681360483169556e-01 3.294413685798645020e-01
5.433592200279235840e-01 -1.415932178497314453e-02 5.649991333484649658e-03
4.376196265220642090e-01 1.766666769981384277e-02 2.707010209560394287e-01
4.844760894775390625e-01 3.913563489913940430e-02 9.591349214315414429e-02
4.027787148952484131e-01 -5.513817071914672852e-01 1.577246189117431641e-01
3.886213302612304688e-01 1.935771107673645020e-02 -9.126219153404235840e-02
2.173246741294860840e-01 -1.094643324613571167e-01 2.725154459476470947e-01
2.784208953380584717e-01 -5.747124552726745605e-01 2.884562313556671143e-01
4.984513223171234131e-01 -6.695087254047393799e-02 -2.244938164949417114e-01
4.553581774234771729e-01 -5.067282915115356445e-01 -9.901231527328491211e-02
2.312986850738525391e-01 -6.931285560131072998e-02 1.793519854545593262e-01
2.083570361137390137e-01 -3.170882165431976318e-01 -3.092359304428100586e-01
1.280785053968429565e-01 -5.412002801895141602e-01 -6.926046311855316162e-02
1.155420839786529541e-01 -3.437244892120361328e-01 2.377034127712249756e-01
3.646179139614105225e-01 -4.999831318855285645e-01 3.490250706672668457e-01
4.511452913284301758e-01 -2.332623302936553955e-01 -3.664030432701110840e-01
3.687590956687927246e-01 -4.178559780120849609e-02 -2.207282334566116333e-01
3.987115323543548584e-01 -5.257632732391357422e-01 2.463818192481994629e-01
4.625932574272155762e-01 4.696837067604064941e-02 7.133366912603378296e-02
1.241511851549148560e-01 -4.657457172870635986e-01 2.642191052436828613e-01
3.943020105361938477e-01 -5.747747421264648438e-01 6.520171463489532471e-02
3.392523229122161865e-01 2.508413791656494141e-02 6.594139337539672852e-02
3.457827270030975342e-01 -4.095974564552307129e-01 4.589267969131469727e-01
3.034454882144927979e-01 -1.765115410089492798e-01 4.821573495864868164e-01
1.956673413515090942e-01 -1.143648028373718262e-01 4.351709410548210144e-02
4.402856230735778809e-01 -6.693613529205322266e-02 3.996651172637939453e-01
5.091027021408081055e-01 -1.506053954362869263e-01 -2.778789401054382324e-01
4.874236583709716797e-01 -1.161524653434753418e-02 -1.510901153087615967e-01
1.236714571714401245e-01 -2.740529179573059082e-01 1.884980201721191406e-01
2.550733089447021484e-01 -5.533046126365661621e-01 -2.712035775184631348e-01
4.604110121726989746e-01 -4.757404923439025879e-01 1.939726322889328003e-01
2.416496723890304565e-01 -1.728336513042449951e-01 -2.530878186225891113e-01
4.386921823024749756e-01 -4.917671382427215576e-01 2.252083122730255127e-01
3.432409763336181641e-01 4.028081893920898438e-04 -9.316575527191162109e-02
4.797368645668029785e-01 -4.686260819435119629e-01 1.250288933515548706e-01
4.370802640914916992e-01 -3.838005363941192627e-01 -3.463967442512512207e-01
2.287836074829101562e-01 -1.554722338914871216e-01 -2.048019915819168091e-01
1.547347903251647949e-01 -2.267131805419921875e-01 2.776687741279602051e-01
5.534174442291259766e-01 -1.231104135513305664e-01 2.424047738313674927e-01
1.221621185541152954e-01 -2.767918109893798828e-01 1.549575477838516235e-03
3.196003735065460205e-01 -6.107406616210937500e-01 1.416777670383453369e-01
3.228521943092346191e-01 -3.841797113418579102e-01 4.831068515777587891e-01
1.269211918115615845e-01 -3.116972446441650391e-01 -9.454247355461120605e-02
9.664994478225708008e-02 -3.909110128879547119e-01 1.016244664788246155e-01
4.400418698787689209e-01 -1.278798431158065796e-01 4.411644339561462402e-01
1.174306273460388184e-01 -5.383846759796142578e-01 1.139752715826034546e-01
1.568150669336318970e-01 -2.914673388004302979e-01 -1.851783543825149536e-01
3.250985741615295410e-01 -2.526638209819793701e-01 5.108475089073181152e-01
1.770591288805007935e-01 -2.762209773063659668e-01 3.900829553604125977e-01
5.796131491661071777e-01 -1.411614418029785156e-01 -4.391013830900192261e-02
2.724666297435760498e-01 -6.112475395202636719e-01 -1.602120846509933472e-01
4.366289079189300537e-01 -5.366466641426086426e-01 -2.931049466133117676e-02
3.923955261707305908e-01 -5.090670287609100342e-02 3.996320366859436035e-01
5.763910412788391113e-01 -1.257648169994354248e-01 1.260389387607574463e-01
4.083810150623321533e-01 -7.686841487884521484e-02 4.241863489151000977e-01
2.542484700679779053e-01 -6.003919839859008789e-01 2.349055111408233643e-01
1.816533803939819336e-01 -2.256192564964294434e-01 -1.851560622453689575e-01
5.260331034660339355e-01 -2.444839030504226685e-01 3.131250739097595215e-01
3.454531431198120117e-01 -7.308873534202575684e-02 4.160466194152832031e-01
4.177787899971008301e-01 -9.145140647888183594e-04 -1.617535799741744995e-01
1.488799601793289185e-01 -1.952203214168548584e-01 7.175421714782714844e-02
5.061236619949340820e-01 -5.697458982467651367e-03 2.343600243330001831e-01
1.458174437284469604e-01 -4.399494528770446777e-01 3.363483548164367676e-01
1.354752629995346069e-01 -3.880122303962707520e-01 -1.770961284637451172e-01
1.843548715114593506e-01 -2.375360876321792603e-01 3.791264891624450684e-01
3.243215084075927734e-01 -8.707612752914428711e-02 -2.543866038322448730e-01
4.920124411582946777e-01 3.534907102584838867e-02 4.500030353665351868e-02
2.617765069007873535e-01 -3.527033030986785889e-01 4.896256327629089355e-01
3.681999444961547852e-01 3.011175990104675293e-02 1.972602903842926025e-01
2.096737176179885864e-01 -4.756146073341369629e-01 4.008830189704895020e-01
5.791192054748535156e-01 -1.180391758680343628e-01 8.678337186574935913e-02
4.753435850143432617e-01 -4.829419553279876709e-01 8.398933708667755127e-02
5.282359123229980469e-01 -1.754230260848999023e-02 -8.410936594009399414e-02
4.699490666389465332e-01 -4.448334276676177979e-01 -2.202555984258651733e-01
2.818898260593414307e-01 -2.155115902423858643e-01 -3.438319563865661621e-01
2.800845801830291748e-01 -5.583496391773223877e-02 -1.248201578855514526e-01
4.013158380985260010e-01 2.148365974426269531e-02 2.639891505241394043e-01
3.538073003292083740e-01 -6.067553758621215820e-01 -2.520807087421417236e-03
1.597474962472915649e-01 -5.534284114837646484e-01 2.483641505241394043e-01
1.249209046363830566e-01 -3.524906039237976074e-01 2.846812605857849121e-01
4.657823443412780762e-01 -9.179711341857910156e-04 2.899756431579589844e-01
5.186182856559753418e-01 -3.765287995338439941e-02 -1.508301496505737305e-01
3.987732529640197754e-01 -2.454366981983184814e-01 4.908993840217590332e-01
1.025534421205520630e-01 -4.868606925010681152e-01 1.056838035583496094e-02
5.711762309074401855e-01 -2.474534958600997925e-01 1.157964915037155151e-01
4.374805092811584473e-01 -3.670854568481445312e-01 4.037525057792663574e-01
4.413347244262695312e-01 -5.281684398651123047e-01 -6.782148033380508423e-02
2.425143420696258545e-01 -1.155418604612350464e-01 3.550323247909545898e-01
2.055349200963973999e-01 -2.623727023601531982e-01 4.325346946716308594e-01
1.003780663013458252e-01 -3.782694935798645020e-01 9.291589260101318359e-03
5.106578469276428223e-01 -4.327824115753173828e-01 -1.469662785530090332e-02
3.394635021686553955e-01 -5.825832486152648926e-01 2.110431790351867676e-01
3.951148390769958496e-01 -4.147936403751373291e-01 4.156300425529479980e-01
5.360895395278930664e-01 -3.438439667224884033e-01 1.719480156898498535e-01
4.884289503097534180e-01 -4.427649378776550293e-01 -1.591964662075042725e-01
3.147780299186706543e-01 -5.994622707366943359e-01 -1.697451919317245483e-01
1.894310116767883301e-01 -4.786026477813720703e-01 -2.766075730323791504e-01
5.269796848297119141e-01 -2.837257385253906250e-01 2.852694988250732422e-01
9.939619898796081543e-02 -3.617736101150512695e-01 8.823767304420471191e-02
3.272701799869537354e-01 -2.943748235702514648e-02 3.325142264366149902e-01
1.300171613693237305e-01 -5.279924869537353516e-01 -1.010717898607254028e-01
2.094539999961853027e-01 -1.027298271656036377e-01 -8.697386831045150757e-03
1.255221664905548096e-01 -4.695509970188140869e-01 -1.378155350685119629e-01
4.023450314998626709e-01 -4.646914601325988770e-01 -3.169786334037780762e-01
5.788506269454956055e-01 -2.080596983432769775e-01 9.394569694995880127e-02
2.547680735588073730e-01 -3.710258901119232178e-01 -3.712779283523559570e-01
1.641989350318908691e-01 -5.087586045265197754e-01 -2.149029225111007690e-01
1.976820081472396851e-01 -6.299159526824951172e-01 3.300995007157325745e-02
2.604843974113464355e-01 -5.038799047470092773e-01 3.961211442947387695e-01
1.100632846355438232e-01 -5.115300416946411133e-01 -1.488716900348663330e-02
5.678339004516601562e-01 -1.908713728189468384e-01 -1.348490118980407715e-01
1.246857792139053345e-01 -2.966594398021697998e-01 -6.134594976902008057e-02
4.200503230094909668e-01 -5.434131026268005371e-01 -1.140170395374298096e-01
1.795628070831298828e-01 -5.809199213981628418e-01 2.289590239524841309e-01
3.580558598041534424e-01 -1.215406209230422974e-01 4.644801020622253418e-01
2.220091819763183594e-01 -3.313445448875427246e-01 4.660690426826477051e-01
1.886380612850189209e-01 -1.338937282562255859e-01 2.101905345916748047e-01
2.510971724987030029e-01 -3.986527621746063232e-01 4.704812765121459961e-01
3.124269247055053711e-01 -2.183443307876586914e-01 -3.692104816436767578e-01
2.349873781204223633e-01 -3.549699783325195312e-01 -3.523610234260559082e-01
1.433637142181396484e-01 -2.296863198280334473e-01 2.244684547185897827e-01
4.413796663284301758e-01 -3.408601880073547363e-02 -2.225729078054428101e-01
3.171366751194000244e-01 -2.488672137260437012e-01 -3.864818215370178223e-01
5.395791530609130859e-01 -3.582692444324493408e-01 1.107785701751708984e-01
1.683175712823867798e-01 -6.041713953018188477e-01 -5.253911018371582031e-02
1.140592247247695923e-01 -4.239734113216400146e-01 2.478941828012466431e-01
5.534855127334594727e-01 -2.268317639827728271e-01 2.347056865692138672e-01
5.364492535591125488e-01 -3.751416206359863281e-01 -5.804684013128280640e-02
3.389930129051208496e-01 -4.351302981376647949e-02 -1.972496211528778076e-01
5.162801146507263184e-01 -5.006405711174011230e-02 2.848768234252929688e-01
4.806938767433166504e-01 -1.394993215799331665e-01 4.035282135009765625e-01
5.261070132255554199e-01 -1.706733852624893188e-01 -2.567560672760009766e-01
5.662542581558227539e-01 -1.254733502864837646e-01 -1.191375255584716797e-01
2.851936519145965576e-01 -2.039922773838043213e-01 4.858028888702392578e-01
4.098148345947265625e-01 -5.640056133270263672e-01 2.159477770328521729e-02
2.291286438703536987e-01 -8.736425638198852539e-02 2.519884705543518066e-01
1.530140936374664307e-01 -2.714112997055053711e-01 -1.525447070598602295e-01
1.128490567207336426e-01 -2.997085154056549072e-01 1.415647268295288086e-01
5.411586165428161621e-01 -3.670389354228973389e-01 4.648403078317642212e-02
3.373879492282867432e-01 -6.130671501159667969e-01 6.838647276163101196e-02
3.027832508087158203e-01 -5.511105060577392578e-03 2.022138833999633789e-01
1.846204698085784912e-01 -6.219239830970764160e-01 7.453232258558273315e-02
2.322822958230972290e-01 -5.883454084396362305e-01 2.610483765602111816e-01
3.916461765766143799e-01 -5.693666934967041016e-01 1.194730252027511597e-01
4.093512892723083496e-01 4.517132043838500977e-02 1.540008187294006348e-02
2.437390387058258057e-01 -1.029311865568161011e-01 -1.455545425415039062e-01
2.010229825973510742e-01 -1.033593565225601196e-01 1.046808958053588867e-01
3.721240758895874023e-01 -2.920835912227630615e-01 4.988070726394653320e-01
4.896354675292968750e-01 -4.022414684295654297e-01 -2.331898957490921021e-01
3.909556865692138672e-01 -2.701608240604400635e-01 -4.013984799385070801e-01
3.022809624671936035e-01 -4.810114502906799316e-01 -3.525421619415283203e-01
5.795518159866333008e-01 -1.978887319564819336e-01 -5.053503066301345825e-02
4.885306656360626221e-01 2.299156785011291504e-02 1.917633265256881714e-01
2.464995980262756348e-01 -5.092978477478027344e-02 3.405342251062393188e-02
4.518672227859497070e-01 2.052283287048339844e-02 -1.014799326658248901e-01
2.103904038667678833e-01 -5.931795835494995117e-01 2.373072504997253418e-01
3.368763923645019531e-01 -4.696447849273681641e-01 4.114331603050231934e-01
2.901990711688995361e-01 -3.722774088382720947e-01 4.908287525177001953e-01
2.286964356899261475e-01 -1.555100977420806885e-01 3.849056363105773926e-01
1.743398010730743408e-01 -5.934182405471801758e-01 1.861319839954376221e-01
4.968395233154296875e-01 -4.401136636734008789e-01 1.304804682731628418e-01
5.826565623283386230e-01 -1.589192599058151245e-01 7.071597874164581299e-02
2.787106633186340332e-01 -6.346077919006347656e-01 6.623604893684387207e-02
1.583353579044342041e-01 -5.752297639846801758e-01 -1.115946620702743530e-01
1.238868236541748047e-01 -2.587115764617919922e-01 1.238042935729026794e-01
5.837806463241577148e-01 -1.627278178930282593e-01 2.535564824938774109e-02
3.700456917285919189e-01 2.326864004135131836e-02 2.336227744817733765e-01
5.287518501281738281e-01 -3.272613883018493652e-01 2.328004240989685059e-01
1.326235234737396240e-01 -2.866773903369903564e-01 2.658501863479614258e-01
1.422489136457443237e-01 -3.427702188491821289e-01 -1.791012138128280640e-01
4.568317234516143799e-01 -3.562905788421630859e-01 -3.382022380828857422e-01
5.281938314437866211e-01 -3.047421574592590332e-02 2.259941846132278442e-01
3.890905082225799561e-01 -4.970639944076538086e-01 3.208875060081481934e-01
1.007342189550399780e-01 -3.651411533355712891e-01 1.396545469760894775e-01
4.138258993625640869e-01 -5.523004531860351562e-01 1.030765175819396973e-01
3.562151193618774414e-01 -9.080694615840911865e-02 -2.847441434860229492e-01
5.823000669479370117e-01 -1.319499462842941284e-01 4.072600975632667542e-02
1.694208532571792603e-01 -3.468522429466247559e-01 3.976457118988037109e-01
1.512740254402160645e-01 -1.942890584468841553e-01 1.626522988080978394e-01
5.611316561698913574e-01 -1.914956122636795044e-01 2.185964584350585938e-01
5.625337362289428711e-01 -2.268475592136383057e-01 1.946106702089309692e-01
3.693369626998901367e-01 -5.633308887481689453e-01 2.110601514577865601e-01
2.590227723121643066e-01 -4.423661231994628906e-01 -3.601836562156677246e-01
5.291272997856140137e-01 -3.149723112583160400e-01 -2.163665741682052612e-01
1.357506364583969116e-01 -5.713933706283569336e-01 -2.233716100454330444e-02
1.903931796550750732e-01 -6.123605966567993164e-01 -8.732943236827850342e-02
3.738041818141937256e-01 -5.202614068984985352e-01 3.033522963523864746e-01
5.290714502334594727e-01 -7.375577092170715332e-02 -1.817834973335266113e-01
2.066404372453689575e-01 -4.349606037139892578e-01 4.251158833503723145e-01
1.427956521511077881e-01 -5.379697084426879883e-01 -1.319075226783752441e-01
2.675394713878631592e-01 -3.703048825263977051e-02 2.155276536941528320e-01
1.810555011034011841e-01 -2.818000614643096924e-01 -2.393672615289688110e-01
2.082003057003021240e-01 -6.037470102310180664e-01 2.073038667440414429e-01
4.136096239089965820e-01 -4.207874536514282227e-01 -3.458140492439270020e-01
4.956337809562683105e-01 -1.094526052474975586e-01 3.697503209114074707e-01
1.051000207662582397e-01 -4.332659244537353516e-01 1.995666772127151489e-01
3.627402484416961670e-01 -3.838465213775634766e-01 -3.969315886497497559e-01
4.395548403263092041e-01 -3.236387073993682861e-01 -3.708609938621520996e-01
2.437799572944641113e-01 -6.392143964767456055e-01 -1.604404300451278687e-03
3.236531913280487061e-01 -3.843435645103454590e-02 -1.666786372661590576e-01
5.403785705566406250e-01 -1.952905058860778809e-01 -2.299186438322067261e-01
2.289558351039886475e-01 -5.755888819694519043e-01 -2.239533811807632446e-01
1.079985499382019043e-01 -3.530364036560058594e-01 1.982866525650024414e-01
3.741107881069183350e-01 3.736165165901184082e-02 2.454372867941856384e-02
3.841331005096435547e-01 -3.582434058189392090e-01 -3.975660204887390137e-01
2.518907189369201660e-01 -6.014382839202880859e-01 -1.853193938732147217e-01
3.707999289035797119e-01 3.901159763336181641e-02 6.204461306333541870e-02
1.011100262403488159e-01 -3.552024960517883301e-01 4.600008949637413025e-02
5.301170349121093750e-01 -3.731304407119750977e-01 -1.218533664941787720e-01
4.955810904502868652e-01 -1.687653958797454834e-01 -3.045743703842163086e-01
2.987226843833923340e-01 -7.280945777893066406e-03 2.605006098747253418e-03
2.199635952711105347e-01 -4.276127815246582031e-01 -3.326672911643981934e-01
4.495041370391845703e-01 -4.987107515335083008e-01 1.672064960002899170e-01
4.404991269111633301e-01 -4.025787413120269775e-01 3.656726479530334473e-01
5.144711732864379883e-01 -4.046306014060974121e-01 1.417304873466491699e-01
4.828087687492370605e-01 -1.353833526372909546e-01 -3.019621968269348145e-01
3.069251179695129395e-01 -2.790594100952148438e-02 -1.092129200696945190e-01
3.172803223133087158e-01 -3.521128296852111816e-01 4.978739619255065918e-01
4.649562835693359375e-01 -3.515882492065429688e-01 3.724072575569152832e-01
3.832078874111175537e-01 -4.524185657501220703e-01 -3.470247387886047363e-01
5.085620880126953125e-01 1.178815960884094238e-02 -4.797454923391342163e-02
4.551651775836944580e-01 -5.149562954902648926e-01 3.243828564882278442e-02
5.393287539482116699e-01 -3.164663910865783691e-01 -1.771863400936126709e-01
1.928267180919647217e-01 -1.287988275289535522e-01 -1.665771007537841797e-02
4.377360343933105469e-01 -9.585537016391754150e-02 4.245546460151672363e-01
1.582934707403182983e-01 -2.493940889835357666e-01 3.214653134346008301e-01
2.723332643508911133e-01 -1.945527791976928711e-01 -3.181110024452209473e-01
5.717796683311462402e-01 -2.248580008745193481e-01 1.408396065235137939e-01
3.635384142398834229e-01 1.680317521095275879e-02 -6.863100826740264893e-02
3.159232735633850098e-01 1.197141408920288086e-02 9.027889370918273926e-02
3.915721178054809570e-01 -1.307746767997741699e-01 -3.370991945266723633e-01
5.092722177505493164e-01 -3.546402752399444580e-01 2.636232674121856689e-01
3.912152051925659180e-01 -3.421758115291595459e-01 4.696936607360839844e-01
4.694504737854003906e-01 -2.614929676055908203e-01 -3.507453799247741699e-01
4.865895509719848633e-01 3.258591890335083008e-02 -7.671546190977096558e-03
1.407676637172698975e-01 -3.682724833488464355e-01 3.379439711570739746e-01
1.356620639562606812e-01 -2.267095148563385010e-01 1.304061859846115112e-01
5.579218268394470215e-01 -2.052414119243621826e-01 -1.758012920618057251e-01
1.109273135662078857e-01 -4.275898337364196777e-01 -8.793367445468902588e-02
2.189063876867294312e-01 -7.962323725223541260e-02 1.227471306920051575e-01
3.019982874393463135e-01 -5.591808557510375977e-01 3.069921731948852539e-01
3.263213634490966797e-01 -5.711680650711059570e-01 2.603193521499633789e-01
5.001682043075561523e-01 -4.068274497985839844e-01 2.069411724805831909e-01
3.751188516616821289e-01 -2.231010347604751587e-01 -3.911377191543579102e-01
5.752244591712951660e-01 -2.417819797992706299e-01 -4.617541283369064331e-02
2.064574509859085083e-01 -5.397113561630249023e-01 -2.507466673851013184e-01
1.426720172166824341e-01 -2.686317563056945801e-01 -1.090210825204849243e-01
5.292526483535766602e-01 -3.920127451419830322e-01 6.488613039255142212e-02
2.950731217861175537e-01 -4.244297742843627930e-01 4.640803337097167969e-01
1.695468127727508545e-01 -2.123933732509613037e-01 -1.267536431550979614e-01
5.736349225044250488e-01 -8.076773583889007568e-02 5.835895985364913940e-02
4.092157781124114990e-01 2.989360690116882324e-02 -6.851238757371902466e-02
3.357581198215484619e-01 5.536586046218872070e-03 -5.859537422657012939e-02
2.261539995670318604e-01 -7.259966433048248291e-02 5.033248290419578552e-02
3.388211727142333984e-01 -4.237089157104492188e-01 -3.855144381523132324e-01
4.944203197956085205e-01 -4.605319201946258545e-01 -1.355628669261932373e-02
3.574072718620300293e-01 -1.403754651546478271e-01 -3.369331359863281250e-01
2.465113401412963867e-01 -6.370742321014404297e-01 7.507942616939544678e-02
4.957736432552337646e-01 -2.005819082260131836e-01 -3.139349818229675293e-01
2.825164496898651123e-01 -3.957773447036743164e-01 -3.859874010086059570e-01
3.470339179039001465e-01 -3.583646714687347412e-01 4.878615736961364746e-01
3.996999561786651611e-01 -4.891464114189147949e-02 -2.460643500089645386e-01
3.521569073200225830e-01 -5.373453497886657715e-01 -2.709515690803527832e-01
3.082313835620880127e-01 6.280869245529174805e-03 1.258277297019958496e-01
2.038087844848632812e-01 -6.200048923492431641e-01 1.432604193687438965e-01
1.006855517625808716e-01 -4.859727621078491211e-01 4.554960876703262329e-02
5.674514770507812500e-01 -2.782875597476959229e-01 8.562578260898590088e-02
1.344665288925170898e-01 -5.634027719497680664e-01 1.438185721635818481e-01
5.097490549087524414e-01 -3.276021778583526611e-01 -2.604132890701293945e-01
4.597042500972747803e-01 -3.836759924888610840e-01 -3.156787157058715820e-01
1.456039249897003174e-01 -4.102092385292053223e-01 -2.087217718362808228e-01
3.331483900547027588e-01 -4.632109403610229492e-01 -3.628691434860229492e-01
2.665948867797851562e-01 -3.276297450065612793e-02 1.656087860465049744e-02
5.757026672363281250e-01 -2.518238127231597900e-01 7.492519915103912354e-03
1.590261906385421753e-01 -4.469199180603027344e-01 -2.358018904924392700e-01
4.963548481464385986e-01 -6.377242505550384521e-02 3.360231518745422363e-01
5.732816457748413086e-01 -2.289085835218429565e-01 -8.468368649482727051e-02
1.207579374313354492e-01 -2.670237123966217041e-01 8.362007141113281250e-02
3.237290382385253906e-01 -6.224460601806640625e-01 1.614270731806755066e-02
2.958737015724182129e-01 -5.622662603855133057e-02 3.443679809570312500e-01
1.145863682031631470e-01 -3.119272291660308838e-01 1.936466693878173828e-01
5.745525360107421875e-01 -8.820445835590362549e-02 -7.431544363498687744e-04
3.309454023838043213e-01 -1.120021343231201172e-01 -2.927013635635375977e-01
3.130509853363037109e-01 -2.234671264886856079e-01 5.041683912277221680e-01
5.256252884864807129e-01 -3.527432084083557129e-01 -1.844576895236968994e-01
2.935011982917785645e-01 -7.210284471511840820e-03 1.636185199022293091e-01
4.237155914306640625e-01 -2.179038524627685547e-02 3.542873263359069824e-01
1.076597571372985840e-01 -3.304117321968078613e-01 1.622276902198791504e-01
3.714782595634460449e-01 -3.760101795196533203e-01 4.655019640922546387e-01
5.159704685211181641e-01 -3.003856539726257324e-02 2.577195763587951660e-01
4.456073939800262451e-01 4.891362786293029785e-02 1.153778880834579468e-01
1.480491012334823608e-01 -4.585721790790557861e-01 -2.076957374811172485e-01
4.444032013416290283e-01 4.519736766815185547e-02 5.453154444694519043e-03
5.366618037223815918e-01 -3.787046372890472412e-01 -2.615241706371307373e-02
3.373250067234039307e-01 -6.082839965820312500e-01 1.074290275573730469e-01
5.405349731445312500e-01 -6.880478560924530029e-02 -1.475199013948440552e-01
1.875844448804855347e-01 -3.221884071826934814e-01 -2.765142917633056641e-01
2.346678525209426880e-01 -6.315181255340576172e-01 1.155827641487121582e-01
1.072376519441604614e-01 -3.420604765415191650e-01 -8.535362780094146729e-03
2.982954382896423340e-01 -1.522886008024215698e-01 -3.069908022880554199e-01
2.730287611484527588e-01 -2.470832914113998413e-01 4.937207698822021484e-01
5.727516412734985352e-01 -1.297551393508911133e-01 -8.820316195487976074e-02
2.236905992031097412e-01 -6.310336589813232422e-01 -6.139127165079116821e-02
4.789267778396606445e-01 -3.740742206573486328e-01 -2.898093461990356445e-01
4.076108932495117188e-01 -5.309606790542602539e-01 -1.983079910278320312e-01
3.124867379665374756e-01 -1.101281493902206421e-01 4.373179078102111816e-01
3.266317248344421387e-01 -6.086605191230773926e-01 -1.171651184558868408e-01
4.817625880241394043e-01 -3.446754515171051025e-01 -3.067639470100402832e-01
2.055968344211578369e-01 -5.923047661781311035e-01 -1.695680618286132812e-01
4.420906901359558105e-01 3.232005238533020020e-02 2.228324860334396362e-01
2.671727836132049561e-01 -6.253280043601989746e-01 -1.095469444990158081e-01
1.854738593101501465e-01 -1.661278456449508667e-01 2.877973914146423340e-01
3.050085008144378662e-01 -7.451368868350982666e-02 -2.109883278608322144e-01
2.870175838470458984e-01 -5.276788473129272461e-01 3.644862771034240723e-01
1.559692621231079102e-01 -3.329850435256958008e-01 3.681844472885131836e-01
2.763286828994750977e-01 -3.213896751403808594e-01 5.003147721290588379e-01
1.616729348897933960e-01 -1.683632433414459229e-01 9.352219104766845703e-02
5.665949583053588867e-01 -6.965297460556030273e-02 -3.273603320121765137e-02
2.325619012117385864e-01 -6.201376914978027344e-01 1.697531342506408691e-01
3.032117187976837158e-01 -3.079736232757568359e-01 -3.965547680854797363e-01
3.776041567325592041e-01 -6.533890962600708008e-03 -1.554318815469741821e-01
2.761647105216979980e-01 -1.839140057563781738e-02 1.087073013186454773e-01
4.890832006931304932e-01 -2.853959798812866211e-03 2.620285749435424805e-01
4.389823079109191895e-01 -1.947963237762451172e-01 -3.643077015876770020e-01
1.821920573711395264e-01 -3.786884546279907227e-01 -2.830770611763000488e-01
5.346726179122924805e-01 -1.189526915550231934e-02 -4.143793135881423950e-02
2.936850190162658691e-01 -4.241991043090820312e-02 3.101755380630493164e-01
3.626553416252136230e-01 -5.952605605125427246e-01 9.289997071027755737e-02
5.254150032997131348e-01 -1.206290572881698608e-01 3.194841742515563965e-01
4.254682064056396484e-01 -3.250682950019836426e-01 4.463109374046325684e-01
2.547436058521270752e-01 -8.701521158218383789e-02 3.288152217864990234e-01
2.165308296680450439e-01 -1.906015872955322266e-01 4.008738398551940918e-01
1.435535252094268799e-01 -2.217109799385070801e-01 -1.212228089570999146e-02
2.448360025882720947e-01 -6.394715309143066406e-01 3.267307579517364502e-02
3.552547991275787354e-01 -8.566856384277343750e-03 3.151226043701171875e-01
1.105456054210662842e-01 -4.653251171112060547e-01 -7.512797415256500244e-02
5.423856973648071289e-01 -2.791157364845275879e-01 2.370348721742630005e-01
2.536199092864990234e-01 -7.321052253246307373e-02 2.940320372581481934e-01
3.251509070396423340e-01 1.557376980781555176e-02 1.513354927301406860e-01
5.168294906616210938e-01 -4.159567356109619141e-01 -6.738269329071044922e-02
3.675476014614105225e-01 -2.195999026298522949e-01 5.031610727310180664e-01
3.649153411388397217e-01 3.398510813713073730e-02 1.608019173145294189e-01
3.888516426086425781e-01 -8.304554224014282227e-02 -2.889658212661743164e-01
1.663986295461654663e-01 -6.050999164581298828e-01 1.145882382988929749e-01
1.802638620138168335e-01 -3.730106353759765625e-01 4.148382544517517090e-01
3.013234436511993408e-01 -5.418562293052673340e-01 3.375790715217590332e-01
4.669304490089416504e-01 -6.906521320343017578e-02 3.788273930549621582e-01
2.351766824722290039e-01 -6.190354824066162109e-01 -1.271488219499588013e-01
5.552964210510253906e-01 -1.241250932216644287e-01 -1.608128547668457031e-01
5.413632988929748535e-01 -2.698278427124023438e-02 1.690960526466369629e-01
4.092594087123870850e-01 -3.708244264125823975e-01 4.360410571098327637e-01
5.015563964843750000e-01 -4.471973180770874023e-01 4.362615197896957397e-02
4.427636861801147461e-01 -2.709903419017791748e-01 4.488348960876464844e-01
2.022148817777633667e-01 -6.028718352317810059e-01 -1.396540254354476929e-01
4.476914703845977783e-01 -4.295732378959655762e-01 -2.915825843811035156e-01
5.531452894210815430e-01 -3.253647387027740479e-01 -7.621531188488006592e-02
3.732599020004272461e-01 -1.865658760070800781e-01 -3.737981319427490234e-01
3.483194708824157715e-01 -3.269377648830413818e-01 4.992702007293701172e-01
3.502451181411743164e-01 -6.064147949218750000e-01 -5.132810026407241821e-02
5.680790543556213379e-01 -1.581710278987884521e-01 -1.291517168283462524e-01
1.948867291212081909e-01 -5.642178058624267578e-01 -2.051856964826583862e-01
1.514714658260345459e-01 -1.942448019981384277e-01 3.129150718450546265e-02
4.808383584022521973e-01 -4.290145635604858398e-01 2.320395857095718384e-01
1.098145991563796997e-01 -3.935759961605072021e-01 2.300839722156524658e-01
2.868008911609649658e-01 -6.147816181182861328e-01 1.736359000205993652e-01
2.680093944072723389e-01 -7.777589559555053711e-02 -1.497583091259002686e-01
4.087249934673309326e-01 4.677125811576843262e-02 1.420859098434448242e-01
1.957893520593643188e-01 -1.167440116405487061e-01 1.789982318878173828e-01
2.364214211702346802e-01 -7.177619636058807373e-02 -2.473095059394836426e-02
5.399875640869140625e-01 -1.003113836050033569e-01 2.722644209861755371e-01
5.690982341766357422e-01 -8.867466449737548828e-02 -5.813556909561157227e-02
4.024277329444885254e-01 -1.286673098802566528e-01 4.629476070404052734e-01
1.825352311134338379e-01 -1.318068206310272217e-01 1.184714138507843018e-01
1.954462677240371704e-01 -4.361594319343566895e-01 -3.007368445396423340e-01
3.962491452693939209e-01 -5.742800235748291016e-01 -4.800509661436080933e-02
5.174602866172790527e-01 -3.822907209396362305e-01 -1.684741526842117310e-01
