9.141739010810852051e-01 1.351979374885559082e-02 -1.053191162645816803e-02
6.491388678550720215e-01 1.633226722478866577e-01 -3.518809378147125244e-02
6.445057988166809082e-01 2.015411853790283203e-01 5.676528066396713257e-02
7.307310104370117188e-01 7.301652431488037109e-02 -2.345201931893825531e-02
6.604551076889038086e-01 2.312241196632385254e-01 5.558348447084426880e-02
7.274968624114990234e-01 2.570900321006774902e-01 -1.737067289650440216e-02
6.575274467468261719e-01 1.230529770255088806e-01 -8.408445864915847778e-05
7.313385009765625000e-01 2.441337406635284424e-01 3.432982414960861206e-02
6.880956888198852539e-01 1.437844932079315186e-01 6.990037858486175537e-02
8.002097606658935547e-01 6.654202938079833984e-03 2.537256665527820587e-02
6.572902202606201172e-01 2.736534476280212402e-01 2.711042389273643494e-02
8.219016790390014648e-01 -2.767831087112426758e-03 3.872466832399368286e-02
6.996058821678161621e-01 7.874108105897903442e-02 2.247547358274459839e-02
7.567641139030456543e-01 1.862199753522872925e-01 6.976275891065597534e-02
8.405586481094360352e-01 1.543818265199661255e-01 5.132111161947250366e-02
9.049265980720520020e-01 -2.201168239116668701e-02 1.956866681575775146e-02
8.054189085960388184e-01 1.047498732805252075e-01 -5.506123602390289307e-02
7.409593462944030762e-01 5.673638731241226196e-02 5.412493646144866943e-02
7.868095040321350098e-01 1.860135197639465332e-01 -4.814902693033218384e-02
7.367497682571411133e-01 2.530327439308166504e-01 1.025206781923770905e-02
8.793712258338928223e-01 -6.285637617111206055e-03 6.064239889383316040e-02
7.499142289161682129e-01 1.258265376091003418e-01 -5.800309777259826660e-02
6.631605625152587891e-01 1.765472292900085449e-01 6.402926146984100342e-02
6.304532289505004883e-01 1.542288213968276978e-01 1.456117909401655197e-02
7.151098251342773438e-01 7.899682223796844482e-02 5.339655280113220215e-02
7.072216868400573730e-01 1.543002128601074219e-01 7.692182809114456177e-02
8.528628945350646973e-01 1.626790761947631836e-01 -5.359254777431488037e-03
9.210517406463623047e-01 7.707351446151733398e-02 2.060464955866336823e-02
7.385455965995788574e-01 1.507609784603118896e-01 -6.116272509098052979e-02
7.522884011268615723e-01 2.114971578121185303e-01 5.599889159202575684e-02
7.240509986877441406e-01 1.588891595602035522e-01 -6.087818741798400879e-02
9.063949584960937500e-01 1.000106409192085266e-01 7.708984892815351486e-03
5.895044803619384766e-01 2.502027750015258789e-01 6.100925616919994354e-03
9.096001386642456055e-01 -1.632332801818847656e-02 9.803805500268936157e-03
8.954986929893493652e-01 9.322491288185119629e-02 -1.970177702605724335e-02
7.613896727561950684e-01 3.129073977470397949e-02 1.334927510470151901e-02
8.382419943809509277e-01 3.533676266670227051e-03 6.132780015468597412e-02
7.223444581031799316e-01 8.048123121261596680e-02 -2.473160438239574432e-02
9.008732438087463379e-01 -2.385638654232025146e-02 3.066206537187099457e-02
6.638396382331848145e-01 2.197664231061935425e-01 -5.481681972742080688e-02
7.806839942932128906e-01 2.135871052742004395e-01 -3.157060593366622925e-02
6.479603052139282227e-01 1.478854268789291382e-01 -2.205911464989185333e-02
8.077301979064941406e-01 1.092993021011352539e-01 8.425469696521759033e-02
7.711464166641235352e-01 1.731716394424438477e-01 7.242367416620254517e-02
8.847117424011230469e-01 1.262445300817489624e-01 -3.547224216163158417e-03
6.998412013053894043e-01 8.912362903356552124e-02 4.786819964647293091e-02
8.815035223960876465e-01 8.730427175760269165e-02 -3.252054005861282349e-02
6.297574043273925781e-01 1.557459086179733276e-01 2.521474845707416534e-03
6.403599977493286133e-01 1.442881822586059570e-01 2.630126476287841797e-02
8.861042261123657227e-01 1.064798831939697266e-01 -2.198116667568683624e-02
9.390206336975097656e-01 2.893254905939102173e-02 1.681547053158283234e-02
8.278577327728271484e-01 1.858924329280853271e-01 -9.773589670658111572e-03
7.736287117004394531e-01 2.294848263263702393e-01 1.410540193319320679e-02
7.239640951156616211e-01 1.591561734676361084e-01 7.923880964517593384e-02
8.630791902542114258e-01 -1.434491574764251709e-02 4.822121560573577881e-02
9.318661689758300781e-01 2.375251799821853638e-02 4.633165150880813599e-02
7.747281789779663086e-01 6.868577748537063599e-02 7.937187701463699341e-02
8.016184568405151367e-01 1.521679311990737915e-01 -5.396266281604766846e-02
8.568980693817138672e-01 -1.675891876220703125e-02 3.686577081680297852e-02
7.645458579063415527e-01 2.368038296699523926e-01 -7.474413141608238220e-03
6.629035472869873047e-01 2.474903762340545654e-01 -4.947679489850997925e-02
8.219794631004333496e-01 1.421464830636978149e-01 7.048057019710540771e-02
8.227735161781311035e-01 1.043297350406646729e-01 8.264321833848953247e-02
7.104203701019287109e-01 1.401354223489761353e-01 7.704154402017593384e-02
7.421523928642272949e-01 1.355626136064529419e-01 -5.917537957429885864e-02
9.398941993713378906e-01 2.096825093030929565e-02 3.066052496433258057e-02
7.971800565719604492e-01 2.063595950603485107e-01 3.025243617594242096e-02
7.118701934814453125e-01 8.861079812049865723e-02 5.920077860355377197e-02
8.086081147193908691e-01 1.973129808902740479e-02 6.386207789182662964e-02
8.398191332817077637e-01 3.127685934305191040e-02 -3.137125819921493530e-02
6.137937307357788086e-01 2.286978960037231445e-01 3.867231309413909912e-02
6.195893883705139160e-01 2.208676934242248535e-01 -3.779899328947067261e-02
8.844022154808044434e-01 -1.685316860675811768e-02 4.984679073095321655e-02
8.832853436470031738e-01 4.388004541397094727e-03 6.691385060548782349e-02
8.415634036064147949e-01 1.491437703371047974e-01 -3.544521331787109375e-02
8.601858019828796387e-01 -1.157078146934509277e-02 4.456169903278350830e-03
6.806640625000000000e-01 1.081878393888473511e-01 4.616853594779968262e-02
6.224232912063598633e-01 2.555397152900695801e-01 3.614328429102897644e-02
7.502982020378112793e-01 1.989632248878479004e-01 6.474667787551879883e-02
7.175710201263427734e-01 1.046506017446517944e-01 7.155770063400268555e-02
7.739992141723632812e-01 2.177294790744781494e-01 3.736171126365661621e-02
7.219612002372741699e-01 8.346985280513763428e-02 6.291392445564270020e-02
6.726697087287902832e-01 2.351404726505279541e-01 5.506175756454467773e-02
7.076942920684814453e-01 1.054285317659378052e-01 6.675408035516738892e-02
8.790185451507568359e-01 1.001567766070365906e-01 -3.078707866370677948e-02
8.309787511825561523e-01 1.323213577270507812e-01 7.139916718006134033e-02
7.651540637016296387e-01 7.663183659315109253e-02 7.935512810945510864e-02
5.983824133872985840e-01 2.491438686847686768e-01 2.258712425827980042e-02
9.330240488052368164e-01 5.137708783149719238e-02 1.653841510415077209e-02
6.845064759254455566e-01 2.713561654090881348e-01 2.183892205357551575e-02
9.003220796585083008e-01 3.760089725255966187e-02 6.807667016983032227e-02
7.001600265502929688e-01 2.396044433116912842e-01 -5.024936050176620483e-02
5.933848619461059570e-01 2.612757980823516846e-01 -1.465972140431404114e-02
7.283254861831665039e-01 6.288265436887741089e-02 4.823147505521774292e-02
6.145197153091430664e-01 2.151243388652801514e-01 3.893277421593666077e-02
6.368515491485595703e-01 1.525315642356872559e-01 -1.115138642489910126e-02
6.826585531234741211e-01 2.693792879581451416e-01 -3.224219381809234619e-02
8.914743661880493164e-01 1.006929203867912292e-01 5.003413558006286621e-02
7.664862275123596191e-01 2.693966031074523926e-02 2.712606638669967651e-02
7.279457449913024902e-01 1.007389873266220093e-01 7.463658601045608521e-02
8.834953308105468750e-01 -2.320900559425354004e-03 -9.537680074572563171e-03
7.597483396530151367e-01 1.212466657161712646e-01 8.462191373109817505e-02
6.888046264648437500e-01 8.854963630437850952e-02 1.591628417372703552e-02
6.347563862800598145e-01 2.143486291170120239e-01 -4.521457850933074951e-02
8.351563215255737305e-01 1.674755811691284180e-01 4.257625713944435120e-02
8.901871442794799805e-01 5.382663756608963013e-02 7.091719657182693481e-02
6.932630538940429688e-01 1.206074580550193787e-01 6.528736650943756104e-02
7.155736684799194336e-01 1.179685369133949280e-01 7.493796199560165405e-02
7.132077217102050781e-01 2.379333674907684326e-01 -4.815512150526046753e-02
8.998330235481262207e-01 1.101675331592559814e-01 1.647252216935157776e-02
6.543521881103515625e-01 2.865607142448425293e-01 2.181354910135269165e-03
6.850118041038513184e-01 1.332508325576782227e-01 -4.094828665256500244e-02
7.565045356750488281e-01 9.694403409957885742e-02 8.225677907466888428e-02
7.025040388107299805e-01 1.256665885448455811e-01 7.171759009361267090e-02
6.350538730621337891e-01 2.626761198043823242e-01 3.581241518259048462e-02
8.443993926048278809e-01 1.595800668001174927e-01 -2.478755079209804535e-02
6.876138448715209961e-01 1.547777950763702393e-01 -5.178719758987426758e-02
6.881275177001953125e-01 1.680226624011993408e-01 -5.567189306020736694e-02
8.338062167167663574e-01 5.002188682556152344e-02 8.233566582202911377e-02
8.517963290214538574e-01 1.481402516365051270e-01 -2.730523608624935150e-02
8.127295970916748047e-01 1.914476007223129272e-01 3.534140810370445251e-02
9.302779436111450195e-01 6.487220525741577148e-03 4.742074012756347656e-02
7.017248868942260742e-01 2.639857530593872070e-01 2.410723641514778137e-02
8.409022688865661621e-01 1.107453554868698120e-01 -4.770983755588531494e-02
8.574298024177551270e-01 1.586939245462417603e-01 1.990658044815063477e-02
9.148722290992736816e-01 5.136203765869140625e-02 -1.485400088131427765e-02
6.509182453155517578e-01 1.869591474533081055e-01 5.930859595537185669e-02
8.151529431343078613e-01 3.560379147529602051e-03 4.710580408573150635e-02
8.503882288932800293e-01 1.003037095069885254e-01 7.599034905433654785e-02
7.325367927551269531e-01 2.213314622640609741e-01 -5.145505815744400024e-02
8.203504085540771484e-01 1.780346632003784180e-01 -3.167612105607986450e-02
7.942851781845092773e-01 1.723143160343170166e-01 -5.075061321258544922e-02
7.711851000785827637e-01 1.533847302198410034e-01 -6.026373058557510376e-02
7.757756710052490234e-01 2.585608512163162231e-02 4.602563381195068359e-02
7.485890388488769531e-01 4.817187041044235229e-02 5.091711878776550293e-02
7.009304761886596680e-01 2.219432592391967773e-01 -5.667819827795028687e-02
6.559678912162780762e-01 1.662658452987670898e-01 5.872605741024017334e-02
8.034438490867614746e-01 9.869705885648727417e-02 8.575455844402313232e-02
7.133792638778686523e-01 2.022778540849685669e-01 -6.007462739944458008e-02
6.752997040748596191e-01 1.646813750267028809e-01 6.789198517799377441e-02
6.327230334281921387e-01 2.216637283563613892e-01 5.006750673055648804e-02
8.278520107269287109e-01 1.884852349758148193e-01 3.720480948686599731e-03
8.118276000022888184e-01 1.987272799015045166e-01 2.253436110913753510e-02
6.759836673736572266e-01 1.810857355594635010e-01 6.866867840290069580e-02
6.945406198501586914e-01 1.534533500671386719e-01 7.358708977699279785e-02
9.282662272453308105e-01 6.192281842231750488e-03 2.124425955116748810e-03
9.272351264953613281e-01 6.524083018302917480e-02 1.761253178119659424e-02
8.640046119689941406e-01 1.452443003654479980e-01 3.526211157441139221e-02
6.950660943984985352e-01 2.601426243782043457e-01 -3.738438338041305542e-02
8.652456998825073242e-01 1.012497395277023315e-01 -3.878998011350631714e-02
9.191792011260986328e-01 5.188986659049987793e-03 -4.066856577992439270e-03
7.951452136039733887e-01 1.121735721826553345e-01 8.516743779182434082e-02
7.991914153099060059e-01 1.627173423767089844e-01 6.897621601819992065e-02
7.429809570312500000e-01 1.436980068683624268e-01 8.228949457406997681e-02
7.182022333145141602e-01 1.116770952939987183e-01 -4.502920806407928467e-02
9.033560752868652344e-01 9.307602047920227051e-02 -1.011561229825019836e-02
8.835658431053161621e-01 4.283087700605392456e-02 7.434089481830596924e-02
6.610655784606933594e-01 1.937205344438552856e-01 6.347481161355972290e-02
9.181286096572875977e-01 2.477444708347320557e-02 -1.144905015826225281e-02
7.229932546615600586e-01 2.578366696834564209e-01 1.759084127843379974e-02
9.032280445098876953e-01 1.032752320170402527e-01 2.640948072075843811e-02
8.846085667610168457e-01 -2.026677131652832031e-02 1.398213021457195282e-02
7.466589212417602539e-01 2.219428867101669312e-01 4.987788945436477661e-02
7.292812466621398926e-01 2.062513679265975952e-01 -5.774762481451034546e-02
7.787407040596008301e-01 2.267095297574996948e-01 -8.429892361164093018e-03
7.873980402946472168e-01 3.258559107780456543e-02 -1.762713864445686340e-02
7.374221086502075195e-01 1.702701598405838013e-01 7.772122323513031006e-02
6.077060699462890625e-01 2.043626010417938232e-01 2.829239703714847565e-02
8.049780130386352539e-01 2.066144347190856934e-01 -7.453870028257369995e-03
8.286529779434204102e-01 1.107018440961837769e-01 -5.138915032148361206e-02
9.224805831909179688e-01 6.551023572683334351e-02 3.803851455450057983e-02
7.427684664726257324e-01 1.706994175910949707e-01 -6.183255463838577271e-02
6.287081241607666016e-01 1.612440943717956543e-01 -7.943922653794288635e-03
6.708394885063171387e-01 1.360357999801635742e-01 -3.351937979459762573e-02
6.419852972030639648e-01 1.714484393596649170e-01 5.065458267927169800e-02
6.416633725166320801e-01 2.051249891519546509e-01 -4.683627933263778687e-02
8.965770602226257324e-01 5.845931172370910645e-02 -2.697292156517505646e-02
7.027508020401000977e-01 2.105326652526855469e-01 -5.904965102672576904e-02
8.003607392311096191e-01 4.110404849052429199e-02 7.509707659482955933e-02
7.609816193580627441e-01 5.272981524467468262e-02 6.550267338752746582e-02
7.502617239952087402e-01 3.962104767560958862e-02 3.550391644239425659e-02
7.964810132980346680e-01 1.776793897151947021e-01 6.108233332633972168e-02
6.061704158782958984e-01 2.830635309219360352e-01 -3.750495612621307373e-03
6.857560873031616211e-01 2.149304151535034180e-01 -5.798820406198501587e-02
7.333024144172668457e-01 2.182084918022155762e-01 5.750462412834167480e-02
8.131347298622131348e-01 2.794450521469116211e-02 7.165068387985229492e-02
7.063308358192443848e-01 7.390953600406646729e-02 7.955873385071754456e-03
6.024819016456604004e-01 2.079094648361206055e-01 -1.286648213863372803e-02
7.408788204193115234e-01 1.152736917138099670e-01 -5.352374911308288574e-02
6.877236962318420410e-01 2.770065367221832275e-01 3.882453776895999908e-03
6.694099307060241699e-01 2.744699716567993164e-01 2.331029623746871948e-02
7.701339721679687500e-01 2.074945569038391113e-01 -4.414996504783630371e-02
7.455980181694030762e-01 4.315034300088882446e-02 8.814207278192043304e-03
9.128727912902832031e-01 -1.695105433464050293e-02 4.454820603132247925e-02
8.726980686187744141e-01 1.323956251144409180e-01 -1.723805628716945648e-02
7.696017622947692871e-01 2.285739481449127197e-01 -2.182421274483203888e-02
9.377406835556030273e-01 1.690684258937835693e-02 1.110878959298133850e-02
7.296403646469116211e-01 1.778207570314407349e-01 7.596889883279800415e-02
8.139837384223937988e-01 1.831363290548324585e-01 4.490409046411514282e-02
8.147120475769042969e-01 8.356481790542602539e-02 8.558169007301330566e-02
8.972862362861633301e-01 1.084316149353981018e-01 -4.005735740065574646e-03
6.498721241950988770e-01 2.702027559280395508e-01 -3.760426491498947144e-02
6.841093897819519043e-01 1.851322352886199951e-01 -5.764472484588623047e-02
8.320427536964416504e-01 8.215308934450149536e-02 8.391804248094558716e-02
6.171255111694335938e-01 2.849572300910949707e-01 6.641234736889600754e-03
8.638945817947387695e-01 8.462622761726379395e-02 -4.120434820652008057e-02
8.663507699966430664e-01 1.369852125644683838e-01 4.315203800797462463e-02
7.257370948791503906e-01 1.353881508111953735e-01 8.028652518987655640e-02
6.988008618354797363e-01 2.723263502120971680e-01 -1.311129145324230194e-02
6.064838171005249023e-01 2.703022956848144531e-01 1.898424886167049408e-02
9.253244996070861816e-01 -1.661483943462371826e-02 2.764271944761276245e-02
7.448963522911071777e-01 4.180694371461868286e-02 2.205161191523075104e-02
6.204096078872680664e-01 2.413257658481597900e-01 4.048383980989456177e-02
7.302905917167663574e-01 1.057330965995788574e-01 -4.657074809074401855e-02
7.876710295677185059e-01 2.108371406793594360e-01 3.411709889769554138e-02
6.151151657104492188e-01 1.822065114974975586e-01 -9.652338922023773193e-03
7.775163054466247559e-01 1.207889840006828308e-01 -5.849309265613555908e-02
6.540018320083618164e-01 1.246499493718147278e-01 1.427040342241525650e-02
8.898522853851318359e-01 8.462084084749221802e-02 6.160008907318115234e-02
7.171320915222167969e-01 6.754428148269653320e-02 3.924624621868133545e-02
6.835733056068420410e-01 1.180499941110610962e-01 5.728321522474288940e-02
8.081046938896179199e-01 2.003400474786758423e-01 -1.748679764568805695e-02
7.567960023880004883e-01 2.329773306846618652e-01 3.051579743623733521e-02
7.540161013603210449e-01 2.258655279874801636e-01 4.211215302348136902e-02
7.372978329658508301e-01 1.544224172830581665e-01 8.075776696205139160e-02
6.070706844329833984e-01 2.725069522857666016e-01 -2.397400699555873871e-02
7.442253828048706055e-01 2.306267023086547852e-01 -4.077922552824020386e-02
9.354168176651000977e-01 3.875871747732162476e-02 1.021485682576894760e-02
6.699154973030090332e-01 2.359550893306732178e-01 -5.323617905378341675e-02
8.467360734939575195e-01 -1.200798153877258301e-02 1.411985978484153748e-02
6.694295406341552734e-01 1.900018453598022461e-01 -5.453921854496002197e-02
6.803714036941528320e-01 2.482079714536666870e-01 -4.881595820188522339e-02
7.148658037185668945e-01 2.658697366714477539e-01 -6.536338478326797485e-03
9.058640003204345703e-01 6.055165827274322510e-02 -2.084815688431262970e-02
6.040428876876831055e-01 2.332986742258071899e-01 3.036133572459220886e-02
6.411609649658203125e-01 1.736581474542617798e-01 -3.504540771245956421e-02
6.036459803581237793e-01 2.306824177503585815e-01 -2.688096277415752411e-02
8.045607209205627441e-01 1.508273184299468994e-02 -6.138605996966362000e-03
6.546541452407836914e-01 1.392256915569305420e-01 -2.105760388076305389e-02
8.382959365844726562e-01 7.235966622829437256e-02 -4.639279097318649292e-02
7.085009217262268066e-01 1.643958389759063721e-01 -5.951205641031265259e-02
7.620283365249633789e-01 2.147116959095001221e-01 4.886649549007415771e-02
8.602631688117980957e-01 4.952500760555267334e-02 -3.787396848201751709e-02
8.233021497726440430e-01 7.098975777626037598e-02 8.487126976251602173e-02
6.098815202713012695e-01 2.154306471347808838e-01 -2.818251214921474457e-02
6.008238792419433594e-01 2.105669826269149780e-01 1.947879046201705933e-02
7.893261909484863281e-01 7.684221863746643066e-02 -4.767536371946334839e-02
6.509670615196228027e-01 1.471079438924789429e-01 4.640770703554153442e-02
7.832179069519042969e-01 1.835970580577850342e-02 1.087859738618135452e-02
6.339387297630310059e-01 1.581319123506546021e-01 3.317018970847129822e-02
7.751824855804443359e-01 2.821994572877883911e-02 -1.947754062712192535e-03
8.542245030403137207e-01 -2.302512526512145996e-03 -6.693312898278236389e-03
6.195093393325805664e-01 1.699163913726806641e-01 4.863319918513298035e-03
9.112586379051208496e-01 8.906032890081405640e-02 8.519850671291351318e-04
7.062925696372985840e-01 1.782861202955245972e-01 -6.070806831121444702e-02
8.484942317008972168e-01 1.680285781621932983e-01 1.771699450910091400e-02
7.152460813522338867e-01 6.503650546073913574e-02 1.800988428294658661e-02
9.303579330444335938e-01 -6.452903151512145996e-03 4.086000472307205200e-02
6.130910515785217285e-01 1.978418827056884766e-01 -2.214290760457515717e-02
9.249585866928100586e-01 6.630401313304901123e-02 6.986492313444614410e-03
6.863376498222351074e-01 1.682910323143005371e-01 7.179730385541915894e-02
8.211272954940795898e-01 1.886282861232757568e-01 2.837421000003814697e-02
8.164285421371459961e-01 8.695074915885925293e-02 -5.140750855207443237e-02
6.995257735252380371e-01 1.875455826520919800e-01 -6.037411838769912720e-02
8.054170012474060059e-01 1.474430114030838013e-01 7.407915592193603516e-02
8.366307616233825684e-01 1.766259074211120605e-01 -1.191027276217937469e-02
7.922961711883544922e-01 1.402428150177001953e-01 -5.784567445516586304e-02
7.159327864646911621e-01 1.498735994100570679e-01 -5.816284567117691040e-02
8.072017431259155273e-01 1.919832527637481689e-01 -3.042172081768512726e-02
7.106236219406127930e-01 1.830966323614120483e-01 7.429771870374679565e-02
7.685810923576354980e-01 2.064812779426574707e-01 5.279205739498138428e-02
6.494477987289428711e-01 1.326775550842285156e-01 -1.745003275573253632e-03
6.287792921066284180e-01 2.652808427810668945e-01 -3.761846572160720825e-02
6.444717049598693848e-01 2.843219637870788574e-01 -2.225646190345287323e-02
7.939059734344482422e-01 1.434711217880249023e-01 7.859665155410766602e-02
7.488310337066650391e-01 8.486153930425643921e-02 -4.193573445081710815e-02
6.923145055770874023e-01 2.092335522174835205e-01 6.622218340635299683e-02
8.523395061492919922e-01 1.131351962685585022e-01 7.044677436351776123e-02
7.580204010009765625e-01 2.344067692756652832e-01 -2.584191225469112396e-02
8.736177682876586914e-01 3.924788534641265869e-02 -3.249368071556091309e-02
8.883644342422485352e-01 2.084967494010925293e-02 -2.275682426989078522e-02
6.306420564651489258e-01 2.853128612041473389e-01 1.081708166748285294e-02
6.859830021858215332e-01 1.203085631132125854e-01 -3.293148428201675415e-02
7.700101733207702637e-01 1.005307585000991821e-01 -5.360508710145950317e-02
6.648156642913818359e-01 2.480359673500061035e-01 4.796193540096282959e-02
7.759145498275756836e-01 4.107519239187240601e-02 -2.017232961952686310e-02
6.340776681900024414e-01 2.727794349193572998e-01 2.771515399217605591e-02
6.780271530151367188e-01 2.106364667415618896e-01 6.456375867128372192e-02
8.838352560997009277e-01 6.958494335412979126e-02 -3.322935104370117188e-02
6.097373962402343750e-01 1.857102066278457642e-01 6.029428448528051376e-03
6.316083073616027832e-01 2.786739468574523926e-01 -2.920829690992832184e-02
7.118891477584838867e-01 8.731816709041595459e-02 -2.339234016835689545e-02
6.979489326477050781e-01 2.278510928153991699e-01 5.811049789190292358e-02
7.784341573715209961e-01 4.776684194803237915e-02 7.096142321825027466e-02
6.460005640983581543e-01 2.527233958244323730e-01 -4.601880162954330444e-02
6.603919267654418945e-01 2.590472698211669922e-01 -4.445910453796386719e-02
8.414793610572814941e-01 8.490769565105438232e-02 -4.766954481601715088e-02
7.006411552429199219e-01 2.576057612895965576e-01 3.373996913433074951e-02
9.208874702453613281e-01 1.228544861078262329e-02 5.623071640729904175e-02
7.074595689773559570e-01 2.692340910434722900e-01 1.735016703605651855e-03
8.448593020439147949e-01 1.329617649316787720e-01 6.421015411615371704e-02
6.001281142234802246e-01 2.451535463333129883e-01 -2.549733780324459076e-02
8.290702104568481445e-01 8.059909194707870483e-02 -4.906924813985824585e-02
6.635345816612243652e-01 1.215559840202331543e-01 -1.042954623699188232e-02
7.023996710777282715e-01 2.415015399456024170e-01 4.859990626573562622e-02
8.751890659332275391e-01 1.409010887145996094e-01 1.289949566125869751e-02
6.115944981575012207e-01 1.885085850954055786e-01 2.296629920601844788e-02
7.290511727333068848e-01 2.045696526765823364e-01 6.618314236402511597e-02
8.016067743301391602e-01 2.309500426054000854e-02 -1.475741714239120483e-02
7.486706376075744629e-01 2.405309081077575684e-01 -2.593382261693477631e-02
7.240554094314575195e-01 5.939174443483352661e-02 3.296132013201713562e-02
6.604806184768676758e-01 1.965026110410690308e-01 -5.273979902267456055e-02
7.723943591117858887e-01 1.741411834955215454e-01 -5.716373026371002197e-02
8.379933834075927734e-01 1.182414069771766663e-01 7.449211925268173218e-02
8.862997293472290039e-01 1.197634562849998474e-01 3.636187314987182617e-02
8.250042796134948730e-01 9.278364479541778564e-03 6.160145252943038940e-02
7.875243425369262695e-01 6.554923206567764282e-02 8.136820048093795776e-02
8.228952884674072266e-01 1.514185518026351929e-01 -4.574084281921386719e-02
7.395170927047729492e-01 1.845870018005371094e-01 -6.081950664520263672e-02
8.699185252189636230e-01 -1.900701224803924561e-02 1.649198681116104126e-02
6.535860896110534668e-01 1.271761059761047363e-01 2.561040222644805908e-02
7.506996393203735352e-01 1.841182857751846313e-01 -5.944886058568954468e-02
8.794555068016052246e-01 1.156872734427452087e-01 -2.306810207664966583e-02
6.727839112281799316e-01 2.590802907943725586e-01 3.967757150530815125e-02
6.243249177932739258e-01 2.652749419212341309e-01 3.129892796277999878e-02
8.019335269927978516e-01 5.673608928918838501e-02 -4.042670130729675293e-02
8.348834514617919922e-01 1.815077364444732666e-01 -1.470130868256092072e-03
7.377931475639343262e-01 9.538251161575317383e-02 7.660447806119918823e-02
8.112978935241699219e-01 4.003894329071044922e-02 -3.258161246776580811e-02
7.085943222045898438e-01 7.361736893653869629e-02 3.554942458868026733e-02
8.533620834350585938e-01 7.465149462223052979e-02 -4.399717599153518677e-02
8.761327862739562988e-01 1.038913875818252563e-01 6.119567900896072388e-02
9.038364887237548828e-01 7.143964618444442749e-02 -2.029064483940601349e-02
6.174917817115783691e-01 2.522941529750823975e-01 -3.738802671432495117e-02
8.104792237281799316e-01 2.026135623455047607e-01 1.242220494896173477e-02
7.621425986289978027e-01 2.207431197166442871e-01 -3.862386196851730347e-02
6.290129423141479492e-01 1.851419508457183838e-01 -3.135507553815841675e-02
7.508508563041687012e-01 1.521772295236587524e-01 8.130241185426712036e-02
6.596547365188598633e-01 2.639170289039611816e-01 3.670201078057289124e-02
8.705974817276000977e-01 6.726436316967010498e-02 -3.845480084419250488e-02
6.779763102531433105e-01 2.467346042394638062e-01 4.845811426639556885e-02
7.871760725975036621e-01 1.834021508693695068e-02 4.540422558784484863e-02
8.462486267089843750e-01 -1.116578280925750732e-02 4.398053884506225586e-02
7.813365459442138672e-01 6.904266774654388428e-02 -4.271516203880310059e-02
6.452426314353942871e-01 1.834888160228729248e-01 -4.244276881217956543e-02
8.566779494285583496e-01 3.907199203968048096e-02 7.944769412279129028e-02
6.329535841941833496e-01 1.677776426076889038e-01 4.006510972976684570e-02
7.254176139831542969e-01 2.353082597255706787e-01 4.682286828756332397e-02
7.325917482376098633e-01 2.567151784896850586e-01 -4.758300259709358215e-03
8.896785378456115723e-01 -2.383357286453247070e-02 2.848663926124572754e-02
8.119939565658569336e-01 1.199818253517150879e-01 8.145052939653396606e-02
6.928415894508361816e-01 8.989329636096954346e-02 3.848239034414291382e-02
7.071599364280700684e-01 2.222129851579666138e-01 6.018953770399093628e-02
7.985615730285644531e-01 1.272692531347274780e-01 8.219626545906066895e-02
7.887374758720397949e-01 9.990439563989639282e-02 8.605375885963439941e-02
8.636918663978576660e-01 1.536414921283721924e-01 9.656189940869808197e-03
8.123048543930053711e-01 3.982897847890853882e-02 7.741842418909072876e-02
8.339434266090393066e-01 1.601788103580474854e-01 -3.424843400716781616e-02
7.706282734870910645e-01 6.657649576663970947e-02 -3.838669508695602417e-02
7.623447179794311523e-01 1.915292441844940186e-01 -5.493289977312088013e-02
7.278650403022766113e-01 6.658086180686950684e-02 -1.320078782737255096e-02
7.979922890663146973e-01 1.846614181995391846e-01 -4.308195412158966064e-02
7.384893298149108887e-01 5.021993070840835571e-02 4.030241072177886963e-02
6.646463871002197266e-01 1.487350463867187500e-01 -3.753069043159484863e-02
7.566710710525512695e-01 7.001370191574096680e-02 -3.549259901046752930e-02
7.279139757156372070e-01 5.563591420650482178e-02 1.143916603177785873e-02
9.097404479980468750e-01 3.964576870203018188e-02 -1.881358772516250610e-02
7.944562435150146484e-01 1.963411569595336914e-01 -3.713452816009521484e-02
6.749007105827331543e-01 1.500864028930664062e-01 6.516998261213302612e-02
7.677415609359741211e-01 3.799495846033096313e-02 5.623058974742889404e-02
6.308003067970275879e-01 1.988220661878585815e-01 -3.904465585947036743e-02
6.867457032203674316e-01 2.025977224111557007e-01 -5.894851684570312500e-02
8.251749277114868164e-01 3.333353996276855469e-02 7.703288644552230835e-02
8.069427013397216797e-01 1.698859333992004395e-01 -4.602479934692382812e-02
-6.719062924385070801e-01 1.300729364156723022e-01 -1.064236760139465332e-01
-5.274850130081176758e-01 -4.607662558555603027e-03 -1.160306707024574280e-01
-6.890726089477539062e-01 6.409814953804016113e-02 1.061332151293754578e-01
-6.074216961860656738e-01 -9.750531613826751709e-02 -5.584446713328361511e-02
-7.064704895019531250e-01 2.914760112762451172e-01 6.143620237708091736e-02
-5.878143906593322754e-01 -1.656226813793182373e-03 8.423500508069992065e-02
-8.864564299583435059e-01 1.777475029230117798e-01 7.699288427829742432e-02
-5.809144377708435059e-01 1.828475296497344971e-01 -8.470239490270614624e-02
-5.095057487487792969e-01 -5.206440389156341553e-02 4.779931530356407166e-02
-6.234276890754699707e-01 -5.005061626434326172e-03 8.108279109001159668e-02
-8.100768327713012695e-01 2.198183536529541016e-02 6.300991773605346680e-02
-3.049027323722839355e-01 6.238732859492301941e-02 -5.467363446950912476e-02
-2.805176973342895508e-01 5.256123840808868408e-02 2.975128591060638428e-02
-7.415606975555419922e-01 -7.422150671482086182e-02 -3.419977799057960510e-02
-9.255805015563964844e-01 1.069315522909164429e-01 4.769247770309448242e-02
-5.322078466415405273e-01 1.513592004776000977e-01 1.222771406173706055e-01
-4.661543369293212891e-01 6.756389141082763672e-02 1.039124429225921631e-01
-8.024403452873229980e-01 1.553020924329757690e-01 1.057157218456268311e-01
-8.394442200660705566e-01 6.010887771844863892e-02 -8.992483466863632202e-02
-3.464022278785705566e-01 3.262907266616821289e-02 -7.826119661331176758e-02
-6.167181730270385742e-01 2.141238749027252197e-01 1.201610490679740906e-01
-6.382122635841369629e-01 2.284178584814071655e-01 -6.023519858717918396e-02
-8.782414197921752930e-01 8.974462002515792847e-02 6.934662163257598877e-02
-4.440109431743621826e-01 2.195006459951400757e-01 9.171815216541290283e-02
-4.529467821121215820e-01 1.694750487804412842e-01 1.096413210034370422e-01
-9.377934932708740234e-01 7.902590930461883545e-02 2.136847563087940216e-02
-6.862492561340332031e-01 2.896593809127807617e-01 6.932687014341354370e-02
-7.399017810821533203e-01 -7.023510336875915527e-02 -9.323905222117900848e-03
-5.019873380661010742e-01 1.993330419063568115e-01 1.134580522775650024e-01
-8.308885097503662109e-01 2.682050466537475586e-01 3.004052303731441498e-02
-4.623242020606994629e-01 -2.817474305629730225e-02 -1.028473675251007080e-01
-9.262437224388122559e-01 2.038024365901947021e-01 2.924167178571224213e-02
-3.178289234638214111e-01 -2.661302685737609863e-03 2.859341725707054138e-02
-3.876839578151702881e-01 -7.154931128025054932e-02 -2.411955595016479492e-02
-5.483347177505493164e-01 -1.009193956851959229e-01 -4.762088879942893982e-02
-6.756544113159179688e-01 -4.011057317256927490e-02 -1.041701734066009521e-01
-6.659733057022094727e-01 -8.286213874816894531e-02 -7.113496959209442139e-02
-6.917897462844848633e-01 1.650019437074661255e-01 1.227743849158287048e-01
-8.775408864021301270e-01 1.617548465728759766e-01 -5.913962051272392273e-02
-3.472393453121185303e-01 7.844276726245880127e-02 -7.370436936616897583e-02
-4.516087472438812256e-01 -1.086525619029998779e-03 -1.064066290855407715e-01
-7.682699561119079590e-01 -6.331217288970947266e-02 -1.785325445234775543e-02
-8.748409748077392578e-01 2.267835289239883423e-02 3.290603309869766235e-02
-4.445154368877410889e-01 2.543748021125793457e-01 2.259543351829051971e-02
-7.456885576248168945e-01 -6.863899528980255127e-02 -5.635617300868034363e-02
-4.409289360046386719e-01 -7.515227794647216797e-02 9.121120907366275787e-03
-4.319390058517456055e-01 1.895565092563629150e-01 1.002233102917671204e-01
-3.004244565963745117e-01 8.402931690216064453e-02 -4.691482335329055786e-02
-4.352495670318603516e-01 -2.558412402868270874e-02 -9.799704700708389282e-02
-6.303693056106567383e-01 -8.997030556201934814e-03 -1.174354255199432373e-01
-6.416680216789245605e-01 -5.806775391101837158e-02 3.977110609412193298e-02
-6.369495391845703125e-01 -5.075441300868988037e-02 -1.034060716629028320e-01
-2.780722677707672119e-01 8.250786364078521729e-02 3.338249027729034424e-02
-6.972960829734802246e-01 2.718930542469024658e-01 -1.880276948213577271e-02
-4.124150574207305908e-01 -1.521187275648117065e-02 5.920848250389099121e-02
-2.682437598705291748e-01 5.667397007346153259e-02 1.026591286063194275e-02
-4.345338940620422363e-01 4.697059839963912964e-02 -1.041522324085235596e-01
-4.144931435585021973e-01 -2.391791343688964844e-02 -9.319166839122772217e-02
-5.980193018913269043e-01 -8.361518383026123047e-02 -8.187478035688400269e-02
-6.168442964553833008e-01 1.021574959158897400e-01 1.201922148466110229e-01
-5.923826694488525391e-01 -5.331091582775115967e-02 -1.043853238224983215e-01
-7.533702254295349121e-01 1.834757924079895020e-01 1.149296537041664124e-01
-4.822005033493041992e-01 2.130425870418548584e-01 1.055258885025978088e-01
-5.536859035491943359e-01 3.732931613922119141e-02 1.016355231404304504e-01
-9.483905434608459473e-01 8.603046834468841553e-02 -1.587848365306854248e-02
-6.179426312446594238e-01 5.858407914638519287e-02 -1.206668391823768616e-01
-8.756561279296875000e-01 2.363698780536651611e-01 -3.659620182588696480e-03
-6.500250101089477539e-01 2.636538743972778320e-01 -2.962449006736278534e-02
-6.164211630821228027e-01 -6.441092491149902344e-02 3.607887774705886841e-02
-8.061562776565551758e-01 -2.410860359668731689e-02 2.653297595679759979e-02
-8.479992151260375977e-01 9.518457204103469849e-02 8.295976370573043823e-02
-8.639854192733764648e-01 -7.294841110706329346e-03 -5.042229965329170227e-02
-4.071905016899108887e-01 5.594417452812194824e-03 -9.716778248548507690e-02
-9.115592837333679199e-01 8.054441958665847778e-02 4.717389494180679321e-02
-9.433235526084899902e-01 1.012036576867103577e-01 2.788950689136981964e-02
-5.577873587608337402e-01 1.275289803743362427e-02 9.136990457773208618e-02
-6.946573257446289062e-01 1.958326250314712524e-02 8.733607083559036255e-02
-4.747044444084167480e-01 -3.859858214855194092e-02 5.479943752288818359e-02
-4.227720499038696289e-01 1.648530066013336182e-01 -6.656595319509506226e-02
-7.197407484054565430e-01 2.801507711410522461e-01 7.910476624965667725e-02
-3.855446577072143555e-01 4.692189395427703857e-02 -9.176150709390640259e-02
-5.882586836814880371e-01 -9.824331104755401611e-02 -1.657051406800746918e-02
-8.001818656921386719e-01 -5.405396223068237305e-05 -9.144194424152374268e-02
-4.038547277450561523e-01 7.759816944599151611e-02 -9.281729906797409058e-02
-7.549752593040466309e-01 9.923830628395080566e-02 1.070407554507255554e-01
-4.301498532295227051e-01 1.363385766744613647e-01 1.067997440695762634e-01
-5.039498805999755859e-01 4.889198765158653259e-02 1.027218997478485107e-01
-8.041979074478149414e-01 2.313136011362075806e-01 9.414204955101013184e-02
-3.360350728034973145e-01 -4.493789374828338623e-02 -2.093863859772682190e-02
-3.733614087104797363e-01 -9.870469570159912109e-03 -8.363360166549682617e-02
-5.472296476364135742e-01 6.032805517315864563e-02 -1.181561425328254700e-01
-7.638409137725830078e-01 2.676844000816345215e-01 8.240792155265808105e-02
-5.137898325920104980e-01 1.684011816978454590e-01 1.197884604334831238e-01
-5.664461255073547363e-01 -7.817319035530090332e-02 2.286429889500141144e-02
-7.912404537200927734e-01 2.790642678737640381e-01 2.105428650975227356e-02
-8.889197111129760742e-01 1.334528923034667969e-01 -6.392312794923782349e-02
-6.570878624916076660e-01 1.475941240787506104e-01 -1.013358831405639648e-01
-5.458542704582214355e-01 2.061013877391815186e-01 1.177470386028289795e-01
-3.922883868217468262e-01 1.904370784759521484e-01 8.546505123376846313e-02
-5.745410323143005371e-01 1.123445183038711548e-01 -1.104847043752670288e-01
-4.612422287464141846e-01 1.774854212999343872e-02 8.589351177215576172e-02
-7.666702270507812500e-01 -5.016402900218963623e-02 1.323391590267419815e-02
-4.073355197906494141e-01 1.037501916289329529e-01 -8.743829280138015747e-02
-3.413113057613372803e-01 2.668550610542297363e-02 5.885121226310729980e-02
-8.203597664833068848e-01 1.254238486289978027e-01 9.815593063831329346e-02
-5.762268304824829102e-01 1.535641402006149292e-01 1.250699907541275024e-01
-7.816221714019775391e-01 3.158032149076461792e-02 7.680372148752212524e-02
-7.893274426460266113e-01 2.094357162714004517e-01 -6.011727079749107361e-02
-8.911345601081848145e-01 1.435731649398803711e-01 7.524296641349792480e-02
-5.493142008781433105e-01 2.810584008693695068e-01 1.391064282506704330e-02
-3.568551242351531982e-01 3.683049976825714111e-02 6.913613528013229370e-02
-6.800400018692016602e-01 7.498681545257568359e-03 -1.167379766702651978e-01
-5.041270852088928223e-01 -7.590131461620330811e-02 -8.498935401439666748e-02
-4.841845631599426270e-01 -7.543630897998809814e-02 1.995021477341651917e-02
-5.219997763633728027e-01 2.672264575958251953e-01 7.855322211980819702e-02
-5.220242142677307129e-01 7.700487971305847168e-02 1.121922954916954041e-01
-4.520885944366455078e-01 2.577039003372192383e-01 4.803467169404029846e-02
-3.729466497898101807e-01 2.197642922401428223e-01 2.768198773264884949e-02
-6.439995765686035156e-01 1.432536691427230835e-01 1.247650980949401855e-01
-6.997320652008056641e-01 2.029011845588684082e-01 1.193539500236511230e-01
-5.333907008171081543e-01 2.381348013877868652e-01 1.046791523694992065e-01
-5.379194617271423340e-01 2.835562825202941895e-01 4.583426564931869507e-02
-3.651865422725677490e-01 1.125504970550537109e-01 -7.095713168382644653e-02
-7.971434593200683594e-01 9.210929274559020996e-04 5.319916456937789917e-02
-8.493396639823913574e-01 1.380259841680526733e-01 -7.713352143764495850e-02
-4.085816144943237305e-01 1.073281839489936829e-01 1.003465205430984497e-01
-4.268603324890136719e-01 8.897447586059570312e-02 1.019009202718734741e-01
-5.986638069152832031e-01 8.177911490201950073e-02 1.159795671701431274e-01
-7.179340720176696777e-01 4.954525455832481384e-02 -1.152605563402175903e-01
-8.933916091918945312e-01 9.172708541154861450e-02 -6.836842000484466553e-02
-8.945307731628417969e-01 1.121875345706939697e-01 -6.581552326679229736e-02
-4.766606986522674561e-01 2.736566960811614990e-02 -1.123523935675621033e-01
-3.793306350708007812e-01 1.416649222373962402e-01 -6.396906077861785889e-02
-8.234901428222656250e-01 4.387544095516204834e-02 -9.378913789987564087e-02
-7.946173548698425293e-01 7.368493825197219849e-02 9.154299646615982056e-02
-5.423791408538818359e-01 1.645543873310089111e-01 -8.982814103364944458e-02
-3.291811048984527588e-01 1.001114323735237122e-01 -5.931667983531951904e-02
-3.438891768455505371e-01 7.840839773416519165e-02 7.602935284376144409e-02
-7.530130147933959961e-01 1.398244202136993408e-01 1.141635924577713013e-01
-4.896648526191711426e-01 2.344624102115631104e-01 9.727381169795989990e-02
-4.478564560413360596e-01 1.758865565061569214e-01 -6.737411022186279297e-02
-4.872818589210510254e-01 -9.174612164497375488e-02 -8.134835399687290192e-03
-6.380196809768676758e-01 -8.536571264266967773e-02 4.442102275788784027e-03
-3.788104057312011719e-01 5.527264252305030823e-02 8.240847289562225342e-02
-3.410732150077819824e-01 -9.939379990100860596e-03 3.713388741016387939e-02
-9.186856746673583984e-01 5.028598755598068237e-02 -4.308181628584861755e-02
-4.862490892410278320e-01 -9.689804911613464355e-02 -3.738952428102493286e-02
-6.363189220428466797e-01 -7.238219678401947021e-02 2.440457046031951904e-02
-7.895401120185852051e-01 7.601497322320938110e-02 -1.027291938662528992e-01
-5.616773366928100586e-01 2.508800029754638672e-01 -3.465418517589569092e-02
-7.626741528511047363e-01 3.459505736827850342e-02 8.281125128269195557e-02
-5.635571479797363281e-01 7.246093451976776123e-02 -1.177276000380516052e-01
-3.032268583774566650e-01 9.076957404613494873e-02 5.662058666348457336e-02
-5.896705985069274902e-01 2.300638854503631592e-01 -5.632008984684944153e-02
-5.106248259544372559e-01 2.395160794258117676e-01 9.944575279951095581e-02
-6.438283324241638184e-01 2.475916296243667603e-01 -4.517369344830513000e-02
-6.486985683441162109e-01 2.964917421340942383e-01 3.939871862530708313e-02
-6.088784337043762207e-01 6.701610982418060303e-03 8.806137740612030029e-02
-4.664478898048400879e-01 1.049835458397865295e-01 -1.001964360475540161e-01
-8.383184671401977539e-01 1.667499840259552002e-01 9.630130976438522339e-02
-7.861953973770141602e-01 -4.984475672245025635e-02 -6.062263250350952148e-02
-4.507350325584411621e-01 2.164957076311111450e-01 -3.917995467782020569e-02
-5.481860041618347168e-01 7.296737283468246460e-02 1.127404421567916870e-01
-3.386264741420745850e-01 1.497992277145385742e-01 7.250346243381500244e-02
-7.382521033287048340e-01 2.307462394237518311e-01 1.083345636725425720e-01
-7.653216719627380371e-01 2.664222717285156250e-01 -1.513478346168994904e-02
-3.232438266277313232e-01 1.721288859844207764e-01 -5.563351325690746307e-03
-3.339032828807830811e-01 9.703705459833145142e-02 7.421942800283432007e-02
-9.072341322898864746e-01 2.041852474212646484e-02 -1.829272136092185974e-02
-8.177056312561035156e-01 2.623378634452819824e-01 6.657582521438598633e-02
-8.245109915733337402e-01 5.398169159889221191e-03 -8.439960330724716187e-02
-6.943618059158325195e-01 -7.917115092277526855e-02 -2.381588565185666084e-03
-4.697532951831817627e-01 1.791072785854339600e-01 -7.082447409629821777e-02
-3.690581321716308594e-01 -6.319583952426910400e-02 -2.044853381812572479e-02
-8.612279891967773438e-01 2.547887265682220459e-01 3.279089927673339844e-02
-7.013829350471496582e-01 9.908846765756607056e-02 -1.119361147284507751e-01
-7.593373656272888184e-01 2.864854633808135986e-01 2.386117354035377502e-02
-7.226056456565856934e-01 -7.882258296012878418e-02 -4.648339003324508667e-02
-3.449634015560150146e-01 5.622467398643493652e-02 -7.642003893852233887e-02
-6.835333108901977539e-01 -1.466969400644302368e-02 6.920537352561950684e-02
-8.291484117507934570e-01 5.942134931683540344e-02 7.622293382883071899e-02
-8.879030942916870117e-01 2.162263393402099609e-01 -1.938775368034839630e-02
-3.314281404018402100e-01 -5.611963570117950439e-03 -6.481298804283142090e-02
-6.551936268806457520e-01 -9.666904807090759277e-04 -1.174825802445411682e-01
-5.514922142028808594e-01 2.828077375888824463e-01 6.241735443472862244e-02
-8.813182711601257324e-01 4.312878102064132690e-02 -6.959059089422225952e-02
-3.820794224739074707e-01 2.229132950305938721e-01 4.639185592532157898e-02
-8.597455024719238281e-01 1.096871942281723022e-01 -8.019036054611206055e-02
-5.121938586235046387e-01 2.387276738882064819e-01 -3.655324503779411316e-02
-3.715968132019042969e-01 1.147196441888809204e-01 9.017249196767807007e-02
-3.231095671653747559e-01 1.533177196979522705e-01 -2.626634389162063599e-02
-5.031093955039978027e-01 2.704397439956665039e-01 6.377862393856048584e-02
-8.028000593185424805e-01 -4.061175882816314697e-02 5.283513106405735016e-03
-6.441153287887573242e-01 -9.030926227569580078e-02 -6.419537961483001709e-02
-5.257895588874816895e-01 3.182753920555114746e-02 9.822344034910202026e-02
-5.990737080574035645e-01 1.799821555614471436e-01 1.249616220593452454e-01
-5.901077985763549805e-01 -3.896784782409667969e-02 6.034002825617790222e-02
-6.753042340278625488e-01 2.961491942405700684e-01 4.852594435214996338e-02
-5.159189701080322266e-01 2.143454402685165405e-01 1.115361824631690979e-01
-6.914372444152832031e-01 2.578130960464477539e-01 -3.498937189579010010e-02
-8.202789425849914551e-01 7.538054138422012329e-02 -9.554973244667053223e-02
-3.711475729942321777e-01 1.913896501064300537e-01 -2.548962458968162537e-02
-7.339268326759338379e-01 2.589663863182067871e-01 9.567900002002716064e-02
-4.906879961490631104e-01 -1.800058782100677490e-02 7.081492990255355835e-02
-6.636094450950622559e-01 -6.016100943088531494e-02 -9.473590552806854248e-02
-5.382621884346008301e-01 1.273314356803894043e-01 -1.034554019570350647e-01
-4.488911628723144531e-01 1.572383940219879150e-01 -7.742489129304885864e-02
-4.895725548267364502e-01 2.346488833427429199e-01 -3.447219356894493103e-02
-3.768480420112609863e-01 9.764388203620910645e-02 -7.994997501373291016e-02
-4.910010695457458496e-01 7.595576345920562744e-02 -1.102883964776992798e-01
-6.756270527839660645e-01 -7.601371407508850098e-02 1.061611436307430267e-02
-4.703749418258666992e-01 5.720308423042297363e-02 -1.097963303327560425e-01
-6.613956689834594727e-01 -2.404298633337020874e-02 6.574222445487976074e-02
-4.891200959682464600e-01 3.992795944213867188e-03 -1.129447072744369507e-01
-6.964103579521179199e-01 1.495593041181564331e-01 -9.902326017618179321e-02
-6.912304162979125977e-01 7.680952548980712891e-02 -1.160413473844528198e-01
-6.810826659202575684e-01 2.347675561904907227e-01 1.129030883312225342e-01
-6.361619234085083008e-01 6.947555392980575562e-02 -1.194341182708740234e-01
-5.901888608932495117e-01 -8.321659266948699951e-02 1.488102786242961884e-02
-8.668055534362792969e-01 1.825733780860900879e-01 -5.362398177385330200e-02
-3.174888789653778076e-01 2.384125441312789917e-02 4.566250741481781006e-02
-5.991769433021545410e-01 2.594984173774719238e-01 1.005364358425140381e-01
-6.219465136528015137e-01 1.620124578475952148e-01 -9.594966471195220947e-02
-6.670137047767639160e-01 1.660178005695343018e-01 1.244590654969215393e-01
-5.038080215454101562e-01 1.434232294559478760e-02 8.920556306838989258e-02
-7.912930846214294434e-01 -5.500414967536926270e-02 -4.025270789861679077e-02
-7.409819364547729492e-01 2.080797553062438965e-01 -6.849703937768936157e-02
-4.030076861381530762e-01 -3.904807567596435547e-02 -8.380120247602462769e-02
-7.354565858840942383e-01 1.393391489982604980e-01 -9.897954016923904419e-02
-8.191387653350830078e-01 2.463641464710235596e-01 8.104463666677474976e-02
-3.759684860706329346e-01 -4.616457223892211914e-02 2.061947062611579895e-02
-9.004787206649780273e-01 5.686502531170845032e-02 -6.134780496358871460e-02
-3.067231178283691406e-01 1.131823658943176270e-01 -4.007240757346153259e-02
-8.481044769287109375e-01 -2.582214772701263428e-03 -6.819183379411697388e-02
-6.210717558860778809e-01 1.512571275234222412e-01 1.256791502237319946e-01
-7.104164958000183105e-01 -8.290840685367584229e-02 -3.039861284196376801e-02
-4.413608312606811523e-01 2.388079464435577393e-01 7.553193718194961548e-02
-4.634644985198974609e-01 -7.506667077541351318e-02 1.605233550071716309e-02
-3.917031288146972656e-01 2.098046690225601196e-01 7.361212372779846191e-02
-6.509079933166503906e-01 2.044541090726852417e-01 1.219069361686706543e-01
-5.539642572402954102e-01 1.863538324832916260e-01 1.220083683729171753e-01
-2.730438709259033203e-01 1.056994646787643433e-01 1.719151996076107025e-02
-4.070867002010345459e-01 5.141541361808776855e-02 -9.739933162927627563e-02
-6.207572221755981445e-01 1.095428839325904846e-01 -1.126017495989799500e-01
-7.238835096359252930e-01 2.675669193267822266e-01 -2.144218236207962036e-02
-4.478190541267395020e-01 -8.549037575721740723e-02 -8.902623318135738373e-03
-3.930587768554687500e-01 -1.526042073965072632e-02 -8.917540311813354492e-02
-4.552587866783142090e-01 9.564139693975448608e-02 1.082005649805068970e-01
-7.357278466224670410e-01 2.893087267875671387e-02 8.547866344451904297e-02
-4.954528212547302246e-01 9.924779087305068970e-02 1.142495349049568176e-01
-6.550245285034179688e-01 2.688298821449279785e-01 9.577555954456329346e-02
-7.996202111244201660e-01 9.684842824935913086e-02 9.733958542346954346e-02
-5.987164974212646484e-01 2.756423950195312500e-01 8.660135418176651001e-02
-5.739573240280151367e-01 9.677679836750030518e-02 1.190229579806327820e-01
-5.786130428314208984e-01 2.830994874238967896e-02 -1.212115883827209473e-01
-9.429708719253540039e-01 1.787109971046447754e-01 2.413089014589786530e-02
-4.951188266277313232e-01 2.492883205413818359e-01 -1.994238793849945068e-02
