5.110369920730590820e-01 -6.345335245132446289e-01 -2.406790852546691895e-01
4.717293977737426758e-01 -4.915766119956970215e-01 -3.100012987852096558e-02
5.129932165145874023e-01 -4.876175820827484131e-01 2.429082691669464111e-01
5.174222588539123535e-01 -5.784783959388732910e-01 4.292824268341064453e-01
5.286517143249511719e-01 -5.503338575363159180e-01 -2.505173087120056152e-01
4.881813526153564453e-01 -5.666817426681518555e-01 -1.634919941425323486e-01
5.484390258789062500e-01 -6.337963342666625977e-01 -1.231795921921730042e-02
4.894630908966064453e-01 -4.375145435333251953e-01 -2.459129691123962402e-01
5.069002509117126465e-01 -5.498712062835693359e-01 -4.586219191551208496e-01
4.915162920951843262e-01 -5.717083811759948730e-01 -2.509185969829559326e-01
4.803655147552490234e-01 -5.131714940071105957e-01 -2.947301864624023438e-01
5.220936536788940430e-01 -5.325831770896911621e-01 -2.976804673671722412e-01
4.811574816703796387e-01 -5.409102439880371094e-01 -5.942558869719505310e-02
5.391340255737304688e-01 -5.764498710632324219e-01 -3.584567829966545105e-02
5.495507121086120605e-01 -6.766126751899719238e-01 -7.221847772598266602e-02
4.827198982238769531e-01 -5.475676059722900391e-01 -7.822843641042709351e-02
5.260868668556213379e-01 -5.200542807579040527e-01 5.372135341167449951e-02
5.246402025222778320e-01 -6.734544634819030762e-01 -1.139963269233703613e-01
4.841157197952270508e-01 -5.084484219551086426e-01 -3.685926496982574463e-01
4.808743894100189209e-01 -5.392239689826965332e-01 -2.423774451017379761e-03
5.115966796875000000e-01 -6.165549755096435547e-01 3.016574382781982422e-01
4.877643883228302002e-01 -5.654854774475097656e-01 6.802424043416976929e-02
4.901929497718811035e-01 -5.562469363212585449e-01 2.423050701618194580e-01
5.267164111137390137e-01 -5.296034216880798340e-01 1.949997842311859131e-01
5.224000811576843262e-01 -6.698446273803710938e-01 1.712420582771301270e-02
5.420604348182678223e-01 -5.933051109313964844e-01 -6.525629758834838867e-02
5.154699087142944336e-01 -6.111297607421875000e-01 -4.091584682464599609e-01
4.832305312156677246e-01 -5.394944548606872559e-01 -2.307569384574890137e-01
4.766992926597595215e-01 -4.636436700820922852e-01 2.764087915420532227e-01
4.936242699623107910e-01 -4.362905025482177734e-01 2.032864391803741455e-01
4.879724979400634766e-01 -4.960286021232604980e-01 -4.085252881050109863e-01
5.502101182937622070e-01 -6.578492522239685059e-01 -3.556563705205917358e-02
5.451084375381469727e-01 -6.392174959182739258e-01 2.179590463638305664e-01
5.020532011985778809e-01 -4.645057916641235352e-01 2.873308062553405762e-01
4.696323573589324951e-01 -4.156308770179748535e-01 -1.200291290879249573e-01
5.196120738983154297e-01 -4.981556236743927002e-01 9.500162303447723389e-02
5.200567841529846191e-01 -4.985857307910919189e-01 2.440812438726425171e-02
4.742231667041778564e-01 -5.027655959129333496e-01 -1.363648474216461182e-01
4.789107441902160645e-01 -4.417087435722351074e-01 2.819307446479797363e-01
5.239670276641845703e-01 -6.296533942222595215e-01 3.517867624759674072e-01
5.113064646720886230e-01 -6.412932276725769043e-01 8.108276873826980591e-02
5.352042913436889648e-01 -5.568972229957580566e-01 2.921155095100402832e-02
5.154742598533630371e-01 -4.838064312934875488e-01 4.107443243265151978e-02
5.112305879592895508e-01 -5.184107422828674316e-01 -3.915432989597320557e-01
5.475643873214721680e-01 -6.287348866462707520e-01 8.162582665681838989e-02
5.145280957221984863e-01 -5.856056213378906250e-01 -4.472709298133850098e-01
5.239731669425964355e-01 -5.313645005226135254e-01 2.890511453151702881e-01
5.115373730659484863e-01 -4.734310507774353027e-01 1.090908125042915344e-01
4.857925474643707275e-01 -5.049546957015991211e-01 3.444406092166900635e-01
5.492600202560424805e-01 -6.738750338554382324e-01 -9.539930522441864014e-02
5.414668917655944824e-01 -6.371950507164001465e-01 2.795203030109405518e-01
4.928698241710662842e-01 -5.574115514755249023e-01 -3.592727184295654297e-01
4.921971559524536133e-01 -4.315122365951538086e-01 1.799511909484863281e-01
4.823771119117736816e-01 -5.320270657539367676e-01 -2.547264099121093750e-01
4.924938380718231201e-01 -4.265654385089874268e-01 -5.366729572415351868e-02
5.285730957984924316e-01 -5.321372151374816895e-01 1.313436627388000488e-01
5.466038584709167480e-01 -6.239666938781738281e-01 1.122929528355598450e-01
4.684752821922302246e-01 -4.592440426349639893e-01 7.519011944532394409e-02
5.347487330436706543e-01 -5.669536590576171875e-01 -1.785898506641387939e-01
5.055671930313110352e-01 -5.731694102287292480e-01 -4.395731091499328613e-01
5.234401822090148926e-01 -5.355353951454162598e-01 3.206567466259002686e-01
4.890837669372558594e-01 -4.499141275882720947e-01 3.210954964160919189e-01
5.404983162879943848e-01 -5.822602510452270508e-01 2.417552843689918518e-02
4.754999577999114990e-01 -4.065601527690887451e-01 -7.602427154779434204e-02
4.712676405906677246e-01 -4.597355723381042480e-01 -2.288473546504974365e-01
5.165454745292663574e-01 -6.557161211967468262e-01 5.329751223325729370e-02
5.060462355613708496e-01 -5.950137376785278320e-01 3.292860388755798340e-01
5.071112513542175293e-01 -6.062974929809570312e-01 -3.570148944854736328e-01
4.771628975868225098e-01 -5.055845975875854492e-01 1.742493510246276855e-01
5.122393965721130371e-01 -6.458827853202819824e-01 -1.133595407009124756e-01
5.451423525810241699e-01 -6.262819766998291016e-01 -1.654807329177856445e-01
4.976860284805297852e-01 -5.118108987808227539e-01 4.220274388790130615e-01
5.029290914535522461e-01 -6.032725572586059570e-01 -3.071666657924652100e-01
4.938153922557830811e-01 -5.356884002685546875e-01 3.744376599788665771e-01
5.456707477569580078e-01 -6.170425415039062500e-01 -8.222473412752151489e-02
5.489471554756164551e-01 -6.381535530090332031e-01 9.729616343975067139e-03
5.492045879364013672e-01 -6.824049949645996094e-01 4.334611073136329651e-02
4.666995406150817871e-01 -4.245439171791076660e-01 2.883910760283470154e-02
5.390991568565368652e-01 -5.946753025054931641e-01 -2.114093899726867676e-01
5.146058797836303711e-01 -5.209329724311828613e-01 -3.633693456649780273e-01
4.781099259853363037e-01 -5.159132480621337891e-01 -2.159181237220764160e-01
5.478861331939697266e-01 -6.366450190544128418e-01 -9.489541500806808472e-02
5.175898075103759766e-01 -5.193779468536376953e-01 -3.134129047393798828e-01
5.451447963714599609e-01 -6.309630274772644043e-01 -1.825689673423767090e-01
5.306354165077209473e-01 -5.516646504402160645e-01 2.450175881385803223e-01
4.876672029495239258e-01 -5.656552314758300781e-01 -1.462000906467437744e-01
5.187359452247619629e-01 -4.972762465476989746e-01 -9.069387614727020264e-02
5.319954752922058105e-01 -5.435249805450439453e-01 -1.506793312728404999e-02
5.491861104965209961e-01 -6.475083827972412109e-01 9.157607704401016235e-02
5.129563808441162109e-01 -4.783312976360321045e-01 1.262075006961822510e-01
4.669930040836334229e-01 -4.370343983173370361e-01 -1.096435263752937317e-01
4.834218025207519531e-01 -5.502014756202697754e-01 -9.534984827041625977e-02
5.439453125000000000e-01 -6.109252572059631348e-01 1.619558930397033691e-01
4.999818801879882812e-01 -5.957163572311401367e-01 2.176924645900726318e-01
5.188550949096679688e-01 -6.491059064865112305e-01 2.047705054283142090e-01
5.461528301239013672e-01 -6.248973011970520020e-01 -1.162084490060806274e-01
5.347010493278503418e-01 -5.694612264633178711e-01 2.377673983573913574e-01
4.998959600925445557e-01 -4.415937662124633789e-01 6.160604208707809448e-02
5.327427983283996582e-01 -5.792557597160339355e-01 -2.961468100547790527e-01
5.413815379142761230e-01 -6.308910846710205078e-01 -2.692469954490661621e-01
5.049434900283813477e-01 -6.188153028488159180e-01 -2.297398746013641357e-01
5.122538208961486816e-01 -4.911802709102630615e-01 2.859750986099243164e-01
4.985214769840240479e-01 -6.066973209381103516e-01 -4.623379092663526535e-03
5.101426839828491211e-01 -6.378254890441894531e-01 -1.702392995357513428e-01
5.311168432235717773e-01 -5.579679012298583984e-01 -2.316969633102416992e-01
4.737528562545776367e-01 -4.241578876972198486e-01 -2.124664783477783203e-01
4.947434365749359131e-01 -4.359676837921142578e-01 -1.437477171421051025e-01
5.004644989967346191e-01 -4.436408877372741699e-01 -4.808183386921882629e-02
5.451382994651794434e-01 -6.165857315063476562e-01 1.422664523124694824e-01
5.259779095649719238e-01 -6.758174300193786621e-01 4.741004109382629395e-02
4.892071187496185303e-01 -4.500945806503295898e-01 -3.151219785213470459e-01
4.721300005912780762e-01 -4.940693378448486328e-01 -4.826245456933975220e-02
4.667301774024963379e-01 -4.438233673572540283e-01 -8.015099167823791504e-02
4.751727879047393799e-01 -5.051082968711853027e-01 9.459481388330459595e-02
5.330228209495544434e-01 -5.488706827163696289e-01 9.918241202831268311e-02
5.199056863784790039e-01 -6.611208915710449219e-01 -1.706828474998474121e-01
5.386337041854858398e-01 -5.781522989273071289e-01 1.490198373794555664e-01
4.919585585594177246e-01 -5.798719525337219238e-01 -1.818833053112030029e-01
4.739579856395721436e-01 -4.695561528205871582e-01 2.219624221324920654e-01
5.021250844001770020e-01 -4.723620414733886719e-01 3.288053572177886963e-01
5.003992319107055664e-01 -4.556529521942138672e-01 -2.188455164432525635e-01
5.101963877677917480e-01 -6.411288976669311523e-01 -9.149259328842163086e-02
5.365682840347290039e-01 -5.667399168014526367e-01 1.337729394435882568e-01
4.810364246368408203e-01 -5.365325808525085449e-01 7.344357669353485107e-02
5.170832276344299316e-01 -5.370625853538513184e-01 4.030097723007202148e-01
4.931921660900115967e-01 -4.625437259674072266e-01 3.505620658397674561e-01
4.842951297760009766e-01 -5.362871885299682617e-01 2.087579071521759033e-01
5.338521599769592285e-01 -6.894557476043701172e-01 -3.522880747914314270e-02
4.735580086708068848e-01 -4.081854820251464844e-01 -9.863876551389694214e-02
5.221836566925048828e-01 -5.637010931968688965e-01 -4.000018239021301270e-01
4.832822680473327637e-01 -5.115182399749755859e-01 -3.517658710479736328e-01
4.895602464675903320e-01 -5.182636976242065430e-01 3.638943433761596680e-01
5.175030827522277832e-01 -6.470816135406494141e-01 -2.655811607837677002e-01
4.687325954437255859e-01 -4.699232578277587891e-01 -4.375090077519416809e-02
5.252469778060913086e-01 -5.575856566429138184e-01 -3.473948240280151367e-01
4.933567345142364502e-01 -5.891772508621215820e-01 -8.298762887716293335e-02
5.340686440467834473e-01 -5.565567612648010254e-01 -1.047506555914878845e-01
5.164438486099243164e-01 -4.961826503276824951e-01 -1.775709986686706543e-01
5.213492512702941895e-01 -5.370793342590332031e-01 -3.312835097312927246e-01
5.336791276931762695e-01 -5.715837478637695312e-01 2.759294211864471436e-01
4.893262684345245361e-01 -4.943093955516815186e-01 3.855572938919067383e-01
5.188614726066589355e-01 -5.618457794189453125e-01 -4.245381951332092285e-01
4.706631004810333252e-01 -4.840947389602661133e-01 -5.344687495380640030e-03
4.842815101146697998e-01 -4.368397891521453857e-01 -2.780602872371673584e-01
4.958883821964263916e-01 -5.688724517822265625e-01 2.928254902362823486e-01
5.116984844207763672e-01 -4.882321953773498535e-01 -2.383116185665130615e-01
4.924485981464385986e-01 -5.794859528541564941e-01 1.235917434096336365e-01
4.850307404994964600e-01 -5.559731721878051758e-01 -1.244629919528961182e-01
5.492853522300720215e-01 -6.840324997901916504e-01 -8.915644139051437378e-03
5.124278664588928223e-01 -5.094843506813049316e-01 -3.461300134658813477e-01
4.888644516468048096e-01 -5.639358162879943848e-01 1.443985998630523682e-01
4.990489482879638672e-01 -4.487778246402740479e-01 2.184244990348815918e-01
4.723720550537109375e-01 -4.543022811412811279e-01 2.108719348907470703e-01
-9.218876063823699951e-02 4.665710031986236572e-02 1.096506230533123016e-02
-5.773165822029113770e-02 2.272750288248062134e-01 -1.007150039076805115e-01
-2.322954237461090088e-01 5.954260379076004028e-02 2.267350405454635620e-01
-5.193743109703063965e-02 2.131820917129516602e-01 2.611052095890045166e-01
-1.617930978536605835e-01 1.982357203960418701e-01 1.472725998610258102e-02
-2.503175437450408936e-01 7.805185019969940186e-02 9.867995977401733398e-02
-9.868408739566802979e-02 2.185338139533996582e-01 1.996683627367019653e-01
-6.646771728992462158e-02 1.248356699943542480e-01 -3.464519679546356201e-01
-1.430929750204086304e-01 1.680529862642288208e-01 -3.167518973350524902e-01
-9.349338710308074951e-02 1.360371559858322144e-01 -3.874011337757110596e-01
-7.370357215404510498e-02 1.045300662517547607e-01 3.706927597522735596e-01
-1.418878734111785889e-01 4.900901764631271362e-02 2.989679872989654541e-01
-1.984151005744934082e-01 1.441486626863479614e-01 -2.279964089393615723e-01
-5.919972062110900879e-02 1.583857536315917969e-01 -3.455354869365692139e-01
-1.197211891412734985e-01 3.401772677898406982e-02 -2.596209384500980377e-02
-1.110977306962013245e-01 2.225844115018844604e-01 5.080830305814743042e-02
-3.797607868909835815e-02 1.837164908647537231e-01 3.307201266288757324e-01
-1.636352241039276123e-01 3.775157779455184937e-02 -2.105355411767959595e-01
-1.444251835346221924e-01 2.057471275329589844e-01 1.293878704309463501e-01
-5.497176200151443481e-02 8.402387052774429321e-02 2.130049318075180054e-01
-4.697963595390319824e-03 1.613473594188690186e-01 -1.654292941093444824e-01
-1.976097077131271362e-01 1.677734553813934326e-01 1.354380548000335693e-01
-1.484479159116744995e-01 7.624807953834533691e-02 3.975622653961181641e-01
-1.610896885395050049e-01 2.469015866518020630e-02 -8.437902480363845825e-02
-9.800381958484649658e-03 1.414942145347595215e-01 -1.601518541574478149e-01
-8.464725315570831299e-02 5.103228241205215454e-02 3.009591251611709595e-02
-1.610935032367706299e-01 1.850731372833251953e-01 2.462149262428283691e-01
-4.083280265331268311e-02 2.231491059064865112e-01 1.790935099124908447e-01
-1.926929801702499390e-01 2.020511776208877563e-02 6.344178318977355957e-02
-1.687972694635391235e-01 1.932441592216491699e-01 -1.071272604167461395e-02
-1.930563896894454956e-01 8.746395260095596313e-02 3.772945404052734375e-01
-5.325976759195327759e-02 7.702013850212097168e-02 -9.120642393827438354e-02
-1.412966102361679077e-01 1.517137885093688965e-01 4.164352416992187500e-01
-8.043181151151657104e-02 2.271471917629241943e-01 1.387900114059448242e-01
-1.541944295167922974e-01 1.942439228296279907e-01 -1.429458707571029663e-01
-4.039703309535980225e-02 1.032882779836654663e-01 -2.015097737312316895e-01
-1.369392424821853638e-01 2.117121815681457520e-01 -4.555344581604003906e-03
-2.462250441312789917e-01 5.040941387414932251e-02 -1.334161125123500824e-02
-1.539009660482406616e-01 2.369212359189987183e-02 -3.270986676216125488e-02
-1.848547458648681641e-01 1.142852082848548889e-01 3.922621011734008789e-01
-2.346613258123397827e-02 1.516089290380477905e-01 -2.527981698513031006e-01
-2.154170721769332886e-01 1.418033838272094727e-01 1.986513286828994751e-01
-1.905117183923721313e-01 1.971204578876495361e-02 4.408091306686401367e-02
-1.167879998683929443e-01 2.145929038524627686e-01 1.808320730924606323e-01
-6.600434333086013794e-02 1.978308707475662231e-01 -2.808137238025665283e-01
-7.577843964099884033e-03 1.931336075067520142e-01 2.081948369741439819e-01
-1.503172218799591064e-01 2.834580093622207642e-02 1.517738103866577148e-01
-5.488829314708709717e-02 7.208926975727081299e-02 -8.215749636292457581e-03
-5.635248124599456787e-02 2.324087619781494141e-01 2.150530181825160980e-02
-1.155184805393218994e-01 8.589613437652587891e-02 3.987287282943725586e-01
-2.503366470336914062e-01 7.068431377410888672e-02 -3.744276612997055054e-02
-1.321592032909393311e-01 1.688501834869384766e-01 3.908503353595733643e-01
-2.416618764400482178e-01 1.097328066825866699e-01 -5.217129737138748169e-02
-3.370247781276702881e-02 2.186347246170043945e-01 -1.442428827285766602e-01
-7.873100042343139648e-02 2.127607911825180054e-01 2.706391811370849609e-01
-1.061484739184379578e-01 1.258603632450103760e-01 4.434341788291931152e-01
-2.787307649850845337e-02 2.258183956146240234e-01 1.052879244089126587e-01
-8.262036740779876709e-02 2.298161387443542480e-01 -2.325851470232009888e-03
-1.683572679758071899e-01 1.632568836212158203e-01 3.315269947052001953e-01
-1.245839670300483704e-01 5.491991341114044189e-02 -2.576821446418762207e-01
-1.779662966728210449e-01 1.963266730308532715e-02 2.418453060090541840e-02
-1.389358192682266235e-02 1.297410279512405396e-01 1.878410577774047852e-01
-1.118186414241790771e-01 8.067035675048828125e-02 -3.348705768585205078e-01
-7.799112796783447266e-02 1.967855691909790039e-01 3.428675830364227295e-01
-1.064612492918968201e-01 2.055101245641708374e-01 2.827261686325073242e-01
-1.427207142114639282e-01 2.034823298454284668e-01 -1.126662865281105042e-01
-8.997097611427307129e-03 2.162299156188964844e-01 -3.895625472068786621e-02
-2.325895726680755615e-01 9.882707148790359497e-02 2.383872866630554199e-01
-2.155236750841140747e-01 2.572792768478393555e-02 -4.032024741172790527e-02
-1.674820184707641602e-01 1.796649843454360962e-01 -1.897320449352264404e-01
-1.423383355140686035e-01 5.331137031316757202e-02 3.202536702156066895e-01
-1.026358157396316528e-01 4.138535261154174805e-02 -1.069930382072925568e-02
-2.321999371051788330e-01 6.738613545894622803e-02 -1.852235943078994751e-01
-5.087722092866897583e-02 2.177742719650268555e-01 -1.783911287784576416e-01
-1.057885214686393738e-01 2.242897897958755493e-01 9.027484804391860962e-03
6.385520100593566895e-04 1.734484732151031494e-01 1.775771379470825195e-01
-5.715786665678024292e-02 2.237754762172698975e-01 1.937348693609237671e-01
-1.365901678800582886e-01 7.004491984844207764e-02 -3.295695483684539795e-01
-2.229010760784149170e-01 3.036718815565109253e-02 1.131166666746139526e-01
-7.544286549091339111e-02 5.890592932701110840e-02 -6.688888370990753174e-02
-1.466380059719085693e-01 6.229928880929946899e-02 -3.116314709186553955e-01
-1.938287913799285889e-01 1.575658023357391357e-01 2.515593469142913818e-01
-1.870688050985336304e-02 1.211143210530281067e-01 -1.440099924802780151e-01
-2.861116081476211548e-02 9.974873811006546021e-02 1.097456291317939758e-01
-9.850645065307617188e-02 8.071357011795043945e-02 3.572421073913574219e-01
5.683735013008117676e-03 1.528227329254150391e-01 2.516961842775344849e-02
-2.263073027133941650e-01 3.417385369539260864e-02 -8.108853548765182495e-02
-2.094856351613998413e-01 4.420116543769836426e-02 2.539178133010864258e-01
4.717782139778137207e-03 1.510601639747619629e-01 5.514647066593170166e-02
-1.155077368021011353e-01 5.475395917892456055e-02 2.800157070159912109e-01
-1.589802950620651245e-01 2.345817536115646362e-02 9.722269326448440552e-02
-9.039209783077239990e-02 1.930010020732879639e-01 -2.976705431938171387e-01
-1.735778599977493286e-01 2.244503796100616455e-02 -7.051485776901245117e-02
-7.606805860996246338e-02 9.188536554574966431e-02 -2.973557412624359131e-01
-2.377696335315704346e-01 1.004938036203384399e-01 1.984928101301193237e-01
-2.307742834091186523e-02 1.848358660936355591e-01 -2.403118610382080078e-01
-8.456898480653762817e-02 1.027598455548286438e-01 -3.449200689792633057e-01
-4.338894784450531006e-02 2.132701724767684937e-01 -1.954515874385833740e-01
-2.184175401926040649e-01 1.041619554162025452e-01 -2.423712611198425293e-01
-1.465541273355484009e-01 3.835988044738769531e-02 2.405707091093063354e-01
-1.745129227638244629e-01 1.852480322122573853e-01 1.570223569869995117e-01
-1.427137702703475952e-01 1.712504029273986816e-01 3.669025003910064697e-01
-1.759942770004272461e-01 1.753314435482025146e-01 2.390993237495422363e-01
-7.157780230045318604e-03 1.299372017383575439e-01 -7.249385863542556763e-02
-2.337331473827362061e-01 1.254102885723114014e-01 1.140566840767860413e-01
-9.843176603317260742e-02 7.179270684719085693e-02 -2.798033356666564941e-01
-1.087444350123405457e-01 3.821123391389846802e-02 2.372639812529087067e-02
-3.552265465259552002e-02 1.739736795425415039e-01 -2.886427640914916992e-01
-2.150284051895141602e-01 9.588585048913955688e-02 -2.632699012756347656e-01
-9.329304099082946777e-02 2.095573842525482178e-01 -2.187335491180419922e-01
-1.298247575759887695e-01 2.118835002183914185e-01 1.455559283494949341e-01
-8.147513866424560547e-02 5.940071493387222290e-02 1.704803705215454102e-01
-1.022131890058517456e-01 4.799477010965347290e-02 1.759966760873794556e-01
-2.443109452724456787e-02 1.475099325180053711e-01 2.963657975196838379e-01
-1.436559557914733887e-01 4.246707260608673096e-02 2.639168798923492432e-01
-2.070663124322891235e-02 1.985577344894409180e-01 2.509022951126098633e-01
-1.828252524137496948e-01 1.725389957427978516e-01 2.190257608890533447e-01
-2.100115120410919189e-01 1.561574339866638184e-01 1.235147789120674133e-01
-2.485312074422836304e-01 6.281702220439910889e-02 1.085980981588363647e-01
-9.795182198286056519e-02 9.510818123817443848e-02 3.964322805404663086e-01
-1.982215940952301025e-01 2.122204005718231201e-02 -3.145638853311538696e-02
-3.062321245670318604e-02 1.292904764413833618e-01 -2.459780275821685791e-01
-1.333807110786437988e-01 3.072857856750488281e-02 1.133790984749794006e-01
-6.283251941204071045e-02 8.946432173252105713e-02 -2.438058257102966309e-01
-1.891938894987106323e-01 1.966169476509094238e-02 2.049393951892852783e-03
-6.777344644069671631e-02 7.084885239601135254e-02 -1.509204208850860596e-01
-1.451903879642486572e-01 1.868571341037750244e-01 2.955856919288635254e-01
-1.843997538089752197e-01 3.553539514541625977e-02 2.444122880697250366e-01
-1.111225709319114685e-01 1.701080501079559326e-01 4.072150290012359619e-01
-1.868807971477508545e-01 1.316757500171661377e-01 -3.055684864521026611e-01
-1.898432970046997070e-01 1.776145994663238525e-01 6.828419119119644165e-02
-2.409526705741882324e-01 4.095674306154251099e-02 2.352290600538253784e-02
-8.918213844299316406e-02 6.898117065429687500e-02 2.812864482402801514e-01
-1.276333630084991455e-01 1.842581927776336670e-01 -2.886160612106323242e-01
-1.932000666856765747e-01 6.007660180330276489e-02 3.348779976367950439e-01
-1.571687310934066772e-02 1.736761331558227539e-01 2.720040082931518555e-01
-1.021364033222198486e-01 5.269863456487655640e-02 2.210219055414199829e-01
-5.102749913930892944e-02 8.041969686746597290e-02 -1.099494919180870056e-01
-1.398052126169204712e-01 1.435804367065429688e-01 -3.739427328109741211e-01
-1.856459677219390869e-01 1.041672453284263611e-01 -3.387315869331359863e-01
-1.304392665624618530e-01 2.139873504638671875e-01 -3.260205686092376709e-02
-6.299924850463867188e-02 1.072579100728034973e-01 3.491841852664947510e-01
-2.238554507493972778e-01 1.246153414249420166e-01 -1.605002135038375854e-01
3.107048571109771729e-03 1.487547308206558228e-01 -3.965915739536285400e-02
-6.080876290798187256e-02 1.594721078872680664e-01 3.966358304023742676e-01
-6.009358167648315430e-02 1.220316886901855469e-01 -3.286253809928894043e-01
-3.808669000864028931e-02 8.691942691802978516e-02 3.612720221281051636e-02
-1.997199356555938721e-01 1.580760329961776733e-01 -1.462796777486801147e-01
-1.803229004144668579e-01 4.027513414621353149e-02 2.730017304420471191e-01
-2.106485962867736816e-01 1.584196686744689941e-01 4.690860211849212646e-02
-2.355203926563262939e-01 1.140043586492538452e-01 1.711670607328414917e-01
-9.167248010635375977e-02 2.231411039829254150e-01 -1.059520915150642395e-01
-2.168360650539398193e-01 1.388338655233383179e-01 -1.416092664003372192e-01
-1.626389622688293457e-01 1.916538476943969727e-01 -1.144862249493598938e-01
-1.588571071624755859e-02 1.373642385005950928e-01 2.314944565296173096e-01
5.354121327400207520e-03 1.562727242708206177e-01 8.450684696435928345e-02
-1.900476813316345215e-01 2.085953205823898315e-02 8.820700645446777344e-02
-7.666277885437011719e-02 2.275071889162063599e-01 -8.209187537431716919e-02
-6.018657237291336060e-02 6.863645464181900024e-02 7.604313641786575317e-02
-1.921612322330474854e-01 1.617921590805053711e-01 -1.721667945384979248e-01
-2.866411209106445312e-02 9.935270249843597412e-02 -6.614060699939727783e-02
-1.742026209831237793e-02 1.121991053223609924e-01 -4.965721815824508667e-02
-7.247503846883773804e-02 5.905652791261672974e-02 5.002401024103164673e-02
-2.295252680778503418e-01 6.368038803339004517e-02 2.481554001569747925e-01
-7.379394769668579102e-02 6.176961213350296021e-02 1.357164531946182251e-01
-6.697513163089752197e-02 2.303569018840789795e-01 1.062492430210113525e-01
-3.147639334201812744e-03 1.473880708217620850e-01 1.640595197677612305e-01
-1.056497842073440552e-01 6.230349093675613403e-02 -2.534671723842620850e-01
-2.431716024875640869e-01 4.762328416109085083e-02 -4.244392365217208862e-02
-2.786373347043991089e-02 2.280989140272140503e-01 1.574678719043731689e-02
9.252503514289855957e-03 1.693083643913269043e-01 5.892509594559669495e-03
-2.521339356899261475e-01 7.477439939975738525e-02 3.054898232221603394e-02
-1.168119907379150391e-02 1.184580102562904358e-01 -7.672531530261039734e-03
-7.923752069473266602e-03 2.055593580007553101e-01 1.661624461412429810e-01
-2.123105078935623169e-01 1.210133656859397888e-01 2.987416982650756836e-01
-1.689867079257965088e-01 1.666944772005081177e-01 -2.537541687488555908e-01
-1.614626199007034302e-01 4.625458270311355591e-02 -2.552676796913146973e-01
-1.827545166015625000e-01 2.115578949451446533e-02 -5.220652371644973755e-02
-8.137409389019012451e-02 5.980480462312698364e-02 -1.346217989921569824e-01
-5.622297525405883789e-03 2.108258754014968872e-01 1.139254570007324219e-01
-7.628839462995529175e-02 2.310603111982345581e-01 4.121766984462738037e-02
9.602695703506469727e-03 1.818398237228393555e-01 3.967661038041114807e-02
-1.787564307451248169e-01 2.367427200078964233e-02 -9.404986351728439331e-02
-2.291737496852874756e-01 8.031494170427322388e-02 -2.092052251100540161e-01
-1.285988837480545044e-01 4.860090464353561401e-02 -2.306372523307800293e-01
-2.029517889022827148e-01 1.442200541496276855e-01 -2.049459517002105713e-01
-2.215773463249206543e-01 1.443053334951400757e-01 9.595733880996704102e-02
-5.586019903421401978e-02 2.210992872714996338e-01 2.149792462587356567e-01
7.680922746658325195e-03 1.808142662048339844e-01 -5.211748927831649780e-02
-2.254520356655120850e-01 1.258753687143325806e-01 2.056409120559692383e-01
-1.565992981195449829e-01 2.009122967720031738e-01 7.867325097322463989e-02
-1.493630409240722656e-01 1.927828788757324219e-01 -1.798671185970306396e-01
-9.644980728626251221e-02 1.973958164453506470e-01 -2.768198549747467041e-01
-2.183828204870223999e-01 3.385024517774581909e-02 1.698154360055923462e-01
-1.424982398748397827e-02 1.197751536965370178e-01 -8.637899160385131836e-02
9.137645363807678223e-03 1.829848736524581909e-01 -1.376821286976337433e-02
-2.396043986082077026e-01 1.017522588372230530e-01 -1.170181408524513245e-01
-1.028865799307823181e-01 8.403058350086212158e-02 3.759501278400421143e-01
-6.340330094099044800e-02 2.053654044866561890e-01 3.061020672321319580e-01
-4.926804453134536743e-02 9.822449088096618652e-02 -2.238778322935104370e-01
-2.215546965599060059e-01 2.651028335094451904e-02 1.700695604085922241e-02
-2.133172899484634399e-01 1.508242785930633545e-01 1.444597393274307251e-01
3.256186842918395996e-03 1.690725088119506836e-01 1.510728746652603149e-01
-1.387696713209152222e-01 2.037556767463684082e-01 -1.327387541532516479e-01
-1.762460917234420776e-01 3.108980506658554077e-02 -1.685118973255157471e-01
-1.530290544033050537e-01 3.414250165224075317e-02 2.185132205486297607e-01
-7.354810833930969238e-02 6.245325505733489990e-02 -1.039478555321693420e-01
-1.257938146591186523e-02 1.657930910587310791e-01 -2.132879197597503662e-01
-2.220141142606735229e-01 1.369896084070205688e-01 -1.062071844935417175e-01
-2.275420576333999634e-01 1.010320931673049927e-01 -2.032798528671264648e-01
-1.299443244934082031e-01 4.022350907325744629e-02 2.166892737150192261e-01
-5.919827893376350403e-02 1.032742783427238464e-01 3.253750801086425781e-01
-2.124704122543334961e-01 2.325177192687988281e-02 4.352485015988349915e-02
-1.536640673875808716e-01 2.295918762683868408e-02 1.381462905555963516e-02
-1.680273413658142090e-01 2.086028456687927246e-02 -1.288859732449054718e-02
-2.491108179092407227e-01 5.595244467258453369e-02 8.726051077246665955e-03
3.224611282348632812e-04 1.394562870264053345e-01 -1.614727079868316650e-03
-6.879314780235290527e-02 6.133909523487091064e-02 1.953804120421409607e-02
-1.648335009813308716e-01 1.931767016649246216e-01 1.389681845903396606e-01
-2.074630856513977051e-01 2.395080775022506714e-02 1.022555306553840637e-01
-3.408541530370712280e-02 2.260078191757202148e-01 -7.660294324159622192e-02
-1.198060810565948486e-02 2.136141657829284668e-01 -9.155855327844619751e-02
-7.446609437465667725e-03 1.277790218591690063e-01 9.534122794866561890e-02
-1.931917965412139893e-01 7.113665342330932617e-02 3.581677377223968506e-01
-1.556468605995178223e-01 2.000046968460083008e-01 -5.435618013143539429e-02
-1.633379757404327393e-01 1.317745000123977661e-01 -3.576189279556274414e-01
-9.093381464481353760e-02 2.280471920967102051e-01 6.780358403921127319e-02
-6.326070427894592285e-02 9.544026851654052734e-02 -2.700456678867340088e-01
-1.768153607845306396e-01 1.277612298727035522e-01 -3.372733294963836670e-01
-1.209057047963142395e-01 2.060798108577728271e-01 -1.844004243612289429e-01
-2.098807394504547119e-01 1.444048881530761719e-01 -1.614464223384857178e-01
-4.733663052320480347e-02 1.554969847202301025e-01 3.723100125789642334e-01
-2.490054965019226074e-01 7.049754261970520020e-02 -5.942181497812271118e-02
-1.537805199623107910e-01 1.778943240642547607e-01 -2.528771162033081055e-01
-1.340217292308807373e-01 8.455509692430496216e-02 4.104964137077331543e-01
-2.966601401567459106e-02 2.112897187471389771e-01 -1.775665730237960815e-01
-1.602152436971664429e-01 2.969016879796981812e-02 1.895008832216262817e-01
-1.717947721481323242e-01 4.246346652507781982e-02 -2.383141815662384033e-01
-8.501707762479782104e-02 6.170603632926940918e-02 -1.741417646408081055e-01
-1.858783513307571411e-01 1.811720728874206543e-01 1.804950833320617676e-02
-1.826657056808471680e-01 8.966901898384094238e-02 3.956927061080932617e-01
-6.845900416374206543e-02 1.441384702920913696e-01 -3.619845807552337646e-01
-3.926455974578857422e-04 1.564273089170455933e-01 -1.224474087357521057e-01
-1.455470621585845947e-01 9.428674727678298950e-02 -3.770245313644409180e-01
-1.687147021293640137e-01 1.753654778003692627e-01 2.740261852741241455e-01
-2.257823646068572998e-01 1.379948407411575317e-01 -4.337806999683380127e-02
-3.890449553728103638e-02 8.758743107318878174e-02 -4.867276549339294434e-02
-1.115323230624198914e-01 4.710958153009414673e-02 -1.708630770444869995e-01
-7.504551112651824951e-02 6.889697909355163574e-02 2.187777310609817505e-01
-2.380647659301757812e-01 1.198587194085121155e-01 -2.332192100584506989e-02
-5.263244360685348511e-02 2.228895127773284912e-01 -1.421824991703033447e-01
-2.275313884019851685e-01 1.368922442197799683e-01 -2.058254368603229523e-02
-2.810534089803695679e-02 2.270988821983337402e-01 8.176886290311813354e-02
-1.523236185312271118e-01 1.878139674663543701e-01 -2.026056796312332153e-01
-1.501979827880859375e-01 1.856006383895874023e-01 -2.242261767387390137e-01
-1.249763146042823792e-01 2.174321711063385010e-01 3.074424713850021362e-02
-2.387502491474151611e-01 4.344345629215240479e-02 1.162028238177299500e-01
-1.391330510377883911e-01 3.492438048124313354e-02 1.944865882396697998e-01
-2.093242704868316650e-01 2.563723921775817871e-02 -7.177184522151947021e-02
5.257412791252136230e-03 1.785340607166290283e-01 1.323299556970596313e-01
-5.974024534225463867e-04 1.473727375268936157e-01 -9.389261901378631592e-02
-1.459988951683044434e-01 1.559911668300628662e-01 -3.436506986618041992e-01
-1.268026977777481079e-01 2.150350809097290039e-01 1.101473420858383179e-01
-4.516106843948364258e-02 8.021041005849838257e-02 9.642895311117172241e-03
-2.067848592996597290e-01 1.227911636233329773e-01 3.177310526371002197e-01
-2.201620340347290039e-01 5.580695718526840210e-02 -2.107362151145935059e-01
-2.122570276260375977e-01 8.912322670221328735e-02 3.318447172641754150e-01
-3.676773607730865479e-02 2.303777635097503662e-01 4.430004581809043884e-02
-1.548614352941513062e-02 2.223040759563446045e-01 -4.433203488588333130e-03
-9.253214299678802490e-02 2.128926217555999756e-01 2.574011087417602539e-01
-2.049262821674346924e-01 2.595458179712295532e-02 1.398003399372100830e-01
-5.423579365015029907e-02 1.222328767180442810e-01 3.580899834632873535e-01
-6.730563938617706299e-02 2.164698839187622070e-01 -1.937514841556549072e-01
-2.148024737834930420e-01 2.425557374954223633e-02 -7.816890254616737366e-03
-3.011762350797653198e-02 1.058530583977699280e-01 -1.457952409982681274e-01
-1.454339623451232910e-01 1.914128959178924561e-01 2.678624391555786133e-01
-1.194200664758682251e-02 1.635613888502120972e-01 2.539508640766143799e-01
-1.710745245218276978e-01 2.769903093576431274e-02 -1.368215382099151611e-01
-1.989032328128814697e-01 1.159697473049163818e-01 -2.966739535331726074e-01
-2.894985675811767578e-02 1.560128331184387207e-01 -2.756357491016387939e-01
-8.619081974029541016e-02 5.066986382007598877e-02 6.607972085475921631e-02
-2.208727002143859863e-01 6.372030079364776611e-02 2.809626162052154541e-01
-4.118128865957260132e-02 2.012652158737182617e-01 2.952060699462890625e-01
-1.750943809747695923e-02 1.109995320439338684e-01 6.759651750326156616e-02
-2.516939342021942139e-01 7.786394655704498291e-02 6.089571863412857056e-02
-1.693379133939743042e-01 1.919197738170623779e-01 -3.990602493286132812e-02
-1.891377121210098267e-01 1.597079634666442871e-01 -2.016365975141525269e-01
-3.227569907903671265e-02 1.179054230451583862e-01 2.610141932964324951e-01
-6.582859903573989868e-02 1.802114248275756836e-01 3.793376088142395020e-01
-8.600048720836639404e-02 6.368435919284820557e-02 2.347688823938369751e-01
-1.114856898784637451e-01 2.147392630577087402e-01 -1.382753252983093262e-01
-1.967341899871826172e-01 1.404945105314254761e-01 3.104747235774993896e-01
-1.906461417675018311e-01 8.488270640373229980e-02 -3.250765502452850342e-01
-1.386418491601943970e-01 2.700486034154891968e-02 4.860227555036544800e-02
-1.784045249223709106e-02 1.650219112634658813e-01 -2.366744875907897949e-01
-1.843215376138687134e-01 2.396783977746963501e-02 1.446659862995147705e-01
-9.014382958412170410e-04 1.804471611976623535e-01 -1.417349725961685181e-01
-8.120943605899810791e-02 1.049998551607131958e-01 3.882644176483154297e-01
-1.289339214563369751e-01 3.468418866395950317e-02 -1.115609183907508850e-01
1.555904746055603027e-03 2.029045671224594116e-01 9.586451202630996704e-02
-1.935440003871917725e-01 1.671965122222900391e-01 -1.200625970959663391e-01
-4.794283211231231689e-02 1.726847290992736816e-01 -3.157297074794769287e-01
-1.220090091228485107e-01 6.880089640617370605e-02 3.568049669265747070e-01
-2.476368844509124756e-01 7.848937809467315674e-02 -7.905689626932144165e-02
-1.951374709606170654e-01 3.513269871473312378e-02 -1.836483925580978394e-01
-3.710559010505676270e-02 9.496727585792541504e-02 1.610123664140701294e-01
-1.221678331494331360e-01 3.300296515226364136e-02 6.486812233924865723e-02
-9.512302279472351074e-02 1.554039716720581055e-01 4.306074082851409912e-01
-2.320582866668701172e-01 3.272000700235366821e-02 4.331088066101074219e-02
-1.132621020078659058e-01 2.010356187820434570e-01 -2.361758351325988770e-01
-1.119259297847747803e-01 2.114781886339187622e-01 -1.675392538309097290e-01
-1.178852319717407227e-01 3.598045557737350464e-02 1.024065613746643066e-01
-1.616390794515609741e-01 1.928244978189468384e-01 1.725787371397018433e-01
-6.552596390247344971e-02 6.514227390289306641e-02 -5.158320069313049316e-02
-2.475367635488510132e-01 5.166909098625183105e-02 4.046849906444549561e-02
-1.968335807323455811e-01 2.844578772783279419e-02 -1.330300867557525635e-01
-1.920125633478164673e-02 1.990847885608673096e-01 -1.943920254707336426e-01
-9.020153433084487915e-02 2.213339060544967651e-01 -1.309386193752288818e-01
-1.021345183253288269e-01 6.686772406101226807e-02 3.096936941146850586e-01
-1.974081993103027344e-01 1.680032461881637573e-01 -6.959971785545349121e-02
-3.161430358886718750e-02 2.222733497619628906e-01 -1.092168763279914856e-01
-6.722770631313323975e-03 1.405465900897979736e-01 -1.307661384344100952e-01
-2.032940238714218140e-01 4.566267132759094238e-02 2.726833224296569824e-01
-1.684235036373138428e-01 9.485983848571777344e-02 4.161500036716461182e-01
-5.493419617414474487e-02 9.064929187297821045e-02 2.544810771942138672e-01
2.308674156665802002e-03 1.501245200634002686e-01 -6.559402495622634888e-02
8.865475654602050781e-03 1.747142970561981201e-01 7.203014940023422241e-02
-1.324816495180130005e-01 1.986144185066223145e-01 -2.020827084779739380e-01
-2.020401656627655029e-01 3.285107761621475220e-02 -1.579116731882095337e-01
-6.518906354904174805e-02 2.250330150127410889e-01 -1.251901537179946899e-01
-1.661732792854309082e-03 1.451064944267272949e-01 1.377056390047073364e-01
-5.752540379762649536e-02 8.454670757055282593e-02 2.321286648511886597e-01
-2.450672686100006104e-01 8.615444600582122803e-02 1.605136692523956299e-01
-3.271944075822830200e-02 1.044833436608314514e-01 1.972561925649642944e-01
-1.029841452836990356e-01 1.040470525622367859e-01 4.202012121677398682e-01
-9.551213681697845459e-02 4.856958240270614624e-02 -9.749116748571395874e-02
-1.163860410451889038e-01 2.081737816333770752e-01 2.428309172391891479e-01
-2.363347113132476807e-01 3.653550148010253906e-02 -1.596631482243537903e-03
-2.356314510107040405e-01 6.396222114562988281e-02 -1.620766967535018921e-01
-7.412450015544891357e-02 8.311858028173446655e-02 2.993254661560058594e-01
-5.332881957292556763e-02 1.377277970314025879e-01 3.774991631507873535e-01
-1.845017373561859131e-01 1.798203140497207642e-01 -5.835342407226562500e-02
-7.537838071584701538e-02 1.826185733079910278e-01 -3.276970088481903076e-01
-1.247898414731025696e-01 1.987301856279373169e-01 2.846557796001434326e-01
-1.346947401762008667e-01 2.069729566574096680e-01 1.820713728666305542e-01
-7.872551679611206055e-03 1.523068398237228394e-01 2.161620557308197021e-01
-1.843408644199371338e-01 6.236006319522857666e-02 -2.999883890151977539e-01
-1.203370541334152222e-01 4.673273116350173950e-02 2.402358949184417725e-01
-1.969266235828399658e-01 1.101528629660606384e-01 3.672474324703216553e-01
-4.710932075977325439e-02 8.883745968341827393e-02 -1.552109718322753906e-01
-4.830418527126312256e-02 2.053594589233398438e-01 -2.384001314640045166e-01
-7.305224984884262085e-02 9.355627000331878662e-02 3.371993303298950195e-01
-2.359182983636856079e-01 1.180377006530761719e-01 1.434094458818435669e-01
-6.336139887571334839e-02 7.146729528903961182e-02 -1.235765293240547180e-01
-1.653915941715240479e-01 2.128324657678604126e-02 6.095671653747558594e-02
-2.284452617168426514e-01 7.397323846817016602e-02 2.668072879314422607e-01
-2.431307137012481689e-01 4.735680669546127319e-02 9.641425311565399170e-02
-1.151687726378440857e-01 3.769206255674362183e-02 -7.376592606306076050e-02
-2.175996452569961548e-02 1.119853705167770386e-01 1.510859429836273193e-01
-1.997355073690414429e-01 1.689409166574478149e-01 -6.454456597566604614e-04
-1.861777603626251221e-01 5.369245260953903198e-02 -2.742522954940795898e-01
-1.463733166456222534e-01 4.410974681377410889e-02 -2.330889105796813965e-01
-1.076625287532806396e-02 1.205523312091827393e-01 -2.737962640821933746e-02
1.793451607227325439e-03 1.886794865131378174e-01 1.538533419370651245e-01
-1.920408606529235840e-01 2.875718474388122559e-02 1.899992972612380981e-01
3.082603216171264648e-03 2.043542861938476562e-01 7.627189159393310547e-03
-4.923688620328903198e-02 7.897457480430603027e-02 1.058850660920143127e-01
-2.003988921642303467e-01 8.959481120109558105e-02 -3.071297109127044678e-01
-7.555873692035675049e-02 1.900102049112319946e-01 3.632898330688476562e-01
-2.483625411987304688e-01 7.989244163036346436e-02 1.288014203310012817e-01
-1.998508572578430176e-01 6.725148856639862061e-02 -2.865786254405975342e-01
-1.341553330421447754e-01 4.794155806303024292e-02 2.811199724674224854e-01
-1.158461719751358032e-01 1.941462755203247070e-01 -2.666946351528167725e-01
-1.797899156808853149e-01 7.553727179765701294e-02 3.826779723167419434e-01
-1.681449115276336670e-01 1.574596762657165527e-01 3.521139919757843018e-01
-1.395093202590942383e-01 2.085064947605133057e-01 -6.089598685503005981e-02
-9.661281108856201172e-02 4.558141529560089111e-02 -5.115886777639389038e-02
-7.689388096332550049e-02 2.247719168663024902e-01 1.767010837793350220e-01
-1.887348145246505737e-01 1.776986271142959595e-01 -3.032102622091770172e-02
-2.418649047613143921e-01 1.088836342096328735e-01 1.179708838462829590e-01
-2.002793252468109131e-01 1.439572274684906006e-01 2.824779152870178223e-01
-1.809646487236022949e-01 1.639626920223236084e-01 2.818676233291625977e-01
-2.015817165374755859e-01 4.936210066080093384e-02 -2.382666170597076416e-01
-9.098704159259796143e-02 5.244184285402297974e-02 -1.163811609148979187e-01
-2.098615914583206177e-01 2.990345656871795654e-02 -1.162933185696601868e-01
-2.127828001976013184e-01 2.414550632238388062e-02 7.506018131971359253e-02
-1.198401898145675659e-01 1.021230742335319519e-01 4.317141771316528320e-01
-1.738625168800354004e-01 5.986406654119491577e-02 3.521841168403625488e-01
-2.455018460750579834e-02 1.242026165127754211e-01 -1.995487362146377563e-01
-2.127588540315628052e-02 1.328642070293426514e-01 2.506332397460937500e-01
-1.589751839637756348e-01 4.898292571306228638e-02 3.134952485561370850e-01
-2.328139543533325195e-01 4.718212783336639404e-02 1.823152601718902588e-01
-2.516410350799560547e-01 7.590684294700622559e-02 -5.950728431344032288e-03
-2.011702805757522583e-01 1.317194253206253052e-01 -2.571140527725219727e-01
-1.728485822677612305e-01 1.903057396411895752e-01 8.156045526266098022e-02
-2.346021384000778198e-01 5.287931859493255615e-02 -1.399704366922378540e-01
-2.149695754051208496e-01 4.060590267181396484e-02 -1.711974442005157471e-01
-4.302823543548583984e-02 8.464193344116210938e-02 -6.793586909770965576e-02
-9.478963911533355713e-02 1.600808501243591309e-01 -3.725396692752838135e-01
-2.428431063890457153e-01 1.108891963958740234e-01 7.505002617835998535e-02
-1.498692929744720459e-01 2.382556349039077759e-02 3.202755749225616455e-02
-1.393543779850006104e-01 2.006735354661941528e-01 2.226046919822692871e-01
-2.705931663513183594e-03 1.926218420267105103e-01 1.796651929616928101e-01
-3.201185911893844604e-02 1.479541957378387451e-01 3.257702291011810303e-01
-2.032575905323028564e-01 1.652070730924606323e-01 8.036177605390548706e-02
-1.296947151422500610e-01 2.971684932708740234e-02 1.397369615733623505e-02
-4.242046922445297241e-02 1.922430694103240967e-01 -2.715116143226623535e-01
-1.298885792493820190e-01 3.622011840343475342e-02 1.767484694719314575e-01
-1.536230742931365967e-02 1.205717921257019043e-01 -1.072219982743263245e-01
-1.240099146962165833e-01 4.521384090185165405e-02 -1.971458345651626587e-01
-2.119117975234985352e-01 6.079634279012680054e-02 3.007741868495941162e-01
-2.491244077682495117e-01 9.083859622478485107e-02 -2.536710910499095917e-02
-1.554294824600219727e-01 1.559779942035675049e-01 -3.264456689357757568e-01
-1.081018373370170593e-01 2.204023301601409912e-01 1.416509151458740234e-01
-8.971162140369415283e-03 2.170077860355377197e-01 7.629068940877914429e-02
-2.152588218450546265e-02 2.114482223987579346e-01 2.026519030332565308e-01
-1.270305216312408447e-01 3.443396091461181641e-02 1.397646367549896240e-01
-1.689908504486083984e-01 2.131918072700500488e-02 7.935771346092224121e-02
-2.359712719917297363e-01 9.083254635334014893e-02 -1.675442308187484741e-01
5.658879876136779785e-03 1.966593116521835327e-01 -2.664946950972080231e-02
-9.408994764089584351e-02 6.328095495700836182e-02 -2.238471508026123047e-01
-7.982742786407470703e-02 5.625999718904495239e-02 1.100777834653854370e-01
-6.005889922380447388e-02 2.279753983020782471e-01 1.495001912117004395e-01
-1.517171263694763184e-01 2.027999460697174072e-01 1.073498949408531189e-01
-7.541452348232269287e-02 2.193498313426971436e-01 2.281856685876846313e-01
-4.561413824558258057e-02 8.712252974510192871e-02 -1.283634006977081299e-01
-2.240458428859710693e-01 9.966936707496643066e-02 -2.228312939405441284e-01
-4.730479419231414795e-02 1.107321828603744507e-01 3.055208921432495117e-01
-1.365557461977005005e-01 2.903313189744949341e-02 -5.649500340223312378e-02
-1.815454363822937012e-01 4.539485275745391846e-02 2.967514395713806152e-01
-1.027568429708480835e-02 2.005694955587387085e-01 -1.516892313957214355e-01
-7.299052178859710693e-02 5.905617028474807739e-02 -2.740262635052204132e-02
-1.253870725631713867e-01 2.083471715450286865e-01 2.112885713577270508e-01
-1.989495903253555298e-01 1.586972922086715698e-01 2.117488682270050049e-01
-6.706237792968750000e-03 2.122559398412704468e-01 -6.153706461191177368e-02
-1.662946194410324097e-01 9.981436282396316528e-02 -3.674990832805633545e-01
-6.514486670494079590e-02 2.317029535770416260e-01 7.050143182277679443e-02
-1.506792902946472168e-01 1.531561762094497681e-01 4.005221724510192871e-01
-1.072136610746383667e-01 1.696210801601409912e-01 -3.543918728828430176e-01
-3.988967090845108032e-02 2.178367674350738525e-01 -1.628909260034561157e-01
-4.403961449861526489e-02 8.219850063323974609e-02 7.455455511808395386e-02
-2.549584209918975830e-02 1.048926264047622681e-01 -8.949712663888931274e-02
-1.799342036247253418e-02 2.235874533653259277e-01 5.999873578548431396e-02
-9.693066030740737915e-02 2.247861325740814209e-01 1.203781515359878540e-01
-1.308515518903732300e-01 1.316055655479431152e-01 -3.917854428291320801e-01
-1.880556941032409668e-01 1.440398842096328735e-01 3.319500386714935303e-01
-2.401546239852905273e-01 1.076078414916992188e-01 -8.750356733798980713e-02
-1.426273435354232788e-01 2.927815169095993042e-02 -9.450144320726394653e-02
-1.003244519233703613e-02 1.922460347414016724e-01 -1.752488762140274048e-01
-1.067346930503845215e-01 4.349563270807266235e-02 1.472829282283782959e-01
-8.077533543109893799e-02 9.564611315727233887e-02 -3.203483521938323975e-01
-1.508873552083969116e-01 2.042175084352493286e-01 -1.416134648025035858e-02
-8.122928440570831299e-03 1.335418224334716797e-01 1.515216380357742310e-01
-7.157611846923828125e-02 2.309981286525726318e-01 -1.900285296142101288e-02
-1.539179235696792603e-01 2.785868942737579346e-02 -1.119690313935279846e-01
-1.937663853168487549e-01 1.275357156991958618e-01 3.531562387943267822e-01
-2.308686375617980957e-01 1.178952157497406006e-01 -1.342300474643707275e-01
-5.028660595417022705e-02 2.307848930358886719e-01 9.588781744241714478e-02
-1.494880318641662598e-01 2.720560878515243530e-02 1.319241076707839966e-01
-2.231219112873077393e-01 1.401828676462173462e-01 1.267720460891723633e-01
-9.753279387950897217e-02 7.713895291090011597e-02 -2.988505959510803223e-01
-1.206232979893684387e-01 8.338980376720428467e-02 -3.514240086078643799e-01
-2.231780886650085449e-01 1.437011510133743286e-01 8.180502802133560181e-03
-1.901758760213851929e-01 1.408967524766921997e-01 -2.725468277931213379e-01
-1.930838227272033691e-01 2.298711240291595459e-02 1.246304288506507874e-01
-1.064822003245353699e-01 4.644642025232315063e-02 -1.415996104478836060e-01
-1.613774150609970093e-02 1.344718784093856812e-01 -1.824083477258682251e-01
-2.844448387622833252e-02 9.804388135671615601e-02 7.594207674264907837e-02
-2.174844741821289062e-01 1.477500945329666138e-01 -5.667982250452041626e-02
-1.398893892765045166e-01 3.499889373779296875e-02 -1.543694734573364258e-01
-6.717836856842041016e-02 1.259369850158691406e-01 3.951325714588165283e-01
-2.432430088520050049e-01 8.192940056324005127e-02 1.815515607595443726e-01
-1.583458781242370605e-01 2.004309892654418945e-01 4.022642970085144043e-02
-7.285591214895248413e-02 7.861953973770141602e-02 2.718099951744079590e-01
