7.769426703453063965e-02 3.037232756614685059e-01 -6.550888996571302414e-03
-3.403723239898681641e-04 2.249640524387359619e-01 2.389100752770900726e-02
5.612171441316604614e-02 3.066719174385070801e-01 -1.502679567784070969e-02
-3.483877703547477722e-02 2.666158974170684814e-01 -2.658258192241191864e-02
-2.939514070749282837e-02 1.273319721221923828e-01 1.814968138933181763e-02
4.908362403512001038e-02 2.828688621520996094e-01 1.250764820724725723e-02
-5.029905587434768677e-02 1.786291003227233887e-01 2.236029505729675293e-02
-4.150978289544582367e-03 2.339338064193725586e-01 -2.797719836235046387e-02
9.158593416213989258e-02 1.655225008726119995e-01 2.189645357429981232e-02
-1.701014302670955658e-02 1.231374144554138184e-01 -7.022344507277011871e-03
-7.100602984428405762e-02 1.304563879966735840e-01 1.146432012319564819e-03
-1.053275763988494873e-01 2.596577405929565430e-01 2.212955383583903313e-03
5.633755028247833252e-02 2.511656284332275391e-01 1.961975358426570892e-02
6.458413600921630859e-02 2.068663686513900757e-01 2.445329166948795319e-02
4.431697353720664978e-02 1.573061943054199219e-01 -1.718710921704769135e-02
9.283021092414855957e-02 1.830599904060363770e-01 -1.646335422992706299e-02
-8.352987468242645264e-02 1.557988971471786499e-01 -1.004742644727230072e-02
1.125383377075195312e-01 2.068601846694946289e-01 -1.552842929959297180e-02
1.395315825939178467e-01 2.004482299089431763e-01 -5.079720634967088699e-03
6.204210687428712845e-03 1.598425954580307007e-01 -1.926120929419994354e-02
-9.882265329360961914e-02 1.648781448602676392e-01 1.033851969987154007e-02
8.567714691162109375e-02 1.732898950576782227e-01 -1.590533182024955750e-02
6.572631001472473145e-02 2.950025796890258789e-01 -1.822621189057826996e-02
2.212159521877765656e-02 2.207696288824081421e-01 -2.696170844137668610e-02
-8.668805658817291260e-02 2.568620443344116211e-01 -2.102472260594367981e-02
-3.672720491886138916e-02 2.808192372322082520e-01 -2.496922761201858521e-02
9.202885627746582031e-02 2.207823544740676880e-01 2.069465629756450653e-02
7.881727814674377441e-02 1.959971487522125244e-01 -2.035142667591571808e-02
1.086948961019515991e-01 2.613385021686553955e-01 -1.561188511550426483e-02
-1.014608889818191528e-01 1.865327060222625732e-01 -1.374449394643306732e-02
3.833294659852981567e-02 1.388342529535293579e-01 2.341562695801258087e-02
9.811662137508392334e-02 1.576103419065475464e-01 1.996864005923271179e-02
-2.257025241851806641e-02 2.274278104305267334e-01 2.256004326045513153e-02
8.089765906333923340e-02 2.958004772663116455e-01 2.316384576261043549e-03
6.463928148150444031e-04 1.431163549423217773e-01 -1.505982317030429840e-02
1.046414226293563843e-01 1.409841179847717285e-01 -1.242990139871835709e-03
-5.875137075781822205e-02 2.122750729322433472e-01 2.046629786491394043e-02
-3.261916339397430420e-02 2.046130150556564331e-01 2.368116937577724457e-02
8.812218904495239258e-02 1.970861852169036865e-01 2.284083142876625061e-02
5.234928801655769348e-02 2.114138901233673096e-01 -2.459607832133769989e-02
-9.760011732578277588e-02 1.550997495651245117e-01 7.456682156771421432e-03
6.600512564182281494e-02 2.739763259887695312e-01 1.372458692640066147e-02
4.507928714156150818e-02 2.721416056156158447e-01 1.574078388512134552e-02
5.112864449620246887e-02 1.199909746646881104e-01 -3.369735786691308022e-03
6.414158642292022705e-02 1.995147913694381714e-01 -2.243482507765293121e-02
-4.335839301347732544e-02 3.053080439567565918e-01 4.784204065799713135e-05
6.096236780285835266e-02 2.848498821258544922e-01 -2.156138233840465546e-02
-1.552809029817581177e-02 2.861256897449493408e-01 -2.521249651908874512e-02
1.399768590927124023e-01 1.801808029413223267e-01 1.604886725544929504e-03
1.335136890411376953e-01 2.207206189632415771e-01 1.139765325933694839e-02
1.106255799531936646e-01 2.517292797565460205e-01 -1.625056751072406769e-02
-9.355707466602325439e-02 2.285083085298538208e-01 1.271541789174079895e-02
7.349902391433715820e-02 2.448053359985351562e-01 1.943054981529712677e-02
-4.693095013499259949e-02 1.181989535689353943e-01 7.619895506650209427e-03
4.173523187637329102e-02 1.822438538074493408e-01 2.633988671004772186e-02
-7.858629524707794189e-02 2.366967648267745972e-01 -2.314008772373199463e-02
5.332860350608825684e-02 1.820324659347534180e-01 2.590235322713851929e-02
9.531645476818084717e-02 -8.289583772420883179e-02 -2.792984806001186371e-02
-7.258165627717971802e-02 -1.444882750511169434e-01 -5.693797394633293152e-02
6.763019412755966187e-02 -2.482260465621948242e-01 -4.620090872049331665e-02
-3.442701185122132301e-03 -9.359425306320190430e-02 -6.147275865077972412e-02
-5.490110442042350769e-02 -1.243402287364006042e-01 -6.035643815994262695e-02
-3.315588459372520447e-02 -5.622424185276031494e-02 -5.510346964001655579e-02
-1.094234511256217957e-01 -1.502931416034698486e-01 -3.752651810646057129e-02
1.469380315393209457e-02 2.333641797304153442e-02 5.438834056258201599e-02
-4.939587786793708801e-02 -2.956653833389282227e-01 1.101733651012182236e-02
-3.337583318352699280e-02 7.485302537679672241e-02 3.703400120139122009e-02
-7.537214457988739014e-02 -2.655587196350097656e-01 1.260699331760406494e-02
7.317694276571273804e-02 -1.673353463411331177e-02 4.211958125233650208e-02
-8.912104368209838867e-02 -2.214342057704925537e-01 2.120215445756912231e-02
6.555369496345520020e-02 -2.612252533435821533e-01 1.854410581290721893e-02
-8.670730516314506531e-03 -6.294104456901550293e-02 6.168539822101593018e-02
1.098948121070861816e-01 -7.305656373500823975e-02 6.746975705027580261e-04
-5.065581575036048889e-02 -1.931858062744140625e-01 4.400615021586418152e-02
4.011259414255619049e-03 -7.807229459285736084e-02 6.144172698259353638e-02
-2.284501492977142334e-02 -2.526566684246063232e-01 -6.255529075860977173e-02
1.112355589866638184e-01 -1.748448610305786133e-01 -3.089779289439320564e-03
7.807608693838119507e-02 -2.468324601650238037e-01 1.651472039520740509e-02
-7.009813189506530762e-02 -1.673779636621475220e-01 -5.830214172601699829e-02
-9.959996677935123444e-03 -2.006476819515228271e-01 4.823287203907966614e-02
-8.327827602624893188e-02 1.572082191705703735e-02 -2.145061828196048737e-02
1.037418916821479797e-01 -4.730898141860961914e-02 -4.166821017861366272e-03
6.901568919420242310e-02 -1.740583628416061401e-01 -5.180054530501365662e-02
-1.575182657688856125e-03 -2.530993223190307617e-01 3.582010418176651001e-02
8.336200565099716187e-02 -2.605462074279785156e-01 3.876876318827271461e-03
1.039212103933095932e-02 -1.203934326767921448e-01 -6.339615583419799805e-02
4.339508712291717529e-03 8.632691949605941772e-02 -1.902745570987462997e-03
-9.610965102910995483e-02 -2.342852354049682617e-01 -3.825734928250312805e-02
-7.363035529851913452e-02 -2.821436822414398193e-01 -3.924459218978881836e-02
1.674686372280120850e-02 -1.052661389112472534e-01 -6.124113500118255615e-02
-7.860203087329864502e-02 -1.421231776475906372e-01 4.314453899860382080e-02
9.358555078506469727e-02 -2.038952708244323730e-01 1.924306526780128479e-02
3.129944205284118652e-02 -1.843223422765731812e-01 4.898294433951377869e-02
-3.076409175992012024e-02 2.583274990320205688e-02 -3.479446843266487122e-02
-5.359597131609916687e-02 -1.770285367965698242e-01 4.620293527841567993e-02
7.228494435548782349e-02 -1.964144408702850342e-01 -4.975529760122299194e-02
-8.994093537330627441e-02 -5.705917626619338989e-02 4.215270280838012695e-02
-6.601521372795104980e-02 -2.933519184589385986e-01 2.676456468179821968e-03
1.964245736598968506e-02 -2.037780731916427612e-01 4.684821888804435730e-02
1.961012557148933411e-02 -7.424164563417434692e-02 -5.685643851757049561e-02
-3.474159166216850281e-05 -1.281747370958328247e-01 5.859168246388435364e-02
6.690771132707595825e-02 -2.305159866809844971e-01 -4.946953430771827698e-02
8.710666745901107788e-02 -1.777796447277069092e-02 3.143121674656867981e-02
-1.599951833486557007e-02 -2.958268821239471436e-01 -5.432729050517082214e-02
4.285809770226478577e-02 -1.740910410881042480e-01 4.854136332869529724e-02
-9.787908941507339478e-02 -2.020585536956787109e-01 2.089525200426578522e-02
2.940167486667633057e-02 -5.122825503349304199e-03 -4.060922935605049133e-02
-1.215577311813831329e-02 8.887050300836563110e-02 -1.000102143734693527e-03
-5.921133607625961304e-02 -1.240536198019981384e-01 5.158647894859313965e-02
-8.484399318695068359e-02 -1.890481859445571899e-01 3.240758553147315979e-02
-9.045709669589996338e-02 -1.397075802087783813e-01 -4.957770183682441711e-02
3.040908649563789368e-02 1.548359543085098267e-02 5.313757434487342834e-02
-9.376627951860427856e-02 -1.778949201107025146e-01 2.974966354668140411e-02
-7.009519636631011963e-02 -1.916343569755554199e-01 -5.793742835521697998e-02
9.846143424510955811e-02 -1.311846524477005005e-01 2.896208502352237701e-02
5.793248862028121948e-02 4.185315221548080444e-02 3.420020267367362976e-02
-1.229660958051681519e-01 -1.372717320919036865e-01 -2.031002193689346313e-02
1.002205088734626770e-01 -2.143496572971343994e-01 -2.342083305120468140e-02
1.071878150105476379e-01 -6.676895916461944580e-02 1.492826361209154129e-02
7.377450168132781982e-02 -2.743634283542633057e-01 -3.325900435447692871e-02
-1.688903570175170898e-02 -1.986539810895919800e-01 -6.686475872993469238e-02
-6.131235510110855103e-02 -2.398371994495391846e-01 -5.669125542044639587e-02
-1.778446137905120850e-02 -6.704413890838623047e-02 -5.784244835376739502e-02
-3.989412449300289154e-03 5.143783241510391235e-02 4.930347576737403870e-02
2.653754502534866333e-02 -1.919582486152648926e-01 -6.412998586893081665e-02
-5.197899416089057922e-03 3.616828471422195435e-02 5.311845242977142334e-02
-9.032093733549118042e-02 -1.103319972753524780e-02 3.741300478577613831e-02
-1.925836130976676941e-02 -9.286999702453613281e-03 -4.607966169714927673e-02
-4.296262934803962708e-02 -7.107056677341461182e-02 -5.633325502276420593e-02
6.569614261388778687e-02 -1.382547318935394287e-01 -5.199836567044258118e-02
-1.220347136259078979e-01 -1.759388297796249390e-01 -1.027719676494598389e-02
-5.352472886443138123e-02 -2.654042243957519531e-01 -5.469121411442756653e-02
-8.289510011672973633e-02 1.777283102273941040e-02 3.581671044230461121e-02
5.258234217762947083e-02 -2.330939471721649170e-02 5.221093818545341492e-02
-6.340019404888153076e-02 -2.825924754142761230e-01 1.123544294387102127e-02
5.193139612674713135e-02 -2.353291958570480347e-01 3.314318135380744934e-02
-1.103093698620796204e-01 -1.941741406917572021e-01 -3.279962763190269470e-02
-7.183278352022171021e-02 5.581452697515487671e-02 2.688211016356945038e-02
3.150798380374908447e-02 -2.068459838628768921e-01 4.471793770790100098e-02
6.157941371202468872e-02 5.132365971803665161e-02 4.010776989161968231e-03
6.501872092485427856e-02 -2.187953591346740723e-01 -5.166100338101387024e-02
3.630172833800315857e-02 6.366331130266189575e-02 3.610689938068389893e-02
7.366954535245895386e-02 2.397596091032028198e-02 2.884048782289028168e-02
-7.145327329635620117e-02 2.927557379007339478e-02 -2.212616987526416779e-02
5.011085048317909241e-02 -7.642333209514617920e-02 -5.052940547466278076e-02
-1.253459155559539795e-01 -1.161341294646263123e-01 4.792215302586555481e-03
-9.026701748371124268e-02 -1.560209095478057861e-01 -5.012183263897895813e-02
1.981081068515777588e-02 8.058967441320419312e-02 -2.403612947091460228e-03
-7.941800355911254883e-02 2.611666917800903320e-03 -2.895219624042510986e-02
-6.901252269744873047e-02 -2.131834626197814941e-04 -3.444322943687438965e-02
7.057996094226837158e-02 -1.191247552633285522e-01 4.653554782271385193e-02
2.526782080531120300e-02 -2.793752253055572510e-01 2.493011765182018280e-02
8.229296654462814331e-02 -7.883267104625701904e-02 -3.681551292538642883e-02
-3.486853465437889099e-02 -2.291994094848632812e-01 3.929594531655311584e-02
-2.583008632063865662e-02 -8.573203533887863159e-02 6.011279672384262085e-02
-9.128978848457336426e-02 -2.507700324058532715e-01 6.987367756664752960e-03
-6.728904694318771362e-02 -1.514615714550018311e-01 4.610690474510192871e-02
-3.521851450204849243e-02 -2.284651249647140503e-02 -4.816754162311553955e-02
1.129579171538352966e-01 -1.453742831945419312e-01 -8.942631073296070099e-03
-6.459470093250274658e-02 -3.025267124176025391e-01 -3.382650390267372131e-02
-6.984084844589233398e-02 -2.420759201049804688e-01 2.513984777033329010e-02
-9.516042470932006836e-02 -2.473753094673156738e-01 -3.446595370769500732e-02
3.877141512930393219e-03 -3.388657271862030029e-01 -1.401284430176019669e-02
3.171603381633758545e-02 -2.671367526054382324e-01 2.829692140221595764e-02
-3.042495995759963989e-02 2.504429966211318970e-02 5.345307663083076477e-02
-3.732365369796752930e-02 -1.670885682106018066e-01 -6.529808789491653442e-02
-6.686671636998653412e-03 -1.168861687183380127e-01 5.949632078409194946e-02
8.761660009622573853e-02 -1.242269054055213928e-01 -3.961460292339324951e-02
8.275178074836730957e-02 -1.446646749973297119e-01 -4.406382516026496887e-02
2.600110135972499847e-03 -2.326063960790634155e-01 -6.495025008916854858e-02
-5.681055039167404175e-02 -8.779364824295043945e-02 -5.619040131568908691e-02
4.269189760088920593e-02 6.913693994283676147e-02 2.727163210511207581e-02
-1.233313977718353271e-01 -9.114831686019897461e-02 1.042217481881380081e-02
9.831326454877853394e-02 -5.898381769657135010e-02 -1.877580769360065460e-02
-3.529669344425201416e-02 1.073487848043441772e-02 5.495485290884971619e-02
2.624212577939033508e-02 -2.685718238353729248e-03 5.653252080082893372e-02
2.874153479933738708e-02 8.217374235391616821e-02 2.430288121104240417e-02
1.077527850866317749e-01 -1.348621994256973267e-01 1.805484853684902191e-02
1.899483427405357361e-02 5.654893070459365845e-02 4.518303647637367249e-02
-2.158345468342304230e-02 1.420959085226058960e-02 5.624302849173545837e-02
-2.369032427668571472e-02 -1.057387143373489380e-02 5.883530154824256897e-02
3.750434890389442444e-02 -1.043754741549491882e-01 -5.759136006236076355e-02
8.920808881521224976e-02 -1.581894755363464355e-01 -4.037664085626602173e-02
1.046231612563133240e-01 -5.305446684360504150e-02 1.615818589925765991e-02
-3.855317085981369019e-02 4.184044152498245239e-02 -2.748641930520534515e-02
6.522797048091888428e-03 7.443556934595108032e-02 -1.155310310423374176e-02
-1.215323284268379211e-01 -5.705559253692626953e-02 7.347736507654190063e-03
3.165845572948455811e-02 -1.824472099542617798e-02 5.712324753403663635e-02
-3.737902641296386719e-02 -2.030490934848785400e-01 4.481643065810203552e-02
-8.099138736724853516e-02 -2.242913544178009033e-01 -5.072932690382003784e-02
5.637951195240020752e-03 -2.447183430194854736e-02 -4.908296465873718262e-02
-2.306389808654785156e-02 -3.255994617938995361e-02 6.028919667005538940e-02
-9.729652106761932373e-02 -3.480223566293716431e-02 -3.027892857789993286e-02
-6.995930522680282593e-02 -5.311290919780731201e-02 5.090865865349769592e-02
1.390131283551454544e-02 -2.981926500797271729e-01 1.837262138724327087e-02
-5.511676147580146790e-02 5.634023994207382202e-02 3.807569295167922974e-02
-1.159319356083869934e-01 -7.233531773090362549e-02 2.170735783874988556e-02
-1.021572947502136230e-02 -2.433621287345886230e-01 3.834471479058265686e-02
-7.823560386896133423e-02 -8.845277130603790283e-02 4.755011945962905884e-02
1.088602747768163681e-02 -3.226782083511352539e-01 4.184443503618240356e-03
4.033000767230987549e-02 3.379739820957183838e-03 -3.515630960464477539e-02
-6.669353693723678589e-02 -9.189145267009735107e-02 5.156394466757774353e-02
5.129821226000785828e-02 -3.139741122722625732e-01 -8.194830268621444702e-03
6.065877526998519897e-02 -1.076527982950210571e-01 -5.122145265340805054e-02
4.800921678543090820e-02 -1.592718213796615601e-01 4.952181503176689148e-02
3.403207287192344666e-02 -1.514471769332885742e-01 5.332789942622184753e-02
-7.784095406532287598e-02 -1.589583605527877808e-01 4.114608839154243469e-02
-9.965775161981582642e-02 -2.227066606283187866e-01 1.205947529524564743e-02
-8.246897161006927490e-02 -7.118532061576843262e-02 4.607710242271423340e-02
6.635348498821258545e-02 -2.004093825817108154e-01 3.668994084000587463e-02
1.443337555974721909e-02 -1.385423094034194946e-01 -6.436219066381454468e-02
-1.020315382629632950e-02 -1.548705995082855225e-01 5.551727116107940674e-02
5.593894422054290771e-02 -5.053225904703140259e-02 -4.386858269572257996e-02
7.550527900457382202e-02 3.220025449991226196e-02 6.498593837022781372e-03
-1.372382976114749908e-03 1.837172359228134155e-02 -3.795965015888214111e-02
-1.120208129286766052e-01 -2.542702108621597290e-02 1.800660975277423859e-02
5.970762670040130615e-02 -9.248347580432891846e-02 5.186360701918601990e-02
-8.025930821895599365e-02 4.459551721811294556e-02 2.596515044569969177e-02
-1.768284477293491364e-02 -3.269079327583312988e-01 -6.096437573432922363e-05
-6.504361517727375031e-04 -7.002328336238861084e-02 -5.811554938554763794e-02
-1.673726923763751984e-02 -3.134699165821075439e-01 -4.787601903080940247e-02
-1.121067330241203308e-01 -1.394634693861007690e-02 1.004519872367382050e-02
-8.070672303438186646e-02 -2.091657221317291260e-01 -5.262413248419761658e-02
5.771445482969284058e-02 5.906552821397781372e-02 1.312230061739683151e-02
3.117288276553153992e-02 -1.750335395336151123e-01 -6.330499798059463501e-02
1.775550469756126404e-02 -2.730062007904052734e-01 -5.814012885093688965e-02
5.329728126525878906e-02 -2.461597323417663574e-03 4.935014247894287109e-02
8.247626572847366333e-02 -2.688606679439544678e-01 -2.451629750430583954e-02
3.062679246068000793e-02 -3.310078084468841553e-01 -1.414508838206529617e-02
3.638638556003570557e-02 -2.115935832262039185e-02 -4.318349808454513550e-02
-4.764782637357711792e-02 -2.459235042333602905e-01 -5.964808538556098938e-02
4.395605623722076416e-02 -2.979053258895874023e-01 1.097167748957872391e-02
4.749603569507598877e-02 -1.016362830996513367e-01 5.493125319480895996e-02
-9.603348374366760254e-02 -8.554705232381820679e-02 3.883433341979980469e-02
4.225561022758483887e-02 -2.485575973987579346e-01 -5.670050904154777527e-02
4.358422383666038513e-02 -3.322780877351760864e-02 5.560639873147010803e-02
4.419734328985214233e-02 -1.440281271934509277e-01 5.226507782936096191e-02
-1.016334742307662964e-01 -1.542270183563232422e-03 -1.347002759575843811e-02
7.184430956840515137e-02 -2.204123288393020630e-01 2.930862642824649811e-02
8.251594752073287964e-02 8.364386856555938721e-03 -6.317741237580776215e-03
-1.034686993807554245e-02 -1.738672703504562378e-02 -4.819005727767944336e-02
-7.254415005445480347e-02 -4.048897325992584229e-02 4.949585348367691040e-02
-4.556735977530479431e-02 -1.114108860492706299e-01 -6.093257293105125427e-02
8.467066287994384766e-02 -9.512580186128616333e-02 4.074824228882789612e-02
-8.074779063463211060e-02 -3.573551774024963379e-03 4.198456928133964539e-02
1.733426004648208618e-02 -3.179184794425964355e-01 -4.391619935631752014e-02
-7.454062253236770630e-02 -5.884716659784317017e-02 -4.678476229310035706e-02
2.161549404263496399e-02 7.218945771455764771e-02 3.732679039239883423e-02
1.018403768539428711e-01 -1.487568914890289307e-01 -2.923000045120716095e-02
1.567631587386131287e-02 -1.365371048450469971e-02 5.903549864888191223e-02
-2.779891714453697205e-02 8.000381290912628174e-03 -4.082735627889633179e-02
4.744227044284343719e-03 -3.388864696025848389e-01 -2.702717855572700500e-02
-5.096493661403656006e-02 -2.901143729686737061e-01 -4.870948940515518188e-02
2.320973947644233704e-02 -3.347766101360321045e-01 -2.426572516560554504e-02
8.892366290092468262e-02 -9.998927265405654907e-02 -3.590478748083114624e-02
-4.170113429427146912e-02 -9.600074589252471924e-02 5.745667964220046997e-02
-4.935297369956970215e-02 9.213320910930633545e-03 -3.722805529832839966e-02
-1.574688963592052460e-02 -2.674817740917205811e-01 -6.077089160680770874e-02
5.364062637090682983e-02 2.714269608259201050e-02 4.266902804374694824e-02
-2.783250808715820312e-02 -1.944490373134613037e-01 4.792471230030059814e-02
-1.092132329940795898e-01 -2.129471302032470703e-01 -2.915362827479839325e-02
-6.905940920114517212e-02 -1.097744777798652649e-01 -5.557463318109512329e-02
-1.051155403256416321e-01 -1.257410496473312378e-01 -4.017361253499984741e-02
-8.415143191814422607e-02 -2.458450496196746826e-01 1.552628073841333389e-02
-6.495905667543411255e-02 -2.749925553798675537e-01 -4.763405025005340576e-02
1.101502329111099243e-01 -1.681857258081436157e-01 -1.499892119318246841e-02
3.831597045063972473e-02 -1.357296556234359741e-01 -6.023850664496421814e-02
-6.232202053070068359e-03 -3.105749189853668213e-01 1.265611685812473297e-02
-3.256791830062866211e-02 -9.292767941951751709e-02 -6.055003404617309570e-02
-1.052411645650863647e-01 -6.397782266139984131e-02 3.215617686510086060e-02
-1.065220534801483154e-01 3.823228180408477783e-03 9.573165327310562134e-03
-5.379476025700569153e-02 -1.525350511074066162e-01 -6.218678131699562073e-02
1.006856188178062439e-01 -1.914942264556884766e-01 -2.822253108024597168e-02
8.030560612678527832e-02 -6.032148003578186035e-02 4.269678518176078796e-02
-9.360872209072113037e-02 7.002182304859161377e-03 -1.755768060684204102e-02
9.301413781940937042e-03 -8.438806235790252686e-02 -5.949597805738449097e-02
-1.275449153035879135e-02 -3.373352289199829102e-01 -1.181679219007492065e-02
-5.350733920931816101e-02 7.962874323129653931e-02 5.889133550226688385e-03
-7.660900801420211792e-02 5.826392024755477905e-02 1.575158908963203430e-02
-1.890545710921287537e-03 -9.170703589916229248e-02 6.106559187173843384e-02
-3.886977583169937134e-02 -2.400075793266296387e-01 3.565981984138488770e-02
1.037208139896392822e-01 -1.683626174926757812e-01 -2.666841633617877960e-02
-9.604049474000930786e-02 -1.543883234262466431e-02 -2.501103468239307404e-02
-1.062480509281158447e-01 -1.812134981155395508e-01 1.958381757140159607e-02
-4.088727384805679321e-02 -2.044884264469146729e-01 -6.444636732339859009e-02
-5.240384861826896667e-02 -2.168855965137481689e-01 -6.154394894838333130e-02
2.606720104813575745e-02 -9.631126374006271362e-02 5.908611044287681580e-02
-5.841442197561264038e-02 -3.141418099403381348e-01 -1.220808643847703934e-02
-4.193607345223426819e-02 -3.257735073566436768e-01 -1.075131259858608246e-02
3.445439040660858154e-02 4.668559879064559937e-02 -1.987413130700588226e-02
-1.459674537181854248e-02 -1.528042256832122803e-01 -6.643433868885040283e-02
-8.312501758337020874e-02 5.016771703958511353e-02 8.444775827229022980e-03
-1.143560111522674561e-01 -1.980541944503784180e-01 3.151744371280074120e-03
-1.087543740868568420e-01 -1.056603491306304932e-01 -3.566942736506462097e-02
-9.198355674743652344e-02 3.555684536695480347e-02 5.288399755954742432e-03
7.812584191560745239e-02 -2.805004715919494629e-01 -7.676760666072368622e-03
-1.900153979659080505e-02 -1.063608899712562561e-01 5.966496840119361877e-02
2.298219874501228333e-02 -1.329284459352493286e-01 5.683298408985137939e-02
7.510509341955184937e-02 -2.377999722957611084e-01 -4.363838583230972290e-02
-4.761499539017677307e-02 -1.835964918136596680e-01 -6.382483989000320435e-02
-2.750050276517868042e-02 -2.150804698467254639e-01 4.375628009438514709e-02
-6.110051274299621582e-02 -1.655553728342056274e-01 4.600289836525917053e-02
-9.511434286832809448e-02 -1.943193674087524414e-01 -4.606303945183753967e-02
-1.178325936198234558e-01 -6.328222900629043579e-02 -1.789150014519691467e-02
2.985981851816177368e-02 -1.246336698532104492e-01 -6.111048161983489990e-02
6.355569511651992798e-02 -2.977092564105987549e-01 -3.129861550405621529e-03
7.728005200624465942e-02 -1.160290986299514771e-01 -4.486147686839103699e-02
-1.176189333200454712e-01 -1.921378076076507568e-01 -2.025589533150196075e-02
-7.680325955152511597e-02 4.719354957342147827e-02 -7.726718671619892120e-03
-9.063379466533660889e-02 -1.704755127429962158e-01 -4.988942667841911316e-02
8.757658302783966064e-02 -1.894542872905731201e-01 2.790166810154914856e-02
8.318880200386047363e-02 -2.724647521972656250e-02 -2.306176722049713135e-02
-9.971302002668380737e-02 -1.670871973037719727e-01 2.800980582833290100e-02
-7.263477146625518799e-02 -1.787483692169189453e-02 -3.826886788010597229e-02
-1.157563030719757080e-01 -1.422403752803802490e-01 -3.121799789369106293e-02
-1.007445752620697021e-01 -2.495739459991455078e-01 -2.288575656712055206e-02
2.864486351609230042e-02 -2.924872934818267822e-01 1.864392682909965515e-02
5.527204275131225586e-02 -5.820548534393310547e-02 5.340310186147689819e-02
5.889808386564254761e-02 -2.867217957973480225e-01 -4.009300097823143005e-02
1.962148025631904602e-02 -3.627134859561920166e-02 6.004685908555984497e-02
5.019927024841308594e-02 6.463035196065902710e-02 4.874870181083679199e-03
1.969246566295623779e-02 8.948934823274612427e-02 1.661494933068752289e-02
-2.976172370836138725e-03 -2.845896780490875244e-01 -5.753128603100776672e-02
4.894169047474861145e-02 1.670118421316146851e-02 -2.735025808215141296e-02
-8.709302544593811035e-02 -1.147303134202957153e-01 -4.948436468839645386e-02
1.103751510381698608e-01 -8.537229150533676147e-02 1.146044023334980011e-02
1.178465131670236588e-02 -1.050560995936393738e-01 5.995015799999237061e-02
1.076467782258987427e-01 -7.774471491575241089e-02 -1.038671098649501801e-02
-1.262390017509460449e-01 -1.343888640403747559e-01 -7.540529593825340271e-03
1.647277921438217163e-02 -1.354357600212097168e-02 -4.522341489791870117e-02
6.833022832870483398e-02 -3.535137325525283813e-02 4.709812626242637634e-02
-3.948913142085075378e-02 8.862598985433578491e-02 1.995244622230529785e-02
-5.981701239943504333e-02 -1.417344510555267334e-01 -6.037796661257743835e-02
5.277959257364273071e-02 3.742360323667526245e-02 -1.591482013463973999e-02
-5.745253339409828186e-02 -2.087265700101852417e-01 3.890628367662429810e-02
-3.515510261058807373e-02 -2.623741626739501953e-01 2.952871285378932953e-02
8.359310030937194824e-02 -7.226368784904479980e-02 4.125654324889183044e-02
-5.698696523904800415e-02 -2.580579817295074463e-01 2.488141879439353943e-02
1.045254915952682495e-01 -9.425709396600723267e-02 -2.019302919507026672e-02
1.351100392639636993e-03 5.777209252119064331e-02 -2.204032614827156067e-02
-1.158697679638862610e-01 -9.078324586153030396e-02 -2.685686759650707245e-02
-4.243728891015052795e-02 -1.400578022003173828e-01 5.375391617417335510e-02
-3.409423679113388062e-02 -1.855606138706207275e-01 -6.579840928316116333e-02
-2.766839414834976196e-02 8.403698354959487915e-02 -4.029298666864633560e-03
-7.266939431428909302e-02 -9.175271540880203247e-02 -5.246204510331153870e-02
-1.205593124032020569e-01 -1.474727392196655273e-01 1.025835797190666199e-02
2.714482322335243225e-02 7.032329589128494263e-02 -8.168169297277927399e-03
-3.581400960683822632e-04 8.959359675645828247e-02 2.949734218418598175e-02
-3.780796378850936890e-02 -5.138848721981048584e-02 5.896382406353950500e-02
5.510030314326286316e-04 -1.530621945858001709e-01 -6.622453778982162476e-02
3.948188573122024536e-02 -2.499018311500549316e-01 3.227996081113815308e-02
1.086822822690010071e-01 -1.921178847551345825e-01 -8.802033960819244385e-03
1.004881337285041809e-01 -7.103098183870315552e-02 2.711446397006511688e-02
-3.945448435842990875e-03 -1.303592473268508911e-01 -6.506542116403579712e-02
-1.016255617141723633e-01 -1.119649708271026611e-01 3.401311486959457397e-02
-1.079099997878074646e-01 -2.283156216144561768e-01 -2.346988581120967865e-02
4.176541790366172791e-02 5.278649181127548218e-02 3.899875283241271973e-02
-1.212722733616828918e-01 -1.096680536866188049e-01 -2.222750149667263031e-02
3.041876479983329773e-04 9.544072300195693970e-02 1.593793742358684540e-02
5.125253275036811829e-02 1.130876690149307251e-02 4.766429215669631958e-02
7.024348527193069458e-02 -1.465057134628295898e-01 4.407807067036628723e-02
1.024557054042816162e-01 -2.213561534881591797e-01 -1.023061666637659073e-02
-1.061837151646614075e-01 -1.311804503202438354e-01 2.884543128311634064e-02
-8.738318830728530884e-02 -1.106206625699996948e-01 4.231470823287963867e-02
4.412888735532760620e-02 5.285108834505081177e-02 -1.178278587758541107e-02
9.559950232505798340e-02 -1.260943710803985596e-02 1.237410679459571838e-02
-2.453771978616714478e-02 -2.807923555374145508e-01 -5.742995068430900574e-02
8.417858928442001343e-02 -2.342289686203002930e-01 1.686277054250240326e-02
-8.235862106084823608e-02 -2.871139347553253174e-01 -1.831205002963542938e-02
9.240356087684631348e-02 -6.971241533756256104e-02 -2.763479575514793396e-02
-9.825474768877029419e-02 2.393897622823715210e-02 6.701674312353134155e-03
9.439782053232192993e-02 -4.072846472263336182e-02 -1.703171618282794952e-02
-5.587455816566944122e-03 2.406604588031768799e-03 5.849296972155570984e-02
-2.489942125976085663e-03 -1.317638158798217773e-02 5.997987091541290283e-02
-1.164790913462638855e-01 -1.837038695812225342e-01 5.921779200434684753e-03
-1.776039041578769684e-02 6.438008695840835571e-02 4.458117857575416565e-02
5.277825519442558289e-02 -2.628028094768524170e-01 -5.052059516310691833e-02
2.266028150916099548e-02 -2.605350017547607422e-01 -5.951051041483879089e-02
-1.027903929352760315e-01 -4.124845564365386963e-02 3.236291185021400452e-02
-5.379515513777732849e-02 -3.030278980731964111e-01 -4.170059785246849060e-02
5.764082819223403931e-02 -1.905514597892761230e-01 4.181757196784019470e-02
9.467629343271255493e-02 -2.720566838979721069e-02 -1.056489255279302597e-02
1.134185772389173508e-02 -1.675448119640350342e-01 5.363881960511207581e-02
3.212639689445495605e-02 -3.239484131336212158e-01 -3.408277407288551331e-02
7.019262015819549561e-02 -1.795980334281921387e-02 -2.893500216305255890e-02
-7.409317791461944580e-02 2.778140455484390259e-02 3.850383684039115906e-02
1.233904901891946793e-02 -2.691117525100708008e-01 3.025793842971324921e-02
-6.232443824410438538e-02 -4.370003938674926758e-02 -4.759623110294342041e-02
-5.098883062601089478e-02 -8.169299364089965820e-02 5.617672950029373169e-02
9.145738184452056885e-02 -2.183434665203094482e-01 -3.405797109007835388e-02
-1.372559927403926849e-02 -1.771129071712493896e-01 5.217888206243515015e-02
-5.303251743316650391e-02 -1.483150273561477661e-01 5.054387822747230530e-02
-4.449306428432464600e-02 2.695953100919723511e-02 5.033249780535697937e-02
8.777020871639251709e-02 -2.466052472591400146e-01 -2.981274761259555817e-02
2.542895823717117310e-02 -9.181539714336395264e-02 -5.841949954628944397e-02
9.857303649187088013e-02 -1.505521237850189209e-01 2.656861022114753723e-02
-4.483959823846817017e-02 6.975699216127395630e-02 3.593887761235237122e-02
6.126435101032257080e-02 4.250752180814743042e-02 -5.997828207910060883e-03
-8.121049404144287109e-02 -1.964595317840576172e-01 -5.338221788406372070e-02
5.633576959371566772e-02 -3.489558398723602295e-02 5.191905796527862549e-02
4.583705216646194458e-03 -1.980584412813186646e-01 -6.656136363744735718e-02
5.407612398266792297e-02 -1.291696727275848389e-01 -5.551511049270629883e-02
1.172035094350576401e-02 1.072697341442108154e-03 -4.195567220449447632e-02
-4.779865220189094543e-02 -3.145239353179931641e-01 -3.771398216485977173e-02
2.045981585979461670e-02 6.151587516069412231e-02 -1.645399071276187897e-02
-1.248657777905464172e-01 -8.172279596328735352e-02 -6.724906153976917267e-03
3.544263169169425964e-02 -4.508098214864730835e-02 5.799033120274543762e-02
7.679698616266250610e-02 -6.824955344200134277e-04 -1.773580908775329590e-02
-7.539176382124423981e-03 -4.958062618970870972e-02 -5.490795150399208069e-02
-7.568665780127048492e-03 -2.148683220148086548e-01 -6.641139835119247437e-02
-4.434421285986900330e-02 -7.657542824745178223e-03 5.540611594915390015e-02
-1.083724200725555420e-01 -6.372615694999694824e-02 -2.901411615312099457e-02
1.046675443649291992e-01 -1.046035289764404297e-01 2.385802194476127625e-02
-4.586406052112579346e-02 -3.148860931396484375e-01 -6.874883547425270081e-04
6.925730407238006592e-02 -5.771975219249725342e-02 -3.977369517087936401e-02
8.298251032829284668e-02 -4.357999563217163086e-02 -2.833559177815914154e-02
-1.237570494413375854e-01 -1.209104061126708984e-01 -1.846684142947196960e-02
-6.637255102396011353e-02 -2.625368535518646240e-01 -5.046805739402770996e-02
3.584506362676620483e-02 -2.213840186595916748e-01 4.074627906084060669e-02
-1.263413429260253906e-01 -1.006235331296920776e-01 -5.897473543882369995e-03
7.905463129281997681e-02 -2.523259818553924561e-01 -3.711225092411041260e-02
1.070012599229812622e-01 -1.347208470106124878e-01 -2.221376448869705200e-02
-1.571828126907348633e-02 5.116625875234603882e-02 -2.579631283879280090e-02
-5.753353610634803772e-02 -3.163243830204010010e-01 -2.387903444468975067e-02
-9.725304692983627319e-02 -5.343993008136749268e-02 -3.500905260443687439e-02
3.702878952026367188e-02 -6.655056774616241455e-02 5.805852264165878296e-02
5.692624300718307495e-02 -1.472923159599304199e-01 4.863018915057182312e-02
7.177434861660003662e-02 -2.775612473487854004e-01 5.279022268950939178e-03
6.448364257812500000e-02 2.415107935667037964e-02 3.717380017042160034e-02
-6.666703522205352783e-02 -1.713186502456665039e-03 4.818182438611984253e-02
-7.845822721719741821e-02 -1.782880574464797974e-01 3.761215135455131531e-02
-4.128988087177276611e-02 -1.324695944786071777e-01 -6.327243894338607788e-02
3.973321244120597839e-02 -2.099026441574096680e-01 -6.087414175271987915e-02
6.794359534978866577e-03 -2.920796275138854980e-01 -5.511813238263130188e-02
-5.049915984272956848e-02 8.095627278089523315e-02 2.237397432327270508e-02
-5.473902449011802673e-02 -1.990381926298141479e-01 -6.198871508240699768e-02
9.808035194873809814e-02 -2.288693934679031372e-02 9.187497198581695557e-07
1.629019901156425476e-02 1.693781465291976929e-02 -3.645778447389602661e-02
6.630076095461845398e-03 3.964661806821823120e-02 -2.957870438694953918e-02
3.506095148622989655e-03 -1.442441046237945557e-01 5.690822377800941467e-02
2.345720678567886353e-02 -2.265320271253585815e-01 4.144180566072463989e-02
8.129432052373886108e-02 -4.580641537904739380e-02 4.099090397357940674e-02
-3.765111789107322693e-02 -2.285827100276947021e-01 -6.343474984169006348e-02
-8.570675551891326904e-02 3.344816714525222778e-02 -9.328797459602355957e-03
-1.104106232523918152e-01 -2.173461914062500000e-01 -6.296951323747634888e-04
-5.799447372555732727e-02 4.439736157655715942e-02 -2.088049426674842834e-02
-9.916517138481140137e-02 -1.634482592344284058e-01 -4.506699368357658386e-02
1.008992344141006470e-01 -1.696730554103851318e-01 2.087328024208545685e-02
-5.374085623770952225e-03 -2.645614743232727051e-01 3.218886628746986389e-02
5.060872063040733337e-02 -2.990238368511199951e-01 -3.972317278385162354e-02
3.140774555504322052e-03 -2.557481527328491211e-01 -6.243623048067092896e-02
-3.120255097746849060e-02 -2.400031685829162598e-01 -6.321705132722854614e-02
4.282898083329200745e-02 -1.861597001552581787e-01 4.654802009463310242e-02
1.065660715103149414e-01 -1.963206231594085693e-01 2.674348419532179832e-03
-2.865006402134895325e-02 -3.281270563602447510e-01 -4.801100119948387146e-03
1.094529107213020325e-01 -1.553023010492324829e-01 -1.823585107922554016e-02
-1.155918315052986145e-01 -1.611018925905227661e-01 1.447669509798288345e-02
4.788226261734962463e-02 -4.001413285732269287e-02 -4.435032978653907776e-02
2.542611211538314819e-02 -1.651982218027114868e-01 5.274227634072303772e-02
9.851939976215362549e-02 -2.846169471740722656e-02 1.844198442995548248e-02
6.190592050552368164e-02 -9.381119161844253540e-02 -4.904179647564888000e-02
1.495033223181962967e-02 1.102865487337112427e-02 5.634033307433128357e-02
7.533731311559677124e-02 3.178959339857101440e-02 1.865519024431705475e-02
9.672182798385620117e-02 -2.397140413522720337e-01 -1.441259030252695084e-02
6.735885143280029297e-02 -1.603060662746429443e-01 -5.232271924614906311e-02
-7.406954467296600342e-02 -2.985789477825164795e-01 -1.643066853284835815e-02
-7.128690183162689209e-02 -1.701258122920989990e-02 4.821281507611274719e-02
7.258392870426177979e-02 -3.513693809509277344e-05 3.898661211133003235e-02
1.071871966123580933e-01 -5.763320624828338623e-02 6.473036482930183411e-04
4.094527103006839752e-03 -3.248466253280639648e-01 -4.215920716524124146e-02
-5.702502280473709106e-02 -1.989273726940155029e-02 5.334613472223281860e-02
1.127064749598503113e-01 -1.001984775066375732e-01 -2.602136693894863129e-03
1.131172925233840942e-01 -1.473429501056671143e-01 2.890945645049214363e-03
-3.995731845498085022e-02 -1.712316721677780151e-01 5.006094649434089661e-02
-3.095121681690216064e-02 -6.997950375080108643e-02 -5.755359679460525513e-02
-2.783004939556121826e-02 6.546903401613235474e-02 -1.758543401956558228e-02
-3.911198675632476807e-02 8.556764572858810425e-02 2.284498186782002449e-03
4.041175171732902527e-02 -9.098965674638748169e-02 5.695365369319915771e-02
-2.055557817220687866e-02 -3.040026128292083740e-01 1.477321516722440720e-02
8.426880091428756714e-02 -1.743056029081344604e-01 -4.369375482201576233e-02
1.758617535233497620e-02 -2.389166206121444702e-01 -6.298689544200897217e-02
8.340848237276077271e-02 1.579260081052780151e-02 1.822276413440704346e-02
1.520026754587888718e-02 -3.337438404560089111e-01 -7.931696251034736633e-03
-8.114692568778991699e-02 -1.213642954826354980e-01 4.428949579596519470e-02
3.667864948511123657e-04 -2.911777049303054810e-02 6.097092479467391968e-02
5.570911616086959839e-02 -2.124463468790054321e-01 3.782154619693756104e-02
-5.686808750033378601e-02 -2.287135869264602661e-01 3.411199897527694702e-02
5.322403833270072937e-02 -1.224622949957847595e-01 5.212022364139556885e-02
-1.214919611811637878e-01 -1.541838049888610840e-01 -2.201124839484691620e-02
-8.877331018447875977e-02 -6.192079558968544006e-02 -4.146130383014678955e-02
3.536434844136238098e-02 -2.654491066932678223e-01 -5.590900033712387085e-02
-2.878326550126075745e-02 9.348525851964950562e-02 1.313914824277162552e-02
-1.106923539191484451e-02 -2.945307195186614990e-01 2.045005187392234802e-02
9.488133341073989868e-02 -1.112007126212120056e-01 3.329823911190032959e-02
2.102750912308692932e-02 -2.436468750238418579e-02 5.923540890216827393e-02
2.573075518012046814e-02 -1.433599591255187988e-01 -6.313479691743850708e-02
-1.004767417907714844e-01 -1.775231957435607910e-02 3.059057332575321198e-02
9.969002567231655121e-03 -1.173611655831336975e-01 5.921045318245887756e-02
3.663134574890136719e-02 -7.037840783596038818e-02 -5.314306542277336121e-02
-8.624269813299179077e-02 -2.542546391487121582e-01 -4.066474735736846924e-02
9.066922962665557861e-02 -2.169534564018249512e-01 1.763657853007316589e-02
2.709731459617614746e-02 -2.984600961208343506e-01 -4.973170533776283264e-02
-8.647882938385009766e-02 -4.523105174303054810e-02 4.347305744886398315e-02
7.371909916400909424e-02 -1.045918390154838562e-01 4.605272039771080017e-02
-2.806317806243896484e-02 -3.851194679737091064e-02 -5.222614854574203491e-02
8.853000402450561523e-02 2.171456813812255859e-03 1.957335136830806732e-02
5.596359260380268097e-04 6.625986844301223755e-02 4.405503720045089722e-02
-8.946055918931961060e-02 2.603632956743240356e-02 2.673412114381790161e-02
9.471189230680465698e-02 -2.400515079498291016e-01 1.294985413551330566e-04
-5.565395951271057129e-02 2.277534455060958862e-02 4.795705527067184448e-02
-8.310785144567489624e-02 -2.049316763877868652e-01 2.954993955790996552e-02
-6.994520872831344604e-02 -2.279714345932006836e-01 -5.516795814037322998e-02
-2.854280546307563782e-02 -1.329174339771270752e-01 -6.466601043939590454e-02
-3.888045251369476318e-02 -2.697057425975799561e-01 -5.754509940743446350e-02
6.847178936004638672e-02 -1.777589172124862671e-01 4.025321826338768005e-02
9.603900462388992310e-02 -2.038597166538238525e-01 -3.185122460126876831e-02
-9.614875912666320801e-02 -2.593773901462554932e-01 -7.560204714536666870e-03
-1.105947345495223999e-01 -4.556711018085479736e-02 -2.186372876167297363e-02
-3.091557323932647705e-02 8.476691693067550659e-02 3.073085285723209381e-02
-3.072534874081611633e-02 -3.014497458934783936e-01 -5.053295940160751343e-02
-7.512902840971946716e-03 -2.313548028469085693e-01 4.158529266715049744e-02
-1.102611944079399109e-01 -3.623974323272705078e-02 2.388716675341129303e-02
-9.032822400331497192e-02 -2.661806643009185791e-01 -3.008563630282878876e-02
-2.529752254486083984e-02 -3.308624625205993652e-01 -3.455127403140068054e-02
3.461619839072227478e-02 4.025422781705856323e-02 4.640542715787887573e-02
4.590327292680740356e-02 -7.924456149339675903e-02 5.605113506317138672e-02
4.258275777101516724e-02 -2.245027720928192139e-01 -5.920731276273727417e-02
5.800960212945938110e-02 -2.427622675895690918e-04 -2.946854382753372192e-02
2.325189858675003052e-02 -1.103891581296920776e-01 5.863076448440551758e-02
5.979965440928936005e-03 -2.275489866733551025e-01 4.252861440181732178e-02
7.868578284978866577e-02 -1.632549762725830078e-01 -4.695944488048553467e-02
-4.003697074949741364e-03 4.664850980043411255e-02 -2.760798856616020203e-02
-4.623197391629219055e-02 -1.261014640331268311e-01 5.444718897342681885e-02
-5.900788120925426483e-03 -1.072283461689949036e-01 -6.307411193847656250e-02
1.139251068234443665e-01 -1.276119202375411987e-01 -3.046138910576701164e-03
2.258814871311187744e-02 -2.113956660032272339e-01 -6.420616060495376587e-02
-9.541159123182296753e-02 7.998742163181304932e-03 2.821119315922260284e-02
-4.821218922734260559e-02 -2.822848260402679443e-01 1.824377849698066711e-02
4.824055358767509460e-02 -1.882907748222351074e-02 -3.906045854091644287e-02
1.119668483734130859e-01 -1.626250147819519043e-01 2.249917248263955116e-03
-5.951527878642082214e-02 5.760868638753890991e-02 -1.252957060933113098e-02
-2.282710000872612000e-02 -7.138745486736297607e-02 6.078623235225677490e-02
9.366241842508316040e-02 -1.441804170608520508e-01 -3.662674874067306519e-02
-5.884459987282752991e-02 -1.714380383491516113e-01 -6.146232783794403076e-02
1.462657097727060318e-02 -1.682960391044616699e-01 -6.564108282327651978e-02
5.351976491510868073e-03 -1.937399208545684814e-01 4.963611811399459839e-02
-8.756281808018684387e-03 -3.847033530473709106e-02 6.133776158094406128e-02
-8.940091729164123535e-02 -1.663503944873809814e-01 3.448414430022239685e-02
7.417696714401245117e-02 -1.593272536993026733e-01 4.073730111122131348e-02
-7.982103154063224792e-03 -3.792160749435424805e-02 -5.266984552145004272e-02
3.988674283027648926e-02 7.679433375597000122e-02 1.572834514081478119e-02
-7.111882418394088745e-02 -7.175888121128082275e-02 -5.011767148971557617e-02
-1.201257407665252686e-01 -1.146949455142021179e-01 1.585999876260757446e-02
-6.299319118261337280e-02 7.117771357297897339e-02 3.705856623128056526e-03
5.606279522180557251e-02 -2.749579548835754395e-01 1.737597957253456116e-02
-1.073963120579719543e-01 -1.006656065583229065e-01 3.038967587053775787e-02
9.197304397821426392e-02 -1.130314618349075317e-01 -3.538733348250389099e-02
5.740036442875862122e-02 3.595720231533050537e-01 2.268285304307937622e-02
-1.182150654494762421e-02 3.462131023406982422e-01 2.304456382989883423e-02
-4.308265075087547302e-02 3.423211574554443359e-01 2.166833169758319855e-02
6.610640324652194977e-03 5.575026273727416992e-01 4.531933460384607315e-03
3.179708868265151978e-02 4.096700847148895264e-01 2.474969439208507538e-02
1.475566327571868896e-01 3.615935742855072021e-01 8.201939053833484650e-03
8.370687067508697510e-02 5.402649044990539551e-01 5.954876542091369629e-03
-1.281419247388839722e-01 4.667002260684967041e-01 -1.729301363229751587e-02
2.997966948896646500e-03 5.729476213455200195e-01 -3.404857357963919640e-03
-1.088034734129905701e-02 4.111546874046325684e-01 2.502392977476119995e-02
1.207212917506694794e-02 5.054669976234436035e-01 1.670631393790245056e-02
-1.264797747135162354e-01 4.462998211383819580e-01 1.609722711145877838e-02
-1.435707956552505493e-01 4.092128872871398926e-01 1.477555092424154282e-02
-6.457944214344024658e-02 5.220921635627746582e-01 1.141973026096820831e-02
-1.149624139070510864e-01 3.436931967735290527e-01 1.298399642109870911e-02
-1.900956965982913971e-03 3.860229253768920898e-01 -1.914237253367900848e-02
7.372999191284179688e-02 5.214692354202270508e-01 -2.268661558628082275e-02
-3.417295590043067932e-02 3.242452740669250488e-01 1.893284544348716736e-02
-1.296505779027938843e-01 3.924744427204132080e-01 1.695036515593528748e-02
-4.544002562761306763e-02 5.041054487228393555e-01 -2.437408082187175751e-02
4.905746504664421082e-02 4.279053509235382080e-01 -2.296547219157218933e-02
1.797469556331634521e-01 4.167885482311248779e-01 4.397947341203689575e-03
-5.883764848113059998e-02 3.242034912109375000e-01 -3.003931837156414986e-03
1.269799172878265381e-01 4.402725696563720703e-01 1.712765358388423920e-02
-1.462301313877105713e-01 4.417564868927001953e-01 -1.341104134917259216e-02
8.598564565181732178e-02 4.089242815971374512e-01 2.222098410129547119e-02
1.291946619749069214e-01 5.030348300933837891e-01 -1.818476617336273193e-02
7.289260625839233398e-02 3.653566539287567139e-01 2.211103215813636780e-02
-1.194558851420879364e-02 3.715979456901550293e-01 -1.686496101319789886e-02
5.569128692150115967e-02 3.242417573928833008e-01 -3.867107676342129707e-03
5.754416063427925110e-02 5.576099753379821777e-01 2.382862381637096405e-03
-3.652415797114372253e-02 4.872032701969146729e-01 1.872334443032741547e-02
-9.175996482372283936e-02 5.368231534957885742e-01 -1.683905348181724548e-02
-2.812372706830501556e-02 5.204350948333740234e-01 -2.419860474765300751e-02
-9.666217118501663208e-02 4.943763017654418945e-01 -2.088058926165103912e-02
1.020717844367027283e-01 3.943401575088500977e-01 -1.623796671628952026e-02
-1.146290302276611328e-01 4.433933198451995850e-01 1.782054640352725983e-02
9.030368179082870483e-02 4.628297686576843262e-01 1.894747652113437653e-02
-1.048532128334045410e-01 4.132006764411926270e-01 2.026657201349735260e-02
1.161929592490196228e-01 3.996664583683013916e-01 -1.552611496299505234e-02
5.723194032907485962e-02 3.641067147254943848e-01 -1.443407684564590454e-02
1.523109376430511475e-01 5.062404870986938477e-01 3.133146790787577629e-03
3.402134403586387634e-02 4.578713774681091309e-01 2.209785580635070801e-02
-3.244254365563392639e-02 3.673803508281707764e-01 2.420457638800144196e-02
1.200449988245964050e-01 5.450004339218139648e-01 -4.236639477312564850e-03
8.086957037448883057e-02 4.457499086856842041e-01 2.100501954555511475e-02
-4.499892145395278931e-02 3.962596952915191650e-01 -1.945909298956394196e-02
5.996613577008247375e-02 3.750718533992767334e-01 2.344485372304916382e-02
3.930897638201713562e-02 4.722543358802795410e-01 2.058100700378417969e-02
1.277962327003479004e-01 4.418796002864837646e-01 -1.834411546587944031e-02
-1.958595961332321167e-02 4.607315957546234131e-01 2.204761281609535217e-02
-6.799411028623580933e-02 5.295557975769042969e-01 -2.095533348619937897e-02
-2.457729168236255646e-02 5.089279413223266602e-01 1.582065038383007050e-02
-7.284835726022720337e-02 4.084045290946960449e-01 -1.935901306569576263e-02
9.840699844062328339e-03 4.082773029804229736e-01 -2.184763550758361816e-02
8.582886308431625366e-03 3.243625760078430176e-01 -6.007849238812923431e-03
1.386088132858276367e-01 5.315734148025512695e-01 -9.229934774339199066e-03
1.637995541095733643e-01 4.288195967674255371e-01 1.114750932902097702e-02
4.423377290368080139e-02 3.416432440280914307e-01 -1.009663287550210953e-02
8.628862351179122925e-02 5.280625820159912109e-01 9.018794633448123932e-03
-2.037005126476287842e-02 5.573354363441467285e-01 4.069096408784389496e-03
3.501370176672935486e-02 4.826466441154479980e-01 1.951677165925502777e-02
7.338457554578781128e-02 4.178824424743652344e-01 -2.104587107896804810e-02
-6.498288363218307495e-02 4.576342105865478516e-01 2.074010297656059265e-02
-1.613087505102157593e-01 4.459728300571441650e-01 -9.809024631977081299e-03
1.495694667100906372e-01 5.109449028968811035e-01 -1.262162066996097565e-02
1.269432455301284790e-01 4.265125691890716553e-01 1.779282465577125549e-02
2.455408498644828796e-02 5.478655695915222168e-01 7.441618014127016068e-03
1.066733896732330322e-01 5.400167703628540039e-01 -1.631526276469230652e-02
