3.187679946422576904e-01 -8.160678297281265259e-02 -6.520847231149673462e-02
8.622889220714569092e-02 -1.194916516542434692e-01 -2.763900905847549438e-02
1.263744384050369263e-01 -9.030258655548095703e-02 1.310750544071197510e-01
-4.588690400123596191e-02 -4.674618691205978394e-02 -4.553128778934478760e-02
-1.244105398654937744e-02 -5.327944457530975342e-02 6.192320585250854492e-02
5.220770090818405151e-02 -4.643523693084716797e-02 7.944342494010925293e-02
2.838218212127685547e-01 -4.405461996793746948e-02 5.116069316864013672e-02
-2.137328684329986572e-02 -1.065292209386825562e-01 4.794460162520408630e-02
1.297870278358459473e-02 -4.560537636280059814e-02 -1.164611577987670898e-01
-7.184191048145294189e-02 -5.798724293708801270e-02 -1.096336171030998230e-03
-4.890997707843780518e-02 -4.871920868754386902e-02 -5.873733013868331909e-02
1.691466867923736572e-01 -1.171011030673980713e-01 -3.476553410291671753e-02
2.439334690570831299e-01 -1.091062277555465698e-01 -3.560151532292366028e-02
5.124986171722412109e-02 -1.032696068286895752e-01 -1.075460836291313171e-01
-8.477763831615447998e-02 -8.748460561037063599e-02 -4.270371794700622559e-02
2.423802018165588379e-01 -9.076403081417083740e-02 1.110548004508018494e-01
-4.855722188949584961e-03 -8.830954134464263916e-02 9.744735062122344971e-02
1.342528313398361206e-02 -1.159152239561080933e-01 -1.123935170471668243e-02
1.713959872722625732e-01 -3.691020607948303223e-02 6.868228316307067871e-02
2.457910776138305664e-01 -9.089527279138565063e-02 -1.063041388988494873e-01
2.024749219417572021e-01 -1.157626807689666748e-01 -1.969812810420989990e-02
2.996574640274047852e-01 -9.970226138830184937e-02 -1.370825804769992828e-02
-1.519356667995452881e-02 -1.108617931604385376e-01 -3.271749615669250488e-02
1.879877597093582153e-01 -1.167529523372650146e-01 -2.361211925745010376e-02
2.462774217128753662e-01 -5.540539324283599854e-02 -1.285234689712524414e-01
2.090188562870025635e-01 -3.291593864560127258e-02 4.294003918766975403e-02
1.748299151659011841e-01 -2.539810538291931152e-02 -1.842916011810302734e-02
2.805478870868682861e-01 -7.784998416900634766e-02 -1.063935458660125732e-01
1.945140957832336426e-01 -9.746296703815460205e-02 -1.133524626493453979e-01
6.135702133178710938e-02 -5.599258095026016235e-02 -1.504471004009246826e-01
5.725660175085067749e-02 -2.901635318994522095e-02 -4.565372690558433533e-02
3.286214917898178101e-02 -5.007807165384292603e-02 -1.352015435695648193e-01
1.734540909528732300e-01 -1.093207001686096191e-01 -8.124312758445739746e-02
1.848103553056716919e-01 -4.439678043127059937e-02 9.148304164409637451e-02
-1.343719661235809326e-02 -8.187026530504226685e-02 -1.260368227958679199e-01
3.458712697029113770e-01 -6.823383271694183350e-02 -3.556176647543907166e-02
1.320537626743316650e-01 -2.603386342525482178e-02 -2.265287563204765320e-03
1.909799873828887939e-01 -1.080398857593536377e-01 -8.003476262092590332e-02
9.632681310176849365e-02 -9.138038754463195801e-02 -1.393827646970748901e-01
-3.904029726982116699e-03 -6.114213913679122925e-02 -1.328485757112503052e-01
2.402625977993011475e-01 -6.332302093505859375e-02 1.131148710846900940e-01
1.778660267591476440e-01 -3.728957101702690125e-02 -1.203915253281593323e-01
1.626392602920532227e-01 -1.193587929010391235e-01 2.779873833060264587e-02
1.236143112182617188e-01 -4.906269907951354980e-02 1.030239537358283997e-01
-1.753725111484527588e-02 -1.082684695720672607e-01 -5.159810185432434082e-02
-2.420216798782348633e-03 -1.075565889477729797e-01 -6.932142376899719238e-02
2.037845402956008911e-01 -4.147227853536605835e-02 7.986770570278167725e-02
-8.853106200695037842e-02 -7.076120376586914062e-02 1.429295167326927185e-03
2.622199952602386475e-01 -3.217738494277000427e-02 -2.846771478652954102e-02
-2.184708416461944580e-02 -4.157558456063270569e-02 -6.576193962246179581e-03
2.360583096742630005e-01 -4.108287766575813293e-02 6.879558414220809937e-02
1.547218561172485352e-01 -1.158019378781318665e-01 -5.224882438778877258e-02
-8.360099792480468750e-02 -6.244941428303718567e-02 -2.784594893455505371e-02
3.532440960407257080e-02 -1.154683679342269897e-01 4.782402887940406799e-02
3.703924268484115601e-02 -1.159364134073257446e-01 -4.152842238545417786e-02
1.380187869071960449e-01 -6.344988197088241577e-02 -1.586980223655700684e-01
1.407215595245361328e-01 -4.880087822675704956e-02 1.036725342273712158e-01
1.458986401557922363e-01 -1.120314672589302063e-01 -7.657028734683990479e-02
1.570963859558105469e-01 -2.930878102779388428e-02 -9.074013680219650269e-02
1.519555300474166870e-01 -9.782353043556213379e-02 -1.229990646243095398e-01
7.756122946739196777e-02 -4.009062424302101135e-02 6.835038214921951294e-02
4.318726062774658203e-02 -1.186088770627975464e-01 -9.279238991439342499e-03
-1.386435329914093018e-02 -4.913901165127754211e-02 4.782860353589057922e-02
1.628518104553222656e-01 -1.191398426890373230e-01 -1.269378047436475754e-02
1.996699273586273193e-01 -1.009450852870941162e-01 -1.019732952117919922e-01
1.719222962856292725e-02 -4.133175313472747803e-02 -1.053761243820190430e-01
7.202027738094329834e-02 -1.092002391815185547e-01 9.247427433729171753e-02
9.244074672460556030e-02 -7.955474406480789185e-02 -1.537935584783554077e-01
9.214793890714645386e-02 -2.639037370681762695e-02 -2.918610349297523499e-02
1.195225492119789124e-01 -1.174687221646308899e-01 -4.834228381514549255e-02
9.406104683876037598e-02 -1.205872371792793274e-01 -1.126617193222045898e-02
1.209118664264678955e-01 -2.565063908696174622e-02 -1.363040599972009659e-02
2.160930335521697998e-01 -5.474030971527099609e-02 1.082735806703567505e-01
2.194993197917938232e-02 -5.943412706255912781e-02 9.518805146217346191e-02
2.295721322298049927e-02 -1.155666261911392212e-01 3.534618392586708069e-02
1.873193979263305664e-01 -1.092661321163177490e-01 8.943926542997360229e-02
-8.404950797557830811e-02 -8.451572805643081665e-02 1.810947433114051819e-02
3.109228610992431641e-01 -9.690622240304946899e-02 1.942103728652000427e-02
2.278968989849090576e-01 -4.710274934768676758e-02 -1.266200989484786987e-01
2.672228217124938965e-01 -4.205624386668205261e-02 -9.351809322834014893e-02
3.566446900367736816e-02 -6.398417055606842041e-02 -1.491958796977996826e-01
2.486240416765213013e-01 -1.065183132886886597e-01 -4.860432073473930359e-02
1.296317130327224731e-01 -2.510645613074302673e-02 -2.426224201917648315e-02
1.964025199413299561e-02 -3.459236025810241699e-02 -6.727512180805206299e-02
4.359687864780426025e-02 -1.113471612334251404e-01 7.513827085494995117e-02
2.410753369331359863e-01 -1.039653122425079346e-01 -6.862750649452209473e-02
1.412341147661209106e-01 -2.831172943115234375e-02 2.286704629659652710e-02
1.100717484951019287e-01 -7.447397708892822266e-02 1.325517892837524414e-01
2.252162843942642212e-01 -3.133954107761383057e-02 2.506088837981224060e-02
-5.318611860275268555e-02 -5.395588651299476624e-02 1.951016485691070557e-02
2.005659043788909912e-01 -3.423800319433212280e-02 5.241613090038299561e-02
9.779307246208190918e-02 -3.140919655561447144e-02 3.440157324075698853e-02
-7.505016028881072998e-02 -6.642795354127883911e-02 2.418144792318344116e-02
1.633084863424301147e-01 -6.400717049837112427e-02 -1.560880690813064575e-01
2.956422567367553711e-01 -3.857908770442008972e-02 -3.302706405520439148e-03
2.744479179382324219e-01 -1.064319387078285217e-01 1.194179058074951172e-03
1.693505942821502686e-01 -2.847384288907051086e-02 2.357119321823120117e-02
2.707542479038238525e-01 -8.029972761869430542e-02 1.062214747071266174e-01
-2.217243611812591553e-02 -1.043954491615295410e-01 -6.854643672704696655e-02
1.573967188596725464e-01 -7.299045473337173462e-02 1.336402446031570435e-01
1.578806489706039429e-01 -2.947282791137695312e-02 3.188278898596763611e-02
1.265555322170257568e-01 -1.015320941805839539e-01 1.172343567013740540e-01
2.430886626243591309e-01 -1.034537255764007568e-01 8.321285247802734375e-02
2.256544232368469238e-01 -3.419702500104904175e-02 -9.193263202905654907e-02
1.181907057762145996e-01 -1.061510220170021057e-01 1.072405353188514709e-01
2.390017658472061157e-01 -3.060305118560791016e-02 6.259190849959850311e-03
2.672070860862731934e-01 -1.073642000555992126e-01 -1.052340026944875717e-02
7.914583384990692139e-02 -3.625586256384849548e-02 5.332066863775253296e-02
3.245843946933746338e-01 -5.626738443970680237e-02 4.712124168872833252e-02
1.789442300796508789e-01 -1.172580197453498840e-01 4.535775259137153625e-02
1.378398537635803223e-01 -1.191655620932579041e-01 4.507417231798171997e-02
2.205292880535125732e-01 -2.821315452456474304e-02 -5.150248762220144272e-03
1.351168602705001831e-01 -1.142274141311645508e-01 -6.729335337877273560e-02
7.519822567701339722e-02 -3.383297100663185120e-02 3.944294527173042297e-02
3.484836816787719727e-01 -6.323821097612380981e-02 -2.143799513578414917e-02
1.286232769489288330e-01 -5.479385703802108765e-02 -1.550213396549224854e-01
1.363921910524368286e-01 -3.785455971956253052e-02 7.220200449228286743e-02
3.093380928039550781e-01 -9.226518869400024414e-02 -4.501290246844291687e-02
2.203184366226196289e-01 -1.135524660348892212e-01 -2.351650036871433258e-02
2.345817834138870239e-01 -2.915614843368530273e-02 -1.055513322353363037e-02
3.267832696437835693e-01 -7.137732207775115967e-02 6.340929865837097168e-02
1.425712704658508301e-01 -1.203081160783767700e-01 -5.826497450470924377e-03
3.431510329246520996e-01 -8.181714266538619995e-02 8.585547097027301788e-03
2.407901436090469360e-01 -3.029704093933105469e-02 -5.018101632595062256e-02
2.250799089670181274e-01 -1.001436710357666016e-01 1.020853668451309204e-01
9.698709845542907715e-02 -1.068754419684410095e-01 -1.016367748379707336e-01
1.040225923061370850e-01 -2.599725127220153809e-02 -2.042459882795810699e-02
2.422735095024108887e-01 -1.118324995040893555e-01 -4.309933632612228394e-03
2.017055153846740723e-01 -1.110486388206481934e-01 -5.961760878562927246e-02
-5.739752948284149170e-02 -9.212496876716613770e-02 -7.739432156085968018e-02
1.761035025119781494e-01 -8.745310455560684204e-02 -1.379610598087310791e-01
3.057259321212768555e-01 -8.854661136865615845e-02 -6.381758302450180054e-02
1.053924858570098877e-02 -3.627835586667060852e-02 1.551712863147258759e-03
2.534577846527099609e-01 -6.520199030637741089e-02 1.101834923028945923e-01
-3.495490550994873047e-02 -7.955568283796310425e-02 8.045789599418640137e-02
9.452190250158309937e-02 -1.207265257835388184e-01 2.160774916410446167e-02
1.918336451053619385e-01 -9.055903553962707520e-02 1.262110769748687744e-01
2.907360792160034180e-01 -1.028732955455780029e-01 6.504097022116184235e-03
3.026146888732910156e-01 -5.370574444532394409e-02 6.492039561271667480e-02
-8.014109730720520020e-02 -9.279232472181320190e-02 -2.796098962426185608e-02
1.367994248867034912e-01 -1.205457448959350586e-01 2.186976000666618347e-02
1.994882225990295410e-01 -2.626725286245346069e-02 -2.240474149584770203e-02
-4.844669997692108154e-02 -1.010823100805282593e-01 3.670603409409523010e-02
3.092594444751739502e-01 -4.245505109429359436e-02 -3.764103353023529053e-02
2.792506217956542969e-01 -4.940995573997497559e-02 -1.017542630434036255e-01
1.774864345788955688e-01 -1.187515258789062500e-01 9.806202724575996399e-04
2.065601646900177002e-01 -4.682536423206329346e-02 9.417638182640075684e-02
-6.105938553810119629e-02 -1.004241704940795898e-01 1.256431918591260910e-02
6.553746014833450317e-02 -1.142505928874015808e-01 7.084716856479644775e-02
1.258644461631774902e-01 -1.024487987160682678e-01 -1.144464313983917236e-01
2.997530996799468994e-02 -1.119718924164772034e-01 6.525931507349014282e-02
1.050175726413726807e-01 -3.824916481971740723e-02 6.908664852380752563e-02
2.966014742851257324e-01 -6.217589229345321655e-02 8.433185517787933350e-02
2.393852770328521729e-01 -4.507490992546081543e-02 -1.179054304957389832e-01
2.752997279167175293e-01 -3.466236963868141174e-02 -3.950340673327445984e-02
1.181736886501312256e-01 -5.804389342665672302e-02 1.186976358294487000e-01
2.258025109767913818e-01 -1.130153983831405640e-01 4.238752648234367371e-02
8.897388726472854614e-02 -3.833351284265518188e-02 -1.242998242378234863e-01
2.888118624687194824e-01 -8.547110855579376221e-02 -8.837264776229858398e-02
-9.372512996196746826e-02 -7.817308604717254639e-02 -2.653912827372550964e-02
3.521317243576049805e-02 -5.441240221261978149e-02 9.178548306226730347e-02
6.400082260370254517e-02 -2.832422032952308655e-02 -3.014314919710159302e-02
1.444622278213500977e-01 -2.492569014430046082e-02 -4.006053134799003601e-02
1.602270156145095825e-01 -2.502565458416938782e-02 -4.068779572844505310e-02
1.318551599979400635e-01 -2.500133961439132690e-02 -3.760535642504692078e-02
2.241487354040145874e-01 -3.091034293174743652e-02 -7.409860193729400635e-02
1.775957196950912476e-01 -1.034213081002235413e-01 1.090524345636367798e-01
3.111526370048522949e-01 -9.674316644668579102e-02 -6.201349198818206787e-03
2.562002241611480713e-01 -4.179108887910842896e-02 -1.006535217165946960e-01
6.978151202201843262e-02 -5.401605367660522461e-02 1.029968038201332092e-01
1.350697278976440430e-01 -1.207758188247680664e-01 8.379056118428707123e-03
7.644352316856384277e-02 -1.202916651964187622e-01 2.026171982288360596e-02
1.279350370168685913e-01 -7.762025296688079834e-02 1.347131282091140747e-01
-1.553714275360107422e-03 -4.136177152395248413e-02 2.447178959846496582e-02
-3.660209476947784424e-02 -6.868156790733337402e-02 7.243876159191131592e-02
3.307371437549591064e-01 -8.826869726181030273e-02 2.524047717452049255e-02
6.937400996685028076e-02 -1.202263236045837402e-01 -5.934052169322967529e-04
-9.015858173370361328e-03 -5.789692699909210205e-02 7.528178393840789795e-02
4.935337603092193604e-02 -1.182358264923095703e-01 -2.483452111482620239e-02
2.931716144084930420e-01 -3.953186050057411194e-02 1.472916733473539352e-02
4.199486225843429565e-02 -3.046575933694839478e-02 -4.167241603136062622e-02
8.045481145381927490e-02 -5.248755216598510742e-02 -1.501988470554351807e-01
1.408258229494094849e-01 -1.017652228474617004e-01 -1.146860048174858093e-01
8.834403753280639648e-02 -2.910206094384193420e-02 1.273438613861799240e-02
1.843614578247070312e-01 -3.190235048532485962e-02 4.387407377362251282e-02
2.328656911849975586e-01 -3.025444224476814270e-02 -6.051104143261909485e-02
3.367531001567840576e-01 -5.309592559933662415e-02 -2.849322184920310974e-02
1.529052704572677612e-01 -3.638069704174995422e-02 6.727252900600433350e-02
2.340337932109832764e-01 -1.132766231894493103e-01 1.106084417551755905e-02
1.598026901483535767e-01 -1.088964641094207764e-01 9.732169657945632935e-02
1.536103188991546631e-01 -2.567604184150695801e-02 -5.821121111512184143e-02
2.972286641597747803e-01 -9.569841623306274414e-02 -4.769419878721237183e-02
8.402903378009796143e-02 -2.686354517936706543e-02 -4.005203023552894592e-02
4.507422447204589844e-03 -3.628163412213325500e-02 -5.890716239809989929e-02
2.277197539806365967e-01 -1.062098294496536255e-01 -6.799361109733581543e-02
3.331619799137115479e-01 -8.247926086187362671e-02 -3.907766938209533691e-02
-6.149321794509887695e-03 -1.120278909802436829e-01 3.093071281909942627e-02
1.314923614263534546e-01 -1.066716760396957397e-01 1.061000823974609375e-01
2.049191296100616455e-01 -1.166120097041130066e-01 1.296934951096773148e-02
-4.920791089534759521e-02 -1.033961772918701172e-01 -3.730806708335876465e-02
2.035274207592010498e-01 -1.135870963335037231e-01 5.982057005167007446e-02
1.286615878343582153e-01 -1.098507568240165710e-01 -8.914566785097122192e-02
1.401990205049514771e-01 -1.182036548852920532e-01 -3.761589154601097107e-02
1.764185130596160889e-01 -1.126322448253631592e-01 -6.365878134965896606e-02
3.710007667541503906e-02 -1.002219468355178833e-01 1.027017682790756226e-01
5.906970798969268799e-02 -3.722790628671646118e-02 4.902832582592964172e-02
-7.036668062210083008e-02 -5.563163012266159058e-02 -4.337776079773902893e-02
2.418797612190246582e-01 -3.699856624007225037e-02 -9.397513419389724731e-02
-3.061908483505249023e-02 -4.253683239221572876e-02 -4.210385680198669434e-02
-5.280587077140808105e-02 -5.048001185059547424e-02 -5.010347813367843628e-04
2.989924252033233643e-01 -5.054983496665954590e-02 -8.680690079927444458e-02
5.596086382865905762e-02 -3.376680985093116760e-02 2.826764807105064392e-02
2.014423012733459473e-01 -1.043902337551116943e-01 -8.990646898746490479e-02
-4.981893301010131836e-02 -7.299386709928512573e-02 -1.077749729156494141e-01
-3.954479098320007324e-02 -4.741805046796798706e-02 6.958008743822574615e-03
1.447658687829971313e-01 -1.063075810670852661e-01 -1.000867262482643127e-01
7.633538544178009033e-02 -7.140558212995529175e-02 1.257460117340087891e-01
1.906828880310058594e-01 -8.887766301631927490e-02 -1.321022957563400269e-01
-1.861248910427093506e-02 -4.117440804839134216e-02 -6.421238929033279419e-02
1.194015219807624817e-01 -1.148335486650466919e-01 -6.601346284151077271e-02
4.727800190448760986e-02 -4.074169322848320007e-02 -1.192779392004013062e-01
-6.526072323322296143e-02 -6.356398761272430420e-02 -8.587745577096939087e-02
3.056953549385070801e-01 -8.063414692878723145e-02 -8.187496662139892578e-02
6.116676330566406250e-02 -3.897153213620185852e-02 -1.189056634902954102e-01
1.695289909839630127e-01 -3.245924413204193115e-02 -1.048447713255882263e-01
2.561558485031127930e-01 -9.835553169250488281e-02 9.004426747560501099e-02
3.490847945213317871e-01 -7.101543247699737549e-02 1.814851537346839905e-02
2.427734732627868652e-01 -7.617868483066558838e-02 1.190079823136329651e-01
-7.886961102485656738e-02 -7.068728655576705933e-02 -7.308781147003173828e-02
3.542540222406387329e-02 -1.181467548012733459e-01 1.032229792326688766e-02
1.455060392618179321e-02 -4.124562814831733704e-02 3.923412784934043884e-02
6.281569600105285645e-03 -1.127468720078468323e-01 4.143945500254631042e-02
-5.294720828533172607e-02 -9.541203081607818604e-02 4.939062520861625671e-02
1.566128581762313843e-01 -1.026641800999641418e-01 -1.094416677951812744e-01
1.468505412340164185e-01 -3.741193562746047974e-02 -1.250324845314025879e-01
-2.297714352607727051e-02 -4.788564145565032959e-02 -9.571746736764907837e-02
3.367817401885986328e-01 -8.332550525665283203e-02 -2.616005763411521912e-02
1.953314095735549927e-01 -5.948343127965927124e-02 -1.487040519714355469e-01
2.855550646781921387e-01 -4.509087651968002319e-02 -8.673488348722457886e-02
3.268585354089736938e-02 -1.175516992807388306e-01 -1.623116247355937958e-02
2.847610116004943848e-01 -4.836282506585121155e-02 6.511151790618896484e-02
7.147623598575592041e-02 -4.764533787965774536e-02 8.942139893770217896e-02
2.451180666685104370e-02 -1.172226816415786743e-01 -3.085485659539699554e-03
-7.447266578674316406e-02 -5.739328265190124512e-02 -1.941050402820110321e-02
2.091451883316040039e-01 -1.159907281398773193e-01 -2.369895577430725098e-03
1.681300252676010132e-02 -3.359480947256088257e-02 -3.314141184091567993e-02
1.125250533223152161e-01 -4.221618548035621643e-02 8.387467265129089355e-02
2.104676067829132080e-01 -1.083709299564361572e-01 -6.864194571971893311e-02
5.187032371759414673e-02 -8.876045048236846924e-02 -1.387715190649032593e-01
9.893930703401565552e-02 -3.375331312417984009e-02 -1.099635213613510132e-01
7.865142822265625000e-02 -9.976571053266525269e-02 1.151222959160804749e-01
2.978310585021972656e-01 -3.872020542621612549e-02 -2.441167272627353668e-02
9.268933534622192383e-02 -2.726976573467254639e-02 -5.614068359136581421e-03
2.135441601276397705e-01 -1.075043156743049622e-01 8.539349585771560669e-02
-5.182331800460815430e-02 -1.043389290571212769e-01 -5.374412983655929565e-03
2.475528717041015625e-01 -5.548296123743057251e-02 1.001827120780944824e-01
1.704370975494384766e-01 -9.846644103527069092e-02 -1.177178695797920227e-01
1.043239533901214600e-01 -1.201653331518173218e-01 3.532832488417625427e-02
9.136462956666946411e-02 -3.743850439786911011e-02 6.247604638338088989e-02
2.358690649271011353e-01 -1.124251484870910645e-01 3.205901011824607849e-02
2.634074091911315918e-01 -4.344302415847778320e-02 6.348963081836700439e-02
6.813324987888336182e-02 -2.854239568114280701e-02 -1.259358692914247513e-02
2.207186520099639893e-01 -4.512516036629676819e-02 8.640776574611663818e-02
8.495780825614929199e-02 -3.452613949775695801e-02 -1.099264174699783325e-01
1.045092865824699402e-01 -1.048513501882553101e-01 1.093299537897109985e-01
2.371451258659362793e-02 -1.055964529514312744e-01 -9.159336984157562256e-02
1.936538517475128174e-01 -1.130405664443969727e-01 6.941523402929306030e-02
2.048847675323486328e-01 -3.501999378204345703e-02 -1.050718277692794800e-01
1.799819469451904297e-01 -1.183798387646675110e-01 2.640002593398094177e-02
3.391500711441040039e-01 -5.793244019150733948e-02 -4.169471934437751770e-02
3.372936248779296875e-01 -5.770610272884368896e-02 2.907704934477806091e-02
2.523277699947357178e-01 -3.146429359912872314e-02 -2.457865513861179352e-03
1.004441827535629272e-02 -8.721210062503814697e-02 -1.297048777341842651e-01
3.450993299484252930e-01 -5.852437391877174377e-02 5.708453245460987091e-03
1.891262829303741455e-01 -3.160067275166511536e-02 -9.586247056722640991e-02
1.945796906948089600e-01 -4.226753860712051392e-02 -1.288457065820693970e-01
2.070883661508560181e-02 -9.800709784030914307e-02 -1.131467074155807495e-01
1.942042559385299683e-01 -1.168242543935775757e-01 3.564494103193283081e-02
3.105095624923706055e-01 -4.241277649998664856e-02 -8.167568594217300415e-04
1.229489594697952271e-02 -8.172547817230224609e-02 1.081833317875862122e-01
1.547164469957351685e-02 -1.158218234777450562e-01 2.042805776000022888e-02
2.753919363021850586e-01 -6.845716387033462524e-02 1.026806458830833435e-01
6.505495309829711914e-02 -8.094501495361328125e-02 1.260379850864410400e-01
2.631940543651580811e-01 -9.147598594427108765e-02 -9.435983747243881226e-02
1.868727654218673706e-01 -6.119300425052642822e-02 1.223132237792015076e-01
1.407062262296676636e-01 -2.842526510357856750e-02 -8.613128960132598877e-02
-3.163477778434753418e-02 -1.078595742583274841e-01 2.310896664857864380e-02
1.766577512025833130e-01 -2.720800787210464478e-02 1.056545693427324295e-02
2.294915467500686646e-01 -6.675024330615997314e-02 1.193445399403572083e-01
1.431494206190109253e-01 -1.131414696574211121e-01 8.378440886735916138e-02
8.281157910823822021e-02 -3.130703791975975037e-02 -9.313853085041046143e-02
2.379074692726135254e-03 -1.011368781328201294e-01 -9.697974473237991333e-02
1.745656430721282959e-01 -6.903225183486938477e-02 1.305675953626632690e-01
1.663831025362014771e-01 -1.166204661130905151e-01 5.840597301721572876e-02
-3.022241592407226562e-02 -1.015794798731803894e-01 5.790910869836807251e-02
1.686386168003082275e-01 -2.787569910287857056e-02 -7.869222760200500488e-02
2.714988589286804199e-01 -4.986248910427093506e-02 7.771557569503784180e-02
1.734755188226699829e-02 -6.335047632455825806e-02 -1.431716531515121460e-01
-7.127691805362701416e-02 -5.914492905139923096e-02 -6.408447772264480591e-02
3.309313654899597168e-01 -5.579461902379989624e-02 -5.485318228602409363e-02
7.827498018741607666e-03 -9.496181458234786987e-02 -1.153033822774887085e-01
9.481466561555862427e-02 -2.732197567820549011e-02 -6.494175642728805542e-02
2.260544896125793457e-01 -1.137643679976463318e-01 -1.002314127981662750e-02
5.526786297559738159e-02 -1.192199289798736572e-01 -1.298612914979457855e-02
4.709722846746444702e-02 -3.064433857798576355e-02 -6.006874144077301025e-02
1.262051314115524292e-01 -3.050418943166732788e-02 -9.831870347261428833e-02
3.658980131149291992e-03 -3.575390577316284180e-02 -2.480173483490943909e-02
1.069897562265396118e-01 -2.842943370342254639e-02 1.574093475937843323e-02
2.055927366018295288e-01 -2.926922217011451721e-02 1.916509866714477539e-02
-4.898802936077117920e-02 -1.035474762320518494e-01 2.072731032967567444e-02
4.114989936351776123e-02 -1.067933738231658936e-01 8.954722434282302856e-02
1.459541618824005127e-01 -1.157615929841995239e-01 7.013321667909622192e-02
1.610827147960662842e-01 -3.799993544816970825e-02 -1.252623349428176880e-01
-2.144904434680938721e-02 -1.110693216323852539e-01 3.101398237049579620e-03
2.487568557262420654e-02 -8.616613596677780151e-02 -1.359389275312423706e-01
1.327987462282180786e-01 -2.681232988834381104e-02 -7.235719263553619385e-02
1.865237504243850708e-01 -5.330375581979751587e-02 1.108536124229431152e-01
1.913437545299530029e-01 -1.042672693729400635e-01 1.037534102797508240e-01
5.993537604808807373e-02 -9.571690857410430908e-02 -1.279645413160324097e-01
2.822758257389068604e-01 -3.699593991041183472e-02 -5.166074261069297791e-02
1.434943228960037231e-01 -2.636065334081649780e-02 4.085495136678218842e-03
1.541811376810073853e-01 -4.771115630865097046e-02 -1.456068903207778931e-01
4.773291945457458496e-02 -1.133738905191421509e-01 -6.520650535821914673e-02
2.846270203590393066e-01 -1.015536934137344360e-01 -3.288211673498153687e-02
2.889778017997741699e-01 -9.893714636564254761e-02 5.740638822317123413e-02
2.221915125846862793e-01 -3.812917321920394897e-02 6.293843686580657959e-02
-4.133155941963195801e-02 -5.210092663764953613e-02 2.927917614579200745e-02
1.544913351535797119e-01 -7.406678795814514160e-02 -9.252178668975830078e-02
1.707442402839660645e-01 -7.451638579368591309e-02 -5.240563303232192993e-03
3.332811594009399414e-02 -5.465230345726013184e-02 -1.656297445297241211e-01
1.424651294946670532e-01 -4.837127774953842163e-02 1.653965562582015991e-03
1.856006085872650146e-01 -5.683118849992752075e-02 -1.591185927391052246e-01
8.581742644309997559e-02 -7.777215540409088135e-02 2.942605316638946533e-02
1.962069720029830933e-01 -6.782852858304977417e-02 -1.247154176235198975e-01
1.077097281813621521e-01 -7.686844468116760254e-02 1.683352142572402954e-01
3.086775541305541992e-02 -7.602794468402862549e-02 7.964864373207092285e-03
4.024244472384452820e-02 -7.630195468664169312e-02 -1.021606102585792542e-02
4.483673721551895142e-02 -7.338939607143402100e-02 -1.316593140363693237e-01
1.741215884685516357e-01 -5.049099773168563843e-02 -2.110696956515312195e-02
-2.419785410165786743e-02 -7.013364881277084351e-02 2.136499434709548950e-02
1.213260367512702942e-01 -5.076596513390541077e-02 2.522473931312561035e-01
1.099193096160888672e-02 -6.866983324289321899e-02 3.005479872226715088e-01
1.234109252691268921e-01 -7.544075697660446167e-02 2.147481739521026611e-01
9.279296547174453735e-02 -7.683308422565460205e-02 -5.276312306523323059e-02
1.149552837014198303e-01 -5.433464422821998596e-02 3.256806433200836182e-01
1.705694794654846191e-01 -5.255694314837455750e-02 2.157088965177536011e-01
1.964069604873657227e-01 -6.499596685171127319e-02 -1.532271206378936768e-01
3.835427761077880859e-02 -5.624465644359588623e-02 3.301043808460235596e-01
6.398811191320419312e-02 -7.680469006299972534e-02 1.706020534038543701e-01
9.289385378360748291e-02 -7.785402238368988037e-02 5.325236916542053223e-02
6.113194674253463745e-02 -4.917838424444198608e-02 -6.731009483337402344e-02
1.332414895296096802e-01 -5.929347127676010132e-02 3.572919666767120361e-01
1.544589400291442871e-01 -7.496117800474166870e-02 -5.448504909873008728e-02
1.044796109199523926e-01 -4.921855404973030090e-02 -9.911987185478210449e-02
1.349462270736694336e-01 -7.341825962066650391e-02 -1.439659744501113892e-01
1.807538419961929321e-01 -5.456608533859252930e-02 2.327931821346282959e-01
8.559671044349670410e-02 -7.597472518682479858e-02 -9.093274176120758057e-02
1.889917254447937012e-01 -5.145415291190147400e-02 4.623645916581153870e-02
1.470466554164886475e-01 -7.625560462474822998e-02 1.350770518183708191e-02
1.527477800846099854e-01 -4.966621473431587219e-02 1.607366949319839478e-01
3.351699560880661011e-02 -5.033950507640838623e-02 1.904401332139968872e-01
1.983922421932220459e-01 -6.832730770111083984e-02 2.044425457715988159e-01
-1.454836130142211914e-02 -5.500495806336402893e-02 1.767032593488693237e-01
9.237784892320632935e-02 -4.799413308501243591e-02 -3.799283877015113831e-02
1.404340863227844238e-01 -7.221894711256027222e-02 -1.643900871276855469e-01
2.759411931037902832e-02 -7.243996113538742065e-02 -1.243596374988555908e-01
1.472927778959274292e-01 -7.116393744945526123e-02 2.866424024105072021e-01
3.237387910485267639e-02 -5.908333882689476013e-02 3.480935990810394287e-01
1.743993461132049561e-01 -5.031769722700119019e-02 9.955110400915145874e-02
2.250775843858718872e-01 -6.547948718070983887e-02 3.795251622796058655e-02
1.308084726333618164e-01 -5.175544321537017822e-02 -1.589402109384536743e-01
1.138239428400993347e-01 -4.750460386276245117e-02 1.802093908190727234e-02
7.644758373498916626e-02 -7.253057509660720825e-02 3.092863559722900391e-01
9.672325104475021362e-02 -7.612910866737365723e-02 2.124542444944381714e-01
1.746111810207366943e-01 -7.140935957431793213e-02 -1.200035959482192993e-01
1.954955607652664185e-01 -7.197839766740798950e-02 3.822822123765945435e-03
1.818405091762542725e-01 -5.335716158151626587e-02 2.028101384639739990e-01
4.658611491322517395e-02 -7.601772993803024292e-02 -4.536524042487144470e-02
9.938524663448333740e-02 -5.599984526634216309e-02 -2.327734827995300293e-01
2.164401859045028687e-02 -5.187288299202919006e-02 2.174264937639236450e-01
2.057428956031799316e-01 -5.449032783508300781e-02 1.195124611258506775e-01
-3.081879019737243652e-02 -5.690088123083114624e-02 9.680984914302825928e-02
5.260678753256797791e-02 -7.715579867362976074e-02 2.528086677193641663e-02
4.501847550272941589e-02 -6.129935756325721741e-02 -2.332648038864135742e-01
1.593344956636428833e-01 -7.442572712898254395e-02 1.734947115182876587e-01
6.117679178714752197e-03 -7.412228733301162720e-02 1.462960243225097656e-01
6.375960260629653931e-02 -5.089697241783142090e-02 -1.305776089429855347e-01
1.649663150310516357e-01 -5.488155409693717957e-02 2.745878398418426514e-01
1.622252166271209717e-02 -5.025945231318473816e-02 6.827180087566375732e-02
-2.895146608352661133e-03 -5.780557170510292053e-02 -1.272094100713729858e-01
1.604701280593872070e-01 -6.833946704864501953e-02 3.035010695457458496e-01
5.411475524306297302e-02 -4.860036820173263550e-02 1.469520181417465210e-01
8.854943513870239258e-02 -7.786546647548675537e-02 7.269160449504852295e-02
2.325171977281570435e-02 -5.130838975310325623e-02 2.016141712665557861e-01
2.900565415620803833e-02 -7.171180844306945801e-02 2.861791849136352539e-01
3.214564174413681030e-02 -7.578125596046447754e-02 1.615326404571533203e-01
2.272102385759353638e-01 -6.281233578920364380e-02 8.336549997329711914e-02
4.659543558955192566e-02 -5.382927134633064270e-02 -1.721195429563522339e-01
1.340918987989425659e-01 -4.921823740005493164e-02 -7.654878497123718262e-02
1.152921468019485474e-01 -5.480965971946716309e-02 -2.178389430046081543e-01
2.024811059236526489e-01 -5.388444662094116211e-02 -2.877644822001457214e-02
1.613947749137878418e-02 -5.040220916271209717e-02 3.096376545727252960e-02
1.489222943782806396e-01 -7.277314364910125732e-02 -1.407593339681625366e-01
3.803600743412971497e-02 -7.024212926626205444e-02 -1.794522106647491455e-01
1.904570162296295166e-01 -5.394656583666801453e-02 -9.429700672626495361e-02
3.979626670479774475e-02 -7.460232824087142944e-02 -8.938038349151611328e-02
-8.011505007743835449e-03 -7.279088348150253296e-02 1.309924721717834473e-01
1.029289960861206055e-01 -5.180216953158378601e-02 2.874263823032379150e-01
1.335820555686950684e-01 -4.845077544450759888e-02 1.410925239324569702e-01
9.935534745454788208e-02 -4.839186742901802063e-02 -6.287723779678344727e-02
4.814111813902854919e-02 -5.298450216650962830e-02 2.912100851535797119e-01
1.143589615821838379e-01 -4.814151301980018616e-02 -4.269935563206672668e-02
2.057968676090240479e-01 -6.426213681697845459e-02 2.197320312261581421e-01
1.547235846519470215e-01 -4.883611947298049927e-02 1.834598556160926819e-02
2.049206197261810303e-02 -7.554055750370025635e-02 2.615999057888984680e-02
1.781302392482757568e-01 -5.066537857055664062e-02 -6.784539669752120972e-03
1.903766691684722900e-01 -7.283366471529006958e-02 3.472162783145904541e-02
1.257585138082504272e-01 -7.728271186351776123e-02 4.754368215799331665e-02
1.597555875778198242e-01 -7.022237032651901245e-02 -1.734841018915176392e-01
1.658997684717178345e-02 -7.522471249103546143e-02 1.262733638286590576e-01
1.021799743175506592e-01 -4.769301414489746094e-02 -1.596220955252647400e-02
1.943910866975784302e-01 -5.238823592662811279e-02 -6.756249815225601196e-03
8.437611907720565796e-02 -7.705403864383697510e-02 -3.843450918793678284e-02
1.509916782379150391e-01 -6.004410609602928162e-02 -2.355984747409820557e-01
5.018335953354835510e-02 -5.424960330128669739e-02 3.152620792388916016e-01
-6.164692342281341553e-03 -7.208893448114395142e-02 -2.730826660990715027e-02
3.366488590836524963e-02 -7.642441987991333008e-02 1.074107661843299866e-01
1.967510282993316650e-01 -7.037481665611267090e-02 -6.745892763137817383e-02
1.968353986740112305e-03 -7.129553705453872681e-02 2.364690452814102173e-01
1.416516602039337158e-01 -5.165129154920578003e-02 -1.459237039089202881e-01
-1.355782151222229004e-03 -7.386767119169235229e-02 7.256636023521423340e-02
7.705315947532653809e-02 -7.504612207412719727e-02 -1.190922111272811890e-01
1.582274138927459717e-01 -4.894966632127761841e-02 5.158114805817604065e-02
1.294597983360290527e-01 -5.324191227555274963e-02 2.981325387954711914e-01
4.326580464839935303e-02 -7.529310137033462524e-02 -7.105931639671325684e-02
-2.144758403301239014e-02 -7.113789767026901245e-02 8.551821112632751465e-02
1.302944421768188477e-01 -4.784417152404785156e-02 1.832651719450950623e-02
3.515328839421272278e-02 -4.948625341057777405e-02 1.471603661775588989e-01
5.289720371365547180e-02 -7.480005919933319092e-02 -1.042864918708801270e-01
1.058256030082702637e-01 -4.883407056331634521e-02 -8.324724435806274414e-02
-1.796051859855651855e-03 -5.449003726243972778e-02 -7.365457713603973389e-02
5.765689164400100708e-02 -7.499571144580841064e-02 2.415854185819625854e-01
7.934830337762832642e-02 -4.979506134986877441e-02 2.341189980506896973e-01
2.099531292915344238e-01 -6.414236873388290405e-02 -1.124595850706100464e-01
1.100552529096603394e-01 -7.763405889272689819e-02 8.710768818855285645e-02
1.533871740102767944e-01 -7.221934944391250610e-02 2.558916211128234863e-01
1.862612366676330566e-01 -7.201673090457916260e-02 1.611130088567733765e-01
1.398242115974426270e-01 -4.815749078989028931e-02 8.633212745189666748e-02
1.040615737438201904e-01 -7.776932418346405029e-02 6.947683542966842651e-02
-2.621251344680786133e-02 -6.971322745084762573e-02 1.369239687919616699e-01
9.680777788162231445e-02 -7.353224605321884155e-02 -1.624268293380737305e-01
1.129338145256042480e-02 -7.444915175437927246e-02 -5.050342530012130737e-03
4.208415746688842773e-02 -7.231734693050384521e-02 -1.509593576192855835e-01
6.071813777089118958e-02 -4.883156716823577881e-02 1.762294322252273560e-01
9.626604616641998291e-02 -4.927490279078483582e-02 2.184657752513885498e-01
-1.124687492847442627e-02 -7.262030988931655884e-02 5.241325497627258301e-02
9.431767463684082031e-02 -5.606768280267715454e-02 3.532297611236572266e-01
9.517165273427963257e-02 -4.963524639606475830e-02 -1.136810630559921265e-01
1.783943474292755127e-01 -6.961294263601303101e-02 2.483634203672409058e-01
1.370806843042373657e-01 -4.903798177838325500e-02 1.685768216848373413e-01
3.959910571575164795e-02 -7.680188864469528198e-02 6.112359836697578430e-02
6.694277375936508179e-02 -7.666689902544021606e-02 -4.644781723618507385e-02
4.209514707326889038e-02 -5.177557468414306641e-02 2.562329471111297607e-01
9.062799066305160522e-02 -7.575334608554840088e-02 2.286004871129989624e-01
1.635534912347793579e-01 -5.079526454210281372e-02 -7.987283170223236084e-02
1.355058848857879639e-01 -7.275555282831192017e-02 2.734431624412536621e-01
1.205814927816390991e-01 -5.050693079829216003e-02 -1.348163932561874390e-01
1.008596122264862061e-01 -7.754369080066680908e-02 1.231741905212402344e-01
-2.348579466342926025e-03 -7.302503287792205811e-02 -6.544020026922225952e-03
1.086324080824851990e-01 -7.522290199995040894e-02 2.379030138254165649e-01
1.309145987033843994e-01 -5.448830872774124146e-02 -2.065733075141906738e-01
9.442457556724548340e-02 -5.432721227407455444e-02 3.325330018997192383e-01
1.182633936405181885e-01 -4.849025234580039978e-02 1.707323342561721802e-01
9.653976559638977051e-02 -4.798224568367004395e-02 1.551667451858520508e-01
1.617950499057769775e-01 -7.542315125465393066e-02 8.457907289266586304e-02
6.502279639244079590e-02 -7.600146532058715820e-02 -7.595708966255187988e-02
1.567212045192718506e-01 -7.097305357456207275e-02 2.739048898220062256e-01
9.477259963750839233e-02 -7.121060788631439209e-02 3.299717605113983154e-01
9.940917044878005981e-02 -5.339826643466949463e-02 -1.999515593051910400e-01
1.002022176980972290e-01 -7.732845842838287354e-02 -1.788638159632682800e-02
1.097302436828613281e-01 -7.279137521982192993e-02 2.974814176559448242e-01
1.910833269357681274e-01 -6.814226508140563965e-02 2.336735278367996216e-01
1.609756648540496826e-01 -5.062182247638702393e-02 1.796944737434387207e-01
8.108721673488616943e-02 -7.698858529329299927e-02 1.724682599306106567e-01
2.281652539968490601e-01 -6.154509633779525757e-02 5.873068422079086304e-02
1.045953854918479919e-01 -4.756772890686988831e-02 -2.428237348794937134e-03
5.112468078732490540e-02 -4.827631264925003052e-02 3.111037611961364746e-02
1.760009825229644775e-01 -5.218566209077835083e-02 -9.247152507305145264e-02
1.043266355991363525e-01 -7.774285227060317993e-02 4.367382824420928955e-02
1.891840398311614990e-01 -5.285299941897392273e-02 -6.536811590194702148e-02
2.253611236810684204e-01 -6.142254918813705444e-02 -2.424390241503715515e-02
1.105718016624450684e-01 -6.930523365736007690e-02 -2.268500924110412598e-01
1.613907217979431152e-01 -7.334218174219131470e-02 2.080335468053817749e-01
1.392697095870971680e-01 -4.828420281410217285e-02 1.075768992304801941e-01
6.065937504172325134e-02 -7.737942039966583252e-02 1.139208152890205383e-01
1.629300117492675781e-01 -7.374525070190429688e-02 1.895088702440261841e-01
1.097386330366134644e-01 -7.376752793788909912e-02 -1.544066816568374634e-01
-1.552509516477584839e-02 -7.150781154632568359e-02 1.466806977987289429e-01
2.296272665262222290e-02 -6.893428415060043335e-02 3.175344169139862061e-01
1.727621406316757202e-01 -7.165478914976119995e-02 2.228248268365859985e-01
1.690203249454498291e-01 -6.490576267242431641e-02 3.136169314384460449e-01
5.858013406395912170e-02 -5.077720060944557190e-02 2.494354993104934692e-01
1.177101582288742065e-01 -7.151947170495986938e-02 3.142338991165161133e-01
1.102003157138824463e-01 -7.642839848995208740e-02 1.893417537212371826e-01
6.036319583654403687e-02 -5.793445557355880737e-02 3.629634380340576172e-01
1.485474705696105957e-01 -5.392606556415557861e-02 2.870396673679351807e-01
4.415928572416305542e-02 -7.693531364202499390e-02 4.123065248131752014e-02
1.670061647891998291e-01 -7.498466223478317261e-02 1.431710273027420044e-02
2.709401398897171021e-02 -4.973670840263366699e-02 1.097005233168601990e-02
1.710977107286453247e-01 -5.394581332802772522e-02 2.456766515970230103e-01
6.623539328575134277e-02 -4.845019802451133728e-02 1.627081483602523804e-01
6.388932466506958008e-03 -5.480055138468742371e-02 -1.083620488643646240e-01
5.431741476058959961e-03 -7.018533349037170410e-02 -1.173612028360366821e-01
6.244209408760070801e-02 -7.706587761640548706e-02 1.502418071031570435e-01
8.459120243787765503e-02 -7.766330987215042114e-02 1.335763931274414062e-02
3.786656260490417480e-02 -5.262639001011848450e-02 2.706304788589477539e-01
1.399698555469512939e-01 -7.670855522155761719e-02 8.020532131195068359e-02
9.691037237644195557e-02 -7.458015531301498413e-02 -1.368079036474227905e-01
1.135420948266983032e-01 -4.739568009972572327e-02 5.948956683278083801e-02
-2.153590321540832520e-02 -5.483394488692283630e-02 7.579003274440765381e-02
-1.450717449188232422e-03 -5.202458426356315613e-02 4.783677682280540466e-02
1.648803800344467163e-02 -5.304431170225143433e-02 -9.752058982849121094e-02
-1.257072389125823975e-02 -5.852272361516952515e-02 -1.041147857904434204e-01
1.307500749826431274e-01 -7.380937039852142334e-02 2.551260888576507568e-01
1.453401148319244385e-01 -5.531437322497367859e-02 3.112190067768096924e-01
1.647934913635253906e-01 -5.193989351391792297e-02 -1.148868948221206665e-01
1.690893173217773438e-01 -7.266844809055328369e-02 -1.009859740734100342e-01
5.483838915824890137e-02 -4.827899485826492310e-02 1.194320917129516602e-01
9.915654361248016357e-02 -4.740092903375625610e-02 9.774371981620788574e-02
6.380468606948852539e-02 -7.196436077356338501e-02 3.149194419384002686e-01
3.479943796992301941e-02 -5.306281149387359619e-02 -1.396191120147705078e-01
1.759937703609466553e-01 -7.332247495651245117e-02 -5.214988812804222107e-02
1.381178200244903564e-01 -7.590568065643310547e-02 -5.005447939038276672e-02
-2.041146904230117798e-02 -7.015059888362884521e-02 1.691433340311050415e-01
2.442374080419540405e-02 -7.280658930540084839e-02 -1.091717332601547241e-01
1.379079967737197876e-01 -5.877107754349708557e-02 -2.411152124404907227e-01
8.800353109836578369e-02 -7.380278408527374268e-02 2.841406166553497314e-01
6.578004360198974609e-02 -5.189270898699760437e-02 2.835778594017028809e-01
1.616664826869964600e-01 -4.918939247727394104e-02 3.020972386002540588e-02
8.845447003841400146e-02 -4.780447483062744141e-02 -2.175826206803321838e-02
9.556168317794799805e-02 -4.756090044975280762e-02 1.197523325681686401e-01
2.935038506984710693e-02 -4.944708943367004395e-02 1.084944754838943481e-01
1.223864257335662842e-01 -4.830591753125190735e-02 1.541176438331604004e-01
1.202612370252609253e-01 -7.721153646707534790e-02 1.171940118074417114e-01
-1.790564507246017456e-02 -5.563272908329963684e-02 -2.579478546977043152e-02
-2.408187836408615112e-02 -5.821960046887397766e-02 2.044595032930374146e-01
1.216289699077606201e-01 -4.775802046060562134e-02 2.758167684078216553e-04
1.734202653169631958e-01 -6.578300148248672485e-02 -1.990907788276672363e-01
5.719739943742752075e-02 -4.839125275611877441e-02 -1.084337010979652405e-02
1.093634143471717834e-01 -5.593603849411010742e-02 3.476994633674621582e-01
1.424177736043930054e-01 -7.401119172573089600e-02 -1.178168505430221558e-01
8.037644624710083008e-02 -4.758679121732711792e-02 1.106381118297576904e-01
1.957809627056121826e-01 -5.269632861018180847e-02 1.071095839142799377e-01
-7.985971868038177490e-03 -5.275648087263107300e-02 6.965037435293197632e-02
3.339753299951553345e-02 -5.131863802671432495e-02 -9.186474978923797607e-02
8.523692190647125244e-02 -7.643499225378036499e-02 -7.153135538101196289e-02
7.740759104490280151e-02 -6.954770535230636597e-02 3.513694405555725098e-01
1.308974772691726685e-01 -5.032521113753318787e-02 -1.214399188756942749e-01
2.003035247325897217e-01 -5.303937569260597229e-02 7.377456873655319214e-03
1.540696918964385986e-01 -4.881167039275169373e-02 8.449960500001907349e-02
1.545164585113525391e-01 -5.192755535244941711e-02 2.364505380392074585e-01
6.995126605033874512e-02 -4.948381707072257996e-02 2.170808166265487671e-01
2.264661192893981934e-01 -6.029992923140525818e-02 2.958919852972030640e-03
1.033979803323745728e-01 -7.144327461719512939e-02 -2.004395425319671631e-01
7.271506637334823608e-02 -5.257871747016906738e-02 -1.762311011552810669e-01
1.320041865110397339e-01 -7.687334716320037842e-02 6.961472332477569580e-03
1.651906222105026245e-01 -5.338644608855247498e-02 -1.484177559614181519e-01
4.225213080644607544e-02 -4.860538244247436523e-02 8.199976384639739990e-02
4.923531413078308105e-02 -7.679783552885055542e-02 1.415868550539016724e-01
-3.675274550914764404e-03 -7.144928723573684692e-02 -6.011078879237174988e-02
-9.531192481517791748e-03 -7.235623151063919067e-02 7.707964628934860229e-03
1.988374888896942139e-01 -7.169950753450393677e-02 6.709427386522293091e-02
-2.844828367233276367e-02 -5.867891758680343628e-02 1.876618713140487671e-01
1.848132014274597168e-01 -7.061180472373962402e-02 -1.090522706508636475e-01
2.147661894559860229e-01 -6.809578090906143188e-02 1.103270128369331360e-01
2.144515216350555420e-01 -6.634600460529327393e-02 -6.721125543117523193e-02
4.186202213168144226e-02 -4.903348162770271301e-02 -7.008742541074752808e-03
9.970518946647644043e-02 -6.808418780565261841e-02 3.630792200565338135e-01
1.414032876491546631e-01 -4.991011694073677063e-02 1.987504512071609497e-01
3.480451926589012146e-02 -5.243390053510665894e-02 -1.256144195795059204e-01
8.727157115936279297e-02 -5.097305029630661011e-02 -1.496659368276596069e-01
-1.107864081859588623e-03 -5.318169295787811279e-02 -3.521737828850746155e-02
2.119429558515548706e-01 -6.799894571304321289e-02 -4.728109762072563171e-02
1.835267841815948486e-01 -5.098791047930717468e-02 7.870713621377944946e-02
5.208413675427436829e-02 -6.813626736402511597e-02 -2.183408141136169434e-01
1.223608776926994324e-01 -7.709424197673797607e-02 -3.233078867197036743e-03
-3.745521605014801025e-02 -6.380173563957214355e-02 -4.896599799394607544e-03
1.633039265871047974e-01 -7.538584619760513306e-02 4.403385519981384277e-02
4.376181960105895996e-02 -6.940972805023193359e-02 3.363074064254760742e-01
1.848831474781036377e-01 -7.342586666345596313e-02 7.450875639915466309e-02
1.154623925685882568e-01 -5.789425224065780640e-02 -2.466339766979217529e-01
7.786128669977188110e-02 -4.780396074056625366e-02 1.309535652399063110e-01
1.793258041143417358e-01 -7.268112152814865112e-02 -6.557592749595642090e-02
6.032634153962135315e-02 -4.799755662679672241e-02 1.063665002584457397e-01
6.208714097738265991e-02 -7.753574848175048828e-02 4.808027669787406921e-02
8.996689319610595703e-02 -4.859774559736251831e-02 1.897269338369369507e-01
7.154066115617752075e-02 -5.619652941823005676e-02 3.524110317230224609e-01
3.851804137229919434e-02 -7.393903285264968872e-02 2.497698664665222168e-01
2.025206387042999268e-01 -5.319929867982864380e-02 4.096471518278121948e-02
1.383696496486663818e-02 -5.476788803935050964e-02 -1.279022842645645142e-01
1.984567046165466309e-01 -6.910215318202972412e-02 -9.330964088439941406e-02
1.766553819179534912e-01 -7.376141846179962158e-02 -2.380819246172904968e-02
7.002286612987518311e-03 -7.433430105447769165e-02 1.526047661900520325e-02
8.989175409078598022e-02 -5.114294588565826416e-02 2.744476795196533203e-01
9.411118924617767334e-03 -7.045889645814895630e-02 2.722746729850769043e-01
5.239915475249290466e-02 -7.608451694250106812e-02 1.932163983583450317e-01
1.071538776159286499e-01 -7.601769268512725830e-02 -8.652065694332122803e-02
1.826622337102890015e-01 -7.321878522634506226e-02 1.216690763831138611e-01
2.120480090379714966e-01 -6.569152325391769409e-02 -8.966153860092163086e-02
6.635770946741104126e-02 -7.655702531337738037e-02 1.871942281723022461e-01
6.696159392595291138e-02 -7.570764422416687012e-02 -8.956326544284820557e-02
1.629715710878372192e-01 -5.469718575477600098e-02 -1.750174909830093384e-01
-1.747193932533264160e-02 -5.417674034833908081e-02 9.408658742904663086e-02
1.149378120899200439e-01 -4.757298156619071960e-02 1.018855720758438110e-01
-3.477710485458374023e-02 -6.694173067808151245e-02 1.477402299642562866e-01
2.740640938282012939e-02 -4.994899407029151917e-02 -9.168732911348342896e-03
1.303838789463043213e-01 -5.199717730283737183e-02 2.732400894165039062e-01
2.999353408813476562e-02 -7.549960166215896606e-02 -2.603329345583915710e-02
1.310665458440780640e-01 -5.334914103150367737e-02 -1.894217133522033691e-01
9.413433820009231567e-02 -4.778001829981803894e-02 1.402440667152404785e-01
7.889101654291152954e-02 -7.477387040853500366e-02 2.593743801116943359e-01
1.136494427919387817e-01 -7.024038583040237427e-02 3.349463641643524170e-01
7.612084597349166870e-02 -5.388398095965385437e-02 3.247442841529846191e-01
1.026149466633796692e-01 -5.296899005770683289e-02 3.098691999912261963e-01
4.086408391594886780e-02 -5.121799185872077942e-02 -1.050233840942382812e-01
-2.979345619678497314e-03 -7.343822717666625977e-02 2.749211713671684265e-02
