1.527782082557678223e-01 -1.827804744243621826e-01 6.175165772438049316e-01
8.988633751869201660e-02 -2.654930949211120605e-01 3.662980496883392334e-01
2.416738718748092651e-01 1.660315692424774170e-02 4.583934247493743896e-01
3.064835369586944580e-01 2.949654310941696167e-02 4.163197427988052368e-02
1.659488528966903687e-01 7.851367443799972534e-02 -1.778594255447387695e-01
-1.417150720953941345e-02 1.151955127716064453e-02 -6.244380474090576172e-01
-8.313129842281341553e-02 -5.447731912136077881e-02 6.318612694740295410e-01
1.226978898048400879e-01 -1.206706464290618896e-02 -6.972323060035705566e-01
-1.259564161300659180e-01 -6.224002316594123840e-02 5.730522274971008301e-01
1.113197356462478638e-01 -2.249035090208053589e-01 5.358017086982727051e-01
3.557444512844085693e-01 -1.195993572473526001e-01 1.368082165718078613e-01
-1.843634620308876038e-02 -3.063687086105346680e-01 -4.652417078614234924e-02
7.938593626022338867e-02 -8.178854733705520630e-02 -8.207246661186218262e-01
-2.490969300270080566e-01 -7.752841711044311523e-02 -3.250924050807952881e-01
1.846734434366226196e-03 2.656248956918716431e-02 5.314297080039978027e-01
8.778071403503417969e-02 -2.509082853794097900e-01 4.475463330745697021e-01
-2.351827919483184814e-01 -2.286283671855926514e-01 -2.167805731296539307e-01
9.691487252712249756e-02 -1.250578612089157104e-01 -8.229900598526000977e-01
-2.572425901889801025e-01 -1.532319188117980957e-01 1.902360916137695312e-01
4.201297461986541748e-02 -3.030203282833099365e-01 2.840921282768249512e-02
-1.146653294563293457e-01 -1.142660230398178101e-01 -7.588498592376708984e-01
2.092342823743820190e-03 7.010773569345474243e-02 2.681079506874084473e-01
-1.160883158445358276e-01 4.861330240964889526e-02 -2.937124110758304596e-02
2.991545796394348145e-01 -2.058838158845901489e-01 -1.079191192984580994e-01
-2.373963594436645508e-01 -7.129453122615814209e-02 2.326600551605224609e-01
-8.891019225120544434e-02 -5.843012928962707520e-01 7.529171705245971680e-01
1.550964266061782837e-01 -4.982529282569885254e-01 1.254794716835021973e+00
-7.301874458789825439e-03 -5.546883344650268555e-01 7.889962196350097656e-02
-1.659300327301025391e-01 -3.323666751384735107e-01 1.152951478958129883e+00
3.146560490131378174e-02 -5.162214040756225586e-01 1.222297906875610352e+00
-2.422882467508316040e-01 -5.126416087150573730e-01 9.150187969207763672e-01
-2.278001755475997925e-01 -3.267775774002075195e-01 4.704613089561462402e-01
2.235645949840545654e-01 -5.159876346588134766e-01 7.999291419982910156e-01
-3.422481119632720947e-01 -3.699308931827545166e-01 7.662332057952880859e-01
1.560828536748886108e-01 -3.778235316276550293e-01 6.736235022544860840e-01
-2.317185997962951660e-01 -3.523936271667480469e-01 1.080684185028076172e+00
2.537650167942047119e-01 -4.311452507972717285e-01 1.153893709182739258e+00
5.284053087234497070e-02 -4.203622341156005859e-01 2.518898546695709229e-01
4.904085397720336914e-02 -5.640282034873962402e-01 9.627180099487304688e-01
-1.757020503282546997e-02 -5.858461856842041016e-01 7.796453833580017090e-01
1.738360524177551270e-01 -4.755655527114868164e-01 4.541851878166198730e-01
6.042635440826416016e-02 -4.894655942916870117e-01 1.321219801902770996e+00
3.179270774126052856e-02 -5.607171058654785156e-01 1.724807918071746826e-01
2.217461466789245605e-01 -3.890263140201568604e-01 9.233106374740600586e-01
-3.638656437397003174e-01 -5.394101142883300781e-01 3.544457554817199707e-01
-3.452777564525604248e-01 -5.432422161102294922e-01 -9.087860584259033203e-03
-1.810286194086074829e-02 -3.022066354751586914e-01 1.046569585800170898e+00
-2.577663958072662354e-01 -4.698142707347869873e-01 -1.430766582489013672e-01
2.011895775794982910e-01 -5.268997550010681152e-01 9.780676364898681641e-01
-3.027578294277191162e-01 -3.393941223621368408e-01 7.374604940414428711e-01
-3.252355754375457764e-01 -3.457370400428771973e-01 6.292324066162109375e-01
8.338873088359832764e-02 -4.532103836536407471e-01 2.412266433238983154e-01
-3.164261579513549805e-01 -3.762550950050354004e-01 8.954792618751525879e-01
-1.621155440807342529e-02 -5.759521722793579102e-01 1.358413100242614746e-01
1.219519525766372681e-01 -5.318868160247802734e-01 3.292154371738433838e-01
1.548580080270767212e-02 -4.663064777851104736e-01 1.368365287780761719e+00
-1.130727156996726990e-01 -5.717568993568420410e-01 8.267435431480407715e-01
-2.860262393951416016e-01 -3.679841458797454834e-01 9.745931029319763184e-01
2.344701886177062988e-01 -4.062926769256591797e-01 8.941928148269653320e-01
-2.442036867141723633e-01 -3.900395631790161133e-01 1.113389134407043457e+00
7.043959200382232666e-02 -4.677775204181671143e-01 1.380118608474731445e+00
1.696448922157287598e-01 -3.767098188400268555e-01 7.307538986206054688e-01
-9.453689306974411011e-02 -3.195675909519195557e-01 5.418835878372192383e-01
1.482665985822677612e-01 -5.111959576606750488e-01 3.784408867359161377e-01
1.833879053592681885e-01 -4.684701263904571533e-01 4.921315312385559082e-01
-3.771833479404449463e-01 -4.329298734664916992e-01 7.171399593353271484e-01
3.242798894643783569e-02 -5.944042205810546875e-01 5.812733173370361328e-01
-2.189538329839706421e-01 -3.309280872344970703e-01 1.022087812423706055e+00
-1.898445487022399902e-01 -5.770554542541503906e-01 -2.509301900863647461e-02
-3.887725770473480225e-01 -4.490878582000732422e-01 6.513608694076538086e-01
-4.228098690509796143e-01 -4.619682133197784424e-01 1.275402307510375977e-01
2.235438525676727295e-01 -5.175575017929077148e-01 8.514388799667358398e-01
-2.093353271484375000e-01 -5.836154818534851074e-01 2.071213722229003906e-02
-2.116649150848388672e-01 -5.392106175422668457e-01 8.608793616294860840e-01
-1.270113289356231689e-01 -4.757335782051086426e-01 -9.518116712570190430e-02
3.763444721698760986e-03 -4.694223701953887939e-01 7.009315490722656250e-02
-3.523705154657363892e-02 -4.895588159561157227e-01 -6.464123725891113281e-03
-2.322618067264556885e-01 -3.158925175666809082e-01 7.614225745201110840e-01
-6.098840385675430298e-02 -5.056079030036926270e-01 1.206375598907470703e+00
-4.079644381999969482e-01 -5.036640763282775879e-01 8.947181701660156250e-02
-3.045354187488555908e-01 -3.811311721801757812e-01 9.451725482940673828e-01
1.902174055576324463e-01 -5.001372694969177246e-01 5.189605951309204102e-01
-3.957320153713226318e-01 -4.543630778789520264e-01 6.100731492042541504e-01
9.382306039333343506e-02 -5.683698654174804688e-01 8.820953369140625000e-01
-1.756440401077270508e-01 -3.381935954093933105e-01 3.497298657894134521e-01
-8.388249576091766357e-02 -3.943026065826416016e-01 1.371923804283142090e+00
-2.740789949893951416e-02 -5.043979883193969727e-01 1.237184286117553711e+00
6.911383569240570068e-02 -5.266413092613220215e-01 1.180094957351684570e+00
1.298529207706451416e-01 -3.524061739444732666e-01 7.482229471206665039e-01
1.273332536220550537e-01 -3.350483775138854980e-01 1.243680238723754883e+00
-2.191225886344909668e-01 -3.511230945587158203e-01 2.621432840824127197e-01
2.489222884178161621e-01 -4.428199231624603271e-01 1.190499424934387207e+00
-2.439757585525512695e-01 -3.279625773429870605e-01 9.179185628890991211e-01
-1.039271131157875061e-01 -4.454542994499206543e-01 1.308959484100341797e+00
-2.785949707031250000e-01 -3.316616714000701904e-01 5.219753384590148926e-01
-2.734365463256835938e-01 -3.315069675445556641e-01 8.189592361450195312e-01
-2.312768101692199707e-01 -5.722482204437255859e-01 6.018159389495849609e-01
-1.962939798831939697e-01 -5.681390762329101562e-01 7.167184352874755859e-01
-1.155898943543434143e-01 -5.858230590820312500e-01 7.077410221099853516e-01
-1.083810180425643921e-01 -5.589257478713989258e-01 -4.534560441970825195e-02
-3.785461485385894775e-01 -5.255230665206909180e-01 2.281218767166137695e-02
-1.393609344959259033e-01 -5.392184853553771973e-01 9.817927479743957520e-01
1.269658505916595459e-01 -5.466032624244689941e-01 1.024985074996948242e+00
-3.356116414070129395e-01 -4.648911952972412109e-01 -1.007831692695617676e-01
-1.598213911056518555e-01 -3.508513271808624268e-01 1.224073886871337891e+00
-1.614025235176086426e-01 -5.117731690406799316e-01 1.064269065856933594e+00
9.530068933963775635e-02 -5.776327252388000488e-01 7.454826831817626953e-01
-3.608088195323944092e-01 -3.733763098716735840e-01 3.110843598842620850e-01
-1.676703244447708130e-01 -6.018955707550048828e-01 2.531147003173828125e-01
2.332079708576202393e-01 -4.989664554595947266e-01 1.044270396232604980e+00
-3.466597497463226318e-01 -5.397933721542358398e-01 4.554256796836853027e-01
-3.575548827648162842e-01 -4.153096973896026611e-01 5.078029632568359375e-02
-4.201099872589111328e-01 -4.182326197624206543e-01 3.615084290504455566e-01
1.025221645832061768e-01 -4.594201743602752686e-01 1.396610021591186523e+00
-1.228516250848770142e-01 -6.050959825515747070e-01 3.168598115444183350e-01
2.379437386989593506e-01 -4.514044821262359619e-01 7.558727860450744629e-01
-7.516208291053771973e-02 -3.969201445579528809e-01 1.325513720512390137e-01
2.959686517715454102e-02 -3.109575212001800537e-01 8.681234717369079590e-01
2.332023531198501587e-02 -5.799214839935302734e-01 8.339627385139465332e-01
-1.735460162162780762e-01 -5.953420996665954590e-01 1.150724887847900391e-01
-3.080535531044006348e-01 -5.035171508789062500e-01 7.882438898086547852e-01
-2.497675716876983643e-01 -4.507209062576293945e-01 1.065530896186828613e+00
7.072485983371734619e-03 -5.887644290924072266e-01 7.411726117134094238e-01
-1.825174987316131592e-01 -5.891941785812377930e-01 5.523028969764709473e-01
1.606193631887435913e-01 -5.125603079795837402e-01 1.185216307640075684e+00
1.392804086208343506e-01 -3.392791748046875000e-01 9.263061881065368652e-01
-3.331431746482849121e-01 -3.693031072616577148e-01 8.068462014198303223e-01
-3.198511004447937012e-01 -5.675467252731323242e-01 1.550160944461822510e-01
6.038896739482879639e-02 -5.774289369583129883e-01 3.337861597537994385e-01
-1.826586723327636719e-01 -5.777277350425720215e-01 6.682468652725219727e-01
1.049382090568542480e-01 -5.726632475852966309e-01 7.986562848091125488e-01
-2.172379195690155029e-02 -5.628618001937866211e-01 9.650017619132995605e-01
1.013608127832412720e-01 -4.479825198650360107e-01 2.903964519500732422e-01
-3.144587278366088867e-01 -3.611379563808441162e-01 8.518187403678894043e-01
-3.835909366607666016e-01 -5.324497222900390625e-01 1.290835142135620117e-01
-1.981004178524017334e-01 -5.907505154609680176e-01 4.903610348701477051e-01
-1.422433853149414062e-01 -5.862187147140502930e-01 3.836315870285034180e-02
-1.805367916822433472e-01 -5.973317027091979980e-01 4.316453039646148682e-01
1.629965603351593018e-01 -4.523064196109771729e-01 1.378485441207885742e+00
2.281482219696044922e-01 -4.012567102909088135e-01 1.263878822326660156e+00
1.430130004882812500e-01 -4.258421957492828369e-01 4.454624652862548828e-01
-1.565776914358139038e-01 -3.983302712440490723e-01 5.790913105010986328e-02
-2.932646870613098145e-01 -5.769143104553222656e-01 2.557428479194641113e-01
-8.238326758146286011e-02 -3.438605964183807373e-01 3.706094026565551758e-01
-4.053084254264831543e-01 -5.063295364379882812e-01 3.432849943637847900e-01
-5.989757925271987915e-02 -3.027132451534271240e-01 8.037667870521545410e-01
-8.694101870059967041e-02 -3.716842234134674072e-01 2.198069989681243896e-01
-5.642470717430114746e-02 -4.485423564910888672e-01 1.353209972381591797e+00
1.466706842184066772e-01 -3.448075056076049805e-01 1.274821519851684570e+00
-3.509981930255889893e-01 -5.527796745300292969e-01 2.506408095359802246e-01
-1.937659382820129395e-01 -3.609390854835510254e-01 2.047947645187377930e-01
-2.842088341712951660e-01 -5.058940649032592773e-01 8.431462049484252930e-01
1.603088676929473877e-01 -5.569846630096435547e-01 6.899413466453552246e-01
-9.678488224744796753e-02 -5.327368378639221191e-01 1.064888238906860352e+00
1.162406206130981445e-01 -5.119804143905639648e-01 2.850243747234344482e-01
-2.620561718940734863e-01 -3.324574828147888184e-01 4.584391713142395020e-01
1.666198372840881348e-01 -3.692163825035095215e-01 7.671650648117065430e-01
-4.860262200236320496e-02 -2.998781800270080566e-01 9.448453783988952637e-01
-2.071463316679000854e-02 -5.351276993751525879e-01 2.296835184097290039e-02
-2.598565071821212769e-02 -4.223403930664062500e-01 1.167745590209960938e-01
-1.540713012218475342e-02 -3.145726621150970459e-01 1.231229186058044434e+00
-9.055127203464508057e-02 -2.995943427085876465e-01 9.330075383186340332e-01
7.324871420860290527e-02 -5.369994640350341797e-01 2.074732184410095215e-01
-4.128526896238327026e-02 -3.203396797180175781e-01 1.259126067161560059e+00
-3.317138254642486572e-01 -5.572108030319213867e-01 3.533881008625030518e-01
-1.026257798075675964e-01 -3.812813162803649902e-01 1.635037064552307129e-01
8.137971162796020508e-04 -5.973465442657470703e-01 3.678230047225952148e-01
1.809992492198944092e-01 -5.463536381721496582e-01 7.195534706115722656e-01
-2.373171299695968628e-01 -4.394586682319641113e-01 1.107730627059936523e+00
-1.593915671110153198e-01 -6.021269559860229492e-01 3.749338686466217041e-01
1.709635853767395020e-01 -5.441885590553283691e-01 5.848029255867004395e-01
-1.696749776601791382e-02 -4.019117951393127441e-01 1.429555177688598633e+00
-9.339861571788787842e-03 -5.422704219818115234e-01 1.089769482612609863e+00
1.941152215003967285e-01 -5.391746163368225098e-01 7.721204161643981934e-01
-7.865008711814880371e-02 -5.244683623313903809e-01 1.119216442108154297e+00
9.106317162513732910e-02 -3.198524415493011475e-01 1.145837306976318359e+00
-3.247698023915290833e-02 -3.448518514633178711e-01 4.260073006153106689e-01
-2.288226038217544556e-01 -3.264259099960327148e-01 9.597448706626892090e-01
-1.460038870573043823e-01 -4.380261301994323730e-01 -4.740601778030395508e-02
-2.317774891853332520e-01 -5.756338238716125488e-01 -1.934546232223510742e-02
-3.273202478885650635e-01 -5.624382495880126953e-01 9.607934951782226562e-02
-1.581638604402542114e-01 -3.039045333862304688e-01 8.612068891525268555e-01
7.838937640190124512e-02 -4.193409979343414307e-01 3.062402606010437012e-01
8.989726006984710693e-02 -5.819962024688720703e-01 6.488128304481506348e-01
-1.205356270074844360e-01 -5.902490019798278809e-01 7.883852720260620117e-02
-2.403572648763656616e-01 -5.912455320358276367e-01 2.241866588592529297e-01
-5.848076194524765015e-02 -6.031095981597900391e-01 3.106962442398071289e-01
-3.592557311058044434e-01 -4.636847376823425293e-01 7.446449995040893555e-01
-1.604334414005279541e-01 -3.067888021469116211e-01 6.996181011199951172e-01
-1.187601536512374878e-01 -3.402327299118041992e-01 3.616053462028503418e-01
-3.897679448127746582e-01 -4.403356909751892090e-01 3.539007902145385742e-02
-1.845986545085906982e-01 -5.536571145057678223e-01 -1.060379147529602051e-01
-2.683352828025817871e-01 -5.842695236206054688e-01 1.756422817707061768e-01
-8.384826779365539551e-02 -3.262331485748291016e-01 4.934586584568023682e-01
1.535999625921249390e-01 -5.227746963500976562e-01 4.144884645938873291e-01
4.790949821472167969e-02 -3.793959617614746094e-01 1.451888561248779297e+00
-1.731698960065841675e-02 -3.016256690025329590e-01 9.736677408218383789e-01
1.007275283336639404e-02 -5.822198987007141113e-01 2.258867025375366211e-01
1.393397599458694458e-01 -3.550165295600891113e-01 1.354534745216369629e+00
-1.695499569177627563e-01 -3.258301317691802979e-01 1.113293647766113281e+00
-3.445881009101867676e-01 -3.706678748130798340e-01 2.754233479499816895e-01
2.363582849502563477e-01 -3.975488245487213135e-01 9.840749502182006836e-01
-2.965030670166015625e-01 -4.739012718200683594e-01 9.099453091621398926e-01
8.696271479129791260e-02 -3.302671313285827637e-01 7.998561263084411621e-01
-2.030108720064163208e-01 -5.672165155410766602e-01 -6.868612766265869141e-02
-1.513661295175552368e-01 -5.526682138442993164e-01 -9.266364574432373047e-02
1.488403081893920898e-01 -3.532011210918426514e-01 8.174151182174682617e-01
1.415567100048065186e-02 -5.975799560546875000e-01 5.419152975082397461e-01
-4.193280637264251709e-01 -4.727461338043212891e-01 4.161826968193054199e-01
8.092382550239562988e-02 -4.808731079101562500e-01 2.022722363471984863e-01
-4.466469213366508484e-02 -3.277096450328826904e-01 5.283301472663879395e-01
-1.511727422475814819e-01 -5.737948417663574219e-01 7.572926878929138184e-01
3.880932927131652832e-04 -3.041773438453674316e-01 9.251630902290344238e-01
-7.624131441116333008e-02 -4.474246501922607422e-01 -2.997159957885742188e-03
4.743836820125579834e-02 -3.307326436042785645e-01 1.329760789871215820e+00
-1.507333964109420776e-01 -4.670401811599731445e-01 1.208011388778686523e+00
2.091929018497467041e-01 -3.711760342121124268e-01 1.017797708511352539e+00
1.466503739356994629e-01 -3.786050975322723389e-01 6.374388933181762695e-01
-2.866858243942260742e-01 -4.936521947383880615e-01 8.791361451148986816e-01
-2.809444069862365723e-01 -3.514158129692077637e-01 9.347417354583740234e-01
2.201670408248901367e-01 -4.267342388629913330e-01 7.193622589111328125e-01
-2.092481851577758789e-01 -3.361682593822479248e-01 3.676195144653320312e-01
-9.258454293012619019e-02 -5.102854967117309570e-01 1.158836960792541504e+00
-3.127856850624084473e-01 -3.451860845088958740e-01 4.455372989177703857e-01
-1.747080683708190918e-01 -5.849227309226989746e-01 6.171727776527404785e-01
4.780896008014678955e-03 -3.712527751922607422e-01 3.435771167278289795e-01
1.901683211326599121e-01 -3.652987182140350342e-01 9.234554767608642578e-01
7.458963990211486816e-02 -5.861757397651672363e-01 5.559625625610351562e-01
-3.282824754714965820e-01 -5.156913995742797852e-01 -1.195104718208312988e-01
-1.209192723035812378e-02 -3.293356001377105713e-01 1.320381164550781250e+00
-2.774650603532791138e-02 -4.066719710826873779e-01 1.594970226287841797e-01
2.598475515842437744e-01 -4.469473659992218018e-01 9.842201471328735352e-01
9.318229556083679199e-02 -5.610293149948120117e-01 3.385625481605529785e-01
-5.786465108394622803e-02 -3.874461948871612549e-01 1.870094537734985352e-01
1.544068753719329834e-01 -5.515827536582946777e-01 9.121862649917602539e-01
-2.963822185993194580e-01 -4.090969264507293701e-01 8.893609046936035156e-03
1.387126743793487549e-01 -4.420940876007080078e-01 3.951341211795806885e-01
-3.487840294837951660e-03 -5.985637307167053223e-01 5.754622817039489746e-01
2.042665183544158936e-01 -4.523493647575378418e-01 5.901250839233398438e-01
1.167733073234558105e-01 -5.613886117935180664e-01 9.118486642837524414e-01
-3.744584321975708008e-01 -3.722004592418670654e-01 4.603655040264129639e-01
1.280593276023864746e-01 -3.296917676925659180e-01 1.125060200691223145e+00
1.929486989974975586e-01 -4.112707078456878662e-01 6.548370718955993652e-01
-2.110378295183181763e-01 -5.938769578933715820e-01 3.882631957530975342e-01
-5.587450042366981506e-02 -5.800652503967285156e-01 8.179824948310852051e-01
9.120151400566101074e-03 -4.229236841201782227e-01 1.680336892604827881e-01
-1.667735576629638672e-01 -5.981532335281372070e-01 1.513335108757019043e-01
-5.642520263791084290e-02 -4.241463541984558105e-01 1.385078191757202148e+00
2.587533593177795410e-01 -4.551607370376586914e-01 9.489875435829162598e-01
4.036721587181091309e-02 -5.895440578460693359e-01 3.917750418186187744e-01
-2.922755479812622070e-01 -4.677009582519531250e-01 -1.330254077911376953e-01
-2.435508221387863159e-01 -5.215193033218383789e-01 8.765139579772949219e-01
3.862920403480529785e-02 -3.083736896514892578e-01 1.073026299476623535e+00
1.249992400407791138e-01 -3.313097059726715088e-01 1.200399637222290039e+00
1.505411416292190552e-02 -4.517118036746978760e-01 1.147816181182861328e-01
-2.287922054529190063e-01 -4.780941605567932129e-01 1.051013112068176270e+00
4.972156882286071777e-02 -3.912151753902435303e-01 3.407489657402038574e-01
6.541720032691955566e-02 -5.769175887107849121e-01 8.302992582321166992e-01
-1.156840473413467407e-01 -5.955383181571960449e-01 1.270571351051330566e-01
-1.113908439874649048e-01 -3.002330064773559570e-01 8.735444545745849609e-01
2.562278211116790771e-01 -4.291309714317321777e-01 1.115022063255310059e+00
-4.209783375263214111e-01 -4.928981363773345947e-01 1.887376606464385986e-01
1.284435689449310303e-01 -5.649304986000061035e-01 5.219976305961608887e-01
-2.494986504316329956e-01 -3.208782076835632324e-01 6.308793425559997559e-01
-2.324451953172683716e-01 -5.845628976821899414e-01 5.141913890838623047e-02
-3.885097801685333252e-03 -5.919734239578247070e-01 7.034080028533935547e-01
-6.714072078466415405e-02 -3.349953591823577881e-01 1.303693056106567383e+00
-3.107832670211791992e-01 -4.311971962451934814e-01 9.429280757904052734e-01
1.218143105506896973e-01 -3.979497551918029785e-01 4.785766601562500000e-01
-1.232858747243881226e-01 -3.887467980384826660e-01 1.162590384483337402e-01
-3.741648197174072266e-01 -3.730083107948303223e-01 5.419839620590209961e-01
-1.826771199703216553e-01 -4.481559991836547852e-01 -9.049916267395019531e-02
-1.867517530918121338e-01 -4.517534673213958740e-01 1.182004451751708984e+00
-3.179193139076232910e-01 -5.368579030036926270e-01 5.964329242706298828e-01
-2.123193591833114624e-01 -5.156576633453369141e-01 9.634992480278015137e-01
2.450391352176666260e-01 -4.575354456901550293e-01 7.962102293968200684e-01
-1.587678492069244385e-01 -5.785374641418457031e-01 7.064993977546691895e-01
8.512859046459197998e-02 -5.596277713775634766e-01 9.740645885467529297e-01
1.547951698303222656e-01 -3.395043611526489258e-01 1.083998203277587891e+00
3.682658821344375610e-02 -3.078141510486602783e-01 1.031886577606201172e+00
-2.096941918134689331e-01 -3.121781647205352783e-01 6.902077198028564453e-01
1.870753467082977295e-01 -3.583551049232482910e-01 9.926728010177612305e-01
1.028015464544296265e-02 -5.189297795295715332e-01 6.030279397964477539e-02
1.205460578203201294e-01 -4.322151839733123779e-01 1.435354232788085938e+00
-4.277453124523162842e-01 -4.410824775695800781e-01 2.389217615127563477e-01
-3.343557119369506836e-01 -5.336621403694152832e-01 -7.544875144958496094e-02
-1.259728074073791504e-01 -4.234302341938018799e-01 3.247737884521484375e-03
-5.168687179684638977e-02 -6.022492051124572754e-01 5.332021117210388184e-01
-1.655590981245040894e-01 -4.801549315452575684e-01 1.155145645141601562e+00
-2.889517843723297119e-01 -5.628975033760070801e-01 5.020798444747924805e-01
2.246027588844299316e-01 -4.335654079914093018e-01 1.300607562065124512e+00
-6.822900474071502686e-02 -5.683095455169677734e-01 8.978480100631713867e-01
-4.063291475176811218e-02 -3.359488248825073242e-01 4.726324081420898438e-01
1.989137530326843262e-01 -3.626275062561035156e-01 1.159494400024414062e+00
1.357189565896987915e-02 -5.668234825134277344e-01 9.471836090087890625e-01
2.317723631858825684e-01 -3.948503136634826660e-01 1.213434696197509766e+00
-1.824145764112472534e-02 -3.029797077178955078e-01 8.918636441230773926e-01
-3.001053035259246826e-01 -3.618398308753967285e-01 2.493098676204681396e-01
-1.918742060661315918e-01 -3.082388639450073242e-01 8.062342405319213867e-01
-2.666810154914855957e-01 -3.616454601287841797e-01 1.014808177947998047e+00
7.643212378025054932e-02 -3.945602178573608398e-01 3.829458355903625488e-01
5.992847681045532227e-02 -5.891676545143127441e-01 5.090797543525695801e-01
7.389292120933532715e-03 -3.503632545471191406e-01 4.564060866832733154e-01
-3.790716230869293213e-01 -5.331577062606811523e-01 8.613842725753784180e-02
-2.950832843780517578e-01 -5.288042426109313965e-01 7.143204808235168457e-01
9.431830048561096191e-02 -3.232104182243347168e-01 9.319776892662048340e-01
-2.548017501831054688e-01 -3.535894751548767090e-01 2.604986727237701416e-01
-2.563810721039772034e-02 -5.982610583305358887e-01 6.112090349197387695e-01
-7.624725252389907837e-02 -6.037089228630065918e-01 4.917109608650207520e-01
7.356485724449157715e-02 -3.443036079406738281e-01 1.379009246826171875e+00
1.511256396770477295e-02 -5.973640084266662598e-01 4.502900838851928711e-01
-3.344577252864837646e-01 -4.291699230670928955e-01 8.744460344314575195e-01
1.673176288604736328e-01 -3.455075621604919434e-01 1.154542207717895508e+00
5.931046605110168457e-02 -4.876795709133148193e-01 1.527929008007049561e-01
1.856741011142730713e-01 -3.945908546447753906e-01 6.974713802337646484e-01
-1.567000150680541992e-01 -3.216149806976318359e-01 4.912734329700469971e-01
-2.564640641212463379e-01 -5.211833119392395020e-01 -1.594741940498352051e-01
7.661268115043640137e-03 -3.592741489410400391e-01 4.073062539100646973e-01
-3.204517364501953125e-01 -5.656909942626953125e-01 2.905278503894805908e-01
8.382257819175720215e-02 -3.624468147754669189e-01 5.471243858337402344e-01
-1.336771249771118164e-02 -3.234490752220153809e-01 6.134616732597351074e-01
-5.399669706821441650e-02 -5.890280008316040039e-01 7.342018485069274902e-01
1.632463783025741577e-01 -3.454994857311248779e-01 1.200274229049682617e+00
-1.117515936493873596e-01 -3.597510159015655518e-01 2.539906799793243408e-01
7.696619629859924316e-02 -3.156275153160095215e-01 1.024743914604187012e+00
2.238017618656158447e-01 -4.093964695930480957e-01 8.065460920333862305e-01
-3.694992661476135254e-01 -3.994871377944946289e-01 7.303793430328369141e-01
1.652716696262359619e-01 -5.392130613327026367e-01 1.004018306732177734e+00
-2.536686658859252930e-01 -4.425084292888641357e-01 -9.644639492034912109e-02
3.508572280406951904e-02 -5.830668807029724121e-01 2.992028295993804932e-01
-1.936756968498229980e-01 -5.917704105377197266e-01 8.553642034530639648e-02
-3.414932489395141602e-01 -5.152280330657958984e-01 6.319835186004638672e-01
-3.869056105613708496e-01 -4.911381602287292480e-01 5.494409203529357910e-01
-2.625794112682342529e-01 -5.573455095291137695e-01 -8.508342504501342773e-02
-1.309289336204528809e-01 -6.039904356002807617e-01 2.617412805557250977e-01
5.264039337635040283e-02 -5.342407822608947754e-01 1.561127603054046631e-01
-9.001006931066513062e-02 -3.628594875335693359e-01 1.343987226486206055e+00
8.131466805934906006e-03 -3.134906291961669922e-01 7.647171616554260254e-01
-7.737599313259124756e-03 -3.024326860904693604e-01 1.010194540023803711e+00
9.585206210613250732e-02 -5.790751576423645020e-01 7.071868777275085449e-01
-7.782068848609924316e-02 -3.631014227867126465e-01 2.696522474288940430e-01
-2.787948250770568848e-01 -3.664855062961578369e-01 1.955060362815856934e-01
1.231455057859420776e-01 -3.544874787330627441e-01 7.091307640075683594e-01
-2.425770163536071777e-01 -5.855057239532470703e-01 4.109410047531127930e-01
-1.857098042964935303e-01 -5.552821755409240723e-01 8.221718072891235352e-01
4.108674824237823486e-02 -3.090625703334808350e-01 9.794690608978271484e-01
-3.074194863438606262e-02 -3.577366173267364502e-01 3.553699254989624023e-01
-3.884643316268920898e-01 -4.072102308273315430e-01 6.464676260948181152e-01
-2.245869785547256470e-01 -3.185466527938842773e-01 5.829123854637145996e-01
2.275639474391937256e-01 -3.835753798484802246e-01 1.115881681442260742e+00
-2.897740006446838379e-01 -4.016727209091186523e-01 1.007683157920837402e+00
-1.338095366954803467e-01 -3.189997076988220215e-01 1.141063451766967773e+00
-2.241790443658828735e-01 -3.890626132488250732e-01 6.878089904785156250e-02
-7.270162552595138550e-02 -4.817132651805877686e-01 1.267033576965332031e+00
-2.683637440204620361e-01 -5.585743188858032227e-01 6.079897880554199219e-01
-8.912529051303863525e-02 -3.001337647438049316e-01 9.739005565643310547e-01
1.924371719360351562e-02 -3.439969420433044434e-01 1.383663773536682129e+00
-3.810939788818359375e-01 -3.869973421096801758e-01 2.785786688327789307e-01
7.049608230590820312e-02 -3.191753029823303223e-01 8.850865364074707031e-01
-1.196913421154022217e-01 -3.365357518196105957e-01 1.246072053909301758e+00
9.034124016761779785e-02 -4.820140302181243896e-01 1.342961192131042480e+00
-3.076781034469604492e-01 -3.955227136611938477e-01 7.031667232513427734e-02
-8.376061916351318359e-02 -3.126953542232513428e-01 6.233319044113159180e-01
-2.243833839893341064e-01 -5.934323072433471680e-01 3.237235844135284424e-01
-4.285303652286529541e-01 -4.750784337520599365e-01 2.645051479339599609e-01
1.030206382274627686e-01 -5.111396312713623047e-01 2.499947547912597656e-01
4.426208138465881348e-02 -3.109341859817504883e-01 9.335221052169799805e-01
-3.291543200612068176e-02 -4.895575642585754395e-01 1.279771447181701660e+00
-6.582365930080413818e-02 -5.571631789207458496e-01 9.706933498382568359e-01
-3.333513140678405762e-01 -4.749800860881805420e-01 8.038178086280822754e-01
-1.556592583656311035e-01 -3.097312748432159424e-01 6.378044486045837402e-01
-1.516692042350769043e-01 -3.096626996994018555e-01 1.021777987480163574e+00
-1.077764779329299927e-01 -5.144419670104980469e-01 -9.711575508117675781e-02
-2.456652000546455383e-02 -4.329654872417449951e-01 1.401510000228881836e+00
2.821236848831176758e-03 -5.904819369316101074e-01 2.756727337837219238e-01
7.730729877948760986e-02 -4.409891664981842041e-01 1.431040287017822266e+00
-4.032144248485565186e-01 -5.022942423820495605e-01 3.935822248458862305e-01
1.153190433979034424e-01 -3.353861868381500244e-01 8.537470102310180664e-01
1.984024047851562500e-01 -5.257890224456787109e-01 6.360203027725219727e-01
-1.518370807170867920e-01 -5.924993753433227539e-01 5.780457258224487305e-01
-2.417771369218826294e-01 -3.445736169815063477e-01 3.172060549259185791e-01
-2.067755162715911865e-01 -4.586419463157653809e-01 -1.191818714141845703e-01
-3.198445737361907959e-01 -4.351784288883209229e-01 -5.540680885314941406e-02
1.229463517665863037e-01 -4.172447919845581055e-01 4.161716103553771973e-01
2.019538879394531250e-01 -3.641862869262695312e-01 1.073249816894531250e+00
1.727870404720306396e-01 -3.629615604877471924e-01 8.440594673156738281e-01
-2.424619644880294800e-01 -5.587649941444396973e-01 6.779338121414184570e-01
1.088494509458541870e-01 -3.235144615173339844e-01 1.068074107170104980e+00
-1.762374639511108398e-01 -3.454670310020446777e-01 2.998605668544769287e-01
-3.589301109313964844e-01 -4.049084186553955078e-01 9.707385301589965820e-02
4.227742552757263184e-03 -5.604081749916076660e-01 9.902073144912719727e-01
-2.002197057008743286e-01 -5.973668098449707031e-01 1.969507634639739990e-01
2.195182144641876221e-01 -5.066872835159301758e-01 6.869809627532958984e-01
1.469479501247406006e-02 -5.544064044952392578e-01 1.185890436172485352e-01
4.937835037708282471e-02 -5.576800107955932617e-01 1.008482217788696289e+00
-7.156381756067276001e-02 -4.902059137821197510e-01 -5.275404453277587891e-02
-4.151430428028106689e-01 -4.714458286762237549e-01 7.280206680297851562e-02
8.845151960849761963e-02 -5.784191489219665527e-01 4.634084105491638184e-01
1.190683692693710327e-01 -5.020788908004760742e-01 1.267909407615661621e+00
-3.974911272525787354e-01 -3.922073245048522949e-01 4.889320135116577148e-01
2.023678421974182129e-01 -4.892720580101013184e-01 5.615124702453613281e-01
-3.846488296985626221e-01 -5.131018757820129395e-01 4.479127526283264160e-01
-4.091517329216003418e-01 -4.614119529724121094e-01 5.223389863967895508e-01
1.248532235622406006e-01 -5.144950151443481445e-01 1.212941884994506836e+00
-2.666602134704589844e-01 -5.832101106643676758e-01 1.271771788597106934e-01
-2.594534158706665039e-01 -5.383328199386596680e-01 7.597970962524414062e-01
-3.714335858821868896e-01 -3.923557698726654053e-01 1.966764926910400391e-01
-1.939907670021057129e-01 -3.940791189670562744e-01 1.215356588363647461e+00
-3.525788486003875732e-01 -3.915905654430389404e-01 1.519422531127929688e-01
-1.230849176645278931e-01 -5.100680589675903320e-01 1.123682856559753418e+00
-5.591036379337310791e-02 -3.060493469238281250e-01 1.129204511642456055e+00
-3.494811952114105225e-01 -3.570264577865600586e-01 5.172569155693054199e-01
-2.901778221130371094e-01 -5.558591485023498535e-01 5.588508844375610352e-01
-4.037475585937500000e-01 -4.089232087135314941e-01 2.274712622165679932e-01
-1.799144446849822998e-01 -3.221911489963531494e-01 1.067408442497253418e+00
1.216899156570434570e-01 -5.367944836616516113e-01 1.098438143730163574e+00
1.457902044057846069e-02 -5.931347012519836426e-01 6.676893234252929688e-01
9.206768870353698730e-02 -3.881049454212188721e-01 4.435701370239257812e-01
-3.451134860515594482e-01 -3.550830483436584473e-01 5.848935246467590332e-01
1.667594015598297119e-01 -4.293349385261535645e-01 1.407018423080444336e+00
4.129667580127716064e-02 -5.847450494766235352e-01 7.636562585830688477e-01
7.214611768722534180e-02 -5.766741037368774414e-01 3.695569634437561035e-01
2.458180785179138184e-01 -4.912366867065429688e-01 9.791977405548095703e-01
-2.271263897418975830e-01 -3.160710632801055908e-01 8.254536986351013184e-01
-1.827305853366851807e-01 -5.376425385475158691e-01 9.218702316284179688e-01
-9.536673873662948608e-02 -5.974210500717163086e-01 5.986040830612182617e-01
-2.494688928127288818e-01 -5.735895633697509766e-01 5.361121296882629395e-01
-3.315015435218811035e-01 -4.606205523014068604e-01 8.420510292053222656e-01
-1.457160115242004395e-01 -5.574941039085388184e-01 8.751471042633056641e-01
-1.571415662765502930e-01 -3.044787049293518066e-01 7.640173435211181641e-01
2.065899223089218140e-02 -3.915265798568725586e-01 2.863293290138244629e-01
-3.140528798103332520e-01 -5.606541633605957031e-01 4.142642021179199219e-01
-1.924545317888259888e-01 -4.284271597862243652e-01 -5.089586973190307617e-02
-4.059576690196990967e-01 -4.855734705924987793e-01 4.652495384216308594e-01
-2.489651590585708618e-01 -3.197106719017028809e-01 7.246520519256591797e-01
1.813657283782958984e-01 -4.716499149799346924e-01 1.312859177589416504e+00
-3.302779197692871094e-01 -3.741753995418548584e-01 2.142003476619720459e-01
-2.685828804969787598e-01 -4.461699128150939941e-01 1.031335473060607910e+00
-6.158909201622009277e-02 -3.091866672039031982e-01 6.918546557426452637e-01
-3.136656880378723145e-01 -3.417843580245971680e-01 5.208854079246520996e-01
-3.743295073509216309e-01 -5.398135185241699219e-01 2.207941114902496338e-01
2.198612689971923828e-01 -4.731780886650085449e-01 6.393966078758239746e-01
1.029568761587142944e-01 -3.230445981025695801e-01 9.989491701126098633e-01
-1.924816966056823730e-01 -3.112864196300506592e-01 9.119570255279541016e-01
2.160139679908752441e-01 -3.941443562507629395e-01 8.459742069244384766e-01
-1.096687093377113342e-01 -3.014553487300872803e-01 8.002217411994934082e-01
-1.582243740558624268e-01 -3.318190872669219971e-01 4.015335142612457275e-01
-2.555275261402130127e-01 -4.928943216800689697e-01 9.544788599014282227e-01
-3.873956501483917236e-01 -5.008766055107116699e-01 -2.006173133850097656e-02
-7.031060755252838135e-02 -2.999989986419677734e-01 8.737750053405761719e-01
-3.667393326759338379e-01 -4.224348962306976318e-01 7.626436352729797363e-01
-2.827481627464294434e-01 -5.748711228370666504e-01 3.870623111724853516e-01
-9.511270374059677124e-02 -6.056785583496093750e-01 3.643771409988403320e-01
-2.982491254806518555e-01 -3.404459655284881592e-01 7.831110954284667969e-01
8.063139021396636963e-02 -3.296249508857727051e-01 1.297484397888183594e+00
-1.040605753660202026e-01 -3.497187495231628418e-01 3.150798082351684570e-01
-1.314108073711395264e-01 -3.120605945587158203e-01 6.018127202987670898e-01
-2.114026099443435669e-01 -4.954030811786651611e-01 -1.590613126754760742e-01
2.064058482646942139e-01 -4.373163580894470215e-01 1.341085910797119141e+00
-3.314188718795776367e-01 -3.551293313503265381e-01 3.891503214836120605e-01
-1.368117630481719971e-01 -4.410746693611145020e-01 1.273880481719970703e+00
-8.423792570829391479e-02 -3.355518877506256104e-01 4.230831861495971680e-01
1.473462283611297607e-01 -5.610507726669311523e-01 7.937947511672973633e-01
1.611129194498062134e-01 -4.807663559913635254e-01 4.103052318096160889e-01
-2.873633503913879395e-01 -3.485060036182403564e-01 3.363736867904663086e-01
3.198509663343429565e-02 -3.227493464946746826e-01 7.156605124473571777e-01
-4.519276320934295654e-03 -5.245134234428405762e-01 1.174650788307189941e+00
-3.793140873312950134e-02 -6.035764813423156738e-01 4.419398307800292969e-01
-2.772874832153320312e-01 -5.484417676925659180e-01 6.527230143547058105e-01
-1.802827268838882446e-01 -4.824672937393188477e-01 -1.378718614578247070e-01
1.231658756732940674e-01 -5.533946752548217773e-01 9.759690761566162109e-01
2.473735213279724121e-01 -4.901790916919708252e-01 9.270769357681274414e-01
2.459089756011962891e-01 -4.895308911800384521e-01 8.656657934188842773e-01
-1.335835009813308716e-01 -6.016751527786254883e-01 2.011380791664123535e-01
-2.481320798397064209e-01 -4.038273394107818604e-01 1.267635822296142578e-02
-1.931886374950408936e-02 -5.989758968353271484e-01 3.284264802932739258e-01
1.703424751758575439e-01 -5.306409597396850586e-01 5.041458606719970703e-01
-1.619262248277664185e-02 -3.044288754463195801e-01 1.107725739479064941e+00
5.468030273914337158e-02 -4.397230148315429688e-01 2.085173428058624268e-01
-5.647802352905273438e-02 -5.943809747695922852e-01 6.700341105461120605e-01
1.666448414325714111e-01 -4.248414337635040283e-01 5.184745192527770996e-01
-1.628585904836654663e-02 -3.480908572673797607e-01 1.380453944206237793e+00
-4.080966711044311523e-01 -4.021143913269042969e-01 4.303741753101348877e-01
-1.341121494770050049e-01 -6.001309156417846680e-01 4.970366954803466797e-01
7.949548959732055664e-02 -3.987404406070709229e-01 1.461785078048706055e+00
-6.282269954681396484e-02 -4.165632128715515137e-01 8.506602048873901367e-02
1.466391235589981079e-02 -5.716579556465148926e-01 9.099874496459960938e-01
-1.584605872631072998e-01 -3.066702485084533691e-01 9.552724361419677734e-01
1.979291141033172607e-01 -4.784515202045440674e-01 1.265535593032836914e+00
-2.087082862854003906e-01 -3.284890949726104736e-01 4.357269406318664551e-01
-5.484059453010559082e-02 -5.559548139572143555e-01 8.774101734161376953e-03
-2.395043522119522095e-01 -5.911580324172973633e-01 2.792250812053680420e-01
-4.120122641324996948e-02 -5.762231945991516113e-01 8.586424589157104492e-01
-1.105337664484977722e-01 -3.089261054992675781e-01 1.097727775573730469e+00
-4.154136031866073608e-02 -5.899422764778137207e-01 1.740400195121765137e-01
-3.962186276912689209e-01 -4.674336016178131104e-01 1.386880874633789062e-03
1.956190764904022217e-01 -3.799207210540771484e-01 1.321681499481201172e+00
-1.111619174480438232e-01 -3.454580903053283691e-01 1.284295082092285156e+00
-2.128557860851287842e-02 -3.727273941040039062e-01 2.963978946208953857e-01
-2.055901587009429932e-01 -4.714017510414123535e-01 1.110380887985229492e+00
-1.651645600795745850e-01 -3.894056081771850586e-01 1.262929797172546387e+00
-3.486040234565734863e-01 -4.172721207141876221e-01 8.307783603668212891e-01
-2.651870846748352051e-01 -5.807091593742370605e-01 7.693475484848022461e-02
2.158112823963165283e-01 -4.837838113307952881e-01 1.204683542251586914e+00
1.557988971471786499e-01 -5.540859699249267578e-01 8.714928030967712402e-01
-3.880532085895538330e-01 -5.259338021278381348e-01 3.059500753879547119e-01
1.154675036668777466e-01 -5.259918570518493652e-01 1.164400815963745117e+00
-9.990826249122619629e-02 -4.185968935489654541e-01 1.344898223876953125e+00
-3.392344713211059570e-02 -4.518035650253295898e-01 4.113119840621948242e-02
1.423337906599044800e-01 -5.641239881515502930e-01 6.318297982215881348e-01
-1.849432289600372314e-01 -5.612064003944396973e-01 7.867428064346313477e-01
-2.451986968517303467e-01 -3.694615364074707031e-01 1.612005829811096191e-01
2.313949167728424072e-02 -3.382847607135772705e-01 5.640633106231689453e-01
1.312838494777679443e-02 -3.459565043449401855e-01 4.934673905372619629e-01
1.155706197023391724e-01 -4.273840487003326416e-01 3.695182204246520996e-01
-2.810562849044799805e-01 -3.290284872055053711e-01 6.971984505653381348e-01
-8.428432047367095947e-03 -3.181962966918945312e-01 6.735442280769348145e-01
-4.199585318565368652e-01 -4.300253987312316895e-01 4.548827409744262695e-01
-2.847127914428710938e-01 -5.692653656005859375e-01 4.524990320205688477e-01
-7.141071557998657227e-02 -3.190770149230957031e-01 1.226713657379150391e+00
-2.762544751167297363e-01 -5.800307393074035645e-01 3.298001885414123535e-01
-9.738440811634063721e-02 -6.047952175140380859e-01 4.381296634674072266e-01
2.448338270187377930e-01 -4.693096280097961426e-01 1.146589875221252441e+00
-5.003168806433677673e-02 -5.790823698043823242e-01 9.410214424133300781e-02
-2.105446159839630127e-01 -4.039625227451324463e-01 1.551681756973266602e-02
4.641833156347274780e-02 1.144590899348258972e-01 6.044622659683227539e-01
-3.401871770620346069e-02 1.225530579686164856e-01 -4.709631800651550293e-01
2.217422276735305786e-01 4.920451715588569641e-02 -2.781108021736145020e-01
-2.164064347743988037e-02 1.061305105686187744e-01 -7.658368349075317383e-01
9.145152568817138672e-02 1.243237704038619995e-01 3.653290271759033203e-01
2.598736286163330078e-01 1.146823316812515259e-01 -2.860169410705566406e-01
2.156854420900344849e-01 5.532409995794296265e-02 2.706385254859924316e-01
2.509971261024475098e-01 1.000918969511985779e-01 -6.124246716499328613e-01
-1.795901656150817871e-01 5.104747787117958069e-02 2.634174227714538574e-01
2.299954742193222046e-01 9.931357949972152710e-02 5.237457752227783203e-01
2.401470392942428589e-01 1.177149415016174316e-01 1.693637967109680176e-01
2.908928394317626953e-01 1.111060008406639099e-01 -2.291908711194992065e-01
-3.106384277343750000e-01 7.794551551342010498e-02 -3.779373764991760254e-01
1.671651452779769897e-01 1.260086596012115479e-01 2.682220190763473511e-02
-3.110527805984020233e-02 5.543958395719528198e-02 -7.395576238632202148e-01
1.579326093196868896e-01 1.085272878408432007e-01 -6.711842417716979980e-01
1.991551667451858521e-01 1.225696057081222534e-01 1.394844502210617065e-01
3.021707236766815186e-01 1.016457825899124146e-01 -4.277223944664001465e-01
-5.652608349919319153e-03 4.912124574184417725e-02 4.064925312995910645e-01
-2.857759296894073486e-01 5.999458581209182739e-02 -1.969121545553207397e-01
-9.013271331787109375e-02 5.916475504636764526e-02 -7.451372146606445312e-01
8.858216553926467896e-02 4.131216555833816528e-02 -3.246065378189086914e-01
-7.521206140518188477e-02 1.213357150554656982e-01 4.624863862991333008e-01
-7.330080121755599976e-02 7.084822654724121094e-02 6.925890445709228516e-01
-1.915717571973800659e-01 4.852461069822311401e-02 -3.088907003402709961e-01
-1.241249516606330872e-01 4.528116062283515930e-02 1.860751360654830933e-01
-1.968738622963428497e-02 1.261697411537170410e-01 3.569843769073486328e-01
-2.187763005495071411e-01 1.077192574739456177e-01 -4.876535534858703613e-01
1.010275781154632568e-01 7.574976980686187744e-02 -8.764216303825378418e-01
-1.823444291949272156e-02 3.971755504608154297e-02 2.281037718057632446e-02
1.571478992700576782e-01 4.439583420753479004e-02 -3.153859972953796387e-01
-2.512506544589996338e-01 5.408415198326110840e-02 -2.057626843452453613e-01
-1.358376890420913696e-01 5.721183866262435913e-02 -6.656885743141174316e-01
-4.413533210754394531e-02 5.876719206571578979e-02 -7.743362784385681152e-01
1.375938653945922852e-01 5.726414173841476440e-02 4.679787158966064453e-01
-9.125140309333801270e-02 1.240137815475463867e-01 -3.615682125091552734e-01
-1.611828207969665527e-01 6.059921905398368835e-02 5.044748783111572266e-01
-1.225328668951988220e-01 1.268146634101867676e-01 -1.212102472782135010e-01
-1.467175483703613281e-01 1.227295994758605957e-01 3.004375696182250977e-01
1.970692425966262817e-01 4.868200421333312988e-02 1.061664521694183350e-01
-2.399148195981979370e-01 6.803750991821289062e-02 -5.740511417388916016e-01
-2.348650991916656494e-01 1.073275431990623474e-01 4.374885559082031250e-01
-2.613240480422973633e-01 5.481461435556411743e-02 -1.003949195146560669e-01
2.609427571296691895e-01 1.099873483180999756e-01 -4.269197583198547363e-01
4.122376441955566406e-02 4.052864015102386475e-02 -3.428568243980407715e-01
2.719460427761077881e-02 4.232073575258255005e-02 1.822946518659591675e-01
1.335617750883102417e-01 4.199517145752906799e-02 -1.215798854827880859e-01
-3.405945897102355957e-01 7.719364017248153687e-02 -5.371002852916717529e-02
-3.833242505788803101e-02 1.277586221694946289e-01 2.794938087463378906e-01
-2.301245331764221191e-01 9.425061941146850586e-02 5.645878911018371582e-01
2.006223499774932861e-01 1.153966262936592102e-01 -4.747689962387084961e-01
1.246365904808044434e-01 1.282651722431182861e-01 4.840898513793945312e-02
-2.840550430119037628e-02 1.213510781526565552e-01 4.903365969657897949e-01
-2.082650810480117798e-01 1.035594642162322998e-01 -5.749692916870117188e-01
1.246424689888954163e-01 1.094233542680740356e-01 6.061151027679443359e-01
2.294261753559112549e-01 1.205479055643081665e-01 -1.364095211029052734e-01
-1.529678255319595337e-01 5.538747459650039673e-02 -6.091541051864624023e-01
-1.571770310401916504e-01 4.405716061592102051e-02 -1.470696628093719482e-01
2.546893358230590820e-01 1.174354404211044312e-01 -1.628209352493286133e-01
1.567340344190597534e-01 5.808492749929428101e-02 -7.002980113029479980e-01
-1.495282799005508423e-01 1.237160414457321167e-01 2.457453459501266479e-01
-1.921877413988113403e-01 9.902662783861160278e-02 6.122817397117614746e-01
3.442095816135406494e-01 7.378270477056503296e-02 2.865834534168243408e-02
1.022752448916435242e-01 1.292951703071594238e-01 -1.303996145725250244e-02
8.500717580318450928e-02 4.007080569863319397e-02 -1.778809130191802979e-01
3.522761911153793335e-02 1.233375817537307739e-01 -4.649573564529418945e-01
1.546645313501358032e-01 1.041311621665954590e-01 -7.287644147872924805e-01
1.519287973642349243e-01 1.251740306615829468e-01 2.000658363103866577e-01
2.552696131169795990e-02 4.807968065142631531e-02 3.756998777389526367e-01
2.930690906941890717e-02 1.306143701076507568e-01 7.259598374366760254e-02
-1.369850784540176392e-01 1.266004443168640137e-01 -1.557224616408348083e-02
-3.297820091247558594e-01 7.617661356925964355e-02 1.507566869258880615e-01
5.121828988194465637e-03 1.211373358964920044e-01 -5.239013433456420898e-01
-5.187056213617324829e-02 1.301164925098419189e-01 6.069689989089965820e-04
-3.137106597423553467e-01 7.062835991382598877e-02 1.843721419572830200e-01
-2.202186733484268188e-01 1.133385822176933289e-01 -3.619836568832397461e-01
2.193080484867095947e-01 1.202413886785507202e-01 -2.399941831827163696e-01
1.983223855495452881e-01 4.676956310868263245e-02 -3.497302904725074768e-02
2.561643421649932861e-01 1.175235658884048462e-01 4.009710997343063354e-02
3.117690682411193848e-01 1.039287149906158447e-01 -3.300270438194274902e-01
6.097723729908466339e-03 1.168863922357559204e-01 -6.161279082298278809e-01
-1.703448146581649780e-01 1.229477524757385254e-01 -1.782919466495513916e-01
2.137949317693710327e-01 1.030818819999694824e-01 -6.565815210342407227e-01
9.860344976186752319e-02 6.076966226100921631e-02 5.630315542221069336e-01
4.162178933620452881e-02 6.719670444726943970e-02 6.682400703430175781e-01
1.569669097661972046e-01 1.200076490640640259e-01 -4.428089857101440430e-01
-1.259704977273941040e-01 1.064915955066680908e-01 -6.802662014961242676e-01
1.277092546224594116e-01 4.637450724840164185e-02 2.173666805028915405e-01
-7.773382961750030518e-02 1.280066668987274170e-01 -1.911039054393768311e-01
9.799701720476150513e-02 1.253378093242645264e-01 3.208322525024414062e-01
9.187329560518264771e-02 9.744951128959655762e-02 7.190933823585510254e-01
-1.227609291672706604e-01 4.278356954455375671e-02 -2.641070485115051270e-01
-2.230416685342788696e-01 5.330267176032066345e-02 -3.614603281021118164e-01
1.031288057565689087e-01 1.272659152746200562e-01 2.235223799943923950e-01
3.554078638553619385e-01 7.793887704610824585e-02 -1.915078759193420410e-01
3.753509745001792908e-02 4.409094527363777161e-02 2.489627748727798462e-01
2.743216753005981445e-01 5.846044793725013733e-02 1.210089027881622314e-01
-9.341775625944137573e-02 4.098255559802055359e-02 -2.152468115091323853e-01
-1.947403252124786377e-01 1.168887317180633545e-01 3.561313748359680176e-01
3.177804499864578247e-02 1.297444403171539307e-01 -1.778979301452636719e-01
-6.757730245590209961e-02 1.220475882291793823e-01 -4.563998579978942871e-01
