7.574998587369918823e-02 -2.035945951938629150e-01 -1.543660461902618408e-01
1.020090728998184204e-01 -2.431866377592086792e-01 -8.155084401369094849e-02
7.025095075368881226e-02 -1.981172412633895874e-01 4.100084304809570312e-02
-2.566517889499664307e-02 -2.596567571163177490e-01 6.433550268411636353e-02
8.292026817798614502e-02 -2.048758119344711304e-01 -1.400626450777053833e-01
-6.865616887807846069e-04 -1.718476712703704834e-01 3.449968993663787842e-02
-2.353039011359214783e-02 -2.826122641563415527e-01 2.678544819355010986e-02
7.055856287479400635e-02 -1.892185658216476440e-01 -1.489187479019165039e-01
7.399103045463562012e-02 -2.917318046092987061e-01 2.060512453317642212e-02
-4.784584417939186096e-02 -2.531844973564147949e-01 8.527208119630813599e-03
1.011667996644973755e-01 -2.230803966522216797e-01 -8.548757433891296387e-02
6.010974571108818054e-02 -1.803598105907440186e-01 -1.535610258579254150e-01
9.554334916174411774e-03 -2.171702533960342407e-01 -1.945555806159973145e-01
-4.404021427035331726e-02 -1.844296455383300781e-01 -1.123271360993385315e-01
9.180340170860290527e-02 -2.701520621776580811e-01 1.620370894670486450e-02
-2.526899054646492004e-02 -1.589605063199996948e-01 -8.672101795673370361e-02
1.988539099693298340e-02 -1.517894119024276733e-01 -3.174218535423278809e-02
9.850226342678070068e-05 -2.835285365581512451e-01 -1.194408237934112549e-01
1.713765040040016174e-02 -1.678804606199264526e-01 2.887793630361557007e-02
-2.806108072400093079e-02 -2.711023390293121338e-01 -1.021415963768959045e-01
-1.186084747314453125e-02 -1.540993750095367432e-01 -1.022648811340332031e-01
4.566280543804168701e-02 -2.712614238262176514e-01 8.896023035049438477e-02
3.631639480590820312e-02 -3.089149594306945801e-01 -1.689508929848670959e-02
-3.088728711009025574e-02 -1.798261702060699463e-01 -1.409222781658172607e-01
-5.366023629903793335e-03 -2.273040115833282471e-01 -1.843433231115341187e-01
2.670520730316638947e-02 -2.433962970972061157e-01 -1.864152848720550537e-01
2.468639984726905823e-02 -2.593792080879211426e-01 1.009147316217422485e-01
4.846796765923500061e-02 -1.666515320539474487e-01 2.621486783027648926e-03
5.304431915283203125e-02 -2.638347744941711426e-01 8.912289142608642578e-02
1.709863729774951935e-02 -2.537994682788848877e-01 1.021659672260284424e-01
-4.718715324997901917e-03 -1.656849980354309082e-01 -1.524167954921722412e-01
8.921743929386138916e-02 -1.903501749038696289e-01 -4.780532047152519226e-02
6.037396192550659180e-02 -2.630024552345275879e-01 -1.547010689973831177e-01
-3.357695415616035461e-03 -1.733312606811523438e-01 -1.664277315139770508e-01
5.979087576270103455e-02 -2.098449617624282837e-01 7.005675137042999268e-02
-1.719043403863906860e-02 -2.602661550045013428e-01 7.642207294702529907e-02
1.094159111380577087e-02 -3.014777004718780518e-01 -6.938412785530090332e-02
-1.451020687818527222e-02 -2.952040433883666992e-01 -2.227143384516239166e-02
6.722886115312576294e-02 -2.075176984071731567e-01 5.841915309429168701e-02
-5.452819168567657471e-04 -1.493493914604187012e-01 -7.676400989294052124e-02
5.693919956684112549e-04 -2.933716177940368652e-01 4.576193541288375854e-02
7.236935198307037354e-03 -2.902812361717224121e-01 6.112555414438247681e-02
-8.001124486327171326e-03 -2.987496256828308105e-01 -2.822859026491641998e-02
-5.491762980818748474e-02 -1.970811188220977783e-01 -7.645851373672485352e-02
-1.166304945945739746e-02 -2.951505184173583984e-01 8.049994707107543945e-03
-5.874025449156761169e-02 -2.264636456966400146e-01 -4.024454951286315918e-02
-2.204168960452079773e-02 -2.892526090145111084e-01 -3.791872411966323853e-03
-5.652786418795585632e-02 -2.101252675056457520e-01 -8.265171945095062256e-02
4.497442394495010376e-02 -2.056201696395874023e-01 -1.896316856145858765e-01
-1.636809110641479492e-02 -1.941574513912200928e-01 6.030212342739105225e-02
-4.742295667529106140e-02 -2.049232423305511475e-01 1.859904825687408447e-02
-4.483886435627937317e-02 -2.104718238115310669e-01 3.110878914594650269e-02
5.712663009762763977e-02 -2.988806664943695068e-01 3.190358728170394897e-02
4.977596923708915710e-02 -2.314706891775131226e-01 9.300123155117034912e-02
5.525023117661476135e-02 -1.854134798049926758e-01 4.087917506694793701e-02
1.577327027916908264e-02 -1.963829547166824341e-01 7.757094502449035645e-02
8.917722105979919434e-02 -2.798400223255157471e-01 2.125684171915054321e-03
2.356253191828727722e-02 -1.763098239898681641e-01 4.630450904369354248e-02
-5.811649933457374573e-02 -2.285369634628295898e-01 -5.809156596660614014e-02
-1.216078922152519226e-02 -1.873125284910202026e-01 -1.742522716522216797e-01
6.177306175231933594e-02 -1.697990298271179199e-01 -1.248930096626281738e-01
-1.423836499452590942e-02 -2.597967088222503662e-01 -1.478000581264495850e-01
1.024880707263946533e-01 -2.551816701889038086e-01 -5.486922338604927063e-02
8.723609149456024170e-02 -2.716376185417175293e-01 -9.741255640983581543e-02
5.861921235918998718e-02 -2.955969274044036865e-01 4.064593464136123657e-02
-1.805066689848899841e-02 -2.468913942575454712e-01 -1.588201820850372314e-01
-1.236919686198234558e-02 -2.064398676156997681e-01 -1.820472627878189087e-01
9.625178575515747070e-02 -2.457791566848754883e-01 -1.071285307407379150e-01
-4.740520939230918884e-02 -2.605429887771606445e-01 -1.667526364326477051e-02
3.051577135920524597e-02 -2.988443374633789062e-01 5.020001530647277832e-02
9.269659221172332764e-02 -2.038245499134063721e-01 -1.053688079118728638e-01
4.737275093793869019e-02 -3.076559007167816162e-01 -1.801474206149578094e-02
1.002613157033920288e-01 -2.607817053794860840e-01 -1.476576551795005798e-02
-1.568763330578804016e-02 -2.153697311878204346e-01 -1.789355427026748657e-01
5.272491276264190674e-02 -1.578706800937652588e-01 -6.826548278331756592e-02
9.256239235401153564e-02 -2.727433741092681885e-01 -7.383717596530914307e-02
7.560026645660400391e-02 -2.953127324581146240e-01 -4.088249057531356812e-02
-5.319284275174140930e-02 -1.988028883934020996e-01 -9.353106468915939331e-02
-1.985748857259750366e-02 -2.449064254760742188e-01 8.089198172092437744e-02
-6.809830665588378906e-04 -2.754009664058685303e-01 -1.363933980464935303e-01
-2.991897240281105042e-02 -1.704210042953491211e-01 -5.484279245138168335e-03
-3.981911763548851013e-02 -2.102442532777786255e-01 -1.434504091739654541e-01
7.346010208129882812e-02 -2.121171951293945312e-01 -1.628628373146057129e-01
1.651155948638916016e-02 -2.829602062702178955e-01 7.949535548686981201e-02
9.775528311729431152e-02 -2.680748403072357178e-01 -5.516356229782104492e-02
6.295393407344818115e-02 -2.629738152027130127e-01 8.078524470329284668e-02
1.000916063785552979e-01 -2.313992679119110107e-01 -6.126575171947479248e-04
-4.468943923711776733e-03 -2.482219636440277100e-01 -1.709518730640411377e-01
2.353560179471969604e-03 -2.686144709587097168e-01 8.824113011360168457e-02
7.184729725122451782e-02 -1.804116368293762207e-01 -2.172391861677169800e-03
-2.406481653451919556e-03 -2.994771003723144531e-01 1.241823658347129822e-02
-5.858526006340980530e-02 -2.107798159122467041e-01 -4.155903309583663940e-02
5.343964695930480957e-02 -1.934446394443511963e-01 -1.769662052392959595e-01
7.101637125015258789e-02 -2.838084697723388672e-01 -1.054140180349349976e-01
4.324001073837280273e-02 -3.080427050590515137e-01 -6.857499480247497559e-03
4.745693877339363098e-03 -2.339242994785308838e-01 -1.871567070484161377e-01
-3.561004996299743652e-04 -2.956961393356323242e-01 3.646637499332427979e-02
2.213435433804988861e-02 -2.440229207277297974e-01 1.040093302726745605e-01
-3.511836752295494080e-02 -1.768354624509811401e-01 7.863529026508331299e-04
9.931492805480957031e-02 -2.472505569458007812e-01 -9.304990619421005249e-02
-1.846865192055702209e-02 -2.897716462612152100e-01 -5.919111520051956177e-02
-3.730465471744537354e-02 -2.279057949781417847e-01 5.546268820762634277e-02
9.959881007671356201e-02 -2.098508626222610474e-01 -6.180487573146820068e-02
6.556813418865203857e-02 -2.232984453439712524e-01 -1.746541708707809448e-01
-5.575871095061302185e-02 -2.345507293939590454e-01 -7.200697064399719238e-02
-5.118392035365104675e-02 -2.509429752826690674e-01 -6.194885820150375366e-02
4.910927638411521912e-02 -2.518655657768249512e-01 -1.740321666002273560e-01
-4.971073940396308899e-02 -1.977293789386749268e-01 5.801953375339508057e-04
-5.433735623955726624e-02 -1.931577175855636597e-01 -6.643710285425186157e-02
8.100719749927520752e-02 -2.622612714767456055e-01 -1.283154785633087158e-01
5.577720701694488525e-03 -2.848068177700042725e-01 7.042943686246871948e-02
8.996893465518951416e-02 -2.459048032760620117e-01 -1.259878426790237427e-01
-2.631962671875953674e-02 -2.065675258636474609e-01 6.206580996513366699e-02
4.968382418155670166e-02 -3.055016994476318359e-01 9.336188435554504395e-03
5.920942872762680054e-02 -2.174521237611770630e-01 7.734139263629913330e-02
-3.679899871349334717e-02 -2.675054669380187988e-01 2.495454996824264526e-02
9.244674444198608398e-02 -2.773715555667877197e-01 -1.030908897519111633e-02
-1.493571326136589050e-03 -2.561813592910766602e-01 -1.648293137550354004e-01
-6.761560216546058655e-03 -2.877411246299743652e-01 -9.837700426578521729e-02
8.703599870204925537e-02 -2.587345242500305176e-01 4.356206953525543213e-02
9.406755864620208740e-02 -1.994143128395080566e-01 -8.201452344655990601e-02
4.086464643478393555e-03 -1.962196081876754761e-01 -1.897283345460891724e-01
3.441828489303588867e-02 -1.680110991001129150e-01 2.217572927474975586e-02
8.742597699165344238e-02 -2.335077226161956787e-01 -1.381416618824005127e-01
3.385808318853378296e-02 -2.853922843933105469e-01 -1.308556795120239258e-01
6.513893604278564453e-03 -1.593444645404815674e-01 -1.441807746887207031e-01
-6.868537515401840210e-03 -2.358499467372894287e-01 9.361039102077484131e-02
2.472609095275402069e-02 -1.851071715354919434e-01 6.148848682641983032e-02
3.813849389553070068e-02 -2.626052796840667725e-01 -1.672010272741317749e-01
1.042738705873489380e-01 -2.388954013586044312e-01 -6.299034506082534790e-02
-3.992199525237083435e-02 -1.699038445949554443e-01 -5.922842025756835938e-02
9.058395028114318848e-02 -2.790407538414001465e-01 -5.870621651411056519e-02
2.830061316490173340e-02 -1.849755942821502686e-01 -1.847341656684875488e-01
-3.397009149193763733e-02 -1.889692991971969604e-01 -1.456011831760406494e-01
8.675259351730346680e-02 -2.031022012233734131e-01 1.116676256060600281e-02
1.701214537024497986e-02 -1.484898328781127930e-01 -6.465963274240493774e-02
-4.659814760088920593e-02 -1.852144300937652588e-01 -1.029963344335556030e-01
9.196285903453826904e-02 -2.108760178089141846e-01 7.665470242500305176e-03
1.789151877164840698e-02 -1.498765051364898682e-01 -4.561413452029228210e-02
1.045511960983276367e-01 -2.423569709062576294e-01 -3.573277592658996582e-02
-1.585781946778297424e-02 -1.551853269338607788e-01 -4.402698576450347900e-02
9.626062214374542236e-02 -2.057679295539855957e-01 -2.747109718620777130e-02
7.786263525485992432e-02 -1.971857249736785889e-01 2.409217506647109985e-02
-4.066958650946617126e-02 -2.714958190917968750e-01 -3.128773719072341919e-02
-1.318951323628425598e-02 -2.731834053993225098e-01 -1.260664165019989014e-01
6.042581796646118164e-02 -1.636838018894195557e-01 -9.847486019134521484e-02
9.154239296913146973e-02 -2.094049900770187378e-01 -1.188118234276771545e-01
-1.637151092290878296e-02 -1.787226498126983643e-01 3.646437078714370728e-02
9.743921458721160889e-02 -2.323131263256072998e-01 -1.086520105600357056e-01
-1.628592982888221741e-02 -2.910454869270324707e-01 1.531637832522392273e-02
-4.458454623818397522e-02 -1.936823129653930664e-01 -1.237494722008705139e-01
-2.079343423247337341e-02 -2.900822758674621582e-01 -4.296898841857910156e-02
7.593521475791931152e-02 -2.214194238185882568e-01 -1.609059274196624756e-01
9.201620519161224365e-02 -2.588285803794860840e-01 2.950243651866912842e-02
-4.408663883805274963e-02 -1.865120828151702881e-01 -1.429099589586257935e-03
-3.169885277748107910e-02 -2.808515131473541260e-01 -6.880059838294982910e-03
-4.389120265841484070e-02 -2.517843246459960938e-01 2.821990102529525757e-02
4.757590591907501221e-03 -1.778715997934341431e-01 -1.763650029897689819e-01
-4.614929482340812683e-02 -2.418825030326843262e-01 3.034631162881851196e-02
6.524991989135742188e-02 -2.711697518825531006e-01 -1.385391652584075928e-01
2.628679759800434113e-02 -1.492875516414642334e-01 -7.804514467716217041e-02
3.562371060252189636e-02 -2.387755364179611206e-01 1.017084866762161255e-01
1.033355146646499634e-01 -2.351529300212860107e-01 -2.001545019447803497e-02
2.644792199134826660e-03 -2.418466806411743164e-01 9.934452176094055176e-02
1.026188880205154419e-01 -2.553284764289855957e-01 -2.865766547620296478e-02
-5.835648998618125916e-02 -2.180841714143753052e-01 -6.701964884996414185e-02
6.419631093740463257e-02 -3.016026914119720459e-01 -4.150637984275817871e-02
6.385958939790725708e-02 -1.899615377187728882e-01 3.743642568588256836e-02
1.564567536115646362e-02 -3.048035502433776855e-01 1.729494333267211914e-02
-4.167812690138816833e-02 -1.752725243568420410e-01 -2.880383282899856567e-02
6.476368755102157593e-02 -1.948147565126419067e-01 -1.649350523948669434e-01
6.238616257905960083e-02 -1.656093001365661621e-01 -3.816882520914077759e-02
-1.961925998330116272e-02 -1.681029051542282104e-01 -1.399658471345901489e-01
-5.206419155001640320e-02 -2.383411824703216553e-01 9.256705641746520996e-03
1.029324382543563843e-01 -2.551042139530181885e-01 -4.043547064065933228e-02
9.774476289749145508e-02 -2.287963032722473145e-01 8.378427475690841675e-03
1.002013534307479858e-01 -2.475495338439941406e-01 2.547930926084518433e-03
-4.841295257210731506e-02 -2.288054227828979492e-01 -1.146410554647445679e-01
-5.466281250119209290e-02 -2.183423489332199097e-01 -9.494422376155853271e-02
3.728769719600677490e-02 -1.560821235179901123e-01 -2.533692121505737305e-02
3.740869462490081787e-02 -1.559555381536483765e-01 -1.196978390216827393e-01
3.476578369736671448e-02 -1.956917494535446167e-01 7.293469458818435669e-02
-2.843748033046722412e-02 -1.666267067193984985e-01 -1.565143838524818420e-02
-5.214111134409904480e-02 -2.033060491085052490e-01 -1.037570461630821228e-01
4.301531240344047546e-03 -2.640665173530578613e-01 -1.588272452354431152e-01
-5.242382362484931946e-02 -2.076822966337203979e-01 3.363274037837982178e-03
-3.869833797216415405e-02 -1.773569136857986450e-01 -8.271336555480957031e-03
2.968497201800346375e-02 -1.723874211311340332e-01 -1.693903058767318726e-01
1.707775518298149109e-02 -1.850832253694534302e-01 -1.859281212091445923e-01
7.762201875448226929e-02 -1.937618255615234375e-01 -1.399994045495986938e-01
6.608986109495162964e-02 -2.288810908794403076e-01 7.705394923686981201e-02
6.917173415422439575e-02 -1.696229577064514160e-01 -9.410370886325836182e-02
8.700670301914215088e-02 -2.062743306159973145e-01 -1.303864121437072754e-01
-3.888352960348129272e-02 -2.642557322978973389e-01 -8.696562051773071289e-02
5.822721123695373535e-02 -1.711743026971817017e-01 -1.372808516025543213e-01
-2.940423786640167236e-02 -2.489289790391921997e-01 -1.396707594394683838e-01
-8.126340806484222412e-03 -1.683802753686904907e-01 2.137964963912963867e-02
5.580673739314079285e-02 -1.638736128807067871e-01 -1.173047870397567749e-01
-1.586393639445304871e-02 -1.536550521850585938e-01 -7.118327170610427856e-02
-3.710831701755523682e-02 -2.755205631256103516e-01 -3.927115350961685181e-02
7.707935571670532227e-02 -1.791134476661682129e-01 -2.691251412034034729e-02
-3.479196131229400635e-02 -2.664187550544738770e-01 -9.532845020294189453e-02
-4.815214499831199646e-02 -1.830716133117675781e-01 -3.260519355535507202e-02
-5.179220065474510193e-02 -2.468493282794952393e-01 -7.166586816310882568e-02
-9.066574275493621826e-03 -1.634731441736221313e-01 -1.433672606945037842e-01
3.909270465373992920e-02 -1.548694670200347900e-01 -1.102239266037940979e-01
7.016947120428085327e-02 -1.782962828874588013e-01 -1.282693296670913696e-01
-4.236806556582450867e-02 -1.977621763944625854e-01 -1.333782821893692017e-01
-1.709379255771636963e-02 -2.841891348361968994e-01 -8.948199450969696045e-02
-4.646350815892219543e-02 -2.217028290033340454e-01 -1.248601377010345459e-01
-3.461428359150886536e-02 -2.120563387870788574e-01 5.384211242198944092e-02
9.212282299995422363e-02 -2.625533640384674072e-01 -1.000946313142776489e-01
8.864992856979370117e-02 -2.836784124374389648e-01 -3.950896114110946655e-02
4.931300505995750427e-02 -2.803243100643157959e-01 -1.360460817813873291e-01
7.394881546497344971e-02 -1.745622009038925171e-01 -3.678558766841888428e-02
5.645865574479103088e-02 -2.861885726451873779e-01 6.392082571983337402e-02
-5.998013541102409363e-03 -2.782733142375946045e-01 6.978955864906311035e-02
-2.334959805011749268e-03 -1.784581840038299561e-01 4.689387232065200806e-02
1.028111726045608521e-01 -2.317329794168472290e-01 -7.884415984153747559e-02
1.022671759128570557e-01 -2.363999336957931519e-01 -1.048958674073219299e-02
-1.865701377391815186e-02 -2.875148057937622070e-01 -7.123252749443054199e-02
-6.158487871289253235e-03 -1.969893276691436768e-01 7.141961902379989624e-02
2.049485780298709869e-02 -2.957911491394042969e-01 -1.010698974132537842e-01
1.038432121276855469e-02 -2.818796634674072266e-01 -1.319306492805480957e-01
9.085449576377868652e-02 -1.968310177326202393e-01 -2.366693131625652313e-02
7.817636430263519287e-02 -2.440275102853775024e-01 -1.509121954441070557e-01
5.094242095947265625e-02 -2.931948900222778320e-01 5.549836158752441406e-02
2.752415835857391357e-02 -2.743986248970031738e-01 -1.516143381595611572e-01
3.016569651663303375e-02 -1.670179963111877441e-01 -1.597464084625244141e-01
8.196262270212173462e-02 -2.186118513345718384e-01 4.493210464715957642e-02
1.038182824850082397e-01 -2.292236834764480591e-01 -6.536840647459030151e-02
5.775666236877441406e-02 -2.095710039138793945e-01 -1.812243312597274780e-01
1.772243529558181763e-02 -2.300776541233062744e-01 1.016887575387954712e-01
-4.696564748883247375e-02 -2.517285346984863281e-01 -8.640338480472564697e-02
5.797193571925163269e-02 -1.765928566455841064e-01 1.721892505884170532e-02
-3.712949901819229126e-02 -1.957768499851226807e-01 3.307411074638366699e-02
6.068723276257514954e-02 -1.696222126483917236e-01 -1.101167127490043640e-02
5.905327200889587402e-02 -2.213733345270156860e-01 -1.812735646963119507e-01
5.176380276679992676e-02 -2.335044890642166138e-01 -1.840301454067230225e-01
6.958363950252532959e-02 -1.727583110332489014e-01 -2.569001540541648865e-02
-2.502420544624328613e-02 -2.627739906311035156e-01 -1.267570257186889648e-01
9.994043409824371338e-02 -2.350964397192001343e-01 -9.720467031002044678e-02
4.926456511020660400e-02 -3.037704229354858398e-01 2.149146795272827148e-02
8.438049256801605225e-02 -2.884871959686279297e-01 -2.057997509837150574e-02
5.091804265975952148e-02 -2.640534341335296631e-01 -1.602855622768402100e-01
4.539746791124343872e-03 -1.511678993701934814e-01 -3.688728436827659607e-02
-4.008824750781059265e-02 -2.574345171451568604e-01 -1.001780480146408081e-01
9.624606370925903320e-02 -2.018023133277893066e-01 -5.685884878039360046e-02
5.884325131773948669e-03 -1.509279310703277588e-01 -1.092027202248573303e-01
2.087249234318733215e-02 -3.062071800231933594e-01 -5.096597224473953247e-02
-4.545764997601509094e-03 -1.901266872882843018e-01 6.397322565317153931e-02
-3.237939625978469849e-02 -2.798297703266143799e-01 -4.771216958761215210e-02
3.341023251414299011e-02 -3.062886297702789307e-01 -5.704157426953315735e-02
5.295511335134506226e-02 -1.647152006626129150e-01 -1.316685974597930908e-02
8.661262691020965576e-02 -2.080084383487701416e-01 2.038927376270294189e-02
-2.603374421596527100e-02 -2.518055438995361328e-01 6.962610781192779541e-02
-3.256587311625480652e-03 -2.183129936456680298e-01 -1.883974969387054443e-01
6.271251291036605835e-02 -1.984568238258361816e-01 5.292310565710067749e-02
3.981431573629379272e-02 -2.774790227413177490e-01 -1.452136337757110596e-01
1.311251427978277206e-02 -2.867953181266784668e-01 -1.223835125565528870e-01
8.303610980510711670e-02 -2.869306504726409912e-01 -6.085465848445892334e-02
1.505985017865896225e-02 -3.070915043354034424e-01 -2.207887917757034302e-02
4.069128260016441345e-02 -1.741103678941726685e-01 3.239967674016952515e-02
9.287859499454498291e-02 -2.540872991085052490e-01 -1.100474223494529724e-01
-1.377012580633163452e-03 -2.980824112892150879e-01 2.390168607234954834e-02
-3.679541125893592834e-02 -1.671243458986282349e-01 -7.748715579509735107e-02
9.524689614772796631e-02 -2.355661392211914062e-01 2.227327972650527954e-02
3.897127881646156311e-02 -2.903689146041870117e-01 -1.182674169540405273e-01
-1.115589961409568787e-02 -2.856625020503997803e-01 4.803015291690826416e-02
2.536701038479804993e-02 -1.494481861591339111e-01 -8.803148567676544189e-02
-5.416059121489524841e-02 -2.405360490083694458e-01 -6.653424352407455444e-03
2.700109034776687622e-02 -1.508552432060241699e-01 -1.025642454624176025e-01
3.240284696221351624e-02 -2.979614734649658203e-01 -9.667277336120605469e-02
9.856663644313812256e-02 -2.229949235916137695e-01 -1.012410447001457214e-01
-3.234286233782768250e-02 -2.681102156639099121e-01 3.826748579740524292e-02
-4.275589063763618469e-02 -2.150966376066207886e-01 3.940633684396743774e-02
7.426607608795166016e-02 -2.573504149913787842e-01 -1.453696191310882568e-01
2.267783880233764648e-02 -1.560492813587188721e-01 -1.339673697948455811e-01
5.043099075555801392e-02 -2.197091579437255859e-01 -1.879820227622985840e-01
9.896461665630340576e-02 -2.096509039402008057e-01 -3.839980438351631165e-02
2.236152254045009613e-02 -1.591961830854415894e-01 -1.443100273609161377e-01
1.220928039401769638e-02 -1.596454679965972900e-01 5.233678966760635376e-03
7.411406934261322021e-02 -2.849819958209991455e-01 3.955715894699096680e-02
-2.806166559457778931e-02 -2.419271469116210938e-01 -1.496337354183197021e-01
2.336797118186950684e-02 -1.973626017570495605e-01 -1.934692859649658203e-01
5.409714207053184509e-02 -1.591939628124237061e-01 -9.082302451133728027e-02
3.485096246004104614e-02 -2.606869637966156006e-01 9.919729828834533691e-02
1.013377904891967773e-01 -2.537402212619781494e-01 -7.153889536857604980e-02
-2.488612383604049683e-02 -1.810977309942245483e-01 -1.532135307788848877e-01
5.534169077873229980e-02 -1.729467958211898804e-01 -1.467548906803131104e-01
-3.778228163719177246e-02 -2.518490254878997803e-01 -1.175112426280975342e-01
5.462107434868812561e-02 -2.720918655395507812e-01 -1.467736959457397461e-01
8.340848982334136963e-02 -2.884310185909271240e-01 -7.213953882455825806e-03
8.295242488384246826e-02 -2.565450966358184814e-01 5.383653938770294189e-02
-5.383234843611717224e-02 -2.215401232242584229e-01 6.332702934741973877e-03
-5.542891845107078552e-02 -2.415007054805755615e-01 -2.308913320302963257e-02
9.443266689777374268e-02 -2.033054530620574951e-01 -9.399239718914031982e-02
5.231638997793197632e-02 -1.593286842107772827e-01 -4.308022558689117432e-02
8.925130963325500488e-02 -2.191919833421707153e-01 2.794544398784637451e-02
2.788125351071357727e-02 -1.518876254558563232e-01 -3.851116448640823364e-02
5.307368189096450806e-02 -1.618299782276153564e-01 -2.800327725708484650e-02
-4.962554201483726501e-02 -2.032042145729064941e-01 -1.141478419303894043e-01
7.862783223390579224e-02 -2.718909680843353271e-01 5.105246603488922119e-02
1.117473188787698746e-02 -1.733836680650711060e-01 4.132892936468124390e-02
-7.623786106705665588e-03 -2.818608880043029785e-01 -1.139914914965629578e-01
-4.128228500485420227e-02 -1.750855594873428345e-01 -9.823575615882873535e-02
4.967263340950012207e-02 -3.048645853996276855e-01 -5.466838181018829346e-02
3.846196830272674561e-02 -1.521169543266296387e-01 -7.196822762489318848e-02
5.150475353002548218e-02 -2.431766837835311890e-01 -1.792088299989700317e-01
5.895373225212097168e-02 -2.774376571178436279e-01 -1.342840790748596191e-01
4.771841317415237427e-02 -1.841138005256652832e-01 -1.733408272266387939e-01
-5.113929137587547302e-02 -2.241523861885070801e-01 1.815403252840042114e-02
-5.667599663138389587e-02 -2.382759451866149902e-01 -3.365970402956008911e-02
-1.070218533277511597e-02 -1.731829047203063965e-01 3.056067228317260742e-02
-5.702418461441993713e-02 -2.248185575008392334e-01 -7.603133469820022583e-02
9.558968245983123779e-02 -2.127189636230468750e-01 -1.058484911918640137e-01
-5.754096433520317078e-02 -2.056929171085357666e-01 -6.632993370294570923e-02
1.666028425097465515e-02 -2.945662140846252441e-01 5.775086581707000732e-02
7.901817560195922852e-02 -2.646209299564361572e-01 5.697873979806900024e-02
-2.393691986799240112e-02 -2.168584018945693970e-01 7.206785678863525391e-02
-4.575459286570549011e-02 -2.610504031181335449e-01 -2.057660371065139771e-03
8.640618622303009033e-02 -2.739373743534088135e-01 2.885226905345916748e-02
-3.840345144271850586e-02 -2.731550335884094238e-01 -7.010295987129211426e-03
1.278101094067096710e-02 -2.996455132961273193e-01 -8.070020377635955811e-02
7.184866070747375488e-02 -1.888318955898284912e-01 2.042914927005767822e-02
-2.447972446680068970e-02 -2.708975970745086670e-01 5.240333080291748047e-02
5.417695268988609314e-02 -1.812739670276641846e-01 -1.631359755992889404e-01
-5.014900118112564087e-03 -1.504493355751037598e-01 -6.270109117031097412e-02
1.026880741119384766e-01 -2.457513511180877686e-01 -1.332411170005798340e-02
7.223825901746749878e-02 -2.981424331665039062e-01 -2.524672262370586395e-02
-1.241610944271087646e-02 -2.049925625324249268e-01 7.500727474689483643e-02
1.506718434393405914e-02 -2.450268268585205078e-01 -1.837077289819717407e-01
6.693180650472640991e-02 -2.344291359186172485e-01 -1.706618368625640869e-01
4.640066623687744141e-02 -3.014667928218841553e-01 -7.786291837692260742e-02
2.429254353046417236e-03 -1.495349109172821045e-01 -5.528547987341880798e-02
-5.724634602665901184e-02 -2.274267822504043579e-01 -1.606810837984085083e-02
8.032695949077606201e-02 -1.940727531909942627e-01 1.120480522513389587e-02
-3.094185143709182739e-03 -2.080231606960296631e-01 -1.890204250812530518e-01
8.738151192665100098e-02 -2.665515840053558350e-01 -1.072635203599929810e-01
-1.474564522504806519e-02 -2.864696979522705078e-01 3.844488412141799927e-02
1.087037380784749985e-02 -1.528415381908416748e-01 -1.222316771745681763e-01
4.307091981172561646e-02 -2.275709211826324463e-01 -1.906096190214157104e-01
-3.042975440621376038e-02 -2.333544939756393433e-01 6.785666942596435547e-02
3.816335648298263550e-02 -2.849905192852020264e-01 7.728547602891921997e-02
2.077499963343143463e-02 -1.521870642900466919e-01 -1.175967752933502197e-01
8.704537153244018555e-02 -2.378751188516616821e-01 4.603279381990432739e-02
3.973570466041564941e-02 -2.139133363962173462e-01 -1.935534030199050903e-01
8.015206456184387207e-02 -2.896304726600646973e-01 5.874674767255783081e-03
8.126538246870040894e-02 -2.484801411628723145e-01 -1.425126492977142334e-01
-4.512833431363105774e-02 -1.786775439977645874e-01 -9.002525359392166138e-02
4.841612651944160461e-02 -2.932305932044982910e-01 -1.061941534280776978e-01
2.420669794082641602e-02 -2.635385096073150635e-01 -1.668973863124847412e-01
3.843405842781066895e-02 -2.786200344562530518e-01 8.518359065055847168e-02
-4.799441620707511902e-02 -2.123758941888809204e-01 -1.222015470266342163e-01
3.086283802986145020e-02 -2.687124907970428467e-01 -1.602870821952819824e-01
7.453791797161102295e-02 -2.136439383029937744e-01 5.388537794351577759e-02
-5.090684816241264343e-02 -2.126526534557342529e-01 -1.121656447649002075e-01
6.456337869167327881e-02 -2.971267402172088623e-01 -7.179424166679382324e-02
-3.290661051869392395e-02 -2.778398096561431885e-01 -5.875248461961746216e-02
4.445385187864303589e-03 -1.562336981296539307e-01 -1.335449963808059692e-01
-2.691232785582542419e-02 -2.860970795154571533e-01 -2.699800208210945129e-02
9.015640616416931152e-02 -1.910627335309982300e-01 -6.520895659923553467e-02
2.489635720849037170e-03 -2.236034572124481201e-01 9.563741087913513184e-02
4.261607304215431213e-02 -2.887208163738250732e-01 6.972141563892364502e-02
-5.173936113715171814e-02 -2.338983714580535889e-01 -9.686356782913208008e-02
2.343261614441871643e-02 -3.074288070201873779e-01 5.559191107749938965e-03
-1.101501658558845520e-02 -2.971564829349517822e-01 -1.322479173541069031e-02
9.929777681827545166e-02 -2.382787913084030151e-01 7.149714976549148560e-03
1.007014960050582886e-01 -2.147484272718429565e-01 -7.214706391096115112e-02
1.286273822188377380e-03 -1.668201982975006104e-01 2.346877753734588623e-02
-3.744469955563545227e-03 -2.041790336370468140e-01 8.001415431499481201e-02
-2.441111579537391663e-02 -2.304622977972030640e-01 7.609966397285461426e-02
-1.363968476653099060e-02 -1.871060878038406372e-01 5.323819816112518311e-02
-3.722326084971427917e-02 -2.693625986576080322e-01 -7.676500082015991211e-02
-1.278115436434745789e-02 -2.945913076400756836e-01 -4.975900426506996155e-02
7.812388986349105835e-02 -2.849834561347961426e-01 -8.676385879516601562e-02
-3.004501014947891235e-02 -2.752723693847656250e-01 -8.351302891969680786e-02
5.481349676847457886e-02 -3.058213591575622559e-01 -2.547332458198070526e-02
7.530691102147102356e-03 -2.931225001811981201e-01 -1.000471860170364380e-01
5.654877796769142151e-02 -1.997668147087097168e-01 6.203600764274597168e-02
6.952854990959167480e-02 -2.885185778141021729e-01 -9.481665492057800293e-02
-5.536470562219619751e-04 -1.619875282049179077e-01 8.724983781576156616e-03
-1.830039545893669128e-02 7.074663043022155762e-01 -5.530141666531562805e-02
-1.503271050751209259e-02 8.086358308792114258e-01 -3.219485282897949219e-02
-2.133418992161750793e-02 7.252944111824035645e-01 2.606501616537570953e-02
1.637070253491401672e-02 7.223488688468933105e-01 -8.919370174407958984e-02
-2.066945470869541168e-02 7.607362866401672363e-01 1.040046941488981247e-02
2.677006274461746216e-02 7.355592250823974609e-01 -3.241240512579679489e-03
6.032398436218500137e-03 8.184837698936462402e-01 -9.962239116430282593e-02
-1.819479838013648987e-02 6.699546575546264648e-01 -8.531775325536727905e-03
2.322153002023696899e-02 7.937241792678833008e-01 3.219927847385406494e-02
-1.661388389766216278e-02 8.010611534118652344e-01 -1.831386983394622803e-02
2.061935514211654663e-02 7.951461076736450195e-01 -7.459017634391784668e-02
7.515558507293462753e-03 6.459931135177612305e-01 -3.903480991721153259e-02
-3.197872079908847809e-03 7.524669170379638672e-01 -1.149827167391777039e-01
2.238337136805057526e-02 8.020291924476623535e-01 -5.700308829545974731e-02
-5.914219655096530914e-03 7.431879043579101562e-01 1.013681590557098389e-01
2.307281829416751862e-02 7.006024718284606934e-01 3.966469690203666687e-02
-1.439373381435871124e-02 7.815351486206054688e-01 5.287702381610870361e-02
1.225786935538053513e-02 7.128279805183410645e-01 -9.633721411228179932e-02
-1.315011177211999893e-03 8.426592350006103516e-01 1.752226613461971283e-02
-1.705727074295282364e-03 7.891367077827453613e-01 -1.116771921515464783e-01
-2.148564532399177551e-02 7.431125044822692871e-01 -2.524688094854354858e-02
2.619734779000282288e-02 7.816016674041748047e-01 1.952945953235030174e-03
-2.376346848905086517e-03 7.635889053344726562e-01 -1.157887354493141174e-01
2.666730061173439026e-02 7.749592065811157227e-01 -9.540159255266189575e-03
-8.145194500684738159e-03 8.364995718002319336e-01 -2.359648607671260834e-02
-1.819194853305816650e-02 7.856399416923522949e-01 -3.623776882886886597e-02
-1.471136137843132019e-02 6.499932408332824707e-01 1.345289871096611023e-02
9.508589282631874084e-03 6.434732675552368164e-01 -2.526466548442840576e-02
1.831694692373275757e-02 7.646741867065429688e-01 -9.225832670927047729e-02
1.734647899866104126e-02 7.876019477844238281e-01 6.990770250558853149e-02
1.839043945074081421e-02 6.803129315376281738e-01 -4.364410042762756348e-02
-1.195399742573499680e-02 8.209159970283508301e-01 -4.251790046691894531e-02
-2.189897000789642334e-02 7.169384956359863281e-01 1.065614540129899979e-02
-5.651560612022876740e-03 8.407753109931945801e-01 -2.477489179000258446e-03
-1.325271092355251312e-02 7.367839813232421875e-01 8.288014680147171021e-02
2.565610222518444061e-02 7.633026838302612305e-01 -4.326000809669494629e-02
2.454379387199878693e-02 7.052223086357116699e-01 -1.226713135838508606e-02
1.486320048570632935e-02 6.530474424362182617e-01 -1.294602919369935989e-02
2.024643495678901672e-02 7.646870017051696777e-01 6.988985091447830200e-02
-8.137629367411136627e-03 6.389048695564270020e-01 -2.122934721410274506e-02
1.588332653045654297e-02 7.724311351776123047e-01 -1.002332866191864014e-01
-1.461753621697425842e-02 6.655194759368896484e-01 5.735025927424430847e-02
-1.367363519966602325e-02 7.520385980606079102e-01 7.606029510498046875e-02
3.395452164113521576e-03 7.632364630699157715e-01 1.029961928725242615e-01
1.683422178030014038e-02 7.991710305213928223e-01 6.304612010717391968e-02
2.211813814938068390e-02 6.831358671188354492e-01 1.003974862396717072e-02
2.390824072062969208e-02 6.966429352760314941e-01 4.069377668201923370e-03
-1.955177076160907745e-02 6.824776530265808105e-01 -1.526593603193759918e-02
-4.371504765003919601e-03 6.280465126037597656e-01 1.296735554933547974e-02
-8.528034202754497528e-03 7.602764964103698730e-01 8.981475234031677246e-02
1.799403131008148193e-02 8.349292874336242676e-01 -3.836159408092498779e-02
-7.603175006806850433e-03 7.722645998001098633e-01 -1.059802174568176270e-01
2.159485779702663422e-02 8.216636180877685547e-01 -7.482366636395454407e-03
-1.611672155559062958e-02 6.729968786239624023e-01 -3.942792490124702454e-02
2.350505627691745758e-02 7.713775038719177246e-01 -6.361027806997299194e-02
-4.435144364833831787e-05 8.105349540710449219e-01 -1.032697707414627075e-01
-2.032243087887763977e-02 7.693057060241699219e-01 -1.864776574075222015e-02
-1.334624178707599640e-02 7.008466124534606934e-01 -7.810822874307632446e-02
1.038825511932373047e-02 8.440549373626708984e-01 -6.233570724725723267e-02
6.226825527846813202e-03 6.362853050231933594e-01 -1.925344951450824738e-02
-8.994975127279758453e-03 7.897173166275024414e-01 -9.624250978231430054e-02
-1.721572689712047577e-02 7.697418928146362305e-01 -6.447012722492218018e-02
1.575616374611854553e-02 6.740691065788269043e-01 -5.102680996060371399e-02
1.522429846227169037e-02 6.584980487823486328e-01 -2.594131231307983398e-02
-1.453732699155807495e-02 6.504889130592346191e-01 2.569791674613952637e-02
-1.909542642533779144e-02 7.294479608535766602e-01 5.144466832280158997e-02
-1.686153374612331390e-02 6.911689639091491699e-01 6.254057586193084717e-02
1.123210042715072632e-02 8.509460687637329102e-01 -2.719130367040634155e-02
2.017686888575553894e-02 6.716070175170898438e-01 1.013108808547258377e-02
-1.864068210124969482e-02 7.564961910247802734e-01 4.310235753655433655e-02
1.353786233812570572e-02 7.390092015266418457e-01 9.797036647796630859e-02
-1.330265775322914124e-02 7.902530431747436523e-01 -7.744681835174560547e-02
-1.506682112812995911e-02 7.888662219047546387e-01 4.034195467829704285e-02
-1.632018014788627625e-02 7.757003307342529297e-01 4.567660391330718994e-02
2.288282662630081177e-02 6.905437707901000977e-01 -9.514524601399898529e-03
2.337909117341041565e-02 7.313936948776245117e-01 5.529574304819107056e-02
7.222091313451528549e-03 8.527752757072448730e-01 -4.059973359107971191e-02
-2.123454585671424866e-02 7.552776932716369629e-01 -1.843105256557464600e-02
-1.230084151029586792e-02 8.197610378265380859e-01 3.596948692575097084e-03
-8.952153846621513367e-03 6.355456113815307617e-01 -3.036041744053363800e-03
-1.308387145400047302e-02 7.703461647033691406e-01 -8.845987170934677124e-02
1.739096269011497498e-02 7.130219936370849609e-01 -8.031887561082839966e-02
1.664375513792037964e-02 6.587456464767456055e-01 3.537301346659660339e-02
-1.610079966485500336e-02 6.784193515777587891e-01 -4.640704020857810974e-02
9.843587176874279976e-04 6.384807825088500977e-01 -3.527996689081192017e-02
-1.979055628180503845e-02 6.900776624679565430e-01 -2.505147457122802734e-02
-1.464784331619739532e-02 8.045608401298522949e-01 -5.031149461865425110e-02
2.242943458259105682e-02 6.878769993782043457e-01 2.569524012506008148e-02
1.855629496276378632e-02 6.637147068977355957e-01 8.667148649692535400e-03
1.943027414381504059e-02 7.083129882812500000e-01 -6.747658550739288330e-02
1.741936244070529938e-02 8.048779964447021484e-01 -8.465342968702316284e-02
1.029196754097938538e-02 7.999670505523681641e-01 7.788389921188354492e-02
1.037246454507112503e-02 8.191121220588684082e-01 5.963784828782081604e-02
-1.492878235876560211e-02 8.106299042701721191e-01 -1.888743788003921509e-02
1.736653968691825867e-02 6.618540883064270020e-01 -1.245076209306716919e-02
2.560055814683437347e-02 7.477303147315979004e-01 3.481846675276756287e-02
1.275261957198381424e-02 6.445420980453491211e-01 3.021674975752830505e-02
2.521717362105846405e-02 7.959839105606079102e-01 -6.094563752412796021e-03
2.034769020974636078e-02 6.798266172409057617e-01 -2.443363144993782043e-02
-1.387949800118803978e-03 8.030775189399719238e-01 7.565323263406753540e-02
2.202617190778255463e-02 7.451914548873901367e-01 -7.180653512477874756e-02
2.016119286417961121e-02 8.236491680145263672e-01 1.066989358514547348e-02
2.398992143571376801e-02 8.073318600654602051e-01 -1.151078939437866211e-02
-1.325083523988723755e-02 7.592193484306335449e-01 -9.028103947639465332e-02
-1.425894442945718765e-03 8.449589610099792480e-01 -5.573531985282897949e-02
5.873040296137332916e-03 7.331382632255554199e-01 1.094681322574615479e-01
-1.249944698065519333e-02 6.424257755279541016e-01 1.089551579207181931e-02
-1.370900496840476990e-02 7.138754725456237793e-01 8.356473594903945923e-02
2.476952038705348969e-02 7.805788516998291016e-01 2.951295301318168640e-02
1.765012368559837341e-02 7.830156683921813965e-01 -9.270435571670532227e-02
2.322970703244209290e-02 7.302415370941162109e-01 -5.739899724721908569e-02
2.290445379912853241e-02 6.938826441764831543e-01 -1.922049745917320251e-02
-1.158246770501136780e-02 7.430378198623657227e-01 -9.696428477764129639e-02
-1.742950268089771271e-02 6.644089221954345703e-01 2.301940321922302246e-02
2.205759286880493164e-02 6.956429481506347656e-01 4.572195187211036682e-02
8.544795215129852295e-03 8.281478285789489746e-01 -8.918663114309310913e-02
1.332451123744249344e-02 8.019834160804748535e-01 7.074325531721115112e-02
9.318116120994091034e-03 6.896662712097167969e-01 -8.784446120262145996e-02
-1.565269939601421356e-02 6.942123174667358398e-01 -6.346093863248825073e-02
-1.490702852606773376e-02 8.064355850219726562e-01 -4.250589385628700256e-02
2.171454951167106628e-02 7.566744089126586914e-01 6.485272943973541260e-02
2.704736031591892242e-02 7.570617198944091797e-01 -1.200364902615547180e-02
-1.029392611235380173e-02 7.969865202903747559e-01 -8.725734055042266846e-02
1.674010232090950012e-02 8.168823719024658203e-01 4.491907730698585510e-02
2.533895149827003479e-02 7.194533348083496094e-01 -2.359380200505256653e-02
2.103733643889427185e-02 7.209120392799377441e-01 6.903538107872009277e-02
-6.780228577554225922e-04 6.351721286773681641e-01 5.861254408955574036e-02
1.759854145348072052e-02 8.215214610099792480e-01 -6.930126994848251343e-02
-1.671985350549221039e-02 7.219603061676025391e-01 6.888158619403839111e-02
2.367563312873244286e-03 8.453416824340820312e-01 -6.476765871047973633e-02
-1.711737737059593201e-02 7.771721482276916504e-01 3.756834194064140320e-02
2.153305336833000183e-02 7.682603001594543457e-01 6.187604740262031555e-02
8.782086893916130066e-03 7.219516634941101074e-01 1.071348637342453003e-01
-1.589858531951904297e-02 7.575325369834899902e-01 -7.769405096769332886e-02
1.771412044763565063e-02 8.377462029457092285e-01 -2.202753536403179169e-02
-1.374923391267657280e-03 8.000878691673278809e-01 -1.076289638876914978e-01
1.956858672201633453e-02 7.560939788818359375e-01 -8.660679310560226440e-02
1.868383213877677917e-02 6.837785840034484863e-01 6.184642389416694641e-02
-3.418841399252414703e-03 6.672995686531066895e-01 9.403185546398162842e-02
2.673645736649632454e-03 8.254349231719970703e-01 -9.371836483478546143e-02
1.112464349716901779e-02 8.500761389732360840e-01 -8.077143691480159760e-03
-1.206747256219387054e-02 8.104398846626281738e-01 -6.419681012630462646e-02
-1.907266862690448761e-02 6.741455197334289551e-01 2.468952210620045662e-03
2.541413530707359314e-02 7.912685275077819824e-01 -2.708285860717296600e-02
-1.521572284400463104e-02 6.617918014526367188e-01 4.762153699994087219e-02
-1.170962676405906677e-02 8.036921024322509766e-01 4.293332248926162720e-02
-1.319404691457748413e-02 8.023027777671813965e-01 -6.681711226701736450e-02
2.501581795513629913e-02 7.185616493225097656e-01 3.150923177599906921e-02
1.356957759708166122e-02 8.385950326919555664e-01 2.075686492025852203e-02
2.346010878682136536e-02 7.689271569252014160e-01 4.908845573663711548e-02
2.854731632396578789e-03 7.331726551055908203e-01 -1.149827465415000916e-01
1.273309625685214996e-02 7.964212298393249512e-01 -1.028309166431427002e-01
1.906245760619640350e-02 8.040979504585266113e-01 4.912737384438514709e-02
-1.966807618737220764e-02 7.340380549430847168e-01 4.512158781290054321e-02
2.200843021273612976e-02 7.802878022193908691e-01 5.266435816884040833e-02
-2.108057029545307159e-03 6.517680883407592773e-01 8.246502280235290527e-02
-2.173124998807907104e-02 7.385061383247375488e-01 1.170535758137702942e-02
-2.175644598901271820e-02 7.245284914970397949e-01 1.710646413266658783e-02
2.422905527055263519e-02 7.892912030220031738e-01 -4.941744357347488403e-02
2.105275169014930725e-02 6.787421703338623047e-01 -9.482109919190406799e-03
1.908490620553493500e-02 7.951477766036987305e-01 -8.260215073823928833e-02
2.672588452696800232e-02 7.627640366554260254e-01 1.121742464601993561e-02
1.116852369159460068e-02 8.265597224235534668e-01 4.889532178640365601e-02
1.052143704146146774e-02 6.670560836791992188e-01 8.345098793506622314e-02
2.644342370331287384e-02 7.784844040870666504e-01 -1.700421050190925598e-02
-2.007329463958740234e-02 6.982680559158325195e-01 3.685946017503738403e-02
1.509245578199625015e-02 6.960647702217102051e-01 8.757665008306503296e-02
-2.305904403328895569e-03 8.364691138267517090e-01 -7.194980233907699585e-02
-2.157110534608364105e-02 7.115553617477416992e-01 1.826562359929084778e-02
1.487754005938768387e-02 7.513811588287353516e-01 -1.024406403303146362e-01
-1.338270679116249084e-02 6.495916843414306641e-01 -1.520320586860179901e-02
-9.660698473453521729e-03 6.353149414062500000e-01 1.543931476771831512e-02
-1.437473669648170471e-02 6.502407789230346680e-01 -4.043792374432086945e-03
-2.013933658599853516e-02 7.698936462402343750e-01 4.162891767919063568e-03
3.653478343039751053e-03 6.294644474983215332e-01 3.424268960952758789e-02
-2.041083760559558868e-02 7.623504996299743652e-01 -3.151189908385276794e-02
-1.487846300005912781e-02 6.607578396797180176e-01 -2.898300811648368835e-02
-5.336456000804901123e-03 6.473357677459716797e-01 -4.721520841121673584e-02
2.198292687535285950e-02 7.910410761833190918e-01 4.465848580002784729e-02
-1.165344659239053726e-02 6.409335136413574219e-01 2.681067213416099548e-02
2.560780756175518036e-02 7.247561812400817871e-01 2.682472020387649536e-02
-1.126213837414979935e-02 8.262475132942199707e-01 -2.792300470173358917e-02
-1.169415097683668137e-02 8.192361593246459961e-01 -5.077365785837173462e-02
-2.162496373057365417e-02 7.044953703880310059e-01 7.009760010987520218e-04
-1.192495692521333694e-02 6.722114682197570801e-01 -6.103605404496192932e-02
-1.752763241529464722e-02 7.921866774559020996e-01 5.166370421648025513e-03
-1.598011888563632965e-02 7.085484266281127930e-01 -7.029922306537628174e-02
-2.102744951844215393e-02 7.477645874023437500e-01 -3.255100548267364502e-02
-1.927137933671474457e-02 7.054536342620849609e-01 -4.599666595458984375e-02
-4.057630896568298340e-03 7.805030345916748047e-01 8.851721882820129395e-02
-1.860806718468666077e-02 7.722593545913696289e-01 2.801439911127090454e-02
1.675724610686302185e-02 8.373987674713134766e-01 3.303265897557139397e-03
-9.434989187866449356e-04 6.772054433822631836e-01 -8.589947968721389771e-02
-9.569725953042507172e-03 6.530647277832031250e-01 6.828874349594116211e-02
-1.681624725461006165e-02 6.597392559051513672e-01 1.505709812045097351e-02
1.409284863620996475e-02 7.286959886550903320e-01 9.717343002557754517e-02
1.866068504750728607e-02 8.226734399795532227e-01 2.591557428240776062e-02
-8.328579366207122803e-03 7.764875888824462891e-01 8.160235732793807983e-02
6.251442246139049530e-03 8.522031307220458984e-01 -2.220542635768651962e-03
-1.958255842328071594e-02 7.317577600479125977e-01 -5.308441445231437683e-02
3.573270048946142197e-03 6.977479457855224609e-01 1.085166707634925842e-01
1.027176994830369949e-02 7.438151836395263672e-01 1.034173592925071716e-01
-1.283890660852193832e-02 6.732819080352783203e-01 7.398533821105957031e-02
2.287489920854568481e-02 7.159783244132995605e-01 5.425859987735748291e-02
-2.148643694818019867e-02 7.145959734916687012e-01 -2.240871079266071320e-02
5.043298006057739258e-03 6.554915904998779297e-01 -6.000410020351409912e-02
2.031438797712326050e-02 6.987242102622985840e-01 6.341947615146636963e-02
2.615535072982311249e-02 7.593426704406738281e-01 -3.617464378476142883e-02
6.277557462453842163e-03 8.089078664779663086e-01 7.396694272756576538e-02
-1.007306110113859177e-02 8.285814523696899414e-01 -1.722776796668767929e-04
-1.858516037464141846e-02 6.746121644973754883e-01 -1.475161872804164886e-02
-1.949703134596347809e-02 7.715435624122619629e-01 -3.697937726974487305e-02
-2.035526931285858154e-02 7.286798954010009766e-01 3.925425186753273010e-02
-6.242032162845134735e-03 8.386799693107604980e-01 -4.545610398054122925e-02
-1.228964794427156448e-02 6.581261157989501953e-01 -4.124255105853080750e-02
-8.352077566087245941e-03 7.028256654739379883e-01 -9.375569224357604980e-02
1.690122112631797791e-02 7.266947031021118164e-01 8.869972079992294312e-02
2.204806543886661530e-02 6.879158616065979004e-01 3.343697264790534973e-02
-9.209957905113697052e-03 7.823797464370727539e-01 7.492693513631820679e-02
-1.903067901730537415e-02 6.956579685211181641e-01 4.727356508374214172e-02
1.930242963135242462e-02 6.721599102020263672e-01 -1.845792122185230255e-02
1.432685274630784988e-02 6.862412095069885254e-01 8.523306250572204590e-02
1.157302502542734146e-02 6.709191203117370605e-01 -6.445266306400299072e-02
1.971609517931938171e-02 7.739077210426330566e-01 -8.580525219440460205e-02
1.478162035346031189e-02 7.136163711547851562e-01 9.392246603965759277e-02
-9.616584517061710358e-03 8.244621753692626953e-01 -5.774328485131263733e-02
1.966167055070400238e-02 7.472473382949829102e-01 -8.476413786411285400e-02
-1.230168808251619339e-02 8.225934505462646484e-01 -1.813663542270660400e-02
8.936480619013309479e-03 7.757342457771301270e-01 -1.140017732977867126e-01
1.983860135078430176e-02 6.970964670181274414e-01 -5.490936711430549622e-02
1.659710332751274109e-02 7.049713730812072754e-01 8.552224189043045044e-02
-1.240517757833003998e-02 6.958948969841003418e-01 8.601050078868865967e-02
-7.552498951554298401e-03 8.376374840736389160e-01 -3.170635551214218140e-02
2.259998815134167671e-03 6.285654902458190918e-01 -7.700782734900712967e-04
-9.601647034287452698e-03 7.977969646453857422e-01 6.001145020127296448e-02
-1.859131269156932831e-02 7.797997593879699707e-01 1.620944775640964508e-02
2.052854560315608978e-02 8.124628663063049316e-01 2.980497479438781738e-02
1.134864427149295807e-02 6.995462775230407715e-01 -9.061583131551742554e-02
-1.922970451414585114e-02 7.644370198249816895e-01 -4.820822551846504211e-02
-1.628963463008403778e-02 6.966601014137268066e-01 6.831177324056625366e-02
-1.520909182727336884e-02 7.239507436752319336e-01 7.663603127002716064e-02
-5.212545394897460938e-03 7.001978158950805664e-01 1.044289842247962952e-01
-1.472635753452777863e-02 6.757885217666625977e-01 6.630699336528778076e-02
3.276601899415254593e-03 8.391390442848205566e-01 3.429213166236877441e-02
