-6.894354820251464844e-01 3.086538612842559814e-02 -9.009045362472534180e-02
-5.166737437248229980e-01 1.981545239686965942e-02 -1.494475305080413818e-01
-8.397203683853149414e-01 1.147459149360656738e-01 -9.967815130949020386e-02
-8.630328178405761719e-01 1.488925367593765259e-01 -9.386928379535675049e-02
-7.098116874694824219e-01 4.086622595787048340e-02 -1.069608032703399658e-01
-6.727097034454345703e-01 3.795513138175010681e-02 -1.476307362318038940e-01
-6.701467633247375488e-01 1.671198606491088867e-01 -1.671740710735321045e-01
-8.372857570648193359e-01 1.647979319095611572e-01 -1.417252719402313232e-01
-6.947835087776184082e-01 1.837529838085174561e-01 1.084640100598335266e-01
-5.756966471672058105e-01 -3.452181816101074219e-03 1.620471663773059845e-02
-4.810817837715148926e-01 1.234017163515090942e-01 5.612710863351821899e-02
-7.556850910186767578e-01 6.616907566785812378e-02 8.292517066001892090e-02
-6.645352840423583984e-01 1.100801229476928711e-01 2.104581296443939209e-01
-4.387618601322174072e-01 8.508716523647308350e-02 -6.648513674736022949e-02
-6.434916853904724121e-01 2.786018699407577515e-02 -1.404885053634643555e-01
-4.446142017841339111e-01 7.236166298389434814e-02 1.407588422298431396e-01
-5.916577577590942383e-01 1.728088706731796265e-01 1.249249652028083801e-02
-7.976003289222717285e-01 2.015774846076965332e-01 1.776131615042686462e-02
-5.605217814445495605e-01 1.405008733272552490e-01 1.469564288854598999e-01
-5.516490936279296875e-01 3.711516782641410828e-02 -1.840788722038269043e-01
-6.081868410110473633e-01 1.643121838569641113e-01 -1.198494583368301392e-01
-4.748392105102539062e-01 7.589399814605712891e-03 -1.046174317598342896e-01
-8.317751288414001465e-01 1.952943801879882812e-01 9.880671277642250061e-03
-4.906928241252899170e-01 1.304810345172882080e-01 2.554715797305107117e-02
-6.793089509010314941e-01 6.424208730459213257e-02 -2.017595767974853516e-01
-4.580693244934082031e-01 1.012187972664833069e-01 -6.764152646064758301e-02
-5.770619511604309082e-01 1.600596755743026733e-01 -8.756762742996215820e-02
-7.396319508552551270e-01 4.790767282247543335e-02 -6.989394873380661011e-02
-6.640439033508300781e-01 1.306085288524627686e-01 2.020359039306640625e-01
-7.024346590042114258e-01 6.423687189817428589e-02 -1.880880445241928101e-01
-7.063400149345397949e-01 4.491471126675605774e-02 9.438576549291610718e-02
-4.880960583686828613e-01 1.246824041008949280e-01 7.707051932811737061e-02
-6.586245894432067871e-01 2.936317771673202515e-02 -1.313354074954986572e-01
-7.651548385620117188e-01 1.823631823062896729e-01 -1.549439877271652222e-01
-5.571161508560180664e-01 -6.454013288021087646e-03 1.427844725549221039e-02
-7.478470206260681152e-01 1.774358451366424561e-01 -1.669266819953918457e-01
-5.383961200714111328e-01 7.182346284389495850e-02 -1.999032795429229736e-01
-5.878476500511169434e-01 1.739157736301422119e-02 1.331429332494735718e-01
-7.246218323707580566e-01 7.540412247180938721e-02 1.513185054063796997e-01
-5.717198252677917480e-01 4.067616537213325500e-02 1.897074729204177856e-01
-5.928271412849426270e-01 1.041418313980102539e-02 -1.120418310165405273e-01
-4.636669456958770752e-01 1.068667396903038025e-01 9.469959884881973267e-02
-4.589964151382446289e-01 1.484721899032592773e-03 1.001766994595527649e-01
-4.857777357101440430e-01 6.356568634510040283e-02 -1.636523306369781494e-01
-7.696512937545776367e-01 6.023035570979118347e-02 -1.582036539912223816e-02
-7.095565199851989746e-01 1.763246953487396240e-01 1.346222609281539917e-01
-4.135619997978210449e-01 7.351629436016082764e-03 5.676766484975814819e-02
-7.716549038887023926e-01 6.834360957145690918e-02 5.271581932902336121e-02
-5.142527222633361816e-01 2.064342796802520752e-02 1.628905236721038818e-01
-4.868693649768829346e-01 3.416717052459716797e-03 1.176842674612998962e-01
-5.958809256553649902e-01 1.734521389007568359e-01 -2.854767255485057831e-02
-6.420936584472656250e-01 1.869712471961975098e-01 1.583721116185188293e-02
-4.977361559867858887e-01 1.121418178081512451e-01 -1.200471296906471252e-01
-8.556699156761169434e-01 1.532449573278427124e-01 -1.161903366446495056e-01
-4.778634309768676758e-01 1.201962158083915710e-01 -3.759030997753143311e-02
-5.699558258056640625e-01 2.397558838129043579e-02 1.601801067590713501e-01
-7.249531745910644531e-01 3.953031450510025024e-02 -3.265012800693511963e-02
-6.405859589576721191e-01 1.111533492803573608e-02 1.176567934453487396e-02
-6.358520984649658203e-01 1.076225191354751587e-01 -2.282793074846267700e-01
-6.393117904663085938e-01 1.556888967752456665e-02 -8.679886162281036377e-02
-3.944511413574218750e-01 3.395284712314605713e-02 4.361445829272270203e-02
-6.317241787910461426e-01 1.459999084472656250e-01 1.802175939083099365e-01
-6.342798471450805664e-01 4.690771922469139099e-02 1.745312809944152832e-01
-4.440273046493530273e-01 9.603016078472137451e-02 -4.214871674776077271e-02
-8.647347688674926758e-01 1.428249180316925049e-01 5.835835356265306473e-03
-5.586414933204650879e-01 -5.044542253017425537e-03 3.790307790040969849e-02
-4.216811656951904297e-01 5.155174806714057922e-02 1.222562044858932495e-01
-4.336307048797607422e-01 -1.192718744277954102e-03 -2.603423967957496643e-02
-5.057666301727294922e-01 -6.353013217449188232e-03 7.299239188432693481e-02
-7.130572795867919922e-01 5.523728579282760620e-02 -1.578502804040908813e-01
-6.135447621345520020e-01 9.314294159412384033e-02 -2.265662401914596558e-01
-6.891093850135803223e-01 1.747874170541763306e-01 1.351952254772186279e-01
-5.620085597038269043e-01 1.440308243036270142e-01 -1.283696740865707397e-01
-7.558282613754272461e-01 1.243961825966835022e-01 1.689966320991516113e-01
-5.893444418907165527e-01 1.685428917407989502e-01 -6.040847674012184143e-02
-6.855927705764770508e-01 2.454275637865066528e-02 -2.216375060379505157e-02
-7.045227289199829102e-01 3.743946179747581482e-02 6.083815544843673706e-02
-7.134805321693420410e-01 1.976269781589508057e-01 -7.169877737760543823e-02
-5.901180505752563477e-01 -1.114040613174438477e-03 -1.183420047163963318e-02
-4.759619832038879395e-01 -9.336538612842559814e-03 -2.489594370126724243e-02
-7.118024826049804688e-01 1.998253315687179565e-01 1.674905233085155487e-02
-4.785995483398437500e-01 1.116013601422309875e-01 -8.356378972530364990e-02
-4.729025363922119141e-01 8.940104395151138306e-02 -1.266836374998092651e-01
-6.177382469177246094e-01 1.737278997898101807e-01 -8.922219276428222656e-02
-4.560068845748901367e-01 1.099243462085723877e-01 7.809572387486696243e-03
-7.879372835159301758e-01 7.023618370294570923e-02 -1.656134054064750671e-02
-8.176509141921997070e-01 9.536820650100708008e-02 3.428125381469726562e-02
-7.337473034858703613e-01 1.726923584938049316e-01 -1.760434508323669434e-01
-7.175410985946655273e-01 2.010055482387542725e-01 -3.409768640995025635e-02
-4.904065430164337158e-01 6.939235329627990723e-02 1.891864091157913208e-01
-6.541059017181396484e-01 1.495256274938583374e-02 -3.593076020479202271e-02
-6.553000807762145996e-01 2.806489914655685425e-02 1.048023402690887451e-01
-5.119401812553405762e-01 -1.071968674659729004e-02 1.899561099708080292e-02
-6.092925667762756348e-01 1.760133504867553711e-01 5.123951286077499390e-02
-6.342479586601257324e-01 4.060827940702438354e-02 -1.804028004407882690e-01
-7.893576025962829590e-01 1.028340905904769897e-01 -1.717358827590942383e-01
-7.185940742492675781e-01 1.403235346078872681e-01 1.849180012941360474e-01
-7.204115986824035645e-01 1.540443152189254761e-01 1.724527180194854736e-01
-4.181197285652160645e-01 3.536833077669143677e-02 1.177111715078353882e-01
-4.634801149368286133e-01 7.737126946449279785e-02 1.602132320404052734e-01
-4.864909648895263672e-01 9.634321182966232300e-02 -1.353041231632232666e-01
-6.556984782218933105e-01 1.625028550624847412e-01 1.557227671146392822e-01
-7.500823736190795898e-01 7.203979790210723877e-02 1.115844473242759705e-01
-8.505407571792602539e-01 1.300532668828964233e-01 -1.061620041728019714e-01
-4.544581472873687744e-01 1.058407574892044067e-01 -3.036080300807952881e-02
-6.850015521049499512e-01 3.288553655147552490e-02 -1.110762134194374084e-01
-3.964235186576843262e-01 4.819139465689659119e-02 1.198804937303066254e-02
-8.466506004333496094e-01 1.751780360937118530e-01 -1.151393279433250427e-01
-5.629755854606628418e-01 1.608645617961883545e-01 5.198621749877929688e-02
-6.092124581336975098e-01 1.712009310722351074e-02 1.147127598524093628e-01
-6.192179322242736816e-01 1.282461285591125488e-01 -2.079037725925445557e-01
-4.375247359275817871e-01 1.127190887928009033e-03 -4.642879590392112732e-02
-5.748573541641235352e-01 1.582739204168319702e-01 1.000748202204704285e-01
-7.002131938934326172e-01 1.070112213492393494e-01 1.980061382055282593e-01
-5.981484651565551758e-01 1.510496735572814941e-01 -1.516079902648925781e-01
-7.152163982391357422e-01 5.242394283413887024e-02 1.074378937482833862e-01
-5.709975957870483398e-01 1.620128005743026733e-02 1.395094841718673706e-01
-4.838532209396362305e-01 9.605827182531356812e-02 1.590591371059417725e-01
-6.644812226295471191e-01 1.501508206129074097e-01 -1.982124447822570801e-01
-7.859599590301513672e-01 1.933487057685852051e-01 -1.179958134889602661e-01
-7.042824029922485352e-01 1.298730373382568359e-01 -2.248046100139617920e-01
-6.239533424377441406e-01 6.571009755134582520e-03 -2.594965510070323944e-02
-7.357934117317199707e-01 4.906371980905532837e-02 4.802019521594047546e-02
-4.015690386295318604e-01 5.161471664905548096e-02 6.580050289630889893e-02
-4.679918289184570312e-01 -9.744867682456970215e-03 -8.327793329954147339e-03
-8.530983924865722656e-01 1.888153851032257080e-01 -2.583771198987960815e-02
-5.645326375961303711e-01 1.349797844886779785e-01 1.643221974372863770e-01
-5.579084753990173340e-01 6.397212296724319458e-02 -2.070944756269454956e-01
-5.281783938407897949e-01 1.212259382009506226e-02 -1.346227973699569702e-01
-8.580515384674072266e-01 1.778931319713592529e-01 -8.457938581705093384e-02
-4.681494235992431641e-01 -7.003054022789001465e-03 6.222999095916748047e-02
-7.467077970504760742e-01 1.848667860031127930e-01 1.109545528888702393e-01
-3.992038369178771973e-01 3.062976151704788208e-02 -2.460633777081966400e-02
-7.504453659057617188e-01 1.623669862747192383e-01 1.533477157354354858e-01
-7.549895048141479492e-01 1.963039338588714600e-01 6.788609921932220459e-02
-8.325987458229064941e-01 1.704575866460800171e-01 7.973398268222808838e-02
-6.345984339714050293e-01 9.043999016284942627e-03 -8.411183953285217285e-03
-5.661017894744873047e-01 -5.345731973648071289e-03 -6.007072515785694122e-04
-6.203779578208923340e-01 5.222398787736892700e-02 -2.036072611808776855e-01
-7.853955030441284180e-01 1.097212210297584534e-01 1.312417685985565186e-01
-6.356867551803588867e-01 1.374464035034179688e-01 -2.043144255876541138e-01
-8.012836575508117676e-01 1.984254121780395508e-01 -8.757119625806808472e-02
-7.591443061828613281e-01 6.431589275598526001e-02 -1.174851730465888977e-01
-7.590832114219665527e-01 1.702674925327301025e-01 -1.802598983049392700e-01
-6.395515799522399902e-01 6.937199085950851440e-02 2.018579989671707153e-01
-4.045898318290710449e-01 6.261381506919860840e-02 4.270613193511962891e-02
-4.022901356220245361e-01 5.463471636176109314e-02 -1.622119918465614319e-02
-8.589731454849243164e-01 1.275689154863357544e-01 -1.891791261732578278e-02
-5.411059260368347168e-01 1.377525925636291504e-01 1.319756805896759033e-01
-7.309570312500000000e-01 5.207163468003273010e-02 7.715883851051330566e-02
-5.081881880760192871e-01 1.125285476446151733e-01 -1.352442204952239990e-01
-6.188132166862487793e-01 1.781709641218185425e-01 -5.895270034670829773e-02
-4.090113639831542969e-01 1.577052474021911621e-02 7.524310052394866943e-02
-7.933332324028015137e-01 7.642541080713272095e-02 2.203180827200412750e-02
-6.368665695190429688e-01 1.125007122755050659e-02 3.172529488801956177e-02
-8.618796467781066895e-01 1.809787452220916748e-01 -5.524505302309989929e-02
-8.559930920600891113e-01 1.272590160369873047e-01 -7.590903341770172119e-02
-4.653870165348052979e-01 5.577452853322029114e-02 1.737137287855148315e-01
-5.743461847305297852e-01 1.446866989135742188e-01 -1.425699740648269653e-01
-5.731242299079895020e-01 5.416319519281387329e-02 2.047137171030044556e-01
-6.126848459243774414e-01 6.175801157951354980e-03 -6.074360013008117676e-02
-8.315168619155883789e-01 1.923663467168807983e-01 2.778906375169754028e-02
-6.431736350059509277e-01 1.771405935287475586e-01 1.005945056676864624e-01
-7.718278169631958008e-01 1.852048337459564209e-01 1.031830236315727234e-01
-6.506829857826232910e-01 2.215171605348587036e-02 8.423531800508499146e-02
-8.421527147293090820e-01 1.255570948123931885e-01 5.265517532825469971e-02
-8.132640123367309570e-01 8.594687283039093018e-02 -2.455928176641464233e-02
-8.346364498138427734e-01 1.212401539087295532e-01 -1.296469271183013916e-01
-5.601912140846252441e-01 1.577685475349426270e-01 7.114403694868087769e-02
-6.773315668106079102e-01 1.445826143026351929e-01 -2.099468857049942017e-01
-8.100317120552062988e-01 1.926087439060211182e-01 -1.092640459537506104e-01
-7.899302244186401367e-01 1.585391014814376831e-01 -1.854575723409652710e-01
-4.035964608192443848e-01 1.164820790290832520e-02 1.395983621478080750e-02
-4.205627739429473877e-01 8.956566452980041504e-04 5.254174116998910904e-03
-6.296274662017822266e-01 2.067755162715911865e-02 1.069981977343559265e-01
-7.468523383140563965e-01 1.994346380233764648e-01 4.926781728863716125e-02
-5.017254948616027832e-01 8.261387795209884644e-02 -1.691070646047592163e-01
-5.982602238655090332e-01 1.164929568767547607e-02 1.026610210537910461e-01
-6.416826248168945312e-01 1.260478049516677856e-02 -5.432912707328796387e-02
-5.154649615287780762e-01 1.395515203475952148e-01 -4.654400050640106201e-02
-6.114888787269592285e-01 4.375762492418289185e-02 1.811504662036895752e-01
-5.869306921958923340e-01 3.283828496932983398e-03 -7.797624170780181885e-02
-7.750334143638610840e-01 1.947178244590759277e-01 7.071296870708465576e-02
-5.928563475608825684e-01 3.478676080703735352e-04 -3.790281340479850769e-02
-7.507523894309997559e-01 1.959782093763351440e-01 -1.066830307245254517e-01
-8.173238039016723633e-01 1.079465299844741821e-01 7.601253688335418701e-02
-6.371549367904663086e-01 1.502218544483184814e-01 -1.846351921558380127e-01
-7.213783264160156250e-01 1.315976083278656006e-01 -2.224355638027191162e-01
-7.329868674278259277e-01 6.820430606603622437e-02 1.267008781433105469e-01
-8.399804830551147461e-01 1.072780266404151917e-01 -1.459205523133277893e-02
-4.428984522819519043e-01 6.602468341588973999e-02 -1.093394681811332703e-01
-5.849952101707458496e-01 1.705791205167770386e-01 -8.773269131779670715e-03
-8.225309252738952637e-01 1.433413624763488770e-01 1.056062281131744385e-01
-5.593447089195251465e-01 8.954578638076782227e-02 -2.071741521358489990e-01
-5.594714283943176270e-01 6.642783433198928833e-02 2.125874906778335571e-01
-5.833379030227661133e-01 2.264260500669479370e-02 -1.568552553653717041e-01
-6.538088321685791016e-01 3.317739814519882202e-02 1.253020614385604858e-01
-5.431251525878906250e-01 2.346940338611602783e-03 -1.009398996829986572e-01
-4.566118121147155762e-01 1.103544905781745911e-01 2.674396336078643799e-02
-7.608478069305419922e-01 1.319488584995269775e-01 -2.111039012670516968e-01
-5.616353750228881836e-01 9.443156421184539795e-03 -1.236034929752349854e-01
-8.468845486640930176e-01 1.467670500278472900e-01 -1.325847059488296509e-01
-5.157940983772277832e-01 1.296646296977996826e-01 -9.950955957174301147e-02
-5.076211094856262207e-01 1.306180655956268311e-02 -1.327623128890991211e-01
-6.547957658767700195e-01 1.758481562137603760e-02 4.380813986063003540e-02
-6.316555738449096680e-01 1.157011836767196655e-02 -7.043285667896270752e-02
-4.888298511505126953e-01 -7.905460894107818604e-03 6.307435780763626099e-02
-4.105519354343414307e-01 1.483785361051559448e-02 -3.651749342679977417e-02
-6.151029467582702637e-01 3.248529881238937378e-02 -1.703844070434570312e-01
-4.099422693252563477e-01 4.035866633057594299e-02 -6.003825739026069641e-02
-5.371722579002380371e-01 7.922883331775665283e-02 2.093104571104049683e-01
-7.007330656051635742e-01 6.111239641904830933e-02 1.486930698156356812e-01
-4.430671632289886475e-01 1.009736135601997375e-01 1.560212858021259308e-02
-6.537314653396606445e-01 1.898590028285980225e-01 -2.195611409842967987e-02
-6.849126219749450684e-01 3.689733147621154785e-02 -1.296648830175399780e-01
-7.042307853698730469e-01 3.123062849044799805e-02 -2.138892002403736115e-02
-8.049564361572265625e-01 9.307282418012619019e-02 6.441166251897811890e-02
-7.647284865379333496e-01 9.256263822317123413e-02 1.338727921247482300e-01
-4.892531633377075195e-01 1.285753101110458374e-01 -1.973813213407993317e-02
-5.672293901443481445e-01 1.247591748833656311e-01 1.851490586996078491e-01
-8.439065217971801758e-01 1.498968452215194702e-01 7.228730618953704834e-02
-4.331082105636596680e-01 7.716763019561767578e-02 1.110567525029182434e-01
-6.937102079391479492e-01 2.841642498970031738e-02 -5.146380886435508728e-02
-5.022361874580383301e-01 -7.483370602130889893e-03 -5.204878002405166626e-02
-7.650145292282104492e-01 1.491912901401519775e-01 1.581206619739532471e-01
-4.884851276874542236e-01 5.218740552663803101e-02 1.882667392492294312e-01
-7.907198667526245117e-01 1.780022531747817993e-01 1.091662794351577759e-01
-4.676805138587951660e-01 1.158178374171257019e-01 -2.029656991362571716e-02
-7.814782261848449707e-01 1.261596530675888062e-01 1.477901041507720947e-01
-4.787680506706237793e-01 -9.219080209732055664e-03 4.836817830801010132e-02
-4.648515880107879639e-01 1.773774623870849609e-03 -8.013406395912170410e-02
-5.597582459449768066e-01 2.935961633920669556e-02 1.742871850728988647e-01
-5.934242606163024902e-01 1.458360403776168823e-01 1.616566479206085205e-01
-8.354449272155761719e-01 1.517114043235778809e-01 8.705927431583404541e-02
-4.309275150299072266e-01 9.809136390686035156e-03 1.000287383794784546e-01
-4.601317048072814941e-01 1.303695142269134521e-02 1.330021470785140991e-01
-6.309373378753662109e-01 1.599027514457702637e-01 1.507651805877685547e-01
-6.819534897804260254e-01 1.942194998264312744e-01 3.395393490791320801e-02
-5.161949396133422852e-01 -9.170785546302795410e-03 -3.375768288969993591e-02
-6.742309927940368652e-01 5.282948911190032959e-02 -1.846945285797119141e-01
-7.945446968078613281e-01 7.667768001556396484e-02 -7.666241377592086792e-02
-6.890363693237304688e-01 7.925938069820404053e-02 1.861021369695663452e-01
-4.816356897354125977e-01 3.162668645381927490e-02 -1.491611599922180176e-01
-6.309209465980529785e-01 1.814885437488555908e-01 5.466140061616897583e-02
-4.320594966411590576e-01 2.003661543130874634e-02 -8.737888187170028687e-02
-6.678552627563476562e-01 1.987371593713760376e-02 2.205540426075458527e-02
-6.688193678855895996e-01 1.908158510923385620e-02 -3.639349713921546936e-03
-5.289700031280517578e-01 1.491123139858245850e-01 7.224601227790117264e-03
-5.879845619201660156e-01 8.276642113924026489e-02 -2.202498763799667358e-01
-7.207011580467224121e-01 1.872879862785339355e-01 -1.326050013303756714e-01
-5.382040739059448242e-01 1.450324654579162598e-01 9.724161773920059204e-02
-6.694947481155395508e-01 1.832955032587051392e-01 9.554677456617355347e-02
-6.461348533630371094e-01 2.261710911989212036e-02 -1.166692450642585754e-01
-7.736927270889282227e-01 2.014168202877044678e-01 3.421971574425697327e-02
-7.191867828369140625e-01 1.985787451267242432e-01 4.168096557259559631e-02
-6.364586353302001953e-01 1.713679730892181396e-01 1.186932623386383057e-01
-5.205571651458740234e-01 1.105303093791007996e-01 -1.550593972206115723e-01
-7.261498570442199707e-01 2.020087242126464844e-01 4.511526320129632950e-03
-5.720784068107604980e-01 -3.450751304626464844e-03 -3.453483432531356812e-02
-4.141304492950439453e-01 4.016593098640441895e-03 2.913017198443412781e-02
-4.007239937782287598e-01 3.580748662352561951e-02 7.697343081235885620e-02
-5.083422064781188965e-01 4.801146686077117920e-03 -1.105236113071441650e-01
-7.124084830284118652e-01 1.845635473728179932e-01 1.109312772750854492e-01
-7.330576181411743164e-01 1.661982983350753784e-01 1.532466709613800049e-01
-8.387348651885986328e-01 1.877409964799880981e-01 -9.509527683258056641e-02
-7.126103043556213379e-01 3.501159697771072388e-02 -4.461655765771865845e-02
-5.035540461540222168e-01 8.231610804796218872e-02 1.916559785604476929e-01
-8.330265283584594727e-01 1.038127094507217407e-01 1.022023148834705353e-02
-7.416521310806274414e-01 1.373732239007949829e-01 -2.161140143871307373e-01
-6.159820556640625000e-01 1.446718722581863403e-01 -1.813862919807434082e-01
-6.117255091667175293e-01 1.031672954559326172e-02 7.907165586948394775e-02
-6.440729498863220215e-01 4.957451671361923218e-02 -1.933922171592712402e-01
-5.938126444816589355e-01 4.849612712860107422e-03 7.040523737668991089e-02
-5.208548307418823242e-01 7.051879167556762695e-02 -1.896149963140487671e-01
-7.126166820526123047e-01 1.901443153619766235e-01 8.931986987590789795e-02
-6.676553487777709961e-01 1.869145035743713379e-02 -2.442938461899757385e-02
-7.849341630935668945e-01 8.371078968048095703e-02 8.124583214521408081e-02
-5.387552380561828613e-01 1.072747632861137390e-01 1.915806531906127930e-01
-8.708593249320983887e-01 1.544379293918609619e-01 -5.848416686058044434e-02
-5.846131443977355957e-01 9.459083527326583862e-02 2.168064266443252563e-01
-8.175300359725952148e-01 1.228964850306510925e-01 -1.612007170915603638e-01
-7.066780328750610352e-01 1.943508088588714600e-01 6.370421499013900757e-02
-8.521203398704528809e-01 1.242084801197052002e-01 1.334394887089729309e-02
-7.003059983253479004e-01 1.983911395072937012e-01 -3.771843388676643372e-02
-6.506354808807373047e-01 3.620716929435729980e-02 -1.608529686927795410e-01
-6.199319958686828613e-01 1.813931167125701904e-01 -1.111531443893909454e-02
-6.927880048751831055e-01 1.179612129926681519e-01 -2.294948399066925049e-01
-8.214136362075805664e-01 1.649993658065795898e-01 -1.583089679479598999e-01
-6.679070591926574707e-01 1.931595951318740845e-01 -1.260379329323768616e-02
-5.458738803863525391e-01 5.056574940681457520e-03 1.142341643571853638e-01
-5.500901937484741211e-01 1.578907370567321777e-01 1.356971450150012970e-02
-5.709356665611267090e-01 1.662596315145492554e-02 -1.438486576080322266e-01
-5.640807747840881348e-01 1.235873699188232422e-01 -1.774857938289642334e-01
-7.091051340103149414e-01 1.802359223365783691e-01 -1.510280668735504150e-01
-5.928647518157958984e-01 1.249964013695716858e-01 1.970350146293640137e-01
-4.492295980453491211e-01 1.006843820214271545e-01 7.582581788301467896e-02
-7.573628425598144531e-01 6.225389987230300903e-02 6.209503859281539917e-02
-4.356481730937957764e-01 -3.542564809322357178e-03 4.328409954905509949e-02
-4.988622367382049561e-01 -2.709433436393737793e-03 -7.951319217681884766e-02
-8.306772708892822266e-01 9.975866228342056274e-02 -5.886677652597427368e-02
-5.472827553749084473e-01 1.194603294134140015e-01 1.804266124963760376e-01
-4.490825533866882324e-01 -4.584588110446929932e-03 -3.294174373149871826e-02
-6.516734957695007324e-01 1.818428188562393188e-01 8.579895645380020142e-02
-4.658164381980895996e-01 9.486539661884307861e-02 -1.041807979345321655e-01
-6.833573579788208008e-01 1.804507374763488770e-01 -1.356744021177291870e-01
-4.808800816535949707e-01 1.016134023666381836e-02 1.354204714298248291e-01
-6.308403611183166504e-01 1.830292493104934692e-01 3.708839043974876404e-02
-5.235933661460876465e-01 1.403161883354187012e-01 8.858269453048706055e-02
-4.751181006431579590e-01 1.048727184534072876e-01 1.274969279766082764e-01
-5.150712728500366211e-01 1.413476020097732544e-01 4.893769696354866028e-02
-5.307158231735229492e-01 1.785410195589065552e-02 1.564556658267974854e-01
-6.298120021820068359e-01 2.625409513711929321e-02 1.274954378604888916e-01
-7.349305152893066406e-01 4.431398212909698486e-02 -4.870154336094856262e-02
-7.634540200233459473e-01 1.018978878855705261e-01 1.479681134223937988e-01
-6.693469285964965820e-01 1.842224150896072388e-01 -1.068974435329437256e-01
-6.749262809753417969e-01 1.939525306224822998e-01 1.832699216902256012e-02
-6.199306845664978027e-01 1.599219441413879395e-02 -1.144406273961067200e-01
-5.787782669067382812e-01 3.534082323312759399e-02 -1.832688897848129272e-01
-4.272772073745727539e-01 4.027037322521209717e-02 -9.524341672658920288e-02
-5.441993474960327148e-01 4.972532764077186584e-02 2.017222493886947632e-01
-5.685842037200927734e-01 1.343118995428085327e-01 -1.616832613945007324e-01
-7.964957952499389648e-01 9.875702112913131714e-02 9.743903577327728271e-02
-8.604796528816223145e-01 1.434215009212493896e-01 2.575791254639625549e-02
-6.044290065765380859e-01 3.703352063894271851e-02 -1.829076111316680908e-01
-6.065389513969421387e-01 1.414515376091003418e-01 1.781894415616989136e-01
-7.428787946701049805e-01 6.313611567020416260e-02 9.701754152774810791e-02
-5.246913433074951172e-01 1.149426177144050598e-01 1.695518791675567627e-01
-7.610944509506225586e-01 1.121808215975761414e-01 -2.062168121337890625e-01
-6.681767702102661133e-01 1.458457261323928833e-01 1.869547069072723389e-01
-5.552127361297607422e-01 -5.826599895954132080e-03 -3.439678251743316650e-02
-7.532181739807128906e-01 5.681084096431732178e-02 4.315499961376190186e-02
-7.379653453826904297e-01 9.893913567066192627e-02 1.692541390657424927e-01
-8.143602609634399414e-01 2.015480399131774902e-01 -3.790172562003135681e-02
-5.448064208030700684e-01 1.555337160825729370e-01 -9.220415726304054260e-03
-5.123355388641357422e-01 5.165293440222740173e-02 -1.818436086177825928e-01
-4.270591735839843750e-01 8.790618926286697388e-02 9.813444688916206360e-03
-7.750384211540222168e-01 6.333035975694656372e-02 -4.628251492977142334e-02
-7.331420183181762695e-01 4.490578919649124146e-02 2.303325198590755463e-02
-5.425816178321838379e-01 1.385341882705688477e-01 -1.167787238955497742e-01
-6.002711653709411621e-01 2.210190892219543457e-02 -1.496573090553283691e-01
-7.676106095314025879e-01 1.976986825466156006e-01 -1.005865633487701416e-01
-8.236629962921142578e-01 1.487110257148742676e-01 -1.651152521371841431e-01
-6.450160145759582520e-01 7.555286586284637451e-02 -2.233005017042160034e-01
-4.349665045738220215e-01 9.287867695093154907e-02 5.425790697336196899e-02
-5.822300314903259277e-01 1.642196178436279297e-01 7.997181266546249390e-02
-8.060088753700256348e-01 1.364451646804809570e-01 -1.819979995489120483e-01
-8.229234218597412109e-01 1.987927407026290894e-01 -5.760269984602928162e-02
-8.167327642440795898e-01 9.549517184495925903e-02 -1.014951765537261963e-01
-8.702229261398315430e-01 1.526747643947601318e-01 -1.126948930323123932e-02
-8.669566512107849121e-01 1.396018415689468384e-01 -4.475884512066841125e-02
-8.012712001800537109e-01 1.864376068115234375e-01 8.290898799896240234e-02
-6.691513061523437500e-01 1.322353184223175049e-01 -2.206609398126602173e-01
-7.712626457214355469e-01 7.223910093307495117e-02 7.155951857566833496e-02
-8.314822316169738770e-01 1.972347199916839600e-01 -8.765259757637977600e-03
-7.924749255180358887e-01 2.041545510292053223e-01 -1.694284938275814056e-02
-4.619184732437133789e-01 1.077740564942359924e-01 -5.087460950016975403e-02
-6.544314026832580566e-01 8.767882734537124634e-02 2.091768532991409302e-01
-7.383117675781250000e-01 7.551758736371994019e-02 -1.795987188816070557e-01
-4.269225001335144043e-01 7.160624116659164429e-02 -6.762744486331939697e-02
-7.322103977203369141e-01 1.921991407871246338e-01 -1.178155019879341125e-01
-8.012188076972961426e-01 2.017489671707153320e-01 -6.202534586191177368e-02
-4.407769739627838135e-01 4.958859831094741821e-02 1.504714936017990112e-01
-4.937205314636230469e-01 1.205058321356773376e-01 -8.625977486371994019e-02
-4.400951564311981201e-01 9.775232523679733276e-02 -6.352943833917379379e-03
-5.579710006713867188e-01 1.600600779056549072e-01 -2.555410563945770264e-02
-6.834912896156311035e-01 4.090477153658866882e-02 1.146345809102058411e-01
-8.016015291213989258e-01 1.057285740971565247e-01 -1.602192521095275879e-01
-5.141367912292480469e-01 9.714960306882858276e-02 -1.673158109188079834e-01
-5.276931524276733398e-01 -6.627917289733886719e-03 6.047099828720092773e-02
-6.341348290443420410e-01 1.845042705535888672e-01 -3.335440903902053833e-02
-6.075208783149719238e-01 2.442697435617446899e-02 1.407160311937332153e-01
-4.955539107322692871e-01 -1.131454110145568848e-02 9.738234803080558777e-03
-5.041800141334533691e-01 9.739847481250762939e-02 1.779258549213409424e-01
-4.653491973876953125e-01 -9.963616728782653809e-03 1.402575895190238953e-02
-7.352595329284667969e-01 1.744278520345687866e-01 1.379370093345642090e-01
-7.902358770370483398e-01 1.630908250808715820e-01 1.304011493921279907e-01
-4.906418919563293457e-01 1.229231357574462891e-01 -6.750331073999404907e-02
-6.342468261718750000e-01 1.299494504928588867e-01 2.016892731189727783e-01
-5.644689202308654785e-01 1.479626297950744629e-01 1.281222105026245117e-01
-5.889670252799987793e-01 2.684725821018218994e-02 1.584199219942092896e-01
-5.989658832550048828e-01 6.258010864257812500e-02 2.079507559537887573e-01
-4.388860464096069336e-01 1.440533995628356934e-02 1.195573955774307251e-01
-4.976821243762969971e-01 5.598703026771545410e-02 -1.736423075199127197e-01
-8.431285619735717773e-01 1.930505633354187012e-01 -5.244226008653640747e-02
-8.197721242904663086e-01 9.429198503494262695e-02 -8.325257897377014160e-02
-5.842546224594116211e-01 3.581447899341583252e-02 1.786326169967651367e-01
-7.955563068389892578e-01 1.198304444551467896e-01 -1.839371621608734131e-01
-4.114404916763305664e-01 7.421873509883880615e-03 -9.224029257893562317e-03
-4.095495641231536865e-01 6.117136031389236450e-02 -3.422676771879196167e-02
-4.229223132133483887e-01 7.802069187164306641e-02 -3.542660921812057495e-02
-7.996302843093872070e-01 1.311272084712982178e-01 1.306321173906326294e-01
-5.393894910812377930e-01 -2.970561385154724121e-03 -7.462544739246368408e-02
-5.152959823608398438e-01 7.262687385082244873e-02 2.020059973001480103e-01
-8.289759755134582520e-01 1.809070408344268799e-01 -1.270459592342376709e-01
-4.681054353713989258e-01 1.140984818339347839e-01 7.039184868335723877e-02
-4.803644418716430664e-01 1.542329788208007812e-03 -8.952574431896209717e-02
-6.969373226165771484e-01 7.318672537803649902e-02 -2.055624127388000488e-01
-7.585967779159545898e-01 2.042613923549652100e-01 7.266514003276824951e-04
-7.386182546615600586e-01 8.747337758541107178e-02 -1.984421014785766602e-01
-6.957268714904785156e-01 2.941994369029998779e-02 1.999576203525066376e-02
-5.077561140060424805e-01 1.356288343667984009e-01 7.077248394489288330e-02
-4.564327001571655273e-01 -8.147448301315307617e-03 3.695127740502357483e-02
-8.221929073333740234e-01 1.059297099709510803e-01 5.908538401126861572e-02
-6.842479705810546875e-01 1.397208422422409058e-01 1.929349452257156372e-01
-7.727923393249511719e-01 2.048277556896209717e-01 -2.907054685056209564e-02
-7.806310057640075684e-01 8.648753166198730469e-02 -1.517641097307205200e-01
-7.284700870513916016e-01 1.973952651023864746e-01 -8.776512742042541504e-02
-6.784015893936157227e-01 2.424513548612594604e-02 -6.443281471729278564e-02
-7.523634433746337891e-01 1.731378734111785889e-01 1.363489925861358643e-01
-5.507101416587829590e-01 -4.698477685451507568e-03 -5.380008742213249207e-02
-5.973877310752868652e-01 1.019389331340789795e-01 -2.192710340023040771e-01
-5.886369943618774414e-01 1.466360688209533691e-02 -1.313493996858596802e-01
-6.980550289154052734e-01 3.237815946340560913e-02 4.242205992341041565e-02
-4.597114920616149902e-01 1.113714873790740967e-01 4.679261893033981323e-02
-7.076698541641235352e-01 3.307149559259414673e-02 4.694945644587278366e-03
-7.564709186553955078e-01 9.013387560844421387e-02 -1.874718517065048218e-01
-5.106212496757507324e-01 -1.079773902893066406e-02 -7.372244726866483688e-03
-8.383910655975341797e-01 1.803208291530609131e-01 5.499058589339256287e-02
-4.887227416038513184e-01 1.069502532482147217e-02 -1.199352964758872986e-01
-7.764208912849426270e-01 6.760311871767044067e-02 -8.606737107038497925e-02
-4.727928340435028076e-01 1.201933845877647400e-01 -1.914889551699161530e-03
-6.737596392631530762e-01 4.381990805268287659e-02 1.353834420442581177e-01
-7.960205078125000000e-01 1.082268431782722473e-01 1.147971227765083313e-01
-8.010792732238769531e-01 7.795141637325286865e-02 -3.444880247116088867e-02
-7.977097034454345703e-01 1.982463002204895020e-01 4.117167741060256958e-02
-6.911455392837524414e-01 1.900890469551086426e-01 -9.910314530134201050e-02
-5.255534648895263672e-01 1.238915845751762390e-01 -1.335923969745635986e-01
-7.706031799316406250e-01 6.368475407361984253e-02 2.617500722408294678e-02
-8.720148801803588867e-01 1.559669524431228638e-01 -2.859509922564029694e-02
-5.239924788475036621e-01 2.823226153850555420e-03 1.138455718755722046e-01
-4.799617528915405273e-01 1.175633072853088379e-01 9.175473451614379883e-02
-5.038847923278808594e-01 1.249953955411911011e-01 1.160610541701316833e-01
-7.242122292518615723e-01 1.582830697298049927e-01 -1.994687020778656006e-01
-8.108044862747192383e-01 1.091877892613410950e-01 9.174336493015289307e-02
-5.728548765182495117e-01 1.659874022006988525e-01 2.792456746101379395e-02
-7.432016730308532715e-01 1.559761613607406616e-01 -2.016947269439697266e-01
-4.216113686561584473e-01 8.035937696695327759e-02 5.909928679466247559e-02
-5.120068788528442383e-01 1.398975104093551636e-01 -2.610687352716922760e-02
-6.541979908943176270e-01 1.689245104789733887e-01 -1.515963971614837646e-01
-8.198531270027160645e-01 1.660418957471847534e-01 1.003432273864746094e-01
-7.714782953262329102e-01 9.942286461591720581e-02 -1.862744837999343872e-01
-7.647085189819335938e-01 1.919683068990707397e-01 -1.258188188076019287e-01
-5.012562870979309082e-01 1.358404010534286499e-01 -2.783349715173244476e-03
-6.320649981498718262e-01 1.793320477008819580e-01 7.403551042079925537e-02
-6.650862693786621094e-01 7.707529515027999878e-02 1.975650191307067871e-01
-6.289164423942565918e-01 1.721955537796020508e-01 -1.142552196979522705e-01
-6.398255825042724609e-01 1.649618893861770630e-02 7.037869840860366821e-02
-6.620524525642395020e-01 1.789241731166839600e-01 -1.234519928693771362e-01
-5.909128785133361816e-01 1.715833097696304321e-01 3.667378798127174377e-02
-6.765147447586059570e-01 2.224014699459075928e-02 -4.499400034546852112e-02
-7.718634605407714844e-01 8.952390402555465698e-02 1.187306642532348633e-01
-5.415701866149902344e-01 1.113223731517791748e-01 -1.756791770458221436e-01
-4.066094756126403809e-01 5.037588626146316528e-02 8.772724121809005737e-02
-6.504502296447753906e-01 1.823996305465698242e-01 -9.212903678417205811e-02
-5.831869244575500488e-01 1.347496658563613892e-01 -1.745373457670211792e-01
-5.419099926948547363e-01 1.443391144275665283e-01 -9.266966581344604492e-02
-8.139905929565429688e-01 1.984028816223144531e-01 -7.617124170064926147e-02
-8.115783333778381348e-01 1.211450919508934021e-01 1.075559630990028381e-01
-7.150219082832336426e-01 9.288256615400314331e-02 1.816365122795104980e-01
-4.765049815177917480e-01 7.624092698097229004e-02 -1.473012864589691162e-01
-5.045518279075622559e-01 1.079009473323822021e-01 1.620496958494186401e-01
-4.888266921043395996e-01 -4.928365349769592285e-03 -6.523410230875015259e-02
-5.703839063644409180e-01 4.915236309170722961e-02 -2.004409581422805786e-01
-7.464263439178466797e-01 6.252203136682510376e-02 -1.350187957286834717e-01
-4.215992391109466553e-01 7.677245140075683594e-02 7.701518386602401733e-02
-7.449170351028442383e-01 4.809439554810523987e-02 -2.216891385614871979e-02
-5.608328580856323242e-01 9.371295571327209473e-03 1.226687282323837280e-01
-6.375390887260437012e-01 1.823490262031555176e-01 -6.885551661252975464e-02
-7.744832038879394531e-01 1.582303941249847412e-01 1.456697881221771240e-01
-5.608695149421691895e-01 3.203704953193664551e-03 9.672287851572036743e-02
-5.014188289642333984e-01 1.012826636433601379e-01 -1.471937745809555054e-01
-8.528355360031127930e-01 1.833505630493164062e-01 1.555210910737514496e-02
-5.188362598419189453e-01 9.673736989498138428e-03 1.373712420463562012e-01
-5.118268132209777832e-01 -5.345106124877929688e-03 -6.673485040664672852e-02
-7.526884675025939941e-01 5.326022952795028687e-02 1.413862779736518860e-02
-6.825907826423645020e-01 1.573836505413055420e-01 1.711590141057968140e-01
-7.299953699111938477e-01 4.203128442168235779e-02 7.707495242357254028e-04
-7.665305137634277344e-01 7.868601381778717041e-02 1.021984368562698364e-01
-5.879434347152709961e-01 1.601751297712326050e-01 1.112392842769622803e-01
-7.036106586456298828e-01 7.846610993146896362e-02 1.748369187116622925e-01
-6.179763078689575195e-01 8.442327380180358887e-02 2.165725082159042358e-01
-5.817571282386779785e-01 1.099243089556694031e-01 2.082955390214920044e-01
-7.771411538124084473e-01 2.023395299911499023e-01 -6.900126487016677856e-02
-5.008957982063293457e-01 1.330679655075073242e-01 -3.856232762336730957e-02
-6.171602010726928711e-01 1.096388250589370728e-01 2.145323157310485840e-01
-7.050573825836181641e-01 9.063904732465744019e-02 -2.198359072208404541e-01
-6.747944951057434082e-01 2.702410519123077393e-02 6.590376049280166626e-02
-3.990676999092102051e-01 -4.742779582738876343e-02 3.187068402767181396e-01
-3.522754311561584473e-01 -8.942127227783203125e-03 1.943879723548889160e-01
-2.374900281429290771e-01 -4.041699320077896118e-02 -5.567971467971801758e-01
-4.840368032455444336e-01 -1.295355893671512604e-02 -1.454309187829494476e-02
-4.096788763999938965e-01 -4.908543080091476440e-02 -2.133866548538208008e-01
-3.615060150623321533e-01 -8.329235017299652100e-03 1.305001676082611084e-01
-2.998512983322143555e-01 -7.253067567944526672e-03 1.202031746506690979e-01
-1.413805037736892700e-01 -2.124337106943130493e-02 4.938370287418365479e-01
-2.326616644859313965e-01 -3.428716957569122314e-02 -6.306018233299255371e-01
-1.657232344150543213e-01 -4.283683747053146362e-02 -4.368052780628204346e-01
-4.717884063720703125e-01 -1.240422204136848450e-02 -1.636854410171508789e-01
-1.163949370384216309e-01 -3.934932872653007507e-02 4.390105605125427246e-01
-1.886507868766784668e-01 -1.856101676821708679e-02 5.016309022903442383e-01
-4.477033615112304688e-01 -4.735074937343597412e-02 -2.208454608917236328e-01
-1.761377155780792236e-01 -4.960476607084274292e-02 1.665996015071868896e-01
-2.802642583847045898e-01 -1.277386583387851715e-02 -4.946498274803161621e-01
-2.515059709548950195e-01 -4.716810584068298340e-02 4.013340771198272705e-01
-2.800323963165283203e-01 -1.589028164744377136e-02 -5.659695863723754883e-01
-3.296044468879699707e-01 -4.444159939885139465e-02 -4.838533103466033936e-01
-2.802361845970153809e-01 -4.560743272304534912e-02 -4.540133476257324219e-01
-4.050852656364440918e-01 -5.051396414637565613e-02 6.036307662725448608e-02
-2.305716276168823242e-01 -6.850562989711761475e-03 4.164980351924896240e-02
-1.591241061687469482e-01 -8.290233090519905090e-03 -4.817586392164230347e-02
-3.688459396362304688e-01 -5.138575285673141479e-02 8.425820618867874146e-02
-2.515498399734497070e-01 -1.153970696032047272e-02 -4.509953260421752930e-01
-1.200702339410781860e-01 -4.645739495754241943e-02 -1.824626326560974121e-01
-1.620849370956420898e-01 -4.698617756366729736e-02 3.044063150882720947e-01
-5.708343982696533203e-01 -2.752601169049739838e-02 -1.793711483478546143e-01
-3.767599463462829590e-01 -9.630890563130378723e-03 -3.100091218948364258e-01
-1.844079196453094482e-01 -7.895510643720626831e-03 -1.602965295314788818e-01
-4.313721060752868652e-01 -4.158790037035942078e-02 -4.659300744533538818e-01
-1.220408827066421509e-01 -9.964693337678909302e-03 -9.133324772119522095e-02
-1.927459239959716797e-01 -4.662296548485755920e-02 -3.536393046379089355e-01
-3.162251412868499756e-01 -5.216572433710098267e-02 -4.704162478446960449e-02
-1.651726514101028442e-01 -1.823448762297630310e-02 4.743007719516754150e-01
-3.923809528350830078e-02 -1.846236363053321838e-02 -2.141600549221038818e-01
-3.018254935741424561e-01 -6.451122462749481201e-03 -1.539896894246339798e-02
-1.623931080102920532e-01 -4.973480477929115295e-02 6.200567632913589478e-02
-3.251383006572723389e-01 -5.200440064072608948e-02 -7.458928227424621582e-02
-2.566629946231842041e-01 -5.024619773030281067e-02 -2.440458238124847412e-01
-4.918413758277893066e-01 -4.529163613915443420e-02 -1.663476228713989258e-01
-3.677424788475036621e-01 -3.217063099145889282e-02 -6.404778957366943359e-01
-5.179789066314697266e-01 -1.931826025247573853e-02 2.067580521106719971e-01
-3.214558660984039307e-01 -1.151843927800655365e-02 3.479875624179840088e-01
-4.038915038108825684e-01 -4.867620021104812622e-02 -2.543036937713623047e-01
-3.092623651027679443e-01 -2.123451605439186096e-02 5.665969848632812500e-01
-3.619281351566314697e-01 -1.101422868669033051e-02 2.915646433830261230e-01
-3.309640288352966309e-01 -7.864689454436302185e-03 1.442963927984237671e-01
-2.819212675094604492e-01 -6.460933014750480652e-03 -1.251750141382217407e-01
-2.678836286067962646e-01 -5.084796249866485596e-02 -2.086300104856491089e-01
-5.049109458923339844e-03 -3.283665329217910767e-02 1.329954564571380615e-01
-2.680658400058746338e-01 -2.342199720442295074e-02 5.939735770225524902e-01
-6.524333357810974121e-02 -1.543131005018949509e-02 1.705185472965240479e-01
-1.793780475854873657e-01 -1.350789144635200500e-02 3.759357333183288574e-01
-3.109832704067230225e-01 -9.702527895569801331e-03 2.773005366325378418e-01
-2.745217978954315186e-01 -5.146349966526031494e-02 1.763143241405487061e-01
-2.649249732494354248e-01 -1.454792544245719910e-02 -5.363869071006774902e-01
-1.928173601627349854e-01 -2.614274434745311737e-02 -6.274383664131164551e-01
-1.161371618509292603e-01 -4.482511058449745178e-02 -2.624377012252807617e-01
-3.283497095108032227e-01 -1.066104136407375336e-02 -4.135499000549316406e-01
-7.123069465160369873e-02 -4.422402381896972656e-02 -3.633785247802734375e-02
-3.652017712593078613e-01 -5.103691294789314270e-02 1.480941325426101685e-01
-5.521850585937500000e-01 -2.182192727923393250e-02 9.077640622854232788e-02
-3.769004940986633301e-01 -8.741043508052825928e-03 -2.459949254989624023e-01
-2.406352609395980835e-01 -4.594056308269500732e-02 4.349592924118041992e-01
-3.447083532810211182e-01 -4.401354491710662842e-02 4.776417315006256104e-01
-1.736510097980499268e-01 -4.567507654428482056e-02 3.774400949478149414e-01
-2.106214463710784912e-01 -5.040178447961807251e-02 -1.640870571136474609e-01
-2.809182703495025635e-01 -3.451203182339668274e-02 -6.441286802291870117e-01
-4.221156239509582520e-01 -4.026397317647933960e-02 4.725052118301391602e-01
-5.607069134712219238e-01 -2.712227404117584229e-02 -2.546075582504272461e-01
-5.028280615806579590e-02 -4.180320724844932556e-02 -8.788008987903594971e-02
-5.232554078102111816e-01 -1.751368492841720581e-02 9.331374615430831909e-02
-1.519190073013305664e-01 -8.615463972091674805e-03 -8.736144751310348511e-02
-2.600375115871429443e-01 -8.118845522403717041e-03 1.966274082660675049e-01
-2.610651850700378418e-01 -7.204642519354820251e-03 -2.262201905250549316e-01
-4.043895006179809570e-01 -4.868474602699279785e-02 2.463699430227279663e-01
-4.591409862041473389e-01 -4.719620570540428162e-02 -1.872756481170654297e-01
4.552632570266723633e-03 -2.777102403342723846e-02 6.059385091066360474e-02
-2.604990899562835693e-01 -4.856191575527191162e-02 3.518186807632446289e-01
-1.665244549512863159e-01 -3.941679000854492188e-02 5.115821361541748047e-01
-2.270342111587524414e-01 -1.390056684613227844e-02 4.246706068515777588e-01
-2.298149466514587402e-01 -1.550612412393093109e-02 -5.427991151809692383e-01
-5.632577836513519287e-02 -2.843888476490974426e-02 -4.072735309600830078e-01
-9.850382804870605469e-02 -4.612416401505470276e-02 -7.890375703573226929e-02
-3.367886841297149658e-01 -1.542951725423336029e-02 4.541188478469848633e-01
-3.248526453971862793e-01 -1.633981801569461823e-02 4.809627830982208252e-01
-3.445938825607299805e-01 -4.588320478796958923e-02 -4.365348219871520996e-01
-5.385004281997680664e-01 -1.875448599457740784e-02 3.614600002765655518e-02
-3.145712018013000488e-01 -8.217141032218933105e-03 1.890820860862731934e-01
-2.982085943222045898e-02 -1.808867417275905609e-02 7.087321579456329346e-02
-4.843562841415405273e-01 -1.296009868383407593e-02 -9.892932325601577759e-02
-4.083909988403320312e-01 -2.521484531462192535e-02 5.373446941375732422e-01
-2.912833690643310547e-01 -6.690658628940582275e-03 5.588118731975555420e-02
-3.802691102027893066e-01 -4.794234409928321838e-02 -3.301900923252105713e-01
-4.818988740444183350e-01 -4.578358307480812073e-02 1.599031537771224976e-01
-4.512465596199035645e-01 -1.805564388632774353e-02 3.709305226802825928e-01
-3.973117470741271973e-01 -1.510050985962152481e-02 -4.879233837127685547e-01
-5.331045389175415039e-01 -2.873886935412883759e-02 -3.864262700080871582e-01
-1.888421177864074707e-01 -4.240916669368743896e-02 -4.770949482917785645e-01
-4.531317353248596191e-01 -4.749005287885665894e-02 1.736688315868377686e-01
-4.289070665836334229e-01 -4.894448816776275635e-02 1.542412787675857544e-01
-2.392440289258956909e-01 -9.338814765214920044e-03 -3.561963737010955811e-01
-8.178736269474029541e-02 -4.369153082370758057e-02 -1.818538904190063477e-01
-4.097762703895568848e-02 -1.700470224022865295e-02 1.039578840136528015e-01
-3.658482432365417480e-01 -4.470489919185638428e-02 -4.583909511566162109e-01
-1.182599067687988281e-01 -1.784591376781463623e-02 4.010692834854125977e-01
-1.644507050514221191e-01 -2.294488437473773956e-02 5.389932990074157715e-01
-4.811733365058898926e-01 -1.365794986486434937e-02 1.032686308026313782e-01
-3.576628565788269043e-01 -1.455939095467329025e-02 4.166831970214843750e-01
-2.704312503337860107e-01 -4.643445461988449097e-02 4.310626983642578125e-01
-3.181971609592437744e-01 -5.112099647521972656e-02 2.046336680650711060e-01
-3.742341995239257812e-01 -4.791908338665962219e-02 3.337899744510650635e-01
-3.248203992843627930e-01 -9.137863293290138245e-03 -3.460757732391357422e-01
-5.383394956588745117e-01 -4.029561579227447510e-02 -1.786325424909591675e-01
-2.245491743087768555e-01 -8.530255407094955444e-03 2.023892104625701904e-01
-1.969114989042282104e-01 -4.039774835109710693e-02 5.258433818817138672e-01
-3.282600045204162598e-01 -8.578041568398475647e-03 -3.109001517295837402e-01
-4.868183135986328125e-01 -1.412279810756444931e-02 -2.210072875022888184e-01
-2.283285260200500488e-01 -5.148780718445777893e-02 9.598981589078903198e-02
-1.884283125400543213e-01 -5.067713558673858643e-02 4.763349145650863647e-02
-1.138693839311599731e-01 -1.271540112793445587e-02 2.229788452386856079e-01
-4.134215712547302246e-01 -4.545678943395614624e-02 -3.841557800769805908e-01
-7.336077094078063965e-02 -4.450318962335586548e-02 7.824357599020004272e-04
-1.999079287052154541e-01 -1.021011173725128174e-02 -3.589557707309722900e-01
-2.590893805027008057e-01 -8.412709459662437439e-03 -3.166798949241638184e-01
-4.996072053909301758e-01 -4.558762907981872559e-02 -3.758566454052925110e-02
-3.424266278743743896e-01 -6.986290216445922852e-03 -1.124132722616195679e-01
-2.900058925151824951e-01 -4.323164001107215881e-02 -5.174077153205871582e-01
-1.679363846778869629e-02 -3.362624347209930420e-02 -2.058117687702178955e-01
-2.577243447303771973e-01 -7.245199754834175110e-03 1.242697164416313171e-01
-4.121207296848297119e-01 -1.716404780745506287e-02 4.178214371204376221e-01
-5.436732769012451172e-01 -4.087842255830764771e-02 7.958956062793731689e-03
-2.086237818002700806e-01 -1.105794869363307953e-02 -4.043190479278564453e-01
-6.800891458988189697e-02 -4.402545839548110962e-02 3.026601485908031464e-02
-6.857240200042724609e-02 -1.671078801155090332e-02 2.421559542417526245e-01
-4.690878093242645264e-01 -1.184133440256118774e-02 -4.652955383062362671e-02
-2.621881365776062012e-01 -5.105703324079513550e-02 2.064702659845352173e-01
