-6.056444644927978516e-01 -2.317075431346893311e-02 8.557960391044616699e-04
-8.461861014366149902e-01 1.259440034627914429e-01 2.175880372524261475e-01
-7.246339917182922363e-01 -1.165077090263366699e-03 1.980241537094116211e-01
-7.820381522178649902e-01 1.835868656635284424e-01 1.764746159315109253e-01
-8.839830160140991211e-01 2.517698109149932861e-01 1.113355234265327454e-01
-7.368997931480407715e-01 2.056401669979095459e-01 7.559459656476974487e-03
-9.193779230117797852e-01 1.172230094671249390e-01 1.565017104148864746e-01
-6.453121304512023926e-01 3.479225933551788330e-02 -1.398463845252990723e-01
-8.422539234161376953e-01 -4.367234557867050171e-02 -6.664973497390747070e-02
-8.159346580505371094e-01 2.140503525733947754e-01 -1.615035384893417358e-01
-8.205506205558776855e-01 1.974184811115264893e-01 1.813067346811294556e-01
-8.322068452835083008e-01 -1.143440604209899902e-02 1.375809013843536377e-01
1.784437745809555054e-01 -4.691589251160621643e-02 -1.200452446937561035e-01
2.173892855644226074e-01 -8.643443137407302856e-02 2.500218451023101807e-01
1.703102886676788330e-01 -7.594750821590423584e-02 -1.357199102640151978e-01
2.098214775323867798e-01 -7.197271287441253662e-02 2.754454612731933594e-01
1.794267296791076660e-01 -8.076537400484085083e-02 1.832975298166275024e-01
1.890193074941635132e-01 -1.015138924121856689e-01 5.814522504806518555e-02
2.834952175617218018e-01 -6.058344244956970215e-02 -9.534540772438049316e-02
2.709672749042510986e-01 -4.690583050251007080e-02 2.249526977539062500e-01
2.285166680812835693e-01 -1.039632856845855713e-01 1.563082933425903320e-01
2.098960131406784058e-01 -4.293953627347946167e-02 2.475645542144775391e-01
2.298999726772308350e-01 -2.621950954198837280e-02 1.186142861843109131e-02
1.600083112716674805e-01 -7.271790504455566406e-02 -7.988452166318893433e-02
2.538572251796722412e-01 -4.963906854391098022e-02 -1.503553092479705811e-01
1.823124736547470093e-01 -3.717788308858871460e-02 1.424574553966522217e-01
2.453668564558029175e-01 -1.096847951412200928e-01 6.625108420848846436e-02
1.925638318061828613e-01 -1.026770099997520447e-01 -5.577927827835083008e-02
1.841021031141281128e-01 -3.855899721384048462e-02 1.624321639537811279e-01
2.189309000968933105e-01 -2.518622204661369324e-02 6.973363459110260010e-02
1.881616115570068359e-01 -3.847180306911468506e-02 -9.593670070171356201e-02
2.076493650674819946e-01 -9.389317035675048828e-02 2.019489258527755737e-01
1.686808019876480103e-01 -5.336621403694152832e-02 1.588258743286132812e-01
2.397478669881820679e-01 -1.101895123720169067e-01 -2.535054087638854980e-02
1.854500174522399902e-01 -8.931703865528106689e-02 -1.475221216678619385e-01
2.800852656364440918e-01 -5.347810685634613037e-02 2.195738106966018677e-01
2.559185028076171875e-01 -1.011095792055130005e-01 1.706137955188751221e-01
2.019215375185012817e-01 -9.948875755071640015e-02 1.485505104064941406e-01
1.703431606292724609e-01 -3.896251320838928223e-02 5.305950716137886047e-02
1.577344536781311035e-01 -6.649415940046310425e-02 9.133847057819366455e-02
2.122873961925506592e-01 -1.081411391496658325e-01 6.313586235046386719e-02
1.643643975257873535e-01 -7.263354212045669556e-02 -1.112193316221237183e-01
2.900820970535278320e-01 -9.254780411720275879e-02 -3.889691084623336792e-03
1.850510537624359131e-01 -8.053561300039291382e-02 -1.751320809125900269e-01
2.212844341993331909e-01 -1.083909273147583008e-01 8.811424672603607178e-02
2.125767767429351807e-01 -3.917224705219268799e-02 -1.350914388895034790e-01
1.825336068868637085e-01 -7.623647153377532959e-02 2.083076238632202148e-01
2.200799286365509033e-01 -8.963067084550857544e-02 2.403911054134368896e-01
2.731115818023681641e-01 -1.023856699466705322e-01 9.686324000358581543e-02
2.164079248905181885e-01 -3.087484836578369141e-02 1.821535229682922363e-01
1.821252107620239258e-01 -9.250067174434661865e-02 1.294043958187103271e-01
2.929867506027221680e-01 -8.809557557106018066e-02 1.196422427892684937e-01
2.285166531801223755e-01 -2.529241517186164856e-02 7.686181366443634033e-02
2.615681290626525879e-01 -8.631915599107742310e-02 -1.645823866128921509e-01
2.577680349349975586e-01 -6.161124259233474731e-02 -1.762504875659942627e-01
2.636238634586334229e-01 -3.459149226546287537e-02 1.544415950775146484e-01
2.402258664369583130e-01 -5.084257572889328003e-02 -1.757465600967407227e-01
1.719373762607574463e-01 -9.308458864688873291e-02 2.991924807429313660e-02
2.323169112205505371e-01 -1.103355139493942261e-01 5.779535323381423950e-02
2.791666388511657715e-01 -1.007691845297813416e-01 5.433309823274612427e-03
1.646178960800170898e-01 -4.858079180121421814e-02 1.114633306860923767e-01
2.006472647190093994e-01 -1.032331213355064392e-01 -8.871352672576904297e-02
1.915637552738189697e-01 -9.663368016481399536e-02 1.375088989734649658e-01
2.907673120498657227e-01 -6.456665694713592529e-02 1.963104307651519775e-01
1.586954146623611450e-01 -6.104679778218269348e-02 1.017598658800125122e-01
2.542309761047363281e-01 -7.834891229867935181e-02 2.754814326763153076e-01
1.664615124464035034e-01 -8.336331695318222046e-02 9.780365973711013794e-02
2.787960171699523926e-01 -9.522623568773269653e-02 -7.020375877618789673e-02
2.507089376449584961e-01 -3.227417171001434326e-02 -3.718363493680953979e-02
2.505571544170379639e-01 -8.785027265548706055e-02 -1.810698658227920532e-01
2.211280316114425659e-01 -4.091383516788482666e-02 -1.459165811538696289e-01
2.749021351337432861e-01 -5.576168745756149292e-02 -1.153374314308166504e-01
1.578634381294250488e-01 -7.164321839809417725e-02 7.971440255641937256e-02
2.782629132270812988e-01 -9.339503943920135498e-02 -8.500153571367263794e-02
2.570176422595977783e-01 -4.317283630371093750e-02 -1.120822280645370483e-01
2.908549904823303223e-01 -4.820456355810165405e-02 9.487016499042510986e-02
2.559834122657775879e-01 -9.530642628669738770e-02 2.115719467401504517e-01
2.889147400856018066e-01 -8.961158245801925659e-02 -4.365351051092147827e-02
2.413071691989898682e-01 -1.104588806629180908e-01 -9.952738881111145020e-03
2.282733470201492310e-01 -8.722387254238128662e-02 -2.016976624727249146e-01
2.278774082660675049e-01 -2.995891869068145752e-02 -5.586759746074676514e-02
2.514814734458923340e-01 -2.841517329216003418e-02 7.494829595088958740e-02
1.859549134969711304e-01 -1.006863564252853394e-01 4.459560289978981018e-02
2.797775864601135254e-01 -9.717824310064315796e-02 -4.728823900222778320e-02
2.286860346794128418e-01 -2.658194303512573242e-02 2.165772020816802979e-04
1.961102336645126343e-01 -8.508283644914627075e-02 2.186881154775619507e-01
2.582808136940002441e-01 -4.898165911436080933e-02 2.611580491065979004e-01
1.568372696638107300e-01 -5.389314889907836914e-02 4.024137556552886963e-02
1.553144156932830811e-01 -5.946701392531394958e-02 4.924989119172096252e-02
3.008142411708831787e-01 -6.561471521854400635e-02 3.091410174965858459e-02
1.856665760278701782e-01 -4.111486673355102539e-02 1.848554313182830811e-01
1.938686072826385498e-01 -4.094202816486358643e-02 -1.258146911859512329e-01
1.674039214849472046e-01 -8.911788463592529297e-02 3.937181457877159119e-02
2.935048341751098633e-01 -5.758256092667579651e-02 -2.075083553791046143e-02
2.606140673160552979e-01 -9.716288000345230103e-02 1.929608583450317383e-01
2.169409245252609253e-01 -1.098225116729736328e-01 1.949166320264339447e-02
2.666008174419403076e-01 -9.658871591091156006e-02 1.844209134578704834e-01
1.559840440750122070e-01 -7.457503676414489746e-02 6.239157170057296753e-03
2.120294868946075439e-01 -1.033115237951278687e-01 -1.158141940832138062e-01
1.883205622434616089e-01 -4.010385274887084961e-02 -1.083924025297164917e-01
2.549667954444885254e-01 -1.090630292892456055e-01 1.576066017150878906e-02
2.983809709548950195e-01 -7.593358308076858521e-02 -1.519277319312095642e-02
1.718545705080032349e-01 -3.827910497784614563e-02 3.282178193330764771e-03
2.402072846889495850e-01 -9.409142285585403442e-02 -1.735663264989852905e-01
2.213217467069625854e-01 -2.570776641368865967e-02 1.882183551788330078e-02
2.107841819524765015e-01 -8.450615406036376953e-02 -2.044953852891921997e-01
1.684858351945877075e-01 -4.158257693052291870e-02 -1.989946514368057251e-02
2.389375716447830200e-01 -8.310294896364212036e-02 2.712654471397399902e-01
2.235373556613922119e-01 -2.748176082968711853e-02 1.450161337852478027e-01
1.878045797348022461e-01 -1.021384596824645996e-01 -8.674763143062591553e-03
1.654559969902038574e-01 -8.634129911661148071e-02 -4.939290136098861694e-02
2.266200333833694458e-01 -7.187204807996749878e-02 2.904134988784790039e-01
2.466731518507003784e-01 -1.087972894310951233e-01 8.673368394374847412e-02
2.964155077934265137e-01 -6.870227307081222534e-02 -3.405173867940902710e-02
1.846458613872528076e-01 -8.514790236949920654e-02 -1.616832911968231201e-01
2.160673588514328003e-01 -7.769265770912170410e-02 -2.169480770826339722e-01
2.852450013160705566e-01 -7.713955640792846680e-02 2.131171971559524536e-01
1.805669367313385010e-01 -5.236920714378356934e-02 2.081005722284317017e-01
2.957770526409149170e-01 -5.354383960366249084e-02 8.192192018032073975e-02
2.859801352024078369e-01 -6.888849288225173950e-02 2.198421359062194824e-01
2.427103221416473389e-01 -9.414306282997131348e-02 2.278121113777160645e-01
2.375231087207794189e-01 -1.069212555885314941e-01 -8.842709660530090332e-02
2.195209115743637085e-01 -1.011226922273635864e-01 -1.413970291614532471e-01
2.040629982948303223e-01 -5.131184682250022888e-02 -1.838220506906509399e-01
1.659844219684600830e-01 -8.090808987617492676e-02 1.104120537638664246e-01
1.932657063007354736e-01 -9.513197094202041626e-02 -1.384982317686080933e-01
2.924382090568542480e-01 -5.865881592035293579e-02 -3.549788147211074829e-02
2.395884543657302856e-01 -3.034270554780960083e-02 -4.321773350238800049e-02
2.150663733482360840e-01 -4.573496431112289429e-02 -1.689342111349105835e-01
1.849280595779418945e-01 -3.337175399065017700e-02 -2.629452943801879883e-02
2.832624614238739014e-01 -9.883797168731689453e-02 5.985476076602935791e-02
2.252081334590911865e-01 -1.068696081638336182e-01 -9.132832288742065430e-02
2.235523760318756104e-01 -2.522515505552291870e-02 4.356373846530914307e-02
1.993054896593093872e-01 -1.026035994291305542e-01 1.052033156156539917e-01
2.807591855525970459e-01 -5.154228210449218750e-02 2.096165567636489868e-01
2.684740722179412842e-01 -5.842524766921997070e-02 -1.438920050859451294e-01
1.885289996862411499e-01 -3.089493513107299805e-02 8.919018507003784180e-02
1.832760125398635864e-01 -6.747420132160186768e-02 2.250561267137527466e-01
2.111276090145111084e-01 -2.581392228603363037e-02 8.035933971405029297e-02
2.690437436103820801e-01 -7.985296100378036499e-02 2.518689036369323730e-01
1.595571339130401611e-01 -5.410188436508178711e-02 9.150760620832443237e-02
2.278474867343902588e-01 -3.279717266559600830e-02 2.049816250801086426e-01
2.982150614261627197e-01 -5.760455504059791565e-02 5.092427879571914673e-02
2.964675128459930420e-01 -5.819316580891609192e-02 1.334459185600280762e-01
2.335135340690612793e-01 -1.057059019804000854e-01 1.405832916498184204e-01
2.420137077569961548e-01 -1.105090752243995667e-01 4.076567292213439941e-02
2.441402524709701538e-01 -4.473440349102020264e-02 2.632719278335571289e-01
2.382097840309143066e-01 -2.616076171398162842e-02 4.963248968124389648e-02
3.007588386535644531e-01 -7.904148101806640625e-02 7.842840254306793213e-02
2.840047478675842285e-01 -4.523884877562522888e-02 -8.629746735095977783e-04
2.773085236549377441e-01 -1.021402180194854736e-01 4.536783322691917419e-02
2.972732782363891602e-01 -8.434762805700302124e-02 9.409513324499130249e-03
2.198894321918487549e-01 -1.059655994176864624e-01 1.233417466282844543e-01
2.904704809188842773e-01 -5.225255340337753296e-02 -1.140202209353446960e-02
2.716096043586730957e-01 -1.045682132244110107e-01 3.399846330285072327e-02
2.190315872430801392e-01 -1.076970323920249939e-01 -7.324396073818206787e-02
2.311934232711791992e-01 -1.107163429260253906e-01 3.959094360470771790e-02
2.686142325401306152e-01 -9.561833739280700684e-02 -1.110589057207107544e-01
1.582640558481216431e-01 -7.727976143360137939e-02 4.881705716252326965e-02
2.269304394721984863e-01 -4.887523502111434937e-02 2.785183787345886230e-01
2.974923551082611084e-01 -5.642631649971008301e-02 9.413111209869384766e-02
2.205991595983505249e-01 -1.049482002854347229e-01 -1.099298149347305298e-01
1.577993929386138916e-01 -5.199296027421951294e-02 1.533064991235733032e-03
2.789731025695800781e-01 -6.176614761352539062e-02 2.409806400537490845e-01
1.937510520219802856e-01 -7.031247764825820923e-02 2.494573742151260376e-01
2.081999182701110840e-01 -1.014130264520645142e-01 -1.263736337423324585e-01
1.663607507944107056e-01 -8.868925273418426514e-02 -1.944669336080551147e-02
2.295500338077545166e-01 -1.063490286469459534e-01 1.307383775711059570e-01
1.969822049140930176e-01 -3.591238707304000854e-02 1.874148249626159668e-01
2.403031885623931885e-01 -2.828144654631614685e-02 1.429047584533691406e-01
2.132864296436309814e-01 -9.692542254924774170e-02 1.934366226196289062e-01
2.656853795051574707e-01 -1.063526123762130737e-01 5.284133926033973694e-02
2.036277353763580322e-01 -1.051470264792442322e-01 -7.204775512218475342e-02
1.542963683605194092e-01 -6.177710741758346558e-02 6.205618381500244141e-03
2.683815360069274902e-01 -1.045866459608078003e-01 8.528044819831848145e-02
2.645253539085388184e-01 -3.330269828438758850e-02 2.226749062538146973e-02
1.939322650432586670e-01 -1.043379753828048706e-01 -1.845518872141838074e-02
2.944502234458923340e-01 -8.235388994216918945e-02 1.466606259346008301e-01
2.398530095815658569e-01 -1.107856780290603638e-01 1.038537919521331787e-02
1.797896623611450195e-01 -9.791421145200729370e-02 -3.027705848217010498e-02
2.134644985198974609e-01 -1.089584305882453918e-01 4.256988689303398132e-02
1.637656837701797485e-01 -6.086791306734085083e-02 -1.057415008544921875e-01
1.987752914428710938e-01 -6.175868213176727295e-02 -2.020230889320373535e-01
2.682214677333831787e-01 -1.024119257926940918e-01 1.239303499460220337e-01
2.278706580400466919e-01 -1.095452904701232910e-01 7.554937899112701416e-02
2.777606248855590820e-01 -6.229853257536888123e-02 -1.230916231870651245e-01
2.765908837318420410e-01 -1.016924530267715454e-01 -6.111275404691696167e-03
1.736782491207122803e-01 -9.340354055166244507e-02 5.340031906962394714e-02
2.434560209512710571e-01 -2.727920189499855042e-02 1.062590628862380981e-01
2.500289082527160645e-01 -1.082383394241333008e-01 -4.553683847188949585e-02
1.726913005113601685e-01 -4.304944351315498352e-02 -7.051893323659896851e-02
2.559214234352111816e-01 -4.517410695552825928e-02 -1.257861107587814331e-01
2.480878233909606934e-01 -3.223348781466484070e-02 1.804250478744506836e-01
1.924386918544769287e-01 -4.380612075328826904e-02 -1.392261385917663574e-01
2.781150043010711670e-01 -4.248689115047454834e-02 1.639743447303771973e-01
2.397285699844360352e-01 -1.076093614101409912e-01 1.156725063920021057e-01
2.626366317272186279e-01 -5.886603519320487976e-02 2.746121883392333984e-01
1.985848098993301392e-01 -1.018163710832595825e-01 -9.853884577751159668e-02
2.492401003837585449e-01 -6.007780879735946655e-02 -1.881315261125564575e-01
2.492689937353134155e-01 -1.070167794823646545e-01 -6.811323016881942749e-02
2.738401591777801514e-01 -7.726851105690002441e-02 -1.461477130651473999e-01
1.615836322307586670e-01 -8.393702656030654907e-02 2.649895846843719482e-03
2.454189062118530273e-01 -3.563483431935310364e-02 -8.599545061588287354e-02
1.888729035854339600e-01 -3.227252140641212463e-02 1.197829097509384155e-01
2.689109742641448975e-01 -6.694094836711883545e-02 -1.581616252660751343e-01
1.684776842594146729e-01 -4.010180011391639709e-02 3.696835413575172424e-02
2.526066303253173828e-01 -8.515975624322891235e-02 2.592606842517852783e-01
1.752756834030151367e-01 -3.754860907793045044e-02 9.734724462032318115e-02
1.760961264371871948e-01 -9.362753480672836304e-02 7.692392170429229736e-02
2.005829364061355591e-01 -1.065544933080673218e-01 1.156190782785415649e-02
2.662907838821411133e-01 -4.948741197586059570e-02 2.474886178970336914e-01
1.997542679309844971e-01 -8.798880130052566528e-02 -1.839261651039123535e-01
2.294705808162689209e-01 -3.046733140945434570e-02 1.835680454969406128e-01
2.391136139631271362e-01 -1.037179082632064819e-01 1.617907285690307617e-01
2.075589895248413086e-01 -2.603510022163391113e-02 6.190561875700950623e-02
2.532641589641571045e-01 -1.048852354288101196e-01 1.366276741027832031e-01
2.203841507434844971e-01 -4.086378961801528931e-02 2.494169324636459351e-01
1.737129688262939453e-01 -4.411478340625762939e-02 -8.424832671880722046e-02
2.205014228820800781e-01 -4.540525749325752258e-02 2.660088539123535156e-01
1.556367278099060059e-01 -6.030628457665443420e-02 -2.923025935888290405e-02
2.133721113204956055e-01 -3.220951184630393982e-02 -8.220941573381423950e-02
1.959042549133300781e-01 -2.847782522439956665e-02 8.200956881046295166e-02
2.013323754072189331e-01 -2.829527109861373901e-02 -8.916173130273818970e-03
2.424314469099044800e-01 -3.847876936197280884e-02 2.364543229341506958e-01
2.644635140895843506e-01 -7.924024015665054321e-02 2.612166404724121094e-01
2.948117256164550781e-01 -7.055275887250900269e-02 1.741834878921508789e-01
1.706976443529129028e-01 -6.841131299734115601e-02 -1.444216072559356689e-01
2.015310078859329224e-01 -4.551555216312408447e-02 -1.599916219711303711e-01
2.084815204143524170e-01 -3.447163105010986328e-02 2.015364617109298706e-01
2.692197561264038086e-01 -3.465816751122474670e-02 3.950963914394378662e-02
2.927059829235076904e-01 -5.937844887375831604e-02 1.737423986196517944e-01
2.583750784397125244e-01 -3.083547949790954590e-02 3.231945261359214783e-02
2.346949428319931030e-01 -1.060940325260162354e-01 -9.993226826190948486e-02
2.465463131666183472e-01 -3.398975357413291931e-02 2.004710286855697632e-01
2.429428249597549438e-01 -2.952837944030761719e-02 1.574290394783020020e-01
2.390122264623641968e-01 -5.630655586719512939e-02 2.921478748321533203e-01
2.170670777559280396e-01 -2.607315778732299805e-02 1.097500994801521301e-01
1.958683133125305176e-01 -5.283711105585098267e-02 2.502814233303070068e-01
2.026554644107818604e-01 -3.279675170779228210e-02 1.767153143882751465e-01
2.537809312343597412e-01 -3.129792585968971252e-02 1.508737802505493164e-01
2.622508108615875244e-01 -3.384032472968101501e-02 -6.326407194137573242e-03
2.098624557256698608e-01 -9.224668890237808228e-02 -1.808901876211166382e-01
1.680944859981536865e-01 -8.793179690837860107e-02 6.954398006200790405e-02
2.297972142696380615e-01 -2.597833424806594849e-02 1.095457449555397034e-01
1.543800383806228638e-01 -6.759717315435409546e-02 -6.046377122402191162e-03
2.236087322235107422e-01 -3.853692859411239624e-02 -1.314538568258285522e-01
2.925043106079101562e-01 -5.026095360517501831e-02 4.276209697127342224e-02
1.810451149940490723e-01 -3.307800740003585815e-02 5.806767567992210388e-02
1.734656989574432373e-01 -9.071755409240722656e-02 -8.198527991771697998e-02
2.310518920421600342e-01 -7.883336395025253296e-02 2.807703018188476562e-01
2.190693020820617676e-01 -9.697033464908599854e-02 -1.660455465316772461e-01
2.274001985788345337e-01 -4.652187973260879517e-02 -1.702231168746948242e-01
3.003436923027038574e-01 -6.280986219644546509e-02 4.112930968403816223e-02
1.802751123905181885e-01 -3.366846591234207153e-02 7.004766166210174561e-02
2.057571560144424438e-01 -2.916280552744865417e-02 -3.712955862283706665e-02
2.824771404266357422e-01 -4.771278426051139832e-02 1.807006150484085083e-01
2.128093689680099487e-01 -1.078244596719741821e-01 7.340328395366668701e-02
1.664239764213562012e-01 -6.664670258760452271e-02 -1.256468892097473145e-01
1.756732016801834106e-01 -8.880442380905151367e-02 -1.109438389539718628e-01
2.185638844966888428e-01 -9.978215396404266357e-02 1.813553273677825928e-01
2.382035553455352783e-01 -2.817896381020545959e-02 -1.295260712504386902e-02
2.506758868694305420e-01 -3.559749573469161987e-02 -7.319048792123794556e-02
2.468503713607788086e-01 -1.081281006336212158e-01 9.998280555009841919e-02
2.731052637100219727e-01 -5.133802443742752075e-02 2.359826117753982544e-01
2.449526637792587280e-01 -1.104436665773391724e-01 1.922013424336910248e-02
1.865389943122863770e-01 -4.432545602321624756e-02 2.030963003635406494e-01
2.199535965919494629e-01 -9.366573393344879150e-02 -1.813621222972869873e-01
2.063183486461639404e-01 -8.896044641733169556e-02 2.242204397916793823e-01
2.661159932613372803e-01 -5.129932612180709839e-02 -1.271828114986419678e-01
2.421108633279800415e-01 -1.012241840362548828e-01 -1.347554773092269897e-01
2.263667881488800049e-01 -6.196949258446693420e-02 2.947928309440612793e-01
2.092483043670654297e-01 -2.585636451840400696e-02 4.697368666529655457e-02
1.858802288770675659e-01 -5.258818715810775757e-02 2.252911478281021118e-01
1.914726197719573975e-01 -4.723520576953887939e-02 -1.534784436225891113e-01
2.523587346076965332e-01 -2.882870286703109741e-02 4.680680483579635620e-02
1.652639508247375488e-01 -5.476041883230209351e-02 -9.731450676918029785e-02
2.213919162750244141e-01 -3.080487996339797974e-02 -6.899073719978332520e-02
2.306565195322036743e-01 -1.009166017174720764e-01 1.841073930263519287e-01
2.751025855541229248e-01 -9.005366265773773193e-02 2.010950893163681030e-01
2.947165369987487793e-01 -7.705707848072052002e-02 1.647401899099349976e-01
2.201239615678787231e-01 -3.838636726140975952e-02 2.377263754606246948e-01
2.972132265567779541e-01 -6.776490062475204468e-02 1.556806415319442749e-01
2.570130825042724609e-01 -4.154649004340171814e-02 2.330196797847747803e-01
2.152504175901412964e-01 -2.689934521913528442e-02 -1.006751880049705505e-02
2.765216231346130371e-01 -9.490699321031570435e-02 1.658747643232345581e-01
1.967847347259521484e-01 -1.054484769701957703e-01 -9.384006261825561523e-05
2.176284193992614746e-01 -3.188491240143775940e-02 1.926864385604858398e-01
1.543466448783874512e-01 -6.812281161546707153e-02 2.006516791880130768e-02
2.663513123989105225e-01 -9.856434166431427002e-02 -1.001967936754226685e-01
1.941643804311752319e-01 -9.909036755561828613e-02 -1.110173165798187256e-01
2.153193801641464233e-01 -8.118540048599243164e-02 2.640421986579895020e-01
2.702868580818176270e-01 -8.961860090494155884e-02 2.159075438976287842e-01
1.922163814306259155e-01 -1.037944331765174866e-01 2.086441591382026672e-02
2.194538414478302002e-01 -2.650458365678787231e-02 1.238480061292648315e-01
2.120737135410308838e-01 -1.090907603502273560e-01 -1.724835485219955444e-03
1.744391620159149170e-01 -9.407696127891540527e-02 -4.572229832410812378e-02
1.817973554134368896e-01 -9.786281734704971313e-02 -5.740822106599807739e-02
2.594907879829406738e-01 -3.421911597251892090e-02 -2.699214220046997070e-02
2.253926247358322144e-01 -1.037570685148239136e-01 -1.235054731369018555e-01
2.516886293888092041e-01 -8.978188037872314453e-02 2.431005537509918213e-01
2.009903192520141602e-01 -2.779700607061386108e-02 5.797080695629119873e-03
2.508953511714935303e-01 -1.063093096017837524e-01 1.222342103719711304e-01
2.738891839981079102e-01 -3.874818980693817139e-02 -1.186706125736236572e-03
1.885029971599578857e-01 -3.081577271223068237e-02 4.617393016815185547e-03
1.768574267625808716e-01 -3.861532360315322876e-02 1.239041909575462341e-01
1.560075134038925171e-01 -7.336685806512832642e-02 -2.109900861978530884e-02
1.608066707849502563e-01 -6.908840686082839966e-02 -9.193080663681030273e-02
1.896393001079559326e-01 -9.059973806142807007e-02 1.738992035388946533e-01
2.832630276679992676e-01 -8.342607319355010986e-02 2.027076184749603271e-01
2.886476516723632812e-01 -8.737210929393768311e-02 1.587914824485778809e-01
2.929770648479461670e-01 -9.091933071613311768e-02 7.971680164337158203e-02
2.565647363662719727e-01 -2.983143925666809082e-02 8.962447941303253174e-02
2.291624397039413452e-01 -3.265171498060226440e-02 -8.350835740566253662e-02
2.009509652853012085e-01 -3.203921765089035034e-02 -6.582138687372207642e-02
1.567667573690414429e-01 -6.065471097826957703e-02 7.890243828296661377e-02
1.702754199504852295e-01 -6.942657381296157837e-02 1.734753102064132690e-01
2.248940169811248779e-01 -9.753639996051788330e-02 2.038172036409378052e-01
1.680665612220764160e-01 -9.045028686523437500e-02 -4.516035318374633789e-03
2.006781995296478271e-01 -1.061547249555587769e-01 4.043545946478843689e-02
1.649544537067413330e-01 -8.314942568540573120e-02 8.543348312377929688e-02
2.142213732004165649e-01 -9.367189556360244751e-02 2.141497582197189331e-01
2.573002278804779053e-01 -9.819185733795166016e-02 -1.280113309621810913e-01
3.003107011318206787e-01 -6.680058687925338745e-02 1.186081692576408386e-01
2.836780548095703125e-01 -5.223995074629783630e-02 1.991981863975524902e-01
2.638264596462249756e-01 -1.070636063814163208e-01 2.176700532436370850e-02
2.203729450702667236e-01 -1.049409657716751099e-01 1.366029977798461914e-01
2.403483688831329346e-01 -2.794897928833961487e-02 -1.864112913608551025e-03
2.323377281427383423e-01 -4.206021130084991455e-02 -1.463782191276550293e-01
1.704728305339813232e-01 -6.031105667352676392e-02 1.785029321908950806e-01
2.128710597753524780e-01 -3.000731021165847778e-02 1.686323732137680054e-01
3.011173307895660400e-01 -7.528966665267944336e-02 2.562783285975456238e-02
1.864281892776489258e-01 -9.592258930206298828e-02 1.206537932157516479e-01
2.425332665443420410e-01 -1.065088659524917603e-01 1.295551955699920654e-01
2.711517810821533203e-01 -6.726912409067153931e-02 2.632828950881958008e-01
1.594527661800384521e-01 -5.092319846153259277e-02 6.732781231403350830e-02
2.919022440910339355e-01 -4.965550079941749573e-02 1.060944199562072754e-01
2.977299094200134277e-01 -8.463678508996963501e-02 8.831249177455902100e-02
2.176982462406158447e-01 -1.011788696050643921e-01 1.690016537904739380e-01
2.921300530433654785e-01 -8.685111999511718750e-02 -3.427997231483459473e-02
2.988113462924957275e-01 -6.707308441400527954e-02 -6.699737161397933960e-03
1.897496283054351807e-01 -7.561872899532318115e-02 2.309580594301223755e-01
2.022963166236877441e-01 -1.063062846660614014e-01 5.089033395051956177e-02
2.803660035133361816e-01 -9.710572659969329834e-02 1.261842697858810425e-01
2.648627460002899170e-01 -3.249230608344078064e-02 6.177460774779319763e-02
2.654567360877990723e-01 -3.337683901190757751e-02 1.169562265276908875e-01
2.850497663021087646e-01 -5.245047435164451599e-02 -5.364449322223663330e-02
1.600225865840911865e-01 -7.978856563568115234e-02 -4.344215244054794312e-02
1.730995178222656250e-01 -4.285863041877746582e-02 1.361494660377502441e-01
1.860680580139160156e-01 -1.006135344505310059e-01 -4.256653785705566406e-02
1.917759478092193604e-01 -3.519499301910400391e-02 -7.726449519395828247e-02
1.834316998720169067e-01 -9.628002345561981201e-02 -9.083263576030731201e-02
1.822940409183502197e-01 -6.077987328171730042e-02 -1.732498109340667725e-01
2.426456511020660400e-01 -1.024914234876632690e-01 1.719458401203155518e-01
1.632216423749923706e-01 -8.151528984308242798e-02 -6.998369842767715454e-02
1.768559813499450684e-01 -9.192573279142379761e-02 1.030816286802291870e-01
2.770147323608398438e-01 -9.705582261085510254e-02 1.452096253633499146e-01
1.705431044101715088e-01 -8.045423030853271484e-02 -1.249992996454238892e-01
2.827759981155395508e-01 -9.744724631309509277e-02 -1.896979287266731262e-02
1.738838106393814087e-01 -4.041340947151184082e-02 -5.245141685009002686e-02
1.939387023448944092e-01 -4.930551350116729736e-02 -1.656055152416229248e-01
2.963989377021789551e-01 -5.916101485490798950e-02 2.424791455268859863e-05
1.947200596332550049e-01 -1.042848825454711914e-01 -3.291084617376327515e-02
2.810043394565582275e-01 -5.155755579471588135e-02 -7.120335847139358521e-02
2.450709044933319092e-01 -9.513621032238006592e-02 -1.641217321157455444e-01
1.897783428430557251e-01 -3.459886461496353149e-02 1.526051312685012817e-01
2.615706920623779297e-01 -3.545313328504562378e-02 1.747956126928329468e-01
2.507686913013458252e-01 -4.406625777482986450e-02 2.543337345123291016e-01
2.549106478691101074e-01 -1.035086140036582947e-01 -9.426197409629821777e-02
2.306587994098663330e-01 -4.444396495819091797e-02 -1.593198180198669434e-01
2.346299886703491211e-01 -3.432057052850723267e-02 2.151709944009780884e-01
2.994760274887084961e-01 -6.876559555530548096e-02 1.331065148115158081e-01
1.999998688697814941e-01 -4.497179388999938965e-02 2.389687895774841309e-01
2.497780770063400269e-01 -3.852839767932891846e-02 -9.917660057544708252e-02
1.858297139406204224e-01 -3.224905207753181458e-02 -1.022061705589294434e-02
1.838538646697998047e-01 -3.471022844314575195e-02 -4.107423126697540283e-02
1.761415749788284302e-01 -3.531559929251670837e-02 4.336007684469223022e-02
2.247491180896759033e-01 -8.482743054628372192e-02 2.618490755558013916e-01
2.913926243782043457e-01 -4.853756725788116455e-02 6.441420316696166992e-02
1.964880377054214478e-01 -2.811254933476448059e-02 3.008373081684112549e-02
1.624402403831481934e-01 -5.521393939852714539e-02 -8.102190494537353516e-02
1.748549044132232666e-01 -7.686586678028106689e-02 -1.520573645830154419e-01
2.005210518836975098e-01 -2.726036682724952698e-02 7.227368652820587158e-02
2.423450797796249390e-01 -2.963469550013542175e-02 -2.626418322324752808e-02
2.678306102752685547e-01 -1.053823232650756836e-01 6.734851747751235962e-02
2.235919684171676636e-01 -5.815980583429336548e-02 -2.061018049716949463e-01
2.453297525644302368e-01 -2.825707197189331055e-02 1.264226436614990234e-01
2.039072960615158081e-01 -9.865697473287582397e-02 1.612286865711212158e-01
2.457489073276519775e-01 -9.713993966579437256e-02 2.096564322710037231e-01
1.876439154148101807e-01 -1.000470146536827087e-01 7.557075470685958862e-02
2.258736938238143921e-01 -1.094629019498825073e-01 -4.865904152393341064e-02
1.910104602575302124e-01 -1.007750853896141052e-01 8.742664754390716553e-02
2.686895132064819336e-01 -3.701645135879516602e-02 -1.394544169306755066e-02
1.663172245025634766e-01 -4.800806939601898193e-02 1.221574097871780396e-01
1.674270331859588623e-01 -4.350315406918525696e-02 -3.592995554208755493e-02
2.142011970281600952e-01 -4.945632815361022949e-02 -1.829081773757934570e-01
2.649946510791778564e-01 -1.053622364997863770e-01 -2.991412580013275146e-02
1.669255048036575317e-01 -7.865326106548309326e-02 1.288891434669494629e-01
2.716973423957824707e-01 -3.539740666747093201e-02 9.167142957448959351e-02
2.826695442199707031e-01 -9.343905746936798096e-02 -6.070487201213836670e-02
2.865076661109924316e-01 -9.451079368591308594e-02 1.107710897922515869e-01
2.792276740074157715e-01 -3.928942233324050903e-02 6.424190104007720947e-02
1.573270261287689209e-01 -5.242903158068656921e-02 2.266573160886764526e-02
3.007649779319763184e-01 -6.921865791082382202e-02 1.652852073311805725e-02
1.908998787403106689e-01 -5.357095971703529358e-02 -1.745510250329971313e-01
1.700662374496459961e-01 -5.773078277707099915e-02 -1.294641494750976562e-01
2.398574799299240112e-01 -3.176983445882797241e-02 1.894354224205017090e-01
1.618067771196365356e-01 -5.276471748948097229e-02 -6.421222537755966187e-02
2.236877828836441040e-01 -8.334180712699890137e-02 -2.104099988937377930e-01
1.567617505788803101e-01 -7.266990840435028076e-02 5.867781490087509155e-02
2.781977653503417969e-01 -7.932224124670028687e-02 -1.296082884073257446e-01
2.586631178855895996e-01 -1.074842140078544617e-01 7.546159625053405762e-02
1.653853654861450195e-01 -6.682971864938735962e-02 1.507474184036254883e-01
1.739895492792129517e-01 -5.529888346791267395e-02 1.885066777467727661e-01
1.663476675748825073e-01 -4.509868472814559937e-02 1.008476018905639648e-01
2.542546093463897705e-01 -3.433919325470924377e-02 -4.967860877513885498e-02
1.885922700166702271e-01 -9.375852346420288086e-02 1.489901989698410034e-01
2.695559561252593994e-01 -1.029831320047378540e-01 1.090211570262908936e-01
2.787387371063232422e-01 -1.014098227024078369e-01 2.540379762649536133e-02
2.212266027927398682e-01 -9.260900318622589111e-02 2.279883921146392822e-01
2.626896500587463379e-01 -1.021135747432708740e-01 -8.388867229223251343e-02
1.646334975957870483e-01 -4.578185826539993286e-02 8.863645792007446289e-02
2.873175442218780518e-01 -8.248312771320343018e-02 -8.395433425903320312e-02
2.502088844776153564e-01 -4.510263353586196899e-02 -1.374944597482681274e-01
3.010750412940979004e-01 -7.832159101963043213e-02 4.654876142740249634e-02
2.364024221897125244e-01 -3.241621330380439758e-02 -7.271427661180496216e-02
2.913213968276977539e-01 -9.240781515836715698e-02 1.496413163840770721e-02
1.606995016336441040e-01 -7.977960258722305298e-02 6.480161100625991821e-02
2.431232482194900513e-01 -9.862365573644638062e-02 -1.494511961936950684e-01
2.605011463165283203e-01 -1.079086214303970337e-01 3.510908037424087524e-02
2.748521566390991211e-01 -3.818150609731674194e-02 1.809072308242321014e-02
2.533153891563415527e-01 -3.448858112096786499e-02 1.910854279994964600e-01
1.958270370960235596e-01 -5.764105170965194702e-02 -1.915662139654159546e-01
2.886825203895568848e-01 -9.506248682737350464e-02 2.459242194890975952e-02
2.030853033065795898e-01 -7.893557101488113403e-02 2.522522509098052979e-01
2.959373593330383301e-01 -5.569928511977195740e-02 2.374543435871601105e-02
3.017397224903106689e-01 -6.669902056455612183e-02 7.887738943099975586e-02
2.509582340717315674e-01 -1.039222627878189087e-01 1.511532366275787354e-01
1.571477949619293213e-01 -7.673622667789459229e-02 2.529822848737239838e-02
2.169117033481597900e-01 -1.081553548574447632e-01 -6.081998348236083984e-02
2.386955618858337402e-01 -6.264381855726242065e-02 -2.050790041685104370e-01
1.821873188018798828e-01 -3.255045413970947266e-02 2.881179004907608032e-02
1.963310688734054565e-01 -9.049616754055023193e-02 1.947339177131652832e-01
2.857517898082733154e-01 -8.688548952341079712e-02 1.770526170730590820e-01
1.568737775087356567e-01 -6.502939760684967041e-02 -5.677327513694763184e-02
1.782542467117309570e-01 -5.119553953409194946e-02 -1.381112188100814819e-01
2.120797932147979736e-01 -2.843674272298812866e-02 1.473351269960403442e-01
2.873720526695251465e-01 -4.576488584280014038e-02 3.452603518962860107e-02
2.909034788608551025e-01 -4.969050735235214233e-02 1.251448094844818115e-01
1.884848177433013916e-01 -3.050721436738967896e-02 1.614581234753131866e-02
2.156458497047424316e-01 -2.634604275226593018e-02 2.869002521038055420e-03
2.944802343845367432e-01 -6.860111653804779053e-02 -4.942099750041961670e-02
2.694196105003356934e-01 -1.014677584171295166e-01 -6.232363730669021606e-02
1.936690062284469604e-01 -2.872883528470993042e-02 6.289870291948318481e-02
2.042021900415420532e-01 -3.819835186004638672e-02 -1.230956017971038818e-01
2.419947087764739990e-01 -2.664650604128837585e-02 8.316986262798309326e-02
2.371336519718170166e-01 -4.070238769054412842e-02 2.509048283100128174e-01
1.636209189891815186e-01 -5.804138258099555969e-02 1.377860903739929199e-01
2.700654268264770508e-01 -4.130701720714569092e-02 -5.353376269340515137e-02
2.695621252059936523e-01 -9.250549226999282837e-02 -1.234046220779418945e-01
1.607989668846130371e-01 -8.281158655881881714e-02 -9.237807244062423706e-03
2.387128174304962158e-01 -3.691787645220756531e-02 -1.076964139938354492e-01
2.812027335166931152e-01 -7.697315514087677002e-02 2.276478409767150879e-01
2.625333070755004883e-01 -1.022783666849136353e-01 1.452413946390151978e-01
1.772998273372650146e-01 -8.462678641080856323e-02 1.573795080184936523e-01
2.976049184799194336e-01 -8.059960603713989258e-02 1.257678866386413574e-01
2.268981635570526123e-01 -2.517767250537872314e-02 6.184664368629455566e-02
1.871794611215591431e-01 -9.083729237318038940e-02 1.635945141315460205e-01
2.774927914142608643e-01 -1.000368222594261169e-01 -2.896978706121444702e-02
1.762459129095077515e-01 -9.378466010093688965e-02 -6.984744966030120850e-02
1.943760067224502563e-01 -9.362175315618515015e-02 -1.501941382884979248e-01
2.367530316114425659e-01 -1.094709485769271851e-01 8.267479389905929565e-02
2.086767852306365967e-01 -2.950144186615943909e-02 -4.683648049831390381e-02
2.540979981422424316e-01 -1.079398542642593384e-01 -3.603737801313400269e-02
2.315611541271209717e-01 -1.002177149057388306e-01 -1.487568020820617676e-01
5.814002752304077148e-01 -8.240866661071777344e-02 5.142622627317905426e-03
7.644857168197631836e-01 5.698604136705398560e-02 -2.795860171318054199e-02
6.045893430709838867e-01 1.115990281105041504e-01 -3.070597304031252861e-03
7.379231452941894531e-01 1.077088564634323120e-01 3.591998666524887085e-02
6.295391321182250977e-01 -7.288648933172225952e-02 -4.838799312710762024e-02
5.290748476982116699e-01 4.345899075269699097e-02 -4.953609034419059753e-02
6.877728700637817383e-01 6.666871905326843262e-02 7.953899353742599487e-02
7.460854053497314453e-01 8.167956769466400146e-02 6.021352484822273254e-02
7.218418121337890625e-01 2.222655527293682098e-02 -6.165970489382743835e-02
6.363893151283264160e-01 1.440199650824069977e-02 -8.623037487268447876e-02
5.485734343528747559e-01 -5.572640895843505859e-02 -5.601817741990089417e-02
6.800532341003417969e-01 7.461223751306533813e-02 7.641128450632095337e-02
7.391046881675720215e-01 1.104656904935836792e-01 2.255423227325081825e-03
7.345772981643676758e-01 -3.312113881111145020e-02 -2.887690626084804535e-02
6.090276837348937988e-01 7.721800357103347778e-02 -6.603701412677764893e-02
5.454589724540710449e-01 -7.118555903434753418e-02 -5.236919969320297241e-03
7.617357969284057617e-01 9.704870730638504028e-02 2.175346575677394867e-02
5.224698781967163086e-01 -4.039467871189117432e-02 -4.875482991337776184e-02
6.474223732948303223e-01 8.534288406372070312e-02 -6.304780393838882446e-02
6.350027918815612793e-01 7.781569659709930420e-02 6.810301542282104492e-02
6.819573640823364258e-01 1.176801137626171112e-02 -7.714071869850158691e-02
5.365086197853088379e-01 6.843111664056777954e-02 -6.013347301632165909e-03
7.533343434333801270e-01 5.611934512853622437e-02 -3.833207115530967712e-02
6.521242260932922363e-01 6.944918632507324219e-02 7.584138214588165283e-02
6.230078935623168945e-01 1.169646978378295898e-01 8.614009246230125427e-03
5.256794095039367676e-01 -1.145121827721595764e-02 2.928476594388484955e-02
7.338575124740600586e-01 1.141982153058052063e-01 1.333476323634386063e-02
6.228660345077514648e-01 6.759493052959442139e-02 -7.351443916559219360e-02
7.874097824096679688e-01 4.845158010721206665e-02 2.385780587792396545e-02
6.570746302604675293e-01 -6.836558133363723755e-02 4.091666266322135925e-02
5.929322838783264160e-01 8.752945810556411743e-02 -5.223671346902847290e-02
6.174894571304321289e-01 -1.641994342207908630e-03 -8.680964261293411255e-02
5.786376595497131348e-01 6.627180427312850952e-02 -6.541834771633148193e-02
6.536623239517211914e-01 -8.344836533069610596e-02 -8.305698633193969727e-03
6.475855112075805664e-01 1.226190105080604553e-01 -4.060553910676389933e-04
6.243143081665039062e-01 9.992706775665283203e-02 4.658256471157073975e-02
7.260765433311462402e-01 8.976305276155471802e-02 -3.902368620038032532e-02
7.021716237068176270e-01 6.211171299219131470e-02 -6.415480375289916992e-02
5.557918548583984375e-01 6.047798693180084229e-02 -5.836854502558708191e-02
5.423589348793029785e-01 7.154949754476547241e-02 -2.865981683135032654e-02
7.152541279792785645e-01 1.449431944638490677e-02 -6.436831504106521606e-02
6.953175067901611328e-01 -6.643506139516830444e-02 2.520409412682056427e-02
6.211929321289062500e-01 9.354559332132339478e-02 -5.433816090226173401e-02
6.320666074752807617e-01 6.369375623762607574e-03 8.092170208692550659e-02
5.891185998916625977e-01 1.007243618369102478e-01 -2.837969549000263214e-02
5.317091941833496094e-01 -4.572629928588867188e-03 3.585525602102279663e-02
5.847580432891845703e-01 7.969722896814346313e-02 -5.683173239231109619e-02
7.276587486267089844e-01 -5.204972624778747559e-02 1.598649099469184875e-02
6.187723875045776367e-01 1.540052890777587891e-02 -8.720500767230987549e-02
6.727589368820190430e-01 -2.658849768340587616e-02 -7.101829349994659424e-02
6.313079595565795898e-01 -1.775606535375118256e-02 7.567691802978515625e-02
6.608851552009582520e-01 2.797485888004302979e-02 8.531148731708526611e-02
5.578386783599853516e-01 -2.413697540760040283e-03 -7.941788434982299805e-02
7.807227969169616699e-01 7.061065733432769775e-02 7.794352713972330093e-03
7.757385969161987305e-01 6.362828612327575684e-02 -1.075862906873226166e-02
7.332525253295898438e-01 3.492657467722892761e-02 7.740347832441329956e-02
5.670959353446960449e-01 -6.855753064155578613e-02 2.342889830470085144e-02
5.498039126396179199e-01 8.066301047801971436e-02 -1.487946417182683945e-02
5.902326703071594238e-01 6.068334728479385376e-02 5.985305830836296082e-02
6.148877143859863281e-01 -8.785468339920043945e-02 -9.125863201916217804e-03
5.828030705451965332e-01 1.662791334092617035e-02 -8.455024659633636475e-02
5.936830639839172363e-01 -5.509039014577865601e-02 -6.804747879505157471e-02
7.814242839813232422e-01 1.112678181380033493e-02 8.289334364235401154e-03
6.423395276069641113e-01 -8.533196151256561279e-02 2.291915938258171082e-03
7.315537929534912109e-01 -4.592362791299819946e-02 2.895980142056941986e-02
7.870833277702331543e-01 3.723069280385971069e-02 8.940803818404674530e-03
6.797097921371459961e-01 -4.435600340366363525e-02 -5.841217562556266785e-02
5.364912152290344238e-01 5.042680352926254272e-02 2.448698878288269043e-02
5.759403705596923828e-01 -2.788295410573482513e-02 5.724172294139862061e-02
6.499089598655700684e-01 -8.135466277599334717e-02 -2.372780814766883850e-02
5.840034484863281250e-01 -6.676451116800308228e-02 -5.700625106692314148e-02
6.966257691383361816e-01 9.596306830644607544e-02 6.352548301219940186e-02
7.182348966598510742e-01 1.098809018731117249e-01 -2.111717313528060913e-02
5.880931019783020020e-01 7.936348766088485718e-02 4.666462540626525879e-02
5.851668715476989746e-01 1.009143218398094177e-01 1.126963552087545395e-02
6.924877762794494629e-01 -6.002559512853622437e-02 -3.492594882845878601e-02
5.831965804100036621e-01 1.281272619962692261e-03 -8.518965542316436768e-02
7.102789282798767090e-01 -6.305295228958129883e-02 9.178663021884858608e-04
6.710042953491210938e-01 -7.749868184328079224e-02 -1.609265990555286407e-02
5.345597267150878906e-01 3.381131961941719055e-02 3.249185159802436829e-02
5.248947739601135254e-01 3.164484724402427673e-02 2.238409034907817841e-02
7.541565895080566406e-01 -1.116644404828548431e-02 5.068008601665496826e-02
5.962997674942016602e-01 -8.475850522518157959e-02 6.709689274430274963e-03
7.339872717857360840e-01 2.465287223458290100e-02 -5.493420362472534180e-02
7.071044445037841797e-01 1.214384064078330994e-01 1.915332116186618805e-02
7.879503965377807617e-01 3.859358280897140503e-02 1.913608051836490631e-02
7.061044573783874512e-01 -5.699131637811660767e-02 3.598684072494506836e-02
7.189657688140869141e-01 -5.810341984033584595e-02 1.027159113436937332e-02
5.458011627197265625e-01 -6.425765156745910645e-02 -4.414243623614311218e-02
6.820579767227172852e-01 -6.731702387332916260e-02 -3.147712349891662598e-02
6.194259524345397949e-01 -5.793646723031997681e-02 -6.524085998535156250e-02
5.786609053611755371e-01 -8.398332446813583374e-02 -1.899402402341365814e-02
6.299477815628051758e-01 6.752651184797286987e-02 7.180779427289962769e-02
7.751633524894714355e-01 -2.734776586294174194e-03 2.095763199031352997e-02
6.008086800575256348e-01 1.059903502464294434e-01 -2.648854814469814301e-02
5.426707267761230469e-01 4.497354477643966675e-02 3.496285527944564819e-02
6.655493378639221191e-01 6.530323624610900879e-02 7.913642376661300659e-02
5.706927776336669922e-01 7.667708396911621094e-02 -5.254444852471351624e-02
6.069498062133789062e-01 -4.088790714740753174e-02 -7.652961462736129761e-02
7.070934772491455078e-01 7.039541378617286682e-03 -6.720145046710968018e-02
7.067706584930419922e-01 1.004044786095619202e-01 -3.887880966067314148e-02
6.510138511657714844e-01 1.181498989462852478e-01 -2.260209061205387115e-02
6.063548922538757324e-01 5.290571600198745728e-02 6.983283162117004395e-02
7.079506516456604004e-01 -6.157767027616500854e-02 2.310685627162456512e-02
5.231580138206481934e-01 -3.621535003185272217e-02 1.640204899013042450e-02
5.199970602989196777e-01 2.183279767632484436e-02 -5.336541682481765747e-02
5.698206424713134766e-01 -1.265114918351173401e-02 5.897019058465957642e-02
6.925663948059082031e-01 1.133591532707214355e-01 -2.772623859345912933e-02
5.044991374015808105e-01 -2.076858468353748322e-02 -3.085852973163127899e-02
5.365083813667297363e-01 -6.306164711713790894e-02 -3.599071130156517029e-02
6.168313622474670410e-01 -5.668561160564422607e-02 5.279859527945518494e-02
5.450170636177062988e-01 -4.742066562175750732e-02 -6.080271676182746887e-02
6.236197352409362793e-01 1.134632229804992676e-01 -2.404383197426795959e-02
6.677428483963012695e-01 -4.383523762226104736e-02 -6.363535672426223755e-02
6.680872440338134766e-01 5.300371907651424408e-03 8.391135931015014648e-02
5.539907217025756836e-01 2.381827682256698608e-02 -7.539747655391693115e-02
5.068359375000000000e-01 -9.678713977336883545e-04 3.878102870658040047e-03
6.445920467376708984e-01 1.110054925084114075e-01 4.052277281880378723e-02
7.348920702934265137e-01 2.366858161985874176e-02 7.603602856397628784e-02
7.614939212799072266e-01 -6.902404129505157471e-05 5.172812938690185547e-02
6.854602098464965820e-01 2.872139401733875275e-02 -7.615336030721664429e-02
6.730363368988037109e-01 -6.996079534292221069e-02 3.336661309003829956e-02
5.984724760055541992e-01 -5.704987049102783203e-02 4.846711084246635437e-02
5.262356400489807129e-01 5.449604988098144531e-02 -2.993656508624553680e-02
7.168315649032592773e-01 1.157874986529350281e-01 -1.009738724678754807e-02
5.554924607276916504e-01 8.472422510385513306e-02 -2.679937751963734627e-03
6.513457298278808594e-01 -8.057942986488342285e-02 1.859984360635280609e-02
5.462661981582641602e-01 -1.195411197841167450e-02 4.590061306953430176e-02
6.716835498809814453e-01 9.294210374355316162e-02 -5.506680533289909363e-02
6.257410645484924316e-01 -8.451951295137405396e-02 1.324721612036228180e-02
5.928403735160827637e-01 -4.923953115940093994e-02 5.254763364791870117e-02
5.030268430709838867e-01 -3.811344504356384277e-04 -3.145729750394821167e-02
5.894586443901062012e-01 -3.331656754016876221e-02 6.014316156506538391e-02
6.314088106155395508e-01 -8.020737022161483765e-02 -3.576561063528060913e-02
5.413501858711242676e-01 4.936859011650085449e-03 -7.276303321123123169e-02
7.191213369369506836e-01 -4.019235819578170776e-02 -3.682703152298927307e-02
6.440650224685668945e-01 5.722109973430633545e-02 7.873887568712234497e-02
7.351867556571960449e-01 9.685580432415008545e-02 5.337196588516235352e-02
5.375559329986572266e-01 7.122387178242206573e-03 4.105987772345542908e-02
6.943203806877136230e-01 1.184255257248878479e-01 -1.729915291070938110e-02
5.997338294982910156e-01 -2.840925008058547974e-03 -8.654824644327163696e-02
5.524182915687561035e-01 7.764265686273574829e-02 -3.360287845134735107e-02
7.267398834228515625e-01 1.138184145092964172e-01 -5.583837628364562988e-03
5.074337720870971680e-01 8.905902504920959473e-03 -4.037207737565040588e-02
7.632915973663330078e-01 -1.890850253403186798e-02 1.760062063112854958e-03
7.650102376937866211e-01 9.123413264751434326e-02 1.797265373170375824e-03
5.370829105377197266e-01 -9.514324367046356201e-03 -7.044488936662673950e-02
6.954202651977539062e-01 1.038318872451782227e-01 5.648034438490867615e-02
6.359093785285949707e-01 1.099863871932029724e-01 -3.605112805962562561e-02
5.671647787094116211e-01 -8.118601143360137939e-02 -9.560829959809780121e-03
5.097687840461730957e-01 -3.811938315629959106e-02 -1.730477251112461090e-02
6.122927069664001465e-01 1.099945418536663055e-02 7.708167284727096558e-02
7.202665805816650391e-01 8.387796580791473389e-02 -4.624556750059127808e-02
5.639635324478149414e-01 7.922278344631195068e-02 -4.443002492189407349e-02
7.321537137031555176e-01 7.525599747896194458e-02 -4.498893022537231445e-02
