2.281980216503143311e-02 3.903193771839141846e-02 -1.175616309046745300e-02
-2.286404967308044434e-01 -1.131296530365943909e-01 8.480568230152130127e-02
-3.484513759613037109e-01 1.079094484448432922e-01 -1.091878674924373627e-02
-3.715350627899169922e-01 9.253886342048645020e-02 -1.008628495037555695e-02
-2.905322611331939697e-01 -1.350914090871810913e-01 1.136027462780475616e-02
-1.702722907066345215e-01 -1.320528388023376465e-01 -6.581450998783111572e-02
-1.752383112907409668e-01 -1.421820521354675293e-01 3.653592616319656372e-02
8.823871612548828125e-04 7.098905742168426514e-02 -1.698105782270431519e-02
-2.291786968708038330e-01 -1.468605995178222656e-01 -1.797989942133426666e-02
-4.841209948062896729e-02 1.072252988815307617e-01 2.766937948763370514e-02
-1.684695780277252197e-01 -9.767831116914749146e-02 -1.057689338922500610e-01
-4.128472506999969482e-02 -1.940050348639488220e-02 -1.012361943721771240e-01
-2.144102305173873901e-01 4.256255552172660828e-02 1.301777511835098267e-01
-2.950109243392944336e-01 -3.734569251537322998e-02 1.175397709012031555e-01
-1.361299306154251099e-01 -1.246802788227796555e-02 -1.335520893335342407e-01
-1.479734480381011963e-01 4.179714992642402649e-02 -1.285532712936401367e-01
1.658229529857635498e-02 -4.473715648055076599e-02 -3.240999206900596619e-02
-9.376134723424911499e-02 3.017273172736167908e-02 1.184950023889541626e-01
2.859270572662353516e-02 -2.410082519054412842e-02 1.238562166690826416e-02
-3.005043566226959229e-01 -1.236814484000205994e-01 4.181908071041107178e-02
-2.556745111942291260e-01 -3.580925613641738892e-02 -1.304664164781570435e-01
-2.203929424285888672e-01 -1.405885368585586548e-01 4.046257212758064270e-02
-6.619201600551605225e-02 3.010372165590524673e-03 1.117536127567291260e-01
-2.063430249691009521e-01 -8.243093639612197876e-02 -1.173043772578239441e-01
-3.049236834049224854e-01 -7.543625682592391968e-02 9.696692973375320435e-02
-2.714234888553619385e-01 -6.544469296932220459e-02 1.130515560507774353e-01
-1.575551629066467285e-01 1.363152265548706055e-01 4.441452398896217346e-02
-3.329988121986389160e-01 -1.925086835399270058e-04 1.089108288288116455e-01
-3.981642425060272217e-02 -1.061177775263786316e-01 -2.750993147492408752e-02
-3.272778391838073730e-01 -8.735185861587524414e-02 -8.183264732360839844e-02
-2.774863839149475098e-01 1.082996279001235962e-01 -7.704871892929077148e-02
-2.384335398674011230e-01 2.740980684757232666e-02 -1.329596936702728271e-01
-1.294111907482147217e-01 -4.316297173500061035e-02 1.236469596624374390e-01
-1.593666970729827881e-01 -1.223026216030120850e-01 7.275352627038955688e-02
-4.184329509735107422e-02 4.803815111517906189e-02 8.977234363555908203e-02
-3.665058612823486328e-01 5.280658602714538574e-02 -7.661161571741104126e-02
-3.287558555603027344e-01 8.209213614463806152e-02 8.070605993270874023e-02
-3.099689185619354248e-01 -1.162032131105661392e-02 -1.200555935502052307e-01
-7.772571593523025513e-02 -1.253479532897472382e-02 1.156297028064727783e-01
-3.443589806556701660e-01 -1.112959235906600952e-01 1.956796459853649139e-02
-2.713469266891479492e-01 3.532791882753372192e-02 1.245576515793800354e-01
-1.178955361247062683e-01 1.243467330932617188e-01 -5.327152460813522339e-02
-3.493039011955261230e-01 7.554186740890145302e-04 1.008655652403831482e-01
-1.940275579690933228e-01 1.239011287689208984e-01 7.332541793584823608e-02
-2.315156757831573486e-01 -1.463102847337722778e-01 1.335304789245128632e-02
-1.612304747104644775e-01 -2.372528985142707825e-02 -1.357503980398178101e-01
-4.186238348484039307e-02 -8.452568948268890381e-02 -6.844339519739151001e-02
-2.962529659271240234e-01 -1.932129822671413422e-02 -1.238135769963264465e-01
-3.521574735641479492e-01 8.906258642673492432e-02 -5.423087999224662781e-02
-1.143304854631423950e-01 -1.242220983840525150e-03 1.270404905080795288e-01
-5.985456705093383789e-02 9.113813936710357666e-02 -6.837279349565505981e-02
-1.591463685035705566e-01 -4.142914712429046631e-02 -1.322538256645202637e-01
-1.101753488183021545e-01 -8.216110616922378540e-02 -1.054567173123359680e-01
-8.308891206979751587e-02 5.722381174564361572e-02 1.058403700590133667e-01
-3.036169707775115967e-01 4.746856540441513062e-02 1.120170280337333679e-01
-3.711849451065063477e-01 8.028004318475723267e-02 4.519705846905708313e-02
-3.989387750625610352e-01 3.042007237672805786e-02 -5.659020692110061646e-02
-3.951050043106079102e-01 -6.954164803028106689e-02 -2.606036514043807983e-02
-3.377983570098876953e-01 -1.148481890559196472e-01 -2.556903101503849030e-02
-2.537838518619537354e-01 3.947499021887779236e-02 1.268470734357833862e-01
-1.779577136039733887e-01 -1.278050541877746582e-01 6.714878231287002563e-02
-1.661401689052581787e-01 1.007223408669233322e-02 1.347296983003616333e-01
-1.031459867954254150e-01 -1.324663609266281128e-01 -3.392547741532325745e-02
-2.408863157033920288e-01 8.166758343577384949e-03 -1.354053616523742676e-01
-2.314360886812210083e-01 1.424948424100875854e-01 -2.034112624824047089e-02
-3.185220658779144287e-01 -6.308803707361221313e-02 9.873603284358978271e-02
-1.192900314927101135e-01 2.617881633341312408e-02 -1.275164932012557983e-01
-2.423198372125625610e-01 1.376526653766632080e-01 -3.535665944218635559e-02
-4.129979014396667480e-01 4.045171663165092468e-02 1.879581809043884277e-02
-1.018080115318298340e-02 -6.004279106855392456e-02 -6.083267554640769958e-02
-1.663757115602493286e-01 -1.393316239118576050e-01 -4.966865479946136475e-02
-2.943495512008666992e-01 -4.488999024033546448e-02 -1.191648095846176147e-01
-2.673588395118713379e-01 -1.161017343401908875e-01 7.230708003044128418e-02
-3.033309280872344971e-01 -6.033619865775108337e-02 -1.104116141796112061e-01
-1.641490459442138672e-01 3.023545816540718079e-02 1.320740580558776855e-01
-2.469745576381683350e-01 -3.850943595170974731e-02 1.276488006114959717e-01
-3.654354810714721680e-02 -4.711512848734855652e-02 8.676153421401977539e-02
-2.260118126869201660e-01 -1.781514100730419159e-02 -1.367857903242111206e-01
-1.550025939941406250e-01 -4.499221220612525940e-02 1.270122826099395752e-01
-2.768320441246032715e-01 1.178267821669578552e-01 -6.389772146940231323e-02
-7.914816588163375854e-02 -9.100038558244705200e-02 -8.648405969142913818e-02
-6.841114163398742676e-02 -6.714307516813278198e-02 -9.858555346727371216e-02
-3.009303808212280273e-01 9.892224520444869995e-02 7.910721004009246826e-02
-3.150595724582672119e-01 -1.227745264768600464e-01 2.910898439586162567e-02
-2.198938280344009399e-01 -1.452558487653732300e-01 -3.185002878308296204e-02
-1.182604134082794189e-01 -1.289995759725570679e-01 -5.469581484794616699e-02
-1.161477640271186829e-01 -1.186438277363777161e-01 -7.177907973527908325e-02
-3.095314800739288330e-01 4.385868087410926819e-02 -1.119338795542716980e-01
-1.907420903444290161e-01 1.386274695396423340e-01 -4.187769815325737000e-02
2.835491299629211426e-02 -3.012007800862193108e-04 -2.714368700981140137e-02
-1.773764789104461670e-01 -1.090762391686439514e-01 -9.649297595024108887e-02
-3.724230229854583740e-01 -6.274943798780441284e-02 -6.847630441188812256e-02
-5.870823562145233154e-02 -1.131619662046432495e-01 -3.897595778107643127e-02
-2.674968838691711426e-01 3.663208801299333572e-03 1.293354779481887817e-01
-1.760209053754806519e-01 8.296753466129302979e-02 -1.117564141750335693e-01
-2.986513674259185791e-01 6.833986192941665649e-02 1.041878163814544678e-01
-2.279223501682281494e-02 -7.367837242782115936e-03 8.802248537540435791e-02
-1.270016133785247803e-01 -1.166382580995559692e-01 7.230946421623229980e-02
-1.668448597192764282e-01 -1.480190455913543701e-01 -6.014820653945207596e-03
-1.432454586029052734e-01 8.872772008180618286e-02 1.042117252945899963e-01
-6.531745195388793945e-02 -1.223387122154235840e-01 5.795377772301435471e-03
-4.150497913360595703e-01 -3.147372975945472717e-02 2.647021971642971039e-02
-3.047332167625427246e-03 -2.062379382550716400e-02 -7.296754419803619385e-02
-1.666980534791946411e-01 1.339814364910125732e-01 -5.046345293521881104e-02
-2.296446710824966431e-01 -3.663338348269462585e-02 -1.336592137813568115e-01
-4.206712841987609863e-01 -1.174409594386816025e-02 2.271559648215770721e-02
-4.579359292984008789e-02 -1.117178946733474731e-01 1.182221621274948120e-02
-8.152803033590316772e-02 -2.059936150908470154e-02 -1.190857738256454468e-01
-9.720239043235778809e-02 1.063657552003860474e-01 7.299236953258514404e-02
-9.093960374593734741e-02 1.293623149394989014e-01 -4.436265677213668823e-03
-1.710277199745178223e-01 -7.551138103008270264e-02 -1.203785166144371033e-01
3.186319768428802490e-02 -1.005870476365089417e-02 4.668744746595621109e-03
-1.187543869018554688e-01 1.373397856950759888e-01 -5.040830001235008240e-04
-2.021309286355972290e-01 -1.616353541612625122e-02 -1.380686461925506592e-01
-4.062076210975646973e-01 -4.370281472802162170e-03 5.297076702117919922e-02
-6.095696985721588135e-02 1.165641844272613525e-01 1.424433849751949310e-02
-1.797814667224884033e-02 -2.131085656583309174e-02 8.250163495540618896e-02
-1.469839811325073242e-01 -1.395480185747146606e-01 3.559658303856849670e-02
-2.011423259973526001e-01 -1.432973742485046387e-01 -4.201893508434295654e-02
-7.091626524925231934e-02 3.777581825852394104e-02 1.083264276385307312e-01
-2.439314574003219604e-01 1.404529213905334473e-01 2.563674002885818481e-02
-3.556428551673889160e-01 6.593859195709228516e-02 -7.580678164958953857e-02
-2.869005799293518066e-01 1.089851409196853638e-01 7.367841154336929321e-02
-1.934487819671630859e-01 2.319208532571792603e-02 -1.361813396215438843e-01
-2.566035091876983643e-02 -7.817365974187850952e-02 5.496760085225105286e-02
-3.735889792442321777e-01 -9.371241927146911621e-02 -1.453287340700626373e-02
-9.517283737659454346e-02 7.245822250843048096e-02 1.021743863821029663e-01
-5.181634426116943359e-02 7.788184285163879395e-02 7.673011720180511475e-02
-2.317019402980804443e-01 1.122362762689590454e-01 8.562619984149932861e-02
-3.159962892532348633e-01 5.634088069200515747e-02 1.036793813109397888e-01
-1.813634335994720459e-01 7.515226025134325027e-03 -1.378543376922607422e-01
-1.394271999597549438e-01 6.564757227897644043e-02 -1.175414323806762695e-01
-3.144234120845794678e-01 -4.643610492348670959e-02 -1.117519810795783997e-01
-4.831786453723907471e-02 1.009777560830116272e-02 -1.052650809288024902e-01
-2.793616056442260742e-01 4.808661993592977524e-03 -1.288437694311141968e-01
5.369335412979125977e-04 3.394107893109321594e-02 6.099942326545715332e-02
-1.541266739368438721e-01 -1.156143844127655029e-01 -8.666483312845230103e-02
-2.742568850517272949e-01 1.300982683897018433e-01 -3.986450284719467163e-02
-1.945990025997161865e-01 -1.125633865594863892e-01 8.755960315465927124e-02
-5.698114633560180664e-03 -6.885565351694822311e-03 7.446074485778808594e-02
-3.481902480125427246e-01 -3.897400945425033569e-02 -9.821293503046035767e-02
-1.702048778533935547e-01 1.431085169315338135e-01 2.383810840547084808e-02
-9.436031430959701538e-02 1.329996064305305481e-02 -1.231935322284698486e-01
-8.817044645547866821e-02 6.812098622322082520e-02 -1.023025587201118469e-01
-5.508679151535034180e-02 1.058246791362762451e-01 -4.061346501111984253e-02
-1.909178346395492554e-01 -1.352213770151138306e-01 -6.176530569791793823e-02
-2.959180474281311035e-01 1.194828525185585022e-01 -5.016040802001953125e-02
-6.767061352729797363e-02 -1.226405724883079529e-01 -1.872336119413375854e-02
-2.857093513011932373e-01 1.342536807060241699e-01 -3.322531934827566147e-03
-3.413766622543334961e-01 1.387410052120685577e-02 1.042383909225463867e-01
-2.168834209442138672e-01 1.449996531009674072e-01 -1.006124727427959442e-02
-1.889501959085464478e-01 4.050982370972633362e-02 1.311011910438537598e-01
-3.244304955005645752e-01 1.601059362292289734e-02 1.116759255528450012e-01
-2.768212556838989258e-01 -6.991786509752273560e-02 -1.139698699116706848e-01
-1.486042290925979614e-01 1.275982558727264404e-01 6.104204803705215454e-02
-2.938476800918579102e-01 8.613272756338119507e-02 9.397862851619720459e-02
-2.626056969165802002e-01 -4.992763325572013855e-02 1.215122491121292114e-01
-3.748984932899475098e-01 1.192663796246051788e-02 8.382003754377365112e-02
-3.368818461894989014e-01 9.364270418882369995e-02 6.277550756931304932e-02
-2.674597203731536865e-01 1.121727973222732544e-01 7.718634605407714844e-02
-9.506945312023162842e-02 -9.933923184871673584e-02 -8.603212237358093262e-02
-2.632240056991577148e-01 5.772676318883895874e-02 1.190083473920822144e-01
-1.639871001243591309e-01 -1.085462868213653564e-01 8.972752839326858521e-02
-4.080186486244201660e-01 -2.838181704282760620e-02 4.355025291442871094e-02
-3.962709605693817139e-01 4.470344260334968567e-02 5.028423666954040527e-02
-2.483950555324554443e-01 -1.571408938616514206e-03 1.325558573007583618e-01
-3.806766867637634277e-01 -4.707567766308784485e-02 -7.096748799085617065e-02
-2.641427516937255859e-02 3.669975325465202332e-02 -8.544604480266571045e-02
-3.704968690872192383e-01 -9.691951423883438110e-02 9.820819832384586334e-04
-1.043557524681091309e-01 -1.351598501205444336e-01 1.642887480556964874e-02
-9.905421733856201172e-02 9.269016236066818237e-02 -8.780799806118011475e-02
-3.029743134975433350e-01 6.003344431519508362e-03 -1.222503408789634705e-01
-2.250929176807403564e-02 5.419082939624786377e-02 -7.303362339735031128e-02
-4.190771877765655518e-01 1.873292587697505951e-02 -2.463773824274539948e-02
-1.873272806406021118e-01 1.395276635885238647e-01 4.133509472012519836e-02
-1.088549718260765076e-01 -2.927021309733390808e-02 1.226269230246543884e-01
-2.689900994300842285e-02 9.762439876794815063e-02 1.620730618014931679e-04
-4.075666964054107666e-01 -4.103975743055343628e-02 -3.882933780550956726e-02
-2.234898209571838379e-01 -1.073911115527153015e-01 -9.731928259134292603e-02
-3.631097674369812012e-01 -6.655531376600265503e-02 6.949656456708908081e-02
2.468009293079376221e-02 -3.980103880167007446e-02 9.736744686961174011e-05
-3.777183592319488525e-02 -1.031678766012191772e-01 2.695109508931636810e-02
-1.811342835426330566e-01 -3.078591264784336090e-02 1.326595842838287354e-01
-3.508530855178833008e-01 2.733137458562850952e-02 -9.814026206731796265e-02
-1.633557528257369995e-01 1.099874898791313171e-01 8.845903724431991577e-02
-2.059011757373809814e-01 -1.035768762230873108e-01 -1.020324006676673889e-01
-2.899864315986633301e-01 5.131981149315834045e-02 -1.154676228761672974e-01
-3.172501921653747559e-03 -2.306850068271160126e-02 6.926484405994415283e-02
-2.756299972534179688e-01 -1.184582114219665527e-01 -7.208628207445144653e-02
-3.270474076271057129e-01 -7.202090322971343994e-02 8.923289179801940918e-02
-1.576942205429077148e-01 -9.631265699863433838e-02 1.000281795859336853e-01
-1.823994815349578857e-01 -6.582818180322647095e-02 -1.256670355796813965e-01
-3.233504295349121094e-01 1.179896444082260132e-01 2.673703059554100037e-02
-2.895270884037017822e-01 -1.210354343056678772e-01 -6.113015487790107727e-02
-3.118668198585510254e-01 2.236343920230865479e-02 -1.170955225825309753e-01
-1.262421607971191406e-01 8.873272687196731567e-02 1.005018129944801331e-01
-5.456617474555969238e-02 -7.525690644979476929e-02 -8.579463511705398560e-02
-1.916695386171340942e-01 -7.748880237340927124e-02 -1.202452480792999268e-01
-2.220749408006668091e-01 1.335521340370178223e-01 -5.213192105293273926e-02
-9.694782644510269165e-02 1.005235128104686737e-02 1.222372725605964661e-01
-2.235195040702819824e-01 -1.060364767909049988e-02 1.347823441028594971e-01
-3.869845867156982422e-01 -7.188684493303298950e-02 3.553740307688713074e-02
-2.862877249717712402e-01 -9.835001826286315918e-02 8.568707108497619629e-02
-2.580082416534423828e-01 1.278755664825439453e-01 5.572105944156646729e-02
-3.437377810478210449e-01 1.017656475305557251e-01 -4.153841361403465271e-02
-2.377911359071731567e-01 4.816677421331405640e-02 -1.272370070219039917e-01
-2.509644627571105957e-01 -1.146169751882553101e-01 7.893294095993041992e-02
-1.873993873596191406e-01 -1.358659863471984863e-01 5.346512049436569214e-02
-2.181830108165740967e-01 2.589295804500579834e-02 -1.350343078374862671e-01
-1.447243988513946533e-01 -1.281903088092803955e-01 6.029418855905532837e-02
-2.713927924633026123e-01 1.347906738519668579e-01 2.838830463588237762e-02
-3.202919661998748779e-01 -1.245068460702896118e-01 1.149256527423858643e-02
-2.542915046215057373e-01 -1.430411338806152344e-01 1.450607739388942719e-02
-3.812000155448913574e-01 6.343577057123184204e-02 5.342066660523414612e-02
-1.731467247009277344e-02 -6.415151059627532959e-02 6.047254800796508789e-02
-1.255128979682922363e-01 -8.877771347761154175e-02 9.975328296422958374e-02
-2.268363535404205322e-01 9.502704441547393799e-02 1.026924252510070801e-01
-3.287713527679443359e-01 1.062050089240074158e-01 5.044762045145034790e-02
-7.847619801759719849e-02 -5.137815140187740326e-03 -1.190204098820686340e-01
-3.726021051406860352e-01 -8.450944721698760986e-02 -4.327049106359481812e-02
-1.148606017231941223e-01 1.346956938505172729e-01 2.126406505703926086e-02
-2.001874148845672607e-02 -3.456208854913711548e-02 -8.385879546403884888e-02
-1.435442864894866943e-01 9.120461344718933105e-02 -1.017344743013381958e-01
-3.133051991462707520e-01 -1.144682168960571289e-01 5.058875679969787598e-02
-1.784846186637878418e-01 1.285612136125564575e-01 -6.307483464479446411e-02
-7.782822847366333008e-02 8.766655623912811279e-02 -8.291427046060562134e-02
-1.021956875920295715e-01 -5.655394494533538818e-02 -1.164686158299446106e-01
-4.428632557392120361e-02 -4.219394177198410034e-03 1.013440191745758057e-01
-2.239298820495605469e-01 1.324474662542343140e-01 5.630641058087348938e-02
-2.122509181499481201e-01 -6.295239180326461792e-02 1.223464906215667725e-01
-2.818536758422851562e-01 -1.345565915107727051e-01 2.672528289258480072e-02
-5.038696527481079102e-02 -3.831005468964576721e-02 -1.020336970686912537e-01
-3.131715953350067139e-02 9.189924597740173340e-02 3.887518867850303650e-02
-9.598284214735031128e-02 8.702217787504196167e-02 9.215766191482543945e-02
-4.064994454383850098e-01 2.678143978118896484e-02 4.628492146730422974e-02
-3.565516471862792969e-01 5.226565524935722351e-02 8.390111476182937622e-02
-7.096518576145172119e-02 5.263543128967285156e-02 -1.036010906100273132e-01
-1.918971687555313110e-01 -1.175963357090950012e-01 -8.806425333023071289e-02
-2.151311635971069336e-01 7.768097519874572754e-02 -1.152041926980018616e-01
-3.958180248737335205e-01 -5.363238230347633362e-02 -4.800820723176002502e-02
-7.782288640737533569e-02 -9.800967574119567871e-02 7.314638048410415649e-02
-1.981341540813446045e-01 -1.003170572221279144e-02 1.357981264591217041e-01
-2.530923485755920410e-01 -1.324415206909179688e-01 -5.694614723324775696e-02
-1.556110531091690063e-01 5.718207731842994690e-02 -1.238638982176780701e-01
-1.897422969341278076e-01 -9.235702455043792725e-02 -1.109753772616386414e-01
-4.008533060550689697e-02 -9.435061365365982056e-02 4.856044426560401917e-02
-2.325527966022491455e-01 -1.304183453321456909e-01 -6.674094498157501221e-02
-1.760900616645812988e-01 -4.119589179754257202e-02 -1.336328536272048950e-01
-1.217107474803924561e-02 8.589497953653335571e-02 -3.887406317517161369e-03
-1.418204754590988159e-01 1.374237090349197388e-01 3.399370983242988586e-02
-1.269260793924331665e-01 5.457108840346336365e-02 1.197485625743865967e-01
-3.930032849311828613e-01 -8.238418959081172943e-03 -7.075529545545578003e-02
-2.952942550182342529e-01 -1.281969547271728516e-01 -4.115322232246398926e-02
-2.208800613880157471e-01 9.381265938282012939e-02 -1.034003347158432007e-01
-1.324881911277770996e-01 1.021060943603515625e-01 9.051060676574707031e-02
-3.549729883670806885e-01 -9.622363746166229248e-02 -4.738111793994903564e-02
-2.997189760208129883e-01 -1.314730346202850342e-01 -2.291765809059143066e-02
-5.758896470069885254e-03 -8.299905806779861450e-02 -1.015243865549564362e-02
-9.511382877826690674e-02 1.285328716039657593e-01 2.390519715845584869e-02
-2.586975395679473877e-01 -1.426552087068557739e-01 -1.857756450772285461e-02
-3.671571612358093262e-01 9.109311550855636597e-02 3.029448911547660828e-02
-2.523231506347656250e-02 4.909478873014450073e-02 7.764219492673873901e-02
-3.713995814323425293e-01 -8.106081932783126831e-02 4.552654549479484558e-02
-3.266414999961853027e-01 8.315195888280868530e-02 -8.044889569282531738e-02
-4.161651730537414551e-01 2.159269526600837708e-02 2.977524325251579285e-02
-3.179993033409118652e-01 1.602967386133968830e-03 1.150974780321121216e-01
-4.191383719444274902e-01 3.183725290000438690e-03 2.890618145465850830e-02
-4.619257152080535889e-02 -6.824162602424621582e-02 8.076791465282440186e-02
-8.663520216941833496e-03 4.028562083840370178e-02 -6.880569458007812500e-02
-7.168754190206527710e-02 -5.034978687763214111e-02 -1.079883128404617310e-01
-5.991727113723754883e-02 -1.965643651783466339e-02 1.074734702706336975e-01
-2.429945468902587891e-01 6.890710443258285522e-02 -1.173817962408065796e-01
-2.649228870868682861e-01 -1.058309525251388550e-01 -9.092815965414047241e-02
-1.540307402610778809e-01 -8.492782711982727051e-02 -1.131344363093376160e-01
-2.592402100563049316e-01 -1.747821085155010223e-02 -1.326145678758621216e-01
-9.693086147308349609e-03 6.627275049686431885e-02 -4.835284501314163208e-02
-2.219668030738830566e-01 1.441872417926788330e-01 1.702656410634517670e-02
-3.543487787246704102e-01 8.837273716926574707e-02 5.369793996214866638e-02
-7.325306534767150879e-03 5.117106251418590546e-03 -7.833532243967056274e-02
1.371692121028900146e-02 5.522429198026657104e-02 -1.325014047324657440e-02
-5.527451634407043457e-03 -4.379569739103317261e-02 6.292969733476638794e-02
1.575502753257751465e-02 -5.703856050968170166e-02 -2.919242833741009235e-04
-1.009744480252265930e-01 -1.242202818393707275e-01 -5.418750271201133728e-02
-1.537181437015533447e-01 -6.688292324542999268e-02 -1.228342428803443909e-01
-1.493489146232604980e-01 1.193030551075935364e-01 -7.289673388004302979e-02
-1.617720723152160645e-01 9.093772619962692261e-02 1.053833812475204468e-01
-3.790052533149719238e-01 2.053012326359748840e-02 -8.058450371026992798e-02
-3.014078140258789062e-01 -1.045824587345123291e-01 7.249066233634948730e-02
-3.981109261512756348e-01 6.765808165073394775e-02 -2.055607503280043602e-03
-1.873565763235092163e-01 7.432642579078674316e-02 1.177810207009315491e-01
-1.874938160181045532e-01 4.011852666735649109e-02 -1.321658641099929810e-01
-3.131438493728637695e-01 -1.282474100589752197e-01 -8.756438270211219788e-03
-6.877109408378601074e-02 1.164637431502342224e-01 -3.001582622528076172e-02
-7.625040411949157715e-02 7.706472277641296387e-02 9.128678590059280396e-02
-2.754466235637664795e-01 -2.547498047351837158e-02 1.253364086151123047e-01
2.601221203804016113e-03 5.919989664107561111e-03 6.635255366563796997e-02
-7.930532097816467285e-03 2.625891380012035370e-02 7.270240038633346558e-02
-1.785590350627899170e-01 -1.213260181248188019e-02 -1.379725039005279541e-01
-2.919045686721801758e-01 2.780499123036861420e-02 -1.223621442914009094e-01
-2.018531262874603271e-01 -4.015088453888893127e-02 -1.343733072280883789e-01
-3.806627392768859863e-01 -6.959497928619384766e-02 -5.285545065999031067e-02
-1.089774221181869507e-01 -3.279498592019081116e-02 -1.253723502159118652e-01
-1.297266632318496704e-01 -1.060622557997703552e-01 8.554852753877639771e-02
-3.799364566802978516e-01 -1.573176495730876923e-02 -8.194100111722946167e-02
-2.515183687210083008e-01 -1.232671737670898438e-01 -7.349360734224319458e-02
-2.274549752473831177e-01 -8.918256312608718872e-02 1.063151583075523376e-01
-3.364077210426330566e-01 3.649827465415000916e-02 -1.030324846506118774e-01
-2.920523881912231445e-01 -8.531767874956130981e-02 -9.986881166696548462e-02
-1.275925040245056152e-01 1.120536923408508301e-01 -7.675293833017349243e-02
2.704589068889617920e-02 3.015324100852012634e-02 1.811712514609098434e-03
-2.145696431398391724e-01 1.225503459572792053e-01 7.449443638324737549e-02
-1.138289198279380798e-01 1.321061104536056519e-01 -2.986116893589496613e-02
-2.823929488658905029e-01 1.195449829101562500e-01 6.001679971814155579e-02
-7.972848415374755859e-02 -1.210258007049560547e-01 -4.372696205973625183e-02
-2.321043163537979126e-01 6.013892218470573425e-02 1.227683499455451965e-01
-1.242489069700241089e-01 5.137902125716209412e-02 -1.210554391145706177e-01
-2.040999829769134521e-01 1.086179986596107483e-01 9.197945147752761841e-02
-1.782791465520858765e-01 -1.459395885467529297e-01 -3.047811239957809448e-02
-8.109080791473388672e-02 -4.981040209531784058e-02 1.078614741563796997e-01
-1.553596705198287964e-01 -1.351269930601119995e-01 4.984794929623603821e-02
-3.228580057621002197e-01 -1.210236251354217529e-01 -2.983769401907920837e-02
-2.590456008911132812e-01 2.180396020412445068e-02 -1.310301274061203003e-01
-1.354746818542480469e-01 -9.102477878332138062e-02 -1.057596057653427124e-01
-3.902010917663574219e-01 6.188659369945526123e-02 -4.243266582489013672e-02
-3.454505801200866699e-01 5.903562158346176147e-02 -8.756487071514129639e-02
-4.129363894462585449e-01 4.038738459348678589e-02 -1.995174773037433624e-02
-2.384474873542785645e-01 1.009590998291969299e-01 -9.501028805971145630e-02
-2.957300841808319092e-01 -9.450098499655723572e-03 1.221426576375961304e-01
2.622264623641967773e-02 -3.235850855708122253e-02 -1.595831103622913361e-02
-1.237630248069763184e-01 -1.356398463249206543e-01 -4.130672663450241089e-02
6.261467933654785156e-03 1.771939732134342194e-02 -6.220638006925582886e-02
-7.984974980354309082e-02 -1.243455633521080017e-01 2.760809473693370819e-02
-2.579941153526306152e-01 9.200648963451385498e-02 9.997082501649856567e-02
-1.248809248208999634e-01 1.196790486574172974e-02 -1.308972388505935669e-01
3.143355250358581543e-02 1.082919724285602570e-02 4.706265404820442200e-03
-1.831169426441192627e-02 1.367292553186416626e-02 8.411420136690139771e-02
-2.556248903274536133e-01 2.092414908111095428e-02 1.301822215318679810e-01
-6.421051919460296631e-02 5.991951748728752136e-02 9.624324738979339600e-02
-3.724823594093322754e-01 -4.769079014658927917e-02 7.423770427703857422e-02
-1.950384527444839478e-01 -1.476264744997024536e-01 -2.390418574213981628e-02
-8.548553287982940674e-02 -4.354456439614295959e-02 -1.156296208500862122e-01
-2.232795953750610352e-01 -1.192723289132118225e-01 -8.446281403303146362e-02
-1.114295125007629395e-01 6.132221221923828125e-02 -1.135364174842834473e-01
-1.151502728462219238e-01 -7.755593210458755493e-02 1.047859564423561096e-01
-1.194949895143508911e-01 -1.407273411750793457e-01 -2.486197277903556824e-03
-3.731029033660888672e-01 8.362007886171340942e-02 -3.566477447748184204e-02
1.974678039550781250e-02 2.645880170166492462e-02 -3.763400018215179443e-02
-1.726081818342208862e-01 1.417065560817718506e-01 -2.888444624841213226e-02
6.602749228477478027e-03 -1.221793610602617264e-02 6.123444810509681702e-02
-3.645357489585876465e-01 7.327619194984436035e-02 -6.145132333040237427e-02
-1.591455340385437012e-01 7.249144464731216431e-02 1.167575642466545105e-01
-3.842761516571044922e-01 -1.989124715328216553e-02 7.471657544374465942e-02
-2.820089757442474365e-01 -4.665591940283775330e-02 1.182792112231254578e-01
-1.852350383996963501e-01 1.015152260661125183e-01 9.865596145391464233e-02
-4.143881797790527344e-02 9.294303506612777710e-02 -4.954959079623222351e-02
-2.626107633113861084e-02 -8.297068625688552856e-02 -5.483272299170494080e-02
-7.723043859004974365e-02 2.899875864386558533e-02 -1.145340725779533386e-01
-1.308715939521789551e-01 -4.231575131416320801e-02 -1.279728114604949951e-01
-2.394317686557769775e-01 -1.138458326458930969e-01 -8.837179094552993774e-02
2.913616597652435303e-02 1.824543066322803497e-02 -1.514127105474472046e-02
-2.008050680160522461e-01 1.262539029121398926e-01 -6.778714060783386230e-02
-1.761606782674789429e-01 -6.413213163614273071e-02 1.216054111719131470e-01
-2.659410238265991211e-04 4.771531000733375549e-02 5.345372483134269714e-02
-1.138504222035408020e-01 -5.244116857647895813e-02 1.170343980193138123e-01
-2.898486852645874023e-01 1.315269619226455688e-01 2.057609334588050842e-02
-3.056976795196533203e-01 7.870147377252578735e-02 -9.449169039726257324e-02
-1.400473713874816895e-01 -1.419895291328430176e-01 -2.960658632218837738e-02
2.604573965072631836e-03 5.941653624176979065e-02 3.687216714024543762e-02
-3.613656163215637207e-01 -2.207274548709392548e-02 -9.443763643503189087e-02
-2.467681467533111572e-02 7.611539959907531738e-02 -5.493237450718879700e-02
-7.974418252706527710e-02 9.100534766912460327e-02 8.125196397304534912e-02
-2.846308052539825439e-02 -6.428866647183895111e-03 -9.459873288869857788e-02
5.804866552352905273e-03 6.730775535106658936e-02 5.144937429577112198e-03
-2.691724896430969238e-01 5.463062971830368042e-02 -1.194352060556411743e-01
-5.932742357254028320e-02 6.640038639307022095e-02 -9.014380723237991333e-02
-8.303343504667282104e-02 1.078824773430824280e-01 -6.165652722120285034e-02
-2.776198387145996094e-01 2.054541744291782379e-02 -1.274684369564056396e-01
-1.628057062625885010e-01 -2.455362817272543907e-03 -1.371064782142639160e-01
-1.263475418090820312e-02 7.880906015634536743e-02 -3.321853280067443848e-02
-6.817647814750671387e-02 1.538123935461044312e-02 -1.136791184544563293e-01
1.534441113471984863e-02 -2.768796309828758240e-02 -4.790581762790679932e-02
2.209915220737457275e-02 -1.501383539289236069e-02 3.744016587734222412e-02
-3.834323883056640625e-01 4.492603987455368042e-02 -6.620424985885620117e-02
-3.303176164627075195e-01 -4.024692997336387634e-02 -1.069863140583038330e-01
-2.246848195791244507e-01 -6.868568807840347290e-02 -1.234351620078086853e-01
-3.634986281394958496e-01 -3.792832419276237488e-02 8.549617975950241089e-02
-2.301141023635864258e-01 -6.077799573540687561e-02 1.220009401440620422e-01
-3.158325850963592529e-01 -6.946751475334167480e-02 -1.007601097226142883e-01
-1.996032893657684326e-02 6.313343346118927002e-02 6.329153478145599365e-02
-1.105679273605346680e-01 -1.503942441195249557e-02 -1.282088905572891235e-01
-1.561304330825805664e-01 1.430600732564926147e-01 1.489363238215446472e-02
-3.422124087810516357e-01 8.053731918334960938e-02 -7.283531874418258667e-02
-4.244692623615264893e-02 6.891909986734390259e-02 -7.774458080530166626e-02
-3.420458734035491943e-02 -2.002892270684242249e-02 9.386210143566131592e-02
-2.786000072956085205e-01 -2.612038701772689819e-02 -1.276161968708038330e-01
-3.425981402397155762e-01 8.099255710840225220e-02 7.260600477457046509e-02
-7.806801795959472656e-02 1.062033399939537048e-01 6.199660524725914001e-02
-8.958684653043746948e-02 -1.079139485955238342e-01 6.765048950910568237e-02
-2.020255476236343384e-01 6.847441196441650391e-02 1.208548769354820251e-01
-7.618492841720581055e-02 1.233949810266494751e-01 1.307826489210128784e-02
-4.014068245887756348e-01 -3.199632838368415833e-02 -5.498909950256347656e-02
-1.094659268856048584e-01 1.918128505349159241e-02 1.247407719492912292e-01
-3.606788218021392822e-01 -5.579283460974693298e-02 -8.290787041187286377e-02
-2.751310169696807861e-02 2.789735049009323120e-02 8.780375868082046509e-02
-2.202049791812896729e-01 1.240513920783996582e-01 -6.984855234622955322e-02
-4.014121294021606445e-01 -6.555762141942977905e-02 7.947904989123344421e-03
-3.985382914543151855e-01 1.417059451341629028e-02 6.133748963475227356e-02
7.627680897712707520e-03 -5.389942601323127747e-02 3.677492216229438782e-02
-2.765738368034362793e-01 1.674477383494377136e-02 1.265981495380401611e-01
-1.843179017305374146e-01 2.201567031443119049e-02 1.346069276332855225e-01
-3.026977181434631348e-01 -1.296851187944412231e-01 2.033156342804431915e-02
-2.859885096549987793e-01 -1.194091066718101501e-01 5.958510935306549072e-02
-2.747077941894531250e-01 -1.309091746807098389e-01 4.314542561769485474e-02
-8.496993035078048706e-02 -6.551511585712432861e-02 1.019695252180099487e-01
-1.447156518697738647e-01 -1.249917596578598022e-01 -7.210800796747207642e-02
-1.779735535383224487e-01 -8.518135547637939453e-02 1.101083606481552124e-01
-1.028820499777793884e-01 -1.272696852684020996e-01 4.213290661573410034e-02
-4.142553508281707764e-01 -4.527056217193603516e-02 3.829761873930692673e-03
-2.706317305564880371e-01 -1.350772827863693237e-01 -4.127462953329086304e-02
-2.787142097949981689e-01 6.908310949802398682e-02 -1.099357083439826965e-01
-3.810121119022369385e-01 -6.005417183041572571e-02 5.758845061063766479e-02
-3.666503429412841797e-01 -1.853562146425247192e-02 8.871188759803771973e-02
-2.499738037586212158e-01 1.244894862174987793e-01 -6.292242556810379028e-02
-1.496310532093048096e-01 -6.880830228328704834e-02 1.167381107807159424e-01
-3.297209143638610840e-01 -1.456961035728454590e-04 -1.125679984688758850e-01
-3.641971945762634277e-02 6.087914854288101196e-02 7.899573445320129395e-02
-1.387619823217391968e-01 -1.444112807512283325e-01 -9.319586679339408875e-03
-1.350692212581634521e-01 7.161738723516464233e-02 1.135075017809867859e-01
-6.801320612430572510e-02 -7.812100648880004883e-02 8.623529225587844849e-02
-1.782416850328445435e-01 1.455933451652526855e-01 4.809707868844270706e-03
-2.036647647619247437e-01 1.419838219881057739e-01 3.312350809574127197e-02
-2.574494481086730957e-01 1.385817974805831909e-01 -2.169217728078365326e-02
1.627349480986595154e-02 1.341803371906280518e-01 -9.103688597679138184e-02
1.045241430401802063e-01 1.383248809725046158e-02 -2.764381002634763718e-03
8.903010189533233643e-02 4.417587816715240479e-02 4.205617308616638184e-02
-8.694531396031379700e-03 -1.285518407821655273e-01 -4.054934158921241760e-02
-3.611162677407264709e-02 1.035068631172180176e-01 -1.449818015098571777e-01
5.718303844332695007e-03 -8.240567892789840698e-02 -1.262021213769912720e-01
3.928463906049728394e-02 -2.725538052618503571e-02 -1.496465802192687988e-01
-4.812968522310256958e-02 -1.066272258758544922e-01 -2.595215104520320892e-02
-8.560992777347564697e-02 1.403871327638626099e-01 -8.972668647766113281e-02
-4.292204231023788452e-02 -1.021896079182624817e-01 -5.873508378863334656e-02
2.009329572319984436e-02 -1.304278373718261719e-01 5.647443234920501709e-02
-7.904460281133651733e-02 -7.254319638013839722e-02 2.775563858449459076e-02
-8.102473616600036621e-02 1.580704301595687866e-01 -6.626064330339431763e-02
-9.376480430364608765e-02 8.214691281318664551e-02 -1.182184740900993347e-01
8.917208760976791382e-02 -8.910276740789413452e-02 -6.344854086637496948e-02
-5.364457145333290100e-02 -1.036898493766784668e-01 -5.897967144846916199e-03
8.392796665430068970e-02 -1.161115691065788269e-01 3.744376357644796371e-03
-8.306027948856353760e-02 -6.342840939760208130e-02 4.016689211130142212e-02
2.293260768055915833e-02 1.231580376625061035e-01 7.286304235458374023e-02
2.797685191035270691e-02 1.396359801292419434e-01 2.415291033685207367e-02
3.367439657449722290e-02 -6.909947842359542847e-02 1.252382844686508179e-01
-7.996609807014465332e-02 -5.137899518013000488e-02 7.300093770027160645e-02
-6.617932766675949097e-02 1.363595128059387207e-01 8.635688573122024536e-02
-5.431453511118888855e-02 8.373532444238662720e-02 -1.489481031894683838e-01
-1.084825918078422546e-01 -6.743608042597770691e-03 5.266778171062469482e-02
-1.168946996331214905e-01 -2.646535634994506836e-03 -1.945990696549415588e-02
9.309308975934982300e-02 5.051384121179580688e-02 -2.192387543618679047e-02
-6.983177736401557922e-04 -1.138144358992576599e-01 -8.507418632507324219e-02
3.221178054809570312e-02 -9.372878074645996094e-02 1.085188984870910645e-01
-3.275112807750701904e-02 -3.052532486617565155e-02 -1.483904272317886353e-01
-1.006877943873405457e-01 -2.375027351081371307e-02 -6.319455802440643311e-02
-3.725797310471534729e-02 1.757017523050308228e-01 -2.298575825989246368e-02
7.791411876678466797e-02 -7.650267332792282104e-03 9.924222528934478760e-02
1.388749107718467712e-03 -2.703646011650562286e-02 -1.584665477275848389e-01
-1.114174127578735352e-01 9.436640888452529907e-02 6.766716390848159790e-02
-7.895715534687042236e-02 1.032288670539855957e-01 -1.258590221405029297e-01
6.216218322515487671e-02 -1.218727603554725647e-01 5.221959948539733887e-02
-9.356147795915603638e-02 1.609512120485305786e-01 -1.771430112421512604e-02
2.835825830698013306e-02 9.949538111686706543e-02 9.691612422466278076e-02
-7.611311227083206177e-02 5.919722840189933777e-03 -1.310709267854690552e-01
3.338282555341720581e-02 -1.409784257411956787e-01 -1.082627009600400925e-02
-1.073033884167671204e-01 -2.671968378126621246e-02 1.442547887563705444e-02
-5.330108106136322021e-02 1.469535231590270996e-01 7.800160348415374756e-02
1.326585374772548676e-02 1.155501231551170349e-02 -1.640601009130477905e-01
4.973007738590240479e-02 1.140326261520385742e-01 3.627345710992813110e-02
-6.810715422034263611e-04 -4.874095320701599121e-02 -1.488922685384750366e-01
-5.589826032519340515e-02 6.176751852035522461e-02 1.358759999275207520e-01
-5.904057994484901428e-02 9.266488999128341675e-02 1.231976971030235291e-01
-6.975719332695007324e-02 1.735761463642120361e-01 -1.313347928225994110e-02
4.379001632332801819e-02 1.116888299584388733e-01 5.708331614732742310e-02
-1.065633594989776611e-01 -2.910105697810649872e-02 -1.553582958877086639e-02
1.730293221771717072e-02 1.410032212734222412e-01 -7.523448020219802856e-02
-1.186693832278251648e-01 1.224378868937492371e-01 -3.515975922346115112e-02
1.101384684443473816e-01 -3.391944617033004761e-02 -9.507036767899990082e-03
-7.389265298843383789e-02 1.659573018550872803e-01 -5.504264310002326965e-02
4.976380988955497742e-02 1.225069537758827209e-01 -2.526251785457134247e-02
-3.133187815546989441e-02 1.888461224734783173e-02 1.491287648677825928e-01
1.320502348244190216e-02 1.267468631267547607e-01 -1.063500493764877319e-01
1.033197864890098572e-01 -4.704567044973373413e-02 4.277816787362098694e-02
-6.309507787227630615e-02 -3.473338484764099121e-02 -1.221293956041336060e-01
3.092441335320472717e-02 1.412736438214778900e-02 1.405001580715179443e-01
-3.457843791693449020e-03 1.627900749444961548e-01 1.382986828684806824e-02
-3.479164838790893555e-02 8.612067997455596924e-02 -1.535766571760177612e-01
-1.035789772868156433e-01 8.135943114757537842e-02 -1.043771132826805115e-01
-1.239813566207885742e-01 2.903246134519577026e-02 2.252785488963127136e-02
2.080556005239486694e-02 -8.172069489955902100e-02 -1.274426281452178955e-01
6.450700759887695312e-02 -1.314467042684555054e-01 -1.711607910692691803e-02
-1.079318523406982422e-01 -1.179256103932857513e-02 -5.541193857789039612e-02
2.545731142163276672e-03 1.964600756764411926e-03 -1.651117354631423950e-01
-8.834803104400634766e-02 1.629506349563598633e-01 9.007420390844345093e-03
-1.274554133415222168e-01 7.644829899072647095e-02 2.121789939701557159e-02
-6.324891746044158936e-02 7.600340992212295532e-02 1.281346082687377930e-01
7.295824587345123291e-02 -9.209612011909484863e-02 7.995350658893585205e-02
2.245057374238967896e-02 -1.399696767330169678e-01 -2.039153128862380981e-02
-4.385098069906234741e-02 -4.601014405488967896e-02 -1.319368779659271240e-01
-1.473106816411018372e-02 -8.142492175102233887e-02 -1.203261315822601318e-01
1.067844480276107788e-01 -3.325620666146278381e-03 1.225157268345355988e-02
1.928696408867835999e-03 1.383422017097473145e-01 7.226780802011489868e-02
-2.917061932384967804e-02 7.071763277053833008e-03 -1.624409556388854980e-01
-9.978749603033065796e-02 1.224715635180473328e-01 6.754609942436218262e-02
9.913472831249237061e-02 3.397263586521148682e-03 -6.685461848974227905e-02
-3.688156977295875549e-02 1.167860552668571472e-01 -1.362436413764953613e-01
-9.037566184997558594e-02 2.179661020636558533e-02 -1.192671433091163635e-01
-1.742631196975708008e-02 1.711243093013763428e-01 -1.790423691272735596e-02
1.067139655351638794e-01 -4.257576540112495422e-03 -3.314689546823501587e-02
-8.726962655782699585e-02 -6.365218013525009155e-02 -1.333180908113718033e-02
6.308318674564361572e-02 -1.290646940469741821e-01 -3.467876091599464417e-02
9.309615939855575562e-02 -9.231440722942352295e-02 3.793524950742721558e-02
-4.104678053408861160e-03 1.465848833322525024e-01 6.318206340074539185e-02
8.243197947740554810e-02 -1.167917624115943909e-01 -1.944159530103206635e-02
-2.974249981343746185e-02 -5.981212109327316284e-02 1.246171221137046814e-01
1.382174342870712280e-02 -1.368780136108398438e-01 3.178993239998817444e-02
-4.306473582983016968e-02 -1.510413549840450287e-02 1.393893808126449585e-01
-4.377920553088188171e-02 1.655575446784496307e-02 1.449394226074218750e-01
-3.099350724369287491e-03 5.116572231054306030e-02 -1.636611819267272949e-01
-1.150466799736022949e-01 3.756435960531234741e-02 6.532373279333114624e-02
8.148100227117538452e-02 -4.778193682432174683e-02 -1.060601919889450073e-01
2.921168878674507141e-02 1.363661140203475952e-01 -6.115083023905754089e-02
-9.407687187194824219e-02 1.538040637969970703e-01 2.743607945740222931e-02
-6.920419633388519287e-02 -8.662481606006622314e-02 -1.933871954679489136e-02
8.065925538539886475e-02 -6.772283464670181274e-02 -9.776179492473602295e-02
8.174299448728561401e-02 5.794623494148254395e-02 4.756591469049453735e-02
5.626144260168075562e-02 6.360282003879547119e-02 -1.188173145055770874e-01
1.758072711527347565e-02 9.197980910539627075e-02 -1.374844610691070557e-01
-3.785296529531478882e-02 6.671846657991409302e-02 1.402516961097717285e-01
-2.277718298137187958e-02 2.971026673913002014e-02 -1.659936010837554932e-01
8.124140650033950806e-02 4.129813611507415771e-02 6.875310838222503662e-02
-7.346227765083312988e-02 5.699340254068374634e-02 1.261523813009262085e-01
1.053306907415390015e-01 -7.065897434949874878e-02 -2.286541275680065155e-02
-7.069227099418640137e-02 -7.246898114681243896e-02 -6.277506053447723389e-02
-1.017643287777900696e-01 2.033266425132751465e-02 8.890361338853836060e-02
-1.048150658607482910e-02 -1.176210567355155945e-01 6.837624311447143555e-02
-4.952734336256980896e-02 1.554846018552780151e-01 6.529333442449569702e-02
1.027141511440277100e-01 -6.142565608024597168e-02 3.783754631876945496e-02
-4.638394340872764587e-02 1.764996796846389771e-01 -8.524375036358833313e-03
1.073509901762008667e-01 -6.170156598091125488e-02 7.729127537459135056e-03
-1.877397298812866211e-02 1.538335233926773071e-01 -8.908483386039733887e-02
6.774555891752243042e-02 7.860798388719558716e-02 5.711595714092254639e-02
-1.338760927319526672e-02 -1.246454343199729919e-01 4.641838371753692627e-02
4.812292382121086121e-02 4.139059782028198242e-02 1.193537041544914246e-01
8.158843964338302612e-02 -1.053145006299018860e-01 4.870337620377540588e-02
-1.101169511675834656e-01 4.678201675415039062e-02 -9.249936789274215698e-02
1.811882294714450836e-02 7.843136787414550781e-02 1.229953393340110779e-01
-7.057702541351318359e-02 4.207753762602806091e-02 -1.445176154375076294e-01
9.918335825204849243e-02 1.538158021867275238e-02 3.699554875493049622e-02
-6.097648292779922485e-05 -1.358616948127746582e-01 -1.611775904893875122e-02
-9.533110260963439941e-02 7.084455341100692749e-02 1.018555983901023865e-01
3.474843874573707581e-02 3.189549222588539124e-02 1.340691596269607544e-01
-6.343179941177368164e-02 -7.541558146476745605e-02 7.063053548336029053e-02
9.385538101196289062e-02 -9.998969733715057373e-02 1.562291011214256287e-02
-1.622186042368412018e-02 1.291426122188568115e-01 9.667953848838806152e-02
-2.112576365470886230e-02 9.202417731285095215e-02 1.292647421360015869e-01
-8.784201927483081818e-03 -8.344675600528717041e-02 1.156954541802406311e-01
1.005175784230232239e-01 3.109052777290344238e-04 4.446965083479881287e-02
8.945132046937942505e-02 4.134275764226913452e-02 -6.704434752464294434e-02
-6.613264977931976318e-02 1.541366577148437500e-01 6.177017092704772949e-02
-6.754424422979354858e-03 5.469819903373718262e-02 1.442679017782211304e-01
-1.933043077588081360e-02 1.266720294952392578e-01 -1.262137740850448608e-01
-1.294168829917907715e-01 6.976474076509475708e-02 2.520196605473756790e-03
7.582555711269378662e-02 7.441329956054687500e-02 3.931788355112075806e-02
2.208190038800239563e-02 7.038882374763488770e-02 -1.475185900926589966e-01
-5.805887281894683838e-02 -9.574580192565917969e-02 3.329532220959663391e-02
1.227055490016937256e-02 3.402300179004669189e-02 -1.630553007125854492e-01
-1.268610656261444092e-01 8.053786307573318481e-02 -3.916023299098014832e-02
4.113690555095672607e-02 1.308827698230743408e-01 -3.469439595937728882e-02
-3.357501327991485596e-02 1.521351486444473267e-01 7.022622227668762207e-02
-1.052978411316871643e-01 5.454391241073608398e-02 -1.032020896673202515e-01
7.383180409669876099e-02 -1.183398142457008362e-01 3.929477930068969727e-02
-5.339493229985237122e-02 4.609560221433639526e-02 -1.558628529310226440e-01
7.246695458889007568e-04 -2.269208244979381561e-02 1.480291932821273804e-01
-7.732559740543365479e-02 -7.630448788404464722e-03 -1.231369748711585999e-01
-7.510507106781005859e-02 -4.559634625911712646e-02 8.944710344076156616e-02
1.697232946753501892e-02 1.157651022076606750e-01 9.005979448556900024e-02
-2.181236818432807922e-02 -6.843966245651245117e-02 -1.287205517292022705e-01
-4.482027888298034668e-02 -1.113659068942070007e-01 3.567068371921777725e-03
-1.073197834193706512e-02 1.385781764984130859e-01 8.171299844980239868e-02
-9.463690966367721558e-02 4.958668351173400879e-02 -1.194659322500228882e-01
-8.978281170129776001e-02 -4.709926992654800415e-02 -5.838048830628395081e-02
-6.886260956525802612e-02 -3.310859948396682739e-02 1.091257259249687195e-01
2.462534606456756592e-02 6.227869540452957153e-02 1.282452344894409180e-01
-5.359537526965141296e-02 -7.076402008533477783e-02 9.335398674011230469e-02
7.003986835479736328e-02 5.853563547134399414e-02 7.683119177818298340e-02
7.926039397716522217e-02 -4.635097831487655640e-02 9.635110944509506226e-02
-1.045361459255218506e-01 1.499165147542953491e-01 -2.047121338546276093e-02
9.221477061510086060e-02 2.170606888830661774e-02 -7.726431638002395630e-02
-1.037550345063209534e-01 -1.965238712728023529e-02 5.189799517393112183e-02
5.986440181732177734e-02 -1.237228140234947205e-01 -5.594763904809951782e-02
3.500622138381004333e-02 6.756749749183654785e-02 -1.395694464445114136e-01
-9.791360050439834595e-02 2.884580753743648529e-02 -1.102422550320625305e-01
8.356957882642745972e-02 -7.665596902370452881e-02 7.641281187534332275e-02
7.420542091131210327e-02 -8.807328343391418457e-02 -9.084327518939971924e-02
-4.195053875446319580e-02 1.683705002069473267e-01 -6.462176889181137085e-02
-1.237147375941276550e-01 4.023835808038711548e-02 3.511717915534973145e-02
9.988512843847274780e-02 1.682018861174583435e-02 -5.255237966775894165e-02
6.696335226297378540e-02 9.797120839357376099e-02 -3.935034200549125671e-02
-9.506803005933761597e-02 -2.200584858655929565e-03 -9.930473566055297852e-02
-1.112321987748146057e-01 1.361712962388992310e-01 -4.033002629876136780e-02
-6.232726387679576874e-03 7.410369068384170532e-02 -1.573398411273956299e-01
3.322901576757431030e-02 9.060925990343093872e-02 -1.252558380365371704e-01
9.367473423480987549e-02 -9.280285239219665527e-02 -4.440928995609283447e-02
4.462798312306404114e-02 -1.397794187068939209e-01 -3.592972178012132645e-03
3.028834238648414612e-02 7.933555543422698975e-02 1.130476742982864380e-01
-1.093056704849004745e-02 1.593301743268966675e-01 -6.985425949096679688e-02
-1.672163046896457672e-02 -6.848856806755065918e-03 -1.624860316514968872e-01
-2.138580195605754852e-02 1.657225936651229858e-01 -6.159618124365806580e-02
-7.771714031696319580e-02 -7.289236783981323242e-02 -3.663866966962814331e-02
1.088756322860717773e-01 -1.153591275215148926e-02 -1.326417643576860428e-02
-3.781846910715103149e-02 -1.144677028059959412e-01 2.711188606917858124e-02
7.381354272365570068e-02 6.397859007120132446e-02 -8.620809763669967651e-02
-1.190107241272926331e-01 5.979296565055847168e-02 -7.243779301643371582e-02
-1.286421436816453934e-02 -3.955572098493576050e-02 1.418402493000030518e-01
4.955191165208816528e-03 -3.869691491127014160e-02 1.436011940240859985e-01
