-1.066653430461883545e-01 -1.017949879169464111e-01 -3.752452135086059570e-02
-1.726745367050170898e-01 -1.339193284511566162e-01 2.802173197269439697e-01
-1.889708936214447021e-01 -1.102691292762756348e-01 -1.444804370403289795e-01
-2.530075013637542725e-01 -1.321084946393966675e-01 1.786604225635528564e-01
-1.692012101411819458e-01 -1.329255849123001099e-01 1.036933138966560364e-01
-2.664479017257690430e-01 -8.902435004711151123e-02 1.044517755508422852e-01
-2.127593755722045898e-01 -1.376491636037826538e-01 1.274457573890686035e-01
-1.543959081172943115e-01 -1.280912309885025024e-01 7.145740836858749390e-02
-1.597451269626617432e-01 -3.890763595700263977e-02 -1.223617419600486755e-01
-1.959863007068634033e-01 -5.211249366402626038e-02 9.823487699031829834e-02
-1.665968745946884155e-01 -8.068413287401199341e-02 3.241133391857147217e-01
-2.028289437294006348e-01 -1.399290561676025391e-01 2.411296963691711426e-01
-1.622171550989151001e-01 -3.906631469726562500e-02 -1.076001599431037903e-01
-2.037355601787567139e-01 -8.547162264585494995e-02 3.397914469242095947e-01
-1.301410049200057983e-01 -1.195553690195083618e-01 2.125835716724395752e-01
-1.167425140738487244e-01 -9.727198630571365356e-02 2.568706572055816650e-01
-1.149257719516754150e-01 -1.039908677339553833e-01 -6.516273319721221924e-02
-1.358319222927093506e-01 -3.933176025748252869e-02 -1.699870228767395020e-01
-2.539458870887756348e-01 -1.118155345320701599e-01 3.276161849498748779e-01
-2.096603661775588989e-01 -5.044554173946380615e-02 -7.481717318296432495e-02
-2.614366412162780762e-01 -8.265169709920883179e-02 4.849139228463172913e-02
-1.635550260543823242e-01 -1.325202733278274536e-01 1.250169277191162109e-01
-8.933725208044052124e-02 -5.681690201163291931e-02 -1.716481894254684448e-02
-2.342512160539627075e-01 -7.768905907869338989e-02 2.393288016319274902e-01
-2.161396890878677368e-01 -1.395832896232604980e-01 2.738124430179595947e-01
-1.387572288513183594e-01 -1.054258495569229126e-01 3.253986537456512451e-01
-2.526379525661468506e-01 -7.403821498155593872e-02 3.445614129304885864e-02
-1.245765686035156250e-01 -7.947356998920440674e-02 -2.376580834388732910e-01
-2.290293276309967041e-01 -1.195895448327064514e-01 -4.594785720109939575e-02
-2.460770756006240845e-01 -1.258804500102996826e-01 3.428693413734436035e-01
-1.411579102277755737e-01 -1.184606775641441345e-01 -1.908089220523834229e-02
-2.100739479064941406e-01 -1.032905280590057373e-01 -1.636426150798797607e-01
-2.416429370641708374e-01 -1.366689950227737427e-01 2.115816473960876465e-01
-1.785592287778854370e-01 -8.737333118915557861e-02 -2.457641363143920898e-01
-1.229403316974639893e-01 -6.884873658418655396e-02 2.146660685539245605e-01
-1.324615776538848877e-01 -4.052048549056053162e-02 -1.885717511177062988e-01
-1.507503539323806763e-01 -3.908246383070945740e-02 -1.621646285057067871e-01
-1.585340797901153564e-01 -4.767695814371109009e-02 -2.491531968116760254e-01
-1.120051592588424683e-01 -4.869934171438217163e-02 3.931149840354919434e-02
-1.194576919078826904e-01 -5.899228900671005249e-02 1.504974365234375000e-01
-2.427934110164642334e-01 -8.589798957109451294e-02 2.665108442306518555e-01
-2.364834696054458618e-01 -7.041385024785995483e-02 1.631143540143966675e-01
-1.540906578302383423e-01 -5.611651390790939331e-02 -2.802118957042694092e-01
-1.851895898580551147e-01 -6.003225594758987427e-02 2.006293237209320068e-01
-1.231321543455123901e-01 -3.976814448833465576e-02 -1.369614005088806152e-01
-2.332804054021835327e-01 -1.065897047519683838e-01 -1.076715961098670959e-01
-2.320402860641479492e-01 -1.209217309951782227e-01 3.825131058692932129e-01
-2.404101639986038208e-01 -6.801796704530715942e-02 1.022584289312362671e-01
-1.874143332242965698e-01 -4.935710877180099487e-02 8.254852890968322754e-02
-1.085193380713462830e-01 -4.820660874247550964e-02 -2.015676498413085938e-01
-2.616816461086273193e-01 -1.265800446271896362e-01 2.482291162014007568e-01
-1.167044043540954590e-01 -6.809266656637191772e-02 1.953030526638031006e-01
-2.504040002822875977e-01 -7.575654983520507812e-02 1.322121173143386841e-01
-2.710582613945007324e-01 -1.133958920836448669e-01 1.228572130203247070e-01
-1.203649118542671204e-01 -4.751436412334442139e-02 5.253932625055313110e-02
-1.639172881841659546e-01 -1.105640456080436707e-01 -1.344605684280395508e-01
-1.935039162635803223e-01 -4.617047682404518127e-02 -1.323908865451812744e-01
-1.258496940135955811e-01 -4.324221238493919373e-02 -2.113513052463531494e-01
-2.303690910339355469e-01 -1.340422779321670532e-01 9.533655643463134766e-02
-2.150891125202178955e-01 -1.367616057395935059e-01 3.265365362167358398e-01
-1.711517274379730225e-01 -1.313377916812896729e-01 6.535517424345016479e-02
-1.953164935111999512e-01 -4.735120385885238647e-02 1.563424244523048401e-02
-1.076945811510086060e-01 -1.058875620365142822e-01 1.593000888824462891e-01
-1.679682135581970215e-01 -5.539280176162719727e-02 1.721669733524322510e-01
-1.986587047576904297e-01 -6.031860411167144775e-02 -2.307518124580383301e-01
-1.822915226221084595e-01 -1.357960700988769531e-01 2.889208793640136719e-01
-8.595328778028488159e-02 -6.604137271642684937e-02 2.684511244297027588e-02
-2.129281163215637207e-01 -7.785115391016006470e-02 2.905641794204711914e-01
-2.587797343730926514e-01 -1.145582050085067749e-01 2.100334316492080688e-02
-1.751355528831481934e-01 -1.178062558174133301e-01 -9.019231051206588745e-02
-1.549507230520248413e-01 -1.143812686204910278e-01 3.534376621246337891e-01
-2.268576472997665405e-01 -1.387348026037216187e-01 1.818175166845321655e-01
-1.343957781791687012e-01 -3.882222250103950500e-02 -7.123262435197830200e-02
-1.590227782726287842e-01 -1.269987374544143677e-01 3.350584208965301514e-02
-2.038720697164535522e-01 -1.394115388393402100e-01 1.757322847843170166e-01
-1.503701806068420410e-01 -1.294955611228942871e-01 1.949768364429473877e-01
-9.964207559823989868e-02 -1.003302857279777527e-01 1.931194961071014404e-02
-1.660276502370834351e-01 -3.984910249710083008e-02 -6.227107346057891846e-02
-1.781837791204452515e-01 -9.209725260734558105e-02 3.676260411739349365e-01
-2.023205608129501343e-01 -1.005600690841674805e-01 -1.837882697582244873e-01
-1.868347227573394775e-01 -1.149723827838897705e-01 3.994837105274200439e-01
-2.421109974384307861e-01 -1.366426199674606323e-01 2.269671559333801270e-01
-2.269363552331924438e-01 -8.234988152980804443e-02 2.903475165367126465e-01
-2.024860233068466187e-01 -8.382540941238403320e-02 -2.316014468669891357e-01
-1.693902462720870972e-01 -5.309401825070381165e-02 1.503790766000747681e-01
-1.102093085646629333e-01 -5.987147241830825806e-02 1.298671960830688477e-01
-1.701074242591857910e-01 -1.342547535896301270e-01 2.573783993721008301e-01
-1.031398996710777283e-01 -1.008019372820854187e-01 -1.967591792345046997e-02
-1.757889091968536377e-01 -9.417081624269485474e-02 -2.238858044147491455e-01
-1.574704200029373169e-01 -1.318014115095138550e-01 1.661025583744049072e-01
-1.217425167560577393e-01 -1.167831942439079285e-01 1.006887853145599365e-01
-2.308613955974578857e-01 -1.360439509153366089e-01 3.158531188964843750e-01
-1.002730205655097961e-01 -5.426549166440963745e-02 4.475961998105049133e-02
-1.844913214445114136e-01 -1.253367513418197632e-01 -2.988607436418533325e-02
-1.736140698194503784e-01 -5.806621164083480835e-02 1.927240490913391113e-01
-2.633567750453948975e-01 -1.262858361005783081e-01 2.169208228588104248e-01
-2.240037322044372559e-01 -7.200273871421813965e-02 -1.833116412162780762e-01
-1.742981672286987305e-01 -6.663744896650314331e-02 2.544816434383392334e-01
-2.463868558406829834e-01 -1.290790140628814697e-01 8.442877233028411865e-02
-1.177673935890197754e-01 -4.301517084240913391e-02 -2.149202674627304077e-02
-1.577813774347305298e-01 -1.211887449026107788e-01 -3.590895980596542358e-02
-1.183706745505332947e-01 -8.974739164113998413e-02 -1.811245083808898926e-01
-1.373125910758972168e-01 -3.881026804447174072e-02 -1.573617160320281982e-01
-1.748774945735931396e-01 -1.261934936046600342e-01 -1.154484599828720093e-02
-2.346039712429046631e-01 -1.296328008174896240e-01 5.141846835613250732e-02
-1.114138066768646240e-01 -1.077756360173225403e-01 8.174128830432891846e-03
-2.026335000991821289e-01 -5.004137009382247925e-02 3.497795015573501587e-02
-2.016168534755706787e-01 -1.107810884714126587e-01 -1.354813873767852783e-01
-1.649976968765258789e-01 -1.046714037656784058e-01 -1.719942092895507812e-01
-2.550746202468872070e-01 -7.934898138046264648e-02 -2.658139914274215698e-02
-8.840644359588623047e-02 -8.614041656255722046e-02 7.151939719915390015e-02
-2.049458771944046021e-01 -4.860316216945648193e-02 -5.237820744514465332e-02
-9.726643562316894531e-02 -9.742595255374908447e-02 -6.795823574066162109e-04
-1.903690397739410400e-01 -8.637616038322448730e-02 -2.406571209430694580e-01
-2.401220947504043579e-01 -6.689690798521041870e-02 -6.055783480405807495e-02
-1.918551325798034668e-01 -8.644004166126251221e-02 3.500380516052246094e-01
-1.397040337324142456e-01 -4.483132809400558472e-02 5.526563897728919983e-02
-1.758095175027847290e-01 -4.463526979088783264e-02 -1.939193308353424072e-01
-2.161667048931121826e-01 -1.400253027677536011e-01 2.531117200851440430e-01
-1.577154695987701416e-01 -3.908339887857437134e-02 -1.440583467483520508e-01
-9.305494278669357300e-02 -5.626040324568748474e-02 -1.596686840057373047e-01
-1.750615239143371582e-01 -6.921936571598052979e-02 2.701666951179504395e-01
-1.300718784332275391e-01 -1.167075932025909424e-01 9.281348437070846558e-03
-2.379082739353179932e-01 -9.186052531003952026e-02 3.136020898818969727e-01
-2.606216371059417725e-01 -9.721181541681289673e-02 -2.669602632522583008e-02
-1.248316988348960876e-01 -4.277132451534271240e-02 -1.115173101425170898e-03
-1.462014317512512207e-01 -1.097636222839355469e-01 -1.156850233674049377e-01
-1.044603735208511353e-01 -4.871460422873497009e-02 -1.867530643939971924e-01
-1.353040784597396851e-01 -4.410118982195854187e-02 -2.303847074508666992e-01
-9.726268053054809570e-02 -9.879273921251296997e-02 8.841188251972198486e-02
-1.537496298551559448e-01 -7.990398257970809937e-02 -2.664614617824554443e-01
-2.706184089183807373e-01 -9.703478962182998657e-02 9.493063390254974365e-02
-1.873505711555480957e-01 -8.286074548959732056e-02 3.367447853088378906e-01
-1.285477280616760254e-01 -1.129543408751487732e-01 2.652308642864227295e-01
-2.384835034608840942e-01 -1.353411525487899780e-01 1.443990916013717651e-01
-1.752056777477264404e-01 -1.218924224376678467e-01 -5.533749610185623169e-02
-1.578463912010192871e-01 -1.299882978200912476e-01 2.641517519950866699e-01
-1.772761344909667969e-01 -4.289848357439041138e-02 -1.614051163196563721e-01
-2.715390622615814209e-01 -1.134500950574874878e-01 1.978042125701904297e-01
-1.176097244024276733e-01 -4.235932230949401855e-02 -3.604193776845932007e-02
-1.223948895931243896e-01 -1.152751520276069641e-01 4.255981743335723877e-02
-1.402520239353179932e-01 -4.349067807197570801e-02 3.735910356044769287e-02
-2.053763121366500854e-01 -1.385548114776611328e-01 1.471905410289764404e-01
-1.007108613848686218e-01 -7.325752824544906616e-02 -1.922346353530883789e-01
-2.066202461719512939e-01 -1.189399808645248413e-01 -8.040238171815872192e-02
-1.456981152296066284e-01 -4.686816409230232239e-02 8.503089845180511475e-02
-1.306285411119461060e-01 -8.102352172136306763e-02 2.781926691532135010e-01
-2.579960525035858154e-01 -9.767355769872665405e-02 -4.250364005565643311e-02
-8.888081461191177368e-02 -7.280210405588150024e-02 -1.288109421730041504e-01
-2.070590853691101074e-01 -1.161903589963912964e-01 -9.862304478883743286e-02
-1.510813981294631958e-01 -4.925226420164108276e-02 -2.612232267856597900e-01
-2.644181251525878906e-01 -8.612452447414398193e-02 6.743088364601135254e-02
-1.460322737693786621e-01 -4.507949203252792358e-02 -2.401400208473205566e-01
-2.677660286426544189e-01 -1.159259900450706482e-01 9.611085057258605957e-02
-2.628090977668762207e-01 -1.085957586765289307e-01 2.813027501106262207e-01
-1.173014193773269653e-01 -4.711934924125671387e-02 -2.225654423236846924e-01
-1.658916026353836060e-01 -1.312269121408462524e-01 8.120614290237426758e-02
-9.942807257175445557e-02 -8.801825344562530518e-02 -1.172337010502815247e-01
-1.280912011861801147e-01 -4.364122450351715088e-02 2.083779498934745789e-02
-1.431174278259277344e-01 -1.151124462485313416e-01 3.175553083419799805e-01
-1.969646811485290527e-01 -4.614842310547828674e-02 -8.594094961881637573e-02
-2.319062501192092896e-01 -6.580069661140441895e-02 -1.211976632475852966e-01
-1.827583461999893188e-01 -1.371315866708755493e-01 1.605835407972335815e-01
-1.722113937139511108e-01 -8.493438363075256348e-02 3.427680432796478271e-01
-1.102509647607803345e-01 -1.089105010032653809e-01 1.465691328048706055e-01
-1.635908335447311401e-01 -4.635440558195114136e-02 -2.352848351001739502e-01
-1.797439604997634888e-01 -7.724007219076156616e-02 3.124853968620300293e-01
-1.770407259464263916e-01 -1.336428523063659668e-01 3.030308783054351807e-01
-1.265917271375656128e-01 -5.364978685975074768e-02 1.261993050575256348e-01
-2.173267006874084473e-01 -1.401399374008178711e-01 2.274175882339477539e-01
-1.768795102834701538e-01 -4.290322959423065186e-02 -5.912959575653076172e-03
-2.298918664455413818e-01 -7.786370813846588135e-02 2.541297078132629395e-01
-1.976983547210693359e-01 -7.663741707801818848e-02 3.017253279685974121e-01
-9.744668751955032349e-02 -9.849576652050018311e-02 1.015338897705078125e-01
-1.147786602377891541e-01 -7.601767778396606445e-02 -2.277580499649047852e-01
-2.431787699460983276e-01 -9.765177220106124878e-02 3.239603936672210693e-01
-2.235897630453109741e-01 -1.257720589637756348e-01 -7.882505655288696289e-03
-1.453970670700073242e-01 -1.181201338768005371e-01 -3.725619614124298096e-02
-2.605080604553222656e-01 -8.283444494009017944e-02 1.737805455923080444e-02
-1.649392396211624146e-01 -1.274316459894180298e-01 3.242827653884887695e-01
-2.046979665756225586e-01 -5.155227705836296082e-02 -1.513925194740295410e-01
-1.677983403205871582e-01 -4.049778357148170471e-02 -4.239270836114883423e-02
-1.457098275423049927e-01 -9.219419211149215698e-02 3.339072465896606445e-01
-1.779907792806625366e-01 -4.602172970771789551e-02 5.358519777655601501e-02
-1.599273532629013062e-01 -4.351777955889701843e-02 3.993911668658256531e-02
-1.748212426900863647e-01 -1.015690863132476807e-01 -1.918028295040130615e-01
-2.432745099067687988e-01 -8.380004763603210449e-02 2.509261965751647949e-01
-1.084863990545272827e-01 -9.723336249589920044e-02 -9.510057419538497925e-02
-2.352626472711563110e-01 -7.345831394195556641e-02 -1.401432454586029053e-01
-1.847801506519317627e-01 -1.378015279769897461e-01 2.455447912216186523e-01
-9.991530328989028931e-02 -7.422556728124618530e-02 1.586430668830871582e-01
-1.541368216276168823e-01 -5.451010167598724365e-02 1.641118824481964111e-01
-2.152822017669677734e-01 -8.822623640298843384e-02 -2.018233239650726318e-01
-1.280050426721572876e-01 -8.681623637676239014e-02 -2.166450321674346924e-01
-2.043481171131134033e-01 -5.811238288879394531e-02 1.491278558969497681e-01
-1.515707075595855713e-01 -9.299128502607345581e-02 -1.394123584032058716e-02
-1.421123743057250977e-01 -6.886313110589981079e-02 1.135763302445411682e-01
-2.468361407518386841e-01 -1.629690080881118774e-02 -3.774621486663818359e-01
-7.716178894042968750e-02 -4.905330389738082886e-02 -2.552743554115295410e-01
-1.486683487892150879e-01 -1.440533902496099472e-02 -4.286706149578094482e-01
-8.136448264122009277e-02 -2.970750816166400909e-02 -2.823117077350616455e-01
-2.842421531677246094e-01 1.274546422064304352e-02 9.200499206781387329e-02
-2.703132331371307373e-01 2.552155964076519012e-02 1.006883382797241211e-02
-1.865404695272445679e-01 1.629774458706378937e-02 -4.133440926671028137e-02
-2.570697367191314697e-01 -4.759933426976203918e-02 -2.727087438106536865e-01
-1.724076122045516968e-01 -6.114081293344497681e-02 -3.215318918228149414e-01
-3.066230118274688721e-01 -5.044124275445938110e-02 -1.195951998233795166e-01
-8.432917296886444092e-02 -2.203805372118949890e-02 -2.418637275695800781e-01
-2.213070690631866455e-01 -5.205083638429641724e-03 1.282706260681152344e-01
-3.023681342601776123e-01 -6.002914160490036011e-02 -5.696446821093559265e-02
-2.591780722141265869e-01 3.686091303825378418e-02 -1.190975457429885864e-01
-2.178834527730941772e-01 3.592988848686218262e-02 -2.005856037139892578e-01
-2.689754962921142578e-01 -1.971628516912460327e-03 -3.604080975055694580e-01
-3.135763704776763916e-01 2.965588308870792389e-02 -1.986985504627227783e-01
-2.429579198360443115e-01 3.677387535572052002e-02 -2.793618738651275635e-01
-2.260177880525588989e-01 -7.094176113605499268e-02 -2.075743973255157471e-01
-1.754826456308364868e-01 -7.879593223333358765e-02 -2.204304039478302002e-01
-2.402069866657257080e-01 -5.185837671160697937e-02 2.253776788711547852e-01
-1.490394622087478638e-01 8.332265540957450867e-03 -9.078659862279891968e-02
-3.312415480613708496e-01 -4.469124227762222290e-02 1.134073063731193542e-01
-1.770829409360885620e-01 2.736197598278522491e-02 -2.974754273891448975e-01
-2.338066548109054565e-01 -8.352786302566528320e-02 -7.508809864521026611e-02
-2.504715621471405029e-01 -7.872980833053588867e-02 -7.888645678758621216e-02
-3.160072863101959229e-01 3.120675124228000641e-02 -1.589180529117584229e-01
-2.190667092800140381e-01 2.220476977527141571e-02 -1.965663582086563110e-02
-2.985503077507019043e-01 1.683002524077892303e-02 -2.973883450031280518e-01
-1.135430186986923218e-01 -2.089049667119979858e-02 -3.912816941738128662e-02
-1.450398266315460205e-01 -6.601532921195030212e-03 -6.838209927082061768e-03
-2.938204705715179443e-01 6.853433325886726379e-03 1.186615303158760071e-01
-2.803730964660644531e-01 2.541840635240077972e-02 -3.134949505329132080e-01
-7.850781083106994629e-02 -6.215634942054748535e-02 -1.902429610490798950e-01
-2.298913896083831787e-01 2.598218806087970734e-02 -3.669984042644500732e-01
-3.420724868774414062e-01 1.369095779955387115e-02 -1.460911482572555542e-01
-2.354189604520797729e-01 3.772325068712234497e-02 -2.532944381237030029e-01
-2.019450366497039795e-01 3.197197616100311279e-02 -1.712416559457778931e-01
-9.940105676651000977e-02 -7.842514663934707642e-03 -2.355132997035980225e-01
-1.869883835315704346e-01 -5.501884967088699341e-02 -3.371656537055969238e-01
-2.411005795001983643e-01 -7.207886129617691040e-02 1.934007406234741211e-01
-1.636578440666198730e-01 1.950017921626567841e-02 -1.450994908809661865e-01
-1.669523566961288452e-01 -9.391976892948150635e-02 -1.546014845371246338e-02
-9.312384575605392456e-02 -4.554708674550056458e-02 -3.306345343589782715e-01
-2.683286070823669434e-01 2.134667150676250458e-02 3.858140856027603149e-02
-2.468272447586059570e-01 3.547250479459762573e-02 -2.953982353210449219e-01
-2.593328952789306641e-01 -7.999938726425170898e-02 1.104045137763023376e-01
-3.176179528236389160e-01 -1.560080423951148987e-02 -2.313186228275299072e-01
-2.016044557094573975e-01 -4.689019173383712769e-02 -3.542025685310363770e-01
-2.419454902410507202e-01 -8.294346928596496582e-02 1.248297318816184998e-01
-2.112624496221542358e-01 -8.986341953277587891e-02 8.523712307214736938e-02
-2.290463745594024658e-01 3.529694676399230957e-02 -2.971247434616088867e-01
-2.557915151119232178e-01 3.723853826522827148e-02 -2.663891911506652832e-01
-3.052932918071746826e-01 9.803952649235725403e-03 1.011077985167503357e-01
-2.388781905174255371e-01 -8.095722645521163940e-02 -9.148451685905456543e-02
-1.309532970190048218e-01 -7.236897945404052734e-02 8.394347876310348511e-02
-2.452778816223144531e-01 -6.934183090925216675e-02 -1.787564158439636230e-01
-2.026154398918151855e-01 -6.219439208507537842e-02 -2.910172045230865479e-01
-3.115654289722442627e-01 6.021374836564064026e-03 -2.736848592758178711e-01
-1.466980874538421631e-01 1.811351068317890167e-02 -2.491138875484466553e-01
-1.278257369995117188e-01 1.248082146048545837e-03 -3.755626678466796875e-01
-1.010341644287109375e-01 -1.767458766698837280e-02 -1.118569225072860718e-01
-1.457504928112030029e-01 1.710982806980609894e-02 -2.220081835985183716e-01
-9.408888220787048340e-02 -3.751444816589355469e-02 -3.459517359733581543e-01
-3.468505740165710449e-01 -2.085556089878082275e-02 -8.818737417459487915e-02
-1.770204007625579834e-01 2.620870061218738556e-02 -1.823376268148422241e-01
-2.630600631237030029e-01 3.839711844921112061e-02 -1.517602205276489258e-01
-2.360618263483047485e-01 1.548580639064311981e-02 4.845391958951950073e-02
-2.011471986770629883e-01 3.348898887634277344e-02 -2.598626911640167236e-01
-1.300747990608215332e-01 -8.971362560987472534e-02 -8.885034918785095215e-02
-1.057628914713859558e-01 -7.198649644851684570e-02 -2.448571622371673584e-01
-2.091515064239501953e-01 2.209158055484294891e-02 -3.686936199665069580e-02
-2.752381265163421631e-01 -7.555720955133438110e-02 2.092480659484863281e-03
-3.542830049991607666e-01 -3.836153075098991394e-03 -8.051263540983200073e-02
-2.234944552183151245e-01 -7.774219661951065063e-02 -1.617881506681442261e-01
-2.154952585697174072e-01 -8.808303624391555786e-02 1.062366440892219543e-01
-2.887569665908813477e-01 3.728888928890228271e-02 -1.551368832588195801e-01
-2.828029394149780273e-01 -6.309051811695098877e-02 1.849950253963470459e-01
-8.083429932594299316e-02 -6.580761820077896118e-02 -1.754658818244934082e-01
-1.322751492261886597e-01 -3.531017526984214783e-02 -4.014965295791625977e-01
-1.132005900144577026e-01 2.020373940467834473e-04 -2.040791511535644531e-01
-3.302962779998779297e-01 -3.792358934879302979e-02 -9.209891408681869507e-02
-8.235388994216918945e-02 -6.283592432737350464e-02 -9.500444680452346802e-02
-1.892178952693939209e-01 -9.340248256921768188e-02 -1.075957715511322021e-02
-2.347458004951477051e-01 1.969846896827220917e-02 2.076202630996704102e-02
-1.154100820422172546e-01 -3.375531360507011414e-02 1.418216526508331299e-02
-1.775423437356948853e-01 -8.558796718716621399e-03 7.653837651014328003e-02
-2.367582619190216064e-01 2.119066193699836731e-03 1.152654662728309631e-01
-1.823858767747879028e-01 -2.413277328014373779e-02 1.363803744316101074e-01
-2.398802787065505981e-01 3.847919404506683350e-02 -2.074730843305587769e-01
-1.230102106928825378e-01 -6.063368171453475952e-03 -8.456520736217498779e-02
-1.508733928203582764e-01 -8.712448179721832275e-02 7.132933288812637329e-02
-1.250400543212890625e-01 7.620474323630332947e-03 -2.207985371351242065e-01
-2.577433288097381592e-01 -7.136794179677963257e-02 1.842815577983856201e-01
-2.932316064834594727e-01 2.778020687401294708e-02 -2.772007584571838379e-01
-1.929830908775329590e-01 2.083077840507030487e-02 -3.874396979808807373e-01
-2.530241906642913818e-01 3.302009403705596924e-02 -7.085843384265899658e-02
-2.888966202735900879e-01 -1.555974874645471573e-02 -3.057159483432769775e-01
-2.930400371551513672e-01 -1.700887084007263184e-02 1.924373209476470947e-01
-2.131308764219284058e-01 -6.689891964197158813e-02 2.028837203979492188e-01
-2.708148956298828125e-01 -5.826577916741371155e-02 2.132409811019897461e-01
-3.318034708499908447e-01 2.524144016206264496e-02 -1.241567730903625488e-01
-3.106642663478851318e-01 -7.279030978679656982e-03 1.597820520401000977e-01
-2.442420572042465210e-01 -5.927645415067672729e-02 -2.424147725105285645e-01
-1.577634215354919434e-01 -4.451680928468704224e-02 1.366596221923828125e-01
-3.363985121250152588e-01 -6.543755531311035156e-03 -1.822897791862487793e-01
-3.246355950832366943e-01 -1.271232869476079941e-02 1.571423411369323730e-01
-1.356011331081390381e-01 -7.153340429067611694e-02 -2.768344581127166748e-01
-1.656998544931411743e-01 -8.657583594322204590e-02 -1.606878042221069336e-01
-1.850503832101821899e-01 2.966322936117649078e-02 -2.152277380228042603e-01
-2.685144543647766113e-01 -6.931910663843154907e-02 -1.134950220584869385e-01
-1.604435443878173828e-01 -9.247337281703948975e-02 3.091388195753097534e-02
-1.992571651935577393e-01 2.565344981849193573e-02 -3.654651343822479248e-01
-1.722438335418701172e-01 -8.859235793352127075e-02 -1.337784826755523682e-01
-2.680950462818145752e-01 1.745262183248996735e-02 6.246965378522872925e-02
-3.433750867843627930e-01 -3.018967434763908386e-02 -5.966562032699584961e-02
-2.206944674253463745e-01 -8.738791197538375854e-02 -6.000956147909164429e-02
-2.856812775135040283e-01 -6.828758120536804199e-02 1.471406817436218262e-01
-2.500448226928710938e-01 1.956631429493427277e-02 -3.720633685588836670e-01
-2.225292026996612549e-01 -8.362445980310440063e-02 -1.066291853785514832e-01
-9.110356122255325317e-02 -3.515670076012611389e-02 -7.699458301067352295e-02
-2.824317514896392822e-01 -7.335994392633438110e-02 9.413190931081771851e-02
-1.061668172478675842e-01 -2.728577144443988800e-02 -3.792993426322937012e-01
-8.795844018459320068e-02 -7.305855304002761841e-02 -1.455173641443252563e-01
-1.010343134403228760e-01 -2.710869349539279938e-02 -6.207720935344696045e-02
-3.118184208869934082e-01 -5.705998092889785767e-02 -3.138263523578643799e-02
-2.598233819007873535e-01 -7.613544911146163940e-02 1.525198221206665039e-01
-3.188989162445068359e-01 -5.640748888254165649e-02 6.581214815378189087e-02
-9.263619035482406616e-02 -6.071182340383529663e-02 -2.919583767652511597e-02
-2.468302994966506958e-01 1.512478105723857880e-02 6.133914738893508911e-02
-1.837559342384338379e-01 5.827767774462699890e-03 2.029055356979370117e-02
-1.881886124610900879e-01 -1.635838858783245087e-02 -4.286884367465972900e-01
-2.171538323163986206e-01 1.363424398005008698e-02 3.470785170793533325e-02
-2.967543303966522217e-01 1.627245731651782990e-02 7.163076847791671753e-02
-1.202339977025985718e-01 -7.859899848699569702e-02 3.737433999776840210e-02
-2.025111466646194458e-01 5.642188712954521179e-03 -4.245338737964630127e-01
-2.739193439483642578e-01 3.869229555130004883e-02 -1.810396164655685425e-01
-9.411993622779846191e-02 -1.973601616919040680e-02 -3.335820436477661133e-01
-2.288221120834350586e-01 -8.801403641700744629e-02 -1.069495826959609985e-02
-2.757380008697509766e-01 3.248119354248046875e-02 -5.130524933338165283e-02
-2.778782546520233154e-01 -3.878689557313919067e-02 -2.640832066535949707e-01
-1.664833426475524902e-01 -7.544095069169998169e-02 1.441178321838378906e-01
-1.771542578935623169e-01 -9.313381463289260864e-02 -5.132425203919410706e-02
-1.320680677890777588e-01 1.140973903238773346e-02 -2.982160151004791260e-01
-1.354570388793945312e-01 -9.093180298805236816e-02 -2.994293719530105591e-02
-1.085369959473609924e-01 -4.183438047766685486e-02 -3.672616779804229736e-01
-2.786673307418823242e-01 2.893465571105480194e-02 -1.564200967550277710e-02
-1.886991858482360840e-01 -8.709230273962020874e-02 1.188200041651725769e-01
-3.178908824920654297e-01 -5.112491548061370850e-02 -5.750750750303268433e-02
-2.297948002815246582e-01 -7.799696177244186401e-02 -1.459022909402847290e-01
-1.332754194736480713e-01 8.018275722861289978e-03 -1.599024385213851929e-01
-2.238974422216415405e-01 3.628599643707275391e-02 -1.818219423294067383e-01
-2.827982902526855469e-01 3.509558737277984619e-02 -8.623699098825454712e-02
-9.091790020465850830e-02 -4.896135255694389343e-02 -4.298678785562515259e-02
-2.823029756546020508e-01 -4.466459900140762329e-02 -2.291629314422607422e-01
-2.295811176300048828e-01 -8.840790390968322754e-02 5.849986523389816284e-02
-3.128713667392730713e-01 -5.084000900387763977e-02 1.642811596393585205e-01
-1.912110745906829834e-01 -8.965351432561874390e-02 -9.667755663394927979e-02
-2.922325134277343750e-01 -3.435677662491798401e-02 -2.459070384502410889e-01
-2.335399985313415527e-01 2.578760869801044464e-02 -2.566528320312500000e-02
-8.978055417537689209e-02 -7.357427477836608887e-02 -1.646222174167633057e-01
-1.401179581880569458e-01 -2.405698224902153015e-02 -4.199874997138977051e-01
-1.150416657328605652e-01 -2.342520840466022491e-02 -2.279061079025268555e-02
-1.505353152751922607e-01 -5.028375983238220215e-02 -3.691704273223876953e-01
-3.250039517879486084e-01 -4.388840124011039734e-02 -7.875704765319824219e-02
-2.685021460056304932e-01 -5.052033066749572754e-02 -2.352426946163177490e-01
-2.906914055347442627e-01 -8.825436234474182129e-04 1.490809023380279541e-01
-1.122388169169425964e-01 -8.515352010726928711e-02 -5.915882065892219543e-02
-1.315009891986846924e-01 -5.157267302274703979e-02 -3.616104722023010254e-01
-2.520086169242858887e-01 -2.331004478037357330e-02 -3.571307361125946045e-01
-2.630786597728729248e-01 -6.600762903690338135e-02 -1.572228521108627319e-01
-3.146948218345642090e-01 3.057775832712650299e-02 -1.812216937541961670e-01
-1.703859865665435791e-01 -5.066438019275665283e-02 -3.630974888801574707e-01
-3.029486238956451416e-01 -6.472866237163543701e-02 8.780629187822341919e-02
-1.687890738248825073e-01 -9.376277774572372437e-02 -3.449372947216033936e-02
-1.001805588603019714e-01 -1.717123016715049744e-02 -3.524581789970397949e-01
-2.329364269971847534e-01 -8.587106317281723022e-02 -4.075168818235397339e-02
-3.348097801208496094e-01 -4.457652568817138672e-02 1.627505570650100708e-02
-2.903499603271484375e-01 3.199407830834388733e-03 1.341420710086822510e-01
-3.485913276672363281e-01 1.254325918853282928e-02 -2.228901535272598267e-02
-2.614576220512390137e-01 -2.861239574849605560e-02 -3.291263878345489502e-01
-3.408818244934082031e-01 8.818453177809715271e-03 -1.656242311000823975e-01
-2.876482605934143066e-01 -5.511569976806640625e-02 2.029062211513519287e-01
-2.377420812845230103e-01 -5.587388575077056885e-02 -2.711995542049407959e-01
-1.521392464637756348e-01 1.116398908197879791e-02 -3.849775791168212891e-01
-2.997842133045196533e-01 -3.077789954841136932e-02 2.071626186370849609e-01
-1.709185540676116943e-01 -9.106893092393875122e-02 6.823330372571945190e-02
-2.385254204273223877e-01 3.297033905982971191e-02 -3.224225342273712158e-01
-3.123033642768859863e-01 -6.024437397718429565e-02 4.533632844686508179e-02
-2.890313863754272461e-01 -5.593109503388404846e-02 -1.478585451841354370e-01
-2.395291924476623535e-01 -8.646065369248390198e-03 1.573114991188049316e-01
-1.183775439858436584e-01 -8.580299466848373413e-02 -1.325442790985107422e-01
-3.349255919456481934e-01 -3.617258742451667786e-02 1.350978612899780273e-01
-2.300311923027038574e-01 2.687939070165157318e-02 -4.016830772161483765e-02
-2.776947617530822754e-01 3.784008324146270752e-02 -1.402878016233444214e-01
-1.390118151903152466e-01 -8.363743126392364502e-02 -1.907605230808258057e-01
-1.787126064300537109e-01 2.122071571648120880e-02 -1.067470759153366089e-01
-1.534325331449508667e-01 6.398409605026245117e-04 -2.322857826948165894e-02
-1.722479611635208130e-01 2.538047917187213898e-02 -3.132869005203247070e-01
-1.569279879331588745e-01 7.633352652192115784e-03 -4.062406718730926514e-01
-1.497524529695510864e-01 -3.826817497611045837e-02 1.111840829253196716e-01
-2.999700009822845459e-01 -4.629819467663764954e-02 -1.698374748229980469e-01
-2.984153330326080322e-01 2.646632678806781769e-02 9.403377771377563477e-04
-2.461159825325012207e-01 -7.187009602785110474e-02 -1.578349620103836060e-01
-3.498316109180450439e-01 6.675658747553825378e-03 -1.111469939351081848e-01
-3.240373730659484863e-01 -5.033931881189346313e-02 -2.072408050298690796e-02
-1.679697930812835693e-01 4.853842779994010925e-03 -9.840153157711029053e-03
-9.230839461088180542e-02 -7.122866064310073853e-02 -5.490630865097045898e-02
-7.643398642539978027e-02 -5.266026407480239868e-02 -1.361616253852844238e-01
-2.984488308429718018e-01 -5.907827615737915039e-02 -8.655773848295211792e-02
-1.687671244144439697e-01 -8.884974569082260132e-02 8.762279897928237915e-02
-2.033998370170593262e-01 -8.547233045101165771e-02 -1.274717748165130615e-01
-2.196112424135208130e-01 1.706718839704990387e-02 1.722636073827743530e-02
-1.202971488237380981e-01 -8.748409897089004517e-02 -4.319955781102180481e-02
-2.264651358127593994e-01 3.467474877834320068e-02 -1.379962563514709473e-01
-2.461434602737426758e-01 1.049146987497806549e-02 8.531887084245681763e-02
-2.773639261722564697e-01 -7.045045495033264160e-02 -6.685361266136169434e-02
-2.003082633018493652e-01 -9.171526879072189331e-02 -3.677022457122802734e-02
-3.070160746574401855e-01 3.413014113903045654e-02 -1.422328948974609375e-01
-3.000543713569641113e-01 -1.093340851366519928e-02 -2.884772121906280518e-01
-2.792394757270812988e-01 -5.443382263183593750e-02 -1.872906982898712158e-01
-1.607515364885330200e-01 -9.203460812568664551e-02 -8.739325404167175293e-02
-2.224113792181015015e-01 -5.059070140123367310e-02 -3.171667754650115967e-01
-1.781874895095825195e-01 -9.364354610443115234e-02 2.332621067762374878e-02
-9.906710684299468994e-02 -7.931085675954818726e-02 -7.504510879516601562e-02
-3.196065425872802734e-01 1.825175993144512177e-02 -2.355636954307556152e-01
-1.709911525249481201e-01 2.637104876339435577e-02 -2.459100484848022461e-01
-2.140254676342010498e-01 3.135069459676742554e-02 -3.321629166603088379e-01
-2.173377722501754761e-01 -9.059952199459075928e-02 3.904683142900466919e-02
-2.280536442995071411e-01 -8.751010894775390625e-02 9.177120774984359741e-02
-1.509876847267150879e-01 7.049860432744026184e-03 -7.369334250688552856e-02
-2.333956509828567505e-01 3.212384134531021118e-02 -8.768536150455474854e-02
-2.823701500892639160e-01 3.709097951650619507e-02 -2.190926671028137207e-01
-1.400405615568161011e-01 1.427947916090488434e-02 -3.143922388553619385e-01
-1.412720382213592529e-01 -1.882087998092174530e-02 3.723002225160598755e-02
-2.094754278659820557e-01 -3.909105435013771057e-03 1.088546141982078552e-01
-1.604620218276977539e-01 -2.471430785953998566e-02 9.968801587820053101e-02
-2.079297453165054321e-01 -8.607968688011169434e-02 -1.116207167506217957e-01
-2.290808558464050293e-01 8.633909747004508972e-03 -4.073677062988281250e-01
-7.520441710948944092e-02 -3.889888897538185120e-02 -2.010575234889984131e-01
-2.585291266441345215e-01 7.528046146035194397e-03 1.083218529820442200e-01
-1.351770311594009399e-01 -8.513550460338592529e-02 4.766539484262466431e-02
-2.105327397584915161e-01 -1.805985346436500549e-02 1.576641201972961426e-01
-2.119306325912475586e-01 -7.898230105638504028e-02 -1.734206378459930420e-01
-1.010089293122291565e-01 -7.610250264406204224e-03 -2.107661366462707520e-01
-1.560653448104858398e-01 -3.585819527506828308e-02 -4.066218733787536621e-01
-1.833549141883850098e-01 -7.110504806041717529e-02 -2.634569406509399414e-01
-2.147769629955291748e-01 -3.008963726460933685e-02 1.901518702507019043e-01
-1.989061981439590454e-01 1.593243516981601715e-02 -1.145796477794647217e-02
-3.040348887443542480e-01 -2.872190810739994049e-02 -2.339021563529968262e-01
-1.089076548814773560e-01 -8.268433809280395508e-02 -1.465017646551132202e-01
-3.487704992294311523e-01 -1.334267109632492065e-02 -1.039070487022399902e-01
-3.059590756893157959e-01 2.912534214556217194e-02 -3.220393508672714233e-02
-2.174518406391143799e-01 -8.883100748062133789e-02 -4.434942081570625305e-02
-1.210325285792350769e-01 -6.493771821260452271e-02 -3.035233914852142334e-01
-3.305556178092956543e-01 1.911284960806369781e-02 1.151652634143829346e-02
-2.514591217041015625e-01 2.495157159864902496e-02 1.696564257144927979e-03
-2.939215302467346191e-01 -6.834310293197631836e-02 1.026812121272087097e-01
-1.782910972833633423e-01 -9.310611337423324585e-02 4.088186472654342651e-02
-1.901602894067764282e-01 -1.914156600832939148e-03 7.100237160921096802e-02
-2.224876880645751953e-01 3.641509264707565308e-02 -2.637290954589843750e-01
-8.403430879116058350e-02 -5.621951445937156677e-02 -2.693198025226593018e-01
-1.505835652351379395e-01 1.313186995685100555e-02 -1.294755488634109497e-01
-2.163258343935012817e-01 -3.619403019547462463e-02 -3.718385398387908936e-01
-2.571580410003662109e-01 -8.216802775859832764e-02 6.424870342016220093e-02
-9.323980659246444702e-02 -1.635249331593513489e-02 -1.769901365041732788e-01
-2.032661139965057373e-01 -9.237180650234222412e-02 9.422980248928070068e-03
-2.923236787319183350e-01 -2.318890020251274109e-02 -2.806319594383239746e-01
-1.168171986937522888e-01 -4.439525306224822998e-03 -1.255719214677810669e-01
-3.392125070095062256e-01 -2.511273324489593506e-02 -1.149575561285018921e-01
-2.057162225246429443e-01 2.324969135224819183e-02 -5.363944172859191895e-02
-3.340106010437011719e-01 2.440040744841098785e-02 -1.083749681711196899e-01
-1.348522454500198364e-01 1.294456981122493744e-02 -2.396808862686157227e-01
-3.012400865554809570e-01 -4.172219336032867432e-02 -1.893357336521148682e-01
-1.718985885381698608e-01 -9.057705849409103394e-02 -1.074107587337493896e-01
-2.677674591541290283e-01 -7.899647951126098633e-02 3.569083660840988159e-02
-9.746563434600830078e-02 -5.905984342098236084e-02 -7.685616612434387207e-03
-3.039480745792388916e-01 -4.732813686132431030e-02 -1.500909179449081421e-01
-2.008993923664093018e-01 -8.533615618944168091e-02 1.354036629199981689e-01
-2.678808569908142090e-01 2.792681567370891571e-02 -3.240952789783477783e-01
-1.841678470373153687e-01 -5.125042423605918884e-02 -3.533070385456085205e-01
-2.026695907115936279e-01 -4.505506902933120728e-02 1.991021633148193359e-01
-1.379435658454895020e-01 -9.048413485288619995e-02 -1.506783068180084229e-03
-2.860672771930694580e-01 2.210304141044616699e-03 -3.318499028682708740e-01
-2.328725904226303101e-01 2.998632378876209259e-02 -6.508810073137283325e-02
-2.224634289741516113e-01 -4.121069237589836121e-02 -3.502001762390136719e-01
-2.314623743295669556e-01 -1.582085341215133667e-02 -3.969650268554687500e-01
-9.458274394273757935e-02 -5.244347825646400452e-02 -3.157688677310943604e-01
-2.157333344221115112e-01 -7.549136132001876831e-02 1.841176152229309082e-01
-1.524721682071685791e-01 -7.511711120605468750e-02 1.228888854384422302e-01
-1.856270879507064819e-01 -4.241376742720603943e-02 1.767369806766510010e-01
-2.276818007230758667e-01 -8.398790657520294189e-02 1.362698972225189209e-01
-8.690410852432250977e-02 -2.859402447938919067e-02 -1.322184503078460693e-01
-2.112874984741210938e-01 -2.398244664072990417e-02 1.737224459648132324e-01
-2.757906317710876465e-01 -7.643683254718780518e-02 5.400819331407546997e-02
-2.390880584716796875e-01 -4.441256821155548096e-02 -3.164888024330139160e-01
-3.122972548007965088e-01 2.189960516989231110e-02 2.468653768301010132e-02
-3.545902967453002930e-01 -1.662778481841087341e-02 -3.863057494163513184e-02
-3.214765489101409912e-01 2.974111773073673248e-02 -1.379815340042114258e-01
-2.381427735090255737e-01 3.836231678724288940e-02 -2.255844771862030029e-01
-1.086078956723213196e-01 -1.664054766297340393e-02 -8.074422180652618408e-02
-3.348855376243591309e-01 2.399914525449275970e-02 -8.749845623970031738e-02
-2.749741375446319580e-01 -1.056846231222152710e-02 1.791543364524841309e-01
-2.717345058917999268e-01 -6.982145458459854126e-02 1.719780862331390381e-01
-1.229288429021835327e-01 5.684485659003257751e-03 -3.195637464523315430e-01
-1.546078622341156006e-01 2.259574830532073975e-04 -4.214619398117065430e-01
-1.511383354663848877e-01 1.793373189866542816e-02 -3.265897035598754883e-01
-8.097565174102783203e-02 -4.317176342010498047e-02 -1.114856600761413574e-01
-2.688096165657043457e-01 1.139513589441776276e-02 9.515849500894546509e-02
-3.274232447147369385e-01 -6.386050954461097717e-03 1.382685005664825439e-01
-1.676743477582931519e-01 8.944142609834671021e-04 1.193381100893020630e-02
-1.148437932133674622e-01 -3.715420141816139221e-03 -1.430674344301223755e-01
-2.051915079355239868e-01 -9.168764203786849976e-02 -1.832512021064758301e-02
-2.293163985013961792e-01 -4.288414120674133301e-02 -3.359574377536773682e-01
-1.875521242618560791e-01 2.767918072640895844e-02 -3.321147859096527100e-01
-2.106199115514755249e-01 3.511137515306472778e-02 -2.190253287553787231e-01
-1.818162053823471069e-01 -1.161961443722248077e-02 9.600124508142471313e-02
-1.450206041336059570e-01 -5.547768622636795044e-02 -3.514368832111358643e-01
-2.974188625812530518e-01 -6.764473766088485718e-02 3.994490951299667358e-02
-1.319051384925842285e-01 6.985550746321678162e-03 -3.549565374851226807e-01
-1.024002656340599060e-01 -6.387976557016372681e-02 9.368389844894409180e-03
-2.096636891365051270e-01 1.962967216968536377e-04 9.206027537584304810e-02
-2.889710664749145508e-01 -7.121644169092178345e-02 7.946810871362686157e-02
-2.418119013309478760e-01 -7.812979817390441895e-02 -1.136893704533576965e-01
-1.756680607795715332e-01 -8.325437456369400024e-02 1.297896504402160645e-01
-2.950791418552398682e-01 -2.651744708418846130e-02 -2.646557390689849854e-01
-2.005731612443923950e-01 1.122173480689525604e-02 2.174980193376541138e-02
-2.082892805337905884e-01 3.362627327442169189e-02 -2.931324243545532227e-01
-3.105076551437377930e-01 -5.971044301986694336e-02 1.094839945435523987e-01
-1.735874712467193604e-01 -4.287821799516677856e-02 -3.856641054153442383e-01
-1.962983608245849609e-01 -7.515832781791687012e-02 -2.246987521648406982e-01
-3.024381995201110840e-01 -5.426875501871109009e-02 1.792543828487396240e-01
-1.968787759542465210e-01 3.276535123586654663e-02 -2.443860769271850586e-01
-9.241175651550292969e-02 -1.573906838893890381e-02 -1.932907998561859131e-01
-1.291616111993789673e-01 -5.701030790805816650e-02 -3.418241441249847412e-01
-1.430308222770690918e-01 -8.057657629251480103e-02 -2.182375788688659668e-01
-1.215645447373390198e-01 -4.539174959063529968e-03 -1.016489714384078979e-01
-1.910197436809539795e-01 1.053760759532451630e-02 7.619209587574005127e-03
-2.888102531433105469e-01 2.531805075705051422e-02 1.406501978635787964e-02
-3.300850093364715576e-01 1.344401948153972626e-02 -2.073731720447540283e-01
-1.174282878637313843e-01 -8.251099288463592529e-02 -1.767516136169433594e-01
-7.504028081893920898e-02 -5.302958190441131592e-02 -2.157927453517913818e-01
-1.238065734505653381e-01 -8.755704015493392944e-02 -1.184939146041870117e-01
-1.280611157417297363e-01 -8.634639531373977661e-02 -1.498350501060485840e-01
-1.644580513238906860e-01 7.221268489956855774e-03 -3.392230719327926636e-02
-1.340786814689636230e-01 -3.146512061357498169e-02 6.014578789472579956e-02
-2.652207314968109131e-01 -5.889505147933959961e-02 -1.983531564474105835e-01
-8.292205631732940674e-02 -2.759433910250663757e-02 -1.747389137744903564e-01
-1.270425915718078613e-01 9.400868788361549377e-03 -2.810100317001342773e-01
-2.932922840118408203e-01 -6.277517229318618774e-02 1.628617942333221436e-01
-1.460745334625244141e-01 -2.416440285742282867e-02 6.742491573095321655e-02
-3.451952636241912842e-01 -3.387907147407531738e-02 -4.147954285144805908e-03
-2.165794074535369873e-01 2.728892676532268524e-02 -6.796792149543762207e-02
-3.469394147396087646e-01 -2.725346945226192474e-02 9.553199261426925659e-02
-2.054065763950347900e-01 -9.028759598731994629e-02 -5.443410947918891907e-02
-1.045172736048698425e-01 -6.923116743564605713e-03 -1.825914382934570312e-01
-1.108885705471038818e-01 -4.707385599613189697e-02 2.952311187982559204e-02
-2.621329724788665771e-01 3.472901880741119385e-03 1.277015209197998047e-01
-2.499255537986755371e-01 -7.304632663726806641e-02 -1.381546407938003540e-01
-2.475947141647338867e-01 -8.414214849472045898e-02 3.892868757247924805e-03
-2.527729272842407227e-01 2.858220599591732025e-02 -2.669236809015274048e-02
-1.659147143363952637e-01 -6.535334885120391846e-02 -3.054594695568084717e-01
-1.233079731464385986e-01 -8.486448973417282104e-02 1.093143224716186523e-02
-2.125555276870727539e-01 -1.334399823099374771e-02 -4.174723923206329346e-01
-2.174823135137557983e-01 -2.650200575590133667e-02 -3.934313356876373291e-01
-2.119270265102386475e-01 -6.927652657032012939e-02 -2.410215437412261963e-01
-2.645149528980255127e-01 -2.871854230761528015e-02 2.154042124748229980e-01
-1.354670226573944092e-01 -3.878640383481979370e-02 8.101164549589157104e-02
-2.599203884601593018e-01 2.322694472968578339e-02 2.102695405483245850e-02
-1.307198107242584229e-01 9.661206975579261780e-03 -2.031905949115753174e-01
-1.489931493997573853e-01 -9.284984320402145386e-02 -4.190402105450630188e-02
-2.006229162216186523e-01 -6.775320321321487427e-02 1.937769055366516113e-01
-2.651841640472412109e-01 -3.869082778692245483e-02 -2.912509441375732422e-01
-3.553984761238098145e-01 3.123778849840164185e-03 -1.036934554576873779e-02
-1.362649202346801758e-01 7.969746366143226624e-03 -1.427088975906372070e-01
-3.007466793060302734e-01 3.436290472745895386e-02 -1.008433923125267029e-01
-2.596564590930938721e-01 -5.433754995465278625e-03 1.592729985713958740e-01
-2.526851892471313477e-01 2.879563905298709869e-02 -3.385684192180633545e-01
-1.407053917646408081e-01 -8.841504901647567749e-02 -1.379170566797256470e-01
-2.773742079734802246e-01 -7.397232204675674438e-02 -1.540852338075637817e-02
-2.278677225112915039e-01 -8.068339526653289795e-02 -1.250430941581726074e-01
-1.993455737829208374e-01 -6.921146810054779053e-02 -2.578948438167572021e-01
-3.309063315391540527e-01 2.464154921472072601e-02 -5.323212593793869019e-02
-1.995251774787902832e-01 -8.953566104173660278e-02 -8.248894661664962769e-02
-2.195915281772613525e-01 3.161490708589553833e-02 -1.096365302801132202e-01
-2.025180310010910034e-01 2.926675416529178619e-02 -1.251344382762908936e-01
-2.297512739896774292e-01 -3.278823196887969971e-02 -3.653660714626312256e-01
-3.208891153335571289e-01 -3.525616228580474854e-02 -1.511542052030563354e-01
-3.545955121517181396e-01 -1.977971568703651428e-02 -1.376755535602569580e-02
-2.546506524085998535e-01 -1.850084401667118073e-02 1.935522258281707764e-01
-1.762011051177978516e-01 2.302215807139873505e-02 -1.366450488567352295e-01
-2.101408094167709351e-01 -8.696994930505752563e-02 1.220493689179420471e-01
-1.336114108562469482e-01 -5.437152460217475891e-03 -4.866120964288711548e-02
-2.188762724399566650e-01 3.635731339454650879e-02 -2.459350228309631348e-01
-2.389659583568572998e-01 -2.504786849021911621e-02 1.994511783123016357e-01
-1.875294744968414307e-01 -8.256201446056365967e-02 1.438440084457397461e-01
-2.955551445484161377e-01 -5.627304315567016602e-03 1.632414758205413818e-01
-1.994173824787139893e-01 3.068901412189006805e-02 -3.203155100345611572e-01
-3.262935280799865723e-01 -8.016116917133331299e-04 1.231592968106269836e-01
-2.969155311584472656e-01 3.173165768384933472e-02 -2.427652776241302490e-01
-1.905203312635421753e-01 -9.038679301738739014e-02 8.935914188623428345e-02
-1.622463762760162354e-01 -1.414864975959062576e-02 6.810984760522842407e-02
-2.761476337909698486e-01 -7.311274856328964233e-02 1.347166299819946289e-01
-1.122314631938934326e-01 -4.360657185316085815e-03 -3.488860726356506348e-01
-1.418961584568023682e-01 -1.244855206459760666e-02 1.257836818695068359e-02
-2.615745663642883301e-01 -7.749040424823760986e-02 -4.895949736237525940e-02
-3.249073624610900879e-01 -3.783940523862838745e-02 -1.199970170855522156e-01
-1.949824392795562744e-01 -7.390908151865005493e-02 1.781159937381744385e-01
-3.165490329265594482e-01 -2.815883606672286987e-02 -1.972760856151580811e-01
-9.000214934349060059e-02 -2.781178615987300873e-02 -1.158091574907302856e-01
-1.771825850009918213e-01 7.854102179408073425e-03 -4.208632111549377441e-01
-3.183152675628662109e-01 9.952863678336143494e-03 8.956325799226760864e-02
-3.088652193546295166e-01 -1.461932715028524399e-02 1.785468757152557373e-01
-1.439782083034515381e-01 -7.418751716613769531e-02 -2.626155018806457520e-01
-2.170279175043106079e-01 -3.861969709396362305e-02 2.053944170475006104e-01
-1.220685839653015137e-01 -6.312675774097442627e-02 7.131550461053848267e-02
-3.306089341640472412e-01 -4.210039973258972168e-02 -5.837342888116836548e-02
-9.002172946929931641e-02 -1.738622784614562988e-02 -2.895112931728363037e-01
-1.830463558435440063e-01 2.026030607521533966e-02 -8.378493040800094604e-02
-1.442170739173889160e-01 -9.213200211524963379e-02 -6.277698278427124023e-02
-2.247060686349868774e-01 9.630115702748298645e-03 6.714563816785812378e-02
-2.518670558929443359e-01 -4.171567782759666443e-02 -3.051946759223937988e-01
-3.249065279960632324e-01 -2.366462536156177521e-02 -1.837295144796371460e-01
