-3.062176704406738281e-02 -2.383574843406677246e-01 3.336150944232940674e-01
1.441861689090728760e-01 -1.366228908300399780e-01 2.721217870712280273e-01
6.035626679658889771e-02 4.776790365576744080e-02 -2.181638777256011963e-01
9.151159226894378662e-02 1.687314063310623169e-01 -1.282048225402832031e-01
-1.115095168352127075e-01 -1.157632470130920410e-01 9.839779138565063477e-02
1.244862228631973267e-01 5.652514845132827759e-02 -9.940957278013229370e-02
1.550876051187515259e-01 -8.539947122335433960e-02 1.907356083393096924e-01
-8.752493560314178467e-02 -1.824807226657867432e-01 2.463494539260864258e-01
-1.059614047408103943e-01 -7.370383292436599731e-02 4.146194756031036377e-01
-1.433746069669723511e-01 5.565297603607177734e-02 2.667457461357116699e-01
1.163187995553016663e-01 1.371181160211563110e-01 3.675185889005661011e-02
-1.408501528203487396e-03 1.819226443767547607e-01 2.234652340412139893e-01
2.095302194356918335e-02 -2.223158180713653564e-01 1.459810286760330200e-01
1.107721701264381409e-01 1.510577052831649780e-01 -1.249525696039199829e-02
-9.705508500337600708e-02 -1.409864127635955811e-01 4.006966054439544678e-01
1.516651958227157593e-01 -1.907199248671531677e-02 2.052101492881774902e-01
3.422689437866210938e-02 2.400990575551986694e-01 -1.524069905281066895e-01
-1.430393606424331665e-01 1.787661910057067871e-01 4.806245118379592896e-02
1.035622283816337585e-01 8.798927813768386841e-02 2.411722242832183838e-01
-1.033409684896469116e-01 2.339283227920532227e-01 3.066589683294296265e-02
-1.174738258123397827e-02 -2.470057606697082520e-01 3.067934811115264893e-01
7.732204347848892212e-02 2.040656208992004395e-01 -6.095959991216659546e-02
2.473759930580854416e-03 1.965646147727966309e-01 1.896575093269348145e-01
7.524433732032775879e-02 -6.243989989161491394e-02 -1.169267371296882629e-01
1.407345384359359741e-01 -4.232902079820632935e-02 -1.912958920001983643e-03
-4.544221609830856323e-02 -2.215682864189147949e-01 3.933678567409515381e-01
-2.844115905463695526e-02 2.713720798492431641e-01 -7.080375403165817261e-02
1.172444671392440796e-01 -5.975753068923950195e-03 -1.007214710116386414e-01
-1.325181275606155396e-01 -6.821599602699279785e-02 3.310641944408416748e-01
2.691368758678436279e-02 2.516843080520629883e-01 -8.156248182058334351e-02
1.376122534275054932e-01 -1.311277747154235840e-01 3.286085426807403564e-01
-1.457059383392333984e-01 1.780390739440917969e-01 1.100029796361923218e-02
-1.501794457435607910e-01 -2.668141573667526245e-02 7.870131731033325195e-02
1.283067315816879272e-01 2.936801686882972717e-02 -8.466062694787979126e-02
-7.241483032703399658e-02 2.106536030769348145e-01 1.553871482610702515e-01
-1.244735270738601685e-01 -1.004969403147697449e-01 3.377840220928192139e-01
-1.439422965049743652e-01 1.304126083850860596e-01 1.701873391866683960e-01
-3.872454166412353516e-02 1.927465349435806274e-01 -2.692640125751495361e-01
-1.104784384369850159e-02 -7.838883250951766968e-02 -1.214408650994300842e-01
-1.052985060960054398e-02 -4.313318058848381042e-02 4.942454695701599121e-01
1.031665056943893433e-01 1.606539636850357056e-01 3.470578789710998535e-02
-3.706367313861846924e-02 -2.118974775075912476e-01 4.450843334197998047e-01
2.156756818294525146e-02 1.433739066123962402e-01 -2.702014446258544922e-01
4.443152248859405518e-02 2.245236784219741821e-01 -1.733714640140533447e-01
-2.106486447155475616e-02 -8.128506131470203400e-03 -1.968152821063995361e-01
2.118814364075660706e-02 -1.996120661497116089e-01 5.011090040206909180e-01
1.813022233545780182e-02 2.229419350624084473e-01 -2.279374301433563232e-01
8.125409483909606934e-02 9.741443395614624023e-02 -2.050685286521911621e-01
-5.474410206079483032e-02 -3.751804307103157043e-02 4.746670424938201904e-01
-5.328525602817535400e-02 -1.622753888368606567e-01 6.106993556022644043e-02
-1.226443499326705933e-01 2.229160368442535400e-01 -4.955749958753585815e-02
-1.086045429110527039e-02 2.416469156742095947e-01 7.668237388134002686e-02
-5.964758247137069702e-02 -2.034528702497482300e-01 4.063873887062072754e-01
-1.274883896112442017e-01 2.386417239904403687e-02 3.363896906375885010e-01
-1.047458648681640625e-01 -1.177121326327323914e-01 3.997915387153625488e-01
-2.102695964276790619e-02 2.279215008020401001e-01 1.246839016675949097e-01
1.464960873126983643e-01 -1.066173613071441650e-01 2.857996523380279541e-01
-9.948691725730895996e-02 5.098917335271835327e-02 3.675540089607238770e-01
-1.010024845600128174e-01 -4.809232056140899658e-02 4.227924048900604248e-01
6.262597441673278809e-02 2.102749049663543701e-01 -1.493078172206878662e-01
2.003813534975051880e-02 9.831583499908447266e-02 -2.648832201957702637e-01
2.212012931704521179e-02 -7.446712255477905273e-02 -1.309531629085540771e-01
-4.697491228580474854e-02 7.320198416709899902e-02 -2.460063695907592773e-01
6.643895991146564484e-03 -1.267016679048538208e-01 -5.658287554979324341e-02
-1.561198383569717407e-01 1.184329688549041748e-01 1.259741634130477905e-01
5.937941372394561768e-02 -1.049603074789047241e-01 4.941486120223999023e-01
8.120136708021163940e-02 -6.560821086168289185e-02 4.525072872638702393e-01
1.505772471427917480e-01 -9.305986016988754272e-02 1.171950325369834900e-01
-5.186423659324645996e-03 7.557653635740280151e-02 3.899798691272735596e-01
3.552547097206115723e-02 -1.167935281991958618e-01 5.137119293212890625e-01
-6.163129210472106934e-02 1.516082584857940674e-01 -2.620132267475128174e-01
-5.071432888507843018e-02 2.273414134979248047e-01 -2.407392561435699463e-01
1.459283009171485901e-02 2.230400294065475464e-01 1.091046035289764404e-01
-1.241011247038841248e-01 -2.847836911678314209e-02 -3.425449877977371216e-02
1.178985312581062317e-01 1.202060878276824951e-01 1.058901101350784302e-01
6.452625244855880737e-02 1.637068241834640503e-01 1.794143319129943848e-01
-1.042300760746002197e-01 2.267911881208419800e-01 5.721863359212875366e-02
6.642394699156284332e-03 -2.512665987014770508e-01 2.893823385238647461e-01
1.104582250118255615e-01 -1.340445578098297119e-01 3.149678558111190796e-02
-9.744195267558097839e-03 7.639644294977188110e-02 -2.607130408287048340e-01
1.408350467681884766e-02 2.325811386108398438e-01 7.894007861614227295e-02
9.486638009548187256e-02 -1.783980578184127808e-01 4.418569207191467285e-01
-1.636139303445816040e-01 9.385229647159576416e-02 8.240108191967010498e-02
1.045531481504440308e-01 -1.590455174446105957e-01 4.302206039428710938e-01
-5.065205693244934082e-02 -7.824311964213848114e-03 4.599085748195648193e-01
-1.550594866275787354e-01 1.337749361991882324e-01 9.787068516016006470e-02
-1.580416560173034668e-01 6.382214277982711792e-02 -4.623748362064361572e-03
1.084873452782630920e-01 -2.075030356645584106e-01 2.195751368999481201e-01
-4.582823067903518677e-02 -2.255967855453491211e-01 3.664715290069580078e-01
-1.206057667732238770e-01 -1.307259500026702881e-01 2.690364122390747070e-01
4.866020753979682922e-03 -6.225884333252906799e-02 -1.455721259117126465e-01
4.494034498929977417e-02 -1.054442897439002991e-01 -8.456424623727798462e-02
1.276707947254180908e-01 -3.658653423190116882e-02 3.367424309253692627e-01
1.548528522253036499e-01 -4.237930290400981903e-03 9.671151638031005859e-02
-1.480598151683807373e-01 3.921925276517868042e-02 -3.608749061822891235e-02
4.085312038660049438e-02 2.268561124801635742e-01 4.195043444633483887e-02
-1.134786158800125122e-01 1.394177079200744629e-01 -1.898127496242523193e-01
1.227466613054275513e-01 1.250069588422775269e-01 1.627948135137557983e-02
1.567779034376144409e-01 -3.208538517355918884e-02 1.256039887666702271e-01
1.544900834560394287e-01 -2.421459183096885681e-02 7.552214711904525757e-02
-9.008645266294479370e-02 -1.767027676105499268e-01 3.475413620471954346e-01
7.690466195344924927e-02 -2.430134117603302002e-01 3.120871782302856445e-01
-5.889388918876647949e-02 1.698663234710693359e-01 2.479648292064666748e-01
-1.223988905549049377e-01 1.666556745767593384e-01 -1.654022634029388428e-01
9.549733996391296387e-02 1.780045777559280396e-01 -4.339034110307693481e-02
1.065888814628124237e-02 -2.250024974346160889e-01 4.714192450046539307e-01
-1.565915644168853760e-01 -9.021214209496974945e-03 2.140926122665405273e-01
-1.484105587005615234e-01 -5.571344867348670959e-02 1.640255749225616455e-01
6.119487807154655457e-05 5.172537639737129211e-02 -2.474602758884429932e-01
-1.578902751207351685e-01 1.012189835309982300e-01 1.447108536958694458e-01
-9.354800730943679810e-02 -1.055959239602088928e-01 4.356388151645660400e-01
5.331514775753021240e-02 -2.528002262115478516e-01 3.133146166801452637e-01
1.489514708518981934e-01 -1.206127777695655823e-01 2.438296675682067871e-01
4.047508537769317627e-02 -2.507936656475067139e-01 3.977973759174346924e-01
-2.628006972372531891e-02 2.907637059688568115e-01 -8.542575836181640625e-01
1.352275349199771881e-02 2.691531181335449219e-01 -6.662213206291198730e-01
-8.861541002988815308e-02 2.949438095092773438e-01 -7.072477340698242188e-01
-1.535140275955200195e-01 2.735486924648284912e-01 -4.547213315963745117e-01
5.440805573016405106e-03 2.967732548713684082e-01 -4.656025171279907227e-01
-1.420423239469528198e-01 2.725574076175689697e-01 -4.846417903900146484e-01
5.851913988590240479e-02 2.876099646091461182e-01 -9.105252623558044434e-01
1.099208518862724304e-01 2.716956138610839844e-01 -8.272309899330139160e-01
1.799901723861694336e-01 2.714065611362457275e-01 -6.983082294464111328e-01
1.776450574398040771e-01 2.916204929351806641e-01 -4.157543182373046875e-01
-1.867819279432296753e-01 2.725629210472106934e-01 -6.002811193466186523e-01
-2.063285112380981445e-01 2.734864056110382080e-01 -5.703031420707702637e-01
-1.529001295566558838e-01 2.946310043334960938e-01 -4.301226139068603516e-01
-1.314760297536849976e-01 2.737925648689270020e-01 -8.130888342857360840e-01
-8.567140251398086548e-02 2.799326777458190918e-01 -9.137105941772460938e-01
-1.842552572488784790e-01 2.902566790580749512e-01 -3.405137062072753906e-01
-1.325866878032684326e-01 2.731873095035552979e-01 -4.485988318920135498e-01
1.014625653624534607e-01 2.697457969188690186e-01 -6.939077377319335938e-01
-2.155550569295883179e-01 2.794466912746429443e-01 -7.968064546585083008e-01
1.882446706295013428e-01 2.930824458599090576e-01 -4.784303903579711914e-01
-7.402536273002624512e-02 2.755043208599090576e-01 -3.579633235931396484e-01
2.340761274099349976e-01 2.737946212291717529e-01 -7.363079786300659180e-01
8.419146388769149780e-02 2.702872753143310547e-01 -5.588054060935974121e-01
1.026203408837318420e-01 2.697701156139373779e-01 -6.471864581108093262e-01
2.525160610675811768e-01 2.744826078414916992e-01 -6.668815612792968750e-01
-1.605720818042755127e-01 2.795162796974182129e-01 -8.597579598426818848e-01
-6.085908412933349609e-02 2.700359523296356201e-01 -5.625803470611572266e-01
-1.693437546491622925e-01 2.723466753959655762e-01 -6.934377551078796387e-01
-4.869452118873596191e-02 2.779600620269775391e-01 -9.218199253082275391e-01
-6.520625948905944824e-02 2.697348892688751221e-01 -6.832411289215087891e-01
1.812969446182250977e-01 2.730857431888580322e-01 -5.292604565620422363e-01
-1.416797935962677002e-02 2.695577442646026611e-01 -5.811002850532531738e-01
8.519078791141510010e-02 2.959274947643280029e-01 -4.644703567028045654e-01
-7.449195533990859985e-02 2.945644855499267578e-01 -3.684352040290832520e-01
-9.405395388603210449e-02 2.946641147136688232e-01 -3.794678747653961182e-01
-2.057713419198989868e-01 2.762047946453094482e-01 -4.297046065330505371e-01
-8.612523972988128662e-02 2.912453114986419678e-01 -3.023083209991455078e-01
1.622167974710464478e-02 2.698990106582641602e-01 -5.499449968338012695e-01
-1.744635999202728271e-01 2.941515147686004639e-01 -4.398750066757202148e-01
2.416993025690317154e-03 2.967783212661743164e-01 -6.437963843345642090e-01
4.817913472652435303e-02 2.693577110767364502e-01 -6.199115514755249023e-01
4.845785349607467651e-02 2.933250963687896729e-01 -8.015590906143188477e-01
2.410448938608169556e-01 2.900409996509552002e-01 -4.866409897804260254e-01
1.817795485258102417e-01 2.905245423316955566e-01 -8.133519887924194336e-01
-1.965528428554534912e-01 2.933186888694763184e-01 -4.393472969532012939e-01
2.688092887401580811e-01 2.837250828742980957e-01 -8.173922300338745117e-01
-8.728221990168094635e-03 2.733939290046691895e-01 -4.018943905830383301e-01
1.844006478786468506e-01 2.915575206279754639e-01 -7.823079824447631836e-01
8.474235236644744873e-02 2.695126533508300781e-01 -6.669731736183166504e-01
7.227889448404312134e-02 2.694236636161804199e-01 -6.908137798309326172e-01
-3.941880911588668823e-02 2.701436281204223633e-01 -5.396464467048645020e-01
-1.749394088983535767e-01 2.946121394634246826e-01 -5.933513641357421875e-01
-1.028030663728713989e-01 2.729872763156890869e-01 -4.351245164871215820e-01
2.399532645940780640e-01 2.738800644874572754e-01 -6.437139511108398438e-01
1.971409916877746582e-01 2.930820286273956299e-01 -4.985587000846862793e-01
1.176408156752586365e-01 2.732904851436614990e-01 -4.528773427009582520e-01
2.516701817512512207e-02 2.750979065895080566e-01 -3.662722110748291016e-01
1.664786785840988159e-01 2.939243316650390625e-01 -4.752250909805297852e-01
1.903815269470214844e-01 2.917883396148681641e-01 -4.378752708435058594e-01
1.281953323632478714e-02 2.971913516521453857e-01 -5.892648100852966309e-01
1.876802444458007812e-01 2.722278237342834473e-01 -5.883989930152893066e-01
1.708021908998489380e-01 2.947728335857391357e-01 -6.146653294563293457e-01
1.399637460708618164e-01 2.705783247947692871e-01 -6.201037764549255371e-01
-4.204261116683483124e-03 2.742762565612792969e-01 -8.964517712593078613e-01
1.344182193279266357e-01 2.957073450088500977e-01 -5.450385212898254395e-01
9.233011305332183838e-02 2.879975736141204834e-01 -3.020808696746826172e-01
2.482528239488601685e-02 2.729080617427825928e-01 -4.201054573059082031e-01
-2.240610867738723755e-01 2.922106683254241943e-01 -4.505652189254760742e-01
4.719885438680648804e-02 2.966401278972625732e-01 -6.456703543663024902e-01
8.014499396085739136e-02 2.859226763248443604e-01 -9.259470701217651367e-01
-1.463076025247573853e-01 2.956800162792205811e-01 -5.353435873985290527e-01
2.739437222480773926e-01 2.759702801704406738e-01 -6.866231560707092285e-01
-1.070851162075996399e-01 2.937635183334350586e-01 -3.583152294158935547e-01
9.072069823741912842e-02 2.697525620460510254e-01 -6.186444163322448730e-01
-5.610480904579162598e-02 2.771880030632019043e-01 -3.247424364089965820e-01
-3.097697906196117401e-02 2.693144083023071289e-01 -6.559958457946777344e-01
-1.320494115352630615e-01 2.739959359169006348e-01 -4.207895696163177490e-01
1.980657726526260376e-01 2.938492596149444580e-01 -5.746706128120422363e-01
6.571333855390548706e-02 2.703074812889099121e-01 -7.852446436882019043e-01
-2.335076034069061279e-01 2.900030016899108887e-01 -6.879516839981079102e-01
1.321720033884048462e-01 2.955782115459442139e-01 -6.408100128173828125e-01
8.761470019817352295e-02 2.882297933101654053e-01 -8.991955518722534180e-01
-1.679084897041320801e-01 2.744281589984893799e-01 -7.850487232208251953e-01
2.058418095111846924e-01 2.923418283462524414e-01 -7.222105264663696289e-01
1.696734875440597534e-02 2.940861582756042480e-01 -3.549382090568542480e-01
3.115833401679992676e-01 2.837125360965728760e-01 -6.739432811737060547e-01
9.024290740489959717e-02 2.923876345157623291e-01 -3.508591651916503906e-01
1.906050294637680054e-01 2.940621972084045410e-01 -6.303924918174743652e-01
-2.053340822458267212e-01 2.876987457275390625e-01 -3.329093456268310547e-01
-1.049034819006919861e-01 2.825047075748443604e-01 -2.790424823760986328e-01
8.117195963859558105e-02 2.914249897003173828e-01 -8.445163965225219727e-01
-4.099526256322860718e-02 2.920440137386322021e-01 -3.079495728015899658e-01
-4.575734958052635193e-03 2.970917224884033203e-01 -4.961446821689605713e-01
1.722818613052368164e-02 2.717467248439788818e-01 -8.451500535011291504e-01
5.931132286787033081e-02 2.720746695995330811e-01 -4.579470753669738770e-01
1.125479266047477722e-01 2.702428698539733887e-01 -5.979263186454772949e-01
-3.991236910223960876e-03 2.707948386669158936e-01 -8.073300123214721680e-01
-2.528541088104248047e-01 2.768463492393493652e-01 -5.058605670928955078e-01
7.724221050739288330e-02 2.952464222908020020e-01 -7.223023772239685059e-01
5.352073162794113159e-02 2.964880168437957764e-01 -4.715299904346466064e-01
5.608575791120529175e-02 2.960738241672515869e-01 -6.852604150772094727e-01
2.068960815668106079e-01 2.726022303104400635e-01 -6.164743900299072266e-01
-9.291430003941059113e-03 2.718104720115661621e-01 -4.520516991615295410e-01
4.716518521308898926e-02 2.692576944828033447e-01 -6.881775856018066406e-01
1.839038282632827759e-01 2.831957340240478516e-01 -3.611695170402526855e-01
2.953460514545440674e-01 2.860213816165924072e-01 -5.604579448699951172e-01
9.663032740354537964e-02 2.945128381252288818e-01 -4.097967147827148438e-01
-1.000297665596008301e-01 2.961352467536926270e-01 -6.226212978363037109e-01
1.168185994029045105e-01 2.707775235176086426e-01 -5.605818033218383789e-01
2.431210577487945557e-01 2.753153443336486816e-01 -5.594847202301025391e-01
-2.301387488842010498e-01 2.916319966316223145e-01 -6.347757577896118164e-01
-2.629794180393218994e-01 2.777457535266876221e-01 -6.678571701049804688e-01
-5.041320621967315674e-02 2.717498242855072021e-01 -4.593163728713989258e-01
7.489169947803020477e-03 2.965028882026672363e-01 -6.661844849586486816e-01
2.356468886137008667e-01 2.912696599960327148e-01 -5.156087279319763184e-01
1.203199103474617004e-01 2.919302284717559814e-01 -8.190946578979492188e-01
-1.177698075771331787e-01 2.921964824199676514e-01 -7.774451375007629395e-01
-6.760087609291076660e-02 2.700248360633850098e-01 -7.175571322441101074e-01
2.336136996746063232e-01 2.743669450283050537e-01 -5.782507658004760742e-01
4.182632267475128174e-02 2.968875765800476074e-01 -4.987885355949401855e-01
-1.024994403123855591e-01 2.880982160568237305e-01 -8.638271093368530273e-01
2.590717077255249023e-01 2.759008109569549561e-01 -5.806136131286621094e-01
-1.235875040292739868e-01 2.936063408851623535e-01 -7.298670411109924316e-01
1.031591594219207764e-01 2.797265648841857910e-01 -3.267323970794677734e-01
-1.019208207726478577e-01 2.704874873161315918e-01 -7.012344598770141602e-01
3.391682356595993042e-02 2.892804443836212158e-01 -8.882290124893188477e-01
4.932117462158203125e-02 2.693906128406524658e-01 -7.145358324050903320e-01
-1.380365192890167236e-01 2.710678875446319580e-01 -5.994685888290405273e-01
-2.145858407020568848e-01 2.747576236724853516e-01 -4.993978440761566162e-01
1.577518731355667114e-01 2.794703543186187744e-01 -9.231727719306945801e-01
1.131075993180274963e-01 2.723273336887359619e-01 -4.817007780075073242e-01
2.079264074563980103e-01 2.723547220230102539e-01 -6.603949069976806641e-01
1.856308430433273315e-01 2.739044725894927979e-01 -8.349683284759521484e-01
-2.980647683143615723e-01 2.825708687305450439e-01 -6.063349246978759766e-01
-5.687813460826873779e-02 2.864369153976440430e-01 -9.039318561553955078e-01
-1.407457739114761353e-01 2.923980951309204102e-01 -3.449291288852691650e-01
-1.109848916530609131e-01 2.951076030731201172e-01 -6.783307194709777832e-01
-1.209714636206626892e-02 2.692347168922424316e-01 -6.763811707496643066e-01
-3.167089074850082397e-03 2.964796125888824463e-01 -4.425893425941467285e-01
1.316220462322235107e-01 2.926950156688690186e-01 -7.911851406097412109e-01
-8.037844300270080566e-02 2.722978591918945312e-01 -4.487050473690032959e-01
6.167300790548324585e-02 2.700439989566802979e-01 -5.584075450897216797e-01
-2.415202558040618896e-01 2.758792042732238770e-01 -6.718895435333251953e-01
-2.219009846448898315e-01 2.751092314720153809e-01 -7.018262147903442383e-01
-7.419843226671218872e-02 2.967748939990997314e-01 -5.901573300361633301e-01
-7.803434133529663086e-02 2.968746721744537354e-01 -5.510149002075195312e-01
-9.773271530866622925e-02 2.701379954814910889e-01 -6.305854916572570801e-01
-1.595731377601623535e-01 2.763078212738037109e-01 -3.805672228336334229e-01
1.137551292777061462e-02 2.740696370601654053e-01 -3.866533637046813965e-01
1.115000844001770020e-01 2.954322397708892822e-01 -4.671955108642578125e-01
1.056492477655410767e-01 2.800165414810180664e-01 -9.424985051155090332e-01
2.095896154642105103e-01 2.802740633487701416e-01 -4.064572453498840332e-01
7.476858794689178467e-02 2.694522738456726074e-01 -6.442931294441223145e-01
5.470716208219528198e-02 2.735527455806732178e-01 -4.108925461769104004e-01
-1.794746071100234985e-01 2.739208042621612549e-01 -4.721906185150146484e-01
2.051216810941696167e-01 2.901248037815093994e-01 -7.998702526092529297e-01
-1.667404472827911377e-01 2.736091017723083496e-01 -7.623584866523742676e-01
-1.849221885204315186e-01 2.736169397830963135e-01 -4.954585731029510498e-01
-2.645521759986877441e-01 2.903507649898529053e-01 -5.398100018501281738e-01
2.744088768959045410e-01 2.894644737243652344e-01 -5.899129509925842285e-01
-1.098443493247032166e-01 2.708012461662292480e-01 -5.546401739120483398e-01
-1.163135394454002380e-01 2.962656021118164062e-01 -5.102104544639587402e-01
5.120360851287841797e-02 2.968840301036834717e-01 -6.137521862983703613e-01
-8.444979041814804077e-02 2.705065011978149414e-01 -5.453954339027404785e-01
-1.918977499008178711e-02 2.712591886520385742e-01 -4.743830561637878418e-01
-1.882651746273040771e-01 2.917385697364807129e-01 -7.147008180618286133e-01
-1.327063441276550293e-01 2.956207394599914551e-01 -4.652513265609741211e-01
1.420581936836242676e-01 2.916586697101593018e-01 -8.142972588539123535e-01
3.112337291240692139e-01 2.821443676948547363e-01 -6.261159181594848633e-01
-1.371002569794654846e-02 2.927644550800323486e-01 -8.131145238876342773e-01
7.265195995569229126e-02 2.956952452659606934e-01 -4.388038516044616699e-01
-7.842718809843063354e-02 2.961804568767547607e-01 -6.461406350135803223e-01
2.235680818557739258e-01 2.751358747482299805e-01 -5.234506130218505859e-01
-1.903992295265197754e-01 2.749755680561065674e-01 -7.651455402374267578e-01
2.487839460372924805e-01 2.880348563194274902e-01 -4.627268612384796143e-01
1.047740057110786438e-01 2.944690883159637451e-01 -7.430722713470458984e-01
-2.509756684303283691e-01 2.772273123264312744e-01 -4.833516478538513184e-01
2.169206738471984863e-01 2.727535665035247803e-01 -7.064763903617858887e-01
1.387783735990524292e-01 2.708798050880432129e-01 -5.865483880043029785e-01
1.565600484609603882e-01 2.881682217121124268e-01 -8.759038448333740234e-01
-2.153112292289733887e-01 2.930938303470611572e-01 -5.862210988998413086e-01
5.000872910022735596e-02 2.695971727371215820e-01 -5.894473195075988770e-01
2.644884586334228516e-01 2.867420911788940430e-01 -4.789168238639831543e-01
-2.605610489845275879e-01 2.766641080379486084e-01 -6.140270829200744629e-01
1.800338476896286011e-01 2.875395715236663818e-01 -8.707726001739501953e-01
1.323601752519607544e-01 2.911930978298187256e-01 -3.606708645820617676e-01
1.192170456051826477e-01 2.960872948169708252e-01 -5.941143035888671875e-01
3.809309005737304688e-02 2.954998016357421875e-01 -7.222275137901306152e-01
-2.262847498059272766e-02 2.957991063594818115e-01 -7.030465602874755859e-01
1.656391322612762451e-01 2.715370059013366699e-01 -5.883917808532714844e-01
8.758360892534255981e-02 2.700442969799041748e-01 -7.556637525558471680e-01
1.080641299486160278e-01 2.958084046840667725e-01 -6.617378592491149902e-01
3.074820898473262787e-02 2.964209020137786865e-01 -6.699148416519165039e-01
6.005088984966278076e-02 2.699070870876312256e-01 -7.615980505943298340e-01
1.438074409961700439e-01 2.955438196659088135e-01 -5.996041297912597656e-01
-2.126886136829853058e-02 2.762026786804199219e-01 -9.168133139610290527e-01
1.995429694652557373e-01 2.731026113033294678e-01 -7.879036664962768555e-01
-2.424103766679763794e-02 2.939285039901733398e-01 -7.772426009178161621e-01
-1.309723258018493652e-01 2.750864923000335693e-01 -8.403401374816894531e-01
2.180428951978683472e-01 2.747613489627838135e-01 -8.166053295135498047e-01
2.112132310867309570e-01 2.736121714115142822e-01 -5.606172084808349609e-01
-7.712995260953903198e-02 2.965594232082366943e-01 -6.138091683387756348e-01
2.696782350540161133e-01 2.900002896785736084e-01 -6.301339268684387207e-01
-2.780215628445148468e-02 2.704771161079406738e-01 -7.830846309661865234e-01
1.647960990667343140e-01 2.709504365921020508e-01 -6.817557215690612793e-01
2.570763528347015381e-01 2.891909480094909668e-01 -5.041174292564392090e-01
-1.090049967169761658e-01 2.710910737514495850e-01 -7.373151183128356934e-01
-7.564844936132431030e-02 2.709552645683288574e-01 -7.710400819778442383e-01
-2.268047034740447998e-01 2.746524810791015625e-01 -6.559683084487915039e-01
-6.692881882190704346e-02 2.739303410053253174e-01 -3.930308818817138672e-01
-4.275888204574584961e-02 2.920897901058197021e-01 -8.213415741920471191e-01
-2.516926825046539307e-02 2.966811060905456543e-01 -6.454066634178161621e-01
-7.245446741580963135e-02 2.697410881519317627e-01 -6.371108889579772949e-01
1.514811217784881592e-01 2.874881029129028320e-01 -3.379378020763397217e-01
1.509958058595657349e-01 2.709560096263885498e-01 -7.444986701011657715e-01
-4.748699069023132324e-02 2.909317314624786377e-01 -8.443503975868225098e-01
2.820408940315246582e-01 2.824144363403320312e-01 -7.988962531089782715e-01
-9.662870317697525024e-02 2.736865282058715820e-01 -4.098456501960754395e-01
-2.640234529972076416e-01 2.887500822544097900e-01 -6.481799483299255371e-01
2.739346399903297424e-02 2.968357503414154053e-01 -6.352570652961730957e-01
-2.970366775989532471e-01 2.812916040420532227e-01 -5.488084554672241211e-01
-2.975839078426361084e-01 2.850301265716552734e-01 -5.054903030395507812e-01
-2.189892530441284180e-01 2.929223477840423584e-01 -4.824000000953674316e-01
-1.825494617223739624e-01 2.726626694202423096e-01 -5.571866035461425781e-01
1.046758741140365601e-01 2.963760495185852051e-01 -5.661287307739257812e-01
2.423898130655288696e-01 2.918174862861633301e-01 -6.054151654243469238e-01
7.555060088634490967e-02 2.967824041843414307e-01 -5.847122669219970703e-01
-1.326492279767990112e-01 2.953148782253265381e-01 -6.358556747436523438e-01
-1.798319369554519653e-01 2.918934524059295654e-01 -3.665280938148498535e-01
1.897587329149246216e-01 2.718621790409088135e-01 -6.298978328704833984e-01
1.049607060849666595e-02 2.696273326873779297e-01 -5.715894103050231934e-01
-3.816775977611541748e-03 2.972640395164489746e-01 -5.314354896545410156e-01
-1.905137449502944946e-01 2.943500280380249023e-01 -5.388290882110595703e-01
-1.389556676149368286e-01 2.954722940921783447e-01 -6.099614500999450684e-01
-1.201181206852197647e-03 2.724395096302032471e-01 -8.604666590690612793e-01
4.973469674587249756e-02 2.961139380931854248e-01 -4.436924457550048828e-01
1.452077478170394897e-01 2.739749252796173096e-01 -4.558374881744384766e-01
1.841800212860107422e-01 2.924357652664184570e-01 -7.520239949226379395e-01
4.683797061443328857e-02 2.692340910434722900e-01 -6.517558693885803223e-01
-4.845272004604339600e-02 2.712180912494659424e-01 -4.816586077213287354e-01
-1.013460680842399597e-01 2.961705923080444336e-01 -4.637423157691955566e-01
-2.773883938789367676e-01 2.867456972599029541e-01 -4.396024346351623535e-01
-5.933246016502380371e-02 2.696512341499328613e-01 -6.122151613235473633e-01
-3.571921586990356445e-02 2.880495488643646240e-01 -2.690563499927520752e-01
-2.476860433816909790e-01 2.756339609622955322e-01 -5.917474627494812012e-01
1.280461251735687256e-01 2.950455546379089355e-01 -6.927059888839721680e-01
-1.246659010648727417e-01 2.780300676822662354e-01 -3.297663927078247070e-01
1.949655115604400635e-01 2.937283813953399658e-01 -5.377452373504638672e-01
-2.902957797050476074e-01 2.843027412891387939e-01 -6.453993320465087891e-01
-2.087351381778717041e-01 2.773472964763641357e-01 -4.047095477581024170e-01
-1.225083470344543457e-01 2.718786597251892090e-01 -7.598922848701477051e-01
-2.372574955224990845e-01 2.779248654842376709e-01 -4.325796961784362793e-01
-9.212330915033817291e-04 2.956995069980621338e-01 -7.128922343254089355e-01
5.969741195440292358e-02 2.951560318470001221e-01 -4.058915972709655762e-01
1.487153619527816772e-01 2.718792259693145752e-01 -5.382069349288940430e-01
-2.489183098077774048e-01 2.786451578140258789e-01 -7.294842004776000977e-01
-1.480476707220077515e-01 2.716694176197052002e-01 -6.987769603729248047e-01
8.529292792081832886e-02 2.966584861278533936e-01 -5.506664514541625977e-01
5.385714583098888397e-03 2.935591042041778564e-01 -7.944058775901794434e-01
9.993796050548553467e-02 2.738350927829742432e-01 -8.871024847030639648e-01
2.276060134172439575e-01 2.731624245643615723e-01 -6.711634397506713867e-01
-2.861923538148403168e-02 2.958350479602813721e-01 -4.071570336818695068e-01
-4.642760008573532104e-02 2.706027626991271973e-01 -5.128217339515686035e-01
6.917855888605117798e-02 2.804859876632690430e-01 -9.483779668807983398e-01
1.353437900543212891e-01 2.768220901489257812e-01 -3.849595189094543457e-01
-1.414114236831665039e-01 2.934229373931884766e-01 -7.181155681610107422e-01
-2.111326716840267181e-02 2.694243192672729492e-01 -7.060121297836303711e-01
-1.364722102880477905e-01 2.720161080360412598e-01 -5.063412189483642578e-01
-1.209977567195892334e-01 2.706012129783630371e-01 -6.268107891082763672e-01
1.205005869269371033e-01 2.941279709339141846e-01 -4.192071557044982910e-01
1.019451096653938293e-01 2.935065031051635742e-01 -3.838073313236236572e-01
-9.747132658958435059e-02 2.966051995754241943e-01 -5.212281346321105957e-01
7.877727597951889038e-02 2.729688584804534912e-01 -4.379711449146270752e-01
-1.175552755594253540e-01 2.720853090286254883e-01 -4.818718135356903076e-01
-5.237402766942977905e-02 2.719560265541076660e-01 -8.268606662750244141e-01
-6.927167624235153198e-02 2.912945449352264404e-01 -8.280030488967895508e-01
-2.771719731390476227e-02 2.962877154350280762e-01 -6.731834411621093750e-01
1.148715689778327942e-01 2.752744555473327637e-01 -4.005376398563385010e-01
-1.563485711812973022e-04 2.694173753261566162e-01 -7.197945713996887207e-01
2.592151463031768799e-01 2.896872758865356445e-01 -5.260651111602783203e-01
-2.313517779111862183e-01 2.924787104129791260e-01 -5.075685977935791016e-01
6.741088628768920898e-02 2.967120707035064697e-01 -5.110388994216918945e-01
1.028467267751693726e-01 2.902090549468994141e-01 -8.637946248054504395e-01
-3.311680257320404053e-02 2.693956196308135986e-01 -6.844583749771118164e-01
-2.138246446847915649e-01 2.741091549396514893e-01 -6.725112795829772949e-01
4.912400990724563599e-02 2.970014810562133789e-01 -5.274368524551391602e-01
1.139206439256668091e-01 2.716828584671020508e-01 -5.086364150047302246e-01
-1.594136059284210205e-01 2.761374413967132568e-01 -8.291795253753662109e-01
-1.865278743207454681e-02 2.969196736812591553e-01 -6.254884004592895508e-01
1.312592476606369019e-01 2.702131867408752441e-01 -6.907129287719726562e-01
-3.360574692487716675e-02 2.971825003623962402e-01 -5.740057229995727539e-01
-1.360167711973190308e-01 2.943218648433685303e-01 -6.876729726791381836e-01
-2.547839581966400146e-01 2.898695468902587891e-01 -4.419193863868713379e-01
-4.852545261383056641e-02 2.732403576374053955e-01 -8.618081808090209961e-01
-2.638271152973175049e-01 2.871259450912475586e-01 -4.103214144706726074e-01
-1.625624746084213257e-01 2.717380523681640625e-01 -6.442548632621765137e-01
-3.915600478649139404e-02 2.722124755382537842e-01 -4.396415352821350098e-01
-2.782113850116729736e-01 2.881943285465240479e-01 -4.722380340099334717e-01
-2.131416648626327515e-02 2.969240248203277588e-01 -4.764874875545501709e-01
-8.225616812705993652e-02 2.725354731082916260e-01 -8.240590095520019531e-01
1.557786483317613602e-03 2.928682565689086914e-01 -3.250105082988739014e-01
-3.292014449834823608e-02 2.971823215484619141e-01 -5.197951197624206543e-01
-1.618472933769226074e-01 2.950248122215270996e-01 -4.779417812824249268e-01
-2.526216804981231689e-01 2.760448157787322998e-01 -5.684623122215270996e-01
1.258994042873382568e-01 2.794475555419921875e-01 -3.427235484123229980e-01
-5.011849850416183472e-02 2.694807946681976318e-01 -6.400917172431945801e-01
1.427261233329772949e-01 2.722387015819549561e-01 -8.241567611694335938e-01
4.693289101123809814e-02 2.767066955566406250e-01 -3.425168693065643311e-01
-1.628287322819232941e-02 2.697973549365997314e-01 -5.587180256843566895e-01
2.025734819471836090e-02 2.955911755561828613e-01 -4.041624665260314941e-01
3.016554415225982666e-01 2.861530184745788574e-01 -6.019052267074584961e-01
1.936572343111038208e-01 2.796129286289215088e-01 -9.024078845977783203e-01
-1.386784017086029053e-01 2.839480936527252197e-01 -8.765119314193725586e-01
-2.014798857271671295e-02 2.704301774501800537e-01 -5.157195925712585449e-01
1.247574947774410248e-02 2.949653565883636475e-01 -7.467745542526245117e-01
1.171393692493438721e-01 2.700715959072113037e-01 -7.161017656326293945e-01
1.231045648455619812e-01 2.833118140697479248e-01 -3.144195973873138428e-01
-1.050849333405494690e-01 2.965089082717895508e-01 -5.422119498252868652e-01
-8.188509196043014526e-02 2.928381860256195068e-01 -3.275347948074340820e-01
-1.540299206972122192e-01 2.746288180351257324e-01 -8.075854778289794922e-01
1.818020939826965332e-01 2.755659520626068115e-01 -4.517433345317840576e-01
1.286617666482925415e-01 2.778013050556182861e-01 -9.266718626022338867e-01
1.930092275142669678e-01 2.881136238574981689e-01 -3.818497061729431152e-01
4.138768464326858521e-02 2.704075574874877930e-01 -7.954328060150146484e-01
1.391149759292602539e-01 2.944747805595397949e-01 -7.133169770240783691e-01
-6.784895062446594238e-02 2.966512739658355713e-01 -4.720262885093688965e-01
-2.515394091606140137e-01 2.877771556377410889e-01 -7.032105326652526855e-01
-8.134390413761138916e-02 2.967300117015838623e-01 -5.001112222671508789e-01
-3.264582902193069458e-02 2.939587533473968506e-01 -3.454440236091613770e-01
3.063120841979980469e-01 2.848091721534729004e-01 -6.965086460113525391e-01
-2.816561162471771240e-01 2.874929308891296387e-01 -6.219809651374816895e-01
-3.119348548352718353e-02 2.731089890003204346e-01 -4.101269245147705078e-01
-5.907577276229858398e-02 2.940325140953063965e-01 -7.606259584426879883e-01
1.295813024044036865e-01 2.711310386657714844e-01 -7.877930998802185059e-01
1.070351451635360718e-01 2.928607165813446045e-01 -7.993333339691162109e-01
1.446779966354370117e-01 2.945637106895446777e-01 -4.692580997943878174e-01
-1.982066184282302856e-01 2.939822971820831299e-01 -5.644759535789489746e-01
-1.215370744466781616e-01 2.821308672428131104e-01 -8.939607143402099609e-01
-6.476068496704101562e-02 2.790355086326599121e-01 -3.006829619407653809e-01
-2.310173958539962769e-01 2.840080559253692627e-01 -7.797703146934509277e-01
3.951650112867355347e-02 2.702169120311737061e-01 -5.350884795188903809e-01
-9.416448883712291718e-03 2.880919277667999268e-01 -2.709582448005676270e-01
-1.171761527657508850e-01 2.705891728401184082e-01 -6.012408733367919922e-01
2.565107047557830811e-01 2.748442590236663818e-01 -7.113770842552185059e-01
6.051029264926910400e-02 2.941735386848449707e-01 -3.745266199111938477e-01
1.726546138525009155e-01 2.938157618045806885e-01 -7.031428813934326172e-01
-1.862679272890090942e-01 2.944501936435699463e-01 -5.076416730880737305e-01
-5.097801983356475830e-02 2.971249520778656006e-01 -5.368276238441467285e-01
-4.955416172742843628e-02 2.712789773941040039e-01 -8.054240942001342773e-01
8.622587472200393677e-02 2.706105113029479980e-01 -7.928831577301025391e-01
-9.856132417917251587e-02 2.701675593852996826e-01 -6.558704972267150879e-01
1.095816493034362793e-02 2.703490555286407471e-01 -7.907255291938781738e-01
-1.939172893762588501e-01 2.728279531002044678e-01 -6.204356551170349121e-01
-5.389796942472457886e-02 2.703509628772735596e-01 -7.579494714736938477e-01
-2.287054806947708130e-01 2.761664688587188721e-01 -4.694443345069885254e-01
-2.860549092292785645e-01 2.792487144470214844e-01 -5.891262888908386230e-01
1.436162590980529785e-01 2.907304763793945312e-01 -8.358692526817321777e-01
-1.498381048440933228e-01 2.721104621887207031e-01 -7.258703112602233887e-01
-1.030419953167438507e-02 2.972451150417327881e-01 -5.767418742179870605e-01
-2.470792979001998901e-01 2.759065628051757812e-01 -5.407218933105468750e-01
-4.728177189826965332e-02 2.804022133350372314e-01 -2.852458059787750244e-01
2.044406384229660034e-01 2.726120650768280029e-01 -7.479959130287170410e-01
1.629270911216735840e-01 2.950317859649658203e-01 -5.675620436668395996e-01
3.383463621139526367e-02 2.713039219379425049e-01 -4.783349335193634033e-01
-2.189117521047592163e-01 2.766872346401214600e-01 -7.553626298904418945e-01
1.316899210214614868e-01 2.885471880435943604e-01 -8.818947076797485352e-01
-7.805060595273971558e-02 2.712422013282775879e-01 -4.937296807765960693e-01
-2.357874661684036255e-01 2.748998701572418213e-01 -6.143446564674377441e-01
-2.045700326561927795e-02 2.953543066978454590e-01 -3.875319361686706543e-01
-5.993000417947769165e-02 2.726517617702484131e-01 -4.290238618850708008e-01
8.634999394416809082e-02 2.740158736705780029e-01 -4.130154848098754883e-01
-9.859293699264526367e-03 2.961787283420562744e-01 -6.852887868881225586e-01
1.519368588924407959e-01 2.724280059337615967e-01 -5.166569352149963379e-01
2.057318389415740967e-02 2.720851898193359375e-01 -4.454593360424041748e-01
4.259264469146728516e-02 2.784575223922729492e-01 -9.432407021522521973e-01
-2.476526349782943726e-01 2.867839634418487549e-01 -3.781894445419311523e-01
2.017548382282257080e-01 2.913677692413330078e-01 -7.676739692687988281e-01
1.756974309682846069e-01 2.741881906986236572e-01 -4.818042516708374023e-01
1.011591181159019470e-01 2.704918682575225830e-01 -7.764628529548645020e-01
2.454965710639953613e-01 2.842052280902862549e-01 -8.472556471824645996e-01
1.041593775153160095e-02 2.972725927829742432e-01 -5.545764565467834473e-01
2.316772490739822388e-01 2.870723903179168701e-01 -4.232768118381500244e-01
1.402464061975479126e-01 2.954223453998565674e-01 -5.239838957786560059e-01
-6.138632446527481079e-02 2.951309084892272949e-01 -7.174829244613647461e-01
-2.616511844098567963e-02 2.878620922565460205e-01 -8.986474275588989258e-01
7.237726449966430664e-02 2.793915271759033203e-01 -3.159347176551818848e-01
7.987720891833305359e-04 2.726412117481231689e-01 -4.244297146797180176e-01
2.569989562034606934e-01 2.903987765312194824e-01 -6.869396567344665527e-01
-1.359224021434783936e-01 2.826450467109680176e-01 -2.887353301048278809e-01
2.147309780120849609e-01 2.931580245494842529e-01 -6.244704723358154297e-01
6.244233995676040649e-02 2.720530629158020020e-01 -8.539895415306091309e-01
-1.948750913143157959e-01 2.925828397274017334e-01 -6.735071539878845215e-01
9.236192703247070312e-02 2.697544693946838379e-01 -7.192545533180236816e-01
1.584142446517944336e-01 2.950711250305175781e-01 -5.458275079727172852e-01
-2.642109058797359467e-03 2.701422870159149170e-01 -5.318176746368408203e-01
2.281266264617443085e-02 2.696277201175689697e-01 -7.461622953414916992e-01
-8.475968241691589355e-02 2.717689573764801025e-01 -4.725126028060913086e-01
-8.432428538799285889e-02 2.700857818126678467e-01 -5.896037817001342773e-01
1.588958799839019775e-01 2.708156108856201172e-01 -6.615768074989318848e-01
2.897206544876098633e-01 2.854702770709991455e-01 -5.316966772079467773e-01
-1.805955357849597931e-02 2.697710692882537842e-01 -7.444541454315185547e-01
2.815583646297454834e-01 2.830713093280792236e-01 -5.026312470436096191e-01
1.371046900749206543e-01 2.708505392074584961e-01 -7.607851624488830566e-01
-2.110306769609451294e-01 2.757396101951599121e-01 -4.518996477127075195e-01
7.799864560365676880e-02 2.711873054504394531e-01 -5.034582614898681641e-01
-4.248539358377456665e-02 2.950249016284942627e-01 -3.766827583312988281e-01
-7.559770718216896057e-03 2.691926658153533936e-01 -6.518428325653076172e-01
1.747728586196899414e-01 2.944139540195465088e-01 -5.291942954063415527e-01
1.359364669770002365e-02 2.950426340103149414e-01 -3.818950653076171875e-01
-4.135367274284362793e-02 2.967059016227722168e-01 -4.612159132957458496e-01
1.865414232015609741e-01 2.717449665069580078e-01 -7.241158485412597656e-01
-2.115444689989089966e-01 2.935104072093963623e-01 -5.340932607650756836e-01
-1.496890783309936523e-01 2.714899778366088867e-01 -6.740552783012390137e-01
1.499610394239425659e-01 2.914786338806152344e-01 -3.815083503723144531e-01
1.172071415930986404e-02 2.970079183578491211e-01 -6.194876432418823242e-01
-4.704184830188751221e-02 2.886509299278259277e-01 -8.821053504943847656e-01
-1.855002641677856445e-01 2.928233146667480469e-01 -3.992658257484436035e-01
5.875111371278762817e-02 2.737239897251129150e-01 -8.924207687377929688e-01
-1.986001133918762207e-01 2.736484408378601074e-01 -5.243514180183410645e-01
-1.036168336868286133e-01 2.933043241500854492e-01 -7.566809654235839844e-01
9.833748638629913330e-02 2.937783896923065186e-01 -7.735024690628051758e-01
-5.304598808288574219e-02 2.746617197990417480e-01 -3.724085688591003418e-01
-8.540073037147521973e-02 2.716857194900512695e-01 -7.936254739761352539e-01
2.215191572904586792e-01 2.928133904933929443e-01 -5.735412836074829102e-01
5.704288929700851440e-02 2.970004677772521973e-01 -5.697926878929138184e-01
-1.301253587007522583e-01 2.747571766376495361e-01 -3.978508412837982178e-01
-2.086274027824401855e-01 2.735282480716705322e-01 -6.369152665138244629e-01
7.026521116495132446e-02 2.753915488719940186e-01 -3.745987415313720703e-01
2.277832329273223877e-01 2.924067974090576172e-01 -6.517605781555175781e-01
-2.201305031776428223e-01 2.887619733810424805e-01 -3.585000038146972656e-01
-1.756418496370315552e-02 2.946016788482666016e-01 -7.560479044914245605e-01
-5.768369883298873901e-04 2.785029411315917969e-01 -9.386194944381713867e-01
1.613602787256240845e-01 2.758548557758331299e-01 -4.244843423366546631e-01
-6.732730567455291748e-02 2.961431741714477539e-01 -4.327740669250488281e-01
8.442864567041397095e-02 2.962291836738586426e-01 -6.531714797019958496e-01
2.105239927768707275e-01 2.757491469383239746e-01 -4.839315712451934814e-01
5.773098766803741455e-02 2.922800183296203613e-01 -8.285725712776184082e-01
-8.540984988212585449e-02 2.956804633140563965e-01 -4.171833395957946777e-01
5.189450085163116455e-02 2.710584998130798340e-01 -8.227208852767944336e-01
-3.877557069063186646e-02 2.953507900238037109e-01 -7.188220620155334473e-01
8.409058302640914917e-02 2.722673714160919189e-01 -4.637410044670104980e-01
-5.929648131132125854e-02 2.957522869110107422e-01 -6.884567737579345703e-01
3.201847523450851440e-02 2.738320529460906982e-01 -3.966804742813110352e-01
2.256615608930587769e-01 2.897205352783203125e-01 -7.841939330101013184e-01
2.923199906945228577e-02 2.744500935077667236e-01 -9.043521881103515625e-01
2.175952680408954620e-02 2.704257667064666748e-01 -5.174447298049926758e-01
-1.107579991221427917e-01 2.963705658912658691e-01 -5.639618635177612305e-01
-1.078994572162628174e-01 2.726121842861175537e-01 -8.042872548103332520e-01
6.362367421388626099e-02 2.926982641220092773e-01 -3.420389592647552490e-01
1.286474019289016724e-01 2.959072291851043701e-01 -5.662786364555358887e-01
1.263664960861206055e-01 2.934262454509735107e-01 -7.701584100723266602e-01
1.809670180082321167e-01 2.940542101860046387e-01 -6.685249805450439453e-01
1.319044083356857300e-01 2.941143810749053955e-01 -7.383421659469604492e-01
6.828868389129638672e-02 2.695561945438385010e-01 -6.119244098663330078e-01
-1.228603869676589966e-01 2.910096645355224609e-01 -8.015617728233337402e-01
-1.389563083648681641e-01 2.956675589084625244e-01 -5.874804258346557617e-01
-1.112755537033081055e-01 2.955687046051025391e-01 -6.506758332252502441e-01
-8.792705088853836060e-02 2.928267717361450195e-01 -7.812823653221130371e-01
-2.141406759619712830e-02 2.764772176742553711e-01 -3.348870873451232910e-01
5.843907594680786133e-02 2.884688079357147217e-01 -2.896829247474670410e-01
1.598404645919799805e-01 2.946163117885589600e-01 -6.720681190490722656e-01
-1.137223616242408752e-01 2.753995060920715332e-01 -3.735367655754089355e-01
2.255094796419143677e-01 2.918526828289031982e-01 -7.036722898483276367e-01
2.555559277534484863e-01 2.754317522048950195e-01 -7.576769590377807617e-01
-2.236432284116744995e-01 2.742040157318115234e-01 -5.955557227134704590e-01
2.005502134561538696e-01 2.887653410434722900e-01 -8.344770669937133789e-01
1.701611652970314026e-02 2.866456806659698486e-01 -9.198687672615051270e-01
1.177979633212089539e-01 2.947562038898468018e-01 -4.406660199165344238e-01
2.823314666748046875e-01 2.773454785346984863e-01 -7.379665374755859375e-01
-4.934509843587875366e-02 2.970180809497833252e-01 -5.891923904418945312e-01
2.146568745374679565e-01 2.841782569885253906e-01 -8.792909979820251465e-01
1.270891726016998291e-01 2.701253890991210938e-01 -6.644009947776794434e-01
-1.661960333585739136e-01 2.719327807426452637e-01 -5.827531814575195312e-01
2.445971220731735229e-01 2.759924829006195068e-01 -8.038454055786132812e-01
2.915695607662200928e-01 2.837039232254028320e-01 -7.701611518859863281e-01
2.302439063787460327e-01 2.921395897865295410e-01 -5.482278466224670410e-01
-8.914654701948165894e-02 2.871295809745788574e-01 -8.825799822807312012e-01
3.220315277576446533e-02 2.939782142639160156e-01 -7.825571298599243164e-01
-1.823074370622634888e-01 2.725808024406433105e-01 -6.672214269638061523e-01
-1.858103871345520020e-01 2.784368097782135010e-01 -8.268074989318847656e-01
-1.708817481994628906e-01 2.886373102664947510e-01 -3.121241033077239990e-01
-1.774232834577560425e-01 2.937065064907073975e-01 -6.534597277641296387e-01
3.366389498114585876e-02 2.778160870075225830e-01 -3.222954869270324707e-01
-1.777144968509674072e-01 2.729914486408233643e-01 -5.171967148780822754e-01
1.566646099090576172e-01 2.934013307094573975e-01 -7.451839447021484375e-01
1.463887542486190796e-01 2.934633791446685791e-01 -4.264764785766601562e-01
1.669783443212509155e-01 2.725201845169067383e-01 -8.106870651245117188e-01
-8.030541241168975830e-02 2.868769466876983643e-01 -2.678705751895904541e-01
-2.272488772869110107e-01 2.749607563018798828e-01 -5.244757533073425293e-01
-1.373134702444076538e-01 2.710021436214447021e-01 -6.442085504531860352e-01
4.028621315956115723e-02 -1.866177022457122803e-01 -1.894684582948684692e-01
1.094393245875835419e-02 -6.106337308883666992e-01 -5.617192387580871582e-01
6.681592762470245361e-02 -8.581000566482543945e-02 -1.961493194103240967e-01
3.260122239589691162e-02 6.726056337356567383e-03 -2.131152004003524780e-01
3.424478322267532349e-02 -4.369397759437561035e-01 -2.684346139430999756e-01
-4.774264618754386902e-02 -5.669456720352172852e-01 -3.446445763111114502e-01
8.202017098665237427e-02 -1.783720403909683228e-01 -2.072868794202804565e-01
7.449230551719665527e-02 -3.873318433761596680e-02 -2.216574549674987793e-01
8.707983419299125671e-03 -4.806548357009887695e-02 -3.449974656105041504e-01
-2.642238885164260864e-02 -2.223899513483047485e-01 -4.563981294631958008e-01
1.557267606258392334e-01 -3.188968002796173096e-01 -3.498103320598602295e-01
-8.138904348015785217e-03 -6.802650690078735352e-01 -4.315795302391052246e-01
-9.319063276052474976e-02 -9.861433506011962891e-02 -3.510805070400238037e-01
-1.008636653423309326e-01 -2.819897532463073730e-01 -2.379070371389389038e-01
-8.121348917484283447e-02 -5.885804295539855957e-01 -5.345064401626586914e-01
1.506866216659545898e-01 -2.528771758079528809e-01 -3.298354744911193848e-01
-4.574596509337425232e-02 -6.582251191139221191e-02 -1.825008094310760498e-01
1.288370937108993530e-01 -2.153132259845733643e-01 -2.601483464241027832e-01
-1.101295799016952515e-01 -4.866043329238891602e-01 -3.336284756660461426e-01
-1.567201912403106689e-01 -3.597170114517211914e-01 -3.426635265350341797e-01
-1.266611665487289429e-01 -5.669246315956115723e-01 -4.555601477622985840e-01
7.644871622323989868e-02 -6.391208171844482422e-01 -5.260280370712280273e-01
3.521802276372909546e-02 -5.392632484436035156e-01 -5.541011691093444824e-01
