2.308864593505859375e-01 1.121699362993240356e-01 4.417099058628082275e-01
3.337865769863128662e-01 1.240783631801605225e-01 2.360168099403381348e-01
3.372878134250640869e-01 1.254253685474395752e-01 1.240289509296417236e-01
2.433924525976181030e-01 6.614658236503601074e-02 1.213479116559028625e-01
3.262162208557128906e-01 9.185548126697540283e-02 4.218192696571350098e-01
2.258665859699249268e-01 7.425068318843841553e-02 3.075222373008728027e-01
4.351915121078491211e-01 1.013092324137687683e-01 -1.196500882506370544e-01
3.464444577693939209e-01 1.207677125930786133e-01 -5.766762048006057739e-02
2.905593216419219971e-01 8.236049860715866089e-02 -2.610030472278594971e-01
1.565153598785400391e-01 1.098103374242782593e-01 -8.526168763637542725e-03
2.861981689929962158e-01 1.173213794827461243e-01 -1.332889199256896973e-01
4.320622086524963379e-01 1.079476177692413330e-01 1.562026888132095337e-01
2.738516032695770264e-01 7.919500768184661865e-02 3.782395124435424805e-01
2.768150866031646729e-01 1.249955147504806519e-01 1.030272990465164185e-02
1.785595417022705078e-01 1.209515854716300964e-01 2.465752065181732178e-01
4.384603500366210938e-01 7.985832542181015015e-02 -1.340418308973312378e-02
1.263226121664047241e-01 1.073506921529769897e-01 1.310239881277084351e-01
3.153516650199890137e-01 1.199758127331733704e-01 -9.654686599969863892e-02
4.477971792221069336e-01 8.511726558208465576e-02 6.129094958305358887e-02
2.799083888530731201e-01 7.511325925588607788e-02 -2.138099968433380127e-01
4.480394124984741211e-01 9.644807130098342896e-02 1.370039880275726318e-01
3.790894150733947754e-01 1.168913766741752625e-01 -7.789500802755355835e-02
4.288094639778137207e-01 1.065843030810356140e-01 1.922537982463836670e-01
3.965613842010498047e-01 7.644276320934295654e-02 1.940281689167022705e-01
2.890643775463104248e-01 1.104566007852554321e-01 -2.025605440139770508e-01
2.459266781806945801e-01 6.554541736841201782e-02 5.346506088972091675e-02
1.974147856235504150e-01 7.621392607688903809e-02 -1.018315479159355164e-01
2.589672207832336426e-01 1.264099776744842529e-01 2.478460967540740967e-01
3.022672235965728760e-01 6.487296521663665771e-02 -4.461062699556350708e-02
4.319434165954589844e-01 1.091040670871734619e-01 -2.778271585702896118e-02
3.602246344089508057e-01 6.650792807340621948e-02 1.392984390258789062e-02
4.007293581962585449e-01 1.074932962656021118e-01 -1.606198251247406006e-01
3.131967186927795410e-01 6.698448956012725830e-02 -1.150033548474311829e-01
3.303939104080200195e-01 1.248205974698066711e-01 3.594527393579483032e-02
3.153729140758514404e-01 1.257119029760360718e-01 2.229483425617218018e-01
1.457028836011886597e-01 1.042023524641990662e-01 3.628461956977844238e-01
2.830720543861389160e-01 6.870523840188980103e-02 2.341322600841522217e-01
3.183866441249847412e-01 6.741376221179962158e-02 1.829995214939117432e-01
1.540862768888473511e-01 9.024085849523544312e-02 3.589892089366912842e-01
3.430866599082946777e-01 1.159700676798820496e-01 3.522142767906188965e-01
3.823175430297851562e-01 1.189506053924560547e-01 -2.044720202684402466e-02
2.998624444007873535e-01 1.091861948370933533e-01 4.408752918243408203e-01
4.155398607254028320e-01 7.685494422912597656e-02 1.287588924169540405e-01
1.694799512624740601e-01 1.184985488653182983e-01 9.034503996372222900e-02
1.944367736577987671e-01 7.385620474815368652e-02 2.516483962535858154e-01
2.074913680553436279e-01 8.364576101303100586e-02 -1.778598725795745850e-01
2.228807806968688965e-01 1.179606765508651733e-01 -6.756300479173660278e-02
3.890859484672546387e-01 7.616425305604934692e-02 -1.838817000389099121e-01
3.009026646614074707e-01 1.268776804208755493e-01 1.917602419853210449e-01
1.616165637969970703e-01 7.605274021625518799e-02 6.520152091979980469e-02
4.275420904159545898e-01 7.821302115917205811e-02 -8.705645054578781128e-02
3.842502236366271973e-01 1.133414953947067261e-01 -1.247671321034431458e-01
2.121709138154983521e-01 6.946019828319549561e-02 1.785188913345336914e-01
3.408181965351104736e-01 1.231752187013626099e-01 -4.161745309829711914e-03
2.183741629123687744e-01 6.756583601236343384e-02 6.959293782711029053e-02
2.502380609512329102e-01 1.247881501913070679e-01 2.803195267915725708e-02
1.816357374191284180e-01 1.190752238035202026e-01 5.043563991785049438e-02
1.224424391984939575e-01 1.004943773150444031e-01 8.138106018304824829e-02
2.644416093826293945e-01 9.738381952047348022e-02 -2.534510195255279541e-01
2.073495686054229736e-01 7.137468457221984863e-02 2.246675789356231689e-01
3.748488426208496094e-01 1.205555349588394165e-01 1.960116624832153320e-01
3.344483673572540283e-01 6.726664304733276367e-02 -1.118488535284996033e-01
2.260154783725738525e-01 1.209208145737648010e-01 3.584359288215637207e-01
2.525839805603027344e-01 7.201799750328063965e-02 -1.564539968967437744e-01
1.708996593952178955e-01 1.197344139218330383e-01 1.287633925676345825e-01
3.383371531963348389e-01 7.845467329025268555e-02 -2.475824058055877686e-01
3.614229559898376465e-01 1.181613728404045105e-01 -8.737402409315109253e-02
2.980952858924865723e-01 6.897241622209548950e-02 -1.519235372543334961e-01
3.514388799667358398e-01 6.864800304174423218e-02 1.601196378469467163e-01
2.444869577884674072e-01 1.238751485943794250e-01 1.079728454351425171e-02
3.526151478290557861e-01 9.879365563392639160e-02 4.036454558372497559e-01
1.973017007112503052e-01 7.393148541450500488e-02 -6.965064257383346558e-02
2.985552251338958740e-01 7.587519288063049316e-02 -2.292182147502899170e-01
1.824884712696075439e-01 1.165705174207687378e-01 -1.276530325412750244e-03
2.798224687576293945e-01 1.228367984294891357e-01 -4.336091130971908569e-02
1.847887039184570312e-01 1.181105375289916992e-01 3.414442241191864014e-01
2.296623289585113525e-01 1.262363642454147339e-01 1.815519034862518311e-01
3.141050338745117188e-01 7.633858919143676758e-02 -2.361066937446594238e-01
2.664583027362823486e-01 7.117451727390289307e-02 2.803962230682373047e-01
1.421627849340438843e-01 1.069642603397369385e-01 3.393129110336303711e-01
1.278543025255203247e-01 1.065955683588981628e-01 1.000422611832618713e-01
1.388126611709594727e-01 1.132655292749404907e-01 1.988874971866607666e-01
1.219168007373809814e-01 9.040096402168273926e-02 1.089755743741989136e-01
2.752008736133575439e-01 1.274264603853225708e-01 1.770027279853820801e-01
2.029277980327606201e-01 1.155311912298202515e-01 3.997590243816375732e-01
3.042136728763580322e-01 7.208264619112014771e-02 2.843950390815734863e-01
1.227925419807434082e-01 9.082814306020736694e-02 2.262695729732513428e-01
2.406676709651947021e-01 6.937603652477264404e-02 2.314186394214630127e-01
3.659501969814300537e-01 7.116392254829406738e-02 1.846189200878143311e-01
1.740342676639556885e-01 8.143471926450729370e-02 3.258711993694305420e-01
4.242342114448547363e-01 1.071097403764724731e-01 -1.020528301596641541e-01
3.074713349342346191e-01 6.428538262844085693e-02 5.378575995564460754e-02
2.471396774053573608e-01 1.190450713038444519e-01 -8.375313133001327515e-02
2.091638445854187012e-01 1.231931447982788086e-01 2.879163920879364014e-01
1.729408353567123413e-01 1.187418401241302490e-01 2.939552068710327148e-01
3.470989763736724854e-01 1.239468231797218323e-01 4.261902719736099243e-02
3.935464322566986084e-01 9.339201450347900391e-02 3.257932364940643311e-01
2.025884091854095459e-01 6.954428553581237793e-02 3.426272049546241760e-02
2.972363531589508057e-01 6.426368653774261475e-02 1.473538577556610107e-03
2.570766806602478027e-01 7.307037711143493652e-02 -1.742050647735595703e-01
1.273855268955230713e-01 1.080937683582305908e-01 2.390804886817932129e-01
2.209915965795516968e-01 1.129181534051895142e-01 -1.236119642853736877e-01
3.028748929500579834e-01 1.144799590110778809e-01 4.113644659519195557e-01
3.011461198329925537e-01 1.269197911024093628e-01 1.012435257434844971e-01
3.628317713737487793e-01 6.976094841957092285e-02 -1.332097947597503662e-01
1.676750779151916504e-01 7.452252507209777832e-02 8.301509171724319458e-02
3.182938694953918457e-01 1.262131780385971069e-01 8.555908501148223877e-02
2.893450856208801270e-01 7.481361925601959229e-02 3.282717466354370117e-01
3.137289285659790039e-01 6.807459890842437744e-02 -1.385330259799957275e-01
3.639860749244689941e-01 1.091323122382164001e-01 -1.960580050945281982e-01
1.399402469396591187e-01 8.143138885498046875e-02 1.027909889817237854e-01
3.874018788337707520e-01 7.128499448299407959e-02 1.211465150117874146e-01
3.313973546028137207e-01 1.167476177215576172e-01 -1.374748051166534424e-01
2.388615161180496216e-01 7.894104719161987305e-02 3.723981082439422607e-01
4.349152743816375732e-01 7.895441353321075439e-02 -3.776853531599044800e-02
2.791729271411895752e-01 1.220332831144332886e-01 3.494136333465576172e-01
3.532380163669586182e-01 8.763565123081207275e-02 3.742881417274475098e-01
4.555389881134033203e-01 9.763829410076141357e-02 4.377216845750808716e-02
2.884986996650695801e-01 8.459419012069702148e-02 4.143196046352386475e-01
4.058348536491394043e-01 1.143001988530158997e-01 -5.002357810735702515e-02
4.538165330886840820e-01 9.227673709392547607e-02 8.091837912797927856e-02
1.866737902164459229e-01 1.214378774166107178e-01 1.530864387750625610e-01
3.815020918846130371e-01 1.135931983590126038e-01 -2.536366283893585205e-01
2.581027150154113770e-01 1.143032461404800415e-01 2.128855139017105103e-01
2.963083684444427490e-01 1.197704225778579712e-01 -2.722632586956024170e-01
2.663072645664215088e-01 9.121768176555633545e-02 -2.038247734308242798e-01
3.122200667858123779e-01 8.911809325218200684e-02 6.430676579475402832e-02
2.645975649356842041e-01 9.342161566019058228e-02 -2.379732578992843628e-01
2.669764459133148193e-01 1.268947571516036987e-01 -3.629929199814796448e-02
3.041529655456542969e-01 1.255467981100082397e-01 -1.153297722339630127e-01
2.350736260414123535e-01 8.744519948959350586e-02 -4.348581284284591675e-02
1.261095702648162842e-01 1.160013303160667419e-01 1.656529456377029419e-01
2.465791255235671997e-01 8.936636149883270264e-02 1.128946542739868164e-01
2.646308839321136475e-01 9.565548598766326904e-02 -2.647950351238250732e-01
2.126773744821548462e-01 1.228446438908576965e-01 1.337792575359344482e-01
1.096667498350143433e-01 9.961603581905364990e-02 1.076103746891021729e-01
3.084917068481445312e-01 1.160758733749389648e-01 -3.032954037189483643e-01
2.293660491704940796e-01 1.194892078638076782e-01 -2.625696957111358643e-01
3.029439449310302734e-01 1.012384369969367981e-01 -3.152843713760375977e-01
3.171923756599426270e-01 1.118312105536460876e-01 1.761860400438308716e-01
3.761849701404571533e-01 9.625955671072006226e-02 -2.338196635246276855e-01
1.473390161991119385e-01 1.242160052061080933e-01 9.760409593582153320e-04
3.515835106372833252e-01 8.921083062887191772e-02 -7.355843484401702881e-02
2.708992660045623779e-01 1.268586814403533936e-01 -8.937223255634307861e-02
1.168104559183120728e-01 1.204647719860076904e-01 -3.657813742756843567e-02
1.380883008241653442e-01 1.218898147344589233e-01 -9.386341273784637451e-02
3.095699250698089600e-01 1.227269098162651062e-01 5.511092767119407654e-02
1.917781531810760498e-01 9.490732848644256592e-02 -1.874009817838668823e-01
3.336094617843627930e-01 1.224159300327301025e-01 7.312331348657608032e-03
2.060665190219879150e-01 1.245304718613624573e-01 -1.692971885204315186e-01
3.108542263507843018e-01 8.858871459960937500e-02 4.959513619542121887e-02
2.014021575450897217e-01 1.269153952598571777e-01 -5.193795636296272278e-02
2.810962796211242676e-01 8.947362005710601807e-02 -1.721852421760559082e-01
2.274968624114990234e-01 1.262110024690628052e-01 4.452586546540260315e-02
2.554562687873840332e-01 9.424138069152832031e-02 1.897793263196945190e-01
1.461716890335083008e-01 9.293843060731887817e-02 6.398130208253860474e-03
9.997220337390899658e-02 1.004262790083885193e-01 4.605577513575553894e-02
3.537291884422302246e-01 1.218314617872238159e-01 -5.407404154539108276e-02
3.258486688137054443e-01 8.970817923545837402e-02 5.878810957074165344e-02
4.135175347328186035e-01 1.089329719543457031e-01 -2.013459205627441406e-01
1.918907165527343750e-01 1.134770736098289490e-01 2.316413074731826782e-01
1.592501699924468994e-01 9.193330258131027222e-02 -2.888648584485054016e-02
2.024613618850708008e-01 1.214237809181213379e-01 1.570293158292770386e-01
1.828594505786895752e-01 9.080630540847778320e-02 -7.748571038246154785e-02
1.831019222736358643e-01 8.979526907205581665e-02 -1.631035283207893372e-02
3.277789354324340820e-01 1.067366674542427063e-01 -3.264189064502716064e-01
3.820473849773406982e-01 1.073130071163177490e-01 -2.831537425518035889e-01
3.349829316139221191e-01 1.237655207514762878e-01 -1.056015938520431519e-01
9.427289664745330811e-02 1.152271032333374023e-01 -2.966099232435226440e-02
2.680628597736358643e-01 1.261924207210540771e-01 -1.438352614641189575e-01
2.221378386020660400e-01 1.073296442627906799e-01 -3.014492690563201904e-01
3.971984386444091797e-01 1.075532659888267517e-01 -2.563624382019042969e-01
3.951844871044158936e-01 1.142144352197647095e-01 -1.235448382794857025e-02
2.927917242050170898e-01 8.748281747102737427e-02 -1.014916151762008667e-01
2.410266101360321045e-01 1.141237393021583557e-01 2.221050709486007690e-01
1.142091006040573120e-01 9.741569310426712036e-02 5.051685497164726257e-02
1.121421009302139282e-01 1.190778762102127075e-01 8.015969395637512207e-02
3.657904863357543945e-01 9.184816479682922363e-02 -1.679965853691101074e-01
1.284676790237426758e-01 9.707868844270706177e-02 1.267541050910949707e-01
2.662550806999206543e-01 8.722440898418426514e-02 3.174882009625434875e-02
2.984488606452941895e-01 1.228264272212982178e-01 -2.240308970212936401e-01
2.275381535291671753e-01 9.876248985528945923e-02 -2.688383758068084717e-01
3.341730535030364990e-01 8.927434682846069336e-02 -1.428721696138381958e-01
2.170712500810623169e-01 1.250381767749786377e-01 8.454076945781707764e-02
2.379437685012817383e-01 8.834178745746612549e-02 -1.046058088541030884e-01
4.179817438125610352e-01 1.095511391758918762e-01 -1.678515076637268066e-01
1.886247396469116211e-01 1.202889159321784973e-01 -2.180272489786148071e-01
3.978534638881683350e-01 9.765715152025222778e-02 1.665560156106948853e-02
2.123056054115295410e-01 1.271489560604095459e-01 -2.802821248769760132e-02
3.595732450485229492e-01 1.189805716276168823e-01 -2.213384509086608887e-01
1.795721352100372314e-01 9.005490690469741821e-02 4.050924256443977356e-02
2.300155013799667358e-01 8.818622678518295288e-02 6.569547951221466064e-02
2.870289981365203857e-01 9.785320609807968140e-02 -2.921328842639923096e-01
2.076037824153900146e-01 1.194870248436927795e-01 1.830380260944366455e-01
3.021467924118041992e-01 8.975708484649658203e-02 9.315201640129089355e-02
1.272785216569900513e-01 1.181930154561996460e-01 1.410991698503494263e-01
2.046186327934265137e-01 1.268122047185897827e-01 -7.754310965538024902e-02
1.320539116859436035e-01 9.716032445430755615e-02 -8.725348114967346191e-02
3.760441541671752930e-01 1.178349032998085022e-01 -9.762490168213844299e-03
1.616813242435455322e-01 9.916517883539199829e-02 2.093655467033386230e-01
2.506968379020690918e-01 1.207662597298622131e-01 -2.591811418533325195e-01
2.918003797531127930e-01 8.694782853126525879e-02 -5.175155773758888245e-02
2.319800257682800293e-01 1.265384852886199951e-01 2.893706783652305603e-02
2.621709704399108887e-01 1.250864416360855103e-01 -1.846717596054077148e-01
1.957333683967590332e-01 8.894908428192138672e-02 2.085789293050765991e-02
2.803349792957305908e-01 8.681247383356094360e-02 -2.903420105576515198e-02
2.037134617567062378e-01 8.882501721382141113e-02 -4.736145958304405212e-02
3.752092123031616211e-01 9.328521043062210083e-02 2.324541285634040833e-02
9.025925397872924805e-02 1.126756221055984497e-01 9.341193735599517822e-02
1.359125077724456787e-01 9.834585338830947876e-02 -1.204471737146377563e-01
3.188794553279876709e-01 1.247482821345329285e-01 -1.193157881498336792e-01
3.365953862667083740e-01 9.345026314258575439e-02 1.107535213232040405e-01
1.968953013420104980e-01 8.885303884744644165e-02 3.585077822208404541e-03
1.720735132694244385e-01 9.349276125431060791e-02 1.489352881908416748e-01
3.339582681655883789e-01 1.148266866803169250e-01 1.323344260454177856e-01
2.613896429538726807e-01 1.267514824867248535e-01 -9.936483576893806458e-03
2.429942637681961060e-01 8.731773495674133301e-02 2.528959885239601135e-02
2.765595614910125732e-01 8.789884299039840698e-02 6.118243560194969177e-02
2.658258378505706787e-01 1.270251870155334473e-01 -7.420045137405395508e-02
1.750946044921875000e-01 9.149084240198135376e-02 1.030714362859725952e-01
3.243196308612823486e-01 9.031802415847778320e-02 -1.846749633550643921e-01
3.234055042266845703e-01 1.226800903677940369e-01 2.691173925995826721e-02
2.596677243709564209e-01 1.269523203372955322e-01 -1.023333072662353516e-01
4.012781083583831787e-01 9.487646818161010742e-02 -1.128690540790557861e-01
2.009903192520141602e-01 1.224867776036262512e-01 -2.027941197156906128e-01
1.596830040216445923e-01 1.247519925236701965e-01 -6.465211510658264160e-02
2.738458812236785889e-01 1.244464591145515442e-01 -1.991400569677352905e-01
2.600608170032501221e-01 1.271440386772155762e-01 -6.069134548306465149e-02
2.010599821805953979e-01 9.025171399116516113e-02 1.093444079160690308e-01
1.981352269649505615e-01 9.244188666343688965e-02 1.572653949260711670e-01
2.735777199268341064e-01 1.151906773447990417e-01 1.966423988342285156e-01
2.720153033733367920e-01 8.939294517040252686e-02 1.080944389104843140e-01
2.759270370006561279e-01 1.248269975185394287e-01 5.219719931483268738e-02
3.197298645973205566e-01 1.246590539813041687e-01 -5.204551666975021362e-02
2.380823194980621338e-01 1.252011656761169434e-01 -1.774479597806930542e-01
4.047314822673797607e-01 1.145580708980560303e-01 -1.397943198680877686e-01
1.750711649656295776e-01 1.054097637534141541e-01 -2.483227699995040894e-01
3.151424825191497803e-01 1.241912618279457092e-01 -1.662706434726715088e-01
2.477086931467056274e-01 9.042543917894363403e-02 -1.756003946065902710e-01
3.222900331020355225e-01 1.033817753195762634e-01 1.881231963634490967e-01
1.008838713169097900e-01 1.077913641929626465e-01 -9.432092308998107910e-02
2.418654710054397583e-01 1.271182596683502197e-01 -1.313417218625545502e-02
1.761434227228164673e-01 1.185603141784667969e-01 1.868384778499603271e-01
3.635828197002410889e-01 1.142368167638778687e-01 -2.767951488494873047e-01
3.513598442077636719e-01 1.223152801394462585e-01 -7.689134031534194946e-02
2.081234902143478394e-01 1.262854486703872681e-01 -1.163168251514434814e-01
2.455989569425582886e-01 8.860807120800018311e-02 -1.244040280580520630e-01
3.213299512863159180e-01 9.275998175144195557e-02 1.230248510837554932e-01
2.408949732780456543e-01 9.143029153347015381e-02 -1.900468468666076660e-01
2.277066707611083984e-01 1.272847056388854980e-01 -6.953379511833190918e-02
3.103355169296264648e-01 9.344620257616043091e-02 1.444310545921325684e-01
2.394131720066070557e-01 9.461487084627151489e-02 1.971251815557479858e-01
2.413201183080673218e-01 1.273128390312194824e-01 -3.874268010258674622e-02
3.548156619071960449e-01 8.997713029384613037e-02 -1.261905580759048462e-01
1.622398197650909424e-01 9.150394052267074585e-02 5.398743227124214172e-02
3.711886107921600342e-01 9.895028173923492432e-02 -2.680915594100952148e-01
2.100149691104888916e-01 1.209317296743392944e-01 -2.327845543622970581e-01
3.128520846366882324e-01 9.870254993438720703e-02 -2.995122075080871582e-01
8.644348382949829102e-02 1.113164126873016357e-01 7.943278551101684570e-02
2.454698383808135986e-01 1.261179745197296143e-01 -1.512456983327865601e-01
2.502505183219909668e-01 8.699582517147064209e-02 -7.107604295015335083e-03
1.079559773206710815e-01 1.191279962658882141e-01 5.134024843573570251e-02
9.621565043926239014e-02 1.126935407519340515e-01 -7.002983987331390381e-02
3.128223717212677002e-01 1.175811216235160828e-01 1.348610818386077881e-01
2.888042032718658447e-01 1.222818568348884583e-01 -2.388255447149276733e-01
3.050271272659301758e-01 8.723446726799011230e-02 -6.659005582332611084e-02
2.796384096145629883e-01 9.592218697071075439e-02 1.936724931001663208e-01
2.660341858863830566e-01 8.799172937870025635e-02 -1.197670847177505493e-01
1.723622828722000122e-01 9.299002587795257568e-02 -1.149053126573562622e-01
3.361667990684509277e-01 9.316411614418029785e-02 -2.325348854064941406e-01
2.482245415449142456e-01 8.702732622623443604e-02 -2.518426626920700073e-02
2.595795392990112305e-01 1.239533498883247375e-01 9.210117161273956299e-02
2.556010484695434570e-01 9.122492372989654541e-02 1.498622894287109375e-01
1.260291039943695068e-01 1.003290265798568726e-01 1.693629026412963867e-01
2.823050320148468018e-01 8.777549862861633301e-02 -1.172004491090774536e-01
2.081382423639297485e-01 8.926302194595336914e-02 -8.524708449840545654e-02
2.038243263959884644e-01 9.455853700637817383e-02 1.917034387588500977e-01
3.579565584659576416e-01 1.172421574592590332e-01 5.800439044833183289e-02
1.785946786403656006e-01 1.224964112043380737e-01 -1.736008971929550171e-01
1.379166096448898315e-01 1.113827005028724670e-01 2.108746021986007690e-01
4.108263254165649414e-01 9.689074009656906128e-02 -8.592748641967773438e-02
9.423962235450744629e-02 1.023493707180023193e-01 6.610627472400665283e-02
2.825108468532562256e-01 1.250747740268707275e-01 3.456935659050941467e-02
2.376798540353775024e-01 1.007066890597343445e-01 -2.897640764713287354e-01
4.051741957664489746e-01 9.667087346315383911e-02 -3.466510400176048279e-02
2.241529971361160278e-01 1.161203235387802124e-01 2.133877426385879517e-01
4.236488938331604004e-01 1.019858494400978088e-01 -1.241101622581481934e-01
1.952778995037078857e-01 1.187009066343307495e-01 1.909890770912170410e-01
3.358343541622161865e-01 1.230436712503433228e-01 -2.575291693210601807e-02
2.913169264793395996e-01 1.069110855460166931e-01 -3.307208716869354248e-01
1.082238107919692993e-01 1.195093318819999695e-01 2.154954522848129272e-02
4.080629944801330566e-01 9.763748198747634888e-02 -1.679140627384185791e-01
3.539565801620483398e-01 9.747701138257980347e-02 -2.722199559211730957e-01
2.059208154678344727e-01 1.038494482636451721e-01 -2.785802483558654785e-01
3.909587562084197998e-01 9.313747286796569824e-02 -7.796113193035125732e-02
1.901105642318725586e-01 9.710056334733963013e-02 2.118996828794479370e-01
1.817805767059326172e-01 1.005357727408409119e-01 2.318622618913650513e-01
2.750348746776580811e-01 1.267868280410766602e-01 -5.641953647136688232e-02
2.981791794300079346e-01 9.056537598371505737e-02 -1.988771706819534302e-01
3.008773028850555420e-01 9.624560922384262085e-02 -2.795139551162719727e-01
3.685826063156127930e-01 1.197161450982093811e-01 -3.510434180498123169e-02
2.167982161045074463e-01 9.557604789733886719e-02 -2.280362099409103394e-01
2.807661294937133789e-01 1.263522207736968994e-01 -2.486336417496204376e-02
3.382164835929870605e-01 1.197390556335449219e-01 6.101530417799949646e-02
2.898757457733154297e-01 8.961112797260284424e-02 1.015263795852661133e-01
1.117812544107437134e-01 1.157148703932762146e-01 1.398366242647171021e-01
1.613120138645172119e-01 9.363493323326110840e-02 1.337165087461471558e-01
1.380185782909393311e-01 9.739362448453903198e-02 1.572041213512420654e-01
3.151258826255798340e-01 9.334658086299896240e-02 -2.442231774330139160e-01
2.595329582691192627e-01 9.683223813772201538e-02 2.108313590288162231e-01
1.557255387306213379e-01 9.527505934238433838e-02 -1.219910532236099243e-01
2.880920767784118652e-01 8.751143515110015869e-02 3.476139530539512634e-02
2.923009991645812988e-01 9.172438085079193115e-02 1.383754909038543701e-01
3.832121789455413818e-01 1.175012215971946716e-01 -3.427407518029212952e-02
3.108192682266235352e-01 8.977697789669036865e-02 -1.782459169626235962e-01
2.033670842647552490e-01 8.856672793626785278e-02 -1.758383773267269135e-02
4.063493609428405762e-01 9.606048464775085449e-02 -1.283405125141143799e-01
4.096722304821014404e-01 1.134911403059959412e-01 -1.158086359500885010e-01
2.759258151054382324e-01 9.214694052934646606e-02 -2.238517850637435913e-01
2.222642600536346436e-01 9.315000474452972412e-02 1.792860478162765503e-01
3.495133519172668457e-01 8.912803977727890015e-02 -4.363454133272171021e-02
2.735297977924346924e-01 9.414534270763397217e-02 -2.512197494506835938e-01
3.919990658760070801e-01 9.390281885862350464e-02 -1.421406269073486328e-01
3.450938165187835693e-01 1.188900247216224670e-01 -2.476344704627990723e-01
3.478334248065948486e-01 1.075640320777893066e-01 1.514014005661010742e-01
2.991467714309692383e-01 1.236559301614761353e-01 -2.047540992498397827e-01
1.899862289428710938e-01 9.153956919908523560e-02 -1.193165481090545654e-01
1.135910898447036743e-01 9.903176873922348022e-02 -4.836212471127510071e-02
3.159875869750976562e-01 1.193865463137626648e-01 1.070692837238311768e-01
1.523935496807098389e-01 9.308291226625442505e-02 9.297555685043334961e-02
1.057515293359756470e-01 1.100409179925918579e-01 -1.145269721746444702e-01
3.398367762565612793e-01 1.205611899495124817e-01 -2.257553488016128540e-01
1.475983411073684692e-01 1.181748062372207642e-01 -1.763595938682556152e-01
3.145810961723327637e-01 1.149295642971992493e-01 1.583930253982543945e-01
2.266421169042587280e-01 8.760014176368713379e-02 1.149620115756988525e-02
4.182069897651672363e-01 9.956587851047515869e-02 -1.392266005277633667e-01
2.615663409233093262e-01 8.930230885744094849e-02 -1.590028107166290283e-01
1.669134795665740967e-01 1.248959302902221680e-01 -8.535139262676239014e-02
2.234369069337844849e-01 8.940798789262771606e-02 1.058991551399230957e-01
2.576041519641876221e-01 1.002825126051902771e-01 -2.989269793033599854e-01
3.194637298583984375e-01 9.127204120159149170e-02 1.024134010076522827e-01
3.535518944263458252e-01 1.214638501405715942e-01 -3.261589258909225464e-02
3.079409897327423096e-01 8.768518269062042236e-02 -1.020821779966354370e-01
3.177335262298583984e-01 1.248997747898101807e-01 -6.653562933206558228e-02
1.967973709106445312e-01 1.259311735630035400e-01 4.683382436633110046e-02
2.350508570671081543e-01 8.980745077133178711e-02 1.219507306814193726e-01
2.895999550819396973e-01 1.263319253921508789e-01 -7.635892927646636963e-02
3.046869337558746338e-01 8.742503821849822998e-02 -8.769898116588592529e-02
1.796743720769882202e-01 1.242168545722961426e-01 9.131513535976409912e-02
2.056757509708404541e-01 9.137105941772460938e-02 1.420975476503372192e-01
2.565465569496154785e-01 1.233059614896774292e-01 -2.237385958433151245e-01
3.698815405368804932e-01 9.476327896118164062e-02 6.339730322360992432e-02
2.264803051948547363e-01 1.257621794939041138e-01 -1.546493023633956909e-01
2.330545336008071899e-01 1.213229745626449585e-01 -2.445920258760452271e-01
2.358711808919906616e-01 1.255553215742111206e-01 6.515827775001525879e-02
3.476618528366088867e-01 1.153711006045341492e-01 -2.852616608142852783e-01
1.323223561048507690e-01 1.223756968975067139e-01 -5.039522051811218262e-02
2.664966881275177002e-01 8.694708347320556641e-02 7.921807467937469482e-03
2.897082567214965820e-01 1.258832365274429321e-01 -1.334789693355560303e-01
1.244105249643325806e-01 1.137854009866714478e-01 -1.572294384241104126e-01
2.508422732353210449e-01 1.161703690886497498e-01 -2.987192571163177490e-01
9.594784677028656006e-02 1.167084649205207825e-01 2.423904836177825928e-03
9.192828834056854248e-02 1.110949888825416565e-01 1.147699356079101562e-01
3.904864788055419922e-01 1.174321174621582031e-01 -1.290039420127868652e-01
1.299158334732055664e-01 1.205880790948867798e-01 1.021602600812911987e-01
1.528797745704650879e-01 1.170257627964019775e-01 -1.961564123630523682e-01
3.053584992885589600e-01 8.783307671546936035e-02 2.724732086062431335e-02
3.806191384792327881e-01 1.077021583914756775e-01 8.924977481365203857e-02
3.318899273872375488e-01 1.225825995206832886e-01 -1.891772150993347168e-01
2.759026885032653809e-01 1.167302653193473816e-01 -3.015040755271911621e-01
3.303729891777038574e-01 1.192247122526168823e-01 -2.593742311000823975e-01
3.730493187904357910e-01 1.163882017135620117e-01 3.066841140389442444e-02
2.916708588600158691e-01 8.712920546531677246e-02 4.515927284955978394e-03
3.007536530494689941e-01 1.257394850254058838e-01 -5.003947764635086060e-02
3.842169940471649170e-01 1.184854507446289062e-01 -1.116815358400344849e-01
1.698568761348724365e-01 1.212693527340888977e-01 1.465668976306915283e-01
1.424758136272430420e-01 9.438459575176239014e-02 -5.463446676731109619e-02
1.494624167680740356e-01 1.236422359943389893e-01 -7.727219909429550171e-02
2.052614986896514893e-01 1.178571879863739014e-01 -2.579827308654785156e-01
1.498217433691024780e-01 9.762109071016311646e-02 -1.459801495075225830e-01
2.401671707630157471e-01 1.063888445496559143e-01 -3.124345541000366211e-01
3.570674359798431396e-01 9.060860425233840942e-02 9.262107312679290771e-03
3.777839243412017822e-01 1.128135845065116882e-01 6.355649232864379883e-02
2.291020452976226807e-01 9.362440556287765503e-02 -2.151107639074325562e-01
2.607011198997497559e-01 1.218647584319114685e-01 1.312407255172729492e-01
2.254461944103240967e-01 1.269945800304412842e-01 2.970598638057708740e-03
3.378722071647644043e-01 1.217012479901313782e-01 -2.026821374893188477e-01
1.870557963848114014e-01 1.034703105688095093e-01 2.450560480356216431e-01
1.645574122667312622e-01 9.857110679149627686e-02 -1.876911073923110962e-01
1.623239815235137939e-01 9.271587431430816650e-02 1.114782691001892090e-01
2.556305825710296631e-01 1.200765818357467651e-01 1.605591028928756714e-01
3.677606582641601562e-01 1.063131093978881836e-01 1.197420656681060791e-01
2.773594558238983154e-01 8.870650082826614380e-02 8.751784265041351318e-02
3.913227319717407227e-01 1.166124418377876282e-01 -1.698006838560104370e-01
2.948161065578460693e-01 8.841843903064727783e-02 -1.422332376241683960e-01
2.587365210056304932e-01 1.043638288974761963e-01 -3.174316585063934326e-01
2.258988767862319946e-01 1.203468665480613708e-01 1.701214164495468140e-01
2.810304760932922363e-01 9.080483764410018921e-02 -2.016692757606506348e-01
3.923338651657104492e-01 1.133721545338630676e-01 -2.306937575340270996e-01
3.566558659076690674e-01 9.293165057897567749e-02 -2.092017233371734619e-01
2.667976915836334229e-01 1.180230379104614258e-01 1.766487509012222290e-01
1.406168341636657715e-01 1.231296807527542114e-01 4.998319968581199646e-02
8.377228677272796631e-02 1.079849153757095337e-01 2.048240602016448975e-02
3.034371733665466309e-01 8.712007850408554077e-02 -3.813414275646209717e-02
1.470568478107452393e-01 9.848012030124664307e-02 1.863881498575210571e-01
2.518735527992248535e-01 9.809035807847976685e-02 -2.805981338024139404e-01
9.825062751770019531e-02 1.034744307398796082e-01 -4.954969882965087891e-02
4.071226418018341064e-01 1.100921928882598877e-01 -2.177499085664749146e-01
2.582197487354278564e-01 1.265372186899185181e-01 -1.319752037525177002e-01
3.646329641342163086e-01 1.172663271427154541e-01 -2.411165833473205566e-01
3.240217566490173340e-01 9.493351727724075317e-02 -2.622588872909545898e-01
2.081318199634552002e-01 1.068020090460777283e-01 2.516578435897827148e-01
3.043942451477050781e-01 1.251834928989410400e-01 -2.034659311175346375e-02
1.860637068748474121e-01 1.263906657695770264e-01 -5.236470326781272888e-02
3.143113553524017334e-01 1.211148947477340698e-01 -2.443971484899520874e-01
3.432399034500122070e-01 9.167716652154922485e-02 7.133917510509490967e-02
3.015522658824920654e-01 1.244644895195960999e-01 2.005577087402343750e-02
2.832078337669372559e-01 1.256158500909805298e-01 1.216648146510124207e-02
1.497948914766311646e-01 1.209887042641639709e-01 -1.448891609907150269e-01
3.154547214508056641e-01 8.874158561229705811e-02 -1.443384885787963867e-01
3.417028188705444336e-01 8.912205696105957031e-02 -1.149605959653854370e-03
2.410567551851272583e-01 1.271808445453643799e-01 -9.075744450092315674e-02
2.516444325447082520e-01 9.208051860332489014e-02 -2.101118415594100952e-01
1.688690185546875000e-01 1.166318133473396301e-01 2.022722959518432617e-01
2.912314236164093018e-01 8.730802685022354126e-02 1.906946673989295959e-02
2.070000767707824707e-01 8.863835781812667847e-02 4.830266907811164856e-02
9.919793903827667236e-02 1.017268449068069458e-01 -2.289362438023090363e-02
1.883472055196762085e-01 9.419718384742736816e-02 -1.710141450166702271e-01
2.213910222053527832e-01 1.173551529645919800e-01 -2.747631967067718506e-01
2.078623324632644653e-01 1.257268339395523071e-01 -1.378384232521057129e-01
1.805742681026458740e-01 1.259121894836425781e-01 -7.429330050945281982e-02
1.663554459810256958e-01 1.206366866827011108e-01 -1.821686774492263794e-01
2.883617281913757324e-01 8.712095767259597778e-02 -7.790802419185638428e-02
3.114238977432250977e-01 1.253198385238647461e-01 -8.166869729757308960e-02
4.079893827438354492e-01 9.642469882965087891e-02 -6.782646477222442627e-02
2.819053828716278076e-01 9.306938946247100830e-02 1.640337854623794556e-01
1.877278834581375122e-01 1.037128567695617676e-01 -2.581177055835723877e-01
1.241396665573120117e-01 1.217815577983856201e-01 2.795535698533058167e-02
1.334208250045776367e-01 1.215215474367141724e-01 8.679163455963134766e-02
1.696307659149169922e-01 9.975070506334304810e-02 -2.077053934335708618e-01
2.990652918815612793e-01 1.241301298141479492e-01 3.633496537804603577e-02
1.184352040290832520e-01 1.183803975582122803e-01 1.180827766656875610e-01
3.315306305885314941e-01 9.138896316289901733e-02 -2.037631273269653320e-01
3.891685605049133301e-01 1.170409023761749268e-01 -5.529541149735450745e-02
1.445729434490203857e-01 1.190601959824562073e-01 1.554842591285705566e-01
3.635466694831848145e-01 1.126578152179718018e-01 9.776623547077178955e-02
2.799566090106964111e-01 1.261164098978042603e-01 -6.511673331260681152e-03
1.166575849056243896e-01 9.770156443119049072e-02 -2.699364908039569855e-02
2.442369908094406128e-01 9.033916145563125610e-02 1.349340528249740601e-01
2.067194133996963501e-01 8.888948708772659302e-02 6.396250426769256592e-02
3.283835053443908691e-01 1.181398928165435791e-01 -2.745932340621948242e-01
2.243679761886596680e-01 8.788701891899108887e-02 3.794978931546211243e-02
1.429240107536315918e-01 1.147973164916038513e-01 1.974545866250991821e-01
3.341162204742431641e-01 1.210981160402297974e-01 4.211576655507087708e-02
2.448798865079879761e-01 1.269961595535278320e-01 -1.069251447916030884e-01
2.271449267864227295e-01 1.272506862878799438e-01 -2.263150736689567566e-02
4.242644906044006348e-01 1.069081872701644897e-01 -9.850461781024932861e-02
1.337362676858901978e-01 9.478168934583663940e-02 7.514920830726623535e-02
2.585645318031311035e-01 8.825828135013580322e-02 8.016090095043182373e-02
2.834513187408447266e-01 1.185157522559165955e-01 1.575195044279098511e-01
2.695022523403167725e-01 1.245150640606880188e-01 6.878437101840972900e-02
2.481200546026229858e-01 1.026674807071685791e-01 2.412738353013992310e-01
2.225602418184280396e-01 1.247460246086120605e-01 -1.795233935117721558e-01
1.603664755821228027e-01 1.048829182982444763e-01 -2.248872220516204834e-01
2.112032771110534668e-01 8.827751129865646362e-02 3.091013059020042419e-02
3.010554611682891846e-01 9.508489072322845459e-02 1.703733205795288086e-01
1.792890280485153198e-01 1.179219037294387817e-01 -2.290650308132171631e-01
3.445636332035064697e-01 1.218129843473434448e-01 -8.413158357143402100e-03
1.187128275632858276e-01 1.201261878013610840e-01 -6.141022592782974243e-02
1.574649810791015625e-01 9.373257309198379517e-02 -9.196047484874725342e-02
1.931248009204864502e-01 1.120043545961380005e-01 -2.732723355293273926e-01
1.367198824882507324e-01 1.208732947707176208e-01 -1.131439656019210815e-01
2.988412976264953613e-01 8.875039219856262207e-02 7.070384919643402100e-02
2.369133681058883667e-01 9.116639941930770874e-02 1.503954529762268066e-01
3.350415527820587158e-01 1.169069111347198486e-01 1.090778708457946777e-01
9.609238803386688232e-02 1.087485924363136292e-01 1.373350918292999268e-01
3.307229280471801758e-01 1.001138836145401001e-01 -3.045900762081146240e-01
2.486964911222457886e-01 1.182312294840812683e-01 1.856451183557510376e-01
1.016059070825576782e-01 1.000318601727485657e-01 2.470603212714195251e-02
2.566124796867370605e-01 9.285007417201995850e-02 -2.254578471183776855e-01
2.576250433921813965e-01 8.786682784557342529e-02 -1.080374866724014282e-01
1.940392255783081055e-01 1.236144006252288818e-01 1.153046935796737671e-01
2.174353748559951782e-01 1.267627179622650146e-01 1.699015125632286072e-02
1.327190101146697998e-01 1.179440543055534363e-01 -1.459510773420333862e-01
2.275871038436889648e-01 1.234442219138145447e-01 1.201671063899993896e-01
1.656925678253173828e-01 9.104226529598236084e-02 2.229023724794387817e-03
3.205899596214294434e-01 1.242340058088302612e-01 -2.523441612720489502e-02
2.039663493633270264e-01 1.246577203273773193e-01 9.327870607376098633e-02
3.589417934417724609e-01 1.200200617313385010e-01 -2.936419099569320679e-03
2.794445753097534180e-01 8.691571652889251709e-02 -5.907805263996124268e-02
3.267774283885955811e-01 9.944197535514831543e-02 1.722205132246017456e-01
2.110837548971176147e-01 1.264860332012176514e-01 3.005652502179145813e-02
3.784591555595397949e-01 9.267242252826690674e-02 -1.573625952005386353e-01
3.806818723678588867e-01 9.372948110103607178e-02 -1.805538237094879150e-01
3.634347021579742432e-01 1.203012466430664062e-01 -1.741485148668289185e-01
2.799808979034423828e-01 8.880964666604995728e-02 -1.537341624498367310e-01
2.166444510221481323e-01 1.272283047437667847e-01 -5.236729979515075684e-02
2.392134368419647217e-01 9.322904795408248901e-02 1.813411861658096313e-01
1.710475087165832520e-01 1.257474720478057861e-01 -3.907202556729316711e-02
3.000862598419189453e-01 1.229307726025581360e-01 6.663212180137634277e-02
1.360573768615722656e-01 9.962954372167587280e-02 -1.380843371152877808e-01
3.650577068328857422e-01 1.193807125091552734e-01 -1.980305761098861694e-01
3.690721392631530762e-01 9.316056221723556519e-02 -1.941146701574325562e-01
2.763441205024719238e-01 1.256794631481170654e-01 -1.600565910339355469e-01
2.153566181659698486e-01 1.258948743343353271e-01 5.710134282708168030e-02
3.363814651966094971e-01 1.235343664884567261e-01 -1.255514770746231079e-01
4.007200002670288086e-01 9.765053540468215942e-02 -1.980905532836914062e-01
2.596464455127716064e-01 1.258114576339721680e-01 -1.624625772237777710e-01
3.953468799591064453e-01 1.164145544171333313e-01 -8.218957483768463135e-02
1.771697700023651123e-01 9.700299799442291260e-02 2.030418664216995239e-01
3.182991445064544678e-01 9.697233140468597412e-02 -2.847471237182617188e-01
4.125055968761444092e-01 1.122347414493560791e-01 -1.534405201673507690e-01
4.154924750328063965e-01 1.088588833808898926e-01 -3.721206635236740112e-02
2.549202442169189453e-01 8.736838400363922119e-02 -7.882651686668395996e-02
2.122667133808135986e-01 8.809875696897506714e-02 -9.608417749404907227e-04
1.116972565650939941e-01 1.200486943125724792e-01 -6.316654384136199951e-03
1.618809700012207031e-01 1.191577464342117310e-01 1.712696403264999390e-01
3.294153809547424316e-01 8.801434189081192017e-02 -7.193623483180999756e-02
2.973722219467163086e-01 1.211766973137855530e-01 1.052309572696685791e-01
3.651876449584960938e-01 9.026496112346649170e-02 -6.250824779272079468e-02
3.851376771926879883e-01 9.318299591541290283e-02 -2.042164653539657593e-02
3.987800776958465576e-01 1.056398898363113403e-01 4.686288163065910339e-02
2.831750512123107910e-01 1.211646050214767456e-01 1.222041845321655273e-01
1.836150586605072021e-01 9.157258272171020508e-02 1.220698654651641846e-01
2.610485851764678955e-01 9.043011814355850220e-02 1.342315375804901123e-01
2.746747136116027832e-01 1.237322911620140076e-01 -2.152444124221801758e-01
3.498599231243133545e-01 1.198019236326217651e-01 3.137442842125892639e-02
1.028098762035369873e-01 1.111401095986366272e-01 1.523242294788360596e-01
1.451833844184875488e-01 9.316562861204147339e-02 5.597573891282081604e-02
2.201474606990814209e-01 9.113757312297821045e-02 -1.612751930952072144e-01
3.277682363986968994e-01 8.919835090637207031e-02 3.969140723347663879e-02
2.162708640098571777e-01 9.877558052539825439e-02 -2.588310837745666504e-01
3.081036210060119629e-01 1.210501864552497864e-01 9.225064516067504883e-02
3.596878647804260254e-01 1.215514838695526123e-01 -9.299835562705993652e-02
1.769147515296936035e-01 9.202191233634948730e-02 -1.010558903217315674e-01
2.144463360309600830e-01 8.816514909267425537e-02 -3.676583990454673767e-02
1.102893501520156860e-01 1.196045652031898499e-01 -2.186033502221107483e-02
1.459701657295227051e-01 1.216265112161636353e-01 1.121336668729782104e-01
3.247615396976470947e-01 1.214649975299835205e-01 5.455176159739494324e-02
3.320426344871520996e-01 8.991669863462448120e-02 -1.672759056091308594e-01
3.300151824951171875e-01 1.130920201539993286e-01 1.518530100584030151e-01
3.252550065517425537e-01 1.198340430855751038e-01 8.484172821044921875e-02
1.985841542482376099e-01 9.517418593168258667e-02 -2.009552121162414551e-01
2.215645760297775269e-01 9.315243363380432129e-02 -2.001736313104629517e-01
2.498452216386795044e-01 8.786892145872116089e-02 6.424681842327117920e-02
1.403386294841766357e-01 1.202991381287574768e-01 1.296574175357818604e-01
2.311067581176757812e-01 9.101806581020355225e-02 -1.720572710037231445e-01
2.346810102462768555e-01 1.263395845890045166e-01 -1.389249414205551147e-01
1.311918646097183228e-01 1.219521313905715942e-01 6.410603225231170654e-02
3.447049856185913086e-01 8.975780010223388672e-02 1.745403558015823364e-02
1.164362430572509766e-01 1.006629690527915955e-01 1.499109864234924316e-01
1.655218005180358887e-01 1.111554503440856934e-01 2.329794317483901978e-01
2.654577791690826416e-01 8.694168180227279663e-02 -5.494625121355056763e-02
3.018030524253845215e-01 9.394109249114990234e-02 -2.537801861763000488e-01
1.322656273841857910e-01 9.456387162208557129e-02 3.078499808907508850e-02
3.342295289039611816e-01 1.237202137708663940e-01 -6.425891816616058350e-02
3.556432425975799561e-01 9.005786478519439697e-02 -8.532490581274032593e-03
2.063841223716735840e-01 9.052972495555877686e-02 -1.248465627431869507e-01
1.151046603918075562e-01 1.053559556603431702e-01 -1.307353526353836060e-01
2.241259366273880005e-01 9.556726366281509399e-02 2.069939076900482178e-01
2.720564901828765869e-01 8.683253824710845947e-02 -1.005432941019535065e-02
4.072853326797485352e-01 1.139414981007575989e-01 -9.244378656148910522e-02
1.392762959003448486e-01 1.234748736023902893e-01 1.326405629515647888e-02
4.110396504402160645e-01 9.991583228111267090e-02 -1.518115215003490448e-02
2.437506169080734253e-01 1.168882250785827637e-01 2.006577700376510620e-01
3.708649277687072754e-01 9.678588807582855225e-02 8.388555049896240234e-02
3.780453205108642578e-01 1.190365403890609741e-01 -6.618471443653106689e-02
3.508950769901275635e-01 1.111924275755882263e-01 1.315887868404388428e-01
2.792460322380065918e-01 1.229111030697822571e-01 9.516948461532592773e-02
1.762783676385879517e-01 9.575688093900680542e-02 1.886179745197296143e-01
3.634278178215026855e-01 1.185447052121162415e-01 1.909854635596275330e-02
2.300334721803665161e-01 9.543512761592864990e-02 -2.392666190862655640e-01
1.674932986497879028e-01 1.246119365096092224e-01 6.181005015969276428e-02
2.280348837375640869e-01 1.176696121692657471e-01 1.991654634475708008e-01
1.967386752367019653e-01 9.848049283027648926e-02 2.253914624452590942e-01
1.753704845905303955e-01 9.072080999612808228e-02 -4.436368495225906372e-02
3.700020313262939453e-01 1.198890209197998047e-01 -5.162332206964492798e-02
2.461758404970169067e-01 8.755356818437576294e-02 4.628604277968406677e-02
2.777218222618103027e-01 1.250621676445007324e-01 -1.806014776229858398e-01
3.328733444213867188e-01 9.570643305778503418e-02 1.403287202119827271e-01
2.109973579645156860e-01 8.950150012969970703e-02 -1.012019217014312744e-01
2.996224462985992432e-01 8.788985759019851685e-02 -1.196313053369522095e-01
2.956797778606414795e-01 8.700820803642272949e-02 -2.099006436765193939e-02
3.020320832729339600e-01 9.806928783655166626e-02 1.911788284778594971e-01
2.358084619045257568e-01 8.729088306427001953e-02 -1.624708063900470734e-02
1.457228660583496094e-01 1.173317059874534607e-01 1.778641939163208008e-01
1.098726540803909302e-01 1.181151419878005981e-01 9.532660245895385742e-02
3.317339718341827393e-01 1.230541318655014038e-01 -1.729061156511306763e-01
3.211487829685211182e-01 1.223767921328544617e-01 -2.125528603792190552e-01
1.628094315528869629e-01 1.226316392421722412e-01 1.136470884084701538e-01
3.621724843978881836e-01 1.056110560894012451e-01 -3.054196834564208984e-01
1.887703835964202881e-01 1.265332847833633423e-01 -1.489741355180740356e-02
1.015339046716690063e-01 1.002898961305618286e-01 5.203325301408767700e-03
3.909415304660797119e-01 9.475771337747573853e-02 -3.945276141166687012e-03
1.839181780815124512e-01 1.167226284742355347e-01 2.075459659099578857e-01
3.704279661178588867e-01 9.088480472564697266e-02 -4.532995447516441345e-02
1.374395489692687988e-01 1.225741431117057800e-01 -6.897606700658798218e-02
2.989789545536041260e-01 1.152858063578605652e-01 1.732981204986572266e-01
2.455760389566421509e-01 8.727759122848510742e-02 -5.587868764996528625e-02
3.846153318881988525e-01 9.850415587425231934e-02 6.533966958522796631e-02
1.501039713621139526e-01 9.266699850559234619e-02 -1.250562816858291626e-02
1.284233033657073975e-01 1.182173117995262146e-01 -1.315785050392150879e-01
8.803267776966094971e-02 1.044830381870269775e-01 3.815571591258049011e-02
3.756346106529235840e-01 9.148497879505157471e-02 -1.148480772972106934e-01
1.917588859796524048e-01 1.262105852365493774e-01 -8.880866318941116333e-02
2.916125655174255371e-01 9.039454907178878784e-02 1.163944602012634277e-01
3.403722941875457764e-01 9.518100321292877197e-02 1.246444880962371826e-01
1.520230174064636230e-01 9.365496039390563965e-02 -7.063887268304824829e-02
2.684553563594818115e-01 9.328994899988174438e-02 1.741526424884796143e-01
2.548922896385192871e-01 1.251572221517562866e-01 6.505998969078063965e-02
1.233289241790771484e-01 1.201772168278694153e-01 -8.152888715267181396e-02
3.660358786582946777e-01 9.073139727115631104e-02 -2.450495585799217224e-02
1.744518280029296875e-01 1.191274747252464294e-01 -2.118372768163681030e-01
3.262893259525299072e-01 1.162173226475715637e-01 -2.945509850978851318e-01
2.269119769334793091e-01 1.265973895788192749e-01 -1.225788444280624390e-01
1.851760447025299072e-01 1.261339932680130005e-01 1.779275387525558472e-02
2.276500761508941650e-01 8.801297843456268311e-02 -6.908832490444183350e-02
2.418913394212722778e-01 8.968712389469146729e-02 -1.525983512401580811e-01
2.907142639160156250e-01 1.253922283649444580e-01 -1.572869569063186646e-01
3.190971612930297852e-01 8.761049062013626099e-02 -3.018324077129364014e-02
3.981436789035797119e-01 1.117285788059234619e-01 1.213582977652549744e-02
-3.050391674041748047e-01 -4.129114747047424316e-01 -2.863144874572753906e-01
-2.412169575691223145e-01 -5.797100067138671875e-01 -3.535040616989135742e-01
-3.156762421131134033e-01 -6.993986368179321289e-01 -3.263043165206909180e-01
-3.060442805290222168e-01 -5.806356668472290039e-01 -2.544847428798675537e-01
-3.218519985675811768e-01 -5.586672425270080566e-01 -2.936973571777343750e-01
-2.544150352478027344e-01 -3.143823742866516113e-01 -2.960128784179687500e-01
-2.747241258621215820e-01 -7.151081562042236328e-01 -2.615184485912322998e-01
-2.762504220008850098e-01 -4.371042847633361816e-01 -3.335652649402618408e-01
-2.415265738964080811e-01 -3.938169479370117188e-01 -2.563695907592773438e-01
-2.544755935668945312e-01 -3.266272544860839844e-01 -3.045251667499542236e-01
-2.889064848423004150e-01 -7.981988191604614258e-01 -3.455523252487182617e-01
-2.608501315116882324e-01 -5.131523609161376953e-01 -3.501860499382019043e-01
-2.958689928054809570e-01 -8.046432733535766602e-01 -2.866366803646087646e-01
-2.953516840934753418e-01 -7.943890690803527832e-01 -2.826836705207824707e-01
