4.313580393791198730e-01 -6.133725047111511230e-01 -3.851355016231536865e-01
4.069968461990356445e-01 -5.035785436630249023e-01 -3.076840937137603760e-01
3.278107941150665283e-01 -4.265131354331970215e-01 -4.960980117321014404e-01
4.020167887210845947e-01 -4.947188794612884521e-01 -4.921883344650268555e-01
3.890179395675659180e-01 -3.295851349830627441e-01 -3.205374479293823242e-01
2.698850333690643311e-01 -3.445282280445098877e-01 -3.778783380985260010e-01
2.683375775814056396e-01 -3.783677220344543457e-01 -3.416969776153564453e-01
2.341885417699813843e-01 -5.014934539794921875e-01 -3.658255934715270996e-01
2.362136691808700562e-01 -4.763738811016082764e-01 -3.676967322826385498e-01
2.791144847869873047e-01 -6.293839812278747559e-01 -3.173507452011108398e-01
2.806300520896911621e-01 -3.847170770168304443e-01 -4.562290310859680176e-01
3.114683032035827637e-01 -6.279894113540649414e-01 -4.870238304138183594e-01
4.077107012271881104e-01 -4.028524458408355713e-01 -4.813683629035949707e-01
3.143788874149322510e-01 -3.743672966957092285e-01 -3.039623498916625977e-01
4.066042900085449219e-01 -6.289516091346740723e-01 -4.592778086662292480e-01
3.996535837650299072e-01 -6.200497150421142578e-01 -4.704470634460449219e-01
4.144764542579650879e-01 -5.329660773277282715e-01 -4.807864427566528320e-01
3.104547560214996338e-01 -5.298563838005065918e-01 -2.883671522140502930e-01
2.677124440670013428e-01 -6.798714399337768555e-01 -3.515763282775878906e-01
2.981052398681640625e-01 -3.542422056198120117e-01 -3.206261992454528809e-01
2.591930329799652100e-01 -5.892298221588134766e-01 -4.609467089176177979e-01
2.732850313186645508e-01 -5.990427732467651367e-01 -3.133083581924438477e-01
3.482022881507873535e-01 -2.759436368942260742e-01 -3.469650149345397949e-01
3.681647181510925293e-01 -4.309703111648559570e-01 -2.903265058994293213e-01
4.285815656185150146e-01 -5.354834794998168945e-01 -4.659257531166076660e-01
3.031379282474517822e-01 -4.255744218826293945e-01 -2.963036894798278809e-01
3.678775429725646973e-01 -4.449259340763092041e-01 -5.011158585548400879e-01
4.561452865600585938e-01 -4.494989216327667236e-01 -3.875668942928314209e-01
3.937839865684509277e-01 -2.639073729515075684e-01 -3.961243629455566406e-01
2.756658196449279785e-01 -4.322206079959869385e-01 -4.678706228733062744e-01
3.356105387210845947e-01 -2.834295928478240967e-01 -3.440577387809753418e-01
2.650983929634094238e-01 -3.581222891807556152e-01 -3.711496591567993164e-01
3.751211166381835938e-01 -6.512539982795715332e-01 -3.249384760856628418e-01
3.901028931140899658e-01 -2.719719409942626953e-01 -3.621326684951782227e-01
4.494273662567138672e-01 -4.946456253528594971e-01 -4.361791014671325684e-01
4.098545312881469727e-01 -2.834227085113525391e-01 -3.737843930721282959e-01
3.137115836143493652e-01 -3.068537712097167969e-01 -4.414962828159332275e-01
4.300147294998168945e-01 -5.194069743156433105e-01 -4.669427871704101562e-01
4.032783508300781250e-01 -2.845539748668670654e-01 -4.269412457942962646e-01
3.635427057743072510e-01 -6.569854617118835449e-01 -4.766803383827209473e-01
4.566431045532226562e-01 -4.713531434535980225e-01 -4.020428955554962158e-01
3.827101588249206543e-01 -6.677542328834533691e-01 -3.399948775768280029e-01
2.665525376796722412e-01 -4.475479125976562500e-01 -4.622053802013397217e-01
4.013233780860900879e-01 -6.826781034469604492e-01 -3.910117745399475098e-01
3.258238434791564941e-01 -2.720971703529357910e-01 -3.678762614727020264e-01
2.544535398483276367e-01 -6.356838941574096680e-01 -4.419941008090972900e-01
3.898814320564270020e-01 -6.189084053039550781e-01 -3.210797905921936035e-01
4.439694881439208984e-01 -5.056354999542236328e-01 -3.533666133880615234e-01
2.551287412643432617e-01 -4.205265343189239502e-01 -3.420217335224151611e-01
2.492305338382720947e-01 -4.009419977664947510e-01 -3.936582207679748535e-01
4.363246858119964600e-01 -3.354968726634979248e-01 -3.726613819599151611e-01
3.183546662330627441e-01 -4.966461956501007080e-01 -5.011629462242126465e-01
3.635593652725219727e-01 -5.819219350814819336e-01 -4.980226457118988037e-01
2.447493672370910645e-01 -6.444474458694458008e-01 -3.712542355060577393e-01
4.160300195217132568e-01 -5.134792327880859375e-01 -4.817045927047729492e-01
3.779755830764770508e-01 -5.095810294151306152e-01 -2.921639680862426758e-01
3.718300461769104004e-01 -6.046131849288940430e-01 -4.910853207111358643e-01
3.281683623790740967e-01 -6.241760253906250000e-01 -4.912093281745910645e-01
2.856717705726623535e-01 -4.482056796550750732e-01 -3.017404675483703613e-01
3.752873837947845459e-01 -6.684799790382385254e-01 -4.653326272964477539e-01
3.683179914951324463e-01 -4.761370718479156494e-01 -2.880425453186035156e-01
2.904097735881805420e-01 -5.040779113769531250e-01 -4.896156191825866699e-01
3.190626502037048340e-01 -4.538806974887847900e-01 -4.977765083312988281e-01
3.185110986232757568e-01 -3.263738751411437988e-01 -4.585733413696289062e-01
4.430435299873352051e-01 -5.617167949676513672e-01 -4.271856546401977539e-01
4.042998254299163818e-01 -5.877158641815185547e-01 -4.776565432548522949e-01
4.474363923072814941e-01 -3.666798472404479980e-01 -4.095788896083831787e-01
2.840926945209503174e-01 -3.440437912940979004e-01 -4.363555610179901123e-01
3.512955904006958008e-01 -4.012475311756134033e-01 -2.919727563858032227e-01
3.732960224151611328e-01 -7.079932689666748047e-01 -3.671041131019592285e-01
2.781061828136444092e-01 -6.461598873138427734e-01 -3.238616585731506348e-01
3.302014768123626709e-01 -5.990757346153259277e-01 -2.954928278923034668e-01
3.809112906455993652e-01 -7.108484506607055664e-01 -3.914287090301513672e-01
3.578564226627349854e-01 -3.270197510719299316e-01 -3.134987354278564453e-01
3.788295984268188477e-01 -5.345066785812377930e-01 -5.000053048133850098e-01
3.233481943607330322e-01 -6.604731082916259766e-01 -4.795038104057312012e-01
4.319657385349273682e-01 -3.928031623363494873e-01 -3.368312418460845947e-01
2.468319237232208252e-01 -4.225689172744750977e-01 -3.624553084373474121e-01
3.239204585552215576e-01 -2.914665937423706055e-01 -3.433232009410858154e-01
3.839015662670135498e-01 -4.392456710338592529e-01 -2.945524156093597412e-01
2.636483311653137207e-01 -5.391576290130615234e-01 -4.697544872760772705e-01
4.357380270957946777e-01 -4.401087462902069092e-01 -3.352111577987670898e-01
2.768989801406860352e-01 -4.118604958057403564e-01 -4.629318118095397949e-01
2.952966690063476562e-01 -3.151673674583435059e-01 -4.268144667148590088e-01
4.116460680961608887e-01 -6.412218809127807617e-01 -3.583732843399047852e-01
4.511683583259582520e-01 -4.736564457416534424e-01 -4.339628219604492188e-01
2.942475080490112305e-01 -6.901220083236694336e-01 -3.359995186328887939e-01
3.288406431674957275e-01 -4.072325229644775391e-01 -2.921345233917236328e-01
4.481591582298278809e-01 -5.503762364387512207e-01 -3.938854336738586426e-01
4.138178825378417969e-01 -4.731400609016418457e-01 -4.847903251647949219e-01
2.634345293045043945e-01 -3.703909218311309814e-01 -3.591997921466827393e-01
2.415302693843841553e-01 -5.557122230529785156e-01 -4.381022453308105469e-01
3.137989640235900879e-01 -5.666818618774414062e-01 -4.980538487434387207e-01
4.567393660545349121e-01 -4.500853419303894043e-01 -4.048800170421600342e-01
4.294689893722534180e-01 -5.492658019065856934e-01 -4.615454971790313721e-01
4.051195979118347168e-01 -2.963396310806274414e-01 -4.372669458389282227e-01
4.327275753021240234e-01 -4.185444116592407227e-01 -4.627994298934936523e-01
4.186201393604278564e-01 -6.481703519821166992e-01 -4.154652357101440430e-01
3.566835820674896240e-01 -4.536042213439941406e-01 -2.864419519901275635e-01
3.424454033374786377e-01 -4.138380587100982666e-01 -2.897678911685943604e-01
3.599756956100463867e-01 -6.805667877197265625e-01 -4.663386046886444092e-01
2.670854628086090088e-01 -5.089941620826721191e-01 -3.098610043525695801e-01
2.589850127696990967e-01 -3.699598014354705811e-01 -3.889710605144500732e-01
3.592796325683593750e-01 -3.750206530094146729e-01 -2.980648577213287354e-01
4.224191308021545410e-01 -4.370183944702148438e-01 -4.758381247520446777e-01
3.687634766101837158e-01 -6.960995197296142578e-01 -3.492604196071624756e-01
3.048175871372222900e-01 -4.689738154411315918e-01 -4.941595792770385742e-01
3.960376977920532227e-01 -5.292267203330993652e-01 -4.934145212173461914e-01
2.958045899868011475e-01 -2.982755303382873535e-01 -3.843545317649841309e-01
4.035617113113403320e-01 -6.574528217315673828e-01 -4.441278278827667236e-01
2.679091691970825195e-01 -4.609218239784240723e-01 -3.135992884635925293e-01
2.977888882160186768e-01 -4.834212660789489746e-01 -2.921250462532043457e-01
3.887843489646911621e-01 -6.931947469711303711e-01 -3.722580075263977051e-01
3.903619945049285889e-01 -6.552208662033081055e-01 -3.393043577671051025e-01
3.361909091472625732e-01 -2.998074293136596680e-01 -3.305224180221557617e-01
3.571881353855133057e-01 -6.106458902359008789e-01 -4.933999478816986084e-01
4.157256484031677246e-01 -3.553812801837921143e-01 -3.293390572071075439e-01
3.840519487857818604e-01 -2.598510384559631348e-01 -3.806999027729034424e-01
3.401325047016143799e-01 -3.444997668266296387e-01 -4.760910868644714355e-01
4.263647794723510742e-01 -4.466964304447174072e-01 -3.233539760112762451e-01
2.357203066349029541e-01 -6.126268506050109863e-01 -3.970221281051635742e-01
3.709091246128082275e-01 -2.643683552742004395e-01 -3.610263764858245850e-01
4.128243327140808105e-01 -4.764529764652252197e-01 -3.106218278408050537e-01
3.330731987953186035e-01 -5.567981600761413574e-01 -2.882499694824218750e-01
2.447517812252044678e-01 -4.321442842483520508e-01 -4.145013689994812012e-01
2.607524096965789795e-01 -4.365869164466857910e-01 -3.270435929298400879e-01
2.967102229595184326e-01 -5.238416790962219238e-01 -2.922916710376739502e-01
3.517946898937225342e-01 -3.592477440834045410e-01 -3.017897307872772217e-01
3.819784522056579590e-01 -6.989492774009704590e-01 -4.337069988250732422e-01
4.001610577106475830e-01 -6.764818429946899414e-01 -3.729809224605560303e-01
2.607940435409545898e-01 -3.771924972534179688e-01 -4.166302084922790527e-01
2.823409438133239746e-01 -7.069250345230102539e-01 -4.334076642990112305e-01
4.542069435119628906e-01 -5.088887214660644531e-01 -3.996786773204803467e-01
3.273190259933471680e-01 -4.855450987815856934e-01 -2.847151160240173340e-01
4.407465159893035889e-01 -3.401297628879547119e-01 -3.866712450981140137e-01
3.293488919734954834e-01 -7.153069972991943359e-01 -4.494201242923736572e-01
3.472442328929901123e-01 -6.093882322311401367e-01 -2.994968295097351074e-01
2.695879936218261719e-01 -7.069247961044311523e-01 -3.826889693737030029e-01
3.575278520584106445e-01 -3.045217990875244141e-01 -4.590860903263092041e-01
3.866209387779235840e-01 -4.153252243995666504e-01 -2.980118989944458008e-01
3.313375413417816162e-01 -6.252979040145874023e-01 -3.021861314773559570e-01
3.995257914066314697e-01 -5.744444727897644043e-01 -4.844692349433898926e-01
3.841311931610107422e-01 -3.666424155235290527e-01 -4.826656579971313477e-01
2.494632154703140259e-01 -6.679611802101135254e-01 -3.884208798408508301e-01
2.610215544700622559e-01 -5.994482040405273438e-01 -3.238022923469543457e-01
3.845640420913696289e-01 -3.974505066871643066e-01 -2.998144626617431641e-01
4.184106290340423584e-01 -3.051789402961730957e-01 -3.613201081752777100e-01
2.329162657260894775e-01 -4.993185102939605713e-01 -4.044108688831329346e-01
3.379671573638916016e-01 -5.501159429550170898e-01 -5.036268234252929688e-01
2.816876471042633057e-01 -4.956474900245666504e-01 -2.997014522552490234e-01
2.871744036674499512e-01 -6.004174947738647461e-01 -3.054122924804687500e-01
4.452689886093139648e-01 -5.570094585418701172e-01 -3.812666833400726318e-01
4.288562536239624023e-01 -5.311667323112487793e-01 -3.335634171962738037e-01
4.295710623264312744e-01 -4.264728426933288574e-01 -3.283659219741821289e-01
4.407370984554290771e-01 -3.540827929973602295e-01 -3.692102730274200439e-01
3.046432435512542725e-01 -7.129015326499938965e-01 -3.482557535171508789e-01
3.115843236446380615e-01 -7.391844987869262695e-01 -3.825339674949645996e-01
2.365964353084564209e-01 -6.110645532608032227e-01 -3.756945431232452393e-01
3.501426875591278076e-01 -3.255208730697631836e-01 -4.696170389652252197e-01
3.785431087017059326e-01 -3.958529233932495117e-01 -4.914779365062713623e-01
2.938722372055053711e-01 -3.923454880714416504e-01 -4.713557064533233643e-01
3.211947083473205566e-01 -5.873097777366638184e-01 -4.973279833793640137e-01
4.215401411056518555e-01 -4.954680204391479492e-01 -4.781963825225830078e-01
2.324995398521423340e-01 -5.800250768661499023e-01 -4.035716652870178223e-01
2.785301804542541504e-01 -3.264396488666534424e-01 -3.957999646663665771e-01
2.805199325084686279e-01 -3.228138387203216553e-01 -3.803058862686157227e-01
2.898013293743133545e-01 -4.307997226715087891e-01 -4.792919456958770752e-01
2.592363357543945312e-01 -6.125430464744567871e-01 -3.291150927543640137e-01
3.638893067836761475e-01 -5.366001129150390625e-01 -5.033771991729736328e-01
3.245234787464141846e-01 -4.525358378887176514e-01 -2.867698967456817627e-01
4.359404146671295166e-01 -5.155700445175170898e-01 -3.406204581260681152e-01
2.746318280696868896e-01 -4.125206768512725830e-01 -3.184084594249725342e-01
3.151916861534118652e-01 -6.834541559219360352e-01 -3.258642554283142090e-01
3.958062529563903809e-01 -5.512750148773193359e-01 -4.909222126007080078e-01
4.527486562728881836e-01 -4.564961493015289307e-01 -4.293888211250305176e-01
4.542325139045715332e-01 -4.969411194324493408e-01 -4.157465100288391113e-01
3.823260962963104248e-01 -4.728507399559020996e-01 -5.001450777053833008e-01
2.640723288059234619e-01 -4.710302948951721191e-01 -4.644691944122314453e-01
3.443138897418975830e-01 -6.706635951995849609e-01 -4.754275679588317871e-01
3.567674756050109863e-01 -5.560201406478881836e-01 -2.907148599624633789e-01
4.097799062728881836e-01 -5.651504993438720703e-01 -3.204087018966674805e-01
4.292038977146148682e-01 -5.894182920455932617e-01 -3.559236824512481689e-01
3.755955696105957031e-01 -5.156412720680236816e-01 -5.020622014999389648e-01
2.517147660255432129e-01 -6.550223827362060547e-01 -3.603367209434509277e-01
3.262953758239746094e-01 -6.810667514801025391e-01 -4.710505902767181396e-01
3.480448126792907715e-01 -5.810073614120483398e-01 -2.932413816452026367e-01
3.971213698387145996e-01 -4.827144742012023926e-01 -2.999956905841827393e-01
3.689701855182647705e-01 -2.543446123600006104e-01 -3.929183781147003174e-01
4.441780447959899902e-01 -4.267081618309020996e-01 -4.471695423126220703e-01
3.042793571949005127e-01 -6.574567556381225586e-01 -3.160499334335327148e-01
3.683480322360992432e-01 -7.200369834899902344e-01 -3.803775608539581299e-01
4.159380495548248291e-01 -5.606376528739929199e-01 -4.743899405002593994e-01
4.165725409984588623e-01 -5.750112533569335938e-01 -3.304282128810882568e-01
2.857799828052520752e-01 -3.183627426624298096e-01 -3.669679760932922363e-01
3.674691021442413330e-01 -6.291175484657287598e-01 -4.856662154197692871e-01
4.176611900329589844e-01 -6.528075933456420898e-01 -4.022347033023834229e-01
3.026711046695709229e-01 -3.154195547103881836e-01 -3.409096896648406982e-01
2.982504665851593018e-01 -3.557226657867431641e-01 -4.595932364463806152e-01
2.319195270538330078e-01 -5.542483329772949219e-01 -3.717270791530609131e-01
4.215464591979980469e-01 -3.895079791545867920e-01 -4.682133197784423828e-01
3.077753186225891113e-01 -6.049727797508239746e-01 -2.992401719093322754e-01
4.404706656932830811e-01 -4.020723700523376465e-01 -3.478399813175201416e-01
3.285266160964965820e-01 -5.361437201499938965e-01 -2.862343788146972656e-01
4.532045125961303711e-01 -4.971391558647155762e-01 -3.794815540313720703e-01
3.721425235271453857e-01 -7.205917239189147949e-01 -3.964639008045196533e-01
2.467615306377410889e-01 -5.545676350593566895e-01 -3.339906930923461914e-01
3.745065331459045410e-01 -2.603684663772583008e-01 -4.140633344650268555e-01
3.967173397541046143e-01 -6.656031012535095215e-01 -3.545145988464355469e-01
4.345297217369079590e-01 -3.622156977653503418e-01 -4.433509409427642822e-01
2.419796586036682129e-01 -4.633169472217559814e-01 -3.530963957309722900e-01
3.157612383365631104e-01 -6.071758270263671875e-01 -4.927634000778198242e-01
2.426447868347167969e-01 -4.477418065071105957e-01 -4.182814359664916992e-01
2.808701694011688232e-01 -5.864924192428588867e-01 -4.805478453636169434e-01
3.123759329319000244e-01 -5.216959118843078613e-01 -4.998387098312377930e-01
4.094853997230529785e-01 -3.832944035530090332e-01 -3.163492977619171143e-01
3.330434858798980713e-01 -3.573155999183654785e-01 -4.791607856750488281e-01
3.896798789501190186e-01 -6.097482442855834961e-01 -4.813748598098754883e-01
4.187967479228973389e-01 -3.357245922088623047e-01 -3.406997919082641602e-01
2.395417988300323486e-01 -5.060780644416809082e-01 -3.479794263839721680e-01
3.878607749938964844e-01 -3.843191564083099365e-01 -4.863240122795104980e-01
3.863554596900939941e-01 -5.334895253181457520e-01 -2.981777787208557129e-01
2.358740270137786865e-01 -4.861769974231719971e-01 -4.136974215507507324e-01
3.574347794055938721e-01 -3.801532387733459473e-01 -4.899182319641113281e-01
4.160794615745544434e-01 -3.213549256324768066e-01 -4.450255334377288818e-01
3.311831057071685791e-01 -3.229928016662597656e-01 -3.184790313243865967e-01
3.604602515697479248e-01 -5.991197824478149414e-01 -3.000683784484863281e-01
4.247932732105255127e-01 -3.361234366893768311e-01 -4.436905384063720703e-01
2.337875962257385254e-01 -4.832040667533874512e-01 -3.984663784503936768e-01
2.644262313842773438e-01 -6.385465860366821289e-01 -4.543538093566894531e-01
3.404326736927032471e-01 -6.676751375198364258e-01 -3.188527822494506836e-01
3.940580487251281738e-01 -3.444864153861999512e-01 -3.174035549163818359e-01
2.424628138542175293e-01 -5.073048472404479980e-01 -4.379755556583404541e-01
3.306769728660583496e-01 -3.920327425003051758e-01 -4.893242418766021729e-01
2.982378304004669189e-01 -4.658478796482086182e-01 -2.931256592273712158e-01
3.256480693817138672e-01 -7.370812296867370605e-01 -3.742471933364868164e-01
4.418407976627349854e-01 -5.539804100990295410e-01 -3.660760819911956787e-01
4.509261548519134521e-01 -3.821378052234649658e-01 -4.041543006896972656e-01
3.812975287437438965e-01 -6.918048858642578125e-01 -3.582977652549743652e-01
4.243097603321075439e-01 -3.100813031196594238e-01 -4.228131175041198730e-01
3.652234673500061035e-01 -5.259891748428344727e-01 -2.892898321151733398e-01
2.620843648910522461e-01 -5.267146229743957520e-01 -3.142522573471069336e-01
2.547459602355957031e-01 -3.845249414443969727e-01 -3.759840130805969238e-01
3.399619758129119873e-01 -3.474780023097991943e-01 -3.062346577644348145e-01
3.442597687244415283e-01 -5.205215215682983398e-01 -2.852745652198791504e-01
4.456980228424072266e-01 -4.590633511543273926e-01 -4.473565220832824707e-01
4.243753850460052490e-01 -6.072632074356079102e-01 -3.573792874813079834e-01
3.455630540847778320e-01 -4.495596289634704590e-01 -5.023031830787658691e-01
3.881129324436187744e-01 -3.258762955665588379e-01 -4.660106003284454346e-01
3.086830675601959229e-01 -3.191623091697692871e-01 -4.465994536876678467e-01
4.379692375659942627e-01 -3.455632925033569336e-01 -4.256947636604309082e-01
4.262830317020416260e-01 -3.095555901527404785e-01 -3.741676509380340576e-01
3.118149936199188232e-01 -2.936060130596160889e-01 -3.524644076824188232e-01
2.906866669654846191e-01 -3.474200963973999023e-01 -3.308330178260803223e-01
4.405292868614196777e-01 -4.380535185337066650e-01 -4.549223184585571289e-01
3.851794302463531494e-01 -5.904005169868469238e-01 -3.086696267127990723e-01
3.357667922973632812e-01 -3.786882758140563965e-01 -2.973414957523345947e-01
4.452380537986755371e-01 -4.059467315673828125e-01 -4.403727948665618896e-01
2.662777602672576904e-01 -6.054407954216003418e-01 -4.654863476753234863e-01
2.857862412929534912e-01 -3.159888684749603271e-01 -4.042117893695831299e-01
4.310168027877807617e-01 -3.151484131813049316e-01 -4.089180529117584229e-01
3.361921906471252441e-01 -4.716122150421142578e-01 -5.034208893775939941e-01
3.082341551780700684e-01 -7.315955162048339844e-01 -4.268400967121124268e-01
2.343742549419403076e-01 -5.196879506111145020e-01 -4.179713428020477295e-01
3.040767014026641846e-01 -7.381087541580200195e-01 -4.073986709117889404e-01
4.388662576675415039e-01 -3.804441988468170166e-01 -4.439666867256164551e-01
4.459130764007568359e-01 -5.080239176750183105e-01 -4.424551725387573242e-01
4.507153332233428955e-01 -5.365664958953857422e-01 -4.005612730979919434e-01
2.368123233318328857e-01 -4.990004301071166992e-01 -4.218249917030334473e-01
4.407136440277099609e-01 -4.822146892547607422e-01 -4.557991325855255127e-01
3.580120205879211426e-01 -4.270226359367370605e-01 -4.995900392532348633e-01
4.317215085029602051e-01 -3.340120613574981689e-01 -4.307652711868286133e-01
4.409854710102081299e-01 -5.416460037231445312e-01 -4.438014924526214600e-01
3.759057521820068359e-01 -5.910126566886901855e-01 -4.927863478660583496e-01
4.209779500961303711e-01 -3.921886682510375977e-01 -3.243509531021118164e-01
4.245318174362182617e-01 -3.708952069282531738e-01 -4.598082602024078369e-01
2.569658756256103516e-01 -4.097266495227813721e-01 -4.331920146942138672e-01
3.788847029209136963e-01 -6.810088157653808594e-01 -3.459367752075195312e-01
3.487212657928466797e-01 -5.902388691902160645e-01 -4.986401200294494629e-01
3.063746988773345947e-01 -5.058122277259826660e-01 -2.886710762977600098e-01
4.444571137428283691e-01 -3.510165810585021973e-01 -3.993823528289794922e-01
2.567676901817321777e-01 -6.328895688056945801e-01 -3.392247855663299561e-01
2.539742588996887207e-01 -4.040951132774353027e-01 -3.546655774116516113e-01
4.146975874900817871e-01 -4.473428428173065186e-01 -3.123090565204620361e-01
2.550806999206542969e-01 -6.823948025703430176e-01 -3.914539813995361328e-01
2.789985537528991699e-01 -6.185579895973205566e-01 -4.733760058879852295e-01
3.822405338287353516e-01 -5.742951035499572754e-01 -4.936406314373016357e-01
2.996804714202880859e-01 -6.366653442382812500e-01 -4.805483818054199219e-01
2.948603034019470215e-01 -5.865961313247680664e-01 -4.885937869548797607e-01
4.194175004959106445e-01 -5.358840227127075195e-01 -3.232494890689849854e-01
2.628149688243865967e-01 -6.932903528213500977e-01 -4.126741290092468262e-01
4.487348794937133789e-01 -3.944975733757019043e-01 -3.697506189346313477e-01
4.278090298175811768e-01 -6.270639300346374512e-01 -3.944781720638275146e-01
2.786318063735961914e-01 -4.275230765342712402e-01 -3.107362389564514160e-01
2.526472806930541992e-01 -4.351387023925781250e-01 -3.402940332889556885e-01
4.118228852748870850e-01 -6.580474376678466797e-01 -4.251322150230407715e-01
2.921568155288696289e-01 -4.796633720397949219e-01 -4.887675046920776367e-01
2.863265573978424072e-01 -7.204926609992980957e-01 -3.708018958568572998e-01
2.867529094219207764e-01 -4.653016030788421631e-01 -4.835741817951202393e-01
3.578218221664428711e-01 -7.049380540847778320e-01 -3.489093184471130371e-01
3.279646635055541992e-01 -6.428471207618713379e-01 -4.860253334045410156e-01
3.611328899860382080e-01 -2.865003347396850586e-01 -4.467217326164245605e-01
2.771732211112976074e-01 -6.618375182151794434e-01 -3.313037455081939697e-01
3.570283949375152588e-01 -6.414800882339477539e-01 -4.845540821552276611e-01
3.917180001735687256e-01 -5.068507194519042969e-01 -4.968774318695068359e-01
2.911970615386962891e-01 -7.079821825027465820e-01 -3.511512279510498047e-01
4.138653278350830078e-01 -3.754719197750091553e-01 -4.706535935401916504e-01
3.735033571720123291e-01 -6.898223161697387695e-01 -4.523073136806488037e-01
2.692505717277526855e-01 -4.797373712062835693e-01 -3.098988533020019531e-01
3.572029769420623779e-01 -6.676042675971984863e-01 -3.237439692020416260e-01
2.720462083816528320e-01 -5.397868752479553223e-01 -3.063724339008331299e-01
3.205227255821228027e-01 -3.042666614055633545e-01 -3.347730934619903564e-01
3.327575623989105225e-01 -7.301547527313232422e-01 -3.642189800739288330e-01
2.419818341732025146e-01 -4.653571248054504395e-01 -4.255059063434600830e-01
2.944909930229187012e-01 -7.129849195480346680e-01 -4.393601119518280029e-01
4.033552706241607666e-01 -3.442444801330566406e-01 -4.668091833591461182e-01
2.532767951488494873e-01 -5.750690698623657227e-01 -3.276352584362030029e-01
3.691418468952178955e-01 -6.335084438323974609e-01 -3.140611946582794189e-01
2.693597078323364258e-01 -6.609473228454589844e-01 -4.505137801170349121e-01
3.654494285583496094e-01 -6.145387887954711914e-01 -3.060392737388610840e-01
4.287603795528411865e-01 -5.827807188034057617e-01 -4.505912065505981445e-01
3.251636028289794922e-01 -4.118049144744873047e-01 -4.924633204936981201e-01
2.800889015197753906e-01 -4.530506432056427002e-01 -4.765483736991882324e-01
2.593973577022552490e-01 -4.335923194885253906e-01 -4.485338926315307617e-01
3.942719101905822754e-01 -6.536746025085449219e-01 -4.586405754089355469e-01
4.529870748519897461e-01 -4.364861249923706055e-01 -4.265237152576446533e-01
2.330726683139801025e-01 -4.897343218326568604e-01 -3.796784281730651855e-01
-2.367158234119415283e-01 -6.595539450645446777e-01 -2.183067202568054199e-01
-1.344758570194244385e-01 -6.724441647529602051e-01 -2.831166386604309082e-01
-3.288097083568572998e-01 -6.600969433784484863e-01 -3.009992837905883789e-01
-2.232768386602401733e-01 -3.847575187683105469e-01 -3.857964575290679932e-01
-1.289760470390319824e-01 -6.786017417907714844e-01 -3.223550319671630859e-01
-2.131049782037734985e-01 -4.576584696769714355e-01 -4.124001264572143555e-01
-2.793706655502319336e-01 -6.452934741973876953e-01 -2.231511920690536499e-01
-3.494346737861633301e-01 -5.439713001251220703e-01 -3.664848506450653076e-01
-3.634268343448638916e-01 -5.311616659164428711e-01 -2.700240015983581543e-01
-2.282583117485046387e-01 -3.131131231784820557e-01 -3.228022456169128418e-01
-1.644173264503479004e-01 -3.820529580116271973e-01 -2.533647418022155762e-01
-3.500368595123291016e-01 -4.331263601779937744e-01 -2.347757816314697266e-01
-1.295014023780822754e-01 -4.830053746700286865e-01 -2.551795840263366699e-01
-2.370359897613525391e-01 -3.479248881340026855e-01 -3.657525181770324707e-01
-2.471125572919845581e-01 -7.091395258903503418e-01 -2.524417638778686523e-01
-1.858327686786651611e-01 -4.169452786445617676e-01 -3.846001625061035156e-01
-2.227239757776260376e-01 -4.455261826515197754e-01 -4.110439717769622803e-01
-1.666715443134307861e-01 -5.972139239311218262e-01 -4.103633165359497070e-01
-3.630264997482299805e-01 -4.258653223514556885e-01 -2.639880180358886719e-01
-2.433519512414932251e-01 -7.213371992111206055e-01 -2.629785239696502686e-01
-1.585518121719360352e-01 -4.702644348144531250e-01 -2.172468900680541992e-01
-1.783773452043533325e-01 -5.101381540298461914e-01 -1.988144516944885254e-01
-1.409786343574523926e-01 -5.496300458908081055e-01 -3.879824280738830566e-01
-3.280279934406280518e-01 -4.376706779003143311e-01 -2.101880460977554321e-01
-1.972906440496444702e-01 -6.410744190216064453e-01 -2.146061360836029053e-01
-3.460465371608734131e-01 -6.228579282760620117e-01 -3.193665444850921631e-01
-1.388195455074310303e-01 -5.616534352302551270e-01 -2.334252297878265381e-01
-3.694545626640319824e-01 -5.218949913978576660e-01 -3.015660643577575684e-01
-1.929080635309219360e-01 -4.358758926391601562e-01 -1.989947557449340820e-01
-2.661870121955871582e-01 -3.306365907192230225e-01 -2.211740911006927490e-01
-1.721060276031494141e-01 -6.879936456680297852e-01 -2.494814842939376831e-01
-1.613387614488601685e-01 -4.121457934379577637e-01 -2.346411049365997314e-01
-3.347912132740020752e-01 -4.876655936241149902e-01 -3.858313560485839844e-01
-1.678227484226226807e-01 -7.055227160453796387e-01 -3.782256841659545898e-01
-2.291607707738876343e-01 -7.417922019958496094e-01 -2.854223549365997314e-01
-3.323954939842224121e-01 -4.456071555614471436e-01 -3.805195987224578857e-01
-2.266596257686614990e-01 -4.418214857578277588e-01 -1.856645345687866211e-01
-1.939730495214462280e-01 -7.387639284133911133e-01 -3.636293113231658936e-01
-2.495481669902801514e-01 -3.159247338771820068e-01 -2.356895208358764648e-01
-1.788021922111511230e-01 -7.348058223724365234e-01 -2.918584346771240234e-01
-3.001024127006530762e-01 -6.750500798225402832e-01 -2.591244280338287354e-01
-3.099648356437683105e-01 -6.453701853752136230e-01 -2.459463626146316528e-01
-2.887403666973114014e-01 -3.706417083740234375e-01 -2.044020891189575195e-01
-2.982905209064483643e-01 -3.769075870513916016e-01 -3.769566714763641357e-01
-1.154383271932601929e-01 -5.390647649765014648e-01 -2.772819697856903076e-01
-3.707605004310607910e-01 -4.868285953998565674e-01 -3.133047223091125488e-01
-2.498568892478942871e-01 -3.106917738914489746e-01 -3.305999040603637695e-01
-3.241205513477325439e-01 -6.610276699066162109e-01 -2.845158576965332031e-01
-1.651957035064697266e-01 -3.834573626518249512e-01 -3.376022577285766602e-01
-3.218660056591033936e-01 -5.586874485015869141e-01 -2.166009694337844849e-01
-1.531747579574584961e-01 -3.900892734527587891e-01 -2.740661501884460449e-01
-3.319775760173797607e-01 -5.959238409996032715e-01 -2.416961789131164551e-01
-3.568432331085205078e-01 -5.894110798835754395e-01 -3.146381080150604248e-01
-2.100148051977157593e-01 -3.259788155555725098e-01 -3.261418342590332031e-01
-1.107713580131530762e-01 -5.804622173309326172e-01 -3.215454816818237305e-01
-1.493373215198516846e-01 -4.849299490451812744e-01 -2.241731584072113037e-01
-3.514626622200012207e-01 -3.667584955692291260e-01 -2.939386069774627686e-01
-3.432046175003051758e-01 -5.058888196945190430e-01 -3.778655529022216797e-01
-2.344755381345748901e-01 -3.716948628425598145e-01 -3.812642693519592285e-01
-3.684001564979553223e-01 -4.737721085548400879e-01 -2.721403837203979492e-01
-2.468351721763610840e-01 -2.962611317634582520e-01 -2.903669178485870361e-01
-3.305436968803405762e-01 -3.503417372703552246e-01 -3.319802880287170410e-01
-2.862956225872039795e-01 -5.992544293403625488e-01 -2.069247663021087646e-01
-3.469874858856201172e-01 -3.646476864814758301e-01 -3.142661750316619873e-01
-2.484067827463150024e-01 -3.521535396575927734e-01 -2.088698148727416992e-01
-1.678289324045181274e-01 -4.857769310474395752e-01 -3.988122344017028809e-01
-1.257567405700683594e-01 -4.958591759204864502e-01 -3.498663008213043213e-01
-1.240203678607940674e-01 -5.689109563827514648e-01 -3.658103346824645996e-01
-2.444150596857070923e-01 -5.957258939743041992e-01 -4.276195168495178223e-01
-1.948088705539703369e-01 -4.214750528335571289e-01 -2.015134096145629883e-01
-3.211867809295654297e-01 -3.271174430847167969e-01 -3.159452080726623535e-01
-1.812764257192611694e-01 -6.103451848030090332e-01 -4.168637096881866455e-01
-2.384109497070312500e-01 -6.301134824752807617e-01 -2.058700919151306152e-01
-2.835992574691772461e-01 -6.437961459159851074e-01 -4.055578708648681641e-01
-1.976779550313949585e-01 -3.462588191032409668e-01 -3.405404090881347656e-01
-2.173621654510498047e-01 -3.439700603485107422e-01 -2.250354290008544922e-01
-2.175948321819305420e-01 -3.098052144050598145e-01 -2.778899073600769043e-01
-2.492055892944335938e-01 -4.787113666534423828e-01 -4.213132262229919434e-01
-1.933616399765014648e-01 -6.724432706832885742e-01 -2.299557924270629883e-01
-3.012501597404479980e-01 -5.241238474845886230e-01 -4.125512838363647461e-01
-2.685659229755401611e-01 -3.546837568283081055e-01 -2.071115970611572266e-01
-2.955054640769958496e-01 -4.929584264755249023e-01 -1.903099864721298218e-01
-1.589855253696441650e-01 -3.784037530422210693e-01 -3.118161261081695557e-01
-3.602993786334991455e-01 -5.742368102073669434e-01 -2.971710860729217529e-01
-1.285884678363800049e-01 -5.543133020401000977e-01 -3.722423613071441650e-01
-1.992826908826828003e-01 -3.264335393905639648e-01 -2.692237794399261475e-01
-3.151531219482421875e-01 -6.671078205108642578e-01 -2.726659774780273438e-01
-1.332536935806274414e-01 -5.264571905136108398e-01 -2.398734092712402344e-01
-2.856853902339935303e-01 -6.039606332778930664e-01 -4.147509038448333740e-01
-1.715871691703796387e-01 -3.557081818580627441e-01 -2.858704328536987305e-01
-2.448876947164535522e-01 -3.361961245536804199e-01 -3.578907251358032227e-01
-2.777456343173980713e-01 -6.678822040557861328e-01 -2.353360056877136230e-01
-3.563172817230224609e-01 -4.517003893852233887e-01 -2.424429953098297119e-01
-3.142017722129821777e-01 -3.123809695243835449e-01 -2.893275618553161621e-01
-3.338280618190765381e-01 -6.521295309066772461e-01 -3.192759454250335693e-01
-1.334509551525115967e-01 -5.049921870231628418e-01 -3.683259487152099609e-01
-1.895038038492202759e-01 -4.971752464771270752e-01 -1.933299899101257324e-01
-3.321059644222259521e-01 -4.063130319118499756e-01 -3.674226999282836914e-01
-2.066382318735122681e-01 -6.023805141448974609e-01 -1.998208761215209961e-01
-2.056866288185119629e-01 -4.313583672046661377e-01 -4.012371003627777100e-01
-2.789920568466186523e-01 -2.980353832244873047e-01 -3.046094179153442383e-01
-1.145414561033248901e-01 -5.100867748260498047e-01 -3.131617605686187744e-01
-1.121239811182022095e-01 -5.995997190475463867e-01 -3.020791113376617432e-01
-3.015489578247070312e-01 -6.719055771827697754e-01 -3.766583204269409180e-01
-3.559279441833496094e-01 -4.169091880321502686e-01 -2.491957396268844604e-01
-2.551753222942352295e-01 -7.288079857826232910e-01 -2.782373130321502686e-01
-1.953811645507812500e-01 -3.283243179321289062e-01 -3.004748225212097168e-01
-2.446066141128540039e-01 -7.382833361625671387e-01 -2.861755788326263428e-01
-2.662523686885833740e-01 -4.770553410053253174e-01 -4.191891252994537354e-01
-2.581433653831481934e-01 -3.677626550197601318e-01 -3.812834918498992920e-01
-3.360044658184051514e-01 -3.380448818206787109e-01 -2.780092954635620117e-01
-2.884093523025512695e-01 -7.067348957061767578e-01 -2.817501127719879150e-01
-3.169587254524230957e-01 -4.649494886398315430e-01 -3.968845307826995850e-01
-2.161295115947723389e-01 -6.964082717895507812e-01 -2.393290400505065918e-01
-1.410038173198699951e-01 -6.340336799621582031e-01 -3.838801980018615723e-01
-2.963675856590270996e-01 -3.094632029533386230e-01 -3.176365494728088379e-01
-1.409299373626708984e-01 -6.319387555122375488e-01 -2.481668889522552490e-01
-2.249391674995422363e-01 -3.999513387680053711e-01 -1.949672698974609375e-01
-2.897932827472686768e-01 -4.335168302059173584e-01 -1.899932473897933960e-01
-3.224821984767913818e-01 -3.973476886749267578e-01 -2.134960591793060303e-01
-3.141289055347442627e-01 -3.320981264114379883e-01 -3.327049016952514648e-01
-1.824815869331359863e-01 -5.377345681190490723e-01 -1.975385397672653198e-01
-1.149752736091613770e-01 -6.103935241699218750e-01 -2.920441031455993652e-01
-2.714343070983886719e-01 -7.296066880226135254e-01 -2.986934483051300049e-01
-3.625732660293579102e-01 -4.040695428848266602e-01 -2.803317308425903320e-01
-1.147983223199844360e-01 -5.945633053779602051e-01 -3.418414592742919922e-01
-2.555836439132690430e-01 -7.185883522033691406e-01 -3.786973655223846436e-01
-2.434198558330535889e-01 -5.411325693130493164e-01 -1.843129694461822510e-01
-1.619625687599182129e-01 -5.442877411842346191e-01 -2.104116082191467285e-01
-2.747379243373870850e-01 -5.703271627426147461e-01 -4.231055378913879395e-01
-2.353453189134597778e-01 -3.016761541366577148e-01 -3.011662364006042480e-01
-1.943861544132232666e-01 -5.689253211021423340e-01 -4.234510362148284912e-01
-1.349662244319915771e-01 -4.370808601379394531e-01 -2.716596126556396484e-01
-1.311260163784027100e-01 -4.552737474441528320e-01 -2.667624950408935547e-01
-1.257355064153671265e-01 -6.295816898345947266e-01 -3.616381585597991943e-01
-1.530297398567199707e-01 -3.859859108924865723e-01 -2.947942912578582764e-01
-1.103475242853164673e-01 -5.713023543357849121e-01 -3.054679036140441895e-01
-3.440666198730468750e-01 -5.935390591621398926e-01 -2.596235871315002441e-01
-2.992011010646820068e-01 -4.068872928619384766e-01 -1.977500617504119873e-01
-3.127585053443908691e-01 -6.835613250732421875e-01 -3.431624174118041992e-01
-1.176101416349411011e-01 -5.477949380874633789e-01 -3.488135635852813721e-01
-2.261311262845993042e-01 -7.159603834152221680e-01 -2.543595433235168457e-01
-1.647545695304870605e-01 -6.712446808815002441e-01 -2.444162070751190186e-01
-2.374177724123001099e-01 -4.122861325740814209e-01 -1.891023814678192139e-01
-1.212405785918235779e-01 -5.107602477073669434e-01 -2.658538520336151123e-01
-2.474853694438934326e-01 -6.778223514556884766e-01 -2.297919988632202148e-01
-3.340158462524414062e-01 -4.906151592731475830e-01 -2.146802246570587158e-01
-1.282757818698883057e-01 -6.100938320159912109e-01 -3.710618317127227783e-01
-1.381051987409591675e-01 -5.053262114524841309e-01 -2.350145429372787476e-01
-1.682507544755935669e-01 -5.617254376411437988e-01 -2.078378051519393921e-01
-2.225327044725418091e-01 -4.576985836029052734e-01 -1.846564561128616333e-01
-3.434652090072631836e-01 -5.594657063484191895e-01 -3.727585375308990479e-01
-3.106841146945953369e-01 -3.603183627128601074e-01 -2.192052602767944336e-01
-2.396724373102188110e-01 -4.229593873023986816e-01 -4.059299826622009277e-01
-2.325063347816467285e-01 -5.683905482292175293e-01 -4.296141862869262695e-01
-2.516227066516876221e-01 -4.708112776279449463e-01 -1.810181289911270142e-01
-2.154317647218704224e-01 -5.236020684242248535e-01 -1.852515488862991333e-01
-2.177582532167434692e-01 -5.479062199592590332e-01 -4.281123280525207520e-01
-3.635357022285461426e-01 -4.153339564800262451e-01 -3.148363828659057617e-01
-1.704850494861602783e-01 -5.546689629554748535e-01 -4.122946262359619141e-01
-2.490021735429763794e-01 -3.035034537315368652e-01 -2.533347606658935547e-01
-3.121948242187500000e-01 -4.166708290576934814e-01 -2.022911906242370605e-01
-3.005598187446594238e-01 -4.074536561965942383e-01 -3.897259235382080078e-01
-1.979122757911682129e-01 -6.048898696899414062e-01 -4.231569766998291016e-01
-3.275674879550933838e-01 -4.571181535720825195e-01 -2.084240317344665527e-01
-3.469486832618713379e-01 -4.049072861671447754e-01 -2.375291287899017334e-01
-3.511372506618499756e-01 -5.572192668914794922e-01 -3.603357076644897461e-01
-3.456842303276062012e-01 -3.583877980709075928e-01 -2.700882852077484131e-01
-3.350588083267211914e-01 -5.367076396942138672e-01 -2.231329232454299927e-01
-3.318580389022827148e-01 -6.422086954116821289e-01 -2.782201766967773438e-01
-1.346382498741149902e-01 -6.567155122756958008e-01 -3.669723868370056152e-01
-3.361460268497467041e-01 -4.297517836093902588e-01 -3.722631335258483887e-01
-1.903800368309020996e-01 -7.200724482536315918e-01 -2.648815214633941650e-01
-1.334297508001327515e-01 -4.427485167980194092e-01 -3.284718692302703857e-01
-3.067896962165832520e-01 -5.022550225257873535e-01 -4.082138538360595703e-01
-3.396786451339721680e-01 -3.814552128314971924e-01 -3.451190590858459473e-01
-1.746493279933929443e-01 -7.333549261093139648e-01 -3.550458550453186035e-01
-2.036757320165634155e-01 -6.354691982269287109e-01 -4.203245639801025391e-01
-3.459725975990295410e-01 -5.776939392089843750e-01 -3.632072806358337402e-01
-1.196530088782310486e-01 -5.442788004875183105e-01 -2.643339931964874268e-01
-1.972712874412536621e-01 -3.866597414016723633e-01 -2.126007080078125000e-01
-1.301979124546051025e-01 -5.022158622741699219e-01 -2.480791062116622925e-01
-3.178750276565551758e-01 -6.813112497329711914e-01 -3.141779005527496338e-01
-2.253001779317855835e-01 -6.714411973953247070e-01 -4.128705561161041260e-01
-3.687555789947509766e-01 -5.205210447311401367e-01 -3.169432282447814941e-01
-2.494384944438934326e-01 -7.373207807540893555e-01 -3.598342239856719971e-01
-3.616656959056854248e-01 -5.457423925399780273e-01 -3.379833102226257324e-01
-1.836565136909484863e-01 -6.301200389862060547e-01 -2.155912816524505615e-01
-3.604831099510192871e-01 -4.099221229553222656e-01 -2.644392251968383789e-01
-2.304496318101882935e-01 -4.064241349697113037e-01 -3.981304764747619629e-01
-2.899291515350341797e-01 -3.406172990798950195e-01 -2.194746136665344238e-01
-2.132332175970077515e-01 -6.634225249290466309e-01 -2.207950502634048462e-01
-1.257025450468063354e-01 -4.602303504943847656e-01 -2.847262620925903320e-01
-1.653356552124023438e-01 -3.723055422306060791e-01 -2.646020948886871338e-01
-2.335054278373718262e-01 -7.512751221656799316e-01 -3.113172352313995361e-01
-3.429829478263854980e-01 -4.053179621696472168e-01 -3.544612526893615723e-01
-3.191303312778472900e-01 -5.086939930915832520e-01 -2.044688761234283447e-01
-2.701974809169769287e-01 -7.093187570571899414e-01 -3.771227598190307617e-01
-1.361319869756698608e-01 -6.879079937934875488e-01 -3.441763520240783691e-01
-3.503830432891845703e-01 -5.715728402137756348e-01 -2.584840655326843262e-01
-1.444845050573348999e-01 -4.038770496845245361e-01 -2.909471690654754639e-01
-1.896373033523559570e-01 -3.717918694019317627e-01 -3.580952584743499756e-01
-1.963233351707458496e-01 -7.096790075302124023e-01 -2.531887590885162354e-01
-3.322198987007141113e-01 -5.152549743652343750e-01 -3.899900317192077637e-01
-1.563141793012619019e-01 -4.445293843746185303e-01 -2.264682054519653320e-01
-2.155877053737640381e-01 -4.228475689888000488e-01 -1.919853389263153076e-01
-2.407683283090591431e-01 -5.149600505828857422e-01 -4.269942045211791992e-01
-3.008445799350738525e-01 -6.292643547058105469e-01 -2.281131446361541748e-01
-3.548942208290100098e-01 -3.916072249412536621e-01 -2.604105174541473389e-01
-2.752014994621276855e-01 -6.938055753707885742e-01 -3.858771622180938721e-01
-1.183883994817733765e-01 -6.342455148696899414e-01 -3.375677764415740967e-01
-3.392065465450286865e-01 -3.516994714736938477e-01 -3.169517517089843750e-01
-3.398701846599578857e-01 -6.152932047843933105e-01 -3.551837503910064697e-01
-3.521155714988708496e-01 -3.957215547561645508e-01 -3.334459364414215088e-01
-2.842845618724822998e-01 -6.151729226112365723e-01 -2.118696868419647217e-01
-2.251345962285995483e-01 -6.346437335014343262e-01 -4.228439331054687500e-01
-1.242150366306304932e-01 -6.607855558395385742e-01 -3.027013242244720459e-01
-1.351191699504852295e-01 -4.283308088779449463e-01 -2.867465913295745850e-01
-3.146900236606597900e-01 -6.642202734947204590e-01 -3.642481565475463867e-01
-3.635823428630828857e-01 -5.571712851524353027e-01 -2.927638888359069824e-01
-1.225182190537452698e-01 -5.265550613403320312e-01 -3.551886677742004395e-01
-1.404262483119964600e-01 -4.697751700878143311e-01 -3.642735481262207031e-01
-1.154645085334777832e-01 -5.148948431015014648e-01 -2.858210206031799316e-01
-1.800946742296218872e-01 -5.652548074722290039e-01 -4.178081750869750977e-01
-1.595655083656311035e-01 -5.063481926918029785e-01 -2.119502127170562744e-01
-1.286218315362930298e-01 -5.794149041175842285e-01 -2.496710270643234253e-01
-1.315166354179382324e-01 -5.754947662353515625e-01 -3.781257867813110352e-01
-1.716168224811553955e-01 -3.938635587692260742e-01 -3.572586774826049805e-01
-3.681436777114868164e-01 -4.562842547893524170e-01 -3.216288387775421143e-01
-3.602153658866882324e-01 -5.746694803237915039e-01 -3.181844651699066162e-01
-3.403726518154144287e-01 -3.655679225921630859e-01 -2.482022196054458618e-01
-2.826758921146392822e-01 -7.224106788635253906e-01 -3.392383754253387451e-01
-2.376305162906646729e-01 -5.030873417854309082e-01 -1.812784224748611450e-01
-2.066373229026794434e-01 -3.974891304969787598e-01 -2.028010487556457520e-01
-2.087114453315734863e-01 -3.230609297752380371e-01 -2.570673823356628418e-01
-3.629641234874725342e-01 -4.673520028591156006e-01 -3.412653505802154541e-01
-1.794908344745635986e-01 -4.311558604240417480e-01 -2.087908685207366943e-01
-2.682420909404754639e-01 -3.203261494636535645e-01 -3.438857197761535645e-01
-3.139132857322692871e-01 -4.334956705570220947e-01 -3.912895619869232178e-01
-3.351183235645294189e-01 -6.022104024887084961e-01 -3.715068697929382324e-01
-1.139476448297500610e-01 -5.364499688148498535e-01 -3.324452340602874756e-01
-2.587774693965911865e-01 -6.170168519020080566e-01 -2.039441168308258057e-01
-1.723735630512237549e-01 -4.012602269649505615e-01 -2.270678579807281494e-01
-1.344983875751495361e-01 -6.895480155944824219e-01 -3.096152842044830322e-01
-1.913870275020599365e-01 -3.462989628314971924e-01 -2.479746490716934204e-01
-1.279840469360351562e-01 -5.918457508087158203e-01 -3.725763261318206787e-01
-2.613055706024169922e-01 -5.313453078269958496e-01 -4.264815449714660645e-01
-3.617124557495117188e-01 -3.988829255104064941e-01 -3.008078336715698242e-01
-2.641450762748718262e-01 -6.235318183898925781e-01 -4.194847047328948975e-01
-2.733983099460601807e-01 -4.579964280128479004e-01 -4.138660132884979248e-01
-3.465704917907714844e-01 -4.890464246273040771e-01 -3.726625144481658936e-01
-3.455522060394287109e-01 -6.066019535064697266e-01 -2.740314900875091553e-01
-3.446295261383056641e-01 -6.205296516418457031e-01 -3.350844085216522217e-01
-3.703209757804870605e-01 -4.504118561744689941e-01 -3.009521067142486572e-01
-3.559852838516235352e-01 -4.300863146781921387e-01 -3.448382318019866943e-01
-1.590797901153564453e-01 -7.077863216400146484e-01 -2.779731750488281250e-01
-1.875468343496322632e-01 -4.545557498931884766e-01 -1.983662843704223633e-01
-2.677364349365234375e-01 -5.536029338836669922e-01 -1.890659034252166748e-01
-1.516786515712738037e-01 -6.355955600738525391e-01 -3.944448232650756836e-01
-1.928580105304718018e-01 -6.657487154006958008e-01 -4.100814461708068848e-01
-1.826004534959793091e-01 -6.524684429168701172e-01 -2.246980518102645874e-01
-3.620636463165283203e-01 -4.610631465911865234e-01 -2.534054517745971680e-01
-2.332152873277664185e-01 -3.282671272754669189e-01 -3.466064035892486572e-01
-1.736731231212615967e-01 -4.484710395336151123e-01 -2.087574303150177002e-01
-2.621385157108306885e-01 -6.808659434318542480e-01 -4.010414183139801025e-01
-3.335555493831634521e-01 -6.438301801681518555e-01 -3.430354297161102295e-01
-1.495744585990905762e-01 -6.943315863609313965e-01 -2.769949436187744141e-01
-3.281474113464355469e-01 -4.729445576667785645e-01 -3.898988962173461914e-01
-2.909798622131347656e-01 -3.280771374702453613e-01 -2.288444936275482178e-01
-3.258112072944641113e-01 -5.018819570541381836e-01 -3.951354622840881348e-01
-2.281531542539596558e-01 -6.526829600334167480e-01 -4.186254143714904785e-01
-3.154761493206024170e-01 -5.725502967834472656e-01 -2.156710624694824219e-01
-2.697877883911132812e-01 -5.974872708320617676e-01 -2.002721428871154785e-01
-3.681021034717559814e-01 -4.340080022811889648e-01 -3.065218925476074219e-01
-2.834075689315795898e-01 -6.988304853439331055e-01 -3.746165633201599121e-01
-3.464773297309875488e-01 -5.626117587089538574e-01 -2.466432452201843262e-01
-1.359475404024124146e-01 -6.940392851829528809e-01 -3.265251815319061279e-01
-3.579795956611633301e-01 -5.400674939155578613e-01 -2.591174840927124023e-01
-2.220477461814880371e-01 -3.252128958702087402e-01 -2.393079698085784912e-01
-1.334540843963623047e-01 -4.682831168174743652e-01 -3.509601354598999023e-01
-1.345881968736648560e-01 -6.113389730453491211e-01 -2.487914711236953735e-01
-2.008111178874969482e-01 -7.480083703994750977e-01 -3.509049713611602783e-01
-2.995838522911071777e-01 -7.015433311462402344e-01 -2.948714196681976318e-01
-1.652894616127014160e-01 -5.878670215606689453e-01 -2.140329182147979736e-01
-2.682829499244689941e-01 -3.347167968750000000e-01 -3.576651811599731445e-01
-1.354609727859497070e-01 -5.179122090339660645e-01 -3.752138614654541016e-01
-2.754328846931457520e-01 -5.074608325958251953e-01 -4.215024411678314209e-01
-2.558548152446746826e-01 -3.925944268703460693e-01 -1.925833225250244141e-01
-2.265382707118988037e-01 -7.469398975372314453e-01 -3.555262386798858643e-01
-2.627643942832946777e-01 -6.934970617294311523e-01 -3.937831521034240723e-01
-2.826730012893676758e-01 -4.128454029560089111e-01 -3.983332514762878418e-01
-1.505888700485229492e-01 -4.930783808231353760e-01 -3.860989511013031006e-01
-3.559654951095581055e-01 -5.221555829048156738e-01 -3.579585254192352295e-01
