-1.210736483335494995e-01 8.823012560606002808e-02 -6.899381875991821289e-01
1.307283341884613037e-02 6.165018305182456970e-02 -5.816126465797424316e-01
-3.068620562553405762e-01 5.841989815235137939e-02 -5.002798438072204590e-01
-1.564205437898635864e-01 5.687079578638076782e-02 -6.162614822387695312e-01
-2.276553362607955933e-01 6.208457797765731812e-02 -7.855353951454162598e-01
-2.908915579319000244e-01 8.495505899190902710e-02 -6.511297225952148438e-01
-2.355892956256866455e-01 5.650970339775085449e-02 -5.119074583053588867e-01
-9.210435301065444946e-02 7.860925793647766113e-02 -2.258011698722839355e-01
-2.425498366355895996e-01 8.255067467689514160e-02 -2.617523372173309326e-01
8.011564612388610840e-03 8.367871493101119995e-02 -4.838274419307708740e-01
-6.666049361228942871e-03 8.045656979084014893e-02 -8.686804771423339844e-01
-2.126295119524002075e-01 8.789817988872528076e-02 -4.902495741844177246e-01
-3.234331011772155762e-01 8.407305926084518433e-02 -5.681636929512023926e-01
-1.484932899475097656e-01 8.609987050294876099e-02 -3.623942434787750244e-01
-1.817786842584609985e-01 6.803945451974868774e-02 -9.023283720016479492e-01
-1.889200061559677124e-01 8.747366070747375488e-02 -4.301804006099700928e-01
-2.195032685995101929e-01 8.474160730838775635e-02 -3.159185051918029785e-01
-2.445006668567657471e-01 8.500380069017410278e-02 -7.487409114837646484e-01
-5.204830318689346313e-02 5.858822539448738098e-02 -4.720363020896911621e-01
-1.653239578008651733e-01 5.730172619223594666e-02 -6.470827460289001465e-01
-1.694610714912414551e-01 8.546497672796249390e-02 -8.086698055267333984e-01
-7.177213579416275024e-02 8.488503843545913696e-02 -8.292817473411560059e-01
-2.025312632322311401e-01 8.770219981670379639e-02 -6.760370731353759766e-01
-2.197539210319519043e-01 8.394369482994079590e-02 -2.906076610088348389e-01
-1.672935932874679565e-01 8.663266897201538086e-02 -7.692748308181762695e-01
-1.189669370651245117e-01 5.657839030027389526e-02 -5.189100503921508789e-01
-1.294257938861846924e-01 5.650436133146286011e-02 -4.657671451568603516e-01
2.731275558471679688e-02 6.353116780519485474e-02 -4.778939187526702881e-01
-2.926387190818786621e-01 6.044914945960044861e-02 -2.609030008316040039e-01
-1.988814622163772583e-01 8.275713026523590088e-02 -2.554933428764343262e-01
-1.233835965394973755e-01 8.573161065578460693e-02 -3.601749539375305176e-01
-6.638412922620773315e-02 8.392243832349777222e-02 -3.526803255081176758e-01
-3.455442190170288086e-02 6.071293354034423828e-02 -3.882787227630615234e-01
-2.640359997749328613e-01 8.342857658863067627e-02 -7.669076323509216309e-01
-2.479460835456848145e-01 7.613319158554077148e-02 -8.801643848419189453e-01
-3.716266751289367676e-01 7.947994023561477661e-02 -5.956562757492065430e-01
-6.328611820936203003e-02 8.280037343502044678e-02 -3.266577720642089844e-01
-3.530499935150146484e-01 8.158895373344421387e-02 -4.069711267948150635e-01
-3.526689708232879639e-01 8.043055236339569092e-02 -3.478262424468994141e-01
-2.513421773910522461e-01 6.374240666627883911e-02 -1.712264120578765869e-01
-3.195937871932983398e-01 5.916836857795715332e-02 -5.223213434219360352e-01
-2.306173145771026611e-01 5.691890791058540344e-02 -3.717060685157775879e-01
-2.345705926418304443e-01 5.884665250778198242e-02 -6.819147467613220215e-01
-7.410360872745513916e-02 6.727053225040435791e-02 -2.091218531131744385e-01
-9.447069466114044189e-02 5.736345052719116211e-02 -4.466176033020019531e-01
6.203702092170715332e-02 8.068178594112396240e-02 -6.023160219192504883e-01
-4.673226177692413330e-02 6.071158871054649353e-02 -3.603570759296417236e-01
-1.715307384729385376e-01 8.867695182561874390e-02 -5.659032464027404785e-01
-3.735471367835998535e-01 6.249306350946426392e-02 -4.833171665668487549e-01
-2.445464134216308594e-01 5.661532655358314514e-02 -4.358542263507843018e-01
-4.231180250644683838e-02 5.883071944117546082e-02 -5.886061787605285645e-01
-3.242536783218383789e-01 6.204137578606605530e-02 -6.544265747070312500e-01
-1.539458781480789185e-01 6.359794735908508301e-02 -1.845718324184417725e-01
-3.355960249900817871e-01 7.860944420099258423e-02 -7.314181923866271973e-01
-1.072548851370811462e-01 5.714718624949455261e-02 -5.979493856430053711e-01
-2.400805354118347168e-01 5.737093091011047363e-02 -3.457878232002258301e-01
-2.874557971954345703e-01 5.760429427027702332e-02 -4.746435880661010742e-01
-2.057251483201980591e-01 5.627448856830596924e-02 -4.257350862026214600e-01
-6.887262314558029175e-02 8.501259982585906982e-02 -3.844830393791198730e-01
-2.311517298221588135e-02 7.248637825250625610e-02 -2.564949393272399902e-01
-3.184792995452880859e-01 5.877019464969635010e-02 -4.394547641277313232e-01
-4.109768271446228027e-01 7.213616371154785156e-02 -3.777557015419006348e-01
-3.122426271438598633e-01 6.322924792766571045e-02 -7.094453573226928711e-01
-1.964365690946578979e-01 8.824437856674194336e-02 -6.297339797019958496e-01
-9.279283881187438965e-02 7.139404118061065674e-02 -9.390822649002075195e-01
-1.547294408082962036e-01 5.781059712171554565e-02 -3.273231089115142822e-01
-3.521788716316223145e-01 8.144566416740417480e-02 -6.033576130867004395e-01
6.213934719562530518e-02 7.998625189065933228e-02 -7.169125676155090332e-01
-2.081552147865295410e-01 5.639965087175369263e-02 -5.508574247360229492e-01
-3.863413631916046143e-02 8.174452930688858032e-02 -8.777104020118713379e-01
-6.621692329645156860e-02 5.807453766465187073e-02 -5.965504050254821777e-01
-7.430572807788848877e-02 5.902203172445297241e-02 -6.891576051712036133e-01
-2.804840803146362305e-01 6.194051727652549744e-02 -7.269958257675170898e-01
2.946408092975616455e-02 6.335712224245071411e-02 -5.017843842506408691e-01
-1.357935518026351929e-01 5.706881731748580933e-02 -6.236932873725891113e-01
-9.701431542634963989e-02 8.638051152229309082e-02 -7.895565629005432129e-01
-2.829995155334472656e-01 5.764800310134887695e-02 -5.160664916038513184e-01
3.290089964866638184e-02 6.319637596607208252e-02 -6.032647490501403809e-01
-2.554128170013427734e-01 8.709117025136947632e-02 -5.101875066757202148e-01
-2.147711068391799927e-01 8.039134740829467773e-02 -8.757110834121704102e-01
-1.733037680387496948e-01 6.183347105979919434e-02 -2.033956348896026611e-01
-5.345766246318817139e-02 7.871275395154953003e-02 -2.638252377510070801e-01
-2.505931258201599121e-01 8.562288433313369751e-02 -3.743417263031005859e-01
-2.370742410421371460e-01 5.644032731652259827e-02 -4.680249691009521484e-01
-3.509724438190460205e-01 6.152923032641410828e-02 -3.354821205139160156e-01
-1.965088993310928345e-01 7.509973645210266113e-02 -9.218574762344360352e-01
-1.446878910064697266e-01 5.729699134826660156e-02 -6.444494724273681641e-01
-3.401939570903778076e-01 5.988298356533050537e-02 -4.427705705165863037e-01
-2.757786214351654053e-01 8.425963670015335083e-02 -7.206739187240600586e-01
-2.852631807327270508e-01 8.214172720909118652e-02 -7.638884782791137695e-01
-3.407696485519409180e-01 8.123546093702316284e-02 -6.581139564514160156e-01
-6.174447387456893921e-02 6.136724352836608887e-02 -7.730544805526733398e-01
-2.573536336421966553e-02 7.606361806392669678e-02 -9.193120002746582031e-01
-3.500023484230041504e-01 8.216883242130279541e-02 -4.357492923736572266e-01
-1.881201565265655518e-01 5.798886716365814209e-02 -6.781140565872192383e-01
-2.614660263061523438e-01 8.048434555530548096e-02 -2.255230545997619629e-01
-1.211977899074554443e-01 8.861342072486877441e-02 -5.535908937454223633e-01
-7.821620255708694458e-02 8.121785521507263184e-02 -2.777675092220306396e-01
-3.171554803848266602e-01 8.107801526784896851e-02 -2.930371463298797607e-01
-6.569782644510269165e-02 5.823768675327301025e-02 -4.515264630317687988e-01
-1.953741908073425293e-01 6.648690253496170044e-02 -1.432909965515136719e-01
-3.172287642955780029e-01 5.877449363470077515e-02 -4.811597168445587158e-01
-3.096809685230255127e-01 8.341002464294433594e-02 -6.720775365829467773e-01
-2.286758422851562500e-01 6.703935563564300537e-02 -8.650872707366943359e-01
-2.538841962814331055e-01 6.152537465095520020e-02 -7.482863664627075195e-01
-3.482045233249664307e-02 8.703418076038360596e-02 -6.485261917114257812e-01
-2.971541881561279297e-02 8.450002223253250122e-02 -8.056995868682861328e-01
-2.900138497352600098e-01 8.540524542331695557e-02 -4.384606480598449707e-01
-2.825204432010650635e-01 5.852694809436798096e-02 -3.264631330966949463e-01
-1.747192293405532837e-01 7.211743295192718506e-02 -1.368657946586608887e-01
-2.267271578311920166e-01 8.525467664003372192e-02 -7.645568251609802246e-01
-3.313227295875549316e-01 6.014243885874748230e-02 -3.456559479236602783e-01
-3.380916118621826172e-01 6.187411397695541382e-02 -6.145081520080566406e-01
2.631364762783050537e-02 8.399371802806854248e-02 -5.989719033241271973e-01
-1.407710462808609009e-01 8.311964571475982666e-02 -2.748115062713623047e-01
-2.299345433712005615e-01 8.659252524375915527e-02 -4.047368168830871582e-01
-1.997770965099334717e-01 5.983722209930419922e-02 -2.401244640350341797e-01
-3.643437325954437256e-01 6.182472780346870422e-02 -3.832635581493377686e-01
-4.670532047748565674e-02 8.499079197645187378e-02 -4.153884649276733398e-01
-1.784732341766357422e-01 6.170859932899475098e-02 -8.045948743820190430e-01
-3.935938477516174316e-01 7.704428583383560181e-02 -3.881316184997558594e-01
-2.043842673301696777e-01 7.878914475440979004e-02 -1.837269365787506104e-01
-1.194122433662414551e-02 8.476816117763519287e-02 -7.674324512481689453e-01
-1.094848215579986572e-01 5.915225669741630554e-02 -7.257472276687622070e-01
-2.378177493810653687e-01 8.357542753219604492e-02 -7.988690137863159180e-01
-1.397828608751296997e-01 8.801274746656417847e-02 -4.684377610683441162e-01
-7.915258407592773438e-03 8.025694638490676880e-02 -3.513560891151428223e-01
-1.554965525865554810e-01 8.181642740964889526e-02 -8.912767171859741211e-01
-2.152576595544815063e-01 5.619713664054870605e-02 -4.628149867057800293e-01
-3.406304121017456055e-02 6.019483879208564758e-02 -6.839485764503479004e-01
-3.299716114997863770e-01 7.618396729230880737e-02 -7.689948081970214844e-01
-1.756193488836288452e-01 5.859389901161193848e-02 -7.093991637229919434e-01
-1.820023357868194580e-01 5.640529096126556396e-02 -5.711652040481567383e-01
-3.503118157386779785e-01 7.877272367477416992e-02 -2.917695641517639160e-01
-3.394080698490142822e-02 8.703815191984176636e-02 -6.078143715858459473e-01
-7.282730191946029663e-02 5.766371637582778931e-02 -5.506197214126586914e-01
3.305181860923767090e-03 7.629057019948959351e-02 -8.934935927391052246e-01
-2.378925979137420654e-01 7.915621995925903320e-02 -1.932636499404907227e-01
-2.633922696113586426e-01 5.693308264017105103e-02 -4.643988311290740967e-01
3.652115166187286377e-02 6.659284234046936035e-02 -4.142327010631561279e-01
1.058563590049743652e-02 8.484565466642379761e-02 -5.744119286537170410e-01
-2.524106204509735107e-01 5.881591513752937317e-02 -2.826459705829620361e-01
-1.391573250293731689e-01 8.848147094249725342e-02 -6.647225022315979004e-01
6.383059918880462646e-02 7.204065471887588501e-02 -7.821311354637145996e-01
-2.107863277196884155e-01 5.627154558897018433e-02 -5.263842940330505371e-01
-8.809303492307662964e-02 8.060155808925628662e-02 -2.581101357936859131e-01
-3.501978814601898193e-01 8.247473090887069702e-02 -5.153370499610900879e-01
-3.711059689521789551e-02 8.702681213617324829e-02 -5.742746591567993164e-01
7.318109273910522461e-03 6.127526611089706421e-02 -5.496917366981506348e-01
-1.313783228397369385e-01 8.643151819705963135e-02 -7.903065681457519531e-01
-7.086468487977981567e-02 6.433010101318359375e-02 -2.425531148910522461e-01
-2.893681824207305908e-01 8.590747416019439697e-02 -5.064519047737121582e-01
-1.738515496253967285e-02 6.229156628251075745e-02 -3.731600046157836914e-01
-2.846497297286987305e-01 8.398550748825073242e-02 -3.444540500640869141e-01
-2.624659240245819092e-01 8.694151043891906738e-02 -5.367273092269897461e-01
-1.322806179523468018e-01 6.488692015409469604e-02 -8.753418922424316406e-01
-4.037017822265625000e-01 6.766921281814575195e-02 -3.572145402431488037e-01
-1.872797012329101562e-01 8.825455605983734131e-02 -4.983869791030883789e-01
-3.044753968715667725e-01 5.903025344014167786e-02 -5.693533420562744141e-01
-3.133862018585205078e-01 6.104875355958938599e-02 -2.688261866569519043e-01
-1.050530821084976196e-01 5.688969045877456665e-02 -4.831129312515258789e-01
-3.085363507270812988e-01 6.483476608991622925e-02 -1.896039247512817383e-01
-2.820348441600799561e-01 5.928243696689605713e-02 -6.350934505462646484e-01
-3.556586802005767822e-01 6.160897016525268555e-02 -5.380594730377197266e-01
-4.047673642635345459e-01 7.028549909591674805e-02 -3.355452418327331543e-01
-2.544567584991455078e-01 6.009925529360771179e-02 -7.062828540802001953e-01
-6.290106475353240967e-02 8.768311142921447754e-02 -6.709768772125244141e-01
-3.198621273040771484e-01 6.249458342790603638e-02 -6.768754124641418457e-01
-1.467464566230773926e-01 5.644792318344116211e-02 -5.673882365226745605e-01
8.076593279838562012e-03 8.474318683147430420e-02 -7.105170488357543945e-01
-1.233040094375610352e-01 5.670866742730140686e-02 -5.715423226356506348e-01
-1.540233939886093140e-01 7.370164245367050171e-02 -1.491685211658477783e-01
-2.784290015697479248e-01 6.448017805814743042e-02 -7.827078104019165039e-01
-1.940974593162536621e-02 5.975221097469329834e-02 -5.684794187545776367e-01
-2.372441887855529785e-01 8.737851679325103760e-02 -4.814670085906982422e-01
-3.031554818153381348e-01 8.208333700895309448e-02 -7.314599752426147461e-01
-3.785801231861114502e-01 6.967010349035263062e-02 -2.537573873996734619e-01
-2.821752130985260010e-01 8.607569336891174316e-02 -5.873948335647583008e-01
-3.337047696113586426e-01 6.052196770906448364e-02 -5.656439661979675293e-01
-2.461695075035095215e-01 5.684760212898254395e-02 -5.369889140129089355e-01
-1.531003862619400024e-01 6.058594956994056702e-02 -2.380830347537994385e-01
-1.738168597221374512e-01 5.916173011064529419e-02 -7.318032979965209961e-01
2.804414927959442139e-02 6.656116247177124023e-02 -3.890732526779174805e-01
-2.810520529747009277e-01 5.985674262046813965e-02 -6.609530448913574219e-01
-8.357235789299011230e-02 8.810933679342269897e-02 -6.638604998588562012e-01
-2.033381760120391846e-01 8.492368459701538086e-02 -7.997133731842041016e-01
2.041074633598327637e-02 6.228408589959144592e-02 -5.328643321990966797e-01
-1.970756053924560547e-02 7.988370954990386963e-02 -8.886777758598327637e-01
-1.560224890708923340e-01 8.790038526058197021e-02 -4.550933241844177246e-01
-7.215563952922821045e-02 8.602377027273178101e-02 -4.203296899795532227e-01
-2.146817296743392944e-01 8.105771988630294800e-02 -2.209946811199188232e-01
-7.025171071290969849e-02 8.556443452835083008e-02 -8.070338368415832520e-01
-5.977756530046463013e-02 8.638212084770202637e-02 -4.569423496723175049e-01
-1.201103329658508301e-01 5.996522307395935059e-02 -2.784355282783508301e-01
-1.991177201271057129e-01 5.791973322629928589e-02 -3.049619793891906738e-01
-3.325416743755340576e-01 8.370532095432281494e-02 -5.030433535575866699e-01
-5.664542317390441895e-03 6.227142736315727234e-02 -7.231659889221191406e-01
-1.416932344436645508e-01 8.702845126390457153e-02 -4.063901007175445557e-01
-3.920095562934875488e-01 7.813027501106262207e-02 -5.061064958572387695e-01
-5.579572916030883789e-02 6.296090781688690186e-02 -8.134697675704956055e-01
-7.634345442056655884e-02 8.678426593542098999e-02 -7.605253458023071289e-01
-1.300368160009384155e-01 6.175997480750083923e-02 -8.133226633071899414e-01
5.660565197467803955e-02 7.633174210786819458e-02 -4.423170685768127441e-01
-3.068258762359619141e-01 6.243098899722099304e-02 -2.260748744010925293e-01
-1.051196753978729248e-01 5.689235776662826538e-02 -5.502659082412719727e-01
-2.357663512229919434e-01 5.780094861984252930e-02 -6.306026577949523926e-01
-5.285315960645675659e-02 7.590436935424804688e-02 -2.355849742889404297e-01
-9.512936323881149292e-02 8.477012068033218384e-02 -3.486434221267700195e-01
2.584576606750488281e-02 8.030310273170471191e-02 -8.238706588745117188e-01
-1.436431556940078735e-01 6.063292920589447021e-02 -7.835683822631835938e-01
-3.280872106552124023e-01 8.377665281295776367e-02 -4.579463005065917969e-01
-1.242886632680892944e-01 7.769096642732620239e-02 -1.934466660022735596e-01
-1.714887470006942749e-01 8.735949546098709106e-02 -4.189380109310150146e-01
-6.469302624464035034e-02 8.362802863121032715e-02 -8.574572801589965820e-01
-2.217699438333511353e-01 8.375155925750732422e-02 -8.123407363891601562e-01
-3.118328452110290527e-01 6.044586747884750366e-02 -6.245948672294616699e-01
-1.227380335330963135e-01 6.305548548698425293e-02 -8.420854210853576660e-01
-2.843621969223022461e-01 6.092585995793342590e-02 -6.928583979606628418e-01
-2.102482914924621582e-01 6.059005483984947205e-02 -7.601187229156494141e-01
-1.827455461025238037e-01 8.850729465484619141e-02 -5.346211194992065430e-01
7.974164187908172607e-02 7.694274932146072388e-02 -5.666004419326782227e-01
-2.306092679500579834e-01 8.725202083587646484e-02 -4.535762965679168701e-01
-2.433398365974426270e-01 5.958162993192672729e-02 -2.521601915359497070e-01
-8.154398202896118164e-02 8.317545056343078613e-02 -3.166272640228271484e-01
-2.420959025621414185e-01 6.184034049510955811e-02 -7.676647901535034180e-01
-2.244307249784469604e-01 5.803082883358001709e-02 -3.024379014968872070e-01
-1.814205944538116455e-01 8.791269361972808838e-02 -6.882104873657226562e-01
-1.885451674461364746e-01 5.658395960927009583e-02 -3.867934346199035645e-01
-1.762282103300094604e-01 6.384129822254180908e-02 -8.490155935287475586e-01
-8.844547718763351440e-02 8.779819309711456299e-02 -7.060815691947937012e-01
-3.136787712574005127e-01 8.440865576267242432e-02 -4.423063695430755615e-01
-3.561070561408996582e-01 7.946757227182388306e-02 -3.242594599723815918e-01
-2.201165556907653809e-01 5.713210254907608032e-02 -6.061901450157165527e-01
-7.189472764730453491e-02 6.551639735698699951e-02 -8.744430541992187500e-01
-2.785899639129638672e-01 8.635893464088439941e-02 -5.545498132705688477e-01
-3.629285693168640137e-01 6.143321841955184937e-02 -4.278265535831451416e-01
-1.027981787919998169e-01 8.854555338621139526e-02 -5.927020311355590820e-01
-1.460041105747222900e-02 8.614083379507064819e-02 -6.775401830673217773e-01
-1.603519022464752197e-01 8.536940068006515503e-02 -3.322330415248870850e-01
-1.853673458099365234e-01 5.605272203683853149e-02 -4.941764175891876221e-01
-2.620008289813995361e-01 8.333617448806762695e-02 -2.960663437843322754e-01
-1.172284781932830811e-01 6.087932735681533813e-02 -7.881058454513549805e-01
-3.837603032588958740e-01 7.889257371425628662e-02 -5.434656739234924316e-01
-1.745688915252685547e-01 8.758414536714553833e-02 -7.173336744308471680e-01
-1.826672255992889404e-02 6.222595274448394775e-02 -7.467901706695556641e-01
-4.844658821821212769e-02 5.847284570336341858e-02 -5.277463793754577637e-01
-1.046880930662155151e-01 5.874657258391380310e-02 -3.377013802528381348e-01
-1.257058382034301758e-01 8.872652053833007812e-02 -5.831247568130493164e-01
-6.750734895467758179e-02 6.064385920763015747e-02 -3.244855999946594238e-01
-3.321972787380218506e-01 7.472552359104156494e-02 -2.016628980636596680e-01
-9.155467152595520020e-03 8.575756102800369263e-02 -5.571349859237670898e-01
-1.301798373460769653e-01 8.874453604221343994e-02 -6.064237952232360840e-01
-4.148539900779724121e-01 7.003219425678253174e-02 -4.200327098369598389e-01
-4.086790084838867188e-01 6.786175817251205444e-02 -4.921635985374450684e-01
-1.879629492759704590e-01 8.616156876087188721e-02 -3.611139059066772461e-01
-3.034939765930175781e-01 8.321683108806610107e-02 -6.962282657623291016e-01
-1.300027221441268921e-01 7.067533582448959351e-02 -1.540055871009826660e-01
-1.432327181100845337e-01 5.928252264857292175e-02 -7.397976517677307129e-01
-2.033106088638305664e-01 5.681866034865379333e-02 -3.670975267887115479e-01
-3.906480073928833008e-01 7.557863742113113403e-02 -6.085958480834960938e-01
-2.410326600074768066e-01 6.038049608469009399e-02 -2.295110523700714111e-01
-3.470956683158874512e-01 6.073200330138206482e-02 -5.192058086395263672e-01
-1.475157141685485840e-01 7.998272031545639038e-02 -9.159394502639770508e-01
-3.104277253150939941e-01 7.949322462081909180e-02 -2.460424005985260010e-01
-2.631133794784545898e-01 7.097212970256805420e-02 -8.648087978363037109e-01
-1.618321686983108521e-01 8.804085105657577515e-02 -6.959986686706542969e-01
-3.845157623291015625e-01 7.577505707740783691e-02 -6.311610341072082520e-01
-9.074935317039489746e-02 8.726463466882705688e-02 -4.608700871467590332e-01
-1.363701522350311279e-01 8.840420097112655640e-02 -5.069712996482849121e-01
-2.535243332386016846e-02 6.035695970058441162e-02 -4.333017468452453613e-01
-2.091623842716217041e-02 8.588676154613494873e-02 -7.260792851448059082e-01
-1.511808037757873535e-01 5.922941491007804871e-02 -2.757259011268615723e-01
-2.990348637104034424e-01 8.156692236661911011e-02 -2.818752527236938477e-01
-9.666122496128082275e-02 5.720116943120956421e-02 -5.789484381675720215e-01
-1.561233401298522949e-02 6.513555347919464111e-02 -3.128934502601623535e-01
-9.677106887102127075e-02 8.266052603721618652e-02 -2.911349236965179443e-01
-9.502281993627548218e-02 8.837310969829559326e-02 -6.434357762336730957e-01
-3.479536771774291992e-01 6.732691079378128052e-02 -7.134947776794433594e-01
-2.538850307464599609e-01 5.733235925436019897e-02 -5.701286196708679199e-01
-1.741641759872436523e-01 6.533415615558624268e-02 -1.574483811855316162e-01
7.315129041671752930e-04 8.275025337934494019e-02 -4.293272793292999268e-01
-3.269367814064025879e-01 8.329325914382934570e-02 -6.164146065711975098e-01
-2.891391515731811523e-01 8.115866035223007202e-02 -2.606596350669860840e-01
-8.841745555400848389e-02 5.839861929416656494e-02 -6.710966825485229492e-01
-8.192412555217742920e-02 6.107031181454658508e-02 -2.914608716964721680e-01
-4.104034900665283203e-01 7.327701151371002197e-02 -5.232484340667724609e-01
-1.174177974462509155e-01 8.586104959249496460e-02 -8.112436532974243164e-01
-3.124378025531768799e-01 5.892396718263626099e-02 -3.706184029579162598e-01
4.731176793575286865e-02 6.774463504552841187e-02 -7.648282051086425781e-01
-2.929039001464843750e-01 6.771612912416458130e-02 -1.551661193370819092e-01
6.678332388401031494e-02 7.835624366998672485e-02 -5.205565690994262695e-01
-9.835302829742431641e-03 6.082262098789215088e-02 -4.654034078121185303e-01
-1.386291384696960449e-01 6.228541582822799683e-02 -2.128630578517913818e-01
-1.160150915384292603e-01 5.931819602847099304e-02 -3.025667965412139893e-01
-2.731097936630249023e-01 5.718664824962615967e-02 -4.435746669769287109e-01
-1.731993705034255981e-01 5.661702901124954224e-02 -5.950539112091064453e-01
-2.260318398475646973e-02 8.515863865613937378e-02 -4.705514013767242432e-01
-5.265016853809356689e-02 8.572240918874740601e-02 -7.869369387626647949e-01
-2.407411187887191772e-01 5.783613398671150208e-02 -3.190616965293884277e-01
-7.203505933284759521e-02 6.014360859990119934e-02 -7.387050390243530273e-01
-2.028656899929046631e-01 5.851176753640174866e-02 -6.937317848205566406e-01
4.431779682636260986e-02 8.262952417135238647e-02 -6.131599545478820801e-01
-1.312421858310699463e-01 5.790342390537261963e-02 -3.437682092189788818e-01
-3.234153985977172852e-01 8.319184929132461548e-02 -3.892260789871215820e-01
-9.142936766147613525e-02 6.235941499471664429e-02 -8.193857669830322266e-01
-2.737410068511962891e-01 8.500120788812637329e-02 -6.948629021644592285e-01
-8.495657145977020264e-02 6.673634052276611328e-02 -8.967334032058715820e-01
-3.833037614822387695e-01 6.454775482416152954e-02 -3.375963568687438965e-01
-4.948496073484420776e-02 5.954693630337715149e-02 -4.057937860488891602e-01
-1.935556232929229736e-01 6.574468314647674561e-02 -8.709974288940429688e-01
5.220539867877960205e-02 6.571418046951293945e-02 -6.743604540824890137e-01
-2.617778778076171875e-01 5.966508388519287109e-02 -6.820878982543945312e-01
-9.829032421112060547e-02 6.174144893884658813e-02 -2.566958069801330566e-01
1.898165047168731689e-02 6.315340101718902588e-02 -6.930858492851257324e-01
-1.881259679794311523e-01 8.274341374635696411e-02 -8.602906465530395508e-01
-1.273671686649322510e-01 8.258315920829772949e-02 -8.866250514984130859e-01
-1.685996353626251221e-01 5.657057836651802063e-02 -3.966272175312042236e-01
-1.625139415264129639e-01 5.627704411745071411e-02 -5.529907941818237305e-01
-7.349856197834014893e-02 8.726832270622253418e-02 -7.295261621475219727e-01
-2.597534954547882080e-01 5.738830566406250000e-02 -3.679881691932678223e-01
1.903557777404785156e-02 8.072089403867721558e-02 -4.162138104438781738e-01
-4.042683839797973633e-01 7.479747384786605835e-02 -5.456689000129699707e-01
-4.504886269569396973e-02 6.787004321813583374e-02 -8.936154246330261230e-01
-1.798575520515441895e-01 8.835760504007339478e-02 -6.464329361915588379e-01
-2.805437743663787842e-01 6.190019100904464722e-02 -2.144419550895690918e-01
-6.268913298845291138e-02 6.287483870983123779e-02 -2.768445909023284912e-01
-1.441929340362548828e-01 8.710094541311264038e-02 -7.595113515853881836e-01
-2.312460839748382568e-01 6.036159396171569824e-02 -7.377840280532836914e-01
-1.859301328659057617e-02 5.985099822282791138e-02 -5.194602012634277344e-01
2.710561454296112061e-02 8.254031836986541748e-02 -7.626764178276062012e-01
-2.065339833498001099e-01 6.258952617645263672e-02 -8.108385205268859863e-01
-3.604434132575988770e-01 8.161397278308868408e-02 -4.717144966125488281e-01
-3.707555234432220459e-01 6.261709332466125488e-02 -5.182795524597167969e-01
-3.210683166980743408e-02 6.105475127696990967e-02 -7.236684560775756836e-01
-3.434104919433593750e-01 6.053942441940307617e-02 -3.665383458137512207e-01
-2.968679070472717285e-01 5.790729075670242310e-02 -4.414677619934082031e-01
-1.400962620973587036e-01 8.811157941818237305e-02 -7.004787325859069824e-01
-1.586609333753585815e-01 8.859604597091674805e-02 -6.386181116104125977e-01
-3.881531953811645508e-01 6.387579441070556641e-02 -4.246315062046051025e-01
-9.828142076730728149e-02 8.564594388008117676e-02 -3.759287893772125244e-01
-2.666399478912353516e-01 7.298022508621215820e-02 -1.431042253971099854e-01
-2.516133189201354980e-01 6.446988880634307861e-02 -8.111689090728759766e-01
-2.045592963695526123e-01 8.779496699571609497e-02 -4.668473303318023682e-01
-2.170974016189575195e-01 5.789905786514282227e-02 -6.550661325454711914e-01
-1.843816488981246948e-01 8.434078097343444824e-02 -2.968663573265075684e-01
-2.539803981781005859e-01 8.634612709283828735e-02 -4.221361875534057617e-01
-1.932011693716049194e-01 8.497536927461624146e-02 -3.171629905700683594e-01
-2.059561163187026978e-01 5.901378020644187927e-02 -2.635863721370697021e-01
-1.036729291081428528e-01 7.425551116466522217e-02 -1.795219480991363525e-01
-1.708831936120986938e-01 6.008806452155113220e-02 -7.634325623512268066e-01
4.734222590923309326e-02 6.501276046037673950e-02 -5.174330472946166992e-01
-1.392733603715896606e-01 8.535920083522796631e-02 -8.238465189933776855e-01
-2.250693291425704956e-01 8.753452450037002563e-02 -6.447609066963195801e-01
-9.969760477542877197e-02 8.841165155172348022e-02 -5.591660141944885254e-01
-3.932783007621765137e-02 6.434341520071029663e-02 -2.850981652736663818e-01
-1.926256269216537476e-01 6.111996993422508240e-02 -7.841854691505432129e-01
-2.156105637550354004e-01 8.812537789344787598e-02 -5.559124350547790527e-01
3.487616777420043945e-03 6.145364046096801758e-02 -4.861613810062408447e-01
-5.425851047039031982e-02 5.831513926386833191e-02 -5.033463835716247559e-01
-3.790254592895507812e-01 7.820799201726913452e-02 -3.580602705478668213e-01
-1.943185925483703613e-03 6.165261194109916687e-02 -6.813883781433105469e-01
-2.156750857830047607e-02 5.979046970605850220e-02 -6.027206182479858398e-01
-1.636605858802795410e-01 8.872275799512863159e-02 -5.960922837257385254e-01
-5.971220880746841431e-02 7.251065969467163086e-02 -9.353413581848144531e-01
-2.292419970035552979e-01 8.778760582208633423e-02 -5.233188867568969727e-01
3.633026778697967529e-02 8.334815502166748047e-02 -6.324397325515747070e-01
9.911999106407165527e-03 6.480834633111953735e-02 -7.781400084495544434e-01
-2.683506011962890625e-01 7.914651185274124146e-02 -8.361989259719848633e-01
7.063075900077819824e-03 8.526165038347244263e-02 -6.419321298599243164e-01
-2.799325883388519287e-01 8.483032882213592529e-02 -3.761942386627197266e-01
-2.435994148254394531e-02 8.297213912010192871e-02 -3.859488368034362793e-01
-1.151893734931945801e-01 8.790162205696105957e-02 -7.153908610343933105e-01
-2.622412145137786865e-02 8.121084421873092651e-02 -3.403455615043640137e-01
-3.693483471870422363e-01 7.082804292440414429e-02 -6.938527226448059082e-01
-1.773201227188110352e-01 5.610546842217445374e-02 -5.213500261306762695e-01
-8.551299571990966797e-02 5.766177177429199219e-02 -6.076627969741821289e-01
-2.509036660194396973e-02 8.420743793249130249e-02 -4.244678914546966553e-01
-1.894720196723937988e-01 5.751660838723182678e-02 -3.253631889820098877e-01
-2.522885203361511230e-01 6.684456020593643188e-02 -8.433101773262023926e-01
-1.221101358532905579e-01 8.377064764499664307e-02 -3.003741502761840820e-01
-3.555119037628173828e-01 8.085196465253829956e-02 -3.756335973739624023e-01
-9.144233167171478271e-02 5.782870575785636902e-02 -4.111979007720947266e-01
-9.115155041217803955e-02 8.795765042304992676e-02 -5.146350264549255371e-01
-2.897300720214843750e-01 5.804734677076339722e-02 -5.369772315025329590e-01
-2.027381360530853271e-01 8.695521950721740723e-02 -4.047837853431701660e-01
-8.837934583425521851e-02 5.826698243618011475e-02 -3.882876932621002197e-01
-3.396474719047546387e-01 5.990833789110183716e-02 -4.729154407978057861e-01
-3.601509928703308105e-01 6.287518143653869629e-02 -3.094023764133453369e-01
-2.580529153347015381e-01 8.691195398569107056e-02 -6.006459593772888184e-01
-5.238817632198333740e-02 6.406127661466598511e-02 -8.363585472106933594e-01
-1.903767883777618408e-01 5.721066892147064209e-02 -6.343668103218078613e-01
-2.957279384136199951e-01 7.851611077785491943e-02 -8.056862354278564453e-01
2.481430768966674805e-02 7.770468294620513916e-02 -8.580302000045776367e-01
-1.038715839385986328e-01 8.431412279605865479e-02 -3.276341259479522705e-01
-1.803616732358932495e-01 8.705252408981323242e-02 -7.413216829299926758e-01
-3.155854344367980957e-01 7.216699421405792236e-02 -8.028692007064819336e-01
-3.036471605300903320e-01 6.494298577308654785e-02 -7.568212151527404785e-01
-3.801795840263366699e-02 8.684073388576507568e-02 -5.442055463790893555e-01
-6.813904643058776855e-02 5.862553417682647705e-02 -6.544693112373352051e-01
-1.154461354017257690e-01 6.635721027851104736e-02 -8.965880870819091797e-01
-9.572766721248626709e-02 5.703547969460487366e-02 -5.140790343284606934e-01
1.850122213363647461e-02 8.232880383729934692e-02 -7.919861674308776855e-01
-1.579985022544860840e-03 8.377171307802200317e-02 -4.606035053730010986e-01
-1.260041743516921997e-01 4.426470398902893066e-02 -2.966636419296264648e-01
2.151330262422561646e-01 1.016596853733062744e-01 -6.096423864364624023e-01
3.901745378971099854e-02 9.702255576848983765e-02 7.113620638847351074e-02
5.663975328207015991e-02 3.979554399847984314e-02 6.235623359680175781e-02
1.198650375008583069e-01 3.699853643774986267e-02 -7.920197248458862305e-01
2.954192459583282471e-02 1.001630127429962158e-01 -5.403220653533935547e-01
3.998328000307083130e-02 8.930832147598266602e-02 -9.109863638877868652e-01
1.890247762203216553e-01 1.033507734537124634e-01 -4.853206872940063477e-01
-5.203390121459960938e-02 8.869615197181701660e-02 -7.733659744262695312e-01
8.485431224107742310e-02 3.315570950508117676e-02 -5.311257839202880859e-01
3.130049258470535278e-02 4.669832438230514526e-02 -9.471662044525146484e-01
-8.463335037231445312e-02 4.503900557756423950e-02 -6.804176568984985352e-01
1.409428119659423828e-01 1.030647754669189453e-01 -1.626430451869964600e-01
4.775780439376831055e-01 8.519575744867324829e-02 -3.175223469734191895e-01
2.945371270179748535e-01 9.885622560977935791e-02 -9.500584006309509277e-02
1.254288852214813232e-02 3.529003262519836426e-02 -5.195665359497070312e-01
2.696991264820098877e-01 8.693218231201171875e-02 2.389782071113586426e-01
3.340157270431518555e-01 9.400327503681182861e-02 -7.876274585723876953e-01
-5.823689699172973633e-02 9.707694500684738159e-02 -3.718514740467071533e-01
2.556058764457702637e-01 9.973824024200439453e-02 -6.774941682815551758e-01
2.954491078853607178e-01 5.446317046880722046e-02 -1.085607290267944336e+00
2.032724469900131226e-01 1.008484214544296265e-01 -4.750147461891174316e-02
4.463470578193664551e-01 8.908607065677642822e-02 -5.975019931793212891e-01
1.132600381970405579e-01 1.019797623157501221e-01 -5.752208828926086426e-01
-1.773386448621749878e-01 5.288741365075111389e-02 -1.774930655956268311e-01
3.095449805259704590e-01 9.123603999614715576e-02 1.160001456737518311e-01
2.574293017387390137e-01 7.362216711044311523e-02 -1.140302538871765137e+00
1.739450246095657349e-01 3.216196969151496887e-02 -3.703106939792633057e-01
8.380711078643798828e-04 9.739215672016143799e-02 -1.592159271240234375e-03
1.328777819871902466e-01 3.425073251128196716e-02 -6.742247343063354492e-01
-1.787305325269699097e-01 8.341344445943832397e-02 -2.590143382549285889e-01
4.539346098899841309e-01 8.952718228101730347e-02 -4.594789743423461914e-01
2.663849890232086182e-01 8.090579509735107422e-02 3.048975467681884766e-01
-1.577553153038024902e-02 3.625514358282089233e-02 -4.747861623764038086e-01
8.844295144081115723e-02 9.772804379463195801e-02 8.723217248916625977e-02
-4.771687090396881104e-02 9.643158316612243652e-02 -9.225615859031677246e-02
2.843807935714721680e-01 9.411656856536865234e-02 8.825388550758361816e-02
1.058025211095809937e-01 4.589438065886497498e-02 2.244200706481933594e-01
-1.478965431451797485e-01 4.714150354266166687e-02 -2.556800246238708496e-01
3.421593010425567627e-01 9.629038721323013306e-02 -6.822502613067626953e-01
4.431196451187133789e-01 4.585190117359161377e-02 -5.233993530273437500e-01
3.366190940141677856e-02 5.129562318325042725e-02 2.833516001701354980e-01
2.745636105537414551e-01 9.294521063566207886e-02 1.293044090270996094e-01
3.520166277885437012e-01 4.547254741191864014e-02 -3.688335418701171875e-03
-8.044750988483428955e-02 8.330733329057693481e-02 1.985278725624084473e-01
-1.662099510431289673e-01 6.419372558593750000e-02 8.199647068977355957e-02
2.988067865371704102e-01 8.374433219432830811e-02 -1.033813953399658203e+00
-1.016093045473098755e-01 4.224054142832756042e-02 -4.526759982109069824e-01
1.900144219398498535e-01 6.517840921878814697e-02 -1.167019963264465332e+00
4.939223527908325195e-01 7.030556350946426392e-02 -1.405086666345596313e-01
1.758425980806350708e-01 3.683212772011756897e-02 -8.012996912002563477e-01
-1.216664165258407593e-01 4.747273772954940796e-02 -5.076360702514648438e-02
2.437441200017929077e-01 1.024125888943672180e-01 -5.086145997047424316e-01
3.375721573829650879e-01 3.734785318374633789e-02 -3.358181416988372803e-01
3.703763484954833984e-01 8.858115971088409424e-02 -8.666121959686279297e-01
9.232680499553680420e-02 9.792909026145935059e-02 -7.463147640228271484e-01
2.306668013334274292e-01 4.686818271875381470e-02 -1.029082298278808594e+00
1.212300360202789307e-01 3.674195706844329834e-02 -1.660206913948059082e-02
6.664771586656570435e-02 1.027991473674774170e-01 -3.782091438770294189e-01
2.390322089195251465e-01 3.522516414523124695e-02 -1.648230999708175659e-01
-9.318275749683380127e-02 4.685543850064277649e-02 2.589747309684753418e-02
4.333757162094116211e-01 8.628896623849868774e-02 -8.609941601753234863e-02
-1.730125695466995239e-01 8.045242726802825928e-02 -4.623898863792419434e-02
-2.355889976024627686e-02 4.494691640138626099e-02 1.167820394039154053e-01
1.898265779018402100e-01 3.870446979999542236e-02 3.406569361686706543e-02
2.055033147335052490e-01 1.010630279779434204e-01 -6.507036089897155762e-01
-1.829266697168350220e-01 8.222420513629913330e-02 -3.531131744384765625e-01
-1.302956193685531616e-01 4.740096628665924072e-02 -5.663103461265563965e-01
-6.387774646282196045e-02 3.875234723091125488e-02 -3.862657248973846436e-01
4.434374570846557617e-01 7.266175746917724609e-02 -9.237876534461975098e-01
3.955357074737548828e-01 7.046733051538467407e-02 -1.026327610015869141e+00
3.097681403160095215e-01 3.828437998890876770e-02 -1.545373946428298950e-01
-1.057668179273605347e-01 4.214625060558319092e-02 -3.631679415702819824e-01
2.180661857128143311e-01 1.035480275750160217e-01 -3.463121652603149414e-01
2.048128247261047363e-01 4.060961678624153137e-02 -9.122095704078674316e-01
4.182525277137756348e-01 9.254424273967742920e-02 -5.730395317077636719e-01
1.339057087898254395e-01 1.015193164348602295e-01 -6.209985017776489258e-01
-1.389458775520324707e-03 9.974934160709381104e-02 -4.612698853015899658e-01
3.116068243980407715e-01 6.632389873266220093e-02 -1.125801563262939453e+00
4.274322837591171265e-02 3.371099382638931274e-02 -4.469500780105590820e-01
-6.776447594165802002e-02 8.790699392557144165e-02 1.458211541175842285e-01
-1.235488504171371460e-01 4.961255937814712524e-02 7.615715265274047852e-03
-1.797867268323898315e-01 7.597800344228744507e-02 -2.286046743392944336e-03
1.459233164787292480e-01 1.007588207721710205e-01 -6.672911643981933594e-01
-1.327109187841415405e-01 8.642385900020599365e-02 -5.730760693550109863e-01
1.807767301797866821e-01 8.282493799924850464e-02 -1.081940174102783203e+00
-1.830715984106063843e-01 6.237956136465072632e-02 -6.055343151092529297e-01
-9.481485188007354736e-02 9.310667961835861206e-02 -4.712984561920166016e-01
4.256929159164428711e-01 8.362662792205810547e-02 -8.440413475036621094e-01
2.300544381141662598e-01 3.357836976647377014e-02 -5.833870172500610352e-01
2.683127820491790771e-01 3.416274860501289368e-02 -5.332434177398681641e-01
1.041239947080612183e-01 9.439191222190856934e-02 -8.607223033905029297e-01
-1.300357133150100708e-01 9.079284965991973877e-02 -2.974435091018676758e-01
5.171338319778442383e-01 7.554663717746734619e-02 -3.993655145168304443e-01
8.322369307279586792e-02 9.346872568130493164e-02 1.985443830490112305e-01
1.478916406631469727e-01 8.031772822141647339e-02 -1.100588560104370117e+00
1.295441389083862305e-01 3.562115877866744995e-02 -6.402808427810668945e-02
-1.744118332862854004e-02 9.426750987768173218e-02 -6.989590525627136230e-01
1.893368661403656006e-01 1.038667336106300354e-01 -3.793374896049499512e-01
-2.800019085407257080e-02 4.055705666542053223e-02 -6.968901157379150391e-01
2.253344357013702393e-01 1.034075021743774414e-01 -3.845984935760498047e-01
4.337891191244125366e-02 1.015903353691101074e-01 -4.621041417121887207e-01
3.633433282375335693e-01 4.823059216141700745e-02 3.462368249893188477e-02
-1.019907742738723755e-01 9.296356886625289917e-02 -4.286265969276428223e-01
1.692052632570266724e-01 1.014519035816192627e-01 -6.368964910507202148e-01
4.895667433738708496e-01 8.102997392416000366e-02 -6.361119747161865234e-01
4.622961878776550293e-01 6.181460618972778320e-02 -8.703488111495971680e-01
-1.749766618013381958e-01 5.468418821692466736e-02 -9.018826484680175781e-02
2.433326989412307739e-01 4.021775722503662109e-02 -8.847162723541259766e-01
1.865973770618438721e-01 1.037651300430297852e-01 -4.198653995990753174e-01
-2.601322531700134277e-02 3.641877695918083191e-02 -3.881271779537200928e-01
3.149664103984832764e-01 4.232003539800643921e-02 -8.679146766662597656e-01
-8.277828991413116455e-02 4.015084356069564819e-02 -3.227233588695526123e-01
1.499423384666442871e-01 3.457622230052947998e-02 -1.186568140983581543e-01
4.248913526535034180e-01 9.243373572826385498e-02 -3.069247007369995117e-01
2.979992926120758057e-01 8.806671202182769775e-02 1.892459988594055176e-01
-3.555175662040710449e-02 3.716186434030532837e-02 -4.455011487007141113e-01
-1.466727256774902344e-02 9.533949196338653564e-02 4.919248819351196289e-02
2.857890725135803223e-01 3.916328400373458862e-02 -8.098270893096923828e-01
9.982806444168090820e-02 9.630748629570007324e-02 -8.053102493286132812e-01
1.202781051397323608e-01 3.282560408115386963e-02 -2.523667812347412109e-01
4.589962363243103027e-01 5.299118906259536743e-02 -7.623456716537475586e-01
1.220735907554626465e-02 4.972858726978302002e-02 2.463266849517822266e-01
-1.622244715690612793e-03 4.784649237990379333e-02 -9.223726391792297363e-01
4.410254359245300293e-01 5.660106614232063293e-02 -2.742445468902587891e-02
-5.731835961341857910e-03 8.838793635368347168e-02 -8.666520714759826660e-01
4.410327672958374023e-01 4.736693948507308960e-02 -6.648567318916320801e-01
1.933948844671249390e-01 3.226749971508979797e-02 -4.160283505916595459e-01
9.055332094430923462e-02 1.013024225831031799e-01 -6.548604369163513184e-02
1.483481675386428833e-01 1.038050353527069092e-01 -2.567899823188781738e-01
-8.009910583496093750e-02 9.483163058757781982e-02 -1.482091844081878662e-01
7.262141257524490356e-02 9.502270072698593140e-02 1.570358872413635254e-01
4.690761119127273560e-02 9.947367757558822632e-02 -6.204078197479248047e-01
3.980291485786437988e-01 4.245038703083992004e-02 -2.765155732631683350e-01
4.057384133338928223e-01 9.095813333988189697e-02 -1.145308911800384521e-01
1.849351972341537476e-01 1.029767990112304688e-01 -1.698728203773498535e-01
1.805292665958404541e-01 4.082311689853668213e-02 1.008179485797882080e-01
4.117931127548217773e-01 5.008614063262939453e-02 -8.584627509117126465e-01
4.956791400909423828e-01 8.219530433416366577e-02 -5.078769922256469727e-01
-9.321707487106323242e-02 8.758861571550369263e-02 9.442225098609924316e-02
1.954326331615447998e-01 4.674685373902320862e-02 -1.034357070922851562e+00
4.084820747375488281e-01 4.949576035141944885e-02 -5.562934279441833496e-02
1.165529265999794006e-01 4.045015573501586914e-02 1.042222380638122559e-01
1.323593407869338989e-01 9.798447787761688232e-02 -7.732065320014953613e-01
-7.576847076416015625e-02 8.194990456104278564e-02 -8.402287960052490234e-01
7.801145315170288086e-02 3.281924501061439514e-02 -3.379749953746795654e-01
-1.713257580995559692e-01 5.514717847108840942e-02 -5.680665373802185059e-01
4.645450115203857422e-01 5.172860249876976013e-02 -6.999552845954895020e-01
-4.581417143344879150e-02 6.642584502696990967e-02 3.293446302413940430e-01
1.859204620122909546e-01 1.039074212312698364e-01 -3.274855315685272217e-01
1.362961083650588989e-01 5.912252515554428101e-02 -1.141192555427551270e+00
1.947988569736480713e-02 9.916499257087707520e-02 -5.076932907104492188e-02
4.029248654842376709e-01 4.712460190057754517e-02 -9.961009025573730469e-02
1.839798688888549805e-02 9.575006365776062012e-02 -7.213135361671447754e-01
4.116394519805908203e-01 6.181163340806961060e-02 -9.918905496597290039e-01
-1.358083635568618774e-01 8.970908075571060181e-02 -3.774782717227935791e-01
-2.794249355792999268e-02 4.973972588777542114e-02 2.064219713211059570e-01
7.299112528562545776e-02 3.351635485887527466e-02 -2.407924085855484009e-01
2.191094607114791870e-01 9.342399239540100098e-02 -9.073234796524047852e-01
-1.383302360773086548e-01 5.006524175405502319e-02 -6.140778064727783203e-01
-1.498537510633468628e-01 8.703424036502838135e-02 -4.377612769603729248e-01
1.247926950454711914e-01 5.243674293160438538e-02 -1.090477228164672852e+00
4.662273824214935303e-02 3.711500018835067749e-02 -7.179591655731201172e-01
1.674287021160125732e-02 1.006268411874771118e-01 -1.664245575666427612e-01
-1.753924787044525146e-02 9.069488197565078735e-02 -7.981685400009155273e-01
-1.674296706914901733e-01 4.984445869922637939e-02 -3.160616755485534668e-01
-1.056788712739944458e-01 8.354661613702774048e-02 -7.400257587432861328e-01
-7.957494258880615234e-02 8.859719336032867432e-02 -7.061042189598083496e-01
2.288208007812500000e-01 8.845208585262298584e-02 -1.002102136611938477e+00
2.840174734592437744e-01 1.000616550445556641e-01 -6.140549778938293457e-01
3.884013593196868896e-01 9.606575965881347656e-02 -3.431482613086700439e-01
1.709964871406555176e-02 3.573775663971900940e-02 -5.764751434326171875e-01
3.373349905014038086e-01 8.598351478576660156e-02 -9.646371603012084961e-01
7.165284454822540283e-02 3.517079725861549377e-02 -6.631958484649658203e-01
-1.700007468461990356e-01 5.072896182537078857e-02 -4.021135568618774414e-01
3.302677869796752930e-01 4.194611310958862305e-02 -5.674865841865539551e-02
1.359581500291824341e-01 9.148761630058288574e-02 -9.425230622291564941e-01
3.746032118797302246e-01 3.944580629467964172e-02 -5.263035893440246582e-01
-1.019790619611740112e-01 5.564512684941291809e-02 -8.297826051712036133e-01
1.404038369655609131e-01 5.192545801401138306e-02 3.126219511032104492e-01
1.662436276674270630e-01 3.358160704374313354e-02 -6.397079229354858398e-01
2.614539861679077148e-01 3.455300629138946533e-02 -6.049199104309082031e-01
4.431679844856262207e-01 8.833299577236175537e-02 -1.950269788503646851e-01
2.317113280296325684e-01 8.682821691036224365e-02 2.744671702384948730e-01
-1.130475550889968872e-01 4.353590309619903564e-02 -2.096099704504013062e-01
3.660820126533508301e-01 5.232767015695571899e-02 1.013922989368438721e-01
2.178638875484466553e-01 3.585973754525184631e-02 -7.467437982559204102e-01
-4.081216454505920410e-02 4.287537187337875366e-02 3.085166215896606445e-02
3.294591903686523438e-01 4.471028596162796021e-02 2.444529533386230469e-02
2.640095949172973633e-01 1.016016900539398193e-01 -1.959776133298873901e-01
3.331500291824340820e-01 4.619685932993888855e-02 -9.338358044624328613e-01
-2.769123017787933350e-02 3.651768341660499573e-02 -3.367624282836914062e-01
6.411262601613998413e-02 9.563277661800384521e-02 -7.908225059509277344e-01
1.057824492454528809e-02 9.169183671474456787e-02 -8.224101066589355469e-01
2.866404652595520020e-01 3.454036638140678406e-02 -4.645944237709045410e-01
-3.216409683227539062e-02 8.611495792865753174e-02 2.344918251037597656e-01
3.807098269462585449e-01 9.099192917346954346e-02 -7.832467555999755859e-01
2.564132213592529297e-01 4.363710433244705200e-02 -9.586856961250305176e-01
1.482069641351699829e-01 7.968929409980773926e-02 3.793606758117675781e-01
-3.301906585693359375e-02 7.562941312789916992e-02 -9.801754951477050781e-01
3.026254773139953613e-01 9.635103493928909302e-02 -7.582628726959228516e-01
2.904063463211059570e-01 4.396913945674896240e-02 -9.381736516952514648e-01
-2.238553762435913086e-02 3.642600402235984802e-02 -2.859947383403778076e-01
4.369223117828369141e-01 9.119638055562973022e-02 -5.207760930061340332e-01
-1.548064202070236206e-01 8.526746183633804321e-02 -8.478859066963195801e-02
1.012841388583183289e-01 3.235414624214172363e-02 -3.858649432659149170e-01
4.056937694549560547e-01 9.384578466415405273e-02 -2.587526142597198486e-01
-3.294375538825988770e-02 9.059593081474304199e-02 1.510885357856750488e-01
2.279616594314575195e-01 6.177128851413726807e-02 -1.157542228698730469e+00
3.779894858598709106e-02 7.538563013076782227e-02 3.856932520866394043e-01
-6.873096525669097900e-02 4.174041375517845154e-02 -8.551707863807678223e-02
1.144216433167457581e-01 4.053438454866409302e-02 -8.954054117202758789e-01
7.936669886112213135e-02 8.105906844139099121e-02 3.680529594421386719e-01
9.301745146512985229e-02 3.928530216217041016e-02 6.569388508796691895e-02
6.730526685714721680e-03 3.972815349698066711e-02 6.504535675048828125e-03
3.232798874378204346e-01 7.702701538801193237e-02 -1.079882979393005371e+00
4.257583618164062500e-02 6.544166803359985352e-02 -1.099308252334594727e+00
1.779536604881286621e-01 8.752033859491348267e-02 2.959998250007629395e-01
2.707507014274597168e-01 1.007800847291946411e-01 -1.496037095785140991e-01
-1.009334474802017212e-01 9.362905472517013550e-02 -2.179565578699111938e-01
2.886917591094970703e-01 1.012296974658966064e-01 -4.998386502265930176e-01
1.879702806472778320e-01 3.743650019168853760e-02 -8.373916149139404297e-03
-1.209089010953903198e-01 8.944483101367950439e-02 -5.178889632225036621e-01
