-6.783487200736999512e-01 3.463704586029052734e-01 6.318328529596328735e-02
-5.646843910217285156e-01 -7.669806480407714844e-03 1.070565059781074524e-01
-6.881217956542968750e-01 1.414948850870132446e-01 -3.940470814704895020e-01
-5.859060883522033691e-01 1.628159582614898682e-01 -2.513091266155242920e-01
-5.472562313079833984e-01 1.076363027095794678e-01 -1.355619169771671295e-03
-8.499000072479248047e-01 2.984438538551330566e-01 -6.598775088787078857e-02
-5.561523437500000000e-01 1.063523441553115845e-02 -1.084096804261207581e-01
-8.382596969604492188e-01 3.246551752090454102e-02 1.994238495826721191e-01
-5.863202214241027832e-01 5.393959581851959229e-02 2.443211674690246582e-01
-5.594493150711059570e-01 -1.679703593254089355e-03 7.947910577058792114e-02
-8.493903279304504395e-01 3.375449031591415405e-02 -3.330543637275695801e-02
-7.183375954627990723e-01 1.230270490050315857e-01 4.114837646484375000e-01
-8.575599193572998047e-01 1.410280764102935791e-01 -1.621993333101272583e-01
-5.480924248695373535e-01 8.956076204776763916e-02 -9.375539422035217285e-02
-6.464189291000366211e-01 2.658464908599853516e-01 2.359495162963867188e-01
-8.567864298820495605e-01 2.709821462631225586e-01 -9.845637530088424683e-02
-8.745246529579162598e-01 2.306882739067077637e-01 1.038861125707626343e-01
-7.076553702354431152e-01 3.041323125362396240e-01 -2.751047909259796143e-01
-6.223144531250000000e-01 -1.001987904310226440e-01 9.076842665672302246e-02
-5.993759632110595703e-01 2.668840885162353516e-01 2.706709317862987518e-03
-5.770940780639648438e-01 -2.826908230781555176e-02 1.372417509555816650e-01
-7.385073304176330566e-01 -1.020216494798660278e-01 -4.170573502779006958e-02
-8.239313960075378418e-01 2.584929466247558594e-01 2.766221761703491211e-01
-6.493791937828063965e-01 -1.023654043674468994e-01 1.513965725898742676e-01
-7.831516265869140625e-01 3.007396161556243896e-01 2.718044817447662354e-01
-8.736407756805419922e-01 2.448637932538986206e-01 -3.789576701819896698e-03
-7.183789610862731934e-01 -8.551093935966491699e-02 2.189834713935852051e-01
-8.549057841300964355e-01 2.397227287292480469e-01 2.130574882030487061e-01
-8.233779668807983398e-01 4.813944548368453979e-02 -2.023734599351882935e-01
-7.894775867462158203e-01 -2.795115113258361816e-02 -1.676925271749496460e-01
-7.935421466827392578e-01 7.784806191921234131e-02 3.619088828563690186e-01
-8.005657196044921875e-01 2.056430578231811523e-01 3.532251417636871338e-01
-5.648013353347778320e-01 1.467556804418563843e-01 1.250586956739425659e-01
-8.206116557121276855e-01 1.728044152259826660e-01 3.367101550102233887e-01
-8.257273435592651367e-01 -1.507002115249633789e-02 1.110256984829902649e-01
-6.488080024719238281e-01 1.098868399858474731e-01 3.666712045669555664e-01
-8.049488067626953125e-01 3.531032204627990723e-01 7.648325711488723755e-02
-8.159896135330200195e-01 -3.190134465694427490e-02 9.413462877273559570e-02
-6.645673513412475586e-01 1.818169951438903809e-01 3.590669035911560059e-01
-6.040157675743103027e-01 -6.294895708560943604e-02 -1.668762117624282837e-01
-7.398356199264526367e-01 1.895105838775634766e-01 -3.771742284297943115e-01
-8.599569797515869141e-01 1.151162758469581604e-01 -1.321313232183456421e-01
-8.083632588386535645e-01 3.015239834785461426e-01 2.405466288328170776e-01
-5.878585577011108398e-01 2.080414295196533203e-01 1.493696570396423340e-01
-7.793498635292053223e-01 7.014327496290206909e-02 -3.204899728298187256e-01
-8.138141036033630371e-01 -2.198387682437896729e-02 1.680776327848434448e-01
-8.398927450180053711e-01 2.126315236091613770e-01 2.815351188182830811e-01
-8.391608595848083496e-01 5.421612411737442017e-02 2.351769655942916870e-01
-8.517245054244995117e-01 4.756385833024978638e-02 1.532159000635147095e-01
-5.547765493392944336e-01 1.554882973432540894e-01 -1.012398675084114075e-02
-8.334410190582275391e-01 8.548270165920257568e-02 2.881018519401550293e-01
-6.919784545898437500e-01 -3.690040111541748047e-02 -2.870591878890991211e-01
-7.700263261795043945e-01 2.224317789077758789e-01 3.678072392940521240e-01
-8.026297688484191895e-01 3.584820628166198730e-01 1.366502139717340469e-02
-6.983885765075683594e-01 1.698369085788726807e-01 3.935967385768890381e-01
-5.729324817657470703e-01 7.594190537929534912e-03 -1.966701149940490723e-01
-8.736980557441711426e-01 1.070106625556945801e-01 4.153233487159013748e-03
-8.202376365661621094e-01 3.086779117584228516e-01 2.023503780364990234e-01
-6.056966781616210938e-01 2.038809061050415039e-01 -2.680153548717498779e-01
-7.302914261817932129e-01 7.113084197044372559e-03 -3.218541145324707031e-01
-7.072591185569763184e-01 3.344425857067108154e-01 -2.069313973188400269e-01
-8.639215826988220215e-01 2.801186740398406982e-01 3.035983070731163025e-02
-6.020308136940002441e-01 2.280399501323699951e-01 -2.211560010910034180e-01
-8.616730570793151855e-01 7.894863188266754150e-02 -6.545543670654296875e-02
-7.988479733467102051e-01 1.047745645046234131e-01 -3.084994554519653320e-01
-8.077275753021240234e-01 3.473342657089233398e-01 1.039445400238037109e-01
-8.295797705650329590e-01 -1.105096936225891113e-02 -1.372551545500755310e-03
-5.973600149154663086e-01 2.618476748466491699e-02 2.625603079795837402e-01
-8.329843878746032715e-01 2.570695579051971436e-01 -2.112763822078704834e-01
-8.676028847694396973e-01 2.686523497104644775e-01 5.566365271806716919e-02
-6.241267919540405273e-01 1.102154031395912170e-01 3.301828205585479736e-01
-8.649057149887084961e-01 8.497410267591476440e-02 1.398030966520309448e-01
-6.323402523994445801e-01 2.041166424751281738e-01 -3.228617310523986816e-01
-5.482820272445678711e-01 1.060587465763092041e-01 2.788323350250720978e-02
-8.587386608123779297e-01 1.521463692188262939e-01 2.374265491962432861e-01
-7.519784569740295410e-01 -9.661988914012908936e-02 8.039530366659164429e-02
-7.345253229141235352e-01 -2.029998600482940674e-02 -2.837746143341064453e-01
-7.453560233116149902e-01 1.444636285305023193e-01 -3.806826174259185791e-01
-6.660102605819702148e-01 3.324008584022521973e-01 9.656787663698196411e-02
-8.210603594779968262e-01 -2.623504400253295898e-02 7.022573053836822510e-02
-5.933960676193237305e-01 1.670011579990386963e-01 2.280090898275375366e-01
-7.111113667488098145e-01 2.511894702911376953e-01 -3.451954126358032227e-01
-5.642250776290893555e-01 1.109005510807037354e-01 1.546869128942489624e-01
-6.198610067367553711e-01 -7.782891392707824707e-03 2.847381830215454102e-01
-7.240594625473022461e-01 3.592319488525390625e-01 1.126608848571777344e-01
-7.607172131538391113e-01 8.360677957534790039e-02 -3.521450459957122803e-01
-5.571812391281127930e-01 1.383729875087738037e-01 8.101107925176620483e-02
-5.753326416015625000e-01 -4.047922790050506592e-02 9.699589014053344727e-02
-7.780568003654479980e-01 -3.040398657321929932e-02 -1.937046498060226440e-01
-6.416141986846923828e-01 3.207107782363891602e-01 -6.317795813083648682e-02
-7.697397470474243164e-01 -7.361176609992980957e-02 1.555841267108917236e-01
-8.543004393577575684e-01 3.747343271970748901e-02 4.114308208227157593e-02
-8.763706684112548828e-01 1.579795479774475098e-01 -5.198322236537933350e-02
-7.469248771667480469e-01 3.091878890991210938e-01 2.700221538543701172e-01
-7.086849808692932129e-01 -1.181196421384811401e-01 3.178178519010543823e-02
-5.456672310829162598e-01 9.010454267263412476e-02 -2.662609703838825226e-02
-7.917667627334594727e-01 3.634563088417053223e-01 -2.179568819701671600e-02
-5.838860869407653809e-01 2.394334375858306885e-01 -3.487262129783630371e-02
-5.641289353370666504e-01 1.903324425220489502e-01 -3.099947981536388397e-02
-6.945967078208923340e-01 3.535835742950439453e-01 -1.074822619557380676e-01
-8.776840567588806152e-01 2.236041724681854248e-01 6.975464522838592529e-02
-8.157131075859069824e-01 -2.992016077041625977e-02 -2.774981223046779633e-02
-6.586270928382873535e-01 2.374379336833953857e-01 3.013313114643096924e-01
-7.602274417877197266e-01 -3.926818072795867920e-02 -2.140631377696990967e-01
-7.351530790328979492e-01 1.025553420186042786e-01 4.105925559997558594e-01
-5.678656101226806641e-01 8.246704936027526855e-02 1.813822388648986816e-01
-6.503235101699829102e-01 2.346133291721343994e-01 -3.195104598999023438e-01
-7.930675745010375977e-01 -3.443196415901184082e-02 -1.381411552429199219e-01
-5.622710585594177246e-01 1.674067080020904541e-01 6.766841560602188110e-02
-8.583721518516540527e-01 8.730049431324005127e-02 1.920602619647979736e-01
-5.657412409782409668e-01 -3.518088161945343018e-02 1.853721961379051208e-02
-5.734937191009521484e-01 5.624290555715560913e-02 2.023600041866302490e-01
-5.816991925239562988e-01 2.188886553049087524e-01 8.419995009899139404e-02
-7.678921222686767578e-01 2.463700622320175171e-01 3.494542837142944336e-01
-8.771715760231018066e-01 2.186661660671234131e-01 -2.040391415357589722e-02
-8.329299092292785645e-01 1.315691173076629639e-01 -2.438712567090988159e-01
-7.746569514274597168e-01 1.789908111095428467e-02 -2.793799936771392822e-01
-5.779186487197875977e-01 2.173726260662078857e-01 5.532032251358032227e-02
-7.874401807785034180e-01 -2.962087094783782959e-02 2.438602596521377563e-01
-8.266836404800415039e-01 1.569284498691558838e-02 -1.317022144794464111e-01
-7.453758716583251953e-01 -6.796990334987640381e-02 -1.735101491212844849e-01
-7.278262376785278320e-01 2.951133549213409424e-01 2.898227870464324951e-01
-8.329702019691467285e-01 1.853556185960769653e-02 -1.068313121795654297e-01
-7.607337832450866699e-01 3.511594533920288086e-01 -1.613182574510574341e-01
-6.073837280273437500e-01 -9.468169510364532471e-02 -2.918353863060474396e-02
-7.485226988792419434e-01 1.873284578323364258e-01 3.950258195400238037e-01
-7.417041063308715820e-01 2.951232343912124634e-02 -3.338868618011474609e-01
-8.756654262542724609e-01 1.308532357215881348e-01 1.162184402346611023e-01
-8.204572796821594238e-01 3.210134506225585938e-01 1.694794595241546631e-01
-5.517227053642272949e-01 5.424596369266510010e-02 8.375506848096847534e-02
-5.896481275558471680e-01 -4.402917623519897461e-02 1.591245681047439575e-01
-6.026051044464111328e-01 1.067126616835594177e-01 -3.157395422458648682e-01
-8.049248456954956055e-01 -4.280747473239898682e-02 1.251719444990158081e-01
-8.067374825477600098e-01 2.807347476482391357e-01 2.768156826496124268e-01
-7.735669016838073730e-01 2.061450034379959106e-01 -3.460960388183593750e-01
-8.166655302047729492e-01 -5.944505333900451660e-03 -1.222667396068572998e-01
-6.774404048919677734e-01 2.121490538120269775e-01 -3.641082644462585449e-01
-6.387141942977905273e-01 2.221550494432449341e-01 2.843494415283203125e-01
-8.804107904434204102e-01 1.939372569322586060e-01 3.720062319189310074e-03
-5.819080471992492676e-01 9.496906399726867676e-02 2.320840358734130859e-01
-6.991146802902221680e-01 1.922916769981384277e-01 -3.829484879970550537e-01
-6.889668703079223633e-01 -8.287279307842254639e-02 -1.976368874311447144e-01
-8.741270303726196289e-01 2.235208749771118164e-01 -5.084295570850372314e-02
-8.003734946250915527e-01 1.049409061670303345e-02 -2.137885093688964844e-01
-8.163730502128601074e-01 2.096391469240188599e-02 -1.832420229911804199e-01
-7.174201011657714844e-01 1.503690928220748901e-01 4.072615802288055420e-01
-6.266422867774963379e-01 2.438658028841018677e-01 2.253527939319610596e-01
-8.447186946868896484e-01 1.823183447122573853e-01 -2.170536816120147705e-01
-7.712002992630004883e-01 -4.908743500709533691e-02 -1.657596528530120850e-01
-7.411089539527893066e-01 -7.374016940593719482e-02 2.259718179702758789e-01
-8.792738318443298340e-01 1.871936172246932983e-01 -2.281232737004756927e-02
-8.166072964668273926e-01 2.335541248321533203e-01 3.133913278579711914e-01
-6.270800828933715820e-01 2.962545156478881836e-01 8.186876773834228516e-02
-5.516735315322875977e-01 1.559299230575561523e-02 3.097037039697170258e-02
-8.684920668601989746e-01 2.141668498516082764e-01 -1.045531481504440308e-01
-6.320939660072326660e-01 -9.479279816150665283e-02 -1.304683685302734375e-01
-8.725532293319702148e-01 1.643750071525573730e-01 -8.789968490600585938e-02
-8.025453090667724609e-01 -7.500931620597839355e-03 -1.734095364809036255e-01
-7.834634780883789062e-01 -1.155367493629455566e-02 2.876830995082855225e-01
-5.492482185363769531e-01 6.695590913295745850e-02 -1.091910377144813538e-01
-8.071096539497375488e-01 2.904030084609985352e-01 -2.307039350271224976e-01
-6.901746392250061035e-01 2.679855227470397949e-01 -3.192964494228363037e-01
-5.687153339385986328e-01 4.623075574636459351e-02 1.800642013549804688e-01
-7.182302474975585938e-01 -9.722800552845001221e-02 1.791197508573532104e-01
-8.754971623420715332e-01 2.399504184722900391e-01 3.577604889869689941e-02
-6.562054157257080078e-01 -7.994660735130310059e-02 2.270425111055374146e-01
-5.471472144126892090e-01 5.971851944923400879e-02 -7.843174785375595093e-02
-8.439924716949462891e-01 2.137936353683471680e-01 -2.106515318155288696e-01
-6.752011775970458984e-01 3.492950201034545898e-01 -8.093107491731643677e-03
-8.328273892402648926e-01 8.743469417095184326e-02 -2.162484526634216309e-01
-6.962313652038574219e-01 -1.146586835384368896e-01 1.141201108694076538e-01
-8.588714599609375000e-01 4.998563230037689209e-02 6.231599301099777222e-02
-8.107354640960693359e-01 2.559894919395446777e-01 -2.633547782897949219e-01
-8.544277548789978027e-01 5.248156189918518066e-02 -5.540535598993301392e-02
-5.749363303184509277e-01 1.853410154581069946e-01 1.240210682153701782e-01
-5.514212846755981445e-01 9.726662933826446533e-02 -1.261491179466247559e-01
-7.891783714294433594e-01 3.508729934692382812e-01 1.353707015514373779e-01
-5.766946077346801758e-01 -3.190840780735015869e-02 -1.452235132455825806e-01
-5.643044114112854004e-01 9.445808827877044678e-03 1.310000568628311157e-01
-7.968999743461608887e-01 2.667116373777389526e-02 -2.461498230695724487e-01
-8.441661596298217773e-01 7.707132399082183838e-02 -1.637511402368545532e-01
-6.201362609863281250e-01 2.221139967441558838e-01 2.415677309036254883e-01
-7.060979604721069336e-01 2.160567343235015869e-01 3.703621625900268555e-01
-5.936386585235595703e-01 8.781014382839202881e-02 -2.971068024635314941e-01
-8.125218152999877930e-01 3.060027360916137695e-01 -1.936248838901519775e-01
-7.403523325920104980e-01 8.239445090293884277e-02 -3.698866069316864014e-01
-8.227387070655822754e-01 1.622461080551147461e-01 -2.760320901870727539e-01
-5.596508383750915527e-01 1.064493656158447266e-01 -1.792970299720764160e-01
-6.121805906295776367e-01 1.737188547849655151e-02 -3.000521957874298096e-01
-7.040303349494934082e-01 3.336793184280395508e-01 1.850881725549697876e-01
-5.988947749137878418e-01 -3.440639376640319824e-02 2.066396176815032959e-01
-7.673115134239196777e-01 3.352134227752685547e-01 -2.027240842580795288e-01
-6.944226622581481934e-01 -1.172937303781509399e-01 -4.740878194570541382e-02
-8.497530221939086914e-01 6.185189634561538696e-02 1.987587660551071167e-01
-6.946014761924743652e-01 -1.116973310708999634e-01 -8.733952045440673828e-02
-5.884653925895690918e-01 2.086069285869598389e-01 -2.025946825742721558e-01
-6.565921306610107422e-01 1.465540379285812378e-01 3.671599626541137695e-01
-8.223048448562622070e-01 4.288651049137115479e-02 2.761363685131072998e-01
-8.716355562210083008e-01 1.041917949914932251e-01 1.123466491699218750e-01
-6.791020035743713379e-01 2.087506651878356934e-01 3.555046319961547852e-01
-8.602160215377807617e-01 2.253845930099487305e-01 -1.414321064949035645e-01
-8.504292964935302734e-01 2.979845553636550903e-02 9.066229686141014099e-03
-5.490559339523315430e-01 1.232139021158218384e-01 -5.180031061172485352e-02
-5.554840564727783203e-01 -4.099503159523010254e-03 -5.244689434766769409e-02
-7.791128754615783691e-01 1.958025246858596802e-01 3.777100741863250732e-01
-6.167463064193725586e-01 8.085530251264572144e-02 -3.374071717262268066e-01
-6.147499084472656250e-01 -2.459591627120971680e-02 -2.597337365150451660e-01
-8.313349485397338867e-01 2.671486139297485352e-01 2.500884234905242920e-01
-6.118300557136535645e-01 1.821544468402862549e-01 -3.033304214477539062e-01
-8.348695039749145508e-01 2.031366229057312012e-01 -2.412655800580978394e-01
-7.138613462448120117e-01 3.274935483932495117e-01 -2.298993170261383057e-01
-8.014768362045288086e-01 -3.143709897994995117e-02 1.937242299318313599e-01
-6.097261309623718262e-01 -8.521293103694915771e-02 1.150788664817810059e-01
-7.773674726486206055e-01 3.463728427886962891e-01 1.685210168361663818e-01
-7.117671370506286621e-01 2.662747353315353394e-02 3.834300339221954346e-01
-6.014309525489807129e-01 1.800050139427185059e-01 -2.811612188816070557e-01
-7.262176275253295898e-01 3.519463539123535156e-01 -1.628832370042800903e-01
-8.620452880859375000e-01 1.263116300106048584e-01 2.124330252408981323e-01
-7.356985211372375488e-01 3.350985944271087646e-01 2.097480148077011108e-01
-7.869929671287536621e-01 2.856983542442321777e-01 2.920326888561248779e-01
-6.566143035888671875e-01 -1.202493160963058472e-01 2.154097333550453186e-02
-6.225178241729736328e-01 1.569795310497283936e-01 3.093062341213226318e-01
-6.452521681785583496e-01 3.210441768169403076e-01 5.165667086839675903e-02
-5.547468662261962891e-01 1.543226540088653564e-01 -5.692765861749649048e-02
-5.789969563484191895e-01 -5.540342628955841064e-02 -7.886780053377151489e-02
-7.973502278327941895e-01 2.112110555171966553e-01 -3.142068684101104736e-01
-8.001400828361511230e-01 5.453211814165115356e-02 -2.705107927322387695e-01
-8.232052326202392578e-01 1.895892620086669922e-01 -2.731398642063140869e-01
-8.698031902313232422e-01 2.543277740478515625e-01 -3.087533824145793915e-02
-7.956345081329345703e-01 2.594382762908935547e-01 -2.854999005794525146e-01
-7.247087955474853516e-01 -2.688241004943847656e-02 3.296927511692047119e-01
-6.574067473411560059e-01 -1.178013533353805542e-01 -4.170048981904983521e-02
-5.999335050582885742e-01 2.145774066448211670e-01 1.891834586858749390e-01
-5.770524740219116211e-01 -5.887906253337860107e-02 -1.013833656907081604e-02
-8.773309588432312012e-01 1.794655025005340576e-01 1.282257437705993652e-01
-8.293505311012268066e-01 4.069286584854125977e-02 -1.701483279466629028e-01
-6.705065965652465820e-01 3.451701998710632324e-01 -5.567048490047454834e-02
-5.586079359054565430e-01 -1.744751632213592529e-02 -8.127706125378608704e-03
-5.589681863784790039e-01 5.734195560216903687e-02 1.357060670852661133e-01
-6.265490055084228516e-01 1.564034074544906616e-01 -3.437221646308898926e-01
-5.767178535461425781e-01 2.203618586063385010e-01 2.246412634849548340e-02
-6.003062129020690918e-01 1.315238773822784424e-01 2.726704180240631104e-01
-7.533615827560424805e-01 3.707388043403625488e-01 5.289413034915924072e-02
-6.094726324081420898e-01 -1.175814867019653320e-02 2.606963813304901123e-01
-5.476636886596679688e-01 3.285645693540573120e-02 -2.439391054213047028e-02
-6.641504764556884766e-01 1.242237985134124756e-01 3.814398348331451416e-01
-5.540558695793151855e-01 1.289857178926467896e-01 -1.198692023754119873e-01
-8.560396432876586914e-01 2.024778425693511963e-01 -1.723282784223556519e-01
-6.113564372062683105e-01 1.589307487010955811e-01 2.839657962322235107e-01
-7.103871107101440430e-01 1.716154813766479492e-02 -3.439864218235015869e-01
-7.921311259269714355e-01 -4.778340458869934082e-02 1.749247908592224121e-01
-8.313401937484741211e-01 1.790059208869934082e-01 3.148650825023651123e-01
-8.533638715744018555e-01 7.164831459522247314e-02 -1.094694882631301880e-01
-7.478896975517272949e-01 5.041228979825973511e-02 3.887765705585479736e-01
-5.952229499816894531e-01 -7.263717055320739746e-02 -1.027150750160217285e-01
-7.149959802627563477e-01 3.174906671047210693e-01 -2.528173923492431641e-01
-8.420838117599487305e-01 8.237381279468536377e-02 2.585136890411376953e-01
-6.410238146781921387e-01 3.131915926933288574e-01 -1.214997321367263794e-01
-6.893036961555480957e-01 7.060694694519042969e-02 3.976341187953948975e-01
-7.608699798583984375e-01 -8.626812696456909180e-02 -4.979874938726425171e-02
-8.775922656059265137e-01 2.065568566322326660e-01 1.076144501566886902e-01
-6.236487030982971191e-01 2.615348398685455322e-01 -2.257176786661148071e-01
-6.466156840324401855e-01 9.122457355260848999e-02 -3.719031512737274170e-01
-6.586953997611999512e-01 5.661501735448837280e-02 3.723554015159606934e-01
-6.003345847129821777e-01 2.617917656898498535e-01 -1.132468059659004211e-01
-6.044982671737670898e-01 2.653943300247192383e-01 7.552137970924377441e-02
-6.726202368736267090e-01 -6.062421202659606934e-02 -2.489845305681228638e-01
-7.727673053741455078e-01 3.627766668796539307e-01 9.968259185552597046e-02
-7.628480195999145508e-01 -4.483713209629058838e-02 2.622434496879577637e-01
-8.747109174728393555e-01 1.085799932479858398e-01 6.114449352025985718e-02
-5.655434727668762207e-01 1.639763712882995605e-01 1.029006615281105042e-01
-6.824650168418884277e-01 2.937498688697814941e-01 2.504981756210327148e-01
-7.370748519897460938e-01 -1.058405190706253052e-01 -5.960518494248390198e-03
-6.422717571258544922e-01 2.839369177818298340e-01 1.867652386426925659e-01
-7.734846472740173340e-01 3.191012144088745117e-01 2.438884079456329346e-01
-7.186440229415893555e-01 3.670136332511901855e-01 4.308660328388214111e-02
-6.146756410598754883e-01 2.900353074073791504e-01 -5.285590142011642456e-02
-8.812041282653808594e-01 1.898255348205566406e-01 3.044598549604415894e-02
-7.432301640510559082e-01 3.231864571571350098e-01 -2.433681637048721313e-01
-6.151841282844543457e-01 -9.351465106010437012e-02 -8.943821489810943604e-02
-7.772462368011474609e-01 3.654657900333404541e-01 7.212376594543457031e-02
-6.913799643516540527e-01 -1.208094954490661621e-01 5.479221045970916748e-02
-5.939908027648925781e-01 1.982288658618927002e-01 -2.399012148380279541e-01
-5.474348664283752441e-01 3.689035028219223022e-02 6.187842227518558502e-04
-7.041203379631042480e-01 3.643455207347869873e-01 -1.659668609499931335e-02
-8.714476823806762695e-01 2.282324731349945068e-01 1.385340094566345215e-01
-8.524054884910583496e-01 1.036547571420669556e-01 -1.578772217035293579e-01
-6.498522162437438965e-01 2.749530076980590820e-01 -2.616464197635650635e-01
-7.018738985061645508e-01 8.830282092094421387e-02 -3.884788751602172852e-01
-8.031659126281738281e-01 1.768227219581604004e-01 -3.138728737831115723e-01
-8.589044809341430664e-01 2.870039045810699463e-01 8.445260673761367798e-02
-6.059979200363159180e-01 1.986983865499496460e-01 2.325177341699600220e-01
-5.648728013038635254e-01 -3.316867351531982422e-02 -4.011546820402145386e-02
-6.861257553100585938e-01 3.312369287014007568e-01 1.613351851701736450e-01
-7.446258664131164551e-01 -8.487832546234130859e-02 -1.182158738374710083e-01
-5.906352996826171875e-01 -7.400904595851898193e-02 -6.543424725532531738e-02
-8.390967845916748047e-01 1.685266941785812378e-02 -6.022704392671585083e-02
-6.134917736053466797e-01 -5.808533728122711182e-02 2.029708772897720337e-01
-7.018715739250183105e-01 5.845620483160018921e-02 -3.759070038795471191e-01
-7.136242985725402832e-01 2.719779908657073975e-01 3.167830705642700195e-01
-7.074172496795654297e-01 2.255118787288665771e-01 -3.655182123184204102e-01
-7.598109245300292969e-01 -1.134620606899261475e-02 3.232247829437255859e-01
-6.777006983757019043e-01 2.268976271152496338e-01 3.379680216312408447e-01
-5.521054267883300781e-01 9.016676247119903564e-02 8.677839487791061401e-02
-7.291798591613769531e-01 3.434439599514007568e-01 -1.931294202804565430e-01
-8.489794731140136719e-01 3.081865608692169189e-01 6.886498630046844482e-02
-7.617016434669494629e-01 -7.335932552814483643e-02 1.840164363384246826e-01
-8.569517135620117188e-01 2.928616404533386230e-01 -2.135549671947956085e-02
-6.537862420082092285e-01 -6.514146924018859863e-02 2.553708851337432861e-01
-7.852638363838195801e-01 3.499851822853088379e-01 -1.336798220872879028e-01
-8.645467758178710938e-01 2.573892474174499512e-01 1.360196322202682495e-01
-6.895372867584228516e-01 2.371173352003097534e-01 -3.513199090957641602e-01
-8.098008632659912109e-01 7.775427401065826416e-02 -2.697131037712097168e-01
-6.687662601470947266e-01 3.044387698173522949e-01 2.025179117918014526e-01
-6.409450769424438477e-01 1.660267263650894165e-02 3.347485363483428955e-01
-5.631247162818908691e-01 1.851584166288375854e-01 -6.404682993888854980e-02
-6.261873841285705566e-01 -1.075081229209899902e-01 4.766182601451873779e-02
-7.512488365173339844e-01 2.774409651756286621e-01 3.194526135921478271e-01
-5.686762928962707520e-01 3.152162581682205200e-02 -2.038325369358062744e-01
-7.958868741989135742e-01 4.926822334527969360e-02 3.392404615879058838e-01
-8.791322708129882812e-01 1.563870310783386230e-01 9.906866401433944702e-02
-8.497777581214904785e-01 1.442594677209854126e-01 2.682414352893829346e-01
-5.674199461936950684e-01 1.960011571645736694e-01 2.217540331184864044e-02
-8.057802915573120117e-01 1.064136326313018799e-01 3.564028441905975342e-01
-8.127385377883911133e-01 -5.149915814399719238e-03 2.227672785520553589e-01
-6.304141283035278320e-01 -1.775814592838287354e-02 -2.888018488883972168e-01
-7.683065533638000488e-01 -6.245213747024536133e-02 -1.334268003702163696e-01
-7.254797220230102539e-01 3.646711111068725586e-01 8.114331215620040894e-02
-7.935805320739746094e-01 2.777405828237533569e-02 3.224768936634063721e-01
-7.724431157112121582e-01 -7.583832740783691406e-02 1.304935365915298462e-01
-6.115892529487609863e-01 2.679593265056610107e-01 -1.620720773935317993e-01
-8.321115374565124512e-01 3.232322335243225098e-01 -8.052177727222442627e-02
-5.713122487068176270e-01 -8.491382002830505371e-03 -1.672981381416320801e-01
-6.677426695823669434e-01 3.651619702577590942e-02 -3.611114025115966797e-01
-8.619875907897949219e-01 6.236270070075988770e-02 -1.577723771333694458e-03
-8.501671552658081055e-01 2.990806102752685547e-01 1.097840145230293274e-01
-6.691172719001770020e-01 8.340105414390563965e-04 3.502748608589172363e-01
-7.221579551696777344e-01 -6.106686592102050781e-02 2.753680944442749023e-01
-6.016826629638671875e-01 2.336045950651168823e-01 1.593636870384216309e-01
-7.029297351837158203e-01 -4.325453937053680420e-02 3.122996687889099121e-01
-8.109411597251892090e-01 1.062306314706802368e-01 -2.856554090976715088e-01
-6.974503993988037109e-01 -9.109646081924438477e-02 -1.697223186492919922e-01
-8.567041158676147461e-01 2.812495231628417969e-01 1.275885403156280518e-01
-8.368607163429260254e-01 1.515546739101409912e-01 3.052186071872711182e-01
-5.974258184432983398e-01 2.353544980287551880e-01 -1.869075447320938110e-01
-5.686323642730712891e-01 1.066477596759796143e-01 -2.216252833604812622e-01
-5.826920270919799805e-01 1.622897088527679443e-01 1.944428682327270508e-01
-8.430938720703125000e-01 3.024708628654479980e-01 -9.583264589309692383e-02
-8.363362550735473633e-01 3.253600001335144043e-01 -3.756972402334213257e-02
-8.264873027801513672e-01 -7.306307554244995117e-03 1.467754840850830078e-01
-5.787792205810546875e-01 4.244007170200347900e-02 -2.455830425024032593e-01
-7.535949349403381348e-01 5.178093910217285156e-03 -2.953680455684661865e-01
-7.438910007476806641e-01 2.652803957462310791e-01 -3.272381722927093506e-01
-6.267011165618896484e-01 1.093182712793350220e-02 3.111172020435333252e-01
-8.454643487930297852e-01 1.691328436136245728e-01 2.822956144809722900e-01
-7.101724743843078613e-01 3.226358294486999512e-01 2.226451635360717773e-01
-7.625405788421630859e-01 -1.180991530418395996e-02 -2.591045796871185303e-01
-6.565169095993041992e-01 3.300859928131103516e-01 -1.033167168498039246e-01
-5.506525039672851562e-01 1.355143338441848755e-01 -2.979717962443828583e-02
-6.784545779228210449e-01 -9.151782095432281494e-02 2.123615890741348267e-01
-6.504216790199279785e-01 -1.104634851217269897e-01 1.143091246485710144e-01
-7.453488707542419434e-01 3.563950657844543457e-01 1.423153579235076904e-01
-6.600254774093627930e-01 6.702645868062973022e-02 -3.736124038696289062e-01
-6.504643559455871582e-01 3.303377628326416016e-01 -1.458651572465896606e-02
-8.225333094596862793e-01 8.572278916835784912e-02 -2.447426468133926392e-01
-5.524370670318603516e-01 5.200773477554321289e-03 -2.298769913613796234e-02
-5.639326572418212891e-01 2.706718444824218750e-02 -1.794322580099105835e-01
-5.598462820053100586e-01 8.854217827320098877e-03 -1.336281150579452515e-01
-7.638314962387084961e-01 7.742306590080261230e-02 3.918881714344024658e-01
-8.499534726142883301e-01 3.091289997100830078e-01 3.173676133155822754e-02
-7.433291077613830566e-01 -9.499388933181762695e-02 1.376233845949172974e-01
-5.742470026016235352e-01 8.619248867034912109e-02 -2.445843368768692017e-01
-8.127907514572143555e-01 3.502277433872222900e-01 -2.828344888985157013e-02
-5.570375919342041016e-01 1.566190868616104126e-01 3.670433163642883301e-02
-8.014127612113952637e-01 1.585167050361633301e-01 3.673010766506195068e-01
-8.494414091110229492e-01 1.426855176687240601e-01 -1.956286132335662842e-01
-6.837867498397827148e-01 3.530864715576171875e-01 2.797558531165122986e-02
-6.900608539581298828e-01 -2.951507270336151123e-02 3.295536041259765625e-01
-8.426716923713684082e-01 1.074096411466598511e-01 -1.998720467090606689e-01
-6.523458957672119141e-01 -1.293148100376129150e-02 3.242076933383941650e-01
-8.254500031471252441e-01 3.405914902687072754e-01 3.285224735736846924e-02
-8.726505637168884277e-01 1.752709150314331055e-01 1.675676256418228149e-01
-6.128709912300109863e-01 2.483781427145004272e-02 2.956633865833282471e-01
-6.810489892959594727e-01 -1.223415881395339966e-01 1.905055157840251923e-02
-7.239510416984558105e-01 2.819721400737762451e-01 -3.123271167278289795e-01
-2.033157944679260254e-01 2.691588364541530609e-02 -7.856770157814025879e-01
-2.440580874681472778e-01 1.971902698278427124e-02 -8.542853593826293945e-01
-1.856079697608947754e-01 2.364095672965049744e-02 -8.836662769317626953e-01
-1.719474494457244873e-01 1.356274634599685669e-02 -7.576304078102111816e-01
-1.515226364135742188e-01 3.196820989251136780e-02 -8.531517386436462402e-01
-1.767953783273696899e-01 1.526491157710552216e-02 -8.224868774414062500e-01
-2.436781525611877441e-01 2.686380781233310699e-02 -9.131464362144470215e-01
-1.675371676683425903e-01 2.351015247404575348e-02 -8.666815161705017090e-01
-2.035403996706008911e-01 1.808278635144233704e-02 -8.595699071884155273e-01
-2.259051352739334106e-01 3.197760879993438721e-02 -8.242434859275817871e-01
-2.651470899581909180e-01 2.984122186899185181e-02 -8.863739967346191406e-01
-2.212295383214950562e-01 3.988065198063850403e-02 -9.362041354179382324e-01
-1.482910811901092529e-01 1.608386263251304626e-02 -7.656000256538391113e-01
-2.441189140081405640e-01 3.021978214383125305e-02 -8.359576463699340820e-01
-1.663688421249389648e-01 3.397501632571220398e-02 -8.238007426261901855e-01
-2.547090649604797363e-01 3.692484274506568909e-02 -8.950838446617126465e-01
-2.308197021484375000e-01 1.678390428423881531e-02 -8.087638616561889648e-01
-2.542273104190826416e-01 2.981210872530937195e-02 -9.206282496452331543e-01
-1.949695050716400146e-01 2.982841059565544128e-02 -7.947022318840026855e-01
-2.217360883951187134e-01 3.836780413985252380e-02 -8.640913963317871094e-01
-1.942177861928939819e-01 2.676694281399250031e-02 -7.806339263916015625e-01
-2.272936999797821045e-01 1.928820647299289703e-02 -7.914009690284729004e-01
-1.906350255012512207e-01 3.839326649904251099e-02 -8.566246032714843750e-01
-1.627564877271652222e-01 1.412912178784608841e-02 -7.933770418167114258e-01
-1.687816530466079712e-01 1.334454771131277084e-02 -7.904892563819885254e-01
-2.226368188858032227e-01 3.656268864870071411e-02 -9.409086704254150391e-01
-1.952161192893981934e-01 1.272017322480678558e-02 -7.809996604919433594e-01
-2.009535878896713257e-01 3.795969486236572266e-02 -8.514523506164550781e-01
-2.241081297397613525e-01 1.927146315574645996e-02 -8.693634271621704102e-01
-2.061503529548645020e-01 3.585973754525184631e-02 -8.354895114898681641e-01
-2.162699699401855469e-01 1.917477697134017944e-02 -8.695335984230041504e-01
-2.325442582368850708e-01 3.434251993894577026e-02 -8.435617685317993164e-01
-2.579436898231506348e-01 2.676511742174625397e-02 -8.995127081871032715e-01
-2.608821988105773926e-01 2.857801318168640137e-02 -8.632586002349853516e-01
-2.010786831378936768e-01 4.093196243047714233e-02 -9.035773277282714844e-01
-1.521985232830047607e-01 3.249485045671463013e-02 -8.325359821319580078e-01
-1.882008165121078491e-01 3.980264812707901001e-02 -8.920770287513732910e-01
-2.485004365444183350e-01 2.115170471370220184e-02 -8.330606818199157715e-01
-1.724253296852111816e-01 2.013163641095161438e-02 -8.543835282325744629e-01
-2.052707225084304810e-01 2.090199291706085205e-02 -8.793943524360656738e-01
-1.783441752195358276e-01 3.837593644857406616e-02 -8.699762225151062012e-01
-2.295253276824951172e-01 2.122182957828044891e-02 -8.830277919769287109e-01
-1.816999316215515137e-01 1.304759923368692398e-02 -7.631372809410095215e-01
-1.492087244987487793e-01 1.559188030660152435e-02 -7.781977653503417969e-01
-1.573934704065322876e-01 3.113852441310882568e-02 -8.717945814132690430e-01
-1.972885280847549438e-01 1.300564222037792206e-02 -8.010280728340148926e-01
-1.843810081481933594e-01 3.316295146942138672e-02 -8.117938041687011719e-01
-2.395718544721603394e-01 3.812311962246894836e-02 -8.791408538818359375e-01
-2.592215836048126221e-01 2.600439265370368958e-02 -8.905372619628906250e-01
-2.327696830034255981e-01 3.169472888112068176e-02 -9.340817928314208984e-01
-2.050592601299285889e-01 2.194321155548095703e-02 -8.855078220367431641e-01
-1.920116394758224487e-01 2.458214946091175079e-02 -7.716451883316040039e-01
-2.232300639152526855e-01 3.137289732694625854e-02 -8.189353942871093750e-01
-2.355510443449020386e-01 2.783862128853797913e-02 -8.161387443542480469e-01
-2.007545828819274902e-01 1.718817278742790222e-02 -8.517514467239379883e-01
-1.535861939191818237e-01 3.128279000520706177e-02 -8.130859136581420898e-01
-1.864070743322372437e-01 3.236144036054611206e-02 -8.067409992218017578e-01
-2.284785807132720947e-01 2.877255342900753021e-02 -8.120434284210205078e-01
-1.707776784896850586e-01 3.716515004634857178e-02 -8.777990341186523438e-01
-2.022518217563629150e-01 4.095317795872688293e-02 -8.959779143333435059e-01
-2.115174531936645508e-01 2.519306167960166931e-02 -7.849311828613281250e-01
-1.794760823249816895e-01 1.585087180137634277e-02 -8.299211859703063965e-01
-2.236241400241851807e-01 1.779194921255111694e-02 -8.561848998069763184e-01
-1.477836817502975464e-01 2.904277294874191284e-02 -8.028051853179931641e-01
-2.376959621906280518e-01 1.913870126008987427e-02 -8.590399622917175293e-01
-2.211101800203323364e-01 2.165874093770980835e-02 -8.869564533233642578e-01
-1.656405180692672729e-01 1.345095969736576080e-02 -7.614278197288513184e-01
-1.543630361557006836e-01 1.447473932057619095e-02 -7.716157436370849609e-01
-2.171756625175476074e-01 2.016248553991317749e-02 -8.767835497856140137e-01
-1.647414863109588623e-01 1.585321687161922455e-02 -8.156561851501464844e-01
-2.081281393766403198e-01 1.436239480972290039e-02 -8.217455148696899414e-01
-1.716444194316864014e-01 1.469948980957269669e-02 -7.525074481964111328e-01
-1.613009124994277954e-01 1.363104302436113358e-02 -7.799483537673950195e-01
-1.999547332525253296e-01 4.028468206524848938e-02 -9.155879020690917969e-01
-1.445983648300170898e-01 2.314751408994197845e-02 -8.294897675514221191e-01
-2.214315235614776611e-01 2.496065385639667511e-02 -7.924616336822509766e-01
-2.297442555427551270e-01 4.132270812988281250e-02 -9.141163229942321777e-01
-1.654202193021774292e-01 3.619486838579177856e-02 -8.597546815872192383e-01
-1.753234416246414185e-01 2.217837423086166382e-02 -8.681723475456237793e-01
-2.129216790199279785e-01 4.101692140102386475e-02 -9.233670234680175781e-01
-1.885925978422164917e-01 2.978491783142089844e-02 -7.925281524658203125e-01
-2.235983759164810181e-01 2.028923667967319489e-02 -8.773916363716125488e-01
-2.470958530902862549e-01 3.769187256693840027e-02 -8.864277601242065430e-01
-2.279298156499862671e-01 3.654889017343521118e-02 -8.540827035903930664e-01
-1.797561049461364746e-01 2.756662480533123016e-02 -7.799941897392272949e-01
-1.491342931985855103e-01 2.790645882487297058e-02 -7.922230958938598633e-01
-1.546983867883682251e-01 2.177014574408531189e-02 -8.420382142066955566e-01
-1.736065894365310669e-01 1.341561693698167801e-02 -7.980009317398071289e-01
-2.160723656415939331e-01 2.491322532296180725e-02 -9.045934081077575684e-01
-2.472996711730957031e-01 3.781390935182571411e-02 -9.389611482620239258e-01
-1.414901018142700195e-01 1.828209124505519867e-02 -7.767072916030883789e-01
-2.522557079792022705e-01 2.219156920909881592e-02 -8.418802618980407715e-01
-1.893192678689956665e-01 3.110413812100887299e-02 -7.997942566871643066e-01
-1.703763753175735474e-01 2.394722402095794678e-02 -7.643929719924926758e-01
-2.003313302993774414e-01 3.910069540143013000e-02 -8.634192347526550293e-01
-1.707763969898223877e-01 2.669941447675228119e-02 -7.755444645881652832e-01
-1.451295465230941772e-01 2.972795255482196808e-02 -8.359374403953552246e-01
-1.466913521289825439e-01 2.326468564569950104e-02 -8.346411585807800293e-01
-1.959534287452697754e-01 2.135211601853370667e-02 -8.781795501708984375e-01
-2.020924389362335205e-01 2.696638368070125580e-02 -9.083149433135986328e-01
-6.357582807540893555e-01 -1.191741600632667542e-02 7.379164546728134155e-02
-4.121577739715576172e-01 -1.329621300101280212e-02 1.322945393621921539e-02
-5.372537374496459961e-01 8.415152877569198608e-02 -4.491010680794715881e-02
-5.487149953842163086e-01 -6.494572758674621582e-02 -4.693203791975975037e-02
-3.650037348270416260e-01 1.211294084787368774e-01 -7.389080524444580078e-02
-4.280491173267364502e-01 1.332319080829620361e-01 -5.092258378863334656e-02
-4.539686739444732666e-01 -2.884878218173980713e-02 5.201129615306854248e-02
-3.281919956207275391e-01 1.601518690586090088e-01 3.854172304272651672e-02
-4.087428748607635498e-01 9.729012846946716309e-02 -8.857861906290054321e-02
-3.281440436840057373e-01 5.477055534720420837e-02 2.440251037478446960e-02
-6.639003753662109375e-01 -1.197206601500511169e-02 3.950699232518672943e-03
-4.701386988162994385e-01 -4.577514529228210449e-02 1.391609106212854385e-02
-4.270347058773040771e-01 -3.451295197010040283e-03 -6.075510382652282715e-02
-5.692916512489318848e-01 -4.899924248456954956e-02 8.745773881673812866e-02
-4.064645767211914062e-01 1.531406790018081665e-01 3.308645263314247131e-02
-3.035343885421752930e-01 1.214515045285224915e-01 5.381742492318153381e-02
-5.705020427703857422e-01 6.128776818513870239e-03 1.054454371333122253e-01
-4.814754128456115723e-01 5.228253081440925598e-02 -9.853156656026840210e-02
-6.098774671554565430e-01 -3.759589791297912598e-02 8.989849686622619629e-02
-5.256128907203674316e-01 -5.672851204872131348e-02 6.201580166816711426e-02
-5.706928968429565430e-01 1.725202426314353943e-02 -8.339652419090270996e-02
-5.776898860931396484e-01 -4.423659294843673706e-02 -7.501230388879776001e-02
-3.830817639827728271e-01 1.610298752784729004e-01 -1.600649673491716385e-03
-4.073705375194549561e-01 7.383809983730316162e-02 1.069396734237670898e-01
-5.401523709297180176e-01 -7.270783185958862305e-02 -1.698636449873447418e-02
-4.935976862907409668e-01 -2.929105609655380249e-02 8.434583246707916260e-02
-3.375214040279388428e-01 8.415320515632629395e-02 7.530845701694488525e-02
-3.632036745548248291e-01 5.839613080024719238e-02 -7.162030786275863647e-02
-4.780827462673187256e-01 2.106237597763538361e-02 -9.864276647567749023e-02
-3.070894777774810791e-01 1.618015319108963013e-01 -4.392865579575300217e-03
-5.181705355644226074e-01 1.074675619602203369e-01 -5.215401295572519302e-03
-5.028820037841796875e-01 -6.095007061958312988e-02 3.123219124972820282e-03
-4.729465246200561523e-01 7.324126362800598145e-02 1.095816642045974731e-01
-5.630027651786804199e-01 7.486714422702789307e-02 -2.703969366848468781e-02
-6.706943511962890625e-01 -2.613196521997451782e-02 -5.136077757924795151e-03
-5.795505642890930176e-01 -6.553358584642410278e-02 7.089107483625411987e-02
-2.893080711364746094e-01 1.142154633998870850e-01 -2.033455669879913330e-02
-5.290591716766357422e-01 9.231971204280853271e-02 5.969543755054473877e-02
-6.485567688941955566e-01 -1.932056993246078491e-02 -4.211200028657913208e-02
-5.953149795532226562e-01 3.287288174033164978e-02 7.784837484359741211e-02
-3.268201351165771484e-01 1.211069226264953613e-01 7.253128290176391602e-02
-5.870596766471862793e-01 4.233604669570922852e-02 7.555124908685684204e-02
-4.174961447715759277e-01 1.652669534087181091e-02 8.681719750165939331e-02
-6.469001770019531250e-01 -5.315256863832473755e-02 -4.780373722314834595e-02
-4.791851937770843506e-01 8.048235625028610229e-02 -8.677007257938385010e-02
-3.981094062328338623e-01 7.189553231000900269e-03 5.509446933865547180e-02
-5.670416355133056641e-01 -2.228738367557525635e-02 -8.592926710844039917e-02
-4.458866715431213379e-01 9.394129365682601929e-02 1.033108979463577271e-01
-3.725964128971099854e-01 1.630671322345733643e-01 1.785266958177089691e-02
-3.922355175018310547e-01 1.363603174686431885e-01 7.580742985010147095e-02
-3.928105831146240234e-01 1.817971281707286835e-02 6.724744290113449097e-02
-3.645281791687011719e-01 1.549534201622009277e-01 -3.651496022939682007e-02
-5.468077063560485840e-01 7.929752767086029053e-02 6.417397409677505493e-02
-3.425765037536621094e-01 3.867504745721817017e-02 -3.050855826586484909e-03
-4.582345187664031982e-01 1.370001733303070068e-01 1.982726156711578369e-02
-6.538350582122802734e-01 -1.244356855750083923e-02 5.155018344521522522e-02
-3.375471830368041992e-01 7.268439978361129761e-02 6.836988031864166260e-02
-3.825034201145172119e-01 7.030686363577842712e-03 1.587649248540401459e-02
-5.964186191558837891e-01 -6.468553841114044189e-02 7.376722246408462524e-02
-6.273925304412841797e-01 -7.494166493415832520e-03 -5.742619186639785767e-02
-3.575274050235748291e-01 1.304736137390136719e-01 8.023015409708023071e-02
-3.905029296875000000e-01 1.450504362583160400e-01 6.390989571809768677e-02
-6.029479503631591797e-01 -1.265648379921913147e-02 9.526287764310836792e-02
-6.366443634033203125e-01 1.307262666523456573e-02 -2.394940517842769623e-02
-6.325408816337585449e-01 3.096684813499450684e-03 6.687209755182266235e-02
-3.935745954513549805e-01 8.972193300724029541e-02 1.027803570032119751e-01
-5.078592896461486816e-01 2.644802071154117584e-02 1.153372153639793396e-01
-4.772185683250427246e-01 9.212161600589752197e-02 9.675959497690200806e-02
-2.890367507934570312e-01 1.403076946735382080e-01 2.920731343328952789e-02
-5.025849938392639160e-01 -1.964605227112770081e-02 -8.402591943740844727e-02
-2.934182882308959961e-01 1.529792547225952148e-01 2.005735412240028381e-02
-6.394000053405761719e-01 1.630847342312335968e-02 -6.966947112232446671e-03
-6.210057735443115234e-01 -4.474180191755294800e-02 -6.465464085340499878e-02
-3.632121682167053223e-01 1.598156392574310303e-01 -2.470186538994312286e-02
-5.502440929412841797e-01 2.640469931066036224e-02 1.077751666307449341e-01
-3.154209852218627930e-01 1.461549848318099976e-01 -4.112071543931961060e-02
-3.750612139701843262e-01 1.017770469188690186e-01 9.622204303741455078e-02
-2.933962941169738770e-01 1.290173679590225220e-01 4.072144255042076111e-02
-3.282734453678131104e-01 1.643334329128265381e-01 2.600821107625961304e-02
-4.582238197326660156e-01 1.157136186957359314e-01 -6.104691326618194580e-02
-3.761722445487976074e-01 1.376354694366455078e-01 -6.094153970479965210e-02
-6.195877790451049805e-01 3.425720706582069397e-02 -1.348398067057132721e-02
-5.424201488494873047e-01 4.616511240601539612e-02 1.025768592953681946e-01
-4.715332984924316406e-01 -3.570551425218582153e-02 5.739160627126693726e-02
-5.770466923713684082e-01 4.160822927951812744e-02 8.530114591121673584e-02
-6.694477796554565430e-01 -4.105653613805770874e-02 4.532251879572868347e-02
-5.276719331741333008e-01 2.770805358886718750e-02 1.130564585328102112e-01
-5.179952979087829590e-01 8.705629408359527588e-02 7.993064820766448975e-02
-5.175285339355468750e-01 -6.629382073879241943e-02 -6.061021704226732254e-03
-3.841103315353393555e-01 1.587566137313842773e-01 -1.535400748252868652e-02
-4.685801267623901367e-01 -2.915922552347183228e-02 -5.651573836803436279e-02
-4.701242148876190186e-01 1.146441549062728882e-01 -5.485667288303375244e-02
-5.798003077507019043e-01 -8.152624219655990601e-02 -2.325036190450191498e-02
-4.757651090621948242e-01 7.015359401702880859e-02 -9.343205392360687256e-02
-4.955197572708129883e-01 9.012385457754135132e-02 -7.128880172967910767e-02
-4.861652851104736328e-01 -4.867076873779296875e-02 -3.027133457362651825e-02
-5.430406332015991211e-01 -7.216219604015350342e-02 3.636073321104049683e-02
-5.298945903778076172e-01 -4.618304967880249023e-02 8.073005080223083496e-02
-3.591636121273040771e-01 1.041667610406875610e-01 9.069905430078506470e-02
-4.897809326648712158e-01 2.845518290996551514e-03 1.082202419638633728e-01
-5.984897017478942871e-01 2.877617254853248596e-02 -5.692265927791595459e-02
-3.957755565643310547e-01 8.070485666394233704e-03 -4.485251754522323608e-02
-3.774064183235168457e-01 1.568929404020309448e-01 -2.704747207462787628e-02
-5.348647832870483398e-01 5.552059412002563477e-02 -8.061974495649337769e-02
-4.959028661251068115e-01 8.012439310550689697e-02 9.939139336347579956e-02
-5.614134073257446289e-01 7.615219056606292725e-02 4.893312603235244751e-02
-5.475524067878723145e-01 -2.904488891363143921e-02 9.996678680181503296e-02
-6.616250276565551758e-01 -3.021326661109924316e-02 5.308544635772705078e-02
-4.027249217033386230e-01 1.484383940696716309e-01 5.188419669866561890e-02
-4.710666239261627197e-01 3.459462150931358337e-02 1.148519068956375122e-01
-2.938668727874755859e-01 1.111713275313377380e-01 3.695005178451538086e-02
-4.148365855216979980e-01 8.989632129669189453e-02 1.059456393122673035e-01
-4.542308747768402100e-01 9.394069015979766846e-02 -8.480391651391983032e-02
-3.410488367080688477e-01 1.377936005592346191e-01 7.096195220947265625e-02
-3.959144651889801025e-01 3.119025379419326782e-03 -3.311934694647789001e-02
-3.139094412326812744e-01 6.806209683418273926e-02 1.305701863020658493e-02
-4.978405833244323730e-01 1.151063516736030579e-01 4.271531850099563599e-02
-3.727810382843017578e-01 3.072042576968669891e-02 -5.346257612109184265e-02
-5.542637705802917480e-01 1.179169304668903351e-02 1.093213483691215515e-01
-6.204664111137390137e-01 -7.195148617029190063e-02 -4.639723896980285645e-02
-3.283307850360870361e-01 1.106782630085945129e-01 -6.411916762590408325e-02
-5.957434177398681641e-01 -7.010369002819061279e-02 -5.085763707756996155e-02
-5.636178851127624512e-01 -7.382194697856903076e-02 4.968848451972007751e-02
-6.154737472534179688e-01 3.802333772182464600e-02 3.691811859607696533e-02
-6.373269557952880859e-01 -9.111948311328887939e-03 -4.860046133399009705e-02
-5.056276321411132812e-01 -4.909858852624893188e-02 6.192087382078170776e-02
-5.303052067756652832e-01 -5.852228403091430664e-02 -4.885877668857574463e-02
-3.921232223510742188e-01 1.061915978789329529e-01 9.816633909940719604e-02
-3.708977997303009033e-01 1.032153442502021790e-01 -8.217556029558181763e-02
-6.768025159835815430e-01 -3.869623690843582153e-02 2.334097959101200104e-02
-4.119767844676971436e-01 1.499801278114318848e-01 -2.213263325393199921e-02
-4.208022654056549072e-01 1.089075207710266113e-01 9.701236337423324585e-02
-6.552063226699829102e-01 -8.733533322811126709e-04 -1.222066115587949753e-03
-6.515058279037475586e-01 -8.805471658706665039e-02 7.809573784470558167e-03
-3.962138295173645020e-01 1.583790183067321777e-01 7.801897823810577393e-03
-5.167068839073181152e-01 1.059356704354286194e-01 3.981151431798934937e-02
-6.479768157005310059e-01 -8.593447506427764893e-02 2.955576591193675995e-02
-5.644743442535400391e-01 2.822692692279815674e-02 1.016572490334510803e-01
-5.306634902954101562e-01 -3.415417671203613281e-02 -7.918284088373184204e-02
-3.849488794803619385e-01 1.575852334499359131e-01 3.618165105581283569e-02
