1.394361853599548340e-01 1.937786936759948730e-01 8.797917515039443970e-03
1.097479835152626038e-01 1.385139822959899902e-01 -3.246336709707975388e-03
1.516786217689514160e-01 1.859326362609863281e-01 8.188592270016670227e-03
1.918773800134658813e-01 1.587950140237808228e-01 -2.544258255511522293e-03
1.035308092832565308e-01 1.890217214822769165e-01 -7.149352226406335831e-03
4.305912926793098450e-02 1.958967149257659912e-01 -5.063813645392656326e-03
9.055202454328536987e-02 1.683797687292098999e-01 -5.935612134635448456e-03
1.499819755554199219e-01 1.882256716489791870e-01 -6.891187746077775955e-03
4.323987662792205811e-02 1.688096374273300171e-01 -3.464922774583101273e-03
1.013975590467453003e-01 1.480776667594909668e-01 -4.394649993628263474e-03
3.527175262570381165e-02 2.577480673789978027e-01 -1.998987514525651932e-03
3.133766353130340576e-03 2.392097413539886475e-01 5.192625802010297775e-03
1.110727190971374512e-01 2.266081869602203369e-01 -6.968020927160978317e-03
3.008445352315902710e-02 2.042743712663650513e-01 9.276584722101688385e-03
-4.695154726505279541e-03 1.897140741348266602e-01 1.710804877802729607e-03
6.894448399543762207e-02 1.502169370651245117e-01 8.227198384702205658e-03
5.183523893356323242e-02 1.942425221204757690e-01 1.002380810678005219e-02
1.436351537704467773e-01 1.923051476478576660e-01 -7.102899719029664993e-03
1.280951350927352905e-01 1.973540931940078735e-01 9.253353811800479889e-03
1.869882345199584961e-01 1.956613510847091675e-01 4.800304304808378220e-03
6.122402474284172058e-02 2.568266391754150391e-01 6.446146871894598007e-03
1.063484102487564087e-01 2.175584286451339722e-01 -7.243815343827009201e-03
2.969570457935333252e-02 2.635614573955535889e-01 3.021957119926810265e-03
7.777801156044006348e-02 1.861477643251419067e-01 -6.439424585551023483e-03
-3.137968853116035461e-02 -5.631435513496398926e-01 -4.227494448423385620e-02
-1.077502220869064331e-01 -6.175843477249145508e-01 1.957373507320880890e-02
-8.453714102506637573e-02 -4.720447957515716553e-01 3.561276197433471680e-02
-1.199462637305259705e-02 -4.869070053100585938e-01 4.058581590652465820e-02
3.005193546414375305e-02 -5.910824537277221680e-01 -2.550054108723998070e-03
-7.394662499427795410e-02 -3.919904828071594238e-01 1.515532657504081726e-02
-2.426882833242416382e-02 -4.878800213336944580e-01 4.254199191927909851e-02
3.371395170688629150e-03 -5.267865657806396484e-01 3.784712776541709900e-02
-4.947219416499137878e-02 -4.191551506519317627e-01 -3.348967060446739197e-02
-8.092248439788818359e-02 -3.921153545379638672e-01 -1.275582890957593918e-02
-8.045107126235961914e-02 -4.039262533187866211e-01 1.867270097136497498e-02
-1.181620210409164429e-01 -6.203448176383972168e-01 1.196482684463262558e-03
1.305418089032173157e-02 -4.710483849048614502e-01 3.090757131576538086e-02
-5.602627247571945190e-02 -4.570286870002746582e-01 3.935553133487701416e-02
-2.559330314397811890e-02 -5.006999969482421875e-01 4.345652461051940918e-02
-3.669708967208862305e-04 -4.882870316505432129e-01 -3.663349524140357971e-02
-9.714154899120330811e-02 -6.114765405654907227e-01 2.777007222175598145e-02
2.663524076342582703e-02 -5.567561388015747070e-01 2.339167147874832153e-02
-1.699276827275753021e-02 -5.049500465393066406e-01 4.250709339976310730e-02
-7.608093321323394775e-02 -5.724849700927734375e-01 -4.030555486679077148e-02
-4.988151788711547852e-02 -3.750091791152954102e-01 1.130518503487110138e-02
-6.078461557626724243e-02 -5.916099548339843750e-01 -3.996380791068077087e-02
-1.266219615936279297e-01 -5.783634781837463379e-01 -1.131403632462024689e-02
-2.957054972648620605e-02 -5.622274875640869141e-01 4.323361068964004517e-02
4.061603918671607971e-02 -4.979370534420013428e-01 1.772178104147315025e-03
-5.901188030838966370e-02 -6.237680912017822266e-01 3.510679677128791809e-02
-1.194532215595245361e-01 -4.665176868438720703e-01 -1.471908204257488251e-02
-6.854515522718429565e-02 -3.788286447525024414e-01 -8.180186152458190918e-03
-4.826549068093299866e-02 -5.601872205734252930e-01 -4.352921620011329651e-02
-8.514922112226486206e-02 -6.281149387359619141e-01 -2.850647084414958954e-02
-2.213754132390022278e-02 -5.088290572166442871e-01 -4.267509654164314270e-02
-1.057805791497230530e-01 -6.457728743553161621e-01 2.008873503655195236e-03
7.918886840343475342e-04 -6.491953730583190918e-01 -6.387672387063503265e-03
-4.763915762305259705e-02 -4.124944210052490234e-01 3.046918101608753204e-02
1.299560070037841797e-03 -6.514446735382080078e-01 2.624346641823649406e-03
1.994779333472251892e-02 -4.212044477462768555e-01 -1.002975180745124817e-02
-9.042260795831680298e-02 -6.177794933319091797e-01 -2.946235798299312592e-02
-1.104855984449386597e-01 -5.795421004295349121e-01 2.607018128037452698e-02
-9.803567081689834595e-02 -5.112752914428710938e-01 3.439865261316299438e-02
-9.026432037353515625e-02 -4.112202823162078857e-01 -1.890128850936889648e-02
-1.181897819042205811e-01 -4.531130492687225342e-01 -9.470647200942039490e-03
-5.833898484706878662e-02 -6.770272254943847656e-01 -1.067320629954338074e-02
-1.297939866781234741e-01 -4.984637498855590820e-01 2.328040864085778594e-05
9.476959705352783203e-03 -6.394964456558227539e-01 -2.097711258102208376e-04
-1.201208680868148804e-01 -5.270317792892456055e-01 2.174116671085357666e-02
1.193105801939964294e-02 -6.037153005599975586e-01 -2.151409722864627838e-02
-3.543641418218612671e-03 -4.220514595508575439e-01 2.761890739202499390e-02
2.523643150925636292e-02 -6.003291010856628418e-01 -8.056136779487133026e-03
-1.148177087306976318e-01 -6.243721246719360352e-01 -8.588317781686782837e-03
-5.321882665157318115e-03 -4.412936568260192871e-01 3.292788937687873840e-02
-8.557625114917755127e-03 -4.125120043754577637e-01 2.626881562173366547e-02
-5.741818621754646301e-02 -4.774067103862762451e-01 -4.256574437022209167e-02
-1.108422875404357910e-03 -4.261156320571899414e-01 -2.749061770737171173e-02
1.240129768848419189e-02 -4.369871914386749268e-01 -2.350129000842571259e-02
-7.028213143348693848e-02 -6.328963041305541992e-01 -3.068127296864986420e-02
3.675417229533195496e-02 -5.043371915817260742e-01 1.498992741107940674e-02
2.846783027052879333e-02 -5.371253490447998047e-01 -2.118879742920398712e-02
-2.260363474488258362e-02 -6.004810929298400879e-01 -3.618903085589408875e-02
-8.274435997009277344e-03 -5.302068591117858887e-01 -3.970656916499137878e-02
-1.099767684936523438e-01 -5.938945412635803223e-01 2.406574785709381104e-02
-6.909717619419097900e-02 -5.459117293357849121e-01 -4.310274124145507812e-02
-6.733591109514236450e-02 -5.725371837615966797e-01 -4.155665263533592224e-02
-9.822675585746765137e-02 -4.245237708091735840e-01 -1.954170875251293182e-02
7.123839110136032104e-03 -6.264719367027282715e-01 -1.637040451169013977e-02
6.758041679859161377e-03 -5.337277650833129883e-01 -3.454036638140678406e-02
-8.823227882385253906e-02 -6.147633790969848633e-01 3.074813075363636017e-02
2.622084692120552063e-02 -4.635930955410003662e-01 2.099481038749217987e-02
-1.019603610038757324e-01 -6.254253387451171875e-01 2.115206606686115265e-02
3.922304138541221619e-02 -4.837601780891418457e-01 -1.681171939708292484e-03
-2.196602337062358856e-02 -5.488861799240112305e-01 4.310550540685653687e-02
-8.758691698312759399e-02 -6.051269769668579102e-01 3.286875039339065552e-02
-7.018901407718658447e-02 -5.067169666290283203e-01 4.215119406580924988e-02
-4.981837049126625061e-02 -5.302755236625671387e-01 -4.478028416633605957e-02
3.613528236746788025e-02 -4.627083539962768555e-01 6.152883870527148247e-04
-1.400287076830863953e-02 -5.615705847740173340e-01 -3.938081488013267517e-02
7.897511124610900879e-03 -5.887785553932189941e-01 -2.774957567453384399e-02
-3.688350319862365723e-02 -4.333332180976867676e-01 -3.664200380444526672e-02
-4.317011684179306030e-03 -6.312613487243652344e-01 2.480005845427513123e-02
-5.717451125383377075e-02 -6.705087423324584961e-01 -1.632362231612205505e-02
-6.521953642368316650e-02 -4.464451074600219727e-01 3.629701212048530579e-02
-2.109656855463981628e-02 -6.357935667037963867e-01 -2.716005407273769379e-02
-5.182623863220214844e-03 -4.755684137344360352e-01 3.802316263318061829e-02
-7.058274745941162109e-02 -4.417960047721862793e-01 -3.594927489757537842e-02
2.362696453928947449e-02 -5.990485548973083496e-01 1.487304456532001495e-02
-8.057059347629547119e-02 -4.133993089199066162e-01 -2.526393905282020569e-02
-7.678395509719848633e-02 -6.456570625305175781e-01 -2.517155930399894714e-02
-4.568544030189514160e-02 -4.103684723377227783e-01 -3.116880729794502258e-02
-5.338797718286514282e-02 -6.103020310401916504e-01 3.816086798906326294e-02
-6.453698128461837769e-02 -6.124218106269836426e-01 3.678566589951515198e-02
-2.143405936658382416e-02 -6.598687171936035156e-01 1.891528442502021790e-02
-1.105451732873916626e-01 -5.083647370338439941e-01 2.778742089867591858e-02
-4.035432636737823486e-02 -4.733902812004089355e-01 -4.248238727450370789e-02
-9.232375025749206543e-02 -5.825426578521728516e-01 3.451048582792282104e-02
1.324174553155899048e-02 -4.512425065040588379e-01 -2.629473246634006500e-02
-9.418745338916778564e-02 -6.557360887527465820e-01 -1.094766985625028610e-02
-1.304994896054267883e-02 -4.963916242122650146e-01 4.141191020607948303e-02
-1.129299104213714600e-01 -4.723115563392639160e-01 -2.351999282836914062e-02
-6.984633952379226685e-02 -5.131767392158508301e-01 -4.327189177274703979e-02
-1.249285638332366943e-01 -5.191846489906311035e-01 -1.883084140717983246e-02
-1.086576730012893677e-01 -5.581248998641967773e-01 2.923756092786788940e-02
3.360075876116752625e-02 -4.861211776733398438e-01 -1.510470919311046600e-02
6.298512220382690430e-03 -6.354636549949645996e-01 -1.186879631131887436e-02
-7.542003691196441650e-02 -6.114699244499206543e-01 -3.486508131027221680e-02
-3.565634414553642273e-02 -5.013464689254760742e-01 -4.401687905192375183e-02
-2.086590416729450226e-02 -6.510319709777832031e-01 -2.102286368608474731e-02
8.180975914001464844e-03 -6.273616552352905273e-01 1.805415935814380646e-02
-7.815203070640563965e-02 -5.511355996131896973e-01 4.083481431007385254e-02
-1.478189043700695038e-02 -4.763115346431732178e-01 4.019142687320709229e-02
-2.914670668542385101e-02 -6.773891448974609375e-01 2.285476075485348701e-03
3.608250990509986877e-02 -5.357939004898071289e-01 -1.237334217876195908e-02
-1.154728978872299194e-01 -4.456615149974822998e-01 6.689032539725303650e-03
-4.387007281184196472e-02 -6.524518132209777832e-01 2.710583619773387909e-02
-1.129811555147171021e-01 -5.429090857505798340e-01 -2.907717414200305939e-02
-1.568234898149967194e-02 -4.116798043251037598e-01 -2.817158959805965424e-02
4.323501139879226685e-03 -5.367450118064880371e-01 3.729407861828804016e-02
-5.355512350797653198e-02 -4.930825531482696533e-01 4.341762885451316833e-02
9.889483451843261719e-03 -4.210386276245117188e-01 2.072038874030113220e-02
1.462139189243316650e-03 -5.760539770126342773e-01 3.517850115895271301e-02
-7.770787179470062256e-02 -5.242743492126464844e-01 -4.213088378310203552e-02
-1.039945706725120544e-02 -4.655598998069763184e-01 -3.754727169871330261e-02
-9.435677528381347656e-02 -5.522099137306213379e-01 -3.721548989415168762e-02
-4.780653864145278931e-02 -6.751471757888793945e-01 1.458078529685735703e-02
-4.516743868589401245e-02 -4.289667308330535889e-01 -3.593346849083900452e-02
1.743678003549575806e-03 -5.641235113143920898e-01 3.642895445227622986e-02
-1.032495945692062378e-01 -6.437481045722961426e-01 1.060192007571458817e-02
9.048692882061004639e-04 -6.464844942092895508e-01 1.236553490161895752e-02
1.208199933171272278e-02 -5.922063589096069336e-01 2.736628055572509766e-02
1.413473114371299744e-02 -4.236799776554107666e-01 -1.782205700874328613e-02
-1.234968006610870361e-01 -4.844699501991271973e-01 -1.487077586352825165e-02
1.934349536895751953e-03 -3.884876966476440430e-01 2.962891478091478348e-03
2.147636935114860535e-02 -4.252457618713378906e-01 1.160652656108140945e-02
-7.857512682676315308e-03 -6.306897997856140137e-01 -2.402737550437450409e-02
4.829332232475280762e-03 -5.145476460456848145e-01 3.731131553649902344e-02
1.213604584336280823e-02 -5.546622276306152344e-01 -3.061993606388568878e-02
1.561095938086509705e-02 -5.989677906036376953e-01 2.318298816680908203e-02
4.542917013168334961e-04 -5.988125801086425781e-01 -2.927849441766738892e-02
-6.900040805339813232e-02 -5.709879994392395020e-01 4.142355918884277344e-02
2.792700007557868958e-02 -4.886449277400970459e-01 -2.139984630048274994e-02
-8.955922722816467285e-02 -4.818066656589508057e-01 -3.696738183498382568e-02
2.811100706458091736e-02 -4.501134157180786133e-01 -1.341500040143728256e-02
1.709695532917976379e-02 -4.092081487178802490e-01 -1.352086430415511131e-03
-1.826083287596702576e-02 -5.992726683616638184e-01 3.735502064228057861e-02
3.669692203402519226e-02 -5.644136667251586914e-01 1.502393162809312344e-03
-9.738682210445404053e-02 -5.386683940887451172e-01 3.526482358574867249e-02
-4.314691200852394104e-02 -6.162534356117248535e-01 -3.585840016603469849e-02
-1.065539196133613586e-01 -4.258585870265960693e-01 -1.053851656615734100e-02
-5.007912591099739075e-02 -3.965975642204284668e-01 2.457187324762344360e-02
-1.275356262922286987e-01 -4.881512522697448730e-01 4.255223087966442108e-03
-1.988999359309673309e-02 -3.990443348884582520e-01 -2.473751269280910492e-02
-3.194527700543403625e-02 -5.930372476577758789e-01 4.032832384109497070e-02
-7.635800540447235107e-02 -6.548579335212707520e-01 2.206061407923698425e-02
-8.002507686614990234e-02 -4.530946612358093262e-01 -3.581918776035308838e-02
-7.892626523971557617e-02 -3.847177624702453613e-01 -3.024936653673648834e-03
-7.329261302947998047e-02 -5.854451060295104980e-01 -3.936220332980155945e-02
-9.048245847225189209e-02 -4.571178853511810303e-01 3.101407922804355621e-02
-7.332496345043182373e-02 -5.248166322708129883e-01 4.213038831949234009e-02
-1.109893023967742920e-01 -4.436504840850830078e-01 -1.593932695686817169e-02
1.617001369595527649e-02 -5.251878499984741211e-01 -3.034078702330589294e-02
8.922904729843139648e-03 -4.888047873973846436e-01 -3.310368582606315613e-02
-1.132640689611434937e-01 -5.544361472129821777e-01 -2.832928113639354706e-02
-1.862600818276405334e-02 -5.210002660751342773e-01 4.313478618860244751e-02
-6.221992522478103638e-02 -4.455313980579376221e-01 -3.798677399754524231e-02
-1.682373136281967163e-02 -6.406968235969543457e-01 2.644154429435729980e-02
-1.306990981101989746e-01 -5.165784358978271484e-01 -8.079254999756813049e-03
-3.199015930294990540e-02 -5.238499641418457031e-01 -4.403991997241973877e-02
-8.480605483055114746e-02 -4.247381985187530518e-01 2.514950558543205261e-02
-6.810849159955978394e-02 -5.310325026512145996e-01 -4.360185563564300537e-02
6.023988127708435059e-03 -5.785113573074340820e-01 -3.053982928395271301e-02
3.821401670575141907e-02 -5.338996052742004395e-01 1.160025689750909805e-02
-8.082817494869232178e-02 -5.031484365463256836e-01 3.966815769672393799e-02
-4.666661098599433899e-02 -3.706816434860229492e-01 -8.310932666063308716e-03
2.063081786036491394e-02 -5.492240190505981445e-01 2.875230088829994202e-02
2.872124314308166504e-04 -5.468772649765014648e-01 -3.632260113954544067e-02
-1.052995622158050537e-01 -4.520189762115478516e-01 2.160318382084369659e-02
-5.585520341992378235e-02 -6.431677937507629395e-01 3.021782822906970978e-02
3.714489564299583435e-02 -4.798821806907653809e-01 1.005293708294630051e-02
-1.523370109498500824e-02 -3.829097151756286621e-01 -1.430080644786357880e-02
-1.521668955683708191e-02 -4.635793566703796387e-01 3.882723674178123474e-02
3.659582510590553284e-02 -5.491369366645812988e-01 -8.881337940692901611e-03
-1.275236755609512329e-01 -5.104967951774597168e-01 -1.424792781472206116e-02
-1.212639510631561279e-01 -5.596310496330261230e-01 -2.174696512520313263e-02
-1.312355995178222656e-01 -5.520341396331787109e-01 -6.729707587510347366e-03
1.271739229559898376e-02 -4.480513334274291992e-01 2.707049623131752014e-02
3.439463302493095398e-02 -5.700079798698425293e-01 -5.773953162133693695e-03
-6.461693346500396729e-02 -6.444010734558105469e-01 -2.791831642389297485e-02
-1.306698173284530640e-01 -5.440391898155212402e-01 7.295529823750257492e-03
-9.472304582595825195e-02 -4.666702449321746826e-01 -3.309198468923568726e-02
-1.648673787713050842e-02 -5.416074991226196289e-01 -4.124595969915390015e-02
-4.171705618500709534e-02 -6.262932419776916504e-01 -3.346571326255798340e-02
-2.980433031916618347e-02 -6.742947101593017578e-01 1.048693060874938965e-02
1.549728587269783020e-02 -4.110961556434631348e-01 9.645215235650539398e-03
-4.452371597290039062e-02 -4.565161764621734619e-01 -4.067280888557434082e-02
-1.003063991665840149e-01 -5.020204782485961914e-01 -3.470778092741966248e-02
-1.267894953489303589e-01 -4.966822266578674316e-01 9.822441264986991882e-03
-6.430303305387496948e-02 -6.661150455474853516e-01 1.946270093321800232e-02
-3.209472447633743286e-02 -5.521353483200073242e-01 4.402845725417137146e-02
-1.012513786554336548e-01 -6.230616569519042969e-01 -2.291585318744182587e-02
1.835529133677482605e-02 -5.363478064537048340e-01 3.098671883344650269e-02
-8.121389150619506836e-02 -6.452285647392272949e-01 2.443639375269412994e-02
-9.021995216608047485e-02 -5.251573920249938965e-01 -3.911539539694786072e-02
-4.880319163203239441e-02 -5.183225274085998535e-01 -4.482427239418029785e-02
1.805319264531135559e-02 -6.188147068023681641e-01 -7.669682148844003677e-03
-1.301998496055603027e-01 -5.352052450180053711e-01 8.686774410307407379e-03
3.335528075695037842e-03 -6.155999898910522461e-01 -2.335353940725326538e-02
-6.656336039304733276e-02 -3.980679512023925781e-01 -2.377225272357463837e-02
-6.177021563053131104e-02 -5.053943991661071777e-01 -4.395771026611328125e-02
-6.767390668392181396e-02 -4.078133106231689453e-01 -2.746396325528621674e-02
-1.288906335830688477e-01 -5.533722043037414551e-01 1.039254479110240936e-02
-1.116034090518951416e-01 -4.615734815597534180e-01 -2.196999639272689819e-02
3.905530646443367004e-02 -5.480711460113525391e-01 3.344910917803645134e-03
-2.692276611924171448e-02 -4.502802491188049316e-01 3.850767761468887329e-02
-3.097002208232879639e-02 -5.139649510383605957e-01 -4.391051456332206726e-02
-6.883239001035690308e-02 -4.698814153671264648e-01 -4.052988812327384949e-02
-7.130695879459381104e-02 -6.379537582397460938e-01 2.965578250586986542e-02
3.300248458981513977e-02 -4.602267444133758545e-01 1.142505835741758347e-02
-4.501141235232353210e-02 -5.207744240760803223e-01 4.491458460688591003e-02
1.533079519867897034e-02 -5.112980008125305176e-01 3.285477682948112488e-02
-3.682724758982658386e-02 -6.351874470710754395e-01 -3.056520409882068634e-02
2.659528329968452454e-02 -5.817123055458068848e-01 1.794301904737949371e-02
-9.104930609464645386e-02 -4.027101993560791016e-01 -1.212407276034355164e-02
-8.047439903020858765e-02 -6.722253561019897461e-01 -5.130266770720481873e-03
-2.406756207346916199e-02 -5.791977643966674805e-01 4.109806567430496216e-02
2.952870354056358337e-02 -5.000283122062683105e-01 2.308169379830360413e-02
6.753616034984588623e-03 -4.891886413097381592e-01 3.546692058444023132e-02
-5.333967134356498718e-02 -4.611892104148864746e-01 -4.107707366347312927e-02
-3.161530569195747375e-02 -4.768500626087188721e-01 4.223719239234924316e-02
-8.982758969068527222e-02 -5.086746215820312500e-01 3.733710572123527527e-02
3.276703879237174988e-02 -5.376927852630615234e-01 1.954375766217708588e-02
-5.774353444576263428e-02 -4.829296767711639404e-01 4.224705323576927185e-02
-9.110341966152191162e-02 -6.474599838256835938e-01 1.886653713881969452e-02
-8.138756453990936279e-02 -6.201468706130981445e-01 -3.166249766945838928e-02
3.577250987291336060e-03 -5.550439953804016113e-01 3.655804693698883057e-02
2.601904794573783875e-02 -5.836153626441955566e-01 -1.484693959355354309e-02
-1.011810079216957092e-01 -4.748810231685638428e-01 -3.143066540360450745e-02
3.159848973155021667e-02 -4.726007878780364990e-01 1.732399314641952515e-02
1.198284700512886047e-02 -5.652198195457458496e-01 3.197586908936500549e-02
-3.785344585776329041e-02 -6.092265248298645020e-01 3.824587911367416382e-02
2.266727015376091003e-02 -6.091809272766113281e-01 9.898076765239238739e-03
-6.768621504306793213e-02 -4.281015694141387939e-01 3.178264573216438293e-02
-6.191631034016609192e-02 -6.813697814941406250e-01 -1.791334827430546284e-03
-3.451254218816757202e-02 -5.427750349044799805e-01 4.454059526324272156e-02
1.278304308652877808e-02 -4.648174047470092773e-01 -2.882651984691619873e-02
-1.227668523788452148e-01 -5.677660107612609863e-01 -1.919325068593025208e-02
-1.985998265445232391e-02 -4.062384068965911865e-01 2.696832269430160522e-02
-5.632801353931427002e-02 -5.949775576591491699e-01 4.034584760665893555e-02
1.902199909090995789e-02 -5.603300929069519043e-01 2.859663404524326324e-02
2.191849425435066223e-02 -6.092314124107360840e-01 -8.096511475741863251e-03
8.716061711311340332e-04 -5.087600946426391602e-01 -3.703273832798004150e-02
1.880674436688423157e-02 -4.347573518753051758e-01 1.919484697282314301e-02
3.055287525057792664e-02 -4.469392895698547363e-01 9.396684356033802032e-03
1.954593881964683533e-02 -4.366387128829956055e-01 -1.802747882902622223e-02
-8.628004044294357300e-02 -5.369801521301269531e-01 -4.012442007660865784e-02
-1.188499927520751953e-01 -5.006951093673706055e-01 -2.328271046280860901e-02
-3.179244697093963623e-02 -6.422317028045654297e-01 -2.753004990518093109e-02
-3.402176871895790100e-02 -4.519058763980865479e-01 -3.960740938782691956e-02
1.074279472231864929e-02 -6.163449287414550781e-01 -1.789663545787334442e-02
-7.637345790863037109e-02 -4.846591949462890625e-01 -4.065758734941482544e-02
-4.446369409561157227e-02 -5.924986600875854492e-01 -4.005827009677886963e-02
-3.976967185735702515e-03 -6.213506460189819336e-01 -2.537094242870807648e-02
-1.480492204427719116e-02 -3.932215869426727295e-01 -2.059972658753395081e-02
-6.110157445073127747e-02 -6.232544183731079102e-01 -3.421122208237648010e-02
-9.253922104835510254e-02 -4.351291656494140625e-01 -2.710696123540401459e-02
-9.759587049484252930e-02 -6.360095739364624023e-01 -2.025311812758445740e-02
-5.263162404298782349e-02 -4.201190769672393799e-01 3.220392763614654541e-02
-1.024949401617050171e-01 -4.340121746063232422e-01 -2.024510130286216736e-02
-8.669101446866989136e-02 -5.694847106933593750e-01 -3.826711699366569519e-02
-6.743730604648590088e-02 -4.783235788345336914e-01 -4.160618409514427185e-02
-1.209275871515274048e-01 -5.691934227943420410e-01 1.908830739557743073e-02
-5.594256892800331116e-02 -4.334215521812438965e-01 -3.635721653699874878e-02
-2.325515821576118469e-02 -6.726062297821044922e-01 -5.031638313084840775e-03
-7.041328400373458862e-02 -6.272257566452026367e-01 3.272372111678123474e-02
1.248132437467575073e-02 -4.045066535472869873e-01 -7.230230607092380524e-03
-1.227654367685317993e-01 -5.503153800964355469e-01 -2.108289115130901337e-02
-1.192310899496078491e-01 -4.516502618789672852e-01 -7.447302341461181641e-04
-8.163303881883621216e-02 -6.685127615928649902e-01 1.018319372087717056e-02
-9.657011181116104126e-02 -4.973092973232269287e-01 3.403237089514732361e-02
-8.185616135597229004e-02 -4.770944714546203613e-01 -3.868492692708969116e-02
-2.449350617825984955e-02 -5.362914204597473145e-01 -4.287562891840934753e-02
-9.686752408742904663e-02 -4.863523244857788086e-01 -3.479396924376487732e-02
-3.992015123367309570e-02 -4.512661695480346680e-01 3.928929567337036133e-02
-3.738226741552352905e-02 -6.679566502571105957e-01 -1.656237803399562836e-02
-8.939053118228912354e-02 -6.052362322807312012e-01 -3.256374597549438477e-02
-1.210661977529525757e-02 -5.006822347640991211e-01 -4.050941765308380127e-02
-6.040560826659202576e-02 -6.002880334854125977e-01 -3.870671987533569336e-02
-8.310101926326751709e-03 -6.543173193931579590e-01 -1.203569769859313965e-02
-4.873101040720939636e-02 -4.718487858772277832e-01 4.182294011116027832e-02
-1.173499971628189087e-03 -5.605175495147705078e-01 -3.573176264762878418e-02
-8.217935264110565186e-02 -5.413368344306945801e-01 4.013956710696220398e-02
-1.436755061149597168e-03 -4.907729625701904297e-01 3.830176591873168945e-02
-3.121545724570751190e-02 -6.624401807785034180e-01 2.067525498569011688e-02
-1.206411048769950867e-02 -4.849967658519744873e-01 -3.969782590866088867e-02
3.825050964951515198e-02 -5.101956725120544434e-01 -9.996596723794937134e-03
-5.934090912342071533e-02 -4.050501286983489990e-01 -2.819712273776531219e-02
4.307065159082412720e-03 -4.757526218891143799e-01 -3.395550325512886047e-02
7.101103663444519043e-03 -4.104396402835845947e-01 -1.740772090852260590e-02
-1.289124637842178345e-01 -5.672218799591064453e-01 -9.769850410521030426e-03
-3.802087903022766113e-02 -6.699291467666625977e-01 1.743578910827636719e-02
-1.260687857866287231e-01 -5.294677615165710449e-01 1.546811219304800034e-02
-9.870221465826034546e-02 -5.641735792160034180e-01 3.372253477573394775e-02
-3.863793238997459412e-02 -5.842626094818115234e-01 4.187808558344841003e-02
-3.246004879474639893e-02 -3.731256723403930664e-01 -1.134201325476169586e-02
-1.015077978372573853e-01 -5.464141368865966797e-01 3.337249532341957092e-02
-8.242569118738174438e-02 -4.485393166542053223e-01 3.232012689113616943e-02
2.306408062577247620e-02 -5.445394515991210938e-01 -2.491824328899383545e-02
-7.960703969001770020e-02 -5.171436667442321777e-01 4.060505703091621399e-02
-9.271453320980072021e-02 -5.564554929733276367e-01 3.648474439978599548e-02
-1.208966374397277832e-01 -5.925843715667724609e-01 -1.574202813208103180e-02
-1.313127577304840088e-01 -5.147480964660644531e-01 1.864907448180019855e-03
-9.651333093643188477e-02 -4.243715703487396240e-01 1.808596588671207428e-02
-9.477552026510238647e-02 -4.745411872863769531e-01 3.215904906392097473e-02
-1.078778207302093506e-01 -4.239065647125244141e-01 -2.060169354081153870e-03
-6.545426696538925171e-02 -4.743255078792572021e-01 4.036743193864822388e-02
-4.365968331694602966e-02 -6.311129331588745117e-01 3.382569923996925354e-02
2.026328071951866150e-02 -4.820645451545715332e-01 2.830272912979125977e-02
-4.100400209426879883e-02 -5.813603997230529785e-01 -4.131869599223136902e-02
-5.442864075303077698e-02 -3.711524605751037598e-01 3.708372125402092934e-03
-7.382482290267944336e-04 -5.263524651527404785e-01 -3.754854574799537659e-02
-1.095933318138122559e-01 -4.429922997951507568e-01 1.435661129653453827e-02
-4.571112617850303650e-02 -3.976555764675140381e-01 -2.679277770221233368e-02
-8.418960869312286377e-02 -5.963879227638244629e-01 3.533687442541122437e-02
-6.794117391109466553e-02 -3.894794285297393799e-01 -1.867944002151489258e-02
-7.700660079717636108e-02 -5.874288082122802734e-01 3.832929953932762146e-02
-8.775590360164642334e-02 -4.271923601627349854e-01 -2.696812339127063751e-02
-1.133592724800109863e-01 -6.317142248153686523e-01 -2.331529045477509499e-03
-1.132195144891738892e-01 -5.241609811782836914e-01 -2.902137860655784607e-02
2.559524402022361755e-02 -6.058055758476257324e-01 4.246136813890188932e-05
-7.793423533439636230e-02 -4.781207144260406494e-01 3.824432566761970520e-02
-4.082223773002624512e-02 -5.267633199691772461e-01 -4.465208947658538818e-02
-5.043366923928260803e-02 -6.429380178451538086e-01 -2.914278022944927216e-02
-2.258659526705741882e-02 -6.592779755592346191e-01 -1.726600900292396545e-02
2.991135045886039734e-02 -5.162837505340576172e-01 -2.080697193741798401e-02
2.363181486725807190e-02 -4.223646223545074463e-01 2.454400528222322464e-03
-1.145790815353393555e-01 -4.877530038356781006e-01 2.251065522432327271e-02
-6.084844470024108887e-03 -5.766727924346923828e-01 -3.554185852408409119e-02
-1.180643960833549500e-02 -4.479857385158538818e-01 -3.549245372414588928e-02
-8.163224160671234131e-02 -4.148760139942169189e-01 2.303124032914638519e-02
1.366083323955535889e-02 -6.320388317108154297e-01 -1.245137187652289867e-03
-9.203083068132400513e-02 -4.436455667018890381e-01 -2.965162880718708038e-02
-3.678702190518379211e-02 -6.546106934547424316e-01 -2.360762096941471100e-02
-1.130678504705429077e-01 -4.707283973693847656e-01 2.033771760761737823e-02
-6.497340649366378784e-02 -5.608358979225158691e-01 4.268497228622436523e-02
-1.889457367360591888e-02 -6.104153394699096680e-01 -3.339953720569610596e-02
-1.912056095898151398e-02 -4.246237277984619141e-01 3.231974691152572632e-02
8.462950587272644043e-03 -5.251742005348205566e-01 -3.408289700746536255e-02
-4.499311000108718872e-02 -5.557144284248352051e-01 4.429044201970100403e-02
-9.533777087926864624e-02 -6.441888213157653809e-01 -1.783865503966808319e-02
-8.035103976726531982e-02 -6.187556982040405273e-01 3.236877918243408203e-02
-1.764671318233013153e-02 -6.661851406097412109e-01 1.146992761641740799e-02
3.770161420106887817e-03 -4.419904053211212158e-01 2.995058335363864899e-02
1.926408335566520691e-02 -6.193417310714721680e-01 7.529776543378829956e-03
-6.756713986396789551e-02 -4.907277822494506836e-01 4.159055650234222412e-02
-2.451320365071296692e-02 -4.847787320613861084e-01 -4.198698326945304871e-02
-1.239522397518157959e-01 -4.686818420886993408e-01 -4.616900347173213959e-03
-7.027055323123931885e-02 -5.956336259841918945e-01 -3.842305019497871399e-02
-1.501852273941040039e-02 -6.682527661323547363e-01 3.376015694811940193e-03
3.389107063412666321e-02 -4.952306151390075684e-01 -1.578581891953945160e-02
-1.040525361895561218e-02 -5.949407815933227539e-01 3.619486093521118164e-02
1.955056563019752502e-02 -4.883858561515808105e-01 -2.753344923257827759e-02
-3.002648800611495972e-02 -6.134629845619201660e-01 3.671486675739288330e-02
-7.865987718105316162e-02 -5.631018877029418945e-01 -4.061611741781234741e-02
-2.917111851274967194e-02 -5.529168844223022461e-01 -4.274261742830276489e-02
-5.570389330387115479e-03 -4.167207777500152588e-01 -2.652454935014247894e-02
-1.328443363308906555e-02 -5.564951896667480469e-01 4.119310528039932251e-02
-1.164347678422927856e-01 -5.843939781188964844e-01 -2.232768572866916656e-02
-1.125983893871307373e-02 -6.063190698623657227e-01 -3.211061283946037292e-02
-1.005336046218872070e-01 -4.419542253017425537e-01 -2.456355467438697815e-02
-9.552893042564392090e-02 -4.851842224597930908e-01 3.323686867952346802e-02
-9.812755882740020752e-02 -5.907334089279174805e-01 -3.192410618066787720e-02
-2.355456538498401642e-02 -6.300828456878662109e-01 3.170638903975486755e-02
-2.727638930082321167e-02 -4.196100234985351562e-01 -3.265970945358276367e-02
-4.129126667976379395e-02 -3.730440735816955566e-01 1.049470435827970505e-02
-7.860584557056427002e-02 -6.310613751411437988e-01 2.983404695987701416e-02
-1.218618452548980713e-01 -6.079367399215698242e-01 4.085591528564691544e-03
-3.279075399041175842e-02 -6.729459762573242188e-01 -1.113743893802165985e-02
-1.200682222843170166e-01 -6.138080954551696777e-01 -5.013756919652223587e-03
-4.032436758279800415e-03 -3.996133804321289062e-01 1.908302307128906250e-02
-7.937762141227722168e-02 -5.063478946685791016e-01 -4.139756783843040466e-02
-1.667799986898899078e-02 -5.525332093238830566e-01 -4.067705944180488586e-02
-1.295510232448577881e-01 -5.366205573081970215e-01 -1.254547201097011566e-02
-5.527270957827568054e-02 -4.514538347721099854e-01 -3.961912915110588074e-02
-7.813276350498199463e-02 -4.307427108287811279e-01 -3.160049393773078918e-02
-8.822865784168243408e-02 -6.515566110610961914e-01 -1.818167977035045624e-02
-6.751149892807006836e-02 -6.478354334831237793e-01 2.718021906912326813e-02
-6.034448742866516113e-03 -5.693024396896362305e-01 3.838073089718818665e-02
-2.725361473858356476e-02 -4.327716827392578125e-01 -3.564859926700592041e-02
-4.540678858757019043e-02 -4.333942234516143799e-01 3.590581193566322327e-02
-1.027955561876296997e-01 -5.999890565872192383e-01 -2.812145277857780457e-02
-5.993854254484176636e-03 -5.397938489913940430e-01 4.033606871962547302e-02
-6.087448447942733765e-02 -5.554691553115844727e-01 -4.344039037823677063e-02
3.034412488341331482e-02 -4.401177167892456055e-01 1.676678541116416454e-03
-1.516074873507022858e-02 -4.769520759582519531e-01 -3.976441919803619385e-02
-5.221455916762351990e-02 -5.042768120765686035e-01 -4.447359591722488403e-02
-9.668347984552383423e-02 -4.059497117996215820e-01 -6.161345168948173523e-03
-2.748264372348785400e-02 -6.303755044937133789e-01 -3.040045686066150665e-02
2.920531854033470154e-02 -5.645493865013122559e-01 -1.641467213630676270e-02
-1.162960678339004517e-01 -4.842776060104370117e-01 -2.306655235588550568e-02
-6.800776720046997070e-02 -6.158983707427978516e-01 -3.513101860880851746e-02
-1.475960202515125275e-02 -5.323786735534667969e-01 4.244235530495643616e-02
-1.257093548774719238e-01 -4.965400695800781250e-01 -1.456251740455627441e-02
2.327151596546173096e-03 -6.081556081771850586e-01 2.880003117024898529e-02
3.329548612236976624e-02 -5.271248221397399902e-01 1.967677660286426544e-02
-7.010357826948165894e-02 -5.948678851127624512e-01 3.872901946306228638e-02
-7.945360243320465088e-02 -4.947246313095092773e-01 -4.076757282018661499e-02
-3.765467554330825806e-02 -5.086485147476196289e-01 4.456574469804763794e-02
1.936135813593864441e-02 -5.086489915847778320e-01 -2.859207056462764740e-02
2.641461417078971863e-02 -4.578568339347839355e-01 -1.774583384394645691e-02
-1.613068208098411560e-02 -3.791841268539428711e-01 1.075796131044626236e-02
1.490463688969612122e-02 -4.142530262470245361e-01 -1.217288337647914886e-02
-1.168038398027420044e-01 -5.150865316390991211e-01 -2.619678340852260590e-02
1.169405877590179443e-03 -4.634479582309722900e-01 3.469069302082061768e-02
5.565430968999862671e-03 -6.195052862167358398e-01 2.350656129419803619e-02
2.104037627577781677e-02 -4.720168113708496094e-01 2.651130966842174530e-02
-4.531514272093772888e-02 -6.340187788009643555e-01 -3.166405111551284790e-02
-4.597484692931175232e-02 -6.015252470970153809e-01 -3.873569890856742859e-02
-2.750362269580364227e-02 -5.759664177894592285e-01 -4.053837060928344727e-02
-5.458752065896987915e-02 -5.687147974967956543e-01 4.316080361604690552e-02
-7.428304851055145264e-02 -3.838818371295928955e-01 7.364660967141389847e-03
-5.337382480502128601e-02 -4.952094852924346924e-01 -4.404268041253089905e-02
-5.927278473973274231e-02 -5.820502638816833496e-01 4.162874072790145874e-02
-1.149255037307739258e-01 -5.987098813056945801e-01 -2.029439434409141541e-02
2.594384178519248962e-02 -4.306577742099761963e-01 -5.850896239280700684e-03
-2.124664559960365295e-02 -3.734801411628723145e-01 -7.175463717430830002e-03
-8.794867247343063354e-02 -4.915373027324676514e-01 -3.836193680763244629e-02
-5.701861903071403503e-02 -6.546924710273742676e-01 2.601068653166294098e-02
2.382624521851539612e-02 -5.587806701660156250e-01 -2.262827381491661072e-02
-6.404252350330352783e-02 -5.165074467658996582e-01 4.345836862921714783e-02
-5.304776132106781006e-02 -4.863087236881256104e-01 -4.351396113634109497e-02
-1.164641380310058594e-01 -6.084856986999511719e-01 1.426116935908794403e-02
-1.026780903339385986e-01 -5.105019807815551758e-01 -3.415815159678459167e-02
3.782852366566658020e-02 -4.958920478820800781e-01 1.220593135803937912e-02
3.486763313412666321e-02 -5.128431916236877441e-01 1.800630427896976471e-02
-1.036791503429412842e-01 -4.200940728187561035e-01 7.214437704533338547e-03
-1.117060333490371704e-01 -4.562171101570129395e-01 1.740907132625579834e-02
-5.065609514713287354e-02 -6.814590692520141602e-01 -4.788981750607490540e-03
2.009833231568336487e-02 -5.826748013496398926e-01 -2.101410552859306335e-02
-6.980475783348083496e-02 -5.581544041633605957e-01 -4.238334298133850098e-02
-1.512583158910274506e-02 -6.639273166656494141e-01 -9.004901163280010223e-03
-5.461366847157478333e-02 -6.820883750915527344e-01 4.648923873901367188e-03
-8.972909301519393921e-02 -5.663520097732543945e-01 3.688906133174896240e-02
-6.748422980308532715e-03 -6.054447293281555176e-01 3.311107680201530457e-02
-1.312317103147506714e-01 -5.261097550392150879e-01 5.277089308947324753e-03
-5.981132388114929199e-02 -6.725997328758239746e-01 1.593582890927791595e-02
-9.128265082836151123e-02 -6.591971516609191895e-01 1.086740382015705109e-02
-4.657261446118354797e-02 -6.723998188972473145e-01 -1.488911733031272888e-02
-5.777562409639358521e-02 -5.251945257186889648e-01 -4.456488788127899170e-02
-5.847612395882606506e-02 -6.387594938278198242e-01 -3.027165681123733521e-02
-6.728025525808334351e-02 -4.330874681472778320e-01 -3.476080670952796936e-02
-8.797318488359451294e-02 -6.659687161445617676e-01 -6.006767973303794861e-03
4.033042863011360168e-02 -5.295538306236267090e-01 -2.675623632967472076e-03
-8.090442419052124023e-02 -5.594131350517272949e-01 3.981517627835273743e-02
-4.829572513699531555e-02 -5.437142252922058105e-01 -4.442766308784484863e-02
-4.470144957304000854e-02 -6.612976193428039551e-01 2.329001575708389282e-02
-1.077471226453781128e-01 -4.829894304275512695e-01 -2.903206087648868561e-02
-5.482387170195579529e-02 -3.916215896606445312e-01 -2.333674952387809753e-02
-2.413751929998397827e-02 -4.997092187404632568e-01 -4.271678626537322998e-02
-2.975194156169891357e-02 -4.642865061759948730e-01 4.072825238108634949e-02
-6.697127223014831543e-02 -4.872445464134216309e-01 -4.241189733147621155e-02
-3.296211361885070801e-02 -3.923907279968261719e-01 2.316683158278465271e-02
-2.476633526384830475e-02 -3.854542374610900879e-01 -1.933439634740352631e-02
-9.278942644596099854e-02 -5.160571336746215820e-01 -3.816535696387290955e-02
-1.698795706033706665e-02 -5.661594867706298828e-01 4.119823873043060303e-02
-1.231621950864791870e-01 -4.697601497173309326e-01 5.899323616176843643e-03
1.540590077638626099e-03 -5.465154051780700684e-01 3.782491385936737061e-02
-8.225116133689880371e-02 -5.776110291481018066e-01 3.812057897448539734e-02
-3.651852533221244812e-02 -4.042443335056304932e-01 2.806057408452033997e-02
-3.259617835283279419e-02 -5.305908322334289551e-01 4.464239627122879028e-02
-5.572824552655220032e-02 -5.405453443527221680e-01 4.439406469464302063e-02
-1.296314969658851624e-02 -6.420722603797912598e-01 -2.184938639402389526e-02
3.654844686388969421e-02 -4.697747528553009033e-01 7.308490574359893799e-03
4.058716073632240295e-02 -5.185284018516540527e-01 6.195093970745801926e-03
-1.208532452583312988e-01 -5.361893773078918457e-01 -2.342135645449161530e-02
-8.746795356273651123e-03 -4.355163574218750000e-01 -3.237324208021163940e-02
-3.108064457774162292e-02 -3.931472301483154297e-01 -2.432102337479591370e-02
-9.992440044879913330e-02 -6.123352646827697754e-01 -2.675439231097698212e-02
-7.278594374656677246e-02 -6.757740974426269531e-01 7.676023989915847778e-03
2.021342888474464417e-02 -5.727414488792419434e-01 -2.307629399001598358e-02
-1.003763377666473389e-01 -5.743927359580993652e-01 -3.318712115287780762e-02
3.048283979296684265e-02 -4.714969098567962646e-01 -1.641488820314407349e-02
-4.485597461462020874e-02 -3.834542632102966309e-01 1.849051192402839661e-02
-5.850005894899368286e-02 -5.453289747238159180e-01 -4.409398138523101807e-02
-9.031307697296142578e-02 -4.059660732746124268e-01 1.284705102443695068e-02
-3.449890762567520142e-02 -6.003698110580444336e-01 -3.808497264981269836e-02
2.918817475438117981e-02 -5.451127290725708008e-01 2.252587489783763885e-02
-6.935225427150726318e-02 -5.831814408302307129e-01 4.025098681449890137e-02
1.560284942388534546e-02 -5.387066006660461426e-01 -3.006510064005851746e-02
-3.036218881607055664e-02 -4.418334960937500000e-01 -3.769762068986892700e-02
-1.103519648313522339e-02 -4.030295014381408691e-01 -2.368372492492198944e-02
-5.446897447109222412e-02 -5.179191827774047852e-01 4.446199536323547363e-02
-5.958811193704605103e-02 -5.273064374923706055e-01 4.414999485015869141e-02
-9.028500318527221680e-02 -4.199683368206024170e-01 -2.303265035152435303e-02
2.534713223576545715e-02 -5.170127153396606445e-01 2.697350457310676575e-02
-9.188979864120483398e-02 -4.371483325958251953e-01 2.559341490268707275e-02
-7.908931374549865723e-02 -4.565520882606506348e-01 3.487272560596466064e-02
-1.098926812410354614e-01 -6.191694140434265137e-01 -1.796502433717250824e-02
-3.429222106933593750e-02 -3.803479075431823730e-01 1.656734012067317963e-02
-7.761731743812561035e-02 -6.643971800804138184e-01 -1.546047907322645187e-02
-2.295717410743236542e-02 -3.847865462303161621e-01 1.767636463046073914e-02
-4.129963740706443787e-02 -5.496735572814941406e-01 -4.397352784872055054e-02
3.029515966773033142e-02 -5.743003487586975098e-01 1.542751211673021317e-02
-6.203745305538177490e-02 -4.089202284812927246e-01 2.729479782283306122e-02
1.481605134904384613e-02 4.086026251316070557e-01 5.860073491930961609e-03
6.486940383911132812e-02 3.313249051570892334e-01 7.740750908851623535e-03
-1.215861514210700989e-01 3.827230930328369141e-01 -1.384460600093007088e-03
-5.065071582794189453e-02 3.982535600662231445e-01 7.518734782934188843e-03
-7.462187111377716064e-02 3.087632358074188232e-01 5.671207793056964874e-03
1.324920728802680969e-02 3.000371456146240234e-01 -5.317605100572109222e-03
-1.215762645006179810e-02 2.898612022399902344e-01 -4.633547738194465637e-03
2.491010911762714386e-02 2.821730673313140869e-01 -4.615195095539093018e-03
-9.100976586341857910e-02 3.854907751083374023e-01 -4.062278196215629578e-03
3.328278660774230957e-02 3.538352847099304199e-01 8.363968692719936371e-03
-8.882347494363784790e-02 3.917446136474609375e-01 6.559199653565883636e-03
8.350149542093276978e-02 3.365790545940399170e-01 -3.016290487721562386e-03
-1.875535026192665100e-02 3.569472730159759521e-01 8.854959160089492798e-03
-3.386396914720535278e-02 3.797374963760375977e-01 8.325332775712013245e-03
-3.058582916855812073e-02 3.820747137069702148e-01 -5.503375083208084106e-03
-9.065286070108413696e-02 3.498379290103912354e-01 6.438838317990303040e-03
3.636328503489494324e-02 3.065387606620788574e-01 -5.267146974802017212e-03
-3.192435950040817261e-02 3.570685088634490967e-01 8.729897439479827881e-03
1.275396347045898438e-02 2.598918974399566650e-01 -2.997074974700808525e-03
6.154480390250682831e-03 2.760018706321716309e-01 -4.156860522925853729e-03
-8.394445478916168213e-02 4.037667214870452881e-01 6.394262425601482391e-03
8.811653591692447662e-03 3.524434864521026611e-01 -5.799057893455028534e-03
-1.034459099173545837e-01 3.705218732357025146e-01 5.787497386336326599e-03
-3.391928970813751221e-03 3.806227445602416992e-01 8.224278688430786133e-03
7.192695885896682739e-02 2.834754586219787598e-01 -3.716779639944434166e-03
6.516934186220169067e-02 3.019370734691619873e-01 7.877139374613761902e-03
6.178322434425354004e-02 3.242921233177185059e-01 7.982185110449790955e-03
1.042787805199623108e-01 3.434846401214599609e-01 9.143220377154648304e-04
7.552605122327804565e-02 2.751333713531494141e-01 6.875605322420597076e-03
-8.066123723983764648e-02 4.268053770065307617e-01 5.065657664090394974e-03
-5.157412961125373840e-02 2.853366732597351074e-01 -2.486125798895955086e-03
5.171633139252662659e-02 3.830311596393585205e-01 -2.826688112691044807e-03
-1.237816885113716125e-01 4.102975726127624512e-01 2.161750104278326035e-03
-4.636740311980247498e-02 3.078383803367614746e-01 -4.489763639867305756e-03
-1.379351038485765457e-02 2.777507901191711426e-01 7.050576619803905487e-03
-4.136233776807785034e-02 3.367809355258941650e-01 8.486974053084850311e-03
2.645194157958030701e-02 3.699695467948913574e-01 8.012969046831130981e-03
-6.356834620237350464e-02 3.379299640655517578e-01 -4.921212792396545410e-03
-2.614209428429603577e-02 3.049545884132385254e-01 8.107344619929790497e-03
5.521619692444801331e-02 3.342383801937103271e-01 -4.774169065058231354e-03
-1.233896911144256592e-01 3.994799554347991943e-01 -8.201319724321365356e-04
-7.157317362725734711e-03 2.980235815048217773e-01 -5.108089186251163483e-03
-3.745132684707641602e-02 3.945975303649902344e-01 7.795956917107105255e-03
-5.239964276552200317e-02 4.161012768745422363e-01 -3.972232341766357422e-03
7.215075194835662842e-03 2.747363448143005371e-01 7.426094263792037964e-03
9.995725005865097046e-02 2.960842549800872803e-01 5.863863043487071991e-03
-6.672456115484237671e-02 3.851858079433441162e-01 -4.976686090230941772e-03
-6.457523256540298462e-02 4.007800221443176270e-01 -4.590705037117004395e-03
-4.660977423191070557e-02 4.449440240859985352e-01 -4.853203427046537399e-05
7.394095882773399353e-04 3.998082876205444336e-01 -4.304275847971439362e-03
-1.077098548412322998e-01 3.836174011230468750e-01 -2.977259689942002296e-03
-7.167173922061920166e-02 3.189319372177124023e-01 6.581504829227924347e-03
-4.515990242362022400e-02 3.753621280193328857e-01 -5.549980327486991882e-03
-3.752590343356132507e-02 3.161221742630004883e-01 8.144308812916278839e-03
5.791307240724563599e-02 2.563036084175109863e-01 6.293069571256637573e-03
7.663312554359436035e-02 3.552137911319732666e-01 -2.710352884605526924e-03
1.136692911386489868e-01 2.729210257530212402e-01 3.570809494704008102e-04
8.522362262010574341e-02 3.519873023033142090e-01 -2.021685242652893066e-03
3.908847644925117493e-02 3.594159483909606934e-01 8.003623224794864655e-03
-7.661158591508865356e-02 4.440563321113586426e-01 -1.391930272802710533e-04
-1.116484776139259338e-02 3.681478500366210938e-01 -5.760041065514087677e-03
9.899356402456760406e-03 3.184108138084411621e-01 -5.746186710894107819e-03
8.729697018861770630e-02 3.306300044059753418e-01 6.362406536936759949e-03
-6.259453296661376953e-02 4.053713083267211914e-01 6.993158720433712006e-03
-8.407592028379440308e-02 4.442107677459716797e-01 8.357565384358167648e-04
-2.412817999720573425e-02 3.398674726486206055e-01 8.862299844622612000e-03
1.904227212071418762e-02 3.134630024433135986e-01 8.851293474435806274e-03
-1.102823205292224884e-02 3.608390688896179199e-01 8.818008005619049072e-03
5.194477736949920654e-02 3.832875490188598633e-01 5.905481055378913879e-03
-8.792051672935485840e-02 3.324674665927886963e-01 6.012432277202606201e-03
1.526286825537681580e-02 3.724645376205444336e-01 8.209624327719211578e-03
-1.552573032677173615e-02 3.343580961227416992e-01 -5.920831114053726196e-03
-5.767126753926277161e-02 3.706383407115936279e-01 8.089338429272174835e-03
4.733076319098472595e-02 4.032693505287170410e-01 -5.502910353243350983e-04
-4.690382629632949829e-03 3.536804318428039551e-01 8.917053230106830597e-03
5.284031108021736145e-02 3.622224628925323486e-01 -4.080794751644134521e-03
-7.109204307198524475e-05 3.717130124568939209e-01 -5.550731904804706573e-03
-6.554883718490600586e-02 4.396051466464996338e-01 -1.488780369982123375e-03
-4.228812828660011292e-02 3.020116984844207764e-01 7.372966036200523376e-03
1.760118268430233002e-02 2.840911149978637695e-01 -4.703588783740997314e-03
-6.254250556230545044e-02 3.690375685691833496e-01 -5.273648537695407867e-03
7.763281464576721191e-02 3.226178884506225586e-01 -3.783952211961150169e-03
-1.685590110719203949e-02 3.810818791389465332e-01 -5.480723455548286438e-03
-3.756072744727134705e-02 3.840200006961822510e-01 -5.433697253465652466e-03
4.975932091474533081e-02 2.406039535999298096e-01 4.591112490743398666e-03
-3.085725940763950348e-02 3.661089241504669189e-01 -5.805329419672489166e-03
3.286234289407730103e-02 2.363132834434509277e-01 2.759791677817702293e-04
3.787058219313621521e-02 2.831268906593322754e-01 8.003680966794490814e-03
-7.616354525089263916e-02 3.372472822666168213e-01 7.047530263662338257e-03
1.374571211636066437e-02 3.935760259628295898e-01 -4.248767159879207611e-03
4.473756067454814911e-03 3.887497782707214355e-01 7.717101834714412689e-03
-6.408806145191192627e-02 3.204642534255981445e-01 7.135628722608089447e-03
5.321898683905601501e-02 2.636101245880126953e-01 6.884944625198841095e-03
-1.330730039626359940e-02 3.047332763671875000e-01 -5.275847390294075012e-03
-7.245203480124473572e-03 3.436273038387298584e-01 9.002062492072582245e-03
-9.029854834079742432e-02 3.591825067996978760e-01 6.645594723522663116e-03
2.456372790038585663e-02 3.241444528102874756e-01 -5.664190277457237244e-03
-1.117197573184967041e-01 3.341084420680999756e-01 1.578251831233501434e-04
2.358904108405113220e-03 3.189010620117187500e-01 -5.769358016550540924e-03
