2.286137342453002930e-01 -3.103334903717041016e-01 1.199184581637382507e-01
1.461919546127319336e-01 -3.484501540660858154e-01 3.365667536854743958e-02
1.395880877971649170e-01 -5.393056869506835938e-01 2.118759416043758392e-02
1.409676671028137207e-01 -3.707549273967742920e-01 2.523318305611610413e-02
1.342529207468032837e-01 -4.415323138236999512e-01 6.273937225341796875e-02
1.349490284919738770e-01 -4.274572134017944336e-01 6.314508616924285889e-02
2.147027105093002319e-01 -4.785445034503936768e-01 7.612284272909164429e-02
2.173107862472534180e-01 -2.804892659187316895e-01 2.337741106748580933e-02
2.019710689783096313e-01 -4.965282678604125977e-01 9.851004183292388916e-02
1.304122507572174072e-01 -4.615966379642486572e-01 2.330388501286506653e-02
1.883224844932556152e-01 -4.018891453742980957e-01 -9.385989606380462646e-02
1.547794789075851440e-01 -3.989772200584411621e-01 -7.582592964172363281e-02
1.816000789403915405e-01 -4.137918949127197266e-01 1.706886291503906250e-01
2.306849360466003418e-01 -3.143408298492431641e-01 3.798234090209007263e-02
2.298422306776046753e-01 -3.462843894958496094e-01 1.230539903044700623e-01
1.994940340518951416e-01 -4.944846630096435547e-01 -6.449231505393981934e-02
1.764514297246932983e-01 -2.934677898883819580e-01 -4.164189100265502930e-03
2.228127121925354004e-01 -4.185580015182495117e-01 1.176967248320579529e-01
1.964086145162582397e-01 -2.977653741836547852e-01 1.609503030776977539e-01
2.149520665407180786e-01 -3.736504912376403809e-01 1.611280441284179688e-01
2.265362441539764404e-01 -4.398297667503356934e-01 3.255688771605491638e-02
2.080167531967163086e-01 -4.099758565425872803e-01 -7.104343920946121216e-02
1.991914510726928711e-01 -4.886320829391479492e-01 1.149714440107345581e-01
1.443866938352584839e-01 -5.358735918998718262e-01 -6.027764081954956055e-02
2.252954691648483276e-01 -4.245492219924926758e-01 9.897184371948242188e-02
2.297805398702621460e-01 -3.714335560798645020e-01 1.169124320149421692e-01
2.023511677980422974e-01 -3.962727487087249756e-01 1.707600206136703491e-01
1.571042984724044800e-01 -4.095777571201324463e-01 -8.529091626405715942e-02
2.162476480007171631e-01 -4.032201170921325684e-01 -5.131268501281738281e-02
1.415529251098632812e-01 -5.199132561683654785e-01 6.106811389327049255e-02
2.234301567077636719e-01 -4.005168378353118896e-01 1.288150548934936523e-01
1.889904290437698364e-01 -2.699096202850341797e-01 1.213698461651802063e-01
1.627061516046524048e-01 -5.609503984451293945e-01 3.854621201753616333e-02
1.790071129798889160e-01 -5.517157912254333496e-01 -4.644300043582916260e-02
2.321954667568206787e-01 -3.997894525527954102e-01 4.233396425843238831e-02
1.902773529291152954e-01 -2.607847452163696289e-01 5.341093987226486206e-02
2.232084721326828003e-01 -3.164343535900115967e-01 -8.837282657623291016e-04
1.427918374538421631e-01 -3.665653765201568604e-01 8.418055251240730286e-03
1.623885631561279297e-01 -5.287421345710754395e-01 9.181787073612213135e-02
2.347888946533203125e-01 -3.568257987499237061e-01 7.381734997034072876e-02
2.315036654472351074e-01 -3.339070379734039307e-01 1.129693984985351562e-01
1.368328183889389038e-01 -4.596763551235198975e-01 -5.518683791160583496e-02
1.351695954799652100e-01 -4.520487189292907715e-01 6.978015601634979248e-02
1.568583697080612183e-01 -4.375308156013488770e-01 -9.531472623348236084e-02
1.739550977945327759e-01 -5.380688309669494629e-01 8.172906935214996338e-02
1.370448172092437744e-01 -5.128335356712341309e-01 4.884693026542663574e-02
1.902078092098236084e-01 -5.266855955123901367e-01 7.966713607311248779e-02
1.936377733945846558e-01 -5.369171500205993652e-01 -2.376034110784530640e-02
1.381600648164749146e-01 -4.770596027374267578e-01 7.874254137277603149e-02
2.246519178152084351e-01 -2.869162261486053467e-01 4.143618792295455933e-02
2.115563750267028809e-01 -4.953421354293823242e-01 5.530622601509094238e-02
1.903821676969528198e-01 -4.705792665481567383e-01 -9.341797232627868652e-02
2.177460342645645142e-01 -3.118855357170104980e-01 -1.263620331883430481e-02
1.820424497127532959e-01 -4.322575330734252930e-01 1.651376336812973022e-01
1.361257433891296387e-01 -5.082759857177734375e-01 -4.952828586101531982e-02
1.941837817430496216e-01 -5.006670951843261719e-01 1.099068000912666321e-01
1.523447930812835693e-01 -5.096541643142700195e-01 -8.989338576793670654e-02
1.799814403057098389e-01 -5.479945540428161621e-01 5.719322711229324341e-02
1.747598201036453247e-01 -2.798899412155151367e-01 9.404108673334121704e-02
1.461781710386276245e-01 -3.496681451797485352e-01 5.673597007989883423e-02
1.657663434743881226e-01 -5.690945386886596680e-01 -1.065381616353988647e-02
2.155585289001464844e-01 -4.132240414619445801e-01 1.440573930740356445e-01
2.116451859474182129e-01 -4.344626665115356445e-01 1.390445828437805176e-01
2.214694917201995850e-01 -4.366527199745178223e-01 -2.171231061220169067e-02
2.132735997438430786e-01 -4.771623909473419189e-01 8.690981566905975342e-02
2.035129517316818237e-01 -5.016708970069885254e-01 8.552449941635131836e-02
1.693000346422195435e-01 -2.935455441474914551e-01 1.031993031501770020e-01
2.244313657283782959e-01 -4.384587109088897705e-01 -1.772604882717132568e-04
1.321228444576263428e-01 -4.540672004222869873e-01 -2.392157539725303650e-02
2.032889425754547119e-01 -3.230299651622772217e-01 1.721225827932357788e-01
1.492448151111602783e-01 -3.420902192592620850e-01 1.272193528711795807e-02
2.276759445667266846e-01 -3.034651279449462891e-01 3.165106102824211121e-02
1.582864373922348022e-01 -4.023008048534393311e-01 1.463192999362945557e-01
2.079458832740783691e-01 -3.613657355308532715e-01 -6.054594367742538452e-02
2.284888625144958496e-01 -4.260975420475006104e-01 6.556149572134017944e-02
1.724860221147537231e-01 -5.011888742446899414e-01 -9.943249821662902832e-02
2.236098796129226685e-01 -4.515375792980194092e-01 1.502705737948417664e-02
2.058394104242324829e-01 -4.684896469116210938e-01 -6.356365233659744263e-02
2.091822773218154907e-01 -4.826871454715728760e-01 -4.140833020210266113e-02
1.927129477262496948e-01 -2.718613743782043457e-01 1.312236487865447998e-01
2.000888884067535400e-01 -5.214025378227233887e-01 -2.664121985435485840e-02
2.253169119358062744e-01 -3.450261354446411133e-01 -1.125608757138252258e-02
1.731355339288711548e-01 -5.620380640029907227e-01 -3.356767445802688599e-02
1.585033386945724487e-01 -3.878623843193054199e-01 1.453475654125213623e-01
1.542801707983016968e-01 -3.426966369152069092e-01 -1.965992525219917297e-02
1.399573087692260742e-01 -5.267556905746459961e-01 4.626014456152915955e-02
1.397907733917236328e-01 -5.099622011184692383e-01 6.419622153043746948e-02
1.308637410402297974e-01 -4.962796568870544434e-01 -6.076842546463012695e-03
1.895925402641296387e-01 -3.877834975719451904e-01 -8.889988064765930176e-02
2.342138588428497314e-01 -3.767351508140563965e-01 5.976822599768638611e-02
2.281194478273391724e-01 -3.993649184703826904e-01 1.082046851515769958e-01
1.666392683982849121e-01 -2.927532792091369629e-01 7.995192706584930420e-02
1.317530125379562378e-01 -4.417055845260620117e-01 -8.484411984682083130e-03
1.346578747034072876e-01 -5.148546695709228516e-01 -3.569431602954864502e-02
2.056767940521240234e-01 -5.143486261367797852e-01 -9.694695472717285156e-04
1.462738811969757080e-01 -4.825493097305297852e-01 -8.536262810230255127e-02
1.441460996866226196e-01 -3.670958280563354492e-01 7.769168168306350708e-02
1.583977937698364258e-01 -3.399071097373962402e-01 1.232725083827972412e-01
1.904037594795227051e-01 -4.234634637832641602e-01 1.680396199226379395e-01
1.583380699157714844e-01 -5.671048164367675781e-01 -2.819381654262542725e-02
2.216461598873138428e-01 -3.427951335906982422e-01 -2.261013910174369812e-02
2.142125666141510010e-01 -2.687961459159851074e-01 3.801377862691879272e-02
1.327161788940429688e-01 -4.437250196933746338e-01 5.007041990756988525e-02
1.456733942031860352e-01 -5.491892099380493164e-01 -4.618357121944427490e-02
2.285754978656768799e-01 -4.286679625511169434e-01 4.708800464868545532e-02
1.368657499551773071e-01 -4.036410152912139893e-01 -1.151159033179283142e-02
1.460988372564315796e-01 -4.400506615638732910e-01 1.154320016503334045e-01
1.565683037042617798e-01 -3.518414199352264404e-01 -3.989709913730621338e-02
2.149557173252105713e-01 -4.539051651954650879e-01 -4.089030623435974121e-02
2.187830805778503418e-01 -3.640123009681701660e-01 -3.889692574739456177e-02
2.258661538362503052e-01 -3.030460476875305176e-01 1.276222169399261475e-01
1.313132047653198242e-01 -4.743827283382415771e-01 3.608705475926399231e-02
2.305266261100769043e-01 -4.151881933212280273e-01 4.527994990348815918e-02
2.287970930337905884e-01 -2.982116043567657471e-01 1.063925549387931824e-01
1.914469301700592041e-01 -3.236814439296722412e-01 1.719133257865905762e-01
2.101648002862930298e-01 -4.961487054824829102e-01 -1.601363345980644226e-02
1.788890212774276733e-01 -2.713048756122589111e-01 5.630427598953247070e-02
2.117931842803955078e-01 -3.358318507671356201e-01 -4.170532524585723877e-02
1.300920695066452026e-01 -4.680419862270355225e-01 1.470671780407428741e-02
1.754780113697052002e-01 -4.699543714523315430e-01 -1.053770035505294800e-01
1.618922054767608643e-01 -4.928403496742248535e-01 1.231358274817466736e-01
1.436601281166076660e-01 -5.122572183609008789e-01 7.547467947006225586e-02
2.224062681198120117e-01 -3.612218499183654785e-01 1.476997733116149902e-01
1.369557827711105347e-01 -3.922922909259796143e-01 1.768350601196289062e-02
1.305648535490036011e-01 -4.514226913452148438e-01 1.876932010054588318e-02
1.960600912570953369e-01 -3.732188940048217773e-01 -7.918098568916320801e-02
2.282779961824417114e-01 -3.389749526977539062e-01 4.209037870168685913e-03
-3.358253240585327148e-01 3.363738656044006348e-01 -2.215930670499801636e-01
-2.536023557186126709e-01 2.075695097446441650e-01 1.243271678686141968e-01
-3.804632425308227539e-01 3.332964777946472168e-01 2.184743732213973999e-01
-2.447547763586044312e-01 1.897113770246505737e-01 8.024086803197860718e-02
-4.392002224922180176e-01 3.495476245880126953e-01 -1.085741147398948669e-01
-2.427980899810791016e-01 1.676085293292999268e-01 -9.823010116815567017e-02
-3.683494627475738525e-01 1.312440037727355957e-01 -9.077824652194976807e-02
-4.083946943283081055e-01 2.244452387094497681e-01 7.058400660753250122e-02
-3.260392844676971436e-01 1.705593168735504150e-01 -3.858240246772766113e-01
-2.524601221084594727e-01 1.757463961839675903e-01 2.797911465167999268e-01
-2.753532230854034424e-01 2.307876944541931152e-02 2.537532448768615723e-01
-3.934676051139831543e-01 1.788040548563003540e-01 -8.593580126762390137e-02
-2.166408300399780273e-01 9.407316148281097412e-02 5.965340510010719299e-02
-3.461408019065856934e-01 3.530410528182983398e-01 6.058685481548309326e-02
-2.750450968742370605e-01 1.370321959257125854e-01 -3.086729645729064941e-01
-4.199336767196655273e-01 3.121393024921417236e-01 1.233909875154495239e-01
-2.736641764640808105e-01 6.587266921997070312e-02 3.835346400737762451e-01
-3.896277546882629395e-01 1.692738533020019531e-01 -4.027738049626350403e-02
-3.933889269828796387e-01 2.832231521606445312e-01 -3.975332677364349365e-01
-2.866911292076110840e-01 2.619519829750061035e-01 1.798738241195678711e-01
-2.569219768047332764e-01 2.010007202625274658e-01 -1.335793882608413696e-01
-2.739747166633605957e-01 1.138737425208091736e-01 4.191871583461761475e-01
-2.281987071037292480e-01 6.738513708114624023e-03 2.138180583715438843e-01
-3.200797438621520996e-01 3.257380127906799316e-01 -1.213532537221908569e-01
-4.150720238685607910e-01 2.760011851787567139e-01 1.358799636363983154e-01
-3.562682271003723145e-01 2.845185399055480957e-01 -4.151800870895385742e-01
-3.519718050956726074e-01 1.638758480548858643e-01 -3.403982818126678467e-01
-2.417499721050262451e-01 8.541540056467056274e-02 -1.807784587144851685e-01
-2.336614578962326050e-01 1.235067844390869141e-03 1.941767185926437378e-01
-2.460446208715438843e-01 1.795542240142822266e-01 2.050816118717193604e-01
-3.502777218818664551e-01 3.461648523807525635e-01 1.320908516645431519e-01
-2.642136812210083008e-01 1.912887394428253174e-02 -6.931518763303756714e-02
-3.856908679008483887e-01 3.781141042709350586e-01 -2.717771530151367188e-01
-3.956065475940704346e-01 2.235394716262817383e-01 1.968021392822265625e-01
-2.307462543249130249e-01 -7.357299327850341797e-04 1.310089528560638428e-01
-3.902346193790435791e-01 2.048863619565963745e-01 -2.828054726123809814e-01
-3.058987557888031006e-01 2.992841005325317383e-01 -1.646521836519241333e-01
-3.644210696220397949e-01 3.715650141239166260e-01 -2.055618762969970703e-01
-2.673209905624389648e-01 1.744294166564941406e-01 -2.672366201877593994e-01
-3.019684255123138428e-01 2.748878896236419678e-01 -2.509022653102874756e-01
-2.128443121910095215e-01 3.200282156467437744e-02 1.419389545917510986e-01
-3.237101137638092041e-01 7.272551953792572021e-02 -1.278260946273803711e-01
-2.553149461746215820e-01 2.063309103250503540e-01 1.677318662405014038e-01
-2.586371898651123047e-01 1.263078302145004272e-01 3.922661840915679932e-01
-3.584261536598205566e-01 1.137224286794662476e-01 -7.494112849235534668e-02
-3.786659836769104004e-01 1.577039361000061035e-01 1.272575855255126953e-01
-3.651587963104248047e-01 3.261851668357849121e-01 2.352596968412399292e-01
-4.016820788383483887e-01 3.793125748634338379e-01 6.793892383575439453e-02
-3.043183684349060059e-01 2.928719222545623779e-01 -1.890694350004196167e-01
-3.780267238616943359e-01 1.918430328369140625e-01 -3.125024437904357910e-01
-3.470383584499359131e-01 3.591804504394531250e-01 -1.396568119525909424e-01
-3.601683676242828369e-01 1.249956786632537842e-01 1.613972634077072144e-01
-3.112963438034057617e-01 2.503000795841217041e-01 -3.530662953853607178e-01
-3.475983738899230957e-01 1.308560669422149658e-01 2.847211062908172607e-01
-2.962149083614349365e-01 2.622681260108947754e-01 2.458989620208740234e-01
-4.011240601539611816e-01 2.120035588741302490e-01 1.136415004730224609e-01
-2.822351157665252686e-01 5.248220264911651611e-02 -1.846324354410171509e-01
-4.171069264411926270e-01 2.615189552307128906e-01 -2.528577446937561035e-01
-3.730554580688476562e-01 1.810243725776672363e-01 2.575663030147552490e-01
-2.502565681934356689e-01 6.154927611351013184e-02 -1.846761852502822876e-01
-2.903336584568023682e-01 2.813071608543395996e-01 -7.140457630157470703e-02
-2.283228784799575806e-01 6.254322826862335205e-02 3.187052011489868164e-01
-3.523197174072265625e-01 2.321830987930297852e-01 3.636135458946228027e-01
-3.547517061233520508e-01 1.476894915103912354e-01 -2.894470095634460449e-01
-4.131066799163818359e-01 2.255299836397171021e-01 -6.224299594759941101e-02
-2.721915841102600098e-01 2.502095997333526611e-01 3.386143129318952560e-03
-2.157584428787231445e-01 9.157253056764602661e-02 8.345021307468414307e-02
-2.373470067977905273e-01 1.380172520875930786e-01 -1.227905079722404480e-01
-4.354065954685211182e-01 3.101826310157775879e-01 -6.222516298294067383e-02
-2.283620834350585938e-01 1.318057477474212646e-01 2.017721980810165405e-01
-2.359681427478790283e-01 1.323913037776947021e-01 2.811657488346099854e-01
-2.814452350139617920e-01 2.303386628627777100e-01 -2.478388547897338867e-01
-2.441881299018859863e-01 1.847893297672271729e-01 1.362804621458053589e-01
-3.185677528381347656e-01 3.162707686424255371e-01 1.148246377706527710e-01
-2.307493686676025391e-01 1.292373389005661011e-01 -7.353296130895614624e-02
-3.421173989772796631e-01 2.957620024681091309e-01 2.871376872062683105e-01
-2.617625892162322998e-01 1.113575696945190430e-02 2.367231994867324829e-01
-3.329472243785858154e-01 7.185620069503784180e-02 3.693822771310806274e-02
-3.235481977462768555e-01 3.130037486553192139e-01 1.713740080595016479e-01
-2.377594709396362305e-01 1.535642147064208984e-02 -3.758626431226730347e-02
-3.054904043674468994e-01 4.000157117843627930e-02 -1.627963152714073658e-03
-3.915919363498687744e-01 1.758314520120620728e-01 3.356236219406127930e-02
-3.854035437107086182e-01 3.262147903442382812e-01 -3.945891857147216797e-01
-3.107423186302185059e-01 2.525017261505126953e-01 3.281115293502807617e-01
-2.163709104061126709e-01 8.773065358400344849e-02 1.788697540760040283e-01
-2.146685123443603516e-01 4.730562865734100342e-02 2.148521542549133301e-01
-2.959883511066436768e-01 6.026197969913482666e-02 3.227164745330810547e-01
-2.669606208801269531e-01 2.104633003473281860e-01 2.625528872013092041e-01
-2.932961285114288330e-01 8.972606062889099121e-02 -2.747541666030883789e-01
-3.725744485855102539e-01 3.015228211879730225e-01 -4.136007428169250488e-01
-2.853789925575256348e-01 2.675141990184783936e-01 1.251064836978912354e-01
-3.445705771446228027e-01 1.113176122307777405e-01 2.394599169492721558e-01
-2.961186170578002930e-01 1.030360236763954163e-01 4.040247499942779541e-01
-3.789871335029602051e-01 1.755821406841278076e-01 2.020419090986251831e-01
-2.875735461711883545e-01 2.125162780284881592e-01 3.514115214347839355e-01
-4.129070639610290527e-01 2.259727716445922852e-01 -1.045361831784248352e-01
-3.825758099555969238e-01 2.428325712680816650e-01 -3.902598321437835693e-01
-2.936724424362182617e-01 2.823683023452758789e-01 -1.288178861141204834e-01
-2.368482500314712524e-01 1.848965883255004883e-03 4.355771839618682861e-02
-4.208315312862396240e-01 2.733266949653625488e-01 7.782449573278427124e-02
-3.479592204093933105e-01 1.942998468875885010e-01 3.705062270164489746e-01
-3.858414292335510254e-01 3.665956854820251465e-01 1.212668269872665405e-01
-4.278898835182189941e-01 3.538067936897277832e-01 -2.848017215728759766e-01
-3.829085826873779297e-01 1.651330888271331787e-01 -1.639367640018463135e-01
-3.812980055809020996e-01 3.115696310997009277e-01 2.561419904232025146e-01
-3.211393356323242188e-01 2.996739745140075684e-01 2.199968993663787842e-01
-3.581459820270538330e-01 1.851044893264770508e-01 3.335858583450317383e-01
-3.923000097274780273e-01 2.520339787006378174e-01 -3.733355998992919922e-01
-3.280045688152313232e-01 3.289336860179901123e-01 -1.990223377943038940e-01
-3.042524755001068115e-01 2.995484173297882080e-01 9.510878473520278931e-02
-3.693062067031860352e-01 3.816284537315368652e-01 -5.815856531262397766e-02
-3.864480853080749512e-01 1.879848390817642212e-01 -2.488716691732406616e-01
-2.197522670030593872e-01 7.647660374641418457e-02 2.533608675003051758e-01
-3.850072920322418213e-01 1.995220482349395752e-01 2.209852039813995361e-01
-4.221222400665283203e-01 3.736656010150909424e-01 -2.807080149650573730e-01
-3.251101672649383545e-01 6.708058714866638184e-02 1.621732413768768311e-01
-3.665874302387237549e-01 1.949711441993713379e-01 3.116595149040222168e-01
-3.885792791843414307e-01 2.581092715263366699e-01 2.681888639926910400e-01
-2.760979533195495605e-01 1.362984180450439453e-01 4.174242317676544189e-01
-2.346022725105285645e-01 1.545126885175704956e-01 1.797906458377838135e-01
-4.257378280162811279e-01 2.893098592758178711e-01 -2.466735988855361938e-01
-4.049576222896575928e-01 2.046301364898681641e-01 -7.726266980171203613e-02
-3.934864997863769531e-01 2.440528422594070435e-01 2.383043318986892700e-01
-3.180637955665588379e-01 9.803255647420883179e-02 3.407371044158935547e-01
-4.051249623298645020e-01 3.983048498630523682e-01 -6.308415532112121582e-02
-4.080457985401153564e-01 2.162978798151016235e-01 2.333237417042255402e-02
-3.017882406711578369e-01 1.406902074813842773e-01 -3.519110977649688721e-01
-3.476862013339996338e-01 9.955131262540817261e-02 1.392037868499755859e-01
-3.020094633102416992e-01 1.969293653964996338e-01 4.016205966472625732e-01
-4.092462658882141113e-01 3.194380402565002441e-01 1.753789037466049194e-01
-3.978329598903656006e-01 1.875500380992889404e-01 -6.289988756179809570e-02
-3.901735544204711914e-01 3.456544876098632812e-01 1.831310391426086426e-01
-3.796741664409637451e-01 1.490025371313095093e-01 -2.648995071649551392e-02
-2.970276772975921631e-01 2.796247005462646484e-01 1.677845120429992676e-01
-2.538374662399291992e-01 2.106931507587432861e-01 8.624585717916488647e-02
-3.921179473400115967e-01 3.515446484088897705e-01 -3.601314127445220947e-01
-4.206214547157287598e-01 2.544533610343933105e-01 1.251667737960815430e-02
-3.042015433311462402e-01 3.051608502864837646e-01 3.275242401286959648e-03
-2.728381156921386719e-01 2.368535101413726807e-01 1.906517744064331055e-01
-3.443494737148284912e-01 8.987949043512344360e-02 8.664718270301818848e-02
-2.405204176902770996e-01 3.170722723007202148e-02 3.245329856872558594e-01
-3.747999370098114014e-01 3.822003304958343506e-01 -1.902860403060913086e-01
-2.173969447612762451e-01 9.405593574047088623e-02 3.582293540239334106e-02
-3.398544490337371826e-01 2.648400664329528809e-01 -4.085365831851959229e-01
-3.013326823711395264e-01 4.499647021293640137e-02 -9.113186597824096680e-02
-4.270801842212677002e-01 3.056361079216003418e-01 -2.688065469264984131e-01
-4.180720150470733643e-01 2.413547784090042114e-01 -2.714844420552253723e-02
-2.483099400997161865e-01 1.425814628601074219e-02 2.783332765102386475e-01
-3.794242143630981445e-01 1.499617099761962891e-01 -7.318770885467529297e-02
-2.602681517601013184e-01 2.020946443080902100e-01 2.444934844970703125e-01
-2.360385656356811523e-01 1.514228582382202148e-01 -7.097874581813812256e-02
-2.148710340261459351e-01 4.243123531341552734e-02 3.575250506401062012e-02
-2.714318931102752686e-01 2.430304884910583496e-01 1.273071169853210449e-01
-2.628679573535919189e-01 2.242653220891952515e-01 -8.759517222642898560e-02
-3.366410732269287109e-01 2.697018682956695557e-01 3.337067067623138428e-01
-2.649991214275360107e-01 2.338296025991439819e-01 -3.886877372860908508e-02
-2.368295192718505859e-01 1.686259955167770386e-01 3.855633363127708435e-02
-3.327936530113220215e-01 3.276341557502746582e-01 1.456985175609588623e-01
-3.037056028842926025e-01 2.178130149841308594e-01 3.780596554279327393e-01
-2.575962841510772705e-01 1.416757702827453613e-02 -4.964009672403335571e-02
-3.518263995647430420e-01 9.994034469127655029e-02 2.960493229329586029e-02
-3.617006540298461914e-01 1.452752798795700073e-01 -2.464129179716110229e-01
-2.275053858757019043e-01 8.511414378881454468e-02 3.041220605373382568e-01
-3.206350207328796387e-01 2.072820663452148438e-01 4.012544751167297363e-01
-3.331809341907501221e-01 8.780701458454132080e-02 2.212778329849243164e-01
-2.654750347137451172e-01 5.523398518562316895e-03 1.585047543048858643e-01
-2.516886889934539795e-01 1.327074319124221802e-01 -2.248096317052841187e-01
-2.289803326129913330e-01 1.438250541687011719e-01 1.289674937725067139e-01
-2.204599827527999878e-01 1.804633438587188721e-02 4.233131185173988342e-02
-3.960593938827514648e-01 1.902829110622406006e-01 -1.548115760087966919e-01
-3.327777683734893799e-01 7.601276040077209473e-02 -6.313399970531463623e-02
-2.809610068798065186e-01 4.473525285720825195e-02 3.235156536102294922e-01
-3.479278683662414551e-01 1.763323247432708740e-01 -3.724453747272491455e-01
-3.630808591842651367e-01 2.002092450857162476e-01 -3.795463740825653076e-01
-3.571933805942535400e-01 3.486276865005493164e-01 -2.922458648681640625e-01
-3.984105288982391357e-01 2.172456830739974976e-01 1.595355719327926636e-01
-3.107511699199676514e-01 6.216089427471160889e-02 -1.441564559936523438e-01
-2.644179463386535645e-01 1.794009953737258911e-01 3.366313874721527100e-01
-2.481007128953933716e-01 1.903690695762634277e-01 -6.393416225910186768e-02
-3.419277966022491455e-01 8.625870198011398315e-02 -3.160869330167770386e-02
-2.365024983882904053e-01 1.436199396848678589e-01 -1.014215648174285889e-01
-2.813776433467864990e-01 1.804410517215728760e-01 3.885517418384552002e-01
-3.979996144771575928e-01 2.488482892513275146e-01 2.185385376214981079e-01
-2.646802961826324463e-01 2.249307334423065186e-01 -1.119701042771339417e-01
-2.425302714109420776e-01 9.587284922599792480e-02 3.654236197471618652e-01
-3.115524649620056152e-01 4.695509374141693115e-02 1.349081546068191528e-01
-2.572328150272369385e-01 5.076155066490173340e-03 1.581219956278800964e-02
-3.756455779075622559e-01 1.562552303075790405e-01 1.567005366086959839e-01
-2.445045709609985352e-01 3.735414147377014160e-02 -1.233846247196197510e-01
-2.497037053108215332e-01 4.884055256843566895e-02 -1.604903489351272583e-01
-2.692418396472930908e-01 1.487974971532821655e-01 3.978509008884429932e-01
-3.659188449382781982e-01 1.238712072372436523e-01 3.072818554937839508e-02
-3.278355896472930908e-01 1.798386126756668091e-01 4.037847816944122314e-01
-2.613893151283264160e-01 2.282500863075256348e-01 1.408730074763298035e-02
-4.058915376663208008e-01 2.401316910982131958e-01 -2.825382351875305176e-01
-3.967771828174591064e-01 1.951858699321746826e-01 -1.793312579393386841e-01
-3.048363029956817627e-01 1.748118251562118530e-01 4.187467396259307861e-01
-3.721381127834320068e-01 3.743289113044738770e-01 5.303709208965301514e-02
-3.126910626888275146e-01 5.260747671127319336e-02 -6.406236439943313599e-02
-3.750386536121368408e-01 1.596050560474395752e-01 1.785739362239837646e-01
-2.365566492080688477e-01 1.118565350770950317e-01 -1.506612598896026611e-01
-3.751974701881408691e-01 2.114010304212570190e-01 2.930428087711334229e-01
-3.962354063987731934e-01 3.163437843322753906e-01 2.207956016063690186e-01
-2.705835103988647461e-01 5.969192087650299072e-02 -2.091029286384582520e-01
-2.843119204044342041e-01 2.717080712318420410e-01 4.765486344695091248e-02
-2.688724696636199951e-01 2.134515494108200073e-01 -2.034672051668167114e-01
-4.113656878471374512e-01 3.350499868392944336e-01 1.522733718156814575e-01
-2.796385884284973145e-01 8.238080888986587524e-02 -2.602259516716003418e-01
-2.475527822971343994e-01 1.480648517608642578e-01 -1.864534467458724976e-01
-2.152761369943618774e-01 8.969981968402862549e-02 1.076407879590988159e-01
-3.686448633670806885e-01 3.816263079643249512e-01 -8.710770308971405029e-02
-3.995461761951446533e-01 3.956696987152099609e-01 -1.961716264486312866e-01
-4.362854659557342529e-01 3.591074347496032715e-01 -2.072932273149490356e-01
-4.224086701869964600e-01 2.548202276229858398e-01 -1.260951608419418335e-01
-4.300239682197570801e-01 2.812910079956054688e-01 -1.182456612586975098e-01
-3.021556138992309570e-01 2.122682332992553711e-01 -3.640064895153045654e-01
-3.128174245357513428e-01 4.647830128669738770e-02 3.445531427860260010e-02
-3.284077942371368408e-01 2.775260508060455322e-01 3.080818951129913330e-01
-3.075695335865020752e-01 2.851234078407287598e-01 2.138135284185409546e-01
-2.991409301757812500e-01 3.240792453289031982e-02 2.246611192822456360e-02
-3.688802123069763184e-01 1.686399728059768677e-01 -2.896903455257415771e-01
-3.976853787899017334e-01 2.139600515365600586e-01 -2.600612640380859375e-01
-2.607799768447875977e-01 2.054739445447921753e-01 -1.573912799358367920e-01
-2.469025552272796631e-01 1.731551736593246460e-01 2.436550557613372803e-01
-2.675885558128356934e-01 7.793620228767395020e-03 3.382286429405212402e-02
-3.217552006244659424e-01 1.885794848203659058e-01 -3.980468213558197021e-01
-3.170988261699676514e-01 8.894065767526626587e-02 3.218189477920532227e-01
-4.170007407665252686e-01 3.385068774223327637e-01 -3.405062258243560791e-01
-2.159351110458374023e-01 5.480901896953582764e-02 9.591172449290752411e-03
-3.121599853038787842e-01 1.063825637102127075e-01 -2.941227257251739502e-01
-2.484434694051742554e-01 1.975371241569519043e-01 -4.287930671125650406e-03
-4.173001646995544434e-01 2.692258656024932861e-01 -2.734588086605072021e-01
-2.847547531127929688e-01 2.403685897588729858e-01 2.645515799522399902e-01
-3.216099441051483154e-01 3.292125463485717773e-01 1.139394287019968033e-02
-4.047983884811401367e-01 2.749781012535095215e-01 2.009852081537246704e-01
-4.026115238666534424e-01 3.797419071197509766e-01 -2.917694449424743652e-01
-2.975436151027679443e-01 4.014974832534790039e-02 2.265833020210266113e-01
-4.332503378391265869e-01 3.251572847366333008e-01 1.002634223550558090e-02
-3.094713687896728516e-01 4.688383638858795166e-02 -3.952155262231826782e-02
-2.801341116428375244e-01 2.189604938030242920e-02 2.200397551059722900e-01
-4.345055520534515381e-01 3.100362420082092285e-01 -3.623304143548011780e-02
-3.269870281219482422e-01 3.370559215545654297e-01 -1.503494754433631897e-02
-3.764640390872955322e-01 2.627056241035461426e-01 -4.166494905948638916e-01
-4.281042516231536865e-01 3.745570480823516846e-01 -2.507959306240081787e-01
-2.956126332283020020e-01 2.907050549983978271e-01 3.893756121397018433e-02
-2.437335252761840820e-01 1.874468922615051270e-01 4.388436675071716309e-02
-2.118955701589584351e-01 5.183987319469451904e-02 9.405348449945449829e-02
-3.468774259090423584e-01 9.528157860040664673e-02 -6.256271898746490479e-02
-2.176735401153564453e-01 8.048165589570999146e-02 2.227771133184432983e-01
-3.625699877738952637e-01 1.267483383417129517e-01 -1.393871456384658813e-01
-4.275979399681091309e-01 3.473718762397766113e-01 5.490607395768165588e-02
-2.872022688388824463e-01 2.774794697761535645e-01 2.243373729288578033e-02
-4.248430132865905762e-01 2.614150643348693848e-01 -9.091664105653762817e-02
-2.529430687427520752e-01 1.607531905174255371e-01 -2.038626074790954590e-01
-3.333696424961090088e-01 7.345993816852569580e-02 -1.036892924457788467e-02
-4.343927800655364990e-01 3.543977737426757812e-01 -1.408582646399736404e-02
-3.200789988040924072e-01 6.934271752834320068e-02 2.291671633720397949e-01
-3.337435722351074219e-01 1.404210031032562256e-01 3.627818524837493896e-01
-3.458378612995147705e-01 3.553220629692077637e-01 3.472304716706275940e-02
-3.382161557674407959e-01 3.466908335685729980e-01 -1.648442447185516357e-01
-4.085051417350769043e-01 2.840269207954406738e-01 -3.514158129692077637e-01
-4.352450072765350342e-01 3.711404800415039062e-01 -6.794860213994979858e-02
-3.293104767799377441e-01 1.505582034587860107e-01 -3.579944372177124023e-01
-3.197762668132781982e-01 2.335175275802612305e-01 3.750641345977783203e-01
-2.237424999475479126e-01 4.818840324878692627e-02 2.914580404758453369e-01
-2.924233973026275635e-01 2.773462235927581787e-01 -1.501888483762741089e-01
-4.188681542873382568e-01 3.740826547145843506e-01 4.670096933841705322e-02
-3.053281307220458984e-01 5.453847348690032959e-02 2.558917701244354248e-01
-3.571936488151550293e-01 2.528679072856903076e-01 -4.259368479251861572e-01
-4.099012613296508789e-01 2.592750191688537598e-01 -3.038943409919738770e-01
-3.752043545246124268e-01 3.835166096687316895e-01 -1.550972275435924530e-02
-3.865470588207244873e-01 3.938116729259490967e-01 -1.134588941931724548e-01
-4.299148619174957275e-01 2.971661686897277832e-01 1.482591964304447174e-02
-3.920501470565795898e-01 1.943264752626419067e-01 -2.284250408411026001e-01
-2.201276123523712158e-01 6.221614778041839600e-02 2.685822844505310059e-01
-2.720884978771209717e-01 2.139653116464614868e-01 -2.261897474527359009e-01
-4.266474246978759766e-01 3.799870610237121582e-01 -1.438310369849205017e-02
-2.391210794448852539e-01 1.704178452491760254e-01 -2.257249876856803894e-02
-4.356918931007385254e-01 3.080748915672302246e-01 -1.040324643254280090e-01
-4.242669343948364258e-01 2.596577405929565430e-01 -6.780410557985305786e-02
-3.071632981300354004e-01 3.973984718322753906e-02 6.376923620700836182e-02
-2.161561399698257446e-01 2.018083631992340088e-02 1.712402850389480591e-01
-4.321976006031036377e-01 3.798546791076660156e-01 -1.983808130025863647e-01
-3.328889012336730957e-01 7.346826791763305664e-02 1.025400385260581970e-01
-3.572020828723907471e-01 2.891009449958801270e-01 3.078166246414184570e-01
-3.875027298927307129e-01 1.970049142837524414e-01 1.963703781366348267e-01
-3.663893938064575195e-01 3.477636277675628662e-01 1.708511561155319214e-01
-3.032131493091583252e-01 2.996768355369567871e-01 -1.211140379309654236e-01
-3.350766897201538086e-01 2.783616185188293457e-01 -3.851094543933868408e-01
-3.040370345115661621e-01 2.940707206726074219e-01 1.381223350763320923e-01
-3.303041458129882812e-01 2.422144412994384766e-01 -4.073276817798614502e-01
-2.795613110065460205e-01 2.549388110637664795e-01 1.485119313001632690e-01
-4.300153553485870361e-01 3.891383707523345947e-01 -1.385830193758010864e-01
-2.597433328628540039e-01 1.493587195873260498e-01 -2.532587349414825439e-01
-3.537249863147735596e-01 1.300554275512695312e-01 -2.313961684703826904e-01
-3.348472118377685547e-01 9.965047985315322876e-02 -2.043756842613220215e-01
-3.411991000175476074e-01 1.633526980876922607e-01 3.669785857200622559e-01
-3.471870720386505127e-01 1.467295885086059570e-01 3.224393427371978760e-01
-2.815954983234405518e-01 1.805198192596435547e-02 1.257055066525936127e-02
-3.862673938274383545e-01 1.670530438423156738e-01 7.013934850692749023e-02
-3.750702738761901855e-01 2.768490910530090332e-01 3.022257983684539795e-01
-3.117457330226898193e-01 3.126287758350372314e-01 6.607542932033538818e-02
-2.365417480468750000e-01 7.351513206958770752e-02 -1.505312770605087280e-01
-4.090366661548614502e-01 3.882202506065368652e-01 1.643236353993415833e-02
-2.212578356266021729e-01 1.021210551261901855e-01 -1.465217582881450653e-02
-2.199366837739944458e-01 1.030805706977844238e-02 1.103979870676994324e-01
-2.640747427940368652e-01 2.334773242473602295e-01 5.927247181534767151e-02
-2.215776741504669189e-01 1.188167333602905273e-01 7.000663131475448608e-02
-3.166168034076690674e-01 2.351587861776351929e-01 -3.847692310810089111e-01
-2.754971683025360107e-01 2.564143836498260498e-01 3.154852986335754395e-02
-3.686146140098571777e-01 3.794998526573181152e-01 -1.595697849988937378e-01
-3.622165322303771973e-01 1.693870425224304199e-01 2.939077317714691162e-01
-2.768851220607757568e-01 1.849401891231536865e-01 -2.995473742485046387e-01
-3.614581525325775146e-01 1.163297072052955627e-01 -3.086982481181621552e-02
-3.451165556907653809e-01 9.515352547168731689e-02 -9.062927216291427612e-02
-2.573338449001312256e-01 1.785482168197631836e-01 3.029362559318542480e-01
-3.247350156307220459e-01 3.334183990955352783e-01 -1.013125330209732056e-01
-3.953123986721038818e-01 1.818978488445281982e-01 -1.570200920104980469e-02
-3.626549839973449707e-01 1.229377090930938721e-01 1.095618456602096558e-01
-2.429109811782836914e-01 1.583598107099533081e-01 -1.287267804145812988e-01
-2.354986220598220825e-01 8.306229859590530396e-02 3.456242084503173828e-01
-3.850265741348266602e-01 1.836261153221130371e-01 1.763233989477157593e-01
-3.331219553947448730e-01 3.376808762550354004e-01 7.837145030498504639e-02
-4.349640011787414551e-01 3.256930708885192871e-01 -2.154381722211837769e-01
-2.799922823905944824e-01 3.507165610790252686e-02 2.922515273094177246e-01
-2.885693013668060303e-01 2.581979036331176758e-01 2.152163982391357422e-01
-3.228872716426849365e-01 5.905507504940032959e-02 1.367509365081787109e-02
-3.730326592922210693e-01 3.547860980033874512e-01 -3.257672190666198730e-01
-4.050788879394531250e-01 2.045973837375640869e-01 -4.845577850937843323e-02
-4.060625433921813965e-01 3.032999932765960693e-01 1.970256119966506958e-01
-3.591761887073516846e-01 1.140827015042304993e-01 7.873766869306564331e-02
-3.558449149131774902e-01 1.276811659336090088e-01 -2.069024294614791870e-01
-2.860031723976135254e-01 2.601831555366516113e-01 -1.774961799383163452e-01
-3.416120111942291260e-01 3.479597270488739014e-01 -1.927186697721481323e-01
-2.723989486694335938e-01 2.107073813676834106e-01 2.948181629180908203e-01
-2.423893809318542480e-01 1.344074308872222900e-01 3.194556832313537598e-01
-2.894536256790161133e-01 2.222967147827148438e-02 1.122191920876502991e-01
-3.152055144309997559e-01 7.811097800731658936e-02 2.974740266799926758e-01
-4.197052717208862305e-01 2.539032995700836182e-01 -1.874905228614807129e-01
-4.101619720458984375e-01 2.384793907403945923e-01 1.036031395196914673e-01
-2.967709004878997803e-01 2.861928641796112061e-01 1.177420914173126221e-01
-2.470299005508422852e-01 1.912043988704681396e-01 -3.533095493912696838e-02
-2.920655608177185059e-01 3.811323642730712891e-02 2.504582405090332031e-01
-2.888226211071014404e-01 2.415942996740341187e-01 -2.656603753566741943e-01
-3.672332167625427246e-01 1.889944970607757568e-01 -3.483089506626129150e-01
-3.589713275432586670e-01 1.391964554786682129e-01 2.369547486305236816e-01
-4.380055665969848633e-01 3.265626430511474609e-01 -9.080901741981506348e-02
-3.178102374076843262e-01 1.373973488807678223e-01 3.999851942062377930e-01
-2.559549212455749512e-01 2.044964283704757690e-01 -1.048504263162612915e-01
-2.139581888914108276e-01 3.678870201110839844e-02 6.194166839122772217e-02
-2.564625144004821777e-01 2.025087177753448486e-01 2.061312943696975708e-01
-3.343448936939239502e-01 3.466838896274566650e-01 -7.092269510030746460e-02
-2.193058729171752930e-01 3.501461446285247803e-02 2.508258223533630371e-01
-3.959742784500122070e-01 2.261301130056381226e-01 -3.088320791721343994e-01
-3.373619616031646729e-01 1.092364341020584106e-01 2.797257900238037109e-01
-2.803245186805725098e-01 4.391145706176757812e-02 -1.565793901681900024e-01
-2.391846776008605957e-01 1.169262751936912537e-01 3.313581049442291260e-01
-2.430101931095123291e-01 2.292332053184509277e-02 -7.821314036846160889e-02
-3.753091394901275635e-01 2.123156189918518066e-01 -3.671106696128845215e-01
-4.106227755546569824e-01 2.962422072887420654e-01 1.764655262231826782e-01
-4.245747327804565430e-01 3.175369501113891602e-01 -3.019320368766784668e-01
-4.061716794967651367e-01 2.607104480266571045e-01 1.815212965011596680e-01
-3.928341567516326904e-01 1.905444413423538208e-01 1.207056418061256409e-01
-3.394088745117187500e-01 3.101481199264526367e-01 -3.401559889316558838e-01
-3.589833974838256836e-01 3.560550212860107422e-01 1.141156777739524841e-01
-2.438189983367919922e-01 1.155484244227409363e-01 3.543949723243713379e-01
-3.022797703742980957e-01 2.548170387744903564e-01 -3.080392479896545410e-01
-2.980237603187561035e-01 2.772276401519775391e-01 1.896131336688995361e-01
-2.130833268165588379e-01 5.163635313510894775e-02 1.885811835527420044e-01
-3.566868007183074951e-01 1.079507693648338318e-01 -1.003128197044134140e-02
-4.270528554916381836e-01 2.732395529747009277e-01 -2.682707272469997406e-02
-3.762302398681640625e-01 1.676148474216461182e-01 -2.417798936367034912e-01
-3.518489003181457520e-01 1.356090903282165527e-01 -2.627301812171936035e-01
-2.275587916374206543e-01 1.319677978754043579e-01 -1.612484455108642578e-02
-3.205081224441528320e-01 3.289345502853393555e-01 -5.650534108281135559e-02
-3.514188230037689209e-01 3.326229453086853027e-01 -3.239186108112335205e-01
-3.840250670909881592e-01 1.748739480972290039e-01 1.517764478921890259e-01
-3.375295400619506836e-01 8.616238087415695190e-02 1.663761734962463379e-01
-3.177270293235778809e-01 3.164668977260589600e-01 -1.787741482257843018e-01
-4.103630185127258301e-01 2.242092490196228027e-01 -1.601200550794601440e-01
-2.549838423728942871e-01 1.839089542627334595e-01 -1.716507375240325928e-01
-4.242401719093322754e-01 3.011558055877685547e-01 8.619941771030426025e-02
-3.134241402149200439e-01 1.557770073413848877e-01 4.163820445537567139e-01
-2.443570941686630249e-01 8.767530322074890137e-03 2.549440860748291016e-01
-2.498977184295654297e-01 8.521779626607894897e-02 3.870483636856079102e-01
-3.786252737045288086e-01 1.648925989866256714e-01 -2.096050977706909180e-01
-2.851057946681976318e-01 2.221244871616363525e-01 -2.869717478752136230e-01
-3.560684919357299805e-01 1.074037924408912659e-01 5.186057090759277344e-02
-3.582953512668609619e-01 2.560050487518310547e-01 3.432837426662445068e-01
-2.222246378660202026e-01 1.179403513669967651e-01 3.147294372320175171e-02
-2.894010543823242188e-01 2.028395235538482666e-01 -3.312142491340637207e-01
-3.584747612476348877e-01 3.618333935737609863e-01 7.565642148256301880e-02
-4.341418743133544922e-01 3.149405121803283691e-01 -1.601787470281124115e-02
-3.727011382579803467e-01 2.249623537063598633e-01 3.131056129932403564e-01
-2.822361588478088379e-01 1.595678925514221191e-02 6.867001950740814209e-02
-2.480435967445373535e-01 1.979182511568069458e-01 2.663433924317359924e-02
-3.853064477443695068e-01 2.109584361314773560e-01 2.411915212869644165e-01
-3.194760680198669434e-01 3.251782059669494629e-01 3.467626869678497314e-02
-3.328517377376556396e-01 2.483057230710983276e-01 3.632486164569854736e-01
-2.741466164588928223e-01 2.357211112976074219e-01 -1.706881225109100342e-01
-4.125968813896179199e-01 2.416524440050125122e-01 -2.266478985548019409e-01
-4.088114202022552490e-01 2.369505465030670166e-01 -2.475925981998443604e-01
-3.741448521614074707e-01 1.739363074302673340e-01 2.337763160467147827e-01
-4.014551043510437012e-01 3.380837440490722656e-01 -3.742506206035614014e-01
-3.259016871452331543e-01 2.935861051082611084e-01 2.589733600616455078e-01
-3.389039039611816406e-01 3.504454195499420166e-01 1.082275179214775562e-03
-2.384953498840332031e-01 1.647037118673324585e-01 -4.793565720319747925e-02
-3.160543739795684814e-01 5.054949223995208740e-02 9.377542883157730103e-02
-4.182412624359130859e-01 2.449945658445358276e-01 -1.555351465940475464e-01
-4.231026172637939453e-01 3.947467803955078125e-01 -8.732890337705612183e-02
-2.566164135932922363e-01 2.136992514133453369e-01 -5.160846561193466187e-02
-3.106260001659393311e-01 4.756292700767517090e-02 1.582203507423400879e-01
-2.758763730525970459e-01 3.076343238353729248e-02 -1.078280434012413025e-01
-4.187529981136322021e-01 2.983486652374267578e-01 -3.173539340496063232e-01
-4.180297255516052246e-01 2.841075658798217773e-01 -3.005000352859497070e-01
-2.267727255821228027e-01 1.376123130321502686e-01 5.345090478658676147e-02
-4.133724570274353027e-01 2.351385205984115601e-01 4.398279264569282532e-02
-4.070372283458709717e-01 3.954365551471710205e-01 -3.094969876110553741e-02
-2.776817083358764648e-01 1.875508874654769897e-01 3.685531020164489746e-01
-3.767969310283660889e-01 1.438252478837966919e-01 1.637253351509571075e-02
-3.870566189289093018e-01 3.549702167510986328e-01 1.607538163661956787e-01
-3.544699549674987793e-01 3.347006440162658691e-01 1.954178661108016968e-01
-2.827630043029785156e-01 2.115127444267272949e-02 -1.466661226004362106e-02
-3.898171186447143555e-01 3.863250017166137695e-01 -2.390352785587310791e-01
-3.083685040473937988e-01 2.746993303298950195e-01 2.586118280887603760e-01
-2.484622001647949219e-01 1.724155694246292114e-01 -1.441534459590911865e-01
-3.052593171596527100e-01 6.644937396049499512e-02 -1.865909397602081299e-01
-2.846817970275878906e-01 2.680236399173736572e-01 -1.068361550569534302e-01
-3.344691991806030273e-01 3.354347348213195801e-01 1.074638366699218750e-01
-4.376982152462005615e-01 3.658019900321960449e-01 -1.598272919654846191e-01
-2.746661901473999023e-01 2.524620592594146729e-01 -6.058852002024650574e-02
-2.216262519359588623e-01 9.563033282756805420e-02 2.382010370492935181e-01
-2.205756753683090210e-01 1.097625494003295898e-01 1.680288016796112061e-01
-2.121926844120025635e-01 4.868075251579284668e-02 1.659933328628540039e-01
-4.196406006813049316e-01 3.478672504425048828e-01 1.004889979958534241e-01
-2.921294867992401123e-01 6.201496720314025879e-02 -2.021075189113616943e-01
-3.183120787143707275e-01 6.149645149707794189e-02 1.946762800216674805e-01
-2.308978736400604248e-01 8.456878364086151123e-02 -1.234183833003044128e-01
-3.947273492813110352e-01 1.946185827255249023e-01 -2.020798027515411377e-01
-2.288431525230407715e-01 1.433227360248565674e-01 3.170032799243927002e-02
-3.727585375308990479e-01 1.912392675876617432e-01 2.781543135643005371e-01
-3.865836262702941895e-01 3.921509087085723877e-01 -4.920374229550361633e-02
-2.859385907649993896e-01 2.746728062629699707e-01 -4.699059948325157166e-02
-3.244130909442901611e-01 7.837930321693420410e-02 -1.571949571371078491e-01
-2.810211479663848877e-01 2.630733251571655273e-01 9.554085880517959595e-02
-2.934103608131408691e-01 2.981640398502349854e-02 1.775819361209869385e-01
-2.732565402984619141e-01 9.193629026412963867e-03 1.200291067361831665e-01
-3.421644568443298340e-01 8.532349765300750732e-02 5.451210960745811462e-02
-2.642443478107452393e-01 2.335286438465118408e-01 -1.444371044635772705e-02
-4.378402531147003174e-01 3.315822780132293701e-01 -1.700164973735809326e-01
-2.972353696823120117e-01 2.727650701999664307e-01 -2.234251797199249268e-01
-3.431722521781921387e-01 1.973218321800231934e-01 -4.037777781486511230e-01
-3.768146038055419922e-01 3.682207763195037842e-01 -2.886431217193603516e-01
-3.578736186027526855e-01 3.111273050308227539e-01 -3.879708945751190186e-01
-3.302910029888153076e-01 8.997347205877304077e-02 2.535523474216461182e-01
-4.179479777812957764e-01 3.557779490947723389e-01 -3.241870701313018799e-01
-3.947773277759552002e-01 3.697735965251922607e-01 -3.192022144794464111e-01
-2.421007752418518066e-01 6.890451908111572266e-02 3.668296039104461670e-01
-3.466204404830932617e-01 3.606274425983428955e-01 -5.184707418084144592e-02
-2.701013982295989990e-01 1.574511975049972534e-01 -2.917346656322479248e-01
-4.388673901557922363e-01 3.379669189453125000e-01 -1.477177143096923828e-01
-3.738557994365692139e-01 1.510313153266906738e-01 -1.785030066967010498e-01
-4.274170696735382080e-01 2.851859331130981445e-01 -2.124914228916168213e-01
-3.645988404750823975e-01 1.620627343654632568e-01 2.654543220996856689e-01
-2.250560522079467773e-01 1.267742514610290527e-01 1.084074098616838455e-02
-2.225902378559112549e-01 6.380039453506469727e-02 -6.054750829935073853e-02
-2.762274742126464844e-01 2.009552866220474243e-01 -2.769582569599151611e-01
-4.135106205940246582e-01 3.999147117137908936e-01 -1.052862703800201416e-01
-4.327583312988281250e-01 3.038486540317535400e-01 -1.941386163234710693e-01
-2.940304875373840332e-01 2.300336658954620361e-01 -3.159341514110565186e-01
-2.731501162052154541e-01 2.514151632785797119e-01 -2.444596774876117706e-02
-2.734062671661376953e-01 2.470074892044067383e-01 -9.208388626575469971e-02
-4.043737649917602539e-01 2.385356724262237549e-01 1.597401052713394165e-01
-2.196013629436492920e-01 5.846709012985229492e-02 -3.224624320864677429e-02
-3.661658167839050293e-01 3.628813624382019043e-01 -2.706828117370605469e-01
-4.344674646854400635e-01 3.564255237579345703e-01 -2.325664162635803223e-01
-3.091233074665069580e-01 2.692097127437591553e-01 2.794800400733947754e-01
-3.253464698791503906e-01 3.198820054531097412e-01 -2.301218211650848389e-01
-3.179766833782196045e-01 3.125249147415161133e-01 -2.075102329254150391e-01
-3.504073619842529297e-01 1.049468591809272766e-01 -1.117737963795661926e-01
-3.462632000446319580e-01 1.029583141207695007e-01 1.826220601797103882e-01
-4.337269663810729980e-01 2.986750602722167969e-01 -1.351497471332550049e-01
-3.947240114212036133e-01 1.870457231998443604e-01 7.101199775934219360e-02
-3.542492687702178955e-01 1.245975047349929810e-01 2.180915921926498413e-01
-3.424174189567565918e-01 3.315907716751098633e-01 -2.875857055187225342e-01
-2.374917119741439819e-01 1.566281914710998535e-01 2.119738012552261353e-01
-2.930341362953186035e-01 2.876029610633850098e-01 1.627275603823363781e-03
-2.827278375625610352e-01 1.621297597885131836e-01 -3.305678963661193848e-01
-4.280745089054107666e-01 3.856735229492187500e-01 -5.433043465018272400e-02
-2.207912802696228027e-01 1.157318428158760071e-01 1.173162311315536499e-01
-2.269897162914276123e-01 1.174645423889160156e-01 -5.687094479799270630e-02
-3.167838156223297119e-01 2.966653406620025635e-01 -2.708244323730468750e-01
-2.362395077943801880e-01 3.937713801860809326e-02 -1.039080172777175903e-01
-2.557422518730163574e-01 1.558656245470046997e-01 3.456991612911224365e-01
-3.380726873874664307e-01 1.290736198425292969e-01 -2.948966026306152344e-01
-2.380509972572326660e-01 1.483632922172546387e-01 2.517588436603546143e-01
-3.869658708572387695e-01 1.642804890871047974e-01 8.501169271767139435e-03
-3.120568096637725830e-01 3.163238167762756348e-01 -7.808702439069747925e-02
-3.405188620090484619e-01 1.466357111930847168e-01 -3.316906094551086426e-01
-3.786973357200622559e-01 3.725922405719757080e-01 8.456634730100631714e-02
