-2.065081894397735596e-02 6.315448880195617676e-02 3.370801508426666260e-01
-1.632890105247497559e-01 6.187863275408744812e-02 3.201200067996978760e-01
-5.915276408195495605e-01 1.542900204658508301e-01 -6.881654262542724609e-03
2.482285350561141968e-01 8.909583836793899536e-02 9.161595702171325684e-01
-4.912994503974914551e-01 1.675636917352676392e-01 2.857566177845001221e-01
-5.431545376777648926e-01 1.582826077938079834e-01 2.989658415317535400e-01
9.547325968742370605e-02 1.425087153911590576e-01 -1.993190050125122070e-01
-2.265426963567733765e-01 1.574010848999023438e-01 -4.549568891525268555e-01
4.145662486553192139e-02 6.590268015861511230e-02 3.237498104572296143e-01
-5.891446471214294434e-01 1.001756191253662109e-01 1.465368717908859253e-01
-2.400330454111099243e-02 8.148157596588134766e-02 -1.909184455871582031e-01
-5.936344861984252930e-01 1.466149985790252686e-01 -2.658752202987670898e-01
-1.451189815998077393e-02 1.650795340538024902e-01 1.003655791282653809e+00
1.475459337234497070e-02 8.288154006004333496e-02 -1.571137011051177979e-01
-5.191127657890319824e-01 8.523016422986984253e-02 9.175540506839752197e-02
-5.289169549942016602e-01 1.656459867954254150e-01 4.191246628761291504e-02
3.037123084068298340e-01 1.349404752254486084e-01 3.473427891731262207e-01
-7.161618769168853760e-02 1.634937822818756104e-01 1.018164873123168945e+00
-1.597348004579544067e-01 1.786739081144332886e-01 -7.797497510910034180e-02
8.223403990268707275e-02 1.751821190118789673e-01 6.584904789924621582e-01
-1.400057971477508545e-01 1.801507472991943359e-01 -1.434689760208129883e-02
-1.155993193387985229e-01 1.840779483318328857e-01 2.179909050464630127e-01
2.926765382289886475e-02 1.734189093112945557e-01 8.225895166397094727e-01
1.091586798429489136e-01 7.248266041278839111e-02 2.413852512836456299e-01
-3.804352879524230957e-02 1.807880699634552002e-01 6.159881353378295898e-01
6.684732437133789062e-02 7.046410441398620605e-02 7.969822287559509277e-01
-3.331266641616821289e-01 1.778512597084045410e-01 -1.164848804473876953e-01
1.479151397943496704e-01 1.638911068439483643e-01 1.759663969278335571e-01
2.656126022338867188e-01 9.497866779565811157e-02 9.685781002044677734e-01
-2.663784921169281006e-01 6.495457142591476440e-02 3.611141741275787354e-01
-1.562206000089645386e-01 6.302051991224288940e-02 1.561183482408523560e-01
-1.703839302062988281e-01 1.155917122960090637e-01 -5.521119832992553711e-01
1.400982588529586792e-01 9.353077411651611328e-02 -5.235576629638671875e-02
-2.956362366676330566e-01 8.472651243209838867e-02 -3.903315067291259766e-01
-5.392837524414062500e-01 8.961167186498641968e-02 1.813586205244064331e-01
-2.538154721260070801e-01 1.758797317743301392e-01 -1.948114037513732910e-01
2.983312606811523438e-01 1.480092406272888184e-01 6.561747789382934570e-01
1.874372214078903198e-01 1.365375965833663940e-01 -3.672173619270324707e-02
-3.511988520622253418e-01 7.602920383214950562e-02 5.757082700729370117e-01
-6.235266476869583130e-02 1.831119209527969360e-01 2.776467800140380859e-01
-1.573379039764404297e-01 1.851002424955368042e-01 3.183808326721191406e-01
-7.307151705026626587e-02 8.549378812313079834e-02 -2.944614887237548828e-01
-1.610597968101501465e-02 1.572949439287185669e-01 1.099749565124511719e+00
-4.560033082962036133e-01 9.176997840404510498e-02 -3.837184906005859375e-01
-4.290063977241516113e-01 1.582892537117004395e-01 6.602415442466735840e-01
-4.903572201728820801e-01 1.637848764657974243e-01 3.992779850959777832e-01
-1.064652800559997559e-01 6.166867166757583618e-02 3.962602019309997559e-01
7.504004240036010742e-02 1.655281037092208862e-01 8.020013570785522461e-03
-4.864239096641540527e-01 8.116447925567626953e-02 -1.730650663375854492e-03
1.578205674886703491e-01 7.243820279836654663e-02 6.031695008277893066e-01
-4.048418402671813965e-01 1.051221042871475220e-01 8.270014524459838867e-01
-3.330598771572113037e-01 1.251797378063201904e-01 9.964111447334289551e-01
2.024591714143753052e-01 1.570711582899093628e-01 9.337424635887145996e-01
7.072687149047851562e-04 1.811725497245788574e-01 3.898515701293945312e-01
2.184199541807174683e-01 7.897214591503143311e-02 5.384976267814636230e-01
-6.010950803756713867e-01 1.260141730308532715e-01 3.470334708690643311e-01
-8.552955090999603271e-02 8.059266954660415649e-02 1.001955509185791016e+00
2.443692237138748169e-01 1.588054895401000977e-01 5.884430408477783203e-01
3.266257643699645996e-01 1.141857057809829712e-01 9.394156336784362793e-01
-4.318478107452392578e-01 7.548242062330245972e-02 2.303733527660369873e-01
-4.576054215431213379e-01 1.661037653684616089e-01 4.596716165542602539e-01
-3.558058291673660278e-02 1.447012126445770264e-01 -3.837282657623291016e-01
-5.210508704185485840e-01 8.954894542694091797e-02 3.067707121372222900e-01
2.017670124769210815e-01 7.828214764595031738e-02 7.536357045173645020e-01
2.468968182802200317e-01 8.438012003898620605e-02 4.631670117378234863e-01
-2.911463975906372070e-01 1.501765102148056030e-01 9.661504626274108887e-01
6.910204887390136719e-02 1.774225831031799316e-01 4.857281148433685303e-01
-3.616716265678405762e-01 9.613437950611114502e-02 -4.997293353080749512e-01
-4.957699775695800781e-01 1.022395193576812744e-01 -4.509240388870239258e-01
-4.503527283668518066e-02 1.825200766324996948e-01 5.030510425567626953e-01
-3.860882669687271118e-02 1.159901544451713562e-01 1.252719879150390625e+00
2.534947991371154785e-01 1.439849585294723511e-01 1.019365787506103516e+00
-5.355245471000671387e-01 9.375476092100143433e-02 -2.489091753959655762e-01
-5.212029218673706055e-01 1.663608700037002563e-01 -3.031843900680541992e-02
-2.717439830303192139e-01 1.838928163051605225e-01 1.864451467990875244e-01
-1.392593979835510254e-01 1.402252763509750366e-01 -5.075016021728515625e-01
-2.929773330688476562e-01 1.797057837247848511e-01 -7.779616117477416992e-02
-2.681706547737121582e-01 1.820997595787048340e-01 1.522213220596313477e-02
-2.662119269371032715e-01 1.771553903818130493e-01 6.260796785354614258e-01
8.967550098896026611e-02 7.776157557964324951e-02 5.630427598953247070e-02
-3.050198853015899658e-01 6.762012839317321777e-02 4.062502980232238770e-01
8.970901370048522949e-03 1.733000576496124268e-01 2.835923433303833008e-02
-1.501258462667465210e-01 6.227914616465568542e-02 4.468027949333190918e-01
-5.557040572166442871e-01 1.612525731325149536e-01 7.725302875041961670e-02
5.014190077781677246e-02 1.744458973407745361e-01 1.631297022104263306e-01
-1.165510341525077820e-01 1.742718517780303955e-01 8.262933492660522461e-01
-1.101006492972373962e-01 7.339234650135040283e-02 -1.502032577991485596e-01
-2.220332622528076172e-01 8.172306418418884277e-02 8.980321884155273438e-01
-3.843557238578796387e-01 1.641230285167694092e-01 6.763261556625366211e-01
-3.496521711349487305e-01 7.402435690164566040e-02 5.258309245109558105e-01
-4.861950278282165527e-01 8.167181909084320068e-02 2.107378542423248291e-01
1.261625438928604126e-01 6.984443962574005127e-02 5.710169076919555664e-01
-2.238987684249877930e-01 1.507398933172225952e-01 1.038472414016723633e+00
3.294804692268371582e-01 1.083203777670860291e-01 4.798584580421447754e-01
-4.777432978153228760e-02 6.229816377162933350e-02 4.503462612628936768e-01
-4.129184484481811523e-01 1.255177408456802368e-01 -6.056232452392578125e-01
-3.378050327301025391e-01 1.512986272573471069e-01 8.931582570075988770e-01
-2.033218592405319214e-01 7.649651914834976196e-02 8.414136767387390137e-01
1.406788975000381470e-01 1.708036661148071289e-01 3.973798155784606934e-01
2.322875708341598511e-01 9.560544043779373169e-02 1.052600622177124023e+00
3.449568152427673340e-01 1.103109419345855713e-01 7.489026188850402832e-01
2.975806593894958496e-01 1.369300037622451782e-01 9.699584841728210449e-01
2.143634706735610962e-01 1.632615327835083008e-01 5.551214218139648438e-01
-4.055526852607727051e-01 9.326280653476715088e-02 7.308234572410583496e-01
2.250264734029769897e-01 1.573369503021240234e-01 8.599312305450439453e-01
2.594991922378540039e-01 8.641072362661361694e-02 7.878822088241577148e-01
-8.885252475738525391e-02 7.191321253776550293e-02 -1.012295484542846680e-01
-6.011692285537719727e-01 1.061344295740127563e-01 1.999070048332214355e-01
9.125763177871704102e-02 7.437326014041900635e-02 8.833511471748352051e-01
-3.608384728431701660e-01 8.431991934776306152e-02 -3.631535172462463379e-01
-9.805922210216522217e-02 1.843887716531753540e-01 3.372801542282104492e-01
-4.964837431907653809e-02 1.413615494966506958e-01 1.208429574966430664e+00
-1.886389106512069702e-01 1.818353384733200073e-01 7.671684026718139648e-03
-3.460407555103302002e-01 6.845736503601074219e-02 1.344077885150909424e-01
-3.015582561492919922e-01 1.710797548294067383e-01 7.078139185905456543e-01
2.331069707870483398e-01 1.585031747817993164e-01 4.665502309799194336e-01
3.696724772453308105e-01 1.072388365864753723e-01 7.309914827346801758e-01
-2.600705623626708984e-01 1.017774343490600586e-01 -2.934368848800659180e-01
-5.046550184488296509e-03 1.436673849821090698e-01 4.607886075973510742e-03
-3.721098303794860840e-01 1.896588131785392761e-02 1.190582364797592163e-01
2.464186027646064758e-02 1.606113910675048828e-01 4.451956450939178467e-01
4.373545050621032715e-01 2.685848996043205261e-02 -1.112158298492431641e-01
-7.535568624734878540e-02 7.589195668697357178e-02 7.038067579269409180e-01
-4.834869801998138428e-01 3.987946361303329468e-02 1.685507148504257202e-01
4.907576143741607666e-01 3.529206290841102600e-02 1.559258699417114258e-01
4.053754210472106934e-01 2.066192775964736938e-02 6.701032072305679321e-02
8.369678258895874023e-02 5.183678120374679565e-02 6.146178841590881348e-01
3.500323295593261719e-01 1.520240455865859985e-01 3.969952464103698730e-01
4.471942782402038574e-03 1.327219903469085693e-01 -1.185550093650817871e-01
1.657542586326599121e-01 5.113508552312850952e-02 6.022946834564208984e-01
-1.184500902891159058e-01 1.020132750272750854e-01 -3.394809961318969727e-01
4.768874049186706543e-01 1.355150938034057617e-01 5.184698104858398438e-01
1.828262805938720703e-01 1.110975742340087891e-01 -2.561003267765045166e-01
3.117696642875671387e-01 1.712458580732345581e-02 -2.647828757762908936e-01
-3.240541517734527588e-01 6.207459419965744019e-02 5.172877311706542969e-01
-1.697543114423751831e-01 1.223590672016143799e-01 -1.786226928234100342e-01
-4.972454905509948730e-02 3.213111311197280884e-02 -5.191981196403503418e-01
3.667309284210205078e-01 1.485608518123626709e-01 2.947386503219604492e-01
-5.310732126235961914e-02 1.244939714670181274e-01 -1.894784569740295410e-01
-2.878931164741516113e-01 3.229930996894836426e-03 -8.582974970340728760e-02
9.048456698656082153e-02 2.938248217105865479e-03 -3.368874788284301758e-01
-4.261031746864318848e-01 1.251685023307800293e-01 2.417657524347305298e-01
9.652469307184219360e-04 5.036585777997970581e-02 6.016581058502197266e-01
-1.978366672992706299e-01 1.433253139257431030e-01 5.784089565277099609e-01
5.411291122436523438e-02 1.606980860233306885e-01 3.705340027809143066e-01
3.358741402626037598e-01 1.257375180721282959e-01 -6.113724410533905029e-02
-1.108944416046142578e-01 1.449930667877197266e-01 6.468448638916015625e-01
1.436047703027725220e-01 1.594010740518569946e-01 3.219204246997833252e-01
-2.610839717090129852e-02 7.345064729452133179e-02 7.071515917778015137e-01
-4.096014499664306641e-01 7.661019265651702881e-02 -3.208659291267395020e-01
3.878651857376098633e-01 1.776167750358581543e-02 -6.016314029693603516e-02
2.597365975379943848e-01 3.877903148531913757e-02 4.855886101722717285e-01
5.109506845474243164e-01 1.034659594297409058e-01 -3.283721208572387695e-02
3.795240223407745361e-01 5.746588855981826782e-02 5.512865781784057617e-01
5.826679468154907227e-01 1.037579178810119629e-01 1.265130639076232910e-01
-4.380494356155395508e-01 5.678187310695648193e-02 3.703872859477996826e-01
-2.998890280723571777e-01 1.387926042079925537e-01 1.488896608352661133e-01
-1.335815899074077606e-02 1.548423990607261658e-02 3.152396082878112793e-01
2.421231120824813843e-01 1.460681557655334473e-01 9.889537096023559570e-02
-1.653498411178588867e-01 -3.547295928001403809e-03 -1.647813022136688232e-01
-1.368421018123626709e-01 1.087515726685523987e-01 -2.934018075466156006e-01
1.390840858221054077e-01 4.333012551069259644e-02 5.556802153587341309e-01
-1.589586436748504639e-01 1.415321975946426392e-01 3.032981604337692261e-02
3.197977542877197266e-01 1.430874913930892944e-01 1.200802028179168701e-01
-3.352366685867309570e-01 1.976124197244644165e-02 1.825832277536392212e-01
-1.172096431255340576e-01 1.540663391351699829e-01 2.503128945827484131e-01
-1.192901730537414551e-01 1.323566138744354248e-01 -1.007936745882034302e-01
2.064873427152633667e-01 4.471934586763381958e-02 5.506159067153930664e-01
-1.188527978956699371e-02 -3.842927515506744385e-03 -2.791672945022583008e-02
2.884028255939483643e-01 2.348497509956359863e-02 3.152714669704437256e-01
4.982002675533294678e-01 7.412553578615188599e-02 5.345271825790405273e-01
-3.217159807682037354e-01 9.758404642343521118e-02 -2.831178605556488037e-01
-4.015150666236877441e-01 1.244051754474639893e-01 4.116487205028533936e-01
4.814480245113372803e-01 3.243850916624069214e-02 1.139375120401382446e-01
3.518915772438049316e-01 1.429243534803390503e-01 1.535309106111526489e-01
1.758485734462738037e-01 1.278087943792343140e-01 -1.339249610900878906e-01
-3.895774185657501221e-01 5.840294808149337769e-02 -3.917396068572998047e-01
7.684278488159179688e-02 -2.297222614288330078e-03 -1.002578437328338623e-02
-4.340607225894927979e-01 1.115238517522811890e-01 -4.337781667709350586e-02
3.204227983951568604e-01 1.782250404357910156e-02 1.992866247892379761e-01
-2.186475545167922974e-01 1.167893409729003906e-03 -1.006054878234863281e-02
-5.202193856239318848e-01 6.076520681381225586e-02 2.454388290643692017e-01
3.585147112607955933e-02 1.765753701329231262e-02 3.414066731929779053e-01
3.296361863613128662e-01 1.209822744131088257e-01 -1.061521023511886597e-01
3.149089515209197998e-01 6.433723121881484985e-02 6.291251182556152344e-01
-2.993866801261901855e-01 3.502623364329338074e-02 3.706090450286865234e-01
2.724508196115493774e-02 -4.650242626667022705e-03 -8.674693107604980469e-02
4.744505882263183594e-02 1.437501460313796997e-01 3.968238830566406250e-03
2.514997124671936035e-01 6.928542256355285645e-02 -4.043211340904235840e-01
4.796579778194427490e-01 5.530783161520957947e-02 -2.036594152450561523e-01
-3.256426453590393066e-01 9.109032899141311646e-02 6.017359495162963867e-01
3.202227652072906494e-01 1.496755182743072510e-01 2.375649809837341309e-01
-3.241697251796722412e-01 3.534992039203643799e-02 -4.467808008193969727e-01
-3.854194581508636475e-01 8.982982486486434937e-02 -2.789342701435089111e-01
-2.562236189842224121e-01 9.524324536323547363e-02 -3.345452845096588135e-01
2.552613988518714905e-02 1.448508948087692261e-01 7.147321105003356934e-01
2.621669471263885498e-01 1.333940029144287109e-02 1.902715861797332764e-01
-2.491720169782638550e-01 1.350714117288589478e-01 1.024232804775238037e-02
1.785856783390045166e-01 6.147921085357666016e-04 -1.719294190406799316e-01
3.416701853275299072e-01 1.238678395748138428e-02 -4.132385551929473877e-02
1.521829515695571899e-01 1.483033895492553711e-01 7.009848952293395996e-01
-3.632901310920715332e-01 1.223172694444656372e-01 5.122071504592895508e-01
2.737048454582691193e-02 1.040167436003684998e-01 7.898713350296020508e-01
2.869728505611419678e-01 1.128291860222816467e-01 -1.944734156131744385e-01
5.229565501213073730e-01 7.220017164945602417e-02 4.909274578094482422e-01
1.100466698408126831e-01 1.063141226768493652e-02 -4.020378589630126953e-01
1.055467575788497925e-01 9.707477688789367676e-02 7.861888408660888672e-01
2.233743071556091309e-01 1.448240280151367188e-01 7.103319168090820312e-01
-7.566650956869125366e-02 6.113535165786743164e-02 -5.036445856094360352e-01
3.596267104148864746e-01 1.518619060516357422e-02 4.530085623264312744e-02
-2.887101471424102783e-01 1.371773332357406616e-01 9.330615401268005371e-02
4.325914010405540466e-02 6.840231269598007202e-02 -4.790520071983337402e-01
2.587988674640655518e-01 8.885297179222106934e-02 7.463006377220153809e-01
-4.626016318798065186e-02 5.826765298843383789e-02 6.366127729415893555e-01
6.804203614592552185e-03 1.590616106986999512e-01 5.176203846931457520e-01
1.694523543119430542e-01 1.181617379188537598e-02 -3.726830482482910156e-01
-3.589723110198974609e-01 1.312088221311569214e-02 -2.932680845260620117e-01
4.942627251148223877e-02 4.101443290710449219e-02 5.452747344970703125e-01
2.016272544860839844e-01 1.581681370735168457e-01 5.408940315246582031e-01
-1.165976226329803467e-01 1.394137442111968994e-01 -2.063252031803131104e-02
-4.752424061298370361e-01 1.114810854196548462e-01 6.316471844911575317e-02
-2.752078473567962646e-01 5.115313827991485596e-02 4.984279274940490723e-01
4.542090892791748047e-01 8.745527267456054688e-02 -1.874547004699707031e-01
4.204569458961486816e-01 2.539294585585594177e-02 1.571863144636154175e-01
4.377276003360748291e-01 6.374740600585937500e-02 5.422711372375488281e-01
-6.816715002059936523e-02 1.534799784421920776e-01 1.872578859329223633e-01
2.372760176658630371e-01 3.965005278587341309e-03 -1.415079832077026367e-01
1.155845522880554199e-01 3.201854228973388672e-02 -4.846084713935852051e-01
-2.646909654140472412e-01 2.344413474202156067e-02 2.932605147361755371e-01
-2.302900105714797974e-01 6.607919931411743164e-05 -2.406533658504486084e-01
9.456656873226165771e-02 1.464653611183166504e-01 4.456536471843719482e-02
-6.912892311811447144e-02 8.451398462057113647e-02 -4.318280220031738281e-01
-3.372669816017150879e-01 4.323659092187881470e-02 3.991800248622894287e-01
-3.446406424045562744e-01 5.662585049867630005e-02 4.730761051177978516e-01
-1.670844852924346924e-01 1.282972097396850586e-01 -1.238466799259185791e-01
-4.883911311626434326e-01 2.854764088988304138e-02 -4.540355503559112549e-02
-7.718505337834358215e-03 1.431606709957122803e-03 1.105656623840332031e-01
5.789286494255065918e-01 6.747110188007354736e-02 3.429337143898010254e-01
3.892100155353546143e-01 3.478716313838958740e-02 3.516851961612701416e-01
-5.584238171577453613e-01 6.459526717662811279e-02 -9.180916845798492432e-02
3.653493821620941162e-01 1.462206542491912842e-01 5.903069376945495605e-01
1.685812026262283325e-01 1.268970221281051636e-02 2.493964880704879761e-01
4.801056534051895142e-02 6.275957822799682617e-02 6.717008948326110840e-01
-1.438722945749759674e-02 1.597445011138916016e-01 3.738422691822052002e-01
-2.659418880939483643e-01 5.360968410968780518e-03 -3.161738514900207520e-01
9.563982486724853516e-02 1.571468561887741089e-01 2.348733842372894287e-01
2.081307023763656616e-01 1.555768847465515137e-01 5.989568233489990234e-01
-3.232903033494949341e-02 4.699289798736572266e-02 5.762305259704589844e-01
-2.567522227764129639e-01 4.001282155513763428e-03 1.181736588478088379e-02
2.707420103251934052e-02 8.347749710083007812e-02 7.489787936210632324e-01
-4.903080165386199951e-01 3.631669655442237854e-02 1.092783436179161072e-01
4.139883816242218018e-01 2.832895517349243164e-02 -1.946856975555419922e-01
5.430873036384582520e-01 1.264522075653076172e-01 3.430922627449035645e-01
7.902862876653671265e-02 1.541321426630020142e-01 6.425841450691223145e-01
-8.511679247021675110e-03 7.496129721403121948e-02 -4.661464691162109375e-01
2.844880521297454834e-01 8.673056960105895996e-03 4.289473593235015869e-02
2.221388369798660278e-01 1.292121857404708862e-01 -1.020599603652954102e-01
-2.666700780391693115e-01 1.404540836811065674e-01 5.094847679138183594e-01
2.135766744613647461e-01 3.693349659442901611e-03 -2.047265172004699707e-01
-1.655474603176116943e-01 1.520052552223205566e-03 -3.416251242160797119e-01
2.096681445837020874e-01 5.403359979391098022e-02 6.101240515708923340e-01
-1.619975417852401733e-01 1.463147699832916260e-01 1.111504659056663513e-01
-4.165868759155273438e-01 1.015657708048820496e-01 -1.666766405105590820e-01
-5.384914278984069824e-01 5.283106490969657898e-02 1.378424614667892456e-01
-9.134879335761070251e-03 -5.320481956005096436e-03 -1.756251454353332520e-01
-6.696847081184387207e-02 4.311180487275123596e-02 5.441424846649169922e-01
1.244258508086204529e-01 1.077514886856079102e-02 2.406164705753326416e-01
-1.865822374820709229e-01 1.027193516492843628e-01 -3.181370496749877930e-01
-3.458772599697113037e-01 1.022147536277770996e-01 -2.340019941329956055e-01
4.571481049060821533e-02 1.043074354529380798e-01 -3.304704725742340088e-01
8.377169817686080933e-02 7.563813775777816772e-02 -4.506778717041015625e-01
-1.798573732376098633e-01 -1.063063740730285645e-03 -2.875794470310211182e-02
-4.037934839725494385e-01 2.847637981176376343e-02 1.934286355972290039e-01
1.194678246974945068e-03 8.246481418609619141e-03 2.241223156452178955e-01
2.602570056915283203e-01 1.071954518556594849e-02 -2.640333771705627441e-01
1.716236025094985962e-01 5.844742059707641602e-03 -3.082606792449951172e-01
-6.976022571325302124e-02 -4.248395562171936035e-04 -3.393435776233673096e-01
5.501898527145385742e-01 6.285973638296127319e-02 3.781736195087432861e-01
-4.630541056394577026e-02 1.557160615921020508e-01 5.597263574600219727e-01
2.731715142726898193e-01 6.210273504257202148e-02 6.352361440658569336e-01
-1.680730581283569336e-01 8.058462291955947876e-02 6.836623549461364746e-01
-1.983569264411926270e-01 1.319366693496704102e-01 -6.866344809532165527e-02
3.645609617233276367e-01 1.509554088115692139e-01 4.514651894569396973e-01
-1.310437358915805817e-02 1.387946605682373047e-01 -5.361330509185791016e-02
1.332451701164245605e-01 1.433633863925933838e-01 1.290401816368103027e-02
1.012306734919548035e-01 1.611573100090026855e-01 4.263105690479278564e-01
5.358283519744873047e-01 1.278799474239349365e-01 4.069218933582305908e-01
-7.555399090051651001e-02 1.578577607870101929e-01 4.317229688167572021e-01
2.326025068759918213e-01 1.103500947356224060e-01 -2.398386299610137939e-01
-1.982573270797729492e-01 4.180224612355232239e-02 -5.074070096015930176e-01
-4.741196930408477783e-01 4.708263278007507324e-02 2.517582178115844727e-01
-3.237807750701904297e-01 1.250303089618682861e-01 5.571818351745605469e-01
4.002546668052673340e-01 1.371283978223800659e-01 1.308455914258956909e-01
-3.449048995971679688e-01 1.050768792629241943e-02 9.339541196823120117e-03
-7.540604472160339355e-02 1.493354737758636475e-01 1.079046353697776794e-01
3.939744532108306885e-01 1.361569911241531372e-01 6.531252861022949219e-01
-2.726113237440586090e-02 1.513329744338989258e-01 1.249246299266815186e-01
5.858022570610046387e-01 1.138674616813659668e-01 3.637449741363525391e-01
1.492082178592681885e-01 2.058140933513641357e-03 6.245732307434082031e-02
4.530129134654998779e-01 3.369031846523284912e-02 -1.580040454864501953e-01
-3.415977060794830322e-01 1.363086700439453125e-01 1.998240649700164795e-01
-1.679260581731796265e-01 1.532158255577087402e-01 3.420908749103546143e-01
6.828151643276214600e-02 1.936294138431549072e-03 1.088634952902793884e-01
-7.613360136747360229e-02 1.483659446239471436e-02 2.967578768730163574e-01
-1.582304388284683228e-01 6.582816690206527710e-02 6.355504989624023438e-01
2.413384020328521729e-01 1.521716415882110596e-01 2.017320245504379272e-01
1.841370165348052979e-01 3.228318691253662109e-02 4.595429301261901855e-01
-3.217583149671554565e-02 1.570809632539749146e-01 2.607399821281433105e-01
-2.819277644157409668e-01 1.064073368906974792e-01 -2.497873008251190186e-01
-3.852891027927398682e-01 1.299130469560623169e-01 3.714386224746704102e-01
1.182038635015487671e-01 2.246670424938201904e-03 -3.055344820022583008e-01
4.515393376350402832e-01 1.264414489269256592e-01 7.185700535774230957e-02
-6.528821587562561035e-02 1.509876698255538940e-01 6.193183064460754395e-01
4.559167474508285522e-02 1.136386841535568237e-01 -2.719774842262268066e-01
-2.305789142847061157e-01 4.056310281157493591e-02 4.600771963596343994e-01
-1.416739374399185181e-01 1.453136652708053589e-02 2.704042494297027588e-01
-2.319983392953872681e-01 1.301547139883041382e-01 6.379621028900146484e-01
1.542509049177169800e-01 1.525847315788269043e-01 1.561955064535140991e-01
-4.875303804874420166e-01 1.123600453138351440e-01 1.897073984146118164e-01
-9.418136626482009888e-02 3.168516233563423157e-02 4.536516368389129639e-01
-3.457675278186798096e-01 1.370923519134521484e-01 2.838029265403747559e-01
-2.062678188085556030e-01 9.769238531589508057e-03 -4.114512801170349121e-01
7.636943459510803223e-02 1.592925190925598145e-01 5.462539196014404297e-01
3.541143834590911865e-01 3.826842457056045532e-02 4.214428365230560303e-01
2.334822714328765869e-01 1.578168869018554688e-01 5.137122869491577148e-01
-1.384184658527374268e-01 2.073403820395469666e-02 3.396666049957275391e-01
6.024962663650512695e-01 6.605568528175354004e-02 1.602793782949447632e-01
2.149265557527542114e-01 1.209443807601928711e-01 -1.741358935832977295e-01
-7.352250069379806519e-02 9.761162102222442627e-02 -3.699048757553100586e-01
4.627835750579833984e-01 1.142899245023727417e-01 -2.543096244335174561e-02
7.156443595886230469e-02 1.528918743133544922e-01 1.420357227325439453e-01
-1.011424213647842407e-01 1.130418181419372559e-01 -2.713046371936798096e-01
-3.509209752082824707e-01 2.840254828333854675e-02 2.621123492717742920e-01
4.301898777484893799e-01 8.463011682033538818e-02 -2.239452302455902100e-01
4.113943278789520264e-01 1.198885142803192139e-01 -4.119661450386047363e-02
1.133056879043579102e-01 -1.807108521461486816e-03 -2.119483351707458496e-01
3.155649304389953613e-01 4.807732254266738892e-02 5.284771919250488281e-01
-6.378741934895515442e-03 1.482657790184020996e-01 6.931117177009582520e-02
-7.316552102565765381e-02 9.080953896045684814e-03 -4.383367300033569336e-01
3.686918020248413086e-01 1.498036980628967285e-01 3.460476100444793701e-01
-2.586118280887603760e-01 1.463689208030700684e-01 3.594695925712585449e-01
-4.546398520469665527e-01 2.316915243864059448e-02 -1.303555071353912354e-02
-2.461295276880264282e-01 1.386935114860534668e-01 6.258265674114227295e-02
-9.373064339160919189e-02 6.254321336746215820e-02 6.447718739509582520e-01
-5.930706858634948730e-02 1.151497811079025269e-01 -2.620217502117156982e-01
-3.185935020446777344e-01 1.400516331195831299e-01 3.545254468917846680e-01
-1.725099682807922363e-01 1.492933332920074463e-01 1.869463324546813965e-01
2.914689853787422180e-02 1.385197043418884277e-01 -5.837820470333099365e-02
-2.029352486133575439e-01 1.509028971195220947e-01 3.803965449333190918e-01
3.240200504660606384e-02 -3.205358982086181641e-03 -1.589863002300262451e-02
-8.089328184723854065e-03 -1.403987407684326172e-03 -3.160732090473175049e-01
1.225698664784431458e-01 5.698395520448684692e-02 6.416522860527038574e-01
-1.407860964536666870e-01 5.678028985857963562e-02 -5.058572888374328613e-01
4.987481236457824707e-01 5.930711328983306885e-02 4.417005479335784912e-01
1.625025868415832520e-01 1.597602292895317078e-02 2.963528037071228027e-01
2.137573622167110443e-02 1.543203741312026978e-01 6.248404979705810547e-01
-1.110233366489410400e-01 1.378899663686752319e-01 6.943494677543640137e-01
4.442643821239471436e-01 1.379173994064331055e-01 2.215574830770492554e-01
4.287216961383819580e-01 1.219696700572967529e-01 -3.243297338485717773e-03
2.991549372673034668e-01 7.202751189470291138e-02 -3.692436218261718750e-01
-3.122537434101104736e-01 6.377682089805603027e-03 -2.949354052543640137e-02
2.455570250749588013e-01 1.291322708129882812e-01 7.696232795715332031e-01
4.398815631866455078e-01 2.566565200686454773e-02 9.248353540897369385e-02
8.808110654354095459e-02 7.881709933280944824e-02 7.385156154632568359e-01
3.545835018157958984e-01 1.831248030066490173e-02 1.526937037706375122e-01
5.924716591835021973e-03 1.588043272495269775e-01 2.971179783344268799e-01
-3.084547519683837891e-01 7.246889173984527588e-03 -2.867159247398376465e-01
-4.232102930545806885e-01 1.660739257931709290e-02 -1.466464698314666748e-01
1.549200806766748428e-02 -3.673434257507324219e-04 7.055852562189102173e-02
2.756117284297943115e-01 3.109767660498619080e-02 4.081224799156188965e-01
-2.916675508022308350e-01 1.761223375797271729e-02 -4.112872481346130371e-01
-2.440234869718551636e-01 1.391324400901794434e-02 1.992787569761276245e-01
4.291857779026031494e-01 1.444688439369201660e-01 4.591204524040222168e-01
-3.327764272689819336e-01 1.180585026741027832e-01 -1.110657900571823120e-01
-2.263216525316238403e-01 8.036942780017852783e-02 -4.178767800331115723e-01
2.588391900062561035e-01 2.601173892617225647e-02 3.654043674468994141e-01
-2.892658114433288574e-01 3.278516232967376709e-03 -2.159223258495330811e-01
4.973664283752441406e-01 1.183689832687377930e-01 6.037824749946594238e-01
7.557838410139083862e-02 1.492024660110473633e-01 8.134528249502182007e-02
-4.405599236488342285e-01 2.807402983307838440e-02 1.215441897511482239e-01
1.720748096704483032e-01 5.960605293512344360e-02 -4.606436491012573242e-01
2.831063568592071533e-01 1.506084948778152466e-01 6.229850053787231445e-01
7.502895593643188477e-02 9.743794798851013184e-03 2.393507957458496094e-01
-4.646126925945281982e-01 1.164449751377105713e-01 1.345498710870742798e-01
-1.834650188684463501e-01 2.965387701988220215e-02 4.018519222736358643e-01
-3.178163170814514160e-01 2.780783176422119141e-02 2.906093299388885498e-01
4.304168522357940674e-01 7.345499843358993530e-02 6.000777482986450195e-01
2.641709446907043457e-01 1.562842130661010742e-01 3.442520797252655029e-01
-4.291118085384368896e-01 1.742223277688026428e-02 -1.041460335254669189e-01
-2.669729888439178467e-01 7.745416462421417236e-02 6.177880764007568359e-01
1.599639356136322021e-01 1.602224558591842651e-01 3.811302483081817627e-01
5.729892849922180176e-01 6.373339891433715820e-02 -1.304933428764343262e-02
-2.536400556564331055e-01 1.460637450218200684e-01 4.148990809917449951e-01
1.986702680587768555e-01 1.934575662016868591e-02 3.218760490417480469e-01
4.686610698699951172e-01 1.321485787630081177e-01 5.774143934249877930e-01
1.651407331228256226e-01 1.599732339382171631e-01 4.988795816898345947e-01
2.669118642807006836e-01 1.550214886665344238e-01 3.010020852088928223e-01
-1.519568264484405518e-01 1.484429091215133667e-01 5.706478357315063477e-01
-4.682381451129913330e-02 -4.333309829235076904e-03 -4.997497797012329102e-02
5.336704254150390625e-01 1.125823557376861572e-01 5.579742193222045898e-01
3.424951732158660889e-01 1.424996852874755859e-01 6.571145653724670410e-01
-2.370732463896274567e-02 9.809209406375885010e-02 -3.692025542259216309e-01
1.855842322111129761e-01 2.527816966176033020e-02 3.929440379142761230e-01
2.293603420257568359e-01 2.691018581390380859e-02 -4.105757474899291992e-01
2.610342502593994141e-01 1.546060442924499512e-01 5.755356550216674805e-01
-4.313955456018447876e-02 3.050696477293968201e-02 4.562329053878784180e-01
-1.634774506092071533e-01 1.466818153858184814e-03 5.528885126113891602e-02
-1.458867043256759644e-01 1.539553701877593994e-01 3.024384677410125732e-01
8.178599923849105835e-02 1.553766429424285889e-01 1.918268799781799316e-01
-3.831438422203063965e-01 1.189092993736267090e-01 -3.950020670890808105e-02
-2.972196340560913086e-01 1.415495872497558594e-01 2.271220535039901733e-01
-1.637929081916809082e-01 1.367058008909225464e-01 -3.176045417785644531e-02
-1.069423109292984009e-01 1.565764248371124268e-01 3.657779097557067871e-01
-2.325088828802108765e-01 2.519886568188667297e-02 3.336661756038665771e-01
-6.191881000995635986e-02 1.387583762407302856e-01 7.165304422378540039e-01
-2.051419019699096680e-01 6.900674104690551758e-02 -4.637917280197143555e-01
-3.491152226924896240e-01 2.681458741426467896e-02 -4.068302512168884277e-01
-1.261727809906005859e-01 -2.787590026855468750e-03 -2.741749286651611328e-01
-1.464472413063049316e-01 -8.655413985252380371e-04 1.117019355297088623e-02
2.123334556818008423e-01 1.380294710397720337e-01 -1.897005736827850342e-02
5.711185932159423828e-02 -9.024590253829956055e-04 -2.958213090896606445e-01
-5.702658742666244507e-02 1.399981677532196045e-01 -3.248584270477294922e-02
3.822791576385498047e-01 1.440118849277496338e-01 2.170683145523071289e-01
3.139655590057373047e-01 1.536690890789031982e-01 3.460522592067718506e-01
3.545098006725311279e-02 1.889865100383758545e-02 -4.753403663635253906e-01
-2.602700293064117432e-01 1.968802139163017273e-02 -4.425329566001892090e-01
-3.355509340763092041e-01 1.344414949417114258e-01 1.274253427982330322e-01
-1.007560044527053833e-01 -3.647916018962860107e-03 -4.569427669048309326e-02
2.111033052206039429e-01 1.644041016697883606e-02 -3.733103275299072266e-01
3.297038674354553223e-01 8.852680027484893799e-02 -2.955846190452575684e-01
2.994596362113952637e-01 2.110146731138229370e-02 2.742740511894226074e-01
-2.328947335481643677e-01 1.212721765041351318e-01 -1.577525734901428223e-01
3.816745579242706299e-01 1.055750995874404907e-01 -1.710269153118133545e-01
2.085970044136047363e-01 8.425132185220718384e-02 -3.803509473800659180e-01
-7.832386344671249390e-02 3.194980323314666748e-03 -3.867794275283813477e-01
5.489414930343627930e-01 4.625934362411499023e-02 1.088441684842109680e-01
2.299999296665191650e-01 2.972820028662681580e-02 4.187663197517395020e-01
4.139672219753265381e-01 1.451733708381652832e-01 3.236090540885925293e-01
2.530097663402557373e-01 4.689478874206542969e-02 5.499556064605712891e-01
9.193705022335052490e-02 1.711336150765419006e-02 3.300086855888366699e-01
2.780382633209228516e-01 1.566516757011413574e-01 4.450555145740509033e-01
2.696876823902130127e-01 2.343416959047317505e-02 -3.622798323631286621e-01
5.663679242134094238e-01 9.802842140197753906e-02 4.001258313655853271e-02
-2.092503309249877930e-01 1.103684157133102417e-01 -2.585536837577819824e-01
-3.719443082809448242e-01 1.569662988185882568e-02 6.404779106378555298e-02
-6.840182468295097351e-03 1.561726629734039307e-01 5.808822512626647949e-01
1.636085808277130127e-01 1.467016935348510742e-01 6.684455275535583496e-02
-1.973140537738800049e-01 1.859998330473899841e-02 2.880893945693969727e-01
3.222417235374450684e-01 1.537793576717376709e-01 4.824654757976531982e-01
4.131489992141723633e-01 8.659187704324722290e-02 6.639499068260192871e-01
-4.490925967693328857e-01 7.489383965730667114e-02 4.292070269584655762e-01
3.616406321525573730e-01 1.271136701107025146e-01 -2.632896602153778076e-02
4.579303860664367676e-01 1.408790051937103271e-01 3.560066819190979004e-01
-2.297452539205551147e-01 6.467483937740325928e-03 -3.658422231674194336e-01
-4.707300961017608643e-01 2.762724459171295166e-02 2.918303012847900391e-02
4.335945099592208862e-02 1.569557040929794312e-01 2.284686267375946045e-01
2.822787463665008545e-01 7.076859474182128906e-03 -3.914506733417510986e-02
-2.745861113071441650e-01 1.232259720563888550e-01 -1.102544963359832764e-01
4.529535472393035889e-01 1.068154647946357727e-01 6.678459644317626953e-01
1.058253273367881775e-01 2.095278725028038025e-02 3.698290884494781494e-01
2.811304032802581787e-01 7.384203374385833740e-03 -1.335514783859252930e-01
4.540058076381683350e-01 2.675444632768630981e-02 2.087834477424621582e-02
4.989244639873504639e-01 3.898853436112403870e-02 -8.155295252799987793e-02
-5.627722293138504028e-02 -2.001769840717315674e-03 2.674917131662368774e-02
-4.893359243869781494e-01 3.648740053176879883e-02 -2.412074804306030273e-01
1.486370339989662170e-03 -4.431210458278656006e-03 -2.302280664443969727e-01
-3.993216753005981445e-01 6.831860542297363281e-02 4.705531001091003418e-01
-7.616131007671356201e-02 2.462336048483848572e-02 3.976577520370483398e-01
-5.652338862419128418e-01 7.554206252098083496e-02 -5.152627825736999512e-03
5.059773474931716919e-02 1.595626771450042725e-01 3.095135092735290527e-01
-3.888168632984161377e-01 1.296162009239196777e-01 1.668875813484191895e-01
-5.082824230194091797e-01 9.903726726770401001e-02 -1.471927762031555176e-02
9.196358919143676758e-02 1.313681602478027344e-01 -1.246154606342315674e-01
1.353551447391510010e-01 8.381766825914382935e-02 7.534393668174743652e-01
4.084202349185943604e-01 1.469273865222930908e-01 3.929504752159118652e-01
1.410551667213439941e-01 1.209113448858261108e-01 -2.012532353401184082e-01
-3.505975753068923950e-02 3.486447036266326904e-03 -3.887693881988525391e-01
-2.139472514390945435e-01 9.416361153125762939e-02 -3.579679727554321289e-01
-1.496711820363998413e-01 9.450269490480422974e-02 -3.747768998146057129e-01
5.991198122501373291e-04 1.105465888977050781e-01 -2.955675423145294189e-01
4.032672196626663208e-02 1.576397120952606201e-01 5.759700536727905273e-01
5.271149873733520508e-01 4.108042642474174500e-02 3.430701047182083130e-02
4.611382186412811279e-01 2.900751680135726929e-02 -5.421838164329528809e-02
-4.769139587879180908e-01 8.740712702274322510e-02 -1.836230456829071045e-01
1.387946456670761108e-01 1.241438090801239014e-03 -2.653989493846893311e-01
3.469251692295074463e-01 1.576716825366020203e-02 1.072795689105987549e-01
3.027960360050201416e-01 1.153161376714706421e-02 9.133772552013397217e-02
-4.400443285703659058e-04 3.303614258766174316e-02 4.828296005725860596e-01
-3.830085694789886475e-01 4.489137604832649231e-02 3.645161688327789307e-01
1.482549756765365601e-01 -1.307256519794464111e-03 -8.847734332084655762e-02
-1.640005260705947876e-01 1.149618625640869141e-01 -2.413968145847320557e-01
-9.485216438770294189e-02 -4.707895219326019287e-03 -9.625506401062011719e-02
3.888616859912872314e-01 2.691106498241424561e-02 2.494317442178726196e-01
-8.429195731878280640e-02 1.241774782538414001e-01 7.533908486366271973e-01
3.769690096378326416e-01 8.184330910444259644e-02 -2.833578884601593018e-01
3.192322552204132080e-01 8.219564706087112427e-02 7.038568854331970215e-01
3.107310831546783447e-01 2.474361285567283630e-02 -3.267210125923156738e-01
-2.343413382768630981e-01 1.423939764499664307e-01 5.385841131210327148e-01
-3.412421047687530518e-01 6.988756358623504639e-03 -1.352882087230682373e-01
1.875900328159332275e-01 1.332005858421325684e-01 -7.986287772655487061e-02
-2.418692260980606079e-01 1.286085844039916992e-01 -7.721151411533355713e-02
-1.624182015657424927e-01 1.534827649593353271e-01 4.114562869071960449e-01
-4.088972806930541992e-01 1.118051111698150635e-01 -8.238933980464935303e-02
3.873269259929656982e-01 1.856921985745429993e-02 -1.044823378324508667e-01
8.393709361553192139e-02 -1.829162240028381348e-03 -2.511409223079681396e-01
1.730647981166839600e-01 1.413617432117462158e-01 1.918464899063110352e-03
2.091605663299560547e-01 3.861604258418083191e-02 5.042853355407714844e-01
-3.916075825691223145e-02 7.588945329189300537e-03 2.110221982002258301e-01
-2.718136906623840332e-01 1.525521278381347656e-03 -1.530094742774963379e-01
1.098785251379013062e-01 1.562380641698837280e-01 6.145207285881042480e-01
5.899279117584228516e-01 7.896722853183746338e-02 3.915272653102874756e-01
-2.900124490261077881e-01 1.119289547204971313e-02 -3.640335202217102051e-01
-1.781321913003921509e-01 9.414263069629669189e-03 1.847730278968811035e-01
2.861543186008930206e-02 1.469395756721496582e-01 4.652599990367889404e-02
-3.562038242816925049e-01 8.840641379356384277e-02 -3.110441267490386963e-01
4.206166267395019531e-01 5.344468355178833008e-02 -2.830169498920440674e-01
-1.578883230686187744e-01 1.515427231788635254e-01 5.050180554389953613e-01
4.932379350066184998e-03 2.574292197823524475e-02 -5.025742650032043457e-01
3.096014857292175293e-01 1.375185251235961914e-01 3.798367083072662354e-02
-1.403866112232208252e-01 1.256285309791564941e-01 7.222428321838378906e-01
-2.004507929086685181e-01 1.451088339090347290e-01 1.271157264709472656e-01
1.987158358097076416e-01 3.050588071346282959e-03 2.818421274423599243e-02
-5.739342421293258667e-02 3.813207149505615234e-05 7.592595368623733521e-02
4.450676143169403076e-01 1.405985653400421143e-01 2.851477861404418945e-01
-4.139821231365203857e-01 2.621265873312950134e-02 -3.275559544563293457e-01
-4.564575254917144775e-01 7.889214903116226196e-02 -2.591771483421325684e-01
-2.548854947090148926e-01 6.379862129688262939e-02 -4.606040120124816895e-01
-3.611408472061157227e-01 3.711518645286560059e-02 3.297194838523864746e-01
3.032611012458801270e-01 3.895768150687217712e-02 4.638497233390808105e-01
4.028267785906791687e-02 8.520689606666564941e-02 -4.242777228355407715e-01
-1.761692166328430176e-01 3.936318308115005493e-02 4.804356098175048828e-01
2.073704600334167480e-01 1.590569615364074707e-01 3.793510496616363525e-01
1.442970037460327148e-01 1.087550297379493713e-01 -2.836051285266876221e-01
5.281080007553100586e-01 1.277848482131958008e-01 2.737847566604614258e-01
2.596356272697448730e-01 1.417395621538162231e-01 5.199196934700012207e-02
1.610607206821441650e-01 6.050936877727508545e-03 1.437985301017761230e-01
-3.096608817577362061e-01 2.268699556589126587e-02 2.455395460128784180e-01
3.560952246189117432e-01 1.387638002634048462e-01 9.799955785274505615e-02
3.386020064353942871e-01 1.226060837507247925e-02 -8.322367072105407715e-02
1.972378641366958618e-01 8.625812083482742310e-02 7.534126639366149902e-01
-2.970466949045658112e-02 1.595171093940734863e-01 4.139605760574340820e-01
5.274779796600341797e-01 1.178044527769088745e-01 1.162223815917968750e-01
5.678813457489013672e-01 5.288817733526229858e-02 5.770383030176162720e-02
-2.634705305099487305e-01 1.459183245897293091e-01 3.121408820152282715e-01
-4.544833898544311523e-01 2.325999736785888672e-02 -1.987767219543457031e-01
2.447695732116699219e-01 1.547428667545318604e-01 2.641177177429199219e-01
-1.989680528640747070e-01 1.319546997547149658e-02 2.230336070060729980e-01
-4.157888293266296387e-01 3.829303383827209473e-02 2.730529308319091797e-01
-6.856927275657653809e-02 -5.001224577426910400e-03 -2.123939990997314453e-01
2.076848894357681274e-01 6.948405504226684570e-02 6.903913617134094238e-01
-5.336242318153381348e-01 4.403403028845787048e-02 -1.400859951972961426e-01
-1.947389096021652222e-01 5.514631420373916626e-02 5.680127739906311035e-01
-1.615596264600753784e-01 -2.944715321063995361e-03 -8.196848630905151367e-02
3.084426224231719971e-01 9.614072740077972412e-03 -2.992227673530578613e-03
-4.516116529703140259e-02 1.462251693010330200e-01 4.716349393129348755e-02
-3.942928612232208252e-01 5.756809562444686890e-02 4.282553791999816895e-01
-4.249391555786132812e-01 2.044139429926872253e-02 3.030433505773544312e-02
-8.128578960895538330e-02 -5.284965038299560547e-03 -1.681025922298431396e-01
3.169661760330200195e-01 1.150439754128456116e-01 -1.598603725433349609e-01
-3.829655647277832031e-01 1.137787103652954102e-02 -1.557123064994812012e-01
-4.016114771366119385e-01 2.452786266803741455e-02 1.484502255916595459e-01
-2.991263568401336670e-01 8.192709833383560181e-02 -3.790189623832702637e-01
-3.758807480335235596e-01 1.215606927871704102e-02 -3.164286911487579346e-02
3.648491501808166504e-01 1.747416332364082336e-02 -1.591104269027709961e-01
5.731688141822814941e-01 9.311324357986450195e-02 4.832572340965270996e-01
4.937459528446197510e-01 1.298193335533142090e-01 1.965304315090179443e-01
8.517899364233016968e-02 -3.494106233119964600e-03 -8.780747652053833008e-02
3.905843794345855713e-01 7.205549627542495728e-02 6.236840486526489258e-01
9.264173358678817749e-02 -7.754117250442504883e-04 2.951411902904510498e-02
6.525176018476486206e-02 -4.202269017696380615e-03 -1.535773277282714844e-01
2.517187893390655518e-01 9.512018412351608276e-02 -3.140852749347686768e-01
-8.396000415086746216e-02 1.561725735664367676e-01 2.811281085014343262e-01
-1.404348909854888916e-01 2.550173178315162659e-02 3.846948146820068359e-01
-3.467835485935211182e-02 -5.450315773487091064e-03 -1.281259655952453613e-01
-1.271977275609970093e-01 -4.296690225601196289e-03 -2.058305442333221436e-01
4.303585290908813477e-01 4.250342771410942078e-02 3.849364221096038818e-01
-4.835447967052459717e-01 1.073592379689216614e-01 2.122677117586135864e-02
-5.080128908157348633e-01 9.849508851766586304e-02 3.121789693832397461e-01
3.906868770718574524e-02 3.459109738469123840e-02 4.975996315479278564e-01
-5.597002506256103516e-01 5.617706105113029480e-02 6.166399270296096802e-02
-2.447060197591781616e-01 1.406967639923095703e-04 -1.143424510955810547e-01
3.467394113540649414e-01 1.338728964328765869e-01 7.061606049537658691e-01
2.821922302246093750e-01 1.422846913337707520e-01 7.013902068138122559e-01
4.005370736122131348e-01 4.648995399475097656e-02 4.536293148994445801e-01
3.044730722904205322e-01 1.360050588846206665e-02 1.396851986646652222e-01
8.448465913534164429e-02 2.766493335366249084e-02 4.381263852119445801e-01
3.156634569168090820e-01 1.324832439422607422e-02 -2.024096250534057617e-01
6.064229458570480347e-02 1.225709468126296997e-01 -2.047599554061889648e-01
8.505196869373321533e-02 1.006521135568618774e-01 -3.446320593357086182e-01
-3.070603311061859131e-01 1.353988349437713623e-01 4.989014267921447754e-01
6.383260712027549744e-03 2.564255148172378540e-02 4.204531013965606689e-01
9.248761087656021118e-02 5.651570856571197510e-03 1.710893362760543823e-01
6.060136556625366211e-01 1.050148233771324158e-01 3.030683398246765137e-01
3.161661326885223389e-02 1.304969191551208496e-03 -3.458626270294189453e-01
6.325159966945648193e-02 1.605942696332931519e-01 4.895150661468505859e-01
2.557277381420135498e-01 5.584493279457092285e-03 -5.564838647842407227e-03
9.912572801113128662e-02 1.485177874565124512e-01 7.008255124092102051e-01
-4.286775887012481689e-01 1.228602826595306396e-01 3.371939659118652344e-01
-4.896354377269744873e-01 2.853354066610336304e-02 -1.182669401168823242e-01
-1.206099987030029297e-01 7.284858077764511108e-02 6.781990528106689453e-01
3.039728403091430664e-01 1.538439989089965820e-01 5.324465632438659668e-01
-1.494372785091400146e-01 1.389493942260742188e-01 6.616615653038024902e-01
4.923101365566253662e-01 3.386155143380165100e-02 -2.728611230850219727e-03
4.079012274742126465e-01 2.010108530521392822e-02 -2.349087595939636230e-02
-4.111992716789245605e-01 1.246880218386650085e-01 1.153258085250854492e-01
1.645707339048385620e-01 1.376415193080902100e-01 -4.315216839313507080e-02
2.272766828536987305e-01 1.587981879711151123e-01 4.253618121147155762e-01
-1.159832328557968140e-01 1.262326091527938843e-01 -1.618191897869110107e-01
5.816635489463806152e-01 5.899149179458618164e-02 2.248798608779907227e-01
2.849583625793457031e-01 7.216513156890869141e-03 -8.975420892238616943e-02
-1.939823664724826813e-02 1.372056454420089722e-02 -4.628337025642395020e-01
-3.057484328746795654e-01 1.121035963296890259e-02 9.290280938148498535e-02
-2.766171395778656006e-01 1.286263763904571533e-01 -4.811930656433105469e-02
-1.469795703887939453e-01 5.207658559083938599e-02 5.728580951690673828e-01
-5.442183017730712891e-01 9.316840022802352905e-02 8.530502021312713623e-02
-7.298821955919265747e-02 1.537925601005554199e-01 -4.108596742153167725e-01
1.450942009687423706e-01 1.490242779254913330e-01 3.611613214015960693e-01
1.601231694221496582e-01 4.092715680599212646e-02 -1.459957063198089600e-01
-2.468569576740264893e-01 1.478312015533447266e-01 -3.233231604099273682e-01
-4.602385312318801880e-02 1.609550714492797852e-01 -3.824364840984344482e-01
2.552706301212310791e-01 1.518747657537460327e-01 -3.598704934120178223e-01
4.545861780643463135e-01 1.533593684434890747e-01 -6.192131713032722473e-02
1.772567927837371826e-01 1.716513186693191528e-01 3.080914020538330078e-01
2.473679333925247192e-01 5.871590226888656616e-02 9.452337771654129028e-02
4.256891310214996338e-01 5.088160932064056396e-02 -6.172646209597587585e-02
-4.170589894056320190e-02 8.458760380744934082e-02 -5.175010561943054199e-01
-2.232229113578796387e-01 1.053098291158676147e-01 -3.966112732887268066e-01
-1.418038904666900635e-01 1.339568644762039185e-01 2.501299679279327393e-01
-1.770162284374237061e-01 1.886965334415435791e-01 -2.094338089227676392e-02
3.816158324480056763e-02 4.733932018280029297e-02 -3.363328576087951660e-01
-2.779759466648101807e-01 1.365872919559478760e-01 -3.119304180145263672e-01
-1.247003003954887390e-01 6.439171731472015381e-02 -2.238490283489227295e-01
