-2.004380077123641968e-01 -1.344246417284011841e-01 -2.101679146289825439e-01
-2.379573136568069458e-01 -1.616223007440567017e-01 -4.036737084388732910e-01
-2.055831998586654663e-01 -1.368817090988159180e-01 -1.369630694389343262e-01
-1.900497227907180786e-01 -1.894489228725433350e-01 8.248651027679443359e-02
-9.000781178474426270e-02 -2.234459370374679565e-01 -1.691858321428298950e-01
-1.394684463739395142e-01 -2.341572046279907227e-01 -2.024549245834350586e-01
-1.395533829927444458e-01 -2.340823709964752197e-01 -2.504816651344299316e-01
-2.326592653989791870e-01 -1.679797172546386719e-01 -1.038922592997550964e-01
-1.278217881917953491e-01 -2.291883826255798340e-01 -3.569371104240417480e-01
-1.223162114620208740e-01 -1.507885009050369263e-01 2.412852644920349121e-02
-2.028771042823791504e-01 -1.564967036247253418e-01 4.037421941757202148e-02
-1.056359261274337769e-01 -1.739633232355117798e-01 1.242222189903259277e-01
-1.608758866786956787e-01 -2.234945148229598999e-01 -4.471314549446105957e-01
-9.954570233821868896e-02 -1.735574603080749512e-01 -3.266624212265014648e-01
-2.088091224431991577e-01 -2.146794646978378296e-01 -3.043450713157653809e-01
-1.889734566211700439e-01 -2.175475060939788818e-01 -9.503378719091415405e-02
-1.379083991050720215e-01 -1.977955549955368042e-01 -5.326481461524963379e-01
-1.984473764896392822e-01 -1.935164928436279297e-01 3.676936030387878418e-02
-1.432408094406127930e-01 -1.438600718975067139e-01 -3.071363568305969238e-01
-1.787054240703582764e-01 -1.591595858335494995e-01 -5.233945250511169434e-01
-8.636793494224548340e-02 -2.196762263774871826e-01 -7.733584940433502197e-02
-1.909998655319213867e-01 -1.495602130889892578e-01 4.735808074474334717e-02
-9.269509464502334595e-02 -2.119380682706832886e-01 4.840129613876342773e-02
-1.385559886693954468e-01 -2.284315973520278931e-01 -4.480166733264923096e-02
-1.103418022394180298e-01 -2.316551804542541504e-01 -1.761350631713867188e-01
-2.129961997270584106e-01 -1.497309207916259766e-01 -4.530649781227111816e-01
-8.616070449352264404e-02 -2.142813205718994141e-01 -2.614894509315490723e-01
-8.387549966573715210e-02 -2.009280174970626831e-01 -2.856670916080474854e-01
-1.181983798742294312e-01 -1.497199237346649170e-01 -2.848543226718902588e-02
-2.072364091873168945e-01 -2.143653035163879395e-01 -3.677926659584045410e-01
-2.405028641223907471e-01 -1.837881654500961304e-01 -3.038622140884399414e-01
-1.817556023597717285e-01 -2.066775858402252197e-01 3.621762990951538086e-02
-1.784027814865112305e-01 -1.725382953882217407e-01 -5.686996579170227051e-01
-1.511407643556594849e-01 -1.368868052959442139e-01 -1.229143664240837097e-01
-8.538737893104553223e-02 -1.723630130290985107e-01 -1.281416416168212891e-01
-1.009239926934242249e-01 -1.793496757745742798e-01 -3.661267757415771484e-01
-1.026500836014747620e-01 -2.231734544038772583e-01 -3.181268572807312012e-01
-1.209206432104110718e-01 -1.539433896541595459e-01 -3.045835793018341064e-01
-1.833627074956893921e-01 -2.088028341531753540e-01 1.610608398914337158e-02
-8.123224228620529175e-02 -1.905804723501205444e-01 -2.448381930589675903e-01
-1.388100981712341309e-01 -1.401691436767578125e-01 -1.636821925640106201e-01
-1.936815083026885986e-01 -1.750714927911758423e-01 9.370696544647216797e-02
-1.378993839025497437e-01 -1.763382554054260254e-01 -5.122140645980834961e-01
-1.392419934272766113e-01 -2.047443091869354248e-01 1.347899436950683594e-01
-1.454174369573593140e-01 -1.571610569953918457e-01 -4.480979442596435547e-01
-1.545130610466003418e-01 -1.367125064134597778e-01 -9.317674487829208374e-02
-1.897202581167221069e-01 -1.987107694149017334e-01 4.947403073310852051e-02
-2.063652575016021729e-01 -1.741200536489486694e-01 4.804334044456481934e-02
-1.216171085834503174e-01 -1.473121643066406250e-01 -5.538360774517059326e-02
-1.504722833633422852e-01 -2.222852408885955811e-01 6.801113486289978027e-03
-1.650982648134231567e-01 -1.425260007381439209e-01 3.088663518428802490e-02
-1.020003929734230042e-01 -1.581511795520782471e-01 -1.595404893159866333e-01
-1.975204646587371826e-01 -1.343337446451187134e-01 -1.687930226325988770e-01
-1.432494223117828369e-01 -1.412110924720764160e-01 -2.776420116424560547e-02
-2.023812234401702881e-01 -1.664066761732101440e-01 6.217482686042785645e-02
-9.713298082351684570e-02 -2.260175049304962158e-01 -2.293870002031326294e-01
-1.009446382522583008e-01 -1.735827624797821045e-01 1.044836342334747314e-01
-1.739370375871658325e-01 -1.346350461244583130e-01 -2.557063996791839600e-01
-1.913608610630035400e-01 -2.214458286762237549e-01 -1.861185133457183838e-01
-8.344840258359909058e-02 -2.119750082492828369e-01 -2.470436096191406250e-01
-2.369117438793182373e-01 -1.891186088323593140e-01 -3.543076515197753906e-01
-2.232134640216827393e-01 -1.422631740570068359e-01 -3.109526634216308594e-01
-1.142952442169189453e-01 -2.323316037654876709e-01 -2.145075798034667969e-01
-2.050306349992752075e-01 -1.980132162570953369e-01 -5.349340438842773438e-01
-2.224410623311996460e-01 -1.456355750560760498e-01 -3.790115714073181152e-01
-2.380710095167160034e-01 -1.526970416307449341e-01 -2.717473506927490234e-01
-1.897295415401458740e-01 -1.529486179351806641e-01 -4.956039786338806152e-01
-2.165161818265914917e-01 -1.390246301889419556e-01 -1.853529959917068481e-01
-1.974897086620330811e-01 -2.002398669719696045e-01 8.773788809776306152e-03
-1.569982022047042847e-01 -1.480123698711395264e-01 -4.113435447216033936e-01
-1.223375350236892700e-01 -1.809786111116409302e-01 1.719515323638916016e-01
-1.578252911567687988e-01 -1.502262055873870850e-01 -4.329681694507598877e-01
-2.257186472415924072e-01 -1.595893204212188721e-01 -4.725517928600311279e-01
-1.013941690325737000e-01 -1.633417159318923950e-01 3.658927977085113525e-02
-2.333449721336364746e-01 -1.942441463470458984e-01 -2.723238170146942139e-01
-1.392310857772827148e-01 -1.403106898069381714e-01 -1.835449039936065674e-01
-7.751051336526870728e-02 -2.108683288097381592e-01 -1.037921756505966187e-01
-2.072097361087799072e-01 -2.121843993663787842e-01 -1.694972515106201172e-01
-1.469141244888305664e-01 -2.324754893779754639e-01 -1.465101391077041626e-01
-1.014387011528015137e-01 -2.106937319040298462e-01 8.444008231163024902e-02
-1.186814159154891968e-01 -2.329325228929519653e-01 -1.578373163938522339e-01
-1.207459419965744019e-01 -2.331673949956893921e-01 -2.354165017604827881e-01
-1.807285100221633911e-01 -1.413654536008834839e-01 7.700085639953613281e-03
-1.270472258329391479e-01 -2.132135331630706787e-01 -4.730690419673919678e-01
-1.413108408451080322e-01 -2.335392832756042480e-01 -1.666155457496643066e-01
-1.550768166780471802e-01 -1.500077247619628906e-01 9.153056144714355469e-02
-1.926911175251007080e-01 -2.224581837654113770e-01 -2.522717416286468506e-01
-1.493665277957916260e-01 -1.484017223119735718e-01 7.635051012039184570e-02
-1.930320113897323608e-01 -2.187228798866271973e-01 -4.140300750732421875e-01
-1.412821710109710693e-01 -1.676794290542602539e-01 -4.918460249900817871e-01
-2.090362012386322021e-01 -2.135041356086730957e-01 -2.269255220890045166e-01
-8.849612623453140259e-02 -1.685723960399627686e-01 -9.718280285596847534e-02
-1.756427288055419922e-01 -2.221577614545822144e-01 -7.968906313180923462e-02
-1.808324307203292847e-01 -1.660073697566986084e-01 1.228853762149810791e-01
-8.627858012914657593e-02 -1.721351742744445801e-01 -1.533379852771759033e-01
-1.604200303554534912e-01 -1.956885010004043579e-01 -5.691096782684326172e-01
-1.372611671686172485e-01 -2.329937517642974854e-01 -3.009220361709594727e-01
-2.245766073465347290e-01 -2.028096616268157959e-01 -3.582112789154052734e-01
-1.931802332401275635e-01 -1.454772055149078369e-01 -4.403719305992126465e-01
-2.076926529407501221e-01 -1.835941076278686523e-01 -5.599799156188964844e-01
-1.127040237188339233e-01 -1.547077447175979614e-01 -2.446462661027908325e-01
-1.694281250238418579e-01 -2.285308837890625000e-01 -3.499622642993927002e-01
-1.780233532190322876e-01 -2.268387973308563232e-01 -1.936447769403457642e-01
-1.088820695877075195e-01 -2.309421300888061523e-01 -1.387342810630798340e-01
-7.747959345579147339e-02 -2.093091309070587158e-01 -1.670368611812591553e-01
-1.140879243612289429e-01 -2.231472134590148926e-01 1.773299276828765869e-02
-2.113453149795532227e-01 -1.896572560071945190e-01 -1.021111011505126953e-02
-1.784894615411758423e-01 -2.038855403661727905e-01 -5.556050539016723633e-01
-1.757130920886993408e-01 -2.254375070333480835e-01 -3.890669047832489014e-01
-2.287637293338775635e-01 -1.444117277860641479e-01 -2.407497167587280273e-01
-1.564843058586120605e-01 -1.529701203107833862e-01 1.095025539398193359e-01
-2.175538241863250732e-01 -1.476997435092926025e-01 -4.231702089309692383e-01
-7.646657526493072510e-02 -1.885936409235000610e-01 -4.557578265666961670e-02
-1.017227992415428162e-01 -2.179092615842819214e-01 -3.544399142265319824e-01
-2.034577578306198120e-01 -1.362851262092590332e-01 -2.965551912784576416e-01
-9.738191217184066772e-02 -2.271179258823394775e-01 -1.247262507677078247e-01
-2.385292947292327881e-01 -1.583789139986038208e-01 -1.917354166507720947e-01
-1.523977518081665039e-01 -2.325524687767028809e-01 -1.776907145977020264e-01
-1.583283692598342896e-01 -1.378112435340881348e-01 -4.400771856307983398e-02
-2.341441661119461060e-01 -1.768005341291427612e-01 -4.603267610073089600e-01
-1.833596527576446533e-01 -2.185098081827163696e-01 -4.584501981735229492e-01
-2.030669748783111572e-01 -2.171967625617980957e-01 -3.453561365604400635e-01
-1.018391102552413940e-01 -2.255091667175292969e-01 -2.845457494258880615e-01
-2.423374205827713013e-01 -1.719100773334503174e-01 -2.311596572399139404e-01
-2.350880801677703857e-01 -1.888715475797653198e-01 -2.156385183334350586e-01
-1.594384759664535522e-01 -1.368187814950942993e-01 -2.545810937881469727e-01
-1.141160652041435242e-01 -2.045748829841613770e-01 -4.559485912322998047e-01
-2.299149781465530396e-01 -1.463334113359451294e-01 -3.220365941524505615e-01
-1.171420812606811523e-01 -2.125347554683685303e-01 -4.460139274597167969e-01
-1.027894690632820129e-01 -1.649702638387680054e-01 -2.836631536483764648e-01
-1.348562687635421753e-01 -1.685512065887451172e-01 -4.757400453090667725e-01
-9.181042760610580444e-02 -1.669631451368331909e-01 -1.701386719942092896e-01
-9.678259491920471191e-02 -2.219045460224151611e-01 -1.976335048675537109e-02
-1.227171570062637329e-01 -2.294919937849044800e-01 -3.373427987098693848e-01
-9.549123048782348633e-02 -1.629232466220855713e-01 -4.908105731010437012e-02
-9.237863868474960327e-02 -1.699241846799850464e-01 -2.274275124073028564e-01
-1.895516961812973022e-01 -1.873746812343597412e-01 -5.808025598526000977e-01
-1.492947489023208618e-01 -1.762963086366653442e-01 1.746621429920196533e-01
-1.824223101139068604e-01 -2.211391627788543701e-01 -4.302198290824890137e-01
-1.611065566539764404e-01 -2.286123633384704590e-01 -3.780961036682128906e-01
-1.919219642877578735e-01 -1.464235633611679077e-01 2.611121535301208496e-02
-2.294844388961791992e-01 -1.989455372095108032e-01 -3.239113986492156982e-01
-1.646719276905059814e-01 -1.429142504930496216e-01 -3.791948854923248291e-01
-2.074403166770935059e-01 -1.576611101627349854e-01 2.657163143157958984e-02
-1.669341623783111572e-01 -1.652081906795501709e-01 -5.361065268516540527e-01
-1.907982230186462402e-01 -2.091001868247985840e-01 -1.891657710075378418e-02
-1.657533794641494751e-01 -1.440566033124923706e-01 4.562367498874664307e-02
-1.944818198680877686e-01 -1.723383963108062744e-01 -5.684992074966430664e-01
-1.064274460077285767e-01 -2.069054692983627319e-01 -4.201669991016387939e-01
-2.361652553081512451e-01 -1.909638792276382446e-01 -2.914077639579772949e-01
-1.057735234498977661e-01 -1.687002629041671753e-01 -3.384292721748352051e-01
-9.362910687923431396e-02 -1.998184323310852051e-01 9.970194101333618164e-02
-1.122896075248718262e-01 -2.283106446266174316e-01 -5.233345925807952881e-02
-1.289787441492080688e-01 -1.469287574291229248e-01 -2.608651220798492432e-01
-8.137054741382598877e-02 -2.080926299095153809e-01 -9.432435035705566406e-04
-1.978894919157028198e-01 -2.193728834390640259e-01 -2.167845815420150757e-01
-1.729419976472854614e-01 -1.564026772975921631e-01 -5.033324956893920898e-01
-1.456651091575622559e-01 -2.338895648717880249e-01 -2.273993194103240967e-01
-7.950557023286819458e-02 -2.074329107999801636e-01 -1.691505312919616699e-02
-2.015200555324554443e-01 -1.508393287658691406e-01 -4.783717393875122070e-01
-1.097077056765556335e-01 -1.579200029373168945e-01 -2.636577486991882324e-01
5.125135779380798340e-01 -7.020191550254821777e-01 -1.437536031007766724e-01
4.130538105964660645e-01 -7.020086646080017090e-01 -1.094208955764770508e-01
4.134085178375244141e-01 -6.924275159835815430e-01 -7.334835827350616455e-02
4.343969523906707764e-01 -8.166186809539794922e-01 -1.123652160167694092e-01
4.284394085407257080e-01 -7.198030352592468262e-01 1.923811584711074829e-01
5.057195425033569336e-01 -6.447071433067321777e-01 1.842403411865234375e-01
5.012922286987304688e-01 -6.450415849685668945e-01 -2.781435847282409668e-01
4.226444661617279053e-01 -7.075771093368530273e-01 1.474938541650772095e-01
5.028078556060791016e-01 -6.750882863998413086e-01 -2.649457156658172607e-01
4.568389058113098145e-01 -5.803703069686889648e-01 5.461883172392845154e-02
4.239170849323272705e-01 -7.131664156913757324e-01 1.610186845064163208e-01
4.688534438610076904e-01 -6.346746087074279785e-01 2.407831251621246338e-01
4.242982864379882812e-01 -8.028398156166076660e-01 -1.166437715291976929e-01
4.225480258464813232e-01 -8.061388731002807617e-01 8.198510855436325073e-03
4.133314490318298340e-01 -6.948019862174987793e-01 -1.630959473550319672e-02
4.315384030342102051e-01 -7.717020511627197266e-01 -2.459811419248580933e-01
4.162266850471496582e-01 -7.327755689620971680e-01 -1.872215270996093750e-01
4.779342114925384521e-01 -5.828444361686706543e-01 1.387824714183807373e-01
4.543203115463256836e-01 -8.234962224960327148e-01 5.298612639307975769e-02
5.103141069412231445e-01 -7.284507155418395996e-01 3.644787147641181946e-02
5.193039774894714355e-01 -6.228097081184387207e-01 2.855038270354270935e-02
4.619341492652893066e-01 -5.695142149925231934e-01 1.443768665194511414e-02
4.309515655040740967e-01 -6.275240182876586914e-01 3.664450719952583313e-02
5.159810185432434082e-01 -6.648519039154052734e-01 1.041096895933151245e-01
4.928278028964996338e-01 -7.429082393646240234e-01 -2.287169694900512695e-01
5.171426534652709961e-01 -6.960662603378295898e-01 -5.733555555343627930e-02
4.614400565624237061e-01 -7.925592660903930664e-01 -2.239216417074203491e-01
4.819180965423583984e-01 -6.802354454994201660e-01 -3.397635817527770996e-01
5.040093660354614258e-01 -7.412850260734558105e-01 9.625107049942016602e-02
4.354390203952789307e-01 -7.224787473678588867e-01 -3.063130378723144531e-01
5.211793184280395508e-01 -6.563585996627807617e-01 -4.124120995402336121e-02
4.644031822681427002e-01 -6.099023818969726562e-01 -2.992134988307952881e-01
4.673064649105072021e-01 -8.183108568191528320e-01 7.394950836896896362e-03
5.099781155586242676e-01 -5.913307070732116699e-01 7.000355422496795654e-02
5.071958303451538086e-01 -6.838734149932861328e-01 1.750939041376113892e-01
4.561631679534912109e-01 -8.160994648933410645e-01 1.047158688306808472e-01
4.384236931800842285e-01 -7.849708199501037598e-01 -2.404312193393707275e-01
5.101793408393859863e-01 -7.040581107139587402e-01 -1.696221381425857544e-01
5.184805989265441895e-01 -6.635302901268005371e-01 -1.219983100891113281e-01
5.207117795944213867e-01 -6.406272649765014648e-01 -8.110186457633972168e-02
4.935618042945861816e-01 -7.263819575309753418e-01 2.129219174385070801e-01
4.746111333370208740e-01 -5.935299992561340332e-01 -2.763187885284423828e-01
4.116607308387756348e-01 -7.177075743675231934e-01 -1.030994504690170288e-01
5.003944635391235352e-01 -7.076231241226196289e-01 1.988393515348434448e-01
4.346285164356231689e-01 -7.886883020401000977e-01 -2.216365933418273926e-01
4.251418709754943848e-01 -7.972653508186340332e-01 -1.496359854936599731e-01
4.518054127693176270e-01 -5.976684689521789551e-01 -2.269917875528335571e-01
4.446397721767425537e-01 -5.919733047485351562e-01 -2.212781459093093872e-03
4.531010389328002930e-01 -5.803557634353637695e-01 -1.440298706293106079e-01
5.146661400794982910e-01 -6.091449856758117676e-01 -1.521424949169158936e-01
4.127605557441711426e-01 -7.412330508232116699e-01 -1.359768062829971313e-01
4.180722832679748535e-01 -6.846451163291931152e-01 6.384991109371185303e-02
4.184094369411468506e-01 -7.909572124481201172e-01 -1.015608608722686768e-01
4.209260046482086182e-01 -6.764380335807800293e-01 8.353392779827117920e-02
4.256605505943298340e-01 -7.908095121383666992e-01 -1.751642823219299316e-01
4.655037820339202881e-01 -8.187127113342285156e-01 -5.850512906908988953e-02
4.564184248447418213e-01 -6.136790513992309570e-01 1.771281957626342773e-01
4.242904782295227051e-01 -6.414220333099365234e-01 -1.775322295725345612e-02
4.159811735153198242e-01 -7.701082825660705566e-01 6.785425543785095215e-02
4.585283994674682617e-01 -5.699138641357421875e-01 -3.174144774675369263e-02
4.250670075416564941e-01 -6.641271114349365234e-01 -2.113378494977951050e-01
4.211839437484741211e-01 -7.236317396163940430e-01 1.447684466838836670e-01
5.061085224151611328e-01 -5.911020636558532715e-01 9.961111843585968018e-02
4.234967827796936035e-01 -6.767714619636535645e-01 1.135559976100921631e-01
4.718580245971679688e-01 -5.672459006309509277e-01 5.829754099249839783e-02
5.129432082176208496e-01 -6.810436844825744629e-01 -1.789471358060836792e-01
4.337088465690612793e-01 -6.306612491607666016e-01 -2.055829912424087524e-01
4.160612523555755615e-01 -7.856412529945373535e-01 -8.299864828586578369e-02
4.791679084300994873e-01 -5.555577278137207031e-01 -9.396984428167343140e-02
4.883406758308410645e-01 -7.625539898872375488e-01 -2.041523158550262451e-01
4.139317572116851807e-01 -7.502267360687255859e-01 6.481394171714782715e-02
4.232107698917388916e-01 -6.578063368797302246e-01 -1.716200709342956543e-01
4.651781916618347168e-01 -7.752926349639892578e-01 -2.628562748432159424e-01
4.996275901794433594e-01 -6.724517345428466797e-01 -2.831579446792602539e-01
4.324930906295776367e-01 -7.001786231994628906e-01 2.048871070146560669e-01
4.698667228221893311e-01 -5.774832963943481445e-01 1.045559644699096680e-01
4.722439050674438477e-01 -8.021026849746704102e-01 -1.449511796236038208e-01
4.113712608814239502e-01 -7.518867850303649902e-01 -9.039787948131561279e-02
4.237385094165802002e-01 -8.061649203300476074e-01 3.308294340968132019e-02
5.080972909927368164e-01 -5.724125504493713379e-01 -3.883856534957885742e-02
4.817121624946594238e-01 -7.407108545303344727e-01 2.395417690277099609e-01
4.347057640552520752e-01 -6.464349031448364258e-01 1.428070217370986938e-01
4.803579449653625488e-01 -7.643481492996215820e-01 -2.422382533550262451e-01
4.172336459159851074e-01 -6.726598739624023438e-01 -1.374531537294387817e-03
4.708197414875030518e-01 -8.071599602699279785e-01 9.724810719490051270e-02
4.193487465381622314e-01 -7.763636708259582520e-01 9.552712738513946533e-02
5.144976973533630371e-01 -6.869825124740600586e-01 1.012224406003952026e-01
4.955561161041259766e-01 -7.430575489997863770e-01 -2.096932679414749146e-01
4.982152283191680908e-01 -6.927097439765930176e-01 2.212841808795928955e-01
4.343509376049041748e-01 -6.572425365447998047e-01 1.631711721420288086e-01
5.111314058303833008e-01 -6.612969040870666504e-01 1.534028798341751099e-01
5.093210339546203613e-01 -6.916425824165344238e-01 1.518716961145401001e-01
4.960497915744781494e-01 -7.260053157806396484e-01 -2.441688030958175659e-01
4.179952740669250488e-01 -6.961246132850646973e-01 8.706796169281005859e-02
4.738611876964569092e-01 -5.583590865135192871e-01 -1.271635293960571289e-02
4.935144782066345215e-01 -5.751460194587707520e-01 1.007529646158218384e-01
4.739590883255004883e-01 -7.766881585121154785e-01 -2.350481599569320679e-01
4.457776546478271484e-01 -8.276360034942626953e-01 -2.250455133616924286e-02
4.904894530773162842e-01 -6.363604068756103516e-01 2.312639057636260986e-01
4.137120246887207031e-01 -6.917589306831359863e-01 -8.820866793394088745e-02
4.292832612991333008e-01 -6.258347034454345703e-01 -1.065344661474227905e-01
4.561351239681243896e-01 -6.335032582283020020e-01 2.165224850177764893e-01
4.207002520561218262e-01 -7.702701687812805176e-01 1.185840219259262085e-01
4.356231689453125000e-01 -7.020639777183532715e-01 2.205563783645629883e-01
4.624242782592773438e-01 -7.591232657432556152e-01 2.485538721084594727e-01
4.196477234363555908e-01 -7.077402472496032715e-01 -2.167803794145584106e-01
4.901452660560607910e-01 -6.783202290534973145e-01 2.527185380458831787e-01
4.652841389179229736e-01 -5.731756687164306641e-01 -1.878883391618728638e-01
4.601317644119262695e-01 -8.034796714782714844e-01 -1.881359219551086426e-01
4.153767228126525879e-01 -6.891475915908813477e-01 2.586674317717552185e-02
4.624408185482025146e-01 -6.344358325004577637e-01 -3.318755924701690674e-01
4.391035735607147217e-01 -6.528044939041137695e-01 1.829155236482620239e-01
4.416802525520324707e-01 -8.163988590240478516e-01 9.945891797542572021e-02
5.144548416137695312e-01 -5.883914828300476074e-01 -3.514704108238220215e-02
4.442156553268432617e-01 -5.903459787368774414e-01 -4.558733105659484863e-02
4.623165130615234375e-01 -7.630388140678405762e-01 -2.921474874019622803e-01
4.479050338268280029e-01 -6.113073825836181641e-01 1.317712366580963135e-01
5.092983245849609375e-01 -6.227769851684570312e-01 -2.202710509300231934e-01
4.696962535381317139e-01 -5.598088502883911133e-01 -3.203058987855911255e-02
5.193052887916564941e-01 -6.118344068527221680e-01 -2.554097771644592285e-02
4.155239462852478027e-01 -6.778523325920104980e-01 -5.323334038257598877e-02
4.216530025005340576e-01 -7.552155256271362305e-01 -2.182264328002929688e-01
4.139903783798217773e-01 -7.282884120941162109e-01 -1.590847074985504150e-01
5.143405199050903320e-01 -5.994409322738647461e-01 -1.313448846340179443e-01
4.255370795726776123e-01 -6.977652311325073242e-01 -2.573249638080596924e-01
4.361672997474670410e-01 -6.068769097328186035e-01 -8.520899713039398193e-02
4.953183829784393311e-01 -6.824248433113098145e-01 -2.977690398693084717e-01
4.825323224067687988e-01 -6.218708157539367676e-01 2.247030138969421387e-01
4.485976397991180420e-01 -6.528959870338439941e-01 2.233122587203979492e-01
4.163641333580017090e-01 -7.627971768379211426e-01 8.495949208736419678e-02
4.727904498577117920e-01 -7.623431086540222168e-01 2.304936051368713379e-01
5.069587826728820801e-01 -5.995389223098754883e-01 1.167470514774322510e-01
4.389773607254028320e-01 -6.321788430213928223e-01 1.367288082838058472e-01
4.965934753417968750e-01 -7.556958794593811035e-01 -1.597498655319213867e-01
4.115104377269744873e-01 -7.107618451118469238e-01 -2.504704147577285767e-02
4.494999051094055176e-01 -6.788225173950195312e-01 -3.425029516220092773e-01
4.664748013019561768e-01 -6.012141108512878418e-01 1.743324995040893555e-01
4.424379169940948486e-01 -6.654309630393981934e-01 2.169498205184936523e-01
5.053576827049255371e-01 -5.939373373985290527e-01 -2.029947787523269653e-01
4.110167026519775391e-01 -7.554237246513366699e-01 -2.065987698733806610e-02
4.953230023384094238e-01 -7.648446559906005859e-01 1.038384437561035156e-01
5.110968351364135742e-01 -5.790375471115112305e-01 -6.328179687261581421e-02
5.196750760078430176e-01 -6.188025474548339844e-01 -7.651962339878082275e-02
4.846214354038238525e-01 -7.575737833976745605e-01 2.016258984804153442e-01
4.790486693382263184e-01 -5.882132053375244141e-01 1.559162586927413940e-01
5.053522586822509766e-01 -6.672530770301818848e-01 1.921316087245941162e-01
4.213544130325317383e-01 -8.044852018356323242e-01 -4.691212624311447144e-02
4.290396571159362793e-01 -6.249547600746154785e-01 -7.521193474531173706e-02
4.191874563694000244e-01 -7.296795248985290527e-01 -2.165732681751251221e-01
4.541205465793609619e-01 -6.228345036506652832e-01 1.900329738855361938e-01
4.351909458637237549e-01 -7.968714237213134766e-01 1.499413400888442993e-01
4.210667014122009277e-01 -6.706221103668212891e-01 -1.793865710496902466e-01
4.653206169605255127e-01 -6.785595417022705078e-01 -3.570495545864105225e-01
4.963729679584503174e-01 -6.636502742767333984e-01 -3.001219332218170166e-01
4.711675345897674561e-01 -7.314485907554626465e-01 2.688035368919372559e-01
4.988368451595306396e-01 -5.899267792701721191e-01 -2.281794250011444092e-01
5.164709687232971191e-01 -6.970064043998718262e-01 3.593930229544639587e-02
4.542502760887145996e-01 -5.764225721359252930e-01 -1.181589066982269287e-01
4.577534198760986328e-01 -5.825560092926025391e-01 -1.972406655550003052e-01
4.114295542240142822e-01 -7.492356896400451660e-01 1.318274810910224915e-02
5.176695585250854492e-01 -6.793995499610900879e-01 -1.101289242506027222e-01
4.749285280704498291e-01 -8.091777563095092773e-01 3.491019830107688904e-02
4.896511137485504150e-01 -7.693110704421997070e-01 -1.703339815139770508e-01
5.144574642181396484e-01 -6.516333222389221191e-01 -1.855683177709579468e-01
4.255895316600799561e-01 -6.485716700553894043e-01 5.714780464768409729e-02
4.634660184383392334e-01 -6.028612852096557617e-01 -2.832446694374084473e-01
4.316515922546386719e-01 -7.832193970680236816e-01 1.653564125299453735e-01
4.730495512485504150e-01 -5.572377443313598633e-01 -5.643452703952789307e-02
5.167281031608581543e-01 -6.573909521102905273e-01 -1.558233797550201416e-01
4.653524756431579590e-01 -7.995196580886840820e-01 1.567801833152770996e-01
5.101351737976074219e-01 -7.085430622100830078e-01 1.171094328165054321e-01
4.834879636764526367e-01 -5.544494390487670898e-01 -3.930336982011795044e-02
4.340547919273376465e-01 -6.813790798187255859e-01 -2.945856750011444092e-01
4.826420843601226807e-01 -6.007719635963439941e-01 1.871493309736251831e-01
4.952287971973419189e-01 -7.750411629676818848e-01 -4.923868551850318909e-02
4.324468374252319336e-01 -7.636780142784118652e-01 1.955986022949218750e-01
4.304042160511016846e-01 -8.191054463386535645e-01 -2.601630985736846924e-03
4.257804751396179199e-01 -7.704597115516662598e-01 -2.220081239938735962e-01
4.181501567363739014e-01 -6.841176748275756836e-01 -1.698964536190032959e-01
4.986551105976104736e-01 -7.311580181121826172e-01 1.759654432535171509e-01
5.133644938468933105e-01 -5.871944427490234375e-01 -8.778765052556991577e-02
5.101516842842102051e-01 -6.757437586784362793e-01 1.572263836860656738e-01
5.098672509193420410e-01 -7.321690917015075684e-01 1.607610285282135010e-02
4.981130957603454590e-01 -7.619810700416564941e-01 -1.086863130331039429e-01
5.150539278984069824e-01 -6.636176705360412598e-01 -1.729950457811355591e-01
4.925929605960845947e-01 -7.567393183708190918e-01 1.586783230304718018e-01
4.107986092567443848e-01 -7.188563942909240723e-01 -5.061081051826477051e-02
4.497924745082855225e-01 -5.819174647331237793e-01 -2.384360134601593018e-02
4.261484742164611816e-01 -7.358560562133789062e-01 -2.611319124698638916e-01
5.013315677642822266e-01 -5.684970617294311523e-01 -1.358743906021118164e-01
4.187403619289398193e-01 -6.650222539901733398e-01 -1.103073060512542725e-01
4.149398505687713623e-01 -6.984032392501831055e-01 4.361120983958244324e-02
4.924131929874420166e-01 -5.889156460762023926e-01 1.474526375532150269e-01
4.423330724239349365e-01 -5.979487895965576172e-01 1.480444520711898804e-02
4.685859382152557373e-01 -5.658059120178222656e-01 -1.564368903636932373e-01
4.197454750537872314e-01 -6.575880050659179688e-01 -7.922649383544921875e-02
4.814269840717315674e-01 -7.151831388473510742e-01 2.632718980312347412e-01
5.064167976379394531e-01 -7.167965769767761230e-01 -1.813767999410629272e-01
4.396024644374847412e-01 -6.056051254272460938e-01 3.165077790617942810e-02
4.168044328689575195e-01 -7.904677391052246094e-01 1.199498772621154785e-03
4.429083168506622314e-01 -6.931011676788330078e-01 -3.309696614742279053e-01
5.077327489852905273e-01 -6.803976297378540039e-01 -2.281166613101959229e-01
5.016519427299499512e-01 -5.660405158996582031e-01 9.875379502773284912e-03
4.973064363002777100e-01 -6.124490499496459961e-01 1.841236799955368042e-01
4.633369445800781250e-01 -5.979442000389099121e-01 1.574735492467880249e-01
4.310170114040374756e-01 -6.345400810241699219e-01 7.219634950160980225e-02
4.487850368022918701e-01 -6.217076182365417480e-01 -2.787936925888061523e-01
4.167454242706298828e-01 -6.720041632652282715e-01 -8.079637587070465088e-02
4.995353817939758301e-01 -7.555338144302368164e-01 -1.244394332170486450e-01
4.125015735626220703e-01 -7.166238427162170410e-01 -1.249793618917465210e-01
4.290883541107177734e-01 -6.452277898788452148e-01 8.961386978626251221e-02
4.249308109283447266e-01 -6.580101847648620605e-01 -1.949642300605773926e-01
4.498777985572814941e-01 -6.111140251159667969e-01 -2.587126493453979492e-01
4.121673703193664551e-01 -7.542231082916259766e-01 -1.084883958101272583e-01
4.483025372028350830e-01 -6.395130753517150879e-01 2.013045400381088257e-01
5.090132355690002441e-01 -7.173764705657958984e-01 -1.489519923925399780e-01
4.626237750053405762e-01 -8.180092573165893555e-01 -9.412415325641632080e-02
5.206399559974670410e-01 -6.405866146087646484e-01 2.050919830799102783e-02
4.107802212238311768e-01 -7.491697669029235840e-01 -7.093438506126403809e-02
4.212985038757324219e-01 -6.636168360710144043e-01 4.920255765318870544e-02
4.113318324089050293e-01 -7.205697298049926758e-01 6.833933293819427490e-04
4.150109589099884033e-01 -7.429137229919433594e-01 8.381688594818115234e-02
4.700486660003662109e-01 -8.155609369277954102e-01 -3.658488392829895020e-02
4.448658823966979980e-01 -7.643136978149414062e-01 -2.894503176212310791e-01
4.311884045600891113e-01 -6.637018322944641113e-01 -2.603737413883209229e-01
4.131199121475219727e-01 -7.283239364624023438e-01 5.352798476815223694e-02
4.571278989315032959e-01 -5.766563415527343750e-01 3.064785525202751160e-02
4.157980084419250488e-01 -6.843125224113464355e-01 -1.251157224178314209e-01
4.871198236942291260e-01 -5.592582821846008301e-01 -1.414749175310134888e-01
4.605008065700531006e-01 -6.233112215995788574e-01 -3.148866295814514160e-01
5.086284875869750977e-01 -7.212411165237426758e-01 1.035854965448379517e-01
4.600581526756286621e-01 -6.770008802413940430e-01 2.710546851158142090e-01
5.211768746376037598e-01 -6.329873204231262207e-01 -2.950777113437652588e-02
5.032339096069335938e-01 -7.277249693870544434e-01 1.467155665159225464e-01
4.528893232345581055e-01 -5.840369462966918945e-01 -1.696618944406509399e-01
4.943247735500335693e-01 -5.700706839561462402e-01 7.665283977985382080e-02
4.589321017265319824e-01 -7.352069616317749023e-01 -3.320483863353729248e-01
5.203527212142944336e-01 -6.222038865089416504e-01 -5.680012702941894531e-02
5.084198713302612305e-01 -7.386448979377746582e-01 -1.615465991199016571e-02
5.109709501266479492e-01 -7.213764190673828125e-01 6.289714574813842773e-02
4.345875084400177002e-01 -6.962687969207763672e-01 -3.040997982025146484e-01
5.166114568710327148e-01 -7.012458443641662598e-01 -7.392214611172676086e-03
4.471839666366577148e-01 -7.945023775100708008e-01 -2.286241203546524048e-01
4.919218122959136963e-01 -6.729944944381713867e-01 -3.145836889743804932e-01
4.242326915264129639e-01 -6.910511851310729980e-01 -2.431579530239105225e-01
4.410955309867858887e-01 -6.862947940826416016e-01 2.322897017002105713e-01
4.845353066921234131e-01 -7.810415625572204590e-01 1.338468641042709351e-01
4.715946614742279053e-01 -7.864320278167724609e-01 1.803727746009826660e-01
4.938381910324096680e-01 -7.762638926506042480e-01 -7.475678622722625732e-02
5.020920634269714355e-01 -7.220915555953979492e-01 -2.091729491949081421e-01
5.053753256797790527e-01 -5.775134563446044922e-01 -1.499427258968353271e-01
5.124129056930541992e-01 -6.282158493995666504e-01 -1.996265053749084473e-01
5.122354626655578613e-01 -5.895112156867980957e-01 3.607070073485374451e-02
4.364979863166809082e-01 -8.171911239624023438e-01 7.648125290870666504e-02
4.450565278530120850e-01 -6.269113421440124512e-01 1.600330621004104614e-01
5.099482536315917969e-01 -6.790431141853332520e-01 -2.111260443925857544e-01
4.388177692890167236e-01 -6.018974184989929199e-01 -1.042817234992980957e-01
5.004681348800659180e-01 -7.585470080375671387e-01 6.057788059115409851e-02
4.291252791881561279e-01 -6.505102515220642090e-01 1.063155829906463623e-01
5.093044042587280273e-01 -7.224754095077514648e-01 -1.265780329704284668e-01
4.888536930084228516e-01 -6.584489941596984863e-01 -3.252533078193664551e-01
5.022127032279968262e-01 -5.803908705711364746e-01 8.667069673538208008e-02
4.116634428501129150e-01 -7.343183159828186035e-01 2.549024298787117004e-02
4.967901706695556641e-01 -5.615038871765136719e-01 -1.181960105895996094e-01
4.232555925846099854e-01 -6.615681052207946777e-01 7.189118862152099609e-02
4.270785152912139893e-01 -6.377215385437011719e-01 -1.473146826028823853e-01
4.511250555515289307e-01 -8.040931820869445801e-01 1.593116074800491333e-01
4.944664537906646729e-01 -7.711672782897949219e-01 7.976628839969635010e-02
5.036418437957763672e-01 -7.532240152359008789e-01 -4.804247990250587463e-02
5.191956162452697754e-01 -6.590921878814697266e-01 5.588459596037864685e-02
4.778556227684020996e-01 -6.915339827537536621e-01 2.757358551025390625e-01
4.653882682323455811e-01 -8.160655498504638672e-01 6.683096289634704590e-02
5.182682871818542480e-01 -6.335329413414001465e-01 -1.336272060871124268e-01
4.868055582046508789e-01 -7.217970490455627441e-01 2.444441020488739014e-01
4.615722596645355225e-01 -6.639121174812316895e-01 2.639705240726470947e-01
5.163242816925048828e-01 -6.262286901473999023e-01 -1.562499105930328369e-01
4.447613954544067383e-01 -6.358453631401062012e-01 -2.886675298213958740e-01
4.414036870002746582e-01 -7.245129942893981934e-01 -3.221449553966522217e-01
4.931072890758514404e-01 -7.802028059959411621e-01 1.513304561376571655e-02
4.228976368904113770e-01 -7.368106245994567871e-01 -2.415227442979812622e-01
5.162340998649597168e-01 -6.850845217704772949e-01 -1.253366172313690186e-01
5.113671422004699707e-01 -5.963720083236694336e-01 -1.595731675624847412e-01
4.199768006801605225e-01 -6.640973091125488281e-01 -1.385195702314376831e-01
4.825611710548400879e-01 -7.997753620147705078e-01 8.760627359151840210e-03
4.433072805404663086e-01 -5.918246507644653320e-01 -7.278835028409957886e-02
4.159860908985137939e-01 -7.110574841499328613e-01 8.215814828872680664e-02
4.410355687141418457e-01 -6.044956445693969727e-01 -1.687395870685577393e-01
4.847168922424316406e-01 -6.187725663185119629e-01 -3.113120198249816895e-01
4.179185628890991211e-01 -7.458935976028442383e-01 -1.973726302385330200e-01
5.025834441184997559e-01 -7.159093022346496582e-01 1.741428673267364502e-01
4.182984530925750732e-01 -7.364841699600219727e-01 1.213663369417190552e-01
4.373937845230102539e-01 -7.381051182746887207e-01 2.304331958293914795e-01
4.395614862442016602e-01 -6.051486730575561523e-01 -1.527251154184341431e-01
4.500392973423004150e-01 -8.259695768356323242e-01 -6.359573453664779663e-02
4.897262156009674072e-01 -5.593820214271545410e-01 2.256261557340621948e-02
4.630554020404815674e-01 -5.684612989425659180e-01 -1.407144963741302490e-01
4.731601178646087646e-01 -7.967709302902221680e-01 -1.667695194482803345e-01
4.751467704772949219e-01 -6.607214212417602539e-01 -3.498416543006896973e-01
4.325749278068542480e-01 -7.424911856651306152e-01 2.106996476650238037e-01
4.574230015277862549e-01 -8.101125955581665039e-01 -1.652305126190185547e-01
5.087477564811706543e-01 -7.354984283447265625e-01 -6.017775833606719971e-02
4.576207399368286133e-01 -6.418250203132629395e-01 2.330318689346313477e-01
4.256891012191772461e-01 -6.350553631782531738e-01 -5.623560398817062378e-02
4.768517315387725830e-01 -6.963809132575988770e-01 -3.433266282081604004e-01
4.403657615184783936e-01 -6.110576987266540527e-01 -1.947638541460037231e-01
5.191429257392883301e-01 -6.103414297103881836e-01 -4.033946245908737183e-02
4.287785887718200684e-01 -7.184114456176757812e-01 -2.801450192928314209e-01
4.537191390991210938e-01 -8.139297962188720703e-01 1.196574419736862183e-01
4.142136275768280029e-01 -7.111842632293701172e-01 -1.526866704225540161e-01
4.803939163684844971e-01 -7.924354672431945801e-01 1.124297976493835449e-01
4.854190647602081299e-01 -7.619901895523071289e-01 -2.235714495182037354e-01
4.158749878406524658e-01 -7.785295248031616211e-01 4.425146803259849548e-02
4.895491898059844971e-01 -5.830043554306030273e-01 -2.399948090314865112e-01
5.015380978584289551e-01 -7.373110651969909668e-01 -1.743157804012298584e-01
5.026780962944030762e-01 -7.539957165718078613e-01 4.522925987839698792e-02
5.199912190437316895e-01 -6.752189993858337402e-01 -1.704082079231739044e-02
4.253371953964233398e-01 -6.946748495101928711e-01 1.562762707471847534e-01
4.211995303630828857e-01 -7.516988515853881836e-01 1.413359344005584717e-01
5.106973052024841309e-01 -7.242150902748107910e-01 -8.993265032768249512e-02
5.110491514205932617e-01 -5.900524258613586426e-01 5.388706550002098083e-02
4.318210184574127197e-01 -7.075692415237426758e-01 -2.944599688053131104e-01
4.844140112400054932e-01 -7.949488162994384766e-01 -6.731145828962326050e-02
4.279728233814239502e-01 -8.057255148887634277e-01 -1.340470910072326660e-01
4.694736897945404053e-01 -5.778916478157043457e-01 -2.234316021203994751e-01
4.302197694778442383e-01 -6.672232747077941895e-01 1.531191319227218628e-01
4.174970686435699463e-01 -7.698641419410705566e-01 -1.599912792444229126e-01
4.691197872161865234e-01 -5.740832090377807617e-01 -2.064974308013916016e-01
5.161422491073608398e-01 -7.042204141616821289e-01 -2.663342654705047607e-02
4.178629219532012939e-01 -6.965178251266479492e-01 -1.874461621046066284e-01
4.515983462333679199e-01 -6.625536084175109863e-01 -3.387981653213500977e-01
5.001818537712097168e-01 -7.639305591583251953e-01 -1.462175883352756500e-02
5.030331015586853027e-01 -6.185534000396728516e-01 1.719181686639785767e-01
4.275454580783843994e-01 -6.405730247497558594e-01 -1.692733615636825562e-01
4.808730483055114746e-01 -6.577860116958618164e-01 2.623387575149536133e-01
5.180835723876953125e-01 -6.267075538635253906e-01 6.046919152140617371e-02
5.105340480804443359e-01 -7.303860187530517578e-01 1.418963074684143066e-05
4.107299745082855225e-01 -7.355033159255981445e-01 -4.704631865024566650e-03
4.656794965267181396e-01 -5.765613317489624023e-01 8.544619381427764893e-02
4.807102680206298828e-01 -6.455080509185791016e-01 2.532799243927001953e-01
4.961919188499450684e-01 -7.706418037414550781e-01 5.172845348715782166e-02
4.533457756042480469e-01 -6.587420105934143066e-01 2.440711557865142822e-01
4.733613133430480957e-01 -8.053970336914062500e-01 -1.157599091529846191e-01
4.326490163803100586e-01 -7.742841839790344238e-01 1.837713718414306641e-01
4.129735231399536133e-01 -7.687233090400695801e-01 -8.749686926603317261e-02
4.322845041751861572e-01 -6.265733838081359863e-01 5.194224789738655090e-02
4.276017844676971436e-01 -6.825437545776367188e-01 -2.593742311000823975e-01
4.908809363842010498e-01 -7.834948301315307617e-01 3.864988312125205994e-02
5.018067359924316406e-01 -5.814632773399353027e-01 -1.906124949455261230e-01
4.108191728591918945e-01 -7.276518940925598145e-01 -8.520160615444183350e-02
5.193250775337219238e-01 -6.712944507598876953e-01 3.641800209879875183e-02
4.829074740409851074e-01 -7.734611034393310547e-01 1.704542487859725952e-01
5.167485475540161133e-01 -6.722380518913269043e-01 -1.405917257070541382e-01
4.922562241554260254e-01 -7.104039788246154785e-01 2.349144816398620605e-01
4.481191635131835938e-01 -7.450295686721801758e-01 2.533940672874450684e-01
5.132940411567687988e-01 -7.188607454299926758e-01 -2.364108711481094360e-02
5.035828351974487305e-01 -6.030001044273376465e-01 1.429204791784286499e-01
4.380176663398742676e-01 -7.211555838584899902e-01 2.350869178771972656e-01
4.533947706222534180e-01 -6.202669143676757812e-01 -2.926046848297119141e-01
4.756251573562622070e-01 -7.661564350128173828e-01 -2.561696469783782959e-01
4.889102876186370850e-01 -7.804428339004516602e-01 9.647181630134582520e-02
4.225334823131561279e-01 -6.557675600051879883e-01 -1.526061892509460449e-01
4.185328185558319092e-01 -7.920911908149719238e-01 3.435465320944786072e-02
4.899163246154785156e-01 -7.252658605575561523e-01 -2.775474488735198975e-01
4.678615927696228027e-01 -8.059303164482116699e-01 1.205673962831497192e-01
4.117843508720397949e-01 -7.354105710983276367e-01 -1.183084845542907715e-01
5.188533663749694824e-01 -6.814509630203247070e-01 2.097570523619651794e-02
4.792216420173645020e-01 -6.712604165077209473e-01 2.706138193607330322e-01
4.447145462036132812e-01 -8.269106745719909668e-01 -4.738736525177955627e-02
5.199953317642211914e-01 -6.481650471687316895e-01 4.153791442513465881e-02
5.165445804595947266e-01 -6.991473436355590820e-01 2.065863832831382751e-02
4.392077326774597168e-01 -8.108520507812500000e-01 -1.613492518663406372e-01
4.613841474056243896e-01 -7.217893600463867188e-01 -3.429760634899139404e-01
4.312652945518493652e-01 -8.176332712173461914e-01 -8.001487702131271362e-02
5.008555054664611816e-01 -6.988832354545593262e-01 -2.556910216808319092e-01
4.895834326744079590e-01 -7.814903259277343750e-01 -1.065387129783630371e-01
5.075819492340087891e-01 -6.359430551528930664e-01 1.677434146404266357e-01
4.312792122364044189e-01 -7.907516956329345703e-01 -2.043562829494476318e-01
4.207084774971008301e-01 -6.852043867111206055e-01 1.001149117946624756e-01
4.901000857353210449e-01 -5.553807616233825684e-01 -8.186319470405578613e-02
4.264142513275146484e-01 -8.058990240097045898e-01 6.770466268062591553e-02
4.163538515567779541e-01 -7.485861182212829590e-01 -1.794162392616271973e-01
5.023396611213684082e-01 -6.838923692703247070e-01 2.049609869718551636e-01
5.063484907150268555e-01 -6.254122853279113770e-01 -2.419229149818420410e-01
4.452930092811584473e-01 -7.997134327888488770e-01 -2.118679732084274292e-01
4.322826564311981201e-01 -6.713981628417968750e-01 -2.767035961151123047e-01
4.976952373981475830e-01 -6.202333569526672363e-01 -2.791135907173156738e-01
5.112725496292114258e-01 -7.154474258422851562e-01 8.157166838645935059e-02
4.338971972465515137e-01 -6.127811670303344727e-01 -2.897890284657478333e-02
4.909104406833648682e-01 -6.426997780799865723e-01 -3.157911300659179688e-01
4.740049839019775391e-01 -7.066367864608764648e-01 2.778488099575042725e-01
4.103418886661529541e-01 -7.394281625747680664e-01 -5.781899392604827881e-02
4.256768524646759033e-01 -8.074340820312500000e-01 5.109686031937599182e-02
4.509518444538116455e-01 -7.696738839149475098e-01 2.326876223087310791e-01
5.052109360694885254e-01 -7.479586601257324219e-01 2.546892687678337097e-02
4.136692285537719727e-01 -7.602542042732238770e-01 -1.274545192718505859e-01
4.952480792999267578e-01 -7.759907841682434082e-01 -5.126643925905227661e-03
4.322572052478790283e-01 -8.200595378875732422e-01 1.766112446784973145e-02
4.305288791656494141e-01 -6.247255802154541016e-01 -1.311341673135757446e-01
4.742498993873596191e-01 -7.407107949256896973e-01 -3.070631325244903564e-01
4.449822306632995605e-01 -6.038168668746948242e-01 8.230659365653991699e-02
4.312504231929779053e-01 -7.625563144683837891e-01 -2.588497698307037354e-01
4.431942999362945557e-01 -7.944067716598510742e-01 1.778529733419418335e-01
5.141912102699279785e-01 -6.521285176277160645e-01 1.259498298168182373e-01
4.976099431514739990e-01 -6.925930380821228027e-01 -2.800040841102600098e-01
4.794747233390808105e-01 -5.678721070289611816e-01 -1.958461850881576538e-01
4.438131153583526611e-01 -6.785274147987365723e-01 -3.289299607276916504e-01
4.605668485164642334e-01 -7.770878076553344727e-01 2.220585048198699951e-01
5.169634819030761719e-01 -6.070909500122070312e-01 -1.104386150836944580e-01
4.325457811355590820e-01 -7.208181619644165039e-01 2.132185101509094238e-01
4.780009388923645020e-01 -5.576315522193908691e-01 -1.219602674245834351e-01
4.178583621978759766e-01 -7.078673839569091797e-01 1.019155979156494141e-01
4.226003289222717285e-01 -7.203165888786315918e-01 -2.438375055789947510e-01
5.033430457115173340e-01 -7.512744665145874023e-01 -8.066725730895996094e-02
4.313489496707916260e-01 -6.513272523880004883e-01 1.285793632268905640e-01
4.886124730110168457e-01 -7.401632070541381836e-01 -2.580336630344390869e-01
5.165127515792846680e-01 -6.918332576751708984e-01 -1.000549048185348511e-01
4.402751326560974121e-01 -7.670422196388244629e-01 2.177709639072418213e-01
5.118268728256225586e-01 -5.824916362762451172e-01 -4.699658602476119995e-03
4.428094327449798584e-01 -8.268827199935913086e-01 4.380147904157638550e-03
4.128940701484680176e-01 -6.956759095191955566e-01 -4.654980450868606567e-02
4.982250332832336426e-01 -6.335622072219848633e-01 -2.870196104049682617e-01
4.319131374359130859e-01 -7.497127652168273926e-01 -2.763135135173797607e-01
4.161548316478729248e-01 -7.379129528999328613e-01 9.872305393218994141e-02
4.977398514747619629e-01 -5.663019418716430664e-01 4.180415347218513489e-02
5.063730478286743164e-01 -7.017320990562438965e-01 1.649156808853149414e-01
4.949044585227966309e-01 -6.610769033432006836e-01 2.359558939933776855e-01
5.101543068885803223e-01 -6.253246665000915527e-01 1.406810134649276733e-01
4.150719940662384033e-01 -7.846220731735229492e-01 -5.315583199262619019e-02
4.641789197921752930e-01 -7.967357635498046875e-01 -2.033656686544418335e-01
4.972548782825469971e-01 -5.806488990783691406e-01 -2.102784663438796997e-01
4.459651410579681396e-01 -5.902396440505981445e-01 -1.318002790212631226e-01
4.887180030345916748e-01 -7.894919514656066895e-01 -1.571149751543998718e-02
5.199295282363891602e-01 -6.265179514884948730e-01 -8.954070508480072021e-02
4.949744343757629395e-01 -7.628110647201538086e-01 -1.465460509061813354e-01
4.676519036293029785e-01 -8.154420256614685059e-01 -7.827225327491760254e-02
4.643151462078094482e-01 -5.650973320007324219e-01 -1.147908568382263184e-01
4.565666913986206055e-01 -6.013953089714050293e-01 1.438414454460144043e-01
4.811526834964752197e-01 -7.824926972389221191e-01 1.506385505199432373e-01
5.042863488197326660e-01 -6.974625587463378906e-01 -2.346854060888290405e-01
4.375242888927459717e-01 -7.491859793663024902e-01 -2.943932116031646729e-01
5.169016122817993164e-01 -6.711706519126892090e-01 8.654426038265228271e-02
4.247054457664489746e-01 -6.420767903327941895e-01 2.973880618810653687e-03
4.189405441284179688e-01 -7.983744740486145020e-01 -1.253075338900089264e-02
4.561571180820465088e-01 -5.883176326751708984e-01 -2.145099043846130371e-01
4.796967506408691406e-01 -7.993508577346801758e-01 -9.796166419982910156e-02
5.164091587066650391e-01 -6.290487647056579590e-01 8.744104206562042236e-02
4.843343794345855713e-01 -7.278504371643066406e-01 -2.960221767425537109e-01
4.111467003822326660e-01 -7.587540745735168457e-01 -4.175148531794548035e-02
4.972734153270721436e-01 -6.767425537109375000e-01 2.297529280185699463e-01
4.918283522129058838e-01 -7.610991597175598145e-01 -1.833223402500152588e-01
4.714237451553344727e-01 -8.090672492980957031e-01 7.909253239631652832e-02
4.322279393672943115e-01 -6.787407398223876953e-01 1.834241300821304321e-01
4.250275194644927979e-01 -7.800784111022949219e-01 1.350516825914382935e-01
5.124440789222717285e-01 -5.870682001113891602e-01 1.882559061050415039e-02
5.021758675575256348e-01 -7.516637444496154785e-01 7.362902164459228516e-02
4.916800856590270996e-01 -7.518308162689208984e-01 1.775304228067398071e-01
4.874932765960693359e-01 -7.914301156997680664e-01 -3.302760794758796692e-02
4.157632291316986084e-01 -7.056211829185485840e-01 -1.706332862377166748e-01
4.852703213691711426e-01 -5.651076436042785645e-01 -1.811326444149017334e-01
4.840757250785827637e-01 -7.919992804527282715e-01 7.820814847946166992e-02
4.612531661987304688e-01 -6.915173530578613281e-01 2.782386839389801025e-01
4.167889058589935303e-01 -7.126564979553222656e-01 -1.899140924215316772e-01
5.139957666397094727e-01 -7.141295671463012695e-01 -5.239993706345558167e-02
