-5.655556917190551758e-03 -1.898532509803771973e-01 -6.189846992492675781e-01
-3.135951161384582520e-01 -1.276358366012573242e-01 -4.038265347480773926e-01
-1.437939256429672241e-01 -9.424890577793121338e-02 -8.265629410743713379e-02
-7.389048486948013306e-02 -3.652404844760894775e-01 -5.272008180618286133e-01
-9.914928674697875977e-02 -1.097218692302703857e-01 -6.038956344127655029e-02
-6.256343424320220947e-02 -1.424288004636764526e-01 -1.262357831001281738e-02
-3.892662525177001953e-01 -2.439705133438110352e-01 -3.451385200023651123e-01
-3.103449940681457520e-01 -1.372489184141159058e-01 -5.291811227798461914e-01
-3.363104462623596191e-01 -2.876938283443450928e-01 -6.803808808326721191e-01
-2.695864439010620117e-02 -1.626781225204467773e-01 -8.511185646057128906e-02
-2.476500570774078369e-01 -1.980971992015838623e-01 2.563426792621612549e-01
-1.010651737451553345e-01 -3.634258508682250977e-01 3.615188598632812500e-02
-2.134563475847244263e-01 -2.071957439184188843e-01 2.862842381000518799e-01
-3.762449622154235840e-01 -3.280738294124603271e-01 -3.647343516349792480e-01
-2.659435868263244629e-01 -1.206717491149902344e-01 -6.245653033256530762e-01
-5.701380968093872070e-02 -2.258243709802627563e-01 1.249121725559234619e-01
-3.591449260711669922e-01 -3.495539426803588867e-01 -4.062152504920959473e-01
-2.880567312240600586e-02 -2.784232795238494873e-01 -6.959066390991210938e-01
-2.154303342103958130e-01 -4.145905673503875732e-01 -7.609003782272338867e-02
-2.281095087528228760e-02 -2.224593758583068848e-01 2.321958541870117188e-03
-2.757639884948730469e-01 -3.789557516574859619e-01 1.070949733257293701e-01
-2.592401802539825439e-01 -4.148887693881988525e-01 -3.497867584228515625e-01
-2.322163134813308716e-01 -3.017918467521667480e-01 3.020729720592498779e-01
-2.431683838367462158e-01 -1.926161646842956543e-01 -8.667351007461547852e-01
-3.987462818622589111e-02 -2.139181345701217651e-01 6.341335177421569824e-02
-2.353963851928710938e-01 -1.499177813529968262e-01 -8.003902435302734375e-01
-2.012445032596588135e-01 -1.266650557518005371e-01 9.759595990180969238e-02
-7.950588315725326538e-02 -1.467930078506469727e-01 -7.828860282897949219e-01
-2.628872990608215332e-01 -3.684419095516204834e-01 1.617103815078735352e-01
-1.881316751241683960e-01 -3.810187578201293945e-01 -6.694568395614624023e-01
-8.497288078069686890e-02 -8.860076963901519775e-02 -3.695157170295715332e-01
-1.390255093574523926e-01 -2.962485551834106445e-01 2.640534937381744385e-01
-3.412674367427825928e-02 -1.187242418527603149e-01 -3.675223588943481445e-01
-1.174878552556037903e-01 -8.514457941055297852e-02 -5.317224264144897461e-01
-3.924075365066528320e-01 -2.515753209590911865e-01 -2.823758423328399658e-01
-1.859218627214431763e-01 -8.156558871269226074e-02 -5.161834955215454102e-01
-2.035651654005050659e-01 -4.192007780075073242e-01 -1.525822281837463379e-01
-1.416442096233367920e-01 -4.047145247459411621e-01 -1.165469586849212646e-01
-3.079720139503479004e-01 -1.208263933658599854e-01 -3.029996752738952637e-01
-3.325462341308593750e-02 -1.390463709831237793e-01 -1.523626744747161865e-01
-1.967899501323699951e-01 -3.714727461338043213e-01 1.659651398658752441e-01
-3.476194441318511963e-01 -1.562885046005249023e-01 -2.833982706069946289e-01
-6.937593221664428711e-02 -3.680509030818939209e-01 -4.722677469253540039e-01
-3.686769604682922363e-01 -2.747402191162109375e-01 -5.483289957046508789e-01
-2.774667739868164062e-01 -4.054402112960815430e-01 -4.147926270961761475e-01
-1.154535338282585144e-01 -2.899349033832550049e-01 2.363111078739166260e-01
-2.064080685377120972e-01 -3.095033168792724609e-01 -8.696987628936767578e-01
-8.849880099296569824e-02 -3.714578747749328613e-01 -5.711492896080017090e-02
-6.982348114252090454e-02 -1.557707190513610840e-01 5.063769221305847168e-02
9.646505117416381836e-03 -2.055585086345672607e-01 -5.124343633651733398e-01
-8.892877399921417236e-02 -3.185501694679260254e-01 -7.765511274337768555e-01
-2.542722225189208984e-02 -2.721790671348571777e-01 -2.716600894927978516e-03
-2.678687870502471924e-01 -1.667404174804687500e-01 1.665327548980712891e-01
-2.585612535476684570e-01 -4.177169203758239746e-01 -2.527616918087005615e-01
-2.674711346626281738e-01 -1.103368997573852539e-01 -5.494369268417358398e-01
-1.283614635467529297e-01 -3.624567389488220215e-01 1.109090447425842285e-01
-1.865320652723312378e-01 -2.927453219890594482e-01 -8.991322517395019531e-01
-2.558943629264831543e-01 -3.553788661956787109e-01 -7.253419160842895508e-01
-1.895487159490585327e-01 -8.578266203403472900e-02 -5.590082406997680664e-01
-2.254680991172790527e-01 -8.946016430854797363e-02 -5.130014419555664062e-01
-2.705844342708587646e-01 -4.146230518817901611e-01 -2.799740433692932129e-01
-8.046603202819824219e-02 -2.571035325527191162e-01 -8.610361814498901367e-01
-7.572323083877563477e-03 -2.108397185802459717e-01 -8.586546778678894043e-02
-2.114784717559814453e-02 -1.320885121822357178e-01 -3.375061452388763428e-01
-2.611764967441558838e-01 -3.588123023509979248e-01 1.920390427112579346e-01
-1.175236478447914124e-01 -8.822458982467651367e-02 -1.781209707260131836e-01
-3.442425727844238281e-01 -3.022105693817138672e-01 1.345933079719543457e-01
1.704111695289611816e-03 -1.804630458354949951e-01 -5.349873304367065430e-01
1.299209892749786377e-02 -2.074455767869949341e-01 -2.914585173130035400e-01
-2.799434959888458252e-02 -2.335326820611953735e-01 2.867132425308227539e-02
1.518316566944122314e-02 -2.358543723821640015e-01 -3.179038465023040771e-01
-3.854020237922668457e-01 -2.863140702247619629e-01 -7.531456649303436279e-02
-1.077440381050109863e-02 -2.512015700340270996e-01 -6.569821834564208984e-01
-9.646012634038925171e-02 -1.526044905185699463e-01 1.017160415649414062e-01
-3.932789862155914307e-01 -2.603025734424591064e-01 -2.148969918489456177e-01
-1.020509079098701477e-01 -3.685033321380615234e-01 -6.153627634048461914e-01
-1.332315504550933838e-01 -2.499639838933944702e-01 -9.233920574188232422e-01
-5.421023070812225342e-02 -2.807635962963104248e-01 1.009268164634704590e-01
-2.044287472963333130e-01 -9.380085766315460205e-02 -6.053218841552734375e-01
-3.917564749717712402e-01 -2.722558379173278809e-01 -3.331885635852813721e-01
-3.836368918418884277e-01 -2.156554609537124634e-01 -2.416202425956726074e-01
-3.640918731689453125e-01 -2.609034180641174316e-01 6.815654039382934570e-02
-2.306627333164215088e-01 -3.701258003711700439e-01 -7.016221284866333008e-01
-3.702608346939086914e-01 -3.467776775360107422e-01 -2.802148461341857910e-01
-3.745126128196716309e-01 -2.289035022258758545e-01 -3.740820288658142090e-02
1.130717992782592773e-02 -1.894421726465225220e-01 -3.912883996963500977e-01
-2.496289461851119995e-01 -2.854409217834472656e-01 -8.661086559295654297e-01
-2.847660183906555176e-01 -3.869513273239135742e-01 -5.394206047058105469e-01
-1.694452762603759766e-02 -3.131053447723388672e-01 -1.824948340654373169e-01
-1.079807132482528687e-01 -3.977625370025634766e-01 -2.676478326320648193e-01
-1.109359487891197205e-01 -3.262098133563995361e-01 1.758005321025848389e-01
-1.791813969612121582e-02 -3.179024457931518555e-01 -4.692192077636718750e-01
-4.023489356040954590e-02 -3.245669603347778320e-01 -6.002280712127685547e-01
-1.160154938697814941e-01 -2.536715269088745117e-01 2.536059319972991943e-01
-1.658035069704055786e-01 -3.364471793174743652e-01 -8.165513277053833008e-01
-2.946774065494537354e-01 -1.429447382688522339e-01 2.032458782196044922e-02
-1.569110751152038574e-01 -2.832404375076293945e-01 -9.080902338027954102e-01
-2.776556015014648438e-01 -2.215316444635391235e-01 2.564515769481658936e-01
-2.280339598655700684e-02 -2.907226979732513428e-01 -5.020314455032348633e-02
-1.666436493396759033e-01 -4.093590676784515381e-01 -4.554132223129272461e-01
-3.274742960929870605e-01 -3.180619478225708008e-01 1.645639538764953613e-01
-2.315340787172317505e-01 -1.156919002532958984e-01 -6.866976022720336914e-01
-6.846642494201660156e-02 -9.921973943710327148e-02 -2.730673253536224365e-01
-2.614254951477050781e-01 -4.003664851188659668e-01 -5.054783821105957031e-01
-2.536075413227081299e-01 -3.197015821933746338e-01 2.734592258930206299e-01
-2.482049465179443359e-01 -1.034797430038452148e-01 -5.695398449897766113e-01
-5.919963121414184570e-03 -2.979079484939575195e-01 -2.183734476566314697e-01
-1.571543216705322266e-01 -3.640351593494415283e-01 -7.257277965545654297e-01
-1.130469813942909241e-01 -3.876816928386688232e-01 -5.165092945098876953e-01
-2.338800877332687378e-01 -1.226295381784439087e-01 5.404704809188842773e-02
-3.723396062850952148e-01 -3.410552740097045898e-01 -1.447587311267852783e-01
-3.082875013351440430e-01 -3.140105009078979492e-01 2.130427062511444092e-01
-1.210605055093765259e-01 -3.443880379199981689e-01 1.529074013233184814e-01
-1.428898125886917114e-01 -3.929321765899658203e-01 -5.578141212463378906e-01
-5.476610362529754639e-02 -1.044786572456359863e-01 -3.283751010894775391e-01
-1.157390698790550232e-01 -2.211332917213439941e-01 -9.150689840316772461e-01
-1.939125359058380127e-02 -1.359296143054962158e-01 -4.719439744949340820e-01
-2.751021385192871094e-01 -1.728385388851165771e-01 -7.798853516578674316e-01
-2.540530264377593994e-02 -1.425457894802093506e-01 -5.835887789726257324e-01
-3.620385229587554932e-01 -1.792823970317840576e-01 -1.728973984718322754e-01
-3.776844441890716553e-01 -3.057519793510437012e-01 -4.409791231155395508e-01
-1.995280385017395020e-02 -1.474314779043197632e-01 -1.954761892557144165e-01
-2.701024115085601807e-01 -1.263314038515090942e-01 4.553705453872680664e-03
-3.347332775592803955e-01 -1.506814360618591309e-01 -4.483518004417419434e-01
-7.368034124374389648e-02 -3.531677126884460449e-01 -6.058503389358520508e-01
-3.356151282787322998e-01 -1.819961667060852051e-01 -6.031873226165771484e-01
-2.983897924423217773e-03 -2.874457240104675293e-01 -5.040566921234130859e-01
-1.001399904489517212e-01 -9.171110391616821289e-02 -5.575856566429138184e-01
-2.550385296344757080e-01 -3.884648680686950684e-01 -5.921680927276611328e-01
-2.745226025581359863e-03 -2.967994213104248047e-01 -4.320224523544311523e-01
-2.525964677333831787e-01 -1.005180329084396362e-01 -5.258954763412475586e-01
-1.596703678369522095e-01 -3.793589174747467041e-01 -6.616252660751342773e-01
-9.878941625356674194e-02 -1.389566659927368164e-01 6.517958641052246094e-02
-3.707877993583679199e-01 -2.921396195888519287e-01 2.926966547966003418e-02
-2.560526132583618164e-03 -1.591133177280426025e-01 -3.129405677318572998e-01
-5.226847529411315918e-02 -1.182408034801483154e-01 -1.775480359792709351e-01
-1.514769494533538818e-01 -2.213433235883712769e-01 2.814715802669525146e-01
-2.939306497573852539e-01 -1.821317076683044434e-01 1.601338684558868408e-01
-5.205447971820831299e-02 -1.432020515203475952e-01 -7.058041095733642578e-01
-2.323485463857650757e-01 -4.166490435600280762e-01 -1.081306189298629761e-01
-1.617369204759597778e-01 -8.551460504531860352e-02 -5.780456066131591797e-01
-2.366600334644317627e-01 -8.953003585338592529e-02 -2.114936709403991699e-01
-2.115601599216461182e-01 -2.467251569032669067e-01 3.175647556781768799e-01
-3.370732963085174561e-01 -1.617330610752105713e-01 -7.001906633377075195e-02
-2.005780637264251709e-01 -3.908622264862060547e-01 -6.208676099777221680e-01
-2.333989739418029785e-02 -3.087056279182434082e-01 -1.035493463277816772e-01
-3.232253789901733398e-01 -3.886786401271820068e-01 -1.142658144235610962e-01
-1.339227706193923950e-01 -1.391513645648956299e-01 -8.243085145950317383e-01
-1.677302718162536621e-01 -3.738848268985748291e-01 -6.929925680160522461e-01
-2.956512272357940674e-01 -1.129949986934661865e-01 -2.784125208854675293e-01
-3.485965728759765625e-02 -1.820156872272491455e-01 3.415942192077636719e-04
-3.699263930320739746e-01 -3.126111030578613281e-01 -4.823527634143829346e-01
-3.328552544116973877e-01 -3.857822418212890625e-01 -1.877251267433166504e-01
-2.379459440708160400e-01 -4.012433290481567383e-01 3.144901990890502930e-02
-2.412368953227996826e-01 -4.189440011978149414e-01 -1.664872914552688599e-01
-1.915397197008132935e-01 -4.061892628669738770e-01 -1.308205723762512207e-02
1.020434498786926270e-02 -1.859340965747833252e-01 -3.606713116168975830e-01
-9.638053178787231445e-02 -3.864556550979614258e-01 -4.463836550712585449e-01
-3.904754519462585449e-01 -3.006258904933929443e-01 -2.155252099037170410e-01
-3.098454177379608154e-01 -2.989633679389953613e-01 -7.446692585945129395e-01
-1.944747120141983032e-01 -3.058162331581115723e-01 2.974647581577301025e-01
-1.894957125186920166e-01 -7.671388983726501465e-02 -2.998036742210388184e-01
-1.005044579505920410e-02 -2.304770201444625854e-01 -5.867847800254821777e-02
-9.138887375593185425e-02 -3.885763883590698242e-01 -2.417323589324951172e-01
-2.855776548385620117e-01 -4.104493558406829834e-01 -2.187511473894119263e-01
-1.593990027904510498e-01 -1.547829806804656982e-01 1.814981400966644287e-01
-1.939354389905929565e-01 -2.184972018003463745e-01 -9.287716150283813477e-01
-3.148481249809265137e-01 -2.578967511653900146e-01 2.221498787403106689e-01
-1.324416399002075195e-01 -1.343269795179367065e-01 9.974202513694763184e-02
-1.587268412113189697e-01 -4.145909845829010010e-01 -3.326052725315093994e-01
-3.141998052597045898e-01 -1.450097858905792236e-01 -4.543766379356384277e-02
-7.737353444099426270e-02 -2.155277132987976074e-01 1.692052781581878662e-01
-3.318915367126464844e-01 -1.647745966911315918e-01 -5.579650402069091797e-01
-1.217141523957252502e-01 -3.635801374912261963e-01 -6.839935779571533203e-01
-1.381736248731613159e-01 -4.059862494468688965e-01 -1.521452665328979492e-01
-1.978206038475036621e-01 -4.172380864620208740e-01 -3.946811258792877197e-01
-2.401601225137710571e-01 -8.765491843223571777e-02 -2.823997139930725098e-01
-1.238009855151176453e-01 -1.107442826032638550e-01 -8.436560630798339844e-03
-1.665241569280624390e-01 -3.926022052764892578e-01 4.433235526084899902e-02
-2.926169633865356445e-01 -1.534935981035232544e-01 7.288703322410583496e-02
-3.603881597518920898e-01 -1.983723342418670654e-01 -3.715181350708007812e-02
-3.034816682338714600e-02 -1.948241740465164185e-01 -7.411091923713684082e-01
-1.884911507368087769e-01 -7.760493457317352295e-02 -4.414821863174438477e-01
-1.427370607852935791e-01 -3.416316509246826172e-01 -7.885810136795043945e-01
-4.697442054748535156e-03 -3.035414814949035645e-01 -3.076584041118621826e-01
-5.132111907005310059e-02 -3.596057295799255371e-01 -3.917700052261352539e-01
-9.685392677783966064e-02 -1.542212665081024170e-01 -8.269147872924804688e-01
-1.144327148795127869e-01 -8.122609555721282959e-02 -2.957959771156311035e-01
-1.588178128004074097e-01 -3.888718485832214355e-01 -6.094201207160949707e-01
-1.651971638202667236e-01 -2.429653108119964600e-01 3.031003773212432861e-01
-2.872960567474365234e-01 -1.135690063238143921e-01 -1.658458411693572998e-01
-1.521976441144943237e-01 -8.286175131797790527e-02 -5.506172776222229004e-01
-2.788160145282745361e-01 -4.105933308601379395e-01 -1.460651755332946777e-01
-3.723353743553161621e-01 -2.256521433591842651e-01 -4.946151077747344971e-01
8.356258273124694824e-03 -1.826450824737548828e-01 -3.246442973613739014e-01
-4.883170127868652344e-02 -1.310119330883026123e-01 -6.460045576095581055e-01
-2.603017091751098633e-01 -1.765103638172149658e-01 -8.165297508239746094e-01
-1.633901745080947876e-01 -3.545231521129608154e-01 -7.633614540100097656e-01
-3.629537820816040039e-01 -2.137147635221481323e-01 -5.352858304977416992e-01
-8.245006948709487915e-02 -1.242871284484863281e-01 -7.162607312202453613e-01
-1.147861927747726440e-01 -1.018412560224533081e-01 -6.641997694969177246e-01
-9.184554219245910645e-03 -2.855615913867950439e-01 -5.693079233169555664e-01
1.160772144794464111e-02 -2.624736428260803223e-01 -3.841939270496368408e-01
1.229834556579589844e-02 -2.100068479776382446e-01 -4.810957014560699463e-01
-1.214187443256378174e-01 -8.185112476348876953e-02 -2.506612539291381836e-01
-3.982004523277282715e-02 -1.226407289505004883e-01 -2.235193848609924316e-01
-3.638416528701782227e-01 -3.055891096591949463e-01 -5.363442301750183105e-01
-2.652556896209716797e-01 -2.478253990411758423e-01 -8.646056652069091797e-01
-5.960360169410705566e-02 -1.467482447624206543e-01 -7.385742068290710449e-01
-2.175802588462829590e-01 -1.220759451389312744e-01 -7.374487519264221191e-01
-1.181017905473709106e-01 -1.924366950988769531e-01 2.152275145053863525e-01
-3.897961974143981934e-02 -1.195144504308700562e-01 -2.640328109264373779e-01
-9.631171822547912598e-02 -2.064937949180603027e-01 -8.905895948410034180e-01
-2.912245690822601318e-01 -4.070144295692443848e-01 -3.118911981582641602e-01
-2.323325574398040771e-01 -3.600236773490905762e-01 2.048812210559844971e-01
-2.971372604370117188e-01 -1.177435517311096191e-01 -4.383874237537384033e-01
-2.870366871356964111e-01 -1.091496199369430542e-01 -3.976078629493713379e-01
-2.654424905776977539e-01 -3.783415555953979492e-01 -6.252700090408325195e-01
-3.813324868679046631e-01 -2.137319445610046387e-01 -1.836274266242980957e-01
-3.203793168067932129e-01 -1.670218110084533691e-01 3.844144940376281738e-02
-2.078447043895721436e-01 -4.059678316116333008e-01 -5.207042694091796875e-01
-3.463226556777954102e-01 -3.455984294414520264e-01 -5.102406144142150879e-01
-2.670813500881195068e-01 -4.057375192642211914e-01 -4.456331133842468262e-01
-1.870991438627243042e-01 -4.079591333866119385e-01 -4.974005818367004395e-01
-1.732774078845977783e-01 -7.489500939846038818e-02 -3.391048014163970947e-01
-2.167929708957672119e-01 -1.041138470172882080e-01 -6.526856422424316406e-01
3.145188093185424805e-04 -2.328497916460037231e-01 -6.064658761024475098e-01
-1.870643645524978638e-01 -3.241192996501922607e-01 2.715597450733184814e-01
-1.534706801176071167e-01 -7.549783587455749512e-02 -3.081104159355163574e-01
-7.046535611152648926e-03 -1.568060517311096191e-01 -2.608449161052703857e-01
-1.316432952880859375e-01 -3.744674623012542725e-01 -6.495721340179443359e-01
-3.306530117988586426e-01 -1.411180347204208374e-01 -2.149976193904876709e-01
-5.034060776233673096e-02 -3.317278623580932617e-01 -3.379082679748535156e-02
-2.244596183300018311e-02 -1.895690560340881348e-01 -3.845402598381042480e-02
-3.863668441772460938e-01 -3.089357912540435791e-01 -1.484981626272201538e-01
-1.153771728277206421e-01 -7.966603338718414307e-02 -3.507502377033233643e-01
-3.682934343814849854e-01 -1.845132857561111450e-01 -2.468339502811431885e-01
-3.358860015869140625e-01 -3.570999801158905029e-01 3.790658712387084961e-02
-7.851807028055191040e-02 -1.168860048055648804e-01 -6.740767955780029297e-01
-2.750547826290130615e-01 -3.868812322616577148e-01 7.163044810295104980e-02
-3.280818760395050049e-01 -2.691082358360290527e-01 -7.203042507171630859e-01
-1.331935822963714600e-02 -1.510666012763977051e-01 -2.313944697380065918e-01
-2.444328367710113525e-01 -1.202752143144607544e-01 2.670574188232421875e-02
-3.754095435142517090e-01 -2.169750630855560303e-01 -8.345146477222442627e-02
-3.828134834766387939e-01 -2.548513412475585938e-01 -4.467428922653198242e-01
-2.914021313190460205e-01 -1.420352458953857422e-01 -6.420526504516601562e-01
-1.261404752731323242e-01 -4.050627350807189941e-01 -2.378085553646087646e-01
-3.535001873970031738e-01 -3.671976029872894287e-01 -1.681379973888397217e-01
4.626989364624023438e-03 -2.626475691795349121e-01 -1.966712176799774170e-01
-4.113417863845825195e-02 -1.190001964569091797e-01 -5.219345688819885254e-01
-2.805235981941223145e-01 -1.406186819076538086e-01 4.965257644653320312e-02
-2.156519442796707153e-01 -1.560740470886230469e-01 -8.395329713821411133e-01
-7.081516832113265991e-02 -3.569896817207336426e-01 -5.710231065750122070e-01
-3.213268220424652100e-01 -1.563683748245239258e-01 -1.433727145195007324e-02
-2.849493324756622314e-01 -1.185000836849212646e-01 -1.007499247789382935e-01
-1.885724365711212158e-01 -9.314380586147308350e-02 -7.888685166835784912e-02
-1.314940750598907471e-01 -4.073925912380218506e-01 -3.027090728282928467e-01
-1.354331076145172119e-01 -3.521723747253417969e-01 -7.480176091194152832e-01
-5.372555553913116455e-02 -1.580696403980255127e-01 9.552001953125000000e-03
-3.222181797027587891e-01 -2.216243892908096313e-01 1.724696159362792969e-01
-2.413308024406433105e-01 -4.120239615440368652e-01 -5.967713892459869385e-02
-4.701344668865203857e-02 -3.411302566528320312e-01 -1.003274470567703247e-01
-7.825193554162979126e-02 -3.501033782958984375e-01 -6.381770372390747070e-01
-3.516997992992401123e-01 -1.691481471061706543e-01 -1.372802853584289551e-01
-3.597549498081207275e-01 -2.902959287166595459e-01 -5.818610191345214844e-01
-8.570154011249542236e-02 -3.838891983032226562e-01 -3.928269743919372559e-01
-2.332505136728286743e-01 -1.031180471181869507e-01 -6.113163232803344727e-01
-3.688613772392272949e-01 -3.319392204284667969e-01 -4.750901460647583008e-02
-3.541563749313354492e-01 -3.630673587322235107e-01 -3.422321379184722900e-01
-1.350409686565399170e-01 -3.800937533378601074e-01 5.000075697898864746e-02
-2.886786162853240967e-01 -3.375929892063140869e-01 2.090468108654022217e-01
-3.073799908161163330e-01 -3.976216316223144531e-01 -3.531392514705657959e-01
-3.035611510276794434e-01 -1.244324520230293274e-01 -4.653818011283874512e-01
-9.543850272893905640e-02 -1.271321177482604980e-01 1.497453451156616211e-02
-1.334310621023178101e-01 -4.018035531044006348e-01 -4.470454156398773193e-01
-2.218682467937469482e-01 -1.958193182945251465e-01 -8.944467306137084961e-01
-1.340615749359130859e-01 -1.190406382083892822e-01 -7.614480853080749512e-01
-3.791653513908386230e-01 -3.264705240726470947e-01 -3.330495357513427734e-01
-1.202836781740188599e-01 -8.961215615272521973e-02 -5.844640731811523438e-01
-2.910779416561126709e-02 -2.374948412179946899e-01 -7.471286654472351074e-01
-2.970073819160461426e-01 -1.591098159551620483e-01 -6.861083507537841797e-01
-2.712555527687072754e-01 -2.405745983123779297e-01 2.811566889286041260e-01
-1.495596915483474731e-01 -1.019714474678039551e-01 -6.913059949874877930e-01
-2.373245060443878174e-01 -3.284067213535308838e-01 -8.145488500595092773e-01
-2.036058902740478516e-01 -2.620235979557037354e-01 -9.208941459655761719e-01
-1.713660359382629395e-02 -3.111478686332702637e-01 -5.119525194168090820e-01
-3.443472981452941895e-01 -1.567860543727874756e-01 -1.795309931039810181e-01
-3.194696903228759766e-01 -2.862523794174194336e-01 2.121978700160980225e-01
-3.315108418464660645e-01 -3.174534440040588379e-01 -6.520556211471557617e-01
-1.355433017015457153e-01 -1.964217573404312134e-01 -9.162982702255249023e-01
-2.950348854064941406e-01 -1.890043169260025024e-01 -7.624491453170776367e-01
-3.761082887649536133e-01 -2.040069699287414551e-01 -3.683275282382965088e-01
-9.250929951667785645e-02 -3.537029027938842773e-01 -6.639846563339233398e-01
-1.032194048166275024e-01 -3.092917799949645996e-01 -8.225784301757812500e-01
-2.496862411499023438e-02 -1.382362842559814453e-01 -5.539544820785522461e-01
-1.857152879238128662e-01 -3.450845777988433838e-01 -7.977765202522277832e-01
-2.822825312614440918e-01 -2.687174081802368164e-01 2.778815329074859619e-01
-2.246033251285552979e-01 -8.389703929424285889e-02 -4.228802025318145752e-01
-1.948648244142532349e-01 -1.305238902568817139e-01 -7.914491891860961914e-01
-3.556842803955078125e-01 -1.822526752948760986e-01 -4.766713678836822510e-01
-3.501975238323211670e-01 -1.988463997840881348e-01 2.389016747474670410e-02
-8.617688715457916260e-02 -9.945738315582275391e-02 -1.713858842849731445e-01
-3.537506461143493652e-01 -1.765775233507156372e-01 -9.995141625404357910e-02
-3.175647258758544922e-01 -3.717305064201354980e-01 -5.173738598823547363e-01
-1.886948794126510620e-01 -1.064062416553497314e-01 -7.010372877120971680e-01
-1.786834746599197388e-01 -7.856847345829010010e-02 -2.327917814254760742e-01
-2.469628155231475830e-01 -1.307667493820190430e-01 -7.201393842697143555e-01
3.391206264495849609e-04 -2.016404718160629272e-01 -1.539096981287002563e-01
-1.792344301939010620e-01 -4.188255667686462402e-01 -3.111198246479034424e-01
-2.854278683662414551e-01 -3.941855430603027344e-01 -4.895988106727600098e-01
-7.117847353219985962e-02 -1.093510836362838745e-01 -6.075124144554138184e-01
-2.325632274150848389e-01 -4.124001860618591309e-01 -4.461779892444610596e-01
-1.329203844070434570e-01 -1.152805387973785400e-01 2.535811066627502441e-02
-3.057615458965301514e-01 -3.929919302463531494e-01 -4.184862971305847168e-01
-3.793460130691528320e-01 -2.051039040088653564e-01 -2.803055644035339355e-01
-3.313130736351013184e-01 -2.146264761686325073e-01 -6.889935135841369629e-01
-2.083284854888916016e-01 -7.900393009185791016e-02 -3.219192028045654297e-01
-1.555726975202560425e-01 -1.160648614168167114e-01 4.874575138092041016e-02
-3.903049230575561523e-01 -2.428492307662963867e-01 -1.899177730083465576e-01
-9.784985333681106567e-02 -8.416062593460083008e-02 -3.946027755737304688e-01
-1.564877778291702271e-01 -1.938232779502868652e-01 2.553835809230804443e-01
-3.048757612705230713e-01 -3.548511862754821777e-01 1.388947367668151855e-01
8.313506841659545898e-04 -1.624836921691894531e-01 -3.775014281272888184e-01
-2.193125188350677490e-01 -3.420449793338775635e-01 -7.965962290763854980e-01
-3.210421204566955566e-01 -1.950359344482421875e-01 1.245341002941131592e-01
-1.799988597631454468e-01 -3.957964181900024414e-01 -5.856952071189880371e-01
-3.446291685104370117e-01 -1.554866135120391846e-01 -3.748738765716552734e-01
-1.803359240293502808e-01 -4.194494187831878662e-01 -2.553811371326446533e-01
-3.566868305206298828e-01 -3.601889610290527344e-01 -1.172462850809097290e-01
-3.278562426567077637e-02 -2.598806917667388916e-01 4.181256890296936035e-02
-4.999503493309020996e-03 -1.546876877546310425e-01 -4.557414650917053223e-01
-5.552968382835388184e-02 -3.439260721206665039e-01 -6.317660212516784668e-02
-3.683869540691375732e-02 -1.990896165370941162e-01 3.645813465118408203e-02
-2.935514748096466064e-01 -2.049287855625152588e-01 2.083706557750701904e-01
-3.419562578201293945e-01 -1.679939776659011841e-01 -5.091460943222045898e-01
-1.228942722082138062e-01 -1.764511466026306152e-01 -8.887594938278198242e-01
1.397427916526794434e-02 -2.418871074914932251e-01 -4.406670928001403809e-01
-1.446602344512939453e-01 -1.767553538084030151e-01 2.188024222850799561e-01
-4.415230453014373779e-02 -3.509201705455780029e-01 -2.110364884138107300e-01
-2.755212187767028809e-01 -3.932466804981231689e-01 3.549432754516601562e-02
-3.139799833297729492e-01 -2.116486132144927979e-01 -7.423148751258850098e-01
-2.161858081817626953e-01 -1.716232448816299438e-01 -8.683252334594726562e-01
-3.136503100395202637e-01 -3.983269333839416504e-01 -2.308890521526336670e-01
-3.114010691642761230e-01 -1.244358494877815247e-01 -2.426855415105819702e-01
1.166564226150512695e-02 -1.938173621892929077e-01 -4.334549903869628906e-01
-3.122112751007080078e-01 -3.981010913848876953e-01 -2.919889986515045166e-01
-3.284107148647308350e-02 -3.254014253616333008e-01 -5.514842271804809570e-01
-1.205828562378883362e-01 -2.121589630842208862e-01 2.413704097270965576e-01
-3.630177080631256104e-01 -2.348868548870086670e-01 4.571205377578735352e-02
-1.691649854183197021e-02 -2.482830733060836792e-01 -2.394920587539672852e-02
-1.621448397636413574e-01 -1.320290714502334595e-01 -8.101694583892822266e-01
-4.355110228061676025e-02 -2.346487492322921753e-01 8.674988150596618652e-02
-2.125931829214096069e-01 -8.002673089504241943e-02 -3.866907954216003418e-01
-2.840031385421752930e-01 -3.219051361083984375e-01 2.414172589778900146e-01
-2.970241308212280273e-01 -3.446032702922821045e-01 1.808045208454132080e-01
-2.098037600517272949e-01 -4.117631316184997559e-01 -4.778119921684265137e-02
-1.362555325031280518e-01 -7.611565291881561279e-02 -3.805428147315979004e-01
-5.634330213069915771e-02 -3.654608130455017090e-01 -3.272963166236877441e-01
-3.028427064418792725e-01 -1.177759021520614624e-01 -3.541043400764465332e-01
-3.774908185005187988e-01 -3.045567572116851807e-01 -3.259453177452087402e-02
1.558484137058258057e-02 -2.158842086791992188e-01 -3.448618650436401367e-01
4.358866810798645020e-01 -2.219044268131256104e-01 9.230958670377731323e-02
3.800858557224273682e-01 -2.713283896446228027e-02 1.828823238611221313e-01
2.786376178264617920e-01 5.512014031410217285e-04 -1.424921602010726929e-01
1.677409559488296509e-01 -5.043126642704010010e-02 5.380036775022745132e-03
4.663547277450561523e-01 -1.216269955039024353e-01 -1.654668897390365601e-01
3.838328123092651367e-01 -1.765005439519882202e-01 4.136612713336944580e-01
3.316764831542968750e-01 -1.488026231527328491e-02 -2.274343371391296387e-01
3.584224879741668701e-01 -2.150551229715347290e-01 2.886421978473663330e-01
1.540966480970382690e-01 -8.599305897951126099e-02 -8.322255313396453857e-02
4.684770703315734863e-01 -8.576465398073196411e-02 1.518501937389373779e-01
4.879412055015563965e-01 -1.157536357641220093e-01 9.664379060268402100e-02
4.843550324440002441e-01 -1.553243398666381836e-01 2.208123505115509033e-01
3.258058130741119385e-01 -2.043704986572265625e-01 -2.672902047634124756e-01
1.819080710411071777e-01 -3.123670071363449097e-02 -8.959745056927204132e-03
3.596493899822235107e-01 -5.958155542612075806e-02 -3.628195822238922119e-01
4.737834930419921875e-01 -1.924842298030853271e-01 1.392334699630737305e-02
4.502100944519042969e-01 -8.278438448905944824e-02 2.582517862319946289e-01
1.883862614631652832e-01 -1.575445830821990967e-01 -1.473093479871749878e-01
3.552123904228210449e-01 -1.011489331722259521e-02 7.251731306314468384e-02
3.738048970699310303e-01 -2.270592153072357178e-01 2.084695398807525635e-01
3.852188587188720703e-01 -2.583051472902297974e-02 1.516619771718978882e-01
4.867673218250274658e-01 -1.692061424255371094e-01 1.657135188579559326e-01
4.484485685825347900e-01 -2.110789716243743896e-01 1.847033500671386719e-01
3.747848272323608398e-01 -6.433150172233581543e-02 3.677151203155517578e-01
3.250116407871246338e-01 -1.797191500663757324e-01 -3.584430217742919922e-01
2.768403887748718262e-01 -2.110905945301055908e-01 1.583328098058700562e-01
4.919317364692687988e-01 -1.435490995645523071e-01 1.433333605527877808e-01
2.943097949028015137e-01 -2.671986818313598633e-03 9.356348216533660889e-02
2.951989769935607910e-01 -5.223631113767623901e-02 3.493964970111846924e-01
2.771503925323486328e-01 1.729741692543029785e-03 1.657439395785331726e-02
3.756416141986846924e-01 -2.303924858570098877e-01 -6.790506839752197266e-02
2.699811458587646484e-01 -1.380015909671783447e-02 -2.759182453155517578e-01
1.753282099962234497e-01 -6.902401894330978394e-02 -2.812132239341735840e-01
3.525114953517913818e-01 -1.715818047523498535e-02 1.691981405019760132e-01
3.889718651771545410e-01 -7.674501836299896240e-02 3.844503760337829590e-01
3.499837815761566162e-01 -6.505489349365234375e-03 -5.860885605216026306e-03
1.823278069496154785e-01 -7.444477826356887817e-02 1.633983403444290161e-01
3.802503645420074463e-01 -2.254797220230102539e-01 -1.163406521081924438e-01
1.732392907142639160e-01 -4.318986088037490845e-02 -1.873774230480194092e-01
3.002966642379760742e-01 -1.813056319952011108e-02 2.187524884939193726e-01
2.684985399246215820e-01 -2.437038719654083252e-02 -3.283521234989166260e-01
3.917291164398193359e-01 -2.183440476655960083e-01 2.678382992744445801e-01
2.723899185657501221e-01 -4.307627677917480469e-02 3.058427572250366211e-01
2.052572965621948242e-01 -1.758123338222503662e-01 3.260042518377304077e-02
4.100070595741271973e-01 -5.981028452515602112e-02 2.951977252960205078e-01
2.231055796146392822e-01 -1.012113988399505615e-01 -4.112032055854797363e-01
2.774978876113891602e-01 -1.886343955993652344e-02 2.120762765407562256e-01
4.881237745285034180e-01 -1.692188233137130737e-01 1.445472836494445801e-01
4.135550856590270996e-01 -4.041399806737899780e-02 1.615759134292602539e-01
2.031735181808471680e-01 -1.413559317588806152e-01 2.097379267215728760e-01
2.329007238149642944e-01 -1.235067844390869141e-02 -2.319364994764328003e-01
2.572886943817138672e-01 3.492608666419982910e-04 7.308416999876499176e-03
4.204734861850738525e-01 -2.182862013578414917e-01 -8.945223689079284668e-02
3.467005491256713867e-01 -1.658570766448974609e-02 -2.048741877079010010e-01
3.383048474788665771e-01 -2.201766967773437500e-01 -1.761301457881927490e-01
1.934722363948822021e-01 -1.513073146343231201e-01 1.268799304962158203e-01
2.405742108821868896e-01 -2.183169871568679810e-02 1.767327487468719482e-01
2.759029567241668701e-01 -2.925995737314224243e-02 2.601470947265625000e-01
3.364560604095458984e-01 -7.484906166791915894e-02 -4.193696975708007812e-01
4.775523245334625244e-01 -1.052929311990737915e-01 -5.485581606626510620e-02
3.048648238182067871e-01 -2.540356665849685669e-02 2.577680647373199463e-01
4.157467186450958252e-01 -1.464274376630783081e-01 -3.235334455966949463e-01
3.889426589012145996e-01 -6.381474435329437256e-02 3.493539094924926758e-01
1.627540439367294312e-01 -7.198087871074676514e-02 4.198821634054183960e-02
3.346528410911560059e-01 -2.322076112031936646e-01 8.455065637826919556e-02
2.297311127185821533e-01 -1.945476233959197998e-01 3.254551440477371216e-02
4.261250197887420654e-01 -1.729441285133361816e-01 -2.630865573883056641e-01
2.700555622577667236e-01 -1.000991463661193848e-02 -2.513622343540191650e-01
2.214615792036056519e-01 -3.889818489551544189e-02 -3.402059972286224365e-01
3.480575084686279297e-01 -1.505240052938461304e-01 -4.087754189968109131e-01
3.760617077350616455e-01 -5.952784419059753418e-02 -3.330799341201782227e-01
2.806718349456787109e-01 -1.265347748994827271e-02 1.767834573984146118e-01
4.018865525722503662e-01 -4.456903785467147827e-02 -2.051474303007125854e-01
2.328098416328430176e-01 -1.958243697881698608e-01 -9.325839579105377197e-02
3.263412714004516602e-01 -1.966607868671417236e-01 -3.013943433761596680e-01
3.577496111392974854e-01 -2.300418019294738770e-01 1.705275774002075195e-01
2.414685189723968506e-01 -2.008587568998336792e-01 5.449328199028968811e-02
2.353193461894989014e-01 -7.516101747751235962e-02 -4.209509789943695068e-01
1.695561408996582031e-01 -1.032101586461067200e-01 -2.532160282135009766e-01
4.797302484512329102e-01 -1.874791383743286133e-01 5.223752185702323914e-02
3.808922171592712402e-01 -1.975135505199432373e-01 3.634840250015258789e-01
2.077704071998596191e-01 -1.799988299608230591e-01 -3.184079378843307495e-02
3.620742559432983398e-01 -1.711229830980300903e-01 -3.634183406829833984e-01
1.852328479290008545e-01 -1.086956039071083069e-01 1.849984377622604370e-01
4.118748307228088379e-01 -2.261022180318832397e-01 1.716316640377044678e-01
3.112760484218597412e-01 -1.402758806943893433e-02 1.917361319065093994e-01
1.600483804941177368e-01 -5.842939764261245728e-02 -1.225271746516227722e-01
2.120155990123748779e-01 -1.034434884786605835e-02 -3.752436861395835876e-02
4.259254932403564453e-01 -2.097292095422744751e-01 -1.324563026428222656e-01
2.502939701080322266e-01 -7.074549794197082520e-04 -1.316755861043930054e-01
4.789519906044006348e-01 -1.085501387715339661e-01 1.920044124126434326e-01
4.164206385612487793e-01 -4.671514779329299927e-02 2.018006145954132080e-01
2.359189391136169434e-01 -5.365562811493873596e-02 2.813494801521301270e-01
2.489842176437377930e-01 -6.142423674464225769e-02 3.207242786884307861e-01
2.912897765636444092e-01 1.877076923847198486e-03 -1.050840839743614197e-01
4.166984260082244873e-01 -2.285477370023727417e-01 8.170013874769210815e-02
2.615634500980377197e-01 -1.469260901212692261e-01 3.632618486881256104e-01
3.265576660633087158e-01 -2.260326147079467773e-01 -1.116592958569526672e-01
3.888150751590728760e-01 -2.336566448211669922e-01 3.839130699634552002e-02
2.558276951313018799e-01 -1.694296896457672119e-01 3.050976991653442383e-01
2.513977289199829102e-01 -5.129598081111907959e-02 3.020458817481994629e-01
4.876231849193572998e-01 -1.739368140697479248e-01 6.926434487104415894e-02
3.319338560104370117e-01 -2.226906120777130127e-01 2.115394026041030884e-01
3.062355220317840576e-01 -2.269194126129150391e-01 6.937584280967712402e-02
4.100796282291412354e-01 -5.655538290739059448e-02 -2.318732738494873047e-01
2.785782217979431152e-01 -5.342870950698852539e-03 1.169346868991851807e-01
4.523388147354125977e-01 -1.947883665561676025e-01 -1.153453737497329712e-01
4.559499621391296387e-01 -1.385245472192764282e-01 3.470831215381622314e-01
2.175534367561340332e-01 -9.628124535083770752e-03 -1.506120413541793823e-01
2.084683179855346680e-01 -1.769021749496459961e-01 5.779533833265304565e-02
2.074953317642211914e-01 -1.715113520622253418e-01 1.015188321471214294e-01
2.843840420246124268e-01 -1.606651842594146729e-01 3.802371025085449219e-01
4.029434323310852051e-01 -2.235885411500930786e-01 2.177548408508300781e-01
4.005878865718841553e-01 -1.935996860265731812e-01 -2.581565678119659424e-01
3.667286932468414307e-01 -1.537937372922897339e-01 -3.890025019645690918e-01
2.139757871627807617e-01 -1.503301560878753662e-01 2.295092791318893433e-01
3.930320143699645996e-01 -2.486409246921539307e-02 9.301741421222686768e-02
3.258073031902313232e-01 -2.297298759222030640e-01 1.103671714663505554e-01
2.509260773658752441e-01 -2.040379643440246582e-01 -1.155083999037742615e-01
3.387837111949920654e-01 -2.326821982860565186e-01 -1.660688035190105438e-02
2.761614918708801270e-01 -1.767657697200775146e-03 7.539735734462738037e-02
4.834079742431640625e-01 -1.826313734054565430e-01 1.012916192412376404e-01
4.468104541301727295e-01 -6.276509165763854980e-02 1.501494497060775757e-01
4.846742451190948486e-01 -1.338975131511688232e-01 2.149208337068557739e-01
4.532512128353118896e-01 -6.534242630004882812e-02 1.048577129840850830e-01
2.641439437866210938e-01 -2.069232016801834106e-01 1.402974873781204224e-01
3.185607194900512695e-01 -2.126581966876983643e-03 -1.226037219166755676e-01
2.860123217105865479e-01 -1.963604539632797241e-01 -2.751375138759613037e-01
2.705135345458984375e-01 -1.924186944961547852e-01 2.593684494495391846e-01
3.874261975288391113e-01 -2.278769761323928833e-02 -8.850752562284469604e-02
3.633318841457366943e-01 -3.160294145345687866e-02 2.509929239749908447e-01
3.662108480930328369e-01 -1.225470006465911865e-02 4.115181416273117065e-02
4.389160871505737305e-01 -2.157740443944931030e-01 -3.320819512009620667e-02
4.484814107418060303e-01 -7.541903853416442871e-02 -1.382785886526107788e-01
4.571222662925720215e-01 -8.299776166677474976e-02 -1.191994920372962952e-01
3.041577935218811035e-01 -2.249363958835601807e-01 1.044975817203521729e-01
2.573967278003692627e-01 -1.377531439065933228e-01 -4.174510240554809570e-01
3.432385325431823730e-01 -5.832176283001899719e-02 -3.831953704357147217e-01
2.614830732345581055e-01 -1.613919138908386230e-01 -3.730665743350982666e-01
4.603934586048126221e-01 -2.011462450027465820e-01 -3.333285078406333923e-02
2.288761436939239502e-01 -8.895213901996612549e-02 3.190933763980865479e-01
2.997701168060302734e-01 -2.042257487773895264e-01 -2.503030598163604736e-01
3.156701624393463135e-01 -2.201628088951110840e-01 -1.574532538652420044e-01
3.478478789329528809e-01 -2.289568185806274414e-01 -9.587555378675460815e-02
2.432876676321029663e-01 -1.139629036188125610e-01 3.544323742389678955e-01
2.571333050727844238e-01 -2.591008692979812622e-02 2.245061099529266357e-01
4.797344803810119629e-01 -1.495840847492218018e-01 -9.559126198291778564e-02
3.387882709503173828e-01 -9.374435245990753174e-02 -4.354492127895355225e-01
1.759101450443267822e-01 -1.391334980726242065e-01 -1.735236793756484985e-01
3.559066057205200195e-01 -2.323444187641143799e-01 1.343647837638854980e-01
3.013006448745727539e-01 -7.884101569652557373e-02 -4.455001652240753174e-01
4.638437032699584961e-01 -7.903591543436050415e-02 -3.221837431192398071e-02
2.420741617679595947e-01 -1.863191276788711548e-01 1.952688843011856079e-01
4.377031326293945312e-01 -1.131221055984497070e-01 3.717745840549468994e-01
3.305127918720245361e-01 -2.287844121456146240e-01 1.418877840042114258e-01
4.141170382499694824e-01 -3.677534312009811401e-02 1.123236715793609619e-01
3.596096336841583252e-01 -2.159987390041351318e-02 1.912360191345214844e-01
4.006735086441040039e-01 -1.807047128677368164e-01 3.972128629684448242e-01
2.678481638431549072e-01 -1.855716407299041748e-01 -2.990123629570007324e-01
2.996007204055786133e-01 2.451740205287933350e-03 -3.329290449619293213e-02
2.279883325099945068e-01 -3.553336113691329956e-02 2.107831537723541260e-01
4.525418877601623535e-01 -1.954119205474853516e-01 2.680273056030273438e-01
4.493270516395568848e-01 -2.149319946765899658e-01 1.121864616870880127e-01
3.893260955810546875e-01 -2.110770344734191895e-02 -2.132359892129898071e-02
3.700885176658630371e-01 -1.765044629573822021e-01 -3.444139361381530762e-01
3.584455251693725586e-01 -1.676180362701416016e-01 4.299644529819488525e-01
4.499074220657348633e-01 -2.053132355213165283e-01 2.250530719757080078e-01
4.381618499755859375e-01 -1.991912424564361572e-01 2.940138578414916992e-01
4.694668054580688477e-01 -1.596031337976455688e-01 -1.414917856454849243e-01
4.105030894279479980e-01 -1.466199755668640137e-01 4.277193546295166016e-01
3.755367994308471680e-01 -2.340828925371170044e-01 4.113760311156511307e-03
3.450879752635955811e-01 -2.494601905345916748e-02 2.369171082973480225e-01
2.483411431312561035e-01 -2.803410589694976807e-02 -3.340781927108764648e-01
2.002535462379455566e-01 -1.040230318903923035e-01 2.454211264848709106e-01
2.175841331481933594e-01 -2.975884079933166504e-02 1.598900258541107178e-01
4.838556051254272461e-01 -1.711980700492858887e-01 -1.694857887923717499e-02
2.149613350629806519e-01 -1.845150291919708252e-01 -8.666118234395980835e-02
1.930935531854629517e-01 -2.025814354419708252e-02 -4.774035513401031494e-02
1.736640334129333496e-01 -1.395193189382553101e-01 -1.440464705228805542e-01
2.901487946510314941e-01 2.128630876541137695e-05 5.561045929789543152e-02
2.675065696239471436e-01 -1.990513801574707031e-01 -2.262966632843017578e-01
3.710734546184539795e-01 -3.241141140460968018e-02 -2.412590384483337402e-01
3.825435340404510498e-01 -7.197050005197525024e-02 -3.488627970218658447e-01
2.663036584854125977e-01 -1.138441264629364014e-03 5.461460724472999573e-02
3.527304530143737793e-01 -1.894391924142837524e-01 -3.218077421188354492e-01
4.434921741485595703e-01 -1.533035933971405029e-01 3.750230073928833008e-01
2.309637516736984253e-01 -7.130557298660278320e-02 3.048399090766906738e-01
1.714425981044769287e-01 -8.907055854797363281e-02 -2.744924426078796387e-01
3.299063742160797119e-01 -1.826827377080917358e-01 3.874386250972747803e-01
3.511112928390502930e-01 -2.223554104566574097e-01 2.378345131874084473e-01
3.665888309478759766e-01 -2.350061237812042236e-01 4.840106889605522156e-02
4.686719477176666260e-01 -1.145105436444282532e-01 -1.438685655593872070e-01
4.062309861183166504e-01 -2.251428663730621338e-01 -6.811864674091339111e-02
4.088519215583801270e-01 -2.120119631290435791e-01 2.875403463840484619e-01
1.566380262374877930e-01 -9.905828535556793213e-02 -1.974510401487350464e-02
3.022575080394744873e-01 -2.181640267372131348e-01 1.832254678010940552e-01
3.890627324581146240e-01 -3.338798880577087402e-02 2.046405375003814697e-01
2.719730138778686523e-01 -2.142790853977203369e-01 -9.105309098958969116e-02
1.870851367712020874e-01 -1.605279296636581421e-01 -6.262594461441040039e-02
3.961813747882843018e-01 -3.433223813772201538e-02 -1.624396443367004395e-01
2.860894203186035156e-01 -2.113041877746582031e-01 -1.793071925640106201e-01
2.952773272991180420e-01 -4.207996279001235962e-02 -3.836973905563354492e-01
4.233677387237548828e-01 -4.054774343967437744e-02 -1.984286867082118988e-02
4.740633666515350342e-01 -9.014819562435150146e-02 1.144508197903633118e-01
2.078273594379425049e-01 -1.170834898948669434e-02 -6.098667904734611511e-02
4.174813032150268555e-01 -3.841630369424819946e-02 -6.023350358009338379e-02
3.606621921062469482e-01 -2.098014205694198608e-01 -2.361029833555221558e-01
4.454500377178192139e-01 -1.816802918910980225e-01 -1.885260492563247681e-01
1.699506789445877075e-01 -5.404330790042877197e-02 -2.171111255884170532e-01
4.080761373043060303e-01 -7.386989891529083252e-02 3.487440645694732666e-01
1.548206210136413574e-01 -8.127185702323913574e-02 -1.223343014717102051e-01
4.220995903015136719e-01 -5.844047665596008301e-02 2.532600164413452148e-01
2.630396783351898193e-01 -1.915315538644790649e-01 -2.611255645751953125e-01
2.271153926849365234e-01 -1.935753226280212402e-01 -5.999673530459403992e-02
2.330241203308105469e-01 -8.140034973621368408e-03 5.618424713611602783e-02
3.786222636699676514e-01 -4.922181367874145508e-02 -2.958784401416778564e-01
4.689462184906005859e-01 -9.452893584966659546e-02 2.062190920114517212e-01
1.949751824140548706e-01 -1.403853595256805420e-01 -2.818254530429840088e-01
4.575439095497131348e-01 -1.468006670475006104e-01 -2.059527039527893066e-01
4.699800312519073486e-01 -8.312563598155975342e-02 8.504910022020339966e-02
3.125789165496826172e-01 -2.144060283899307251e-01 2.378468662500381470e-01
3.760631680488586426e-01 -2.332855761051177979e-01 -1.728895492851734161e-02
2.797453701496124268e-01 -1.535963118076324463e-01 -4.071210622787475586e-01
3.314903378486633301e-01 -1.738321632146835327e-01 4.079908132553100586e-01
3.367656171321868896e-01 -9.115234017372131348e-03 1.213227584958076477e-01
4.139562845230102539e-01 -1.136677339673042297e-01 -3.333255052566528320e-01
2.947257757186889648e-01 -6.902360916137695312e-02 3.855991661548614502e-01
3.651478886604309082e-01 -2.220674455165863037e-01 -1.582687795162200928e-01
1.682832390069961548e-01 -1.055577918887138367e-01 9.339497238397598267e-02
2.223545163869857788e-01 -1.616176068782806396e-01 -2.979080677032470703e-01
1.588435620069503784e-01 -1.144268885254859924e-01 -7.823970168828964233e-02
3.635310828685760498e-01 -2.475183457136154175e-02 -2.165402024984359741e-01
4.666883945465087891e-01 -1.373620331287384033e-01 3.118979334831237793e-01
4.604529738426208496e-01 -2.065902203321456909e-01 3.053137473762035370e-02
2.726474404335021973e-01 -1.379985511302947998e-01 3.921787142753601074e-01
4.300035834312438965e-01 -2.136924713850021362e-01 2.375324219465255737e-01
3.612541854381561279e-01 -5.014678835868835449e-02 3.357928693294525146e-01
3.666725456714630127e-01 -9.310606122016906738e-02 4.313939213752746582e-01
1.967606693506240845e-01 -1.000717878341674805e-01 -3.590697050094604492e-01
4.041362404823303223e-01 -2.000789046287536621e-01 3.429484963417053223e-01
2.872208654880523682e-01 -2.407319843769073486e-03 -1.804413795471191406e-01
2.070068269968032837e-01 -1.617202013731002808e-01 1.574850678443908691e-01
1.756823509931564331e-01 -1.463976651430130005e-01 -4.393558949232101440e-02
3.429603874683380127e-01 -5.728498101234436035e-03 -8.095939457416534424e-02
4.016919434070587158e-01 -1.769374907016754150e-01 -3.028232157230377197e-01
3.995207548141479492e-01 -6.893262267112731934e-02 -3.037636578083038330e-01
1.876344531774520874e-01 -1.606777608394622803e-01 -1.929846033453941345e-02
3.248379230499267578e-01 -2.100853323936462402e-01 -2.369121313095092773e-01
3.392362892627716064e-01 -7.191635668277740479e-03 -1.294908076524734497e-01
4.784222841262817383e-01 -9.627541154623031616e-02 2.751759253442287445e-02
2.258662581443786621e-01 -1.893803775310516357e-01 -1.300772875547409058e-01
3.251507878303527832e-01 -2.018213272094726562e-03 3.722546249628067017e-02
4.929653108119964600e-01 -1.385239809751510620e-01 6.037761270999908447e-02
4.198721647262573242e-01 -7.038004696369171143e-02 3.119435012340545654e-01
4.420820176601409912e-01 -1.656218767166137695e-01 -2.349026948213577271e-01
3.115369677543640137e-01 -2.257233858108520508e-02 -3.019494414329528809e-01
4.509945511817932129e-01 -1.748895645141601562e-01 3.324225842952728271e-01
3.108083307743072510e-01 -2.283327728509902954e-01 -1.538637280464172363e-02
1.752709150314331055e-01 -1.254789680242538452e-01 1.020328924059867859e-01
4.679449200630187988e-01 -1.468267142772674561e-01 -1.622681021690368652e-01
