1.177614331245422363e-01 -2.465423010289669037e-02 1.658812910318374634e-01
2.142313867807388306e-02 1.669079065322875977e-04 -3.276150822639465332e-01
1.141962483525276184e-01 1.213309541344642639e-02 -7.870042324066162109e-02
7.122489809989929199e-02 1.624521426856517792e-02 -2.095879986882209778e-03
1.656592637300491333e-02 1.080717705190181732e-02 3.077302873134613037e-01
7.193820178508758545e-02 -2.667679078876972198e-02 -2.400740385055541992e-01
-1.050622016191482544e-02 -2.319339103996753693e-02 1.172814965248107910e-01
3.249306976795196533e-02 -1.837626099586486816e-02 3.240949213504791260e-01
2.806561812758445740e-02 1.370122097432613373e-02 -1.068250387907028198e-01
7.399950921535491943e-02 1.656885072588920593e-02 1.393819004297256470e-01
4.302760213613510132e-02 -2.907705865800380707e-02 5.137404054403305054e-02
-2.229120582342147827e-02 1.138574630022048950e-02 7.083551585674285889e-02
-6.088882684707641602e-03 1.096144318580627441e-02 2.401674687862396240e-01
1.457808911800384521e-01 -2.393320389091968536e-02 1.936645433306694031e-02
-4.731826484203338623e-02 -1.376781053841114044e-02 1.266250759363174438e-01
4.038033261895179749e-02 -4.997848533093929291e-03 4.252610802650451660e-01
9.706027805805206299e-02 -2.299769315868616104e-03 4.163956046104431152e-01
1.582770049571990967e-01 2.674588002264499664e-03 -1.182409524917602539e-01
-3.369303792715072632e-02 9.064777754247188568e-03 8.858302235603332520e-02
8.449338376522064209e-03 -2.353573963046073914e-02 1.840785741806030273e-01
1.590082421898841858e-02 -2.376964315772056580e-02 1.978900581598281860e-01
4.198914021253585815e-02 1.295904628932476044e-02 -1.454901248216629028e-01
2.874038368463516235e-02 -1.948772370815277100e-02 3.039422035217285156e-01
4.786984622478485107e-02 1.499374397099018097e-02 -7.934747636318206787e-02
2.029855176806449890e-02 -2.545454539358615875e-02 1.601422280073165894e-01
-2.128130942583084106e-02 -1.613710075616836548e-02 2.354981899261474609e-01
-3.332628309726715088e-02 7.785895839333534241e-03 -5.341995880007743835e-02
-1.752430945634841919e-02 -2.044453099370002747e-02 1.662392765283584595e-01
7.621321827173233032e-02 -1.962339319288730621e-02 3.223356604576110840e-01
1.776749938726425171e-01 -1.188559457659721375e-03 9.351859986782073975e-02
1.128226891160011292e-01 -1.425429247319698334e-02 3.494705259799957275e-01
-1.677995175123214722e-02 -2.316230349242687225e-02 7.475847005844116211e-02
4.682751744985580444e-02 -2.847771905362606049e-02 -1.720897406339645386e-01
1.291347742080688477e-01 -2.451844140887260437e-02 -1.712621003389358521e-01
1.829003393650054932e-01 -6.951317191123962402e-03 2.634705044329166412e-02
-1.750572025775909424e-02 1.213341765105724335e-02 8.644956350326538086e-02
1.148812919855117798e-01 -2.009720355272293091e-02 2.733353972434997559e-01
-1.347282528877258301e-02 -1.946998387575149536e-02 2.061271369457244873e-01
6.495024263858795166e-02 1.279019564390182495e-02 3.073185682296752930e-01
4.847784340381622314e-02 1.654476113617420197e-02 1.000611111521720886e-02
1.146574765443801880e-01 -1.901912689208984375e-02 2.905742228031158447e-01
-4.797029495239257812e-02 -1.359969004988670349e-02 -1.295721977949142456e-01
6.355591118335723877e-02 -1.498792227357625961e-02 3.783689439296722412e-01
1.824045181274414062e-02 -1.580687239766120911e-02 3.373089730739593506e-01
-5.916505306959152222e-02 -9.865305386483669281e-03 -2.680866420269012451e-02
1.183842867612838745e-01 1.291003264486789703e-02 -2.056017890572547913e-02
2.008668705821037292e-02 5.749367177486419678e-03 -2.665244638919830322e-01
-2.541591972112655640e-02 -2.254369296133518219e-02 -4.439350217580795288e-03
5.982842296361923218e-03 -4.819821100682020187e-03 3.864600062370300293e-01
5.609764903783798218e-02 5.477705039083957672e-03 -2.915940880775451660e-01
-5.488082766532897949e-02 1.874305307865142822e-03 1.219879090785980225e-02
1.622335612773895264e-01 -2.037361636757850647e-02 -2.620423957705497742e-02
1.526906490325927734e-01 -1.682850718498229980e-02 2.103747129440307617e-01
6.973196566104888916e-02 -2.995361573994159698e-02 3.762077540159225464e-04
7.752433419227600098e-02 1.160125620663166046e-02 3.241440057754516602e-01
9.074544906616210938e-02 -2.885866723954677582e-02 6.142447516322135925e-02
8.556941151618957520e-02 -1.762390881776809692e-02 3.438076078891754150e-01
3.039757721126079559e-02 1.564054563641548157e-02 -2.333944663405418396e-02
1.190722063183784485e-01 -2.330096438527107239e-03 3.856266736984252930e-01
-5.439630895853042603e-02 1.885145902633666992e-03 -4.035376012325286865e-03
7.738368213176727295e-02 -2.606808952987194061e-02 1.929287016391754150e-01
1.049097180366516113e-01 -2.881343476474285126e-02 -3.812360763549804688e-02
7.260039448738098145e-02 -2.999942936003208160e-02 -6.698462367057800293e-02
9.206338226795196533e-02 1.546499878168106079e-02 1.685733348131179810e-01
-3.948765993118286133e-02 7.354358211159706116e-03 1.519173383712768555e-03
1.346908211708068848e-01 -2.466840483248233795e-02 8.993871510028839111e-02
7.477262616157531738e-02 -2.979947067797183990e-02 -9.523145854473114014e-02
7.700370997190475464e-02 8.672698400914669037e-03 3.692285418510437012e-01
2.971626445651054382e-02 1.644434593617916107e-02 1.034378856420516968e-01
8.663962036371231079e-02 -2.544077672064304352e-02 -2.572980821132659912e-01
1.354900896549224854e-01 1.066776551306247711e-02 -1.896519586443901062e-02
-1.107945293188095093e-02 -1.435577962547540665e-02 -2.971508800983428955e-01
7.912275195121765137e-02 -2.824917994439601898e-02 -1.852796971797943115e-01
3.274919092655181885e-02 1.524175330996513367e-02 -5.101476237177848816e-02
6.991094350814819336e-02 1.202556490898132324e-02 -1.698227971792221069e-01
1.506372839212417603e-01 -2.224668301641941071e-02 7.728201150894165039e-02
1.598848104476928711e-01 -8.293256163597106934e-03 -2.109971642494201660e-01
7.397598773241043091e-02 1.595673710107803345e-02 1.912088543176651001e-01
5.905879661440849304e-02 -1.978299021720886230e-02 3.213587999343872070e-01
-2.685699611902236938e-02 1.040270365774631500e-02 1.048557013273239136e-01
5.011662840843200684e-03 -2.521691843867301941e-02 1.164545267820358276e-01
3.651356324553489685e-02 -3.246186766773462296e-03 -3.621223568916320801e-01
-2.150836586952209473e-02 -2.195250242948532104e-02 9.277838468551635742e-02
1.365624517202377319e-01 1.114134863018989563e-02 1.233888566493988037e-01
1.217927783727645874e-02 -2.758260257542133331e-02 -8.665759861469268799e-02
4.558920115232467651e-02 -2.607457153499126434e-02 -2.485516667366027832e-01
1.532287150621414185e-01 -2.138632535934448242e-02 9.217458963394165039e-02
3.737334534525871277e-02 1.620188169181346893e-02 1.709228456020355225e-01
1.714900135993957520e-01 -1.729968190193176270e-02 -1.139282062649726868e-02
1.312843263149261475e-01 -1.515449024736881256e-02 3.041487038135528564e-01
1.154489815235137939e-03 -1.073280163109302521e-02 -3.363110125064849854e-01
9.904060512781143188e-03 1.230614446103572845e-02 2.594531774520874023e-01
1.977356150746345520e-02 1.191298849880695343e-02 2.918679416179656982e-01
1.161612868309020996e-01 1.240527257323265076e-02 2.181079536676406860e-01
2.030857652425765991e-02 -2.652961574494838715e-02 1.208987385034561157e-01
1.106143146753311157e-01 1.451437361538410187e-02 6.010688096284866333e-02
9.983070194721221924e-02 1.545934379100799561e-02 8.673080801963806152e-02
-4.286599904298782349e-02 6.179903633892536163e-03 -1.323677971959114075e-02
3.801508247852325439e-02 1.667293161153793335e-02 1.218640357255935669e-01
6.599003076553344727e-02 -2.899330854415893555e-02 8.381171524524688721e-02
-2.691912651062011719e-02 9.810235351324081421e-03 -2.066833153367042542e-02
1.068044602870941162e-01 -1.668180525302886963e-02 3.334625959396362305e-01
1.173763126134872437e-01 1.220517046749591827e-02 -6.175362691283226013e-02
-5.845807492733001709e-03 -5.676020402461290359e-03 -3.179035484790802002e-01
4.447745531797409058e-02 -2.447476051747798920e-02 2.269166111946105957e-01
4.903195053339004517e-02 -2.780775912106037140e-02 1.295284777879714966e-01
8.088316768407821655e-03 -2.676425129175186157e-02 5.176884308457374573e-02
1.396640539169311523e-01 1.080995984375476837e-02 6.479334086179733276e-02
7.578346878290176392e-02 4.541534930467605591e-03 -2.973892390727996826e-01
-2.007844299077987671e-02 1.122022606432437897e-02 -6.369685754179954529e-03
9.305669367313385010e-02 -2.863031812012195587e-02 -1.412401348352432251e-01
5.249172076582908630e-02 -2.982730604708194733e-02 7.572975009679794312e-04
1.616249978542327881e-01 2.476078458130359650e-03 -9.942659735679626465e-02
2.809307351708412170e-02 -2.174043655395507812e-02 2.651919424533843994e-01
1.330252885818481445e-01 1.095767132937908173e-02 1.773371100425720215e-01
2.269197255373001099e-03 -2.365195006132125854e-02 1.603105962276458740e-01
-4.631809890270233154e-02 -1.661219820380210876e-02 4.640311002731323242e-02
4.033213108777999878e-02 -2.100923657417297363e-02 -3.277390003204345703e-01
8.066315203905105591e-02 1.438246853649616241e-02 -8.488887548446655273e-02
-6.577707827091217041e-04 1.401223056018352509e-02 1.876032724976539612e-02
9.825626015663146973e-02 1.430078968405723572e-02 -4.419856891036033630e-02
1.385748237371444702e-01 -1.505489554256200790e-02 -2.758033275604248047e-01
8.114337921142578125e-03 1.388162188231945038e-02 1.996890455484390259e-01
8.495736867189407349e-02 1.588999107480049133e-02 8.980962447822093964e-03
1.714898645877838135e-02 -1.435918174684047699e-02 -3.522344827651977539e-01
5.090056732296943665e-02 1.013899967074394226e-02 3.544650077819824219e-01
1.424676477909088135e-01 8.819855749607086182e-03 1.937253773212432861e-01
4.889466241002082825e-02 -2.909343875944614410e-02 -1.426288634538650513e-01
4.648702964186668396e-02 -2.929563634097576141e-02 -1.237166970968246460e-01
1.377094984054565430e-01 7.106735371053218842e-03 2.635761499404907227e-01
-1.751943677663803101e-02 1.011835038661956787e-02 2.083816826343536377e-01
1.729156374931335449e-01 -5.394670180976390839e-03 -1.229390949010848999e-01
9.792397916316986084e-02 -2.357472293078899384e-02 2.350073903799057007e-01
1.056564748287200928e-01 -2.177458442747592926e-02 -2.916163504123687744e-01
1.042821258306503296e-01 9.813331067562103271e-03 -1.747123748064041138e-01
7.363215833902359009e-02 1.550289615988731384e-02 -4.500311985611915588e-02
6.028735265135765076e-02 -3.585176542401313782e-03 4.335623681545257568e-01
1.757404059171676636e-01 -6.019139196723699570e-03 -1.024116277694702148e-01
6.701171398162841797e-02 -2.727426588535308838e-02 1.584282219409942627e-01
6.586653739213943481e-02 -2.996255084872245789e-02 -8.288347721099853516e-02
1.080891489982604980e-02 -2.728889323770999908e-02 2.994232811033725739e-02
-5.099567025899887085e-02 3.878356888890266418e-03 5.764990299940109253e-02
5.752196907997131348e-02 1.163423433899879456e-02 3.314603269100189209e-01
7.353933155536651611e-02 1.558153890073299408e-02 2.124194949865341187e-01
1.827257499098777771e-02 1.408793590962886810e-02 2.273399531841278076e-01
-2.637997269630432129e-02 1.044529862701892853e-02 1.994148083031177521e-02
1.448750793933868408e-01 -1.960341259837150574e-02 -2.085207700729370117e-01
1.554891765117645264e-01 -2.185355126857757568e-02 3.523896262049674988e-02
4.678455740213394165e-02 -1.076457649469375610e-02 4.064135849475860596e-01
3.295835107564926147e-02 -2.705185487866401672e-02 1.334597468376159668e-01
-2.542456984519958496e-02 -2.012428455054759979e-02 1.308821290731430054e-01
-1.472592353820800781e-02 5.424889735877513885e-03 -1.994762718677520752e-01
2.630390599370002747e-02 1.593063585460186005e-02 1.257687248289585114e-02
1.297495663166046143e-01 -2.511028200387954712e-02 -1.468324810266494751e-01
4.642384126782417297e-02 6.244615651667118073e-03 -2.797986567020416260e-01
9.102229773998260498e-02 1.350343599915504456e-02 2.605812251567840576e-01
3.003939241170883179e-02 -2.088431455194950104e-02 2.831818759441375732e-01
1.439241170883178711e-01 5.697798915207386017e-03 -1.344594657421112061e-01
-2.150475978851318359e-02 8.361582644283771515e-03 2.318914532661437988e-01
8.168861269950866699e-03 1.433056965470314026e-02 -2.057574689388275146e-02
-8.475527167320251465e-03 8.434049785137176514e-03 2.839246988296508789e-01
1.438072174787521362e-01 -1.929889898747205734e-03 -2.412462234497070312e-01
-5.730658024549484253e-02 -1.161762047559022903e-02 2.893221192061901093e-02
1.195857673883438110e-01 -2.506476268172264099e-02 1.467237919569015503e-01
6.631045788526535034e-02 -2.522711083292961121e-02 2.185370028018951416e-01
-4.866676032543182373e-02 -1.511836983263492584e-02 -8.827230334281921387e-02
-1.629437506198883057e-02 2.041987143456935883e-03 -2.404772341251373291e-01
-4.694038629531860352e-02 -1.688559539616107941e-02 -7.846131920814514160e-03
1.423573046922683716e-01 9.754644706845283508e-03 1.518867909908294678e-01
1.455267667770385742e-01 -8.751559071242809296e-04 -2.258907854557037354e-01
6.277278065681457520e-02 -2.400777675211429596e-02 2.468842118978500366e-01
1.227915063500404358e-01 -2.726555056869983673e-02 -1.619083434343338013e-02
2.298880368471145630e-03 -2.676212787628173828e-02 -4.583407565951347351e-02
8.098440617322921753e-02 1.651260070502758026e-02 8.184342086315155029e-02
-1.312587410211563110e-02 -1.601727679371833801e-03 3.466742038726806641e-01
-1.293069869279861450e-02 -2.053166180849075317e-02 1.847240775823593140e-01
9.334202855825424194e-02 -2.945289947092533112e-02 -2.534072473645210266e-02
-3.154829144477844238e-02 -2.019613049924373627e-02 -1.180764734745025635e-01
1.657943129539489746e-01 -1.708897203207015991e-02 1.219151765108108521e-01
4.399690777063369751e-03 2.821293659508228302e-03 -2.790259420871734619e-01
3.108516335487365723e-03 -2.539798244833946228e-02 -1.639482378959655762e-01
9.452687948942184448e-02 1.570571772754192352e-02 4.845083504915237427e-02
4.937808960676193237e-03 1.041707582771778107e-02 -1.543498039245605469e-01
6.868146359920501709e-02 -2.223199419677257538e-02 2.821653187274932861e-01
1.672988086938858032e-01 3.870195709168910980e-03 1.037386655807495117e-01
1.710795462131500244e-01 -1.310598291456699371e-02 1.557603478431701660e-01
2.847194671630859375e-03 1.160538569092750549e-02 -1.156338602304458618e-01
1.478181481361389160e-01 9.201981127262115479e-03 1.044040620326995850e-01
4.332192242145538330e-03 -1.993556693196296692e-02 -2.863850593566894531e-01
-4.076165705919265747e-02 -1.717299036681652069e-02 9.992341697216033936e-02
1.445716470479965210e-01 9.541301056742668152e-03 1.368074417114257812e-01
-3.267213702201843262e-02 -2.101328596472740173e-02 -3.240657225251197815e-02
-4.956461489200592041e-03 -1.917118579149246216e-02 -2.717418968677520752e-01
1.259526014328002930e-01 -2.274827659130096436e-02 1.929058283567428589e-01
1.174074709415435791e-01 9.429300203919410706e-03 -1.500079482793807983e-01
6.287250667810440063e-02 1.309917867183685303e-02 -1.444882899522781372e-01
-1.303467899560928345e-02 -2.427835203707218170e-02 4.188140109181404114e-02
-1.646587997674942017e-02 -2.420352399349212646e-02 -3.655067831277847290e-02
1.006566137075424194e-01 -2.853092364966869354e-02 4.986806958913803101e-02
8.657196909189224243e-02 -2.970143593847751617e-02 -6.010706350207328796e-02
1.622680574655532837e-01 4.825211130082607269e-03 -2.293637022376060486e-02
9.420700371265411377e-02 1.208075508475303650e-02 2.922703921794891357e-01
1.706764101982116699e-01 -1.763236522674560547e-02 9.597260504961013794e-03
3.781721740961074829e-02 1.517918519675731659e-02 2.268969565629959106e-01
-1.026702672243118286e-02 -2.513007447123527527e-02 -1.297991722822189331e-02
1.951632648706436157e-02 1.527924649417400360e-02 -1.091383770108222961e-02
4.672401398420333862e-02 1.585358567535877228e-02 -3.702303394675254822e-02
8.816154301166534424e-02 -2.636496350169181824e-02 -2.338770627975463867e-01
2.933875098824501038e-02 1.021425239741802216e-02 -2.011842429637908936e-01
1.314246505498886108e-01 -1.123599186539649963e-01 2.244809865951538086e-01
2.487141788005828857e-01 -1.431733369827270508e-01 -4.608858376741409302e-02
2.421489655971527100e-01 -4.483941197395324707e-02 -1.574480235576629639e-01
2.602664232254028320e-01 -4.395456612110137939e-02 -9.586889296770095825e-02
1.836587041616439819e-01 -1.196564286947250366e-01 3.329326808452606201e-01
1.679532676935195923e-01 -3.634985908865928650e-02 2.137884497642517090e-02
1.068737283349037170e-01 -9.098184108734130859e-02 -4.657277464866638184e-02
2.143066376447677612e-01 -1.188050657510757446e-01 -2.703455388545989990e-01
1.572615057229995728e-01 -1.331075429916381836e-01 -3.730597347021102905e-02
1.118679419159889221e-01 -6.531422585248947144e-02 1.304086744785308838e-01
2.929061353206634521e-01 -5.254220589995384216e-02 7.943529635667800903e-02
2.053087800741195679e-01 -3.810250759124755859e-02 1.914315521717071533e-01
2.490550726652145386e-01 -1.393532752990722656e-01 1.979531049728393555e-01
3.280656039714813232e-01 -9.046727418899536133e-02 -1.740175485610961914e-02
1.442198157310485840e-01 -4.846051707863807678e-02 -1.002394035458564758e-01
1.573069393634796143e-01 -1.324122548103332520e-01 -5.224551260471343994e-02
2.857405245304107666e-01 -5.023169890046119690e-02 -4.525715112686157227e-02
2.526351809501647949e-01 -1.331314146518707275e-01 2.568681538105010986e-01
1.722586154937744141e-01 -5.428897961974143982e-02 3.052349984645843506e-01
2.675404846668243408e-01 -9.952003508806228638e-02 3.625534176826477051e-01
1.917715370655059814e-01 -3.623070195317268372e-02 1.535488367080688477e-01
2.765475809574127197e-01 -1.379981040954589844e-01 -4.805702716112136841e-02
2.978796362876892090e-01 -6.956545263528823853e-02 2.347168922424316406e-01
1.911951452493667603e-01 -5.168967321515083313e-02 -2.262600958347320557e-01
2.671799659729003906e-01 -4.758505523204803467e-02 1.872590482234954834e-01
2.412464916706085205e-01 -1.321261823177337646e-01 2.779962718486785889e-01
2.246312052011489868e-01 -3.468792885541915894e-02 -2.290014922618865967e-02
3.227078616619110107e-01 -9.348326176404953003e-02 1.581000089645385742e-01
1.738858371973037720e-01 -3.640445694327354431e-02 -2.898074686527252197e-02
1.896915286779403687e-01 -1.254523992538452148e-01 -2.168664038181304932e-01
3.262328207492828369e-01 -1.079618930816650391e-01 2.034854143857955933e-02
1.541350781917572021e-01 -5.437621846795082092e-02 -1.818693578243255615e-01
3.050631880760192871e-01 -1.282309889793395996e-01 6.964041292667388916e-02
2.220507711172103882e-01 -5.713659897446632385e-02 3.382223248481750488e-01
2.281612753868103027e-01 -3.455119952559471130e-02 7.461223006248474121e-02
2.211201936006546021e-01 -1.453575193881988525e-01 9.828229248523712158e-02
2.209176421165466309e-01 -3.769053891301155090e-02 1.753593981266021729e-01
1.436557471752166748e-01 -1.158483028411865234e-01 -1.582707166671752930e-01
2.143760770559310913e-01 -4.887371137738227844e-02 2.941127121448516846e-01
2.679468989372253418e-01 -5.101806297898292542e-02 -1.518640816211700439e-01
2.331525981426239014e-01 -1.433124840259552002e-01 -6.617567688226699829e-02
3.160768449306488037e-01 -8.279640972614288330e-02 -1.231654956936836243e-01
1.217047870159149170e-01 -5.428846925497055054e-02 -7.933862507343292236e-04
1.875655055046081543e-01 -1.397963762283325195e-01 -6.659466028213500977e-02
1.204852834343910217e-01 -5.449919030070304871e-02 2.280066721141338348e-02
1.666116118431091309e-01 -1.326807439327239990e-01 -9.796849638223648071e-02
3.138805329799652100e-01 -1.117388308048248291e-01 1.816882491111755371e-01
2.707456052303314209e-01 -1.341831088066101074e-01 -1.274699866771697998e-01
2.012650668621063232e-01 -1.382850259542465210e-01 -1.226581409573554993e-01
1.144904866814613342e-01 -1.061840578913688660e-01 -4.025565087795257568e-02
2.608666419982910156e-01 -1.431025862693786621e-01 7.016725093126296997e-02
1.960859596729278564e-01 -1.427654325962066650e-01 1.224528998136520386e-01
1.387383341789245605e-01 -1.266186535358428955e-01 9.811028838157653809e-02
1.694686114788055420e-01 -1.350931227207183838e-01 -7.491086423397064209e-02
3.175111413002014160e-01 -6.992218643426895142e-02 -4.336260259151458740e-03
2.118162661790847778e-01 -4.078380763530731201e-02 2.240429818630218506e-01
1.922810375690460205e-01 -9.611946344375610352e-02 -3.127402663230895996e-01
1.808319836854934692e-01 -1.412615776062011719e-01 7.143015414476394653e-02
2.745417058467864990e-01 -1.355646550655364990e-01 1.785969436168670654e-01
2.057152688503265381e-01 -4.357966035604476929e-02 -1.744333207607269287e-01
2.310523092746734619e-01 -9.540815651416778564e-02 4.046077430248260498e-01
1.587248742580413818e-01 -1.154098808765411377e-01 -2.095955312252044678e-01
2.325463593006134033e-01 -4.300500079989433289e-02 2.284881770610809326e-01
2.515070438385009766e-01 -6.830862164497375488e-02 3.533079624176025391e-01
2.171961367130279541e-01 -1.457895934581756592e-01 3.421612456440925598e-02
2.153050154447555542e-01 -5.806382000446319580e-02 -2.655794322490692139e-01
1.967189908027648926e-01 -1.131122410297393799e-01 3.710628151893615723e-01
2.647694945335388184e-01 -1.210461854934692383e-01 3.118917644023895264e-01
1.408626139163970947e-01 -1.270740330219268799e-01 -1.539301127195358276e-02
2.032794207334518433e-01 -3.343239054083824158e-02 -2.283502370119094849e-03
2.339085340499877930e-01 -1.399156004190444946e-01 2.080093622207641602e-01
2.113883495330810547e-01 -1.433982551097869873e-01 1.457460969686508179e-01
1.180835440754890442e-01 -1.136595830321311951e-01 6.416253745555877686e-02
1.715700328350067139e-01 -6.968235224485397339e-02 3.633493781089782715e-01
1.059652268886566162e-01 -9.888198226690292358e-02 3.662806376814842224e-02
2.377236932516098022e-01 -1.421550065279006958e-01 -8.461574465036392212e-02
1.292310357093811035e-01 -9.218043833971023560e-02 -1.858321130275726318e-01
1.711712181568145752e-01 -1.261588484048843384e-01 -1.765193641185760498e-01
1.122438386082649231e-01 -7.594144344329833984e-02 -9.235770255327224731e-02
1.456022560596466064e-01 -4.516064003109931946e-02 -6.385487318038940430e-02
1.043034866452217102e-01 -7.368470728397369385e-02 7.707336544990539551e-02
2.962849438190460205e-01 -7.460851222276687622e-02 -1.950924992561340332e-01
2.086091637611389160e-01 -3.646844252943992615e-02 -8.658290654420852661e-02
3.002313971519470215e-01 -8.082641661167144775e-02 2.662987411022186279e-01
2.881028056144714355e-01 -5.495693907141685486e-02 -1.030616238713264465e-01
1.913132369518280029e-01 -4.022895172238349915e-02 -1.323013305664062500e-01
3.116422891616821289e-01 -6.392072886228561401e-02 2.445624768733978271e-02
1.504457294940948486e-01 -5.288478359580039978e-02 2.516287267208099365e-01
1.350416392087936401e-01 -1.128788813948631287e-01 -1.387263238430023193e-01
2.320891916751861572e-01 -1.421878933906555176e-01 1.758207380771636963e-01
1.417160034179687500e-01 -1.239580065011978149e-01 1.786223351955413818e-01
2.489670217037200928e-01 -3.814690187573432922e-02 9.546248614788055420e-02
2.382808625698089600e-01 -1.405444443225860596e-01 -1.092688515782356262e-01
1.686657220125198364e-01 -1.366541236639022827e-01 1.376545131206512451e-01
3.040910363197326660e-01 -7.450599223375320435e-02 -1.612789034843444824e-01
1.788277328014373779e-01 -7.475634664297103882e-02 3.819950222969055176e-01
3.048615455627441406e-01 -8.170621842145919800e-02 2.486566007137298584e-01
2.823511064052581787e-01 -1.026506945490837097e-01 -2.543185353279113770e-01
2.980991601943969727e-01 -6.098899990320205688e-02 1.717849671840667725e-01
2.499802261590957642e-01 -1.371971070766448975e-01 2.223312854766845703e-01
1.121377572417259216e-01 -7.166014611721038818e-02 1.758432686328887939e-01
2.431549876928329468e-01 -3.663351386785507202e-02 -3.715865314006805420e-03
2.221014648675918579e-01 -3.373119607567787170e-02 3.067329525947570801e-02
2.464927434921264648e-01 -1.055479645729064941e-01 3.821169734001159668e-01
1.250444054603576660e-01 -5.780157074332237244e-02 -8.369909971952438354e-02
1.602184176445007324e-01 -5.239840596914291382e-02 2.728324830532073975e-01
1.754635423421859741e-01 -3.556516394019126892e-02 8.987500518560409546e-02
3.239521384239196777e-01 -9.079437702894210815e-02 1.433361172676086426e-01
1.683275997638702393e-01 -6.100796908140182495e-02 -2.433471381664276123e-01
2.657512426376342773e-01 -1.391222774982452393e-01 1.584363877773284912e-01
2.135643661022186279e-01 -5.288657546043395996e-02 -2.402584254741668701e-01
2.269820272922515869e-01 -4.644968360662460327e-02 2.675706446170806885e-01
2.636438608169555664e-01 -1.391623020172119141e-01 -8.283762633800506592e-02
2.585825622081756592e-01 -4.359526932239532471e-02 1.676935255527496338e-01
2.470876276493072510e-01 -1.383994072675704956e-01 -1.279197037220001221e-01
1.693778336048126221e-01 -4.236758872866630554e-02 -1.197296008467674255e-01
2.760286927223205566e-01 -5.123969912528991699e-02 -1.231152042746543884e-01
2.483485639095306396e-01 -1.345274597406387329e-01 -1.665238738059997559e-01
2.304230779409408569e-01 -3.598736971616744995e-02 -4.675632715225219727e-02
1.952877938747406006e-01 -1.138410344719886780e-01 -2.771820724010467529e-01
2.462384104728698730e-01 -4.154333099722862244e-02 1.807824671268463135e-01
2.677138447761535645e-01 -7.785810530185699463e-02 3.510958254337310791e-01
3.256777226924896240e-01 -1.051963195204734802e-01 9.882090985774993896e-02
2.422360777854919434e-01 -3.619896247982978821e-02 1.954417489469051361e-02
1.910467445850372314e-01 -4.741741344332695007e-02 -1.983239650726318359e-01
1.813943088054656982e-01 -3.446384146809577942e-02 1.482400298118591309e-02
2.938165068626403809e-01 -1.239572763442993164e-01 2.145401537418365479e-01
1.708261072635650635e-01 -1.247394382953643799e-01 2.819717228412628174e-01
1.129329577088356018e-01 -9.973404556512832642e-02 -7.168442010879516602e-02
1.457311362028121948e-01 -1.148423328995704651e-01 2.711562812328338623e-01
3.177423477172851562e-01 -7.318933308124542236e-02 -5.275361239910125732e-02
2.586524486541748047e-01 -6.111987680196762085e-02 3.130961656570434570e-01
2.906292080879211426e-01 -5.780100077390670776e-02 -1.192616000771522522e-01
1.642102152109146118e-01 -9.764415025711059570e-02 3.679720163345336914e-01
2.802283763885498047e-01 -5.803386867046356201e-02 2.361922562122344971e-01
1.956762820482254028e-01 -6.278313696384429932e-02 -2.790976762771606445e-01
2.218113988637924194e-01 -3.608326613903045654e-02 -6.829199939966201782e-02
3.259034752845764160e-01 -1.086611449718475342e-01 4.459597915410995483e-02
2.328754663467407227e-01 -1.410457789897918701e-01 1.931947171688079834e-01
1.909313201904296875e-01 -3.479230776429176331e-02 1.179725453257560730e-01
1.932096779346466064e-01 -1.400406062602996826e-01 1.743143498897552490e-01
2.068891376256942749e-01 -1.286568641662597656e-01 3.056466281414031982e-01
1.803365349769592285e-01 -1.407649517059326172e-01 4.487857222557067871e-05
1.798630803823471069e-01 -6.114687025547027588e-02 -2.598058581352233887e-01
2.669124007225036621e-01 -1.333746016025543213e-01 2.266799509525299072e-01
3.158549666404724121e-01 -1.202063560485839844e-01 7.731054723262786865e-02
1.836185306310653687e-01 -4.798795655369758606e-02 2.787703275680541992e-01
2.411035001277923584e-01 -1.070977747440338135e-01 -3.019225001335144043e-01
2.364407628774642944e-01 -1.457978039979934692e-01 4.442032799124717712e-02
1.097404807806015015e-01 -1.044977381825447083e-01 7.826535403728485107e-02
2.324647307395935059e-01 -3.876705095171928406e-02 -9.912394732236862183e-02
1.457652151584625244e-01 -7.886090129613876343e-02 3.336412906646728516e-01
3.291589319705963135e-01 -9.320147335529327393e-02 5.732112377882003784e-02
2.807311415672302246e-01 -1.222462654113769531e-01 -1.932591795921325684e-01
2.477650046348571777e-01 -1.235850155353546143e-01 3.235874772071838379e-01
2.798286974430084229e-01 -4.699482023715972900e-02 9.107893705368041992e-02
2.549525201320648193e-01 -1.176097095012664795e-01 3.407292664051055908e-01
1.269514262676239014e-01 -1.137031912803649902e-01 1.867820024490356445e-01
3.069979250431060791e-01 -1.203921884298324585e-01 1.710861623287200928e-01
1.529633253812789917e-01 -3.997217863798141479e-02 8.920747786760330200e-03
2.113527804613113403e-01 -1.377189755439758301e-01 2.325083017349243164e-01
1.211075112223625183e-01 -1.154287010431289673e-01 9.769161045551300049e-02
3.209317326545715332e-01 -7.369736582040786743e-02 6.242483854293823242e-02
1.594363152980804443e-01 -3.912384063005447388e-02 -2.470713108777999878e-02
2.946818768978118896e-01 -9.682338684797286987e-02 3.000051975250244141e-01
2.839517295360565186e-01 -6.242069974541664124e-02 -1.831410825252532959e-01
2.010954171419143677e-01 -3.971882909536361694e-02 2.125440239906311035e-01
1.467485874891281128e-01 -5.292727798223495483e-02 -1.500250697135925293e-01
3.158676028251647949e-01 -1.191413998603820801e-01 -2.812388539314270020e-02
1.079986616969108582e-01 -8.161187916994094849e-02 -6.644909083843231201e-02
2.562827169895172119e-01 -1.208177953958511353e-01 -2.449438273906707764e-01
2.172649353742599487e-01 -1.410699039697647095e-01 -1.030163541436195374e-01
2.331698387861251831e-01 -1.348676085472106934e-01 -1.744994521141052246e-01
1.860392838716506958e-01 -1.294499039649963379e-01 2.776355743408203125e-01
1.791543662548065186e-01 -3.942805156111717224e-02 1.872758865356445312e-01
1.896478533744812012e-01 -1.344134658575057983e-01 2.401363551616668701e-01
2.678337395191192627e-01 -4.452100396156311035e-02 1.360768079757690430e-01
3.030177354812622070e-01 -6.872782111167907715e-02 2.035014033317565918e-01
1.489481925964355469e-01 -1.309018135070800781e-01 1.112889721989631653e-01
1.746906489133834839e-01 -1.363421231508255005e-01 1.748004853725433350e-01
2.553756833076477051e-01 -8.435835689306259155e-02 3.804956972599029541e-01
1.644394099712371826e-01 -4.160725325345993042e-02 1.818090677261352539e-01
2.030145525932312012e-01 -7.445816695690155029e-02 3.956656754016876221e-01
2.808258235454559326e-01 -6.877823919057846069e-02 2.935679554939270020e-01
2.448982894420623779e-01 -4.370976239442825317e-02 2.125421762466430664e-01
3.012479841709136963e-01 -1.287342011928558350e-01 1.149289608001708984e-01
3.111810088157653809e-01 -1.157558932900428772e-01 -1.057412549853324890e-01
2.881046533584594727e-01 -1.341641992330551147e-01 1.279412508010864258e-01
1.046750470995903015e-01 -8.530590683221817017e-02 1.304675489664077759e-01
1.492814719676971436e-01 -1.284119486808776855e-01 -6.613159924745559692e-02
2.433212101459503174e-01 -1.184425354003906250e-01 -2.668658196926116943e-01
2.132239490747451782e-01 -3.791237249970436096e-02 -1.086787804961204529e-01
1.131647005677223206e-01 -8.156607300043106079e-02 -1.080848500132560730e-01
3.282533884048461914e-01 -8.681038022041320801e-02 2.358274348080158234e-02
2.551343142986297607e-01 -5.259492248296737671e-02 -1.978129744529724121e-01
3.252691626548767090e-01 -8.649459481239318848e-02 1.155981048941612244e-01
2.923959791660308838e-01 -1.344975233078002930e-01 1.060862094163894653e-02
1.236938908696174622e-01 -9.821273386478424072e-02 -1.487061977386474609e-01
2.131217569112777710e-01 -3.340519592165946960e-02 6.829256564378738403e-02
2.483828812837600708e-01 -9.767124801874160767e-02 -3.106608390808105469e-01
2.178829759359359741e-01 -1.445366293191909790e-01 1.244027614593505859e-01
1.248561665415763855e-01 -6.443094462156295776e-02 -1.270056962966918945e-01
2.478632926940917969e-01 -3.860894590616226196e-02 1.174309849739074707e-01
1.355788409709930420e-01 -8.640626072883605957e-02 -2.130256295204162598e-01
3.161147534847259521e-01 -1.206765621900558472e-01 2.246502414345741272e-02
2.894260883331298828e-01 -8.183041960000991821e-02 -2.356981039047241211e-01
2.990977764129638672e-01 -1.018688008189201355e-01 2.803358435630798340e-01
3.075917959213256836e-01 -1.269775032997131348e-01 5.227941274642944336e-02
1.834448873996734619e-01 -9.585873782634735107e-02 3.946413993835449219e-01
2.263134419918060303e-01 -3.915606066584587097e-02 1.903596222400665283e-01
1.238049715757369995e-01 -1.096132397651672363e-01 -9.536229819059371948e-02
2.201051861047744751e-01 -3.659317269921302795e-02 1.569920927286148071e-01
1.750037670135498047e-01 -1.399250328540802002e-01 2.188191562891006470e-02
2.239254266023635864e-01 -1.325546503067016602e-01 -1.946753561496734619e-01
1.553356200456619263e-01 -1.252531111240386963e-01 -1.336953043937683105e-01
1.247541606426239014e-01 -8.333531767129898071e-02 2.700443565845489502e-01
3.192611336708068848e-01 -7.132659852504730225e-02 4.789365828037261963e-02
1.167609468102455139e-01 -1.110272556543350220e-01 -7.449660450220108032e-03
1.242804750800132751e-01 -1.123338118195533752e-01 -7.673449814319610596e-02
2.207443416118621826e-01 -6.629018485546112061e-02 -2.944825291633605957e-01
2.261411398649215698e-01 -1.329565644264221191e-01 2.794980406761169434e-01
1.475823521614074707e-01 -6.253737211227416992e-02 -2.047969102859497070e-01
1.884820908308029175e-01 -3.513677790760993958e-02 -4.194474965333938599e-02
2.428607046604156494e-01 -1.446464508771896362e-01 1.033803001046180725e-01
2.424543201923370361e-01 -3.976626694202423096e-02 1.640066355466842651e-01
1.628849357366561890e-01 -6.946674734354019165e-02 3.503882884979248047e-01
1.544906049966812134e-01 -1.339824050664901733e-01 4.362555965781211853e-02
2.536334097385406494e-01 -3.841365128755569458e-02 5.239827930927276611e-02
3.120963573455810547e-01 -8.942162245512008667e-02 -1.595161557197570801e-01
3.235722184181213379e-01 -9.322562068700790405e-02 -8.366640657186508179e-02
1.569391191005706787e-01 -9.850680083036422729e-02 3.533679544925689697e-01
2.001251727342605591e-01 -5.516619980335235596e-02 -2.500169277191162109e-01
2.367578446865081787e-01 -1.453204005956649780e-01 -2.936195582151412964e-03
3.051207661628723145e-01 -6.961295008659362793e-02 -1.305874288082122803e-01
1.380510777235031128e-01 -1.267764866352081299e-01 2.980526536703109741e-02
1.151990368962287903e-01 -9.822417795658111572e-02 1.990530192852020264e-01
1.414015293121337891e-01 -4.586772620677947998e-02 1.380285471677780151e-01
1.041224971413612366e-01 -7.546445727348327637e-02 9.255857020616531372e-02
2.620061933994293213e-01 -1.426939964294433594e-01 -3.099739551544189453e-04
1.470779925584793091e-01 -1.310568898916244507e-01 6.158813461661338806e-02
2.237965613603591919e-01 -1.370129585266113281e-01 -1.551416516304016113e-01
2.737803757190704346e-01 -4.872006177902221680e-02 1.712899804115295410e-01
1.746758222579956055e-01 -1.338584274053573608e-01 -1.131689622998237610e-01
3.160224556922912598e-01 -1.053163111209869385e-01 -1.236480101943016052e-01
1.147377341985702515e-01 -1.068959087133407593e-01 1.389734148979187012e-01
1.821215450763702393e-01 -1.416282206773757935e-01 4.066292569041252136e-02
2.286006212234497070e-01 -6.316965818405151367e-02 -2.815241515636444092e-01
1.583784073591232300e-01 -3.826855495572090149e-02 4.861761257052421570e-02
1.523551791906356812e-01 -1.306914091110229492e-01 1.489693224430084229e-01
2.416428327560424805e-01 -3.704933449625968933e-02 -3.229023516178131104e-02
1.973407417535781860e-01 -4.178198426961898804e-02 2.346543967723846436e-01
3.079665899276733398e-01 -6.199741363525390625e-02 -1.918746903538703918e-02
2.934241592884063721e-01 -5.239695683121681213e-02 5.980717763304710388e-02
1.585085541009902954e-01 -4.690537601709365845e-02 2.255091071128845215e-01
1.907168477773666382e-01 -1.423721611499786377e-01 -1.407059654593467712e-02
2.509810328483581543e-01 -1.419856697320938110e-01 1.519466042518615723e-01
2.360564172267913818e-01 -7.661883533000946045e-02 -3.116351664066314697e-01
2.289541214704513550e-01 -3.437539562582969666e-02 4.996219277381896973e-02
1.111082509160041809e-01 -9.741239994764328003e-02 1.688163280487060547e-01
2.802115380764007568e-01 -1.355554312467575073e-01 -7.400254160165786743e-02
1.514737159013748169e-01 -4.636782780289649963e-02 1.971625387668609619e-01
2.834964394569396973e-01 -1.365738064050674438e-01 1.109187081456184387e-01
1.819775402545928955e-01 -1.098918020725250244e-01 3.672414422035217285e-01
1.755429357290267944e-01 -4.596889019012451172e-02 2.527953684329986572e-01
2.040836960077285767e-01 -1.439118534326553345e-01 -2.211506664752960205e-02
1.856125146150588989e-01 -7.444294542074203491e-02 -3.004716038703918457e-01
1.696102023124694824e-01 -1.157670542597770691e-01 3.281847834587097168e-01
1.034660488367080688e-01 -8.670206367969512939e-02 -5.950562655925750732e-03
2.931661307811737061e-01 -5.974084138870239258e-02 1.903866827487945557e-01
1.261024028062820435e-01 -5.290808528661727905e-02 1.275632232427597046e-01
2.482592463493347168e-01 -8.986192196607589722e-02 3.922165334224700928e-01
2.908982634544372559e-01 -1.352580189704895020e-01 5.203434452414512634e-02
1.476394832134246826e-01 -1.259870827198028564e-01 -8.933161944150924683e-02
1.420655101537704468e-01 -1.053577959537506104e-01 -2.014336585998535156e-01
2.561215162277221680e-01 -7.591677457094192505e-02 -2.914771139621734619e-01
3.284696638584136963e-01 -9.445489943027496338e-02 8.141592144966125488e-02
2.620967030525207520e-01 -4.732982441782951355e-02 -1.334283947944641113e-01
2.422696352005004883e-01 -1.274801939725875854e-01 -2.234887182712554932e-01
2.605875730514526367e-01 -1.407775580883026123e-01 -6.361350417137145996e-02
2.863624095916748047e-01 -1.268418580293655396e-01 -1.457522809505462646e-01
2.595218420028686523e-01 -1.338967382907867432e-01 -1.559808850288391113e-01
1.611588299274444580e-01 -4.793243110179901123e-02 2.415977716445922852e-01
2.975991368293762207e-01 -1.317467242479324341e-01 8.659729361534118652e-02
1.761799156665802002e-01 -9.609676152467727661e-02 -2.953983843326568604e-01
2.225119471549987793e-01 -1.458564698696136475e-01 6.890814006328582764e-02
1.345908641815185547e-01 -4.755320772528648376e-02 1.111739575862884521e-01
2.114787101745605469e-01 -3.549654781818389893e-02 1.436265707015991211e-01
2.310632020235061646e-01 -1.438712477684020996e-01 1.435071527957916260e-01
1.471181809902191162e-01 -1.305215358734130859e-01 3.123413771390914917e-03
1.365192234516143799e-01 -1.186673045158386230e-01 2.035923302173614502e-01
2.550029754638671875e-01 -4.171789810061454773e-02 -8.066855370998382568e-02
1.136909946799278259e-01 -8.623906224966049194e-02 2.128417193889617920e-01
2.773164510726928711e-01 -1.082806885242462158e-01 3.299475014209747314e-01
1.988800913095474243e-01 -6.892032176256179810e-02 3.824560940265655518e-01
1.241893917322158813e-01 -1.087910905480384827e-01 2.054852247238159180e-01
1.389041543006896973e-01 -4.933189973235130310e-02 -8.260560035705566406e-02
2.833271026611328125e-01 -1.317927241325378418e-01 -1.104779317975044250e-01
2.557047903537750244e-01 -1.286859214305877686e-01 2.849197089672088623e-01
2.348899096250534058e-01 -5.133878067135810852e-02 -2.195465564727783203e-01
2.614866495132446289e-01 -1.422429829835891724e-01 1.057291105389595032e-01
2.267075330018997192e-01 -1.111234575510025024e-01 -2.973921597003936768e-01
1.432318091392517090e-01 -7.341850548982620239e-02 3.185024261474609375e-01
2.414982616901397705e-01 -4.812524095177650452e-02 -1.881523132324218750e-01
2.430035918951034546e-01 -3.862247243523597717e-02 -6.772604584693908691e-02
2.825454473495483398e-01 -1.378888040781021118e-01 7.506975531578063965e-02
2.416692376136779785e-01 -5.895803868770599365e-02 3.296061456203460693e-01
1.319018900394439697e-01 -6.565781682729721069e-02 2.596359848976135254e-01
3.006972074508666992e-01 -1.309523880481719971e-01 3.360798954963684082e-02
2.414704561233520508e-01 -3.831696510314941406e-02 1.392977535724639893e-01
2.496364861726760864e-01 -1.096618622541427612e-01 -2.897766828536987305e-01
3.064450323581695557e-01 -1.021992489695549011e-01 -1.803620457649230957e-01
2.914461493492126465e-01 -1.201373338699340820e-01 2.480857074260711670e-01
1.657736301422119141e-01 -3.718322142958641052e-02 -5.029644817113876343e-03
1.618116945028305054e-01 -4.016053676605224609e-02 -6.231842190027236938e-02
3.032505810260772705e-01 -1.239820718765258789e-01 -8.968236297369003296e-02
2.101778686046600342e-01 -1.360127031803131104e-01 2.494382262229919434e-01
2.577836811542510986e-01 -4.126403853297233582e-02 -5.748070031404495239e-02
1.759752035140991211e-01 -4.452456533908843994e-02 -1.560159325599670410e-01
3.233865499496459961e-01 -7.971073687076568604e-02 9.940145164728164673e-02
1.401937901973724365e-01 -6.267468631267547607e-02 2.759492695331573486e-01
1.682261228561401367e-01 -1.280717104673385620e-01 2.499648630619049072e-01
1.105071157217025757e-01 -6.395153701305389404e-02 1.145202852785587311e-02
1.360224485397338867e-01 -5.703952535986900330e-02 -1.372008621692657471e-01
2.887817025184631348e-01 -1.110071316361427307e-01 -2.194760143756866455e-01
2.842392921447753906e-01 -1.376694440841674805e-01 3.500334918498992920e-02
1.168592646718025208e-01 -6.346637010574340820e-02 -6.813802570104598999e-02
1.368687450885772705e-01 -5.414979159832000732e-02 -1.197590306401252747e-01
2.899793684482574463e-01 -7.291246205568313599e-02 -2.113277018070220947e-01
3.193852305412292480e-01 -1.092424243688583374e-01 1.513172984123229980e-01
1.222325786948204041e-01 -5.342703312635421753e-02 7.879608869552612305e-02
2.901211977005004883e-01 -1.336935460567474365e-01 -4.405578225851058960e-02
2.137488573789596558e-01 -1.132098361849784851e-01 -2.902477085590362549e-01
2.768648564815521240e-01 -4.712174087762832642e-02 1.246992126107215881e-01
2.343873083591461182e-01 -5.762504786252975464e-02 -2.548875510692596436e-01
1.302831470966339111e-01 -1.035843491554260254e-01 2.623502910137176514e-01
2.455687373876571655e-01 -5.401147529482841492e-02 2.973423600196838379e-01
1.746039986610412598e-01 -1.133156493306159973e-01 -2.523581981658935547e-01
3.099673986434936523e-01 -9.727962315082550049e-02 2.397285997867584229e-01
3.099375367164611816e-01 -1.118030026555061340e-01 2.059318721294403076e-01
3.065487146377563477e-01 -6.006139889359474182e-02 4.201315715909004211e-02
2.620810568332672119e-01 -1.107050403952598572e-01 3.521567881107330322e-01
1.439953446388244629e-01 -8.946350961923599243e-02 -2.372323274612426758e-01
2.215527147054672241e-01 -7.382253557443618774e-02 -3.124186098575592041e-01
2.383989542722702026e-01 -5.051742494106292725e-02 2.849385738372802734e-01
3.056582212448120117e-01 -6.001564115285873413e-02 7.448002696037292480e-02
2.341283112764358521e-01 -6.962120532989501953e-02 3.761601150035858154e-01
2.988785505294799805e-01 -1.291200667619705200e-01 -5.572242289781570435e-02
2.064252495765686035e-01 -1.419709175825119019e-01 1.675956547260284424e-01
1.026963144540786743e-01 -8.792019635438919067e-02 1.809378899633884430e-02
1.880337893962860107e-01 -3.925665467977523804e-02 -1.163428500294685364e-01
1.980855166912078857e-01 -4.831314831972122192e-02 2.905035018920898438e-01
3.062587678432464600e-01 -6.299852579832077026e-02 -6.156242638826370239e-02
1.288284957408905029e-01 -4.912607744336128235e-02 4.516024515032768250e-02
2.472282201051712036e-01 -4.137958586215972900e-02 -1.032029911875724792e-01
1.596462279558181763e-01 -4.103674739599227905e-02 1.552727520465850830e-01
1.225269734859466553e-01 -8.230587095022201538e-02 -1.612172424793243408e-01
2.788646519184112549e-01 -7.292670011520385742e-02 3.137005567550659180e-01
1.529361009597778320e-01 -1.081008985638618469e-01 3.213091790676116943e-01
1.588230431079864502e-01 -1.186278834939002991e-01 -1.929297149181365967e-01
2.581075429916381836e-01 -4.845225065946578979e-02 2.281455099582672119e-01
2.896980047225952148e-01 -1.130649298429489136e-01 2.845883965492248535e-01
1.832363605499267578e-01 -3.476055338978767395e-02 -1.325554400682449341e-02
2.159467488527297974e-01 -1.396836787462234497e-01 -1.214253827929496765e-01
1.214275732636451721e-01 -5.828830599784851074e-02 1.559329330921173096e-01
1.182803362607955933e-01 -5.778308212757110596e-02 -1.944597437977790833e-02
1.602008044719696045e-01 -1.085013076663017273e-01 -2.409066557884216309e-01
1.073906123638153076e-01 -7.587518543004989624e-02 -4.742945730686187744e-02
1.569980382919311523e-01 -1.000189855694770813e-01 -2.558121979236602783e-01
1.780045181512832642e-01 -3.849512711167335510e-02 -8.730662614107131958e-02
2.269193381071090698e-01 -5.280613899230957031e-02 3.119906485080718994e-01
1.195628643035888672e-01 -1.096715182065963745e-01 1.631281077861785889e-01
1.034943014383316040e-01 -8.728681504726409912e-02 1.076711788773536682e-01
2.266606688499450684e-01 -1.382621228694915771e-01 2.305022180080413818e-01
2.195451110601425171e-01 -1.027176827192306519e-01 -3.158550560474395752e-01
2.907173931598663330e-01 -6.378793716430664062e-02 -1.656571924686431885e-01
2.069790363311767578e-01 -1.220948547124862671e-01 -2.522921860218048096e-01
2.016381621360778809e-01 -3.576648235321044922e-02 -7.242731004953384399e-02
2.619400024414062500e-01 -6.323237717151641846e-02 -2.438391447067260742e-01
2.789635658264160156e-01 -6.718108057975769043e-02 -2.221297919750213623e-01
2.492847144603729248e-01 -4.322671145200729370e-02 1.950842738151550293e-01
1.444155573844909668e-01 -1.027594506740570068e-01 -2.168441116809844971e-01
3.038312792778015137e-01 -1.186996251344680786e-01 -1.295235455036163330e-01
3.267393410205841064e-01 -1.014484763145446777e-01 -3.417453914880752563e-02
1.822462975978851318e-01 -1.406865715980529785e-01 1.150827929377555847e-01
2.179066687822341919e-01 -4.188041761517524719e-02 -1.556416749954223633e-01
2.167604565620422363e-01 -1.412332952022552490e-01 1.907433569431304932e-01
3.209093213081359863e-01 -1.072273626923561096e-01 -7.876421511173248291e-02
2.094860821962356567e-01 -4.273822531104087830e-02 2.453168630599975586e-01
1.806257367134094238e-01 -1.407915651798248291e-01 9.815175086259841919e-02
3.009878695011138916e-01 -1.292657852172851562e-01 -3.213460743427276611e-02
1.026036962866783142e-01 -9.004321694374084473e-02 5.200289562344551086e-02
1.947565674781799316e-01 -1.435578018426895142e-01 1.424262672662734985e-02
1.333401501178741455e-01 -6.257063150405883789e-02 -1.572826504707336426e-01
1.677974015474319458e-01 -6.279505789279937744e-02 3.373740017414093018e-01
1.899684965610504150e-01 -8.461192250251770020e-02 4.018713831901550293e-01
2.507286667823791504e-01 -5.603638663887977600e-02 -2.274364233016967773e-01
2.669245004653930664e-01 -5.303607881069183350e-02 -1.724649667739868164e-01
1.746360361576080322e-01 -5.322654917836189270e-02 -2.166017591953277588e-01
2.212267667055130005e-01 -1.386170685291290283e-01 -1.371174454689025879e-01
2.518229782581329346e-01 -3.795575350522994995e-02 3.387616947293281555e-02
2.799597382545471191e-01 -6.414566934108734131e-02 2.749860286712646484e-01
1.075930148363113403e-01 -9.360870718955993652e-02 1.483652591705322266e-01
3.248795866966247559e-01 -9.862334281206130981e-02 -6.714219599962234497e-02
2.137457728385925293e-01 -4.772672802209854126e-02 -2.076280713081359863e-01
1.406347155570983887e-01 -8.945882320404052734e-02 3.240825533866882324e-01
3.261359333992004395e-01 -8.582086116075515747e-02 -3.380846232175827026e-02
3.262748420238494873e-01 -9.834834933280944824e-02 -5.038600414991378784e-02
1.161012724041938782e-01 -9.733302891254425049e-02 -1.068986579775810242e-01
1.219337135553359985e-01 -6.581808626651763916e-02 2.141803801059722900e-01
2.141369134187698364e-01 -3.345523402094841003e-02 7.485229521989822388e-03
1.965995430946350098e-01 -1.238854452967643738e-01 -2.344321012496948242e-01
1.220775619149208069e-01 -7.511546462774276733e-02 2.475531697273254395e-01
2.885932326316833496e-01 -1.310472935438156128e-01 -9.521207958459854126e-02
2.173809707164764404e-01 -7.907933741807937622e-02 4.030082523822784424e-01
2.366604506969451904e-01 -6.530308723449707031e-02 3.607532680034637451e-01
2.412513792514801025e-01 -5.031244084239006042e-02 -2.050738036632537842e-01
2.353190481662750244e-01 -1.196268275380134583e-01 3.508897423744201660e-01
2.906301617622375488e-01 -1.213715896010398865e-01 -1.686199605464935303e-01
1.575344055891036987e-01 -4.229475557804107666e-02 -7.989571243524551392e-02
