-3.586540520191192627e-01 3.884917497634887695e-01 -1.255744248628616333e-01
4.633448719978332520e-01 3.465458750724792480e-01 -1.988623291254043579e-02
1.650888323783874512e-01 4.024844169616699219e-01 -3.077984452247619629e-01
3.621128499507904053e-01 3.372275829315185547e-01 -4.828650057315826416e-01
8.732014149427413940e-02 4.258018136024475098e-01 1.806271821260452271e-02
4.662822782993316650e-01 2.469292730093002319e-01 -4.359535276889801025e-01
-3.402569890022277832e-01 2.171047627925872803e-01 1.787931174039840698e-01
3.868699967861175537e-01 2.883489429950714111e-01 -5.726063251495361328e-01
-9.607198834419250488e-02 1.761796772480010986e-01 -2.742916345596313477e-01
4.718121886253356934e-01 2.178081870079040527e-01 -3.306672275066375732e-01
2.644186317920684814e-01 3.793349862098693848e-01 4.520486295223236084e-01
1.729225516319274902e-01 1.718725860118865967e-01 -4.059279859066009521e-01
4.183343052864074707e-02 1.571504771709442139e-01 2.180694341659545898e-01
-1.530602276325225830e-01 2.039555609226226807e-01 -4.275948107242584229e-01
-1.511950939893722534e-01 3.806945383548736572e-01 -4.816292226314544678e-01
3.746641278266906738e-01 3.730452358722686768e-01 1.996923387050628662e-01
3.340655937790870667e-02 2.155145704746246338e-01 6.897892951965332031e-01
3.895163238048553467e-01 2.184717357158660889e-01 4.612676203250885010e-01
-1.628181487321853638e-01 3.541158437728881836e-01 7.496353387832641602e-01
3.803708851337432861e-01 2.765313088893890381e-01 5.801903009414672852e-01
-4.688470959663391113e-01 2.946938872337341309e-01 2.155378460884094238e-02
-1.368585824966430664e-01 1.849427819252014160e-01 -3.003498315811157227e-01
-1.109142303466796875e-01 4.287847876548767090e-01 2.375795692205429077e-01
-2.185634672641754150e-01 4.133549630641937256e-01 -1.751611381769180298e-01
8.245585858821868896e-02 1.746737658977508545e-01 -4.230564832687377930e-01
1.895784884691238403e-01 2.085804045200347900e-01 -6.111443042755126953e-01
-5.378699675202369690e-02 1.605295836925506592e-01 1.261256635189056396e-01
4.521412253379821777e-01 2.957647442817687988e-01 4.290955364704132080e-01
2.734771743416786194e-02 1.892623901367187500e-01 -5.027725696563720703e-01
9.775148332118988037e-02 1.513388007879257202e-01 8.013421297073364258e-02
7.879819720983505249e-03 2.483103871345520020e-01 7.864930629730224609e-01
8.290441334247589111e-02 3.915617763996124268e-01 5.834429264068603516e-01
2.407688051462173462e-01 1.603807210922241211e-01 2.172365784645080566e-01
2.860097587108612061e-01 3.975977003574371338e-01 1.506661772727966309e-01
2.214473485946655273e-01 2.252374887466430664e-01 -6.531139612197875977e-01
2.874541878700256348e-01 1.924285292625427246e-01 4.720799624919891357e-01
5.662116780877113342e-02 3.672863841056823730e-01 -5.916007757186889648e-01
2.369706630706787109e-01 1.753763854503631592e-01 3.984109163284301758e-01
-2.593756318092346191e-01 4.042640328407287598e-01 -2.087715268135070801e-01
-2.985528111457824707e-01 3.214687705039978027e-01 -4.930610358715057373e-01
2.452604100108146667e-02 2.799085974693298340e-01 8.304668664932250977e-01
-6.360350549221038818e-02 4.249017834663391113e-01 3.335063457489013672e-01
5.616800859570503235e-02 1.520361304283142090e-01 -1.071529090404510498e-02
-4.108899459242820740e-02 4.307402074337005615e-01 -5.591064691543579102e-03
-3.185781240463256836e-01 4.079067111015319824e-01 2.359835803508758545e-02
3.093020319938659668e-01 3.234463036060333252e-01 -5.975716114044189453e-01
5.027318596839904785e-01 2.980547547340393066e-01 -3.004554510116577148e-01
-2.560144364833831787e-01 2.039412260055541992e-01 3.594554662704467773e-01
-4.009958207607269287e-01 2.979344427585601807e-01 -2.979310452938079834e-01
1.284553408622741699e-01 2.570157647132873535e-01 7.827093601226806641e-01
3.511876612901687622e-02 2.327243834733963013e-01 7.480965852737426758e-01
-4.305200576782226562e-01 2.634393572807312012e-01 2.709361016750335693e-01
1.714531630277633667e-01 4.068250656127929688e-01 -2.467658519744873047e-01
3.718241155147552490e-01 1.770768463611602783e-01 1.996980905532836914e-01
-1.227336227893829346e-01 2.188899517059326172e-01 -5.393143892288208008e-01
-4.681312441825866699e-01 2.911239862442016602e-01 1.945589929819107056e-01
-2.940765023231506348e-01 3.380244076251983643e-01 6.835879087448120117e-01
-4.577035084366798401e-02 1.589459031820297241e-01 7.187487930059432983e-02
1.987074911594390869e-01 4.055907130241394043e-01 3.126284480094909668e-01
5.059087276458740234e-01 2.110880017280578613e-01 -6.368473917245864868e-02
2.131318449974060059e-01 3.303408622741699219e-01 -6.556582450866699219e-01
2.978470027446746826e-01 3.398107290267944336e-01 5.993133783340454102e-01
4.004958868026733398e-01 1.793211996555328369e-01 -1.904087960720062256e-01
3.347179889678955078e-01 3.764279484748840332e-01 -2.667203545570373535e-01
5.416801944375038147e-02 4.221874177455902100e-01 -1.600135266780853271e-01
-4.823147132992744446e-02 1.681035459041595459e-01 3.118815124034881592e-01
-2.093770653009414673e-01 1.961317658424377441e-01 3.861148953437805176e-01
3.221104741096496582e-01 1.666709482669830322e-01 -2.094884216785430908e-01
1.497565805912017822e-01 4.173094332218170166e-01 -9.991219639778137207e-02
-1.546132415533065796e-01 2.154568433761596680e-01 -4.890349805355072021e-01
1.956602185964584351e-01 4.106348156929016113e-01 -1.293393373489379883e-01
5.190467238426208496e-01 3.007445633411407471e-01 -2.104019522666931152e-01
2.371354997158050537e-01 1.968466639518737793e-01 -5.451152324676513672e-01
4.010493159294128418e-01 3.112823963165283203e-01 -5.096523761749267578e-01
4.603622257709503174e-01 1.937431693077087402e-01 -1.418342888355255127e-01
-1.864322423934936523e-01 1.807538568973541260e-01 2.126543819904327393e-01
8.099174499511718750e-02 2.123169600963592529e-01 -6.279577016830444336e-01
-1.011134684085845947e-01 3.769189119338989258e-01 6.967549324035644531e-01
8.914893865585327148e-02 1.554276347160339355e-01 2.090316265821456909e-01
-2.325134277343750000e-01 3.980777561664581299e-01 5.191388726234436035e-01
1.392636299133300781e-01 2.061093449592590332e-01 6.373419761657714844e-01
-1.291164755821228027e-02 1.559710204601287842e-01 3.152298927307128906e-02
-1.200877726078033447e-01 4.099165201187133789e-01 5.000104904174804688e-01
1.804586946964263916e-01 2.063802033662796021e-01 6.219681501388549805e-01
-4.687552452087402344e-01 3.259714841842651367e-01 -2.428215742111206055e-02
-3.677788376808166504e-01 3.908514082431793213e-01 3.142174780368804932e-01
2.696112692356109619e-01 2.076010107994079590e-01 -5.739808082580566406e-01
-1.639788299798965454e-01 4.286394119262695312e-01 1.233164370059967041e-01
-6.356008350849151611e-02 3.974770903587341309e-01 5.977166891098022461e-01
3.418742716312408447e-01 1.651549935340881348e-01 -9.295505285263061523e-02
2.859553322196006775e-02 4.139188230037689209e-01 4.402215778827667236e-01
-1.048482581973075867e-02 4.310451745986938477e-01 4.989658296108245850e-02
-4.011844694614410400e-01 3.828332722187042236e-01 2.585304379463195801e-01
1.866106986999511719e-01 3.833710551261901855e-01 5.388451814651489258e-01
-2.310306206345558167e-02 3.981630206108093262e-01 -4.319774210453033447e-01
-1.668797880411148071e-01 4.087275564670562744e-01 4.886987805366516113e-01
-4.198412969708442688e-02 4.235715270042419434e-01 -1.783851385116577148e-01
-3.585254773497581482e-02 3.449682891368865967e-01 -6.563181877136230469e-01
4.241483658552169800e-02 1.563349664211273193e-01 -1.652642786502838135e-01
7.727521657943725586e-02 4.181763529777526855e-01 -2.052472531795501709e-01
-1.568544805049896240e-01 1.952322423458099365e-01 -3.599278628826141357e-01
3.277997672557830811e-01 3.491019904613494873e-01 5.173466205596923828e-01
9.404432773590087891e-02 1.654351949691772461e-01 3.629174828529357910e-01
2.877761721611022949e-01 1.781956851482391357e-01 -3.944547176361083984e-01
1.533638834953308105e-01 3.046165108680725098e-01 -7.248367071151733398e-01
3.111834526062011719e-01 2.474580705165863037e-01 6.421298980712890625e-01
3.022106178104877472e-02 1.545291393995285034e-01 1.285209059715270996e-01
-3.996225297451019287e-01 3.856129050254821777e-01 4.600051045417785645e-02
-2.327699065208435059e-01 4.199684262275695801e-01 2.566841840744018555e-01
6.242021918296813965e-03 3.366674482822418213e-01 8.059377670288085938e-01
-4.304138422012329102e-01 2.561376988887786865e-01 7.275028526782989502e-02
2.547645866870880127e-01 3.652179241180419922e-01 -4.898884594440460205e-01
-1.554076373577117920e-01 1.724648922681808472e-01 6.787008047103881836e-02
-7.392032444477081299e-02 2.580897808074951172e-01 -6.814311742782592773e-01
3.145832717418670654e-01 3.763136267662048340e-01 -3.182752132415771484e-01
-3.070619404315948486e-01 2.424696236848831177e-01 -3.664981424808502197e-01
-1.987768411636352539e-01 4.214271306991577148e-01 2.995053231716156006e-01
-7.948839664459228516e-02 4.316873252391815186e-01 7.735094428062438965e-02
3.105202913284301758e-01 1.967270970344543457e-01 -4.946881234645843506e-01
-3.534849360585212708e-02 2.523650527000427246e-01 7.902846336364746094e-01
1.311490237712860107e-01 1.568304449319839478e-01 2.390159666538238525e-01
-7.232263684272766113e-02 1.667185425758361816e-01 -1.774437129497528076e-01
6.557126343250274658e-02 3.198296725749969482e-01 -7.176256179809570312e-01
-4.856694489717483521e-03 1.612961888313293457e-01 2.526806592941284180e-01
4.403209686279296875e-01 3.432542681694030762e-01 2.594690322875976562e-01
-3.749250471591949463e-01 2.996864318847656250e-01 -3.630697429180145264e-01
-4.703551530838012695e-03 2.225098907947540283e-01 -6.354899406433105469e-01
1.670122295618057251e-01 3.778252303600311279e-01 5.922888517379760742e-01
3.512991666793823242e-01 3.798107504844665527e-01 -1.579284816980361938e-01
1.437268108129501343e-01 3.529760837554931641e-01 -6.222765445709228516e-01
3.045792877674102783e-01 3.662864267826080322e-01 -4.168838262557983398e-01
-2.547681927680969238e-01 2.282487154006958008e-01 -4.021755754947662354e-01
2.873504161834716797e-02 1.551338434219360352e-01 -1.102801114320755005e-01
4.629245698451995850e-01 3.414442539215087891e-01 1.586270332336425781e-01
-2.747772336006164551e-01 2.228561490774154663e-01 4.836809635162353516e-01
4.862935543060302734e-01 3.199120759963989258e-01 2.335673868656158447e-01
-4.087399244308471680e-01 3.457240462303161621e-01 -2.317323386669158936e-01
-2.862185537815093994e-01 2.208496481180191040e-01 -2.893526852130889893e-01
1.226017773151397705e-01 4.154084920883178711e-01 -1.940960884094238281e-01
1.885981559753417969e-01 2.236559242010116577e-01 6.814014911651611328e-01
4.643096327781677246e-01 3.454947173595428467e-01 5.653822422027587891e-02
1.900268048048019409e-01 2.361830472946166992e-01 -6.877485513687133789e-01
-1.457711607217788696e-01 1.713352948427200317e-01 -1.108682528138160706e-02
2.039218246936798096e-01 3.921646773815155029e-01 4.509387612342834473e-01
-2.081439644098281860e-01 4.238086342811584473e-01 2.165671437978744507e-01
-4.159506559371948242e-01 2.476687431335449219e-01 1.290263235569000244e-01
4.364351034164428711e-01 2.406984120607376099e-01 4.436184763908386230e-01
2.078637033700942993e-01 1.536752730607986450e-01 1.071420460939407349e-01
4.617881178855895996e-01 2.340174019336700439e-01 3.680790960788726807e-01
-3.059677481651306152e-01 3.919655084609985352e-01 -2.303198873996734619e-01
-2.548874318599700928e-01 3.980026841163635254e-01 -2.722396850585937500e-01
1.989185065031051636e-01 1.660761237144470215e-01 -3.419014215469360352e-01
1.594580151140689850e-02 3.897737264633178711e-01 -4.853188097476959229e-01
-4.446303471922874451e-02 3.907715976238250732e-01 -4.754707515239715576e-01
-4.546358063817024231e-02 4.058941006660461426e-01 -3.720276355743408203e-01
-4.383927285671234131e-01 3.609116375446319580e-01 2.928082942962646484e-01
-3.649001196026802063e-02 3.764964342117309570e-01 -5.495803356170654297e-01
1.266058385372161865e-01 1.524997651576995850e-01 -1.289098262786865234e-01
-5.618646368384361267e-02 2.008175253868103027e-01 -5.137028694152832031e-01
1.542680412530899048e-01 3.869288563728332520e-01 -4.499535858631134033e-01
-3.785228133201599121e-01 3.896006941795349121e-01 -2.858630567789077759e-02
4.299697875976562500e-01 1.885371804237365723e-01 1.569291949272155762e-01
-1.937547177076339722e-01 3.925019204616546631e-01 -3.838692903518676758e-01
5.003021955490112305e-01 2.227701842784881592e-01 1.913064718246459961e-01
-5.736347660422325134e-02 1.745240986347198486e-01 3.849178254604339600e-01
9.986537694931030273e-02 1.668820828199386597e-01 -3.562777340412139893e-01
-1.543560996651649475e-02 3.666537106037139893e-01 -5.934940576553344727e-01
1.863189935684204102e-01 4.156101346015930176e-01 1.907297223806381226e-02
-1.654804348945617676e-01 1.847652494907379150e-01 3.439136445522308350e-01
1.529346406459808350e-01 1.780126690864562988e-01 -4.572767913341522217e-01
-8.934353291988372803e-02 4.056041538715362549e-01 5.411193370819091797e-01
9.351047873497009277e-02 2.373107969760894775e-01 7.539762258529663086e-01
1.173694282770156860e-01 4.092446565628051758e-01 -2.849858701229095459e-01
-2.781580984592437744e-01 2.477433681488037109e-01 6.073204278945922852e-01
5.426818728446960449e-01 2.609523236751556396e-01 1.064415350556373596e-01
-4.546160399913787842e-01 3.176254630088806152e-01 -1.189433485269546509e-01
3.520624935626983643e-01 3.476117551326751709e-01 4.791124761104583740e-01
-2.059235051274299622e-02 1.897603273391723633e-01 5.433384180068969727e-01
-2.899407148361206055e-01 4.039423465728759766e-01 3.841589689254760742e-01
1.407124698162078857e-01 3.969633877277374268e-01 4.950142502784729004e-01
-2.420520484447479248e-01 3.453304469585418701e-01 -5.241581201553344727e-01
2.486294209957122803e-01 4.021847844123840332e-01 -1.401659995317459106e-01
2.661417424678802490e-01 4.011237919330596924e-01 -8.849772810935974121e-02
-4.564673602581024170e-01 3.066869676113128662e-01 3.462885618209838867e-01
-3.571247458457946777e-01 2.991894185543060303e-01 6.091721057891845703e-01
7.619229704141616821e-02 4.242952466011047363e-01 -8.238355815410614014e-02
4.546394646167755127e-01 2.217559814453125000e-01 -3.936503827571868896e-01
-2.003261148929595947e-01 2.014364600181579590e-01 -3.319037556648254395e-01
-2.271013557910919189e-01 3.795678019523620605e-01 6.280257701873779297e-01
-2.111937850713729858e-01 1.951525807380676270e-01 -2.480531334877014160e-01
-1.129533797502517700e-01 1.727859973907470703e-01 2.760147750377655029e-01
4.006419777870178223e-01 2.488876134157180786e-01 -5.522209405899047852e-01
2.524014115333557129e-01 3.885244727134704590e-01 3.973806500434875488e-01
7.972256094217300415e-02 1.861818134784698486e-01 -5.039582252502441406e-01
3.412092328071594238e-01 3.869984745979309082e-01 1.269292458891868591e-02
3.264875113964080811e-01 3.881905078887939453e-01 -1.049449890851974487e-01
3.001708090305328369e-01 1.784089058637619019e-01 3.547900915145874023e-01
2.224502861499786377e-01 3.634489178657531738e-01 -5.307139158248901367e-01
2.167666852474212646e-01 3.919918537139892578e-01 -3.450662493705749512e-01
1.745486631989479065e-02 2.361720055341720581e-01 -6.814049482345581055e-01
1.970348358154296875e-01 1.520906239748001099e-01 -6.395293772220611572e-02
3.169122338294982910e-01 1.921293288469314575e-01 4.355589747428894043e-01
4.214423000812530518e-01 1.808695793151855469e-01 4.067320376634597778e-02
-3.161927759647369385e-01 2.232773900032043457e-01 -2.219317555427551270e-01
3.425980806350708008e-01 1.674417108297348022e-01 -1.652334481477737427e-01
-1.209552884101867676e-01 2.671614289283752441e-01 -6.633131504058837891e-01
-2.487261965870857239e-02 1.592096239328384399e-01 -1.149088442325592041e-01
2.531397044658660889e-01 1.586584746837615967e-01 1.634283959865570068e-01
2.090809941291809082e-01 4.002846479415893555e-01 -2.681420445442199707e-01
-3.160724043846130371e-01 4.040941894054412842e-01 3.136855363845825195e-01
-1.405429542064666748e-01 2.096501588821411133e-01 5.857774019241333008e-01
4.221236407756805420e-01 2.098587751388549805e-01 3.590927124023437500e-01
4.610396325588226318e-01 1.918601393699645996e-01 -6.792890280485153198e-02
1.108857616782188416e-02 1.636752486228942871e-01 3.081848025321960449e-01
1.716631203889846802e-01 4.113926291465759277e-01 -1.755174994468688965e-01
3.680119514465332031e-01 3.650156259536743164e-01 -2.925635576248168945e-01
6.737383082509040833e-03 3.770865499973297119e-01 6.912790536880493164e-01
-1.504607349634170532e-01 2.558604180812835693e-01 7.543543577194213867e-01
-2.430246770381927490e-01 3.568077087402343750e-01 6.939599514007568359e-01
-3.755402937531471252e-02 4.163946211338043213e-01 -2.735219597816467285e-01
4.575579464435577393e-01 1.926324814558029175e-01 7.143890857696533203e-02
-6.109609082341194153e-02 4.293304383754730225e-01 -5.698467046022415161e-02
-5.894935503602027893e-02 1.739162206649780273e-01 -3.052832484245300293e-01
-1.283781677484512329e-01 3.187411427497863770e-01 -6.616700887680053711e-01
4.860814213752746582e-01 2.168315351009368896e-01 -2.771778404712677002e-01
1.534472852945327759e-01 3.521362543106079102e-01 7.084683179855346680e-01
-2.265595495700836182e-01 -5.003195405006408691e-01 8.649803698062896729e-02
-1.158580482006072998e-01 -5.404230356216430664e-01 6.343803554773330688e-02
-5.991264805197715759e-02 -3.155226707458496094e-01 -6.894556879997253418e-01
-3.151175677776336670e-01 -4.319553971290588379e-01 -1.838926970958709717e-01
-2.094321399927139282e-01 -3.578973412513732910e-01 5.586813092231750488e-01
2.722545862197875977e-01 3.733253479003906250e-02 -4.917623102664947510e-01
-3.622205927968025208e-02 -4.660065770149230957e-01 -4.647145569324493408e-01
-4.496988952159881592e-01 -2.225622534751892090e-02 1.559659838676452637e-01
-1.427873373031616211e-01 -4.991595745086669922e-01 -2.918736636638641357e-01
-4.339624047279357910e-01 -1.471592485904693604e-02 2.199497818946838379e-01
-1.682791560888290405e-01 3.986789286136627197e-02 5.835381746292114258e-01
-3.338257595896720886e-02 -1.952894926071166992e-01 -7.626472711563110352e-01
6.631364673376083374e-02 2.844071388244628906e-02 6.211689710617065430e-01
3.574188426136970520e-02 1.512302905321121216e-01 4.269943535327911377e-01
2.781309485435485840e-01 3.442858159542083740e-02 4.206186532974243164e-01
-6.411092355847358704e-03 2.202911227941513062e-01 -2.878268659114837646e-01
2.425776422023773193e-02 -1.584626734256744385e-01 -7.681735157966613770e-01
3.279562294483184814e-01 -3.872823417186737061e-01 3.306788504123687744e-01
-3.143012523651123047e-01 -1.526029706001281738e-01 5.639978051185607910e-01
-3.605437576770782471e-01 -3.942402005195617676e-01 1.775309294462203979e-01
-2.060000300407409668e-01 -3.661449551582336426e-01 -5.489829182624816895e-01
4.119290113449096680e-01 -3.499048948287963867e-01 5.934742838144302368e-02
-2.413308918476104736e-01 1.371842473745346069e-01 -4.191654026508331299e-01
1.623314991593360901e-02 2.270262688398361206e-01 -2.351825684309005737e-01
-4.027552008628845215e-01 7.763081789016723633e-02 -1.327182054519653320e-01
-8.343885838985443115e-02 -7.365659624338150024e-02 7.073562145233154297e-01
-4.106083512306213379e-01 -2.604106068611145020e-02 -3.661943078041076660e-01
-3.079410791397094727e-01 1.617489904165267944e-01 6.598523259162902832e-02
-3.427910506725311279e-01 -1.887270212173461914e-01 -5.421422123908996582e-01
-4.276065230369567871e-01 -2.891007065773010254e-01 -2.195449918508529663e-01
-9.390793740749359131e-02 -5.456007719039916992e-01 -1.995483227074146271e-02
-3.831971585750579834e-01 -2.401019930839538574e-01 -4.333010613918304443e-01
3.341529965400695801e-01 9.509955346584320068e-02 -1.305052638053894043e-01
3.037704229354858398e-01 8.194206655025482178e-02 -3.311285376548767090e-01
-3.353310227394104004e-01 -2.732157111167907715e-01 -4.956865310668945312e-01
-1.335086077451705933e-01 -3.202867805957794189e-01 -6.577312946319580078e-01
6.916538625955581665e-02 -2.153494656085968018e-01 7.233542799949645996e-01
2.065226584672927856e-01 -8.533877879381179810e-02 -6.742150187492370605e-01
2.248077988624572754e-01 -2.494004964828491211e-01 6.236827969551086426e-01
1.721341311931610107e-01 1.897324770689010620e-01 1.353704929351806641e-01
4.031949639320373535e-01 -7.688994705677032471e-02 2.848566174507141113e-01
-2.921169251203536987e-02 -5.533112287521362305e-01 7.792738080024719238e-02
-3.552165031433105469e-01 -2.235802263021469116e-01 -5.026814937591552734e-01
3.272682130336761475e-01 -7.651348412036895752e-02 4.690324664115905762e-01
2.752279639244079590e-01 -4.547466039657592773e-01 2.675799131393432617e-01
4.093676507472991943e-01 -5.542725324630737305e-02 2.299864143133163452e-01
3.219156563282012939e-01 -4.401798248291015625e-01 -1.648624986410140991e-01
-2.561178803443908691e-01 -2.573928236961364746e-02 5.788174271583557129e-01
-3.014531731605529785e-01 1.404921859502792358e-01 2.174924612045288086e-01
-3.103090524673461914e-01 -2.731401026248931885e-01 5.250461101531982422e-01
4.327430427074432373e-01 -7.360495626926422119e-02 -1.935354769229888916e-01
-4.231453239917755127e-01 -3.076547980308532715e-01 1.855428814888000488e-01
-4.521042406558990479e-01 -1.242523416876792908e-01 2.557445764541625977e-01
-1.821843087673187256e-01 -5.035468935966491699e-01 -2.029523551464080811e-01
-1.268454641103744507e-01 2.347995489835739136e-01 -4.927872121334075928e-02
1.803190410137176514e-01 -6.725639104843139648e-04 5.849262475967407227e-01
3.897597491741180420e-01 -3.643285632133483887e-01 -1.776452213525772095e-01
-3.731321990489959717e-01 -3.826476335525512695e-01 -1.600537002086639404e-01
-2.964425384998321533e-01 -4.604997038841247559e-01 -5.793663114309310913e-02
1.046820655465126038e-01 -1.090896576642990112e-01 7.031665444374084473e-01
-4.813034236431121826e-01 -1.180386394262313843e-01 -9.106010198593139648e-02
-2.173659801483154297e-01 -4.368412494659423828e-01 4.091952443122863770e-01
-3.436358869075775146e-01 -4.013050198554992676e-01 -2.138345837593078613e-01
-2.756548821926116943e-01 -1.909547895193099976e-01 6.072642207145690918e-01
2.710810303688049316e-01 -4.335146546363830566e-01 -3.379030525684356689e-01
1.961389780044555664e-01 -5.235226750373840332e-01 -3.996017575263977051e-02
5.641692876815795898e-02 2.334736138582229614e-01 -1.021213307976722717e-01
1.336721926927566528e-01 1.611753553152084351e-01 3.297013044357299805e-01
-3.638922274112701416e-01 4.766967892646789551e-02 3.234240412712097168e-01
-4.228791892528533936e-01 -1.647074073553085327e-01 -3.808938264846801758e-01
-2.695837020874023438e-01 -3.843034505844116211e-01 -4.387917816638946533e-01
-1.995301097631454468e-01 -5.807116627693176270e-03 6.101040244102478027e-01
3.467118144035339355e-01 -6.705120950937271118e-02 -4.747912883758544922e-01
-3.908524662256240845e-02 -5.450412631034851074e-01 -1.440009623765945435e-01
4.180939197540283203e-01 -3.389122486114501953e-01 -6.998406350612640381e-02
1.820641607046127319e-01 1.860917955636978149e-01 -2.194397002458572388e-01
-1.554556488990783691e-01 1.346705108880996704e-01 4.362544119358062744e-01
-1.892960518598556519e-01 -4.864916801452636719e-01 -2.744629979133605957e-01
-2.832193300127983093e-02 -5.540574193000793457e-01 -3.146871924400329590e-02
2.511157095432281494e-01 -4.659221768379211426e-01 -2.721342742443084717e-01
4.305287897586822510e-01 -8.071468025445938110e-02 1.707539558410644531e-01
-3.230055570602416992e-01 1.990571618080139160e-02 4.479987323284149170e-01
-1.837533526122570038e-02 -4.143429398536682129e-01 5.790033340454101562e-01
-4.663670659065246582e-01 -3.173856437206268311e-02 2.688898704946041107e-02
4.241569340229034424e-01 -2.253271639347076416e-01 -2.913146317005157471e-01
2.538746595382690430e-01 -1.766479611396789551e-01 6.072493791580200195e-01
-2.627417445182800293e-01 -4.118677973747253418e-01 -3.884314596652984619e-01
1.071687191724777222e-01 -4.786429405212402344e-01 -4.105071425437927246e-01
-1.665848493576049805e-01 2.214857190847396851e-01 7.201326638460159302e-02
-1.402698159217834473e-01 2.194215804338455200e-01 -2.313297539949417114e-01
1.426286101341247559e-01 -4.996662139892578125e-01 3.331744074821472168e-01
1.612657904624938965e-01 1.167464703321456909e-01 4.189512729644775391e-01
3.994025290012359619e-02 -5.393065810203552246e-01 2.263353466987609863e-01
-4.147153198719024658e-01 -3.470726907253265381e-01 6.195245310664176941e-03
-2.739693224430084229e-01 9.220115840435028076e-02 4.037437736988067627e-01
1.209552809596061707e-01 -4.433974027633666992e-01 -4.876339137554168701e-01
-3.739989399909973145e-01 -1.116710975766181946e-01 4.632157683372497559e-01
-3.045702725648880005e-02 -2.616280317306518555e-01 7.184044718742370605e-01
3.218796551227569580e-01 -3.338013887405395508e-01 -4.429444670677185059e-01
4.179786890745162964e-02 -1.068736761808395386e-01 -7.630009055137634277e-01
3.444940149784088135e-01 1.790723204612731934e-02 -3.724117875099182129e-01
3.086934983730316162e-01 -5.309032648801803589e-02 -5.339318513870239258e-01
1.285512745380401611e-01 2.144634872674942017e-01 4.608399420976638794e-02
2.139285057783126831e-01 8.198557794094085693e-02 4.300795197486877441e-01
1.947682946920394897e-01 1.113765984773635864e-01 -4.680517315864562988e-01
-2.091992050409317017e-01 2.119030505418777466e-01 2.963282726705074310e-02
1.727827265858650208e-02 2.382019609212875366e-01 1.835696585476398468e-02
1.391551196575164795e-01 6.636416912078857422e-02 5.324519276618957520e-01
2.517632842063903809e-01 -3.588259518146514893e-01 -5.152481794357299805e-01
1.009864211082458496e-01 -5.451293587684631348e-01 -9.504157304763793945e-02
-4.810290038585662842e-01 -1.725188791751861572e-01 -6.383883208036422729e-02
-3.602791577577590942e-03 -3.749832510948181152e-01 6.321620345115661621e-01
4.246909618377685547e-01 -1.779213696718215942e-01 2.728998064994812012e-01
3.989213332533836365e-02 -5.356661081314086914e-01 -2.228385508060455322e-01
-4.678854644298553467e-01 -2.368101924657821655e-01 -5.776870250701904297e-02
2.636507749557495117e-01 1.542162448167800903e-01 -8.278596401214599609e-02
1.238716319203376770e-01 -4.927205443382263184e-01 -3.564516901969909668e-01
1.113002076745033264e-01 -3.877895474433898926e-01 5.911853909492492676e-01
1.528151798993349075e-02 2.348019629716873169e-01 7.332250475883483887e-02
-3.538679480552673340e-01 1.165119260549545288e-01 -2.130190581083297729e-01
1.903821155428886414e-02 1.341014057397842407e-01 4.712136387825012207e-01
-1.226945035159587860e-02 -5.363161563873291016e-01 -2.196221202611923218e-01
1.195336356759071350e-01 -5.119543075561523438e-01 -2.883570492267608643e-01
-2.567957341670989990e-01 -1.419837921857833862e-01 6.285743713378906250e-01
-4.466905593872070312e-01 -2.921446859836578369e-01 -3.682537376880645752e-02
-1.527349203824996948e-01 -4.217073917388916016e-01 -5.001142024993896484e-01
1.847219616174697876e-01 -3.632871806621551514e-01 5.737066864967346191e-01
4.768846184015274048e-02 1.452762633562088013e-01 -5.164761543273925781e-01
-2.378426939249038696e-01 7.071539759635925293e-02 -5.506844520568847656e-01
2.033181637525558472e-01 -3.969789743423461914e-01 -5.103737711906433105e-01
-2.138128280639648438e-01 -3.204421997070312500e-01 5.959732532501220703e-01
-1.093396320939064026e-01 5.989304184913635254e-02 5.861530900001525879e-01
-2.333798557519912720e-01 1.548487991094589233e-01 3.033696115016937256e-01
4.206528365612030029e-01 -2.701286375522613525e-01 -2.589525580406188965e-01
3.631481230258941650e-01 -1.931016445159912109e-01 -4.741579592227935791e-01
-4.075224399566650391e-01 -3.473417460918426514e-01 1.223658472299575806e-01
1.586394906044006348e-01 -4.376925230026245117e-01 4.819854497909545898e-01
-2.340017557144165039e-01 1.860006600618362427e-01 -2.551240622997283936e-01
-7.005787640810012817e-02 -5.122629404067993164e-01 -3.078272640705108643e-01
-3.159458637237548828e-01 8.503687381744384766e-02 3.490418791770935059e-01
-2.673261761665344238e-01 1.802324503660202026e-01 1.086459904909133911e-01
3.105721771717071533e-01 -4.522514343261718750e-01 1.544961184263229370e-01
-4.825821220874786377e-01 -1.304215192794799805e-01 4.472637176513671875e-02
-2.196243405342102051e-01 1.190934926271438599e-01 -4.874337017536163330e-01
4.040664136409759521e-01 -3.509648442268371582e-01 1.340147107839584351e-01
1.513163298368453979e-01 -1.835983246564865112e-01 6.915885806083679199e-01
-1.365028768777847290e-01 1.889993250370025635e-02 6.228419542312622070e-01
-1.368989497423171997e-01 -2.485084235668182373e-01 -7.117675542831420898e-01
5.059470608830451965e-02 -5.508105754852294922e-01 -9.631381183862686157e-02
3.687296509742736816e-01 2.467924356460571289e-02 2.111756205558776855e-01
4.261364415287971497e-02 -3.448993265628814697e-01 6.597107648849487305e-01
3.277528285980224609e-01 -4.083390831947326660e-01 -2.751626372337341309e-01
4.295978546142578125e-01 -2.867066264152526855e-01 -1.827263832092285156e-01
-1.660804152488708496e-01 -3.491163253784179688e-01 -6.055110692977905273e-01
-2.265104800462722778e-01 -1.702867597341537476e-01 -6.838501691818237305e-01
3.070285618305206299e-01 -2.473655790090560913e-01 5.267377495765686035e-01
-3.919437229633331299e-01 -5.233389884233474731e-02 3.935850560665130615e-01
-4.289342463016510010e-02 8.279341459274291992e-02 -6.367810368537902832e-01
2.183985710144042969e-01 1.223737448453903198e-01 3.268049359321594238e-01
2.106553465127944946e-01 1.651834994554519653e-01 1.777908802032470703e-01
-4.611262977123260498e-01 -2.352385222911834717e-01 1.322533488273620605e-01
-1.463532000780105591e-01 -5.319021344184875488e-01 -4.622817784547805786e-02
-1.946625709533691406e-01 2.903994917869567871e-02 -6.375964879989624023e-01
-3.483530879020690918e-01 -2.638911008834838867e-01 4.701772332191467285e-01
2.637527287006378174e-01 -4.904519915580749512e-01 -7.598468661308288574e-02
1.245677992701530457e-01 -5.448673367500305176e-01 -5.477466620504856110e-03
1.335529386997222900e-01 -4.713838547468185425e-02 6.573301553726196289e-01
1.858949512243270874e-01 -5.218189954757690430e-01 1.382095515727996826e-01
3.305409252643585205e-01 -4.193693399429321289e-01 2.309106141328811646e-01
-1.950725167989730835e-01 1.056294888257980347e-01 -5.364576578140258789e-01
-2.760225534439086914e-01 1.658481806516647339e-01 1.712719053030014038e-01
2.155511528253555298e-01 -3.146271407604217529e-01 5.940119624137878418e-01
-3.140438199043273926e-01 -3.225534558296203613e-01 -4.715910553932189941e-01
-4.363598227500915527e-01 1.718851923942565918e-02 1.243581473827362061e-01
1.531368196010589600e-01 -5.331235527992248535e-01 -1.041096597909927368e-01
-4.568620026111602783e-01 -6.122732162475585938e-02 1.867776662111282349e-01
-1.721047982573509216e-02 1.643375009298324585e-01 -4.878911674022674561e-01
3.885378837585449219e-01 -1.186221837997436523e-02 -2.875074446201324463e-01
-2.438210844993591309e-01 -2.503949403762817383e-01 -6.341484189033508301e-01
-3.854488730430603027e-01 -3.808390498161315918e-01 7.998789101839065552e-02
-1.595102250576019287e-01 2.099826186895370483e-01 1.761717051267623901e-01
2.699526026844978333e-02 -2.859198451042175293e-01 -7.185224890708923340e-01
-2.197414934635162354e-01 -3.957592248916625977e-01 4.915532171726226807e-01
5.275289714336395264e-02 -3.047902584075927734e-01 6.896069049835205078e-01
1.771197170019149780e-01 -4.680748581886291504e-01 -3.815053701400756836e-01
1.064575761556625366e-01 1.742054671049118042e-01 -4.006819725036621094e-01
-2.035639584064483643e-01 -5.119024515151977539e-01 -3.665318340063095093e-02
-4.228133261203765869e-01 -3.183203935623168945e-02 2.883555293083190918e-01
1.143613532185554504e-01 2.038450688123703003e-01 -2.639318108558654785e-01
7.845827192068099976e-02 1.574881225824356079e-01 -4.713564813137054443e-01
3.186598718166351318e-01 -1.883058398962020874e-01 -5.546333193778991699e-01
2.684422433376312256e-01 -3.071461021900177002e-01 5.424166321754455566e-01
-3.174314796924591064e-01 -2.087084054946899414e-01 5.509702563285827637e-01
2.446320652961730957e-01 -4.972062706947326660e-01 1.314512789249420166e-01
-3.409936726093292236e-01 1.035482138395309448e-01 -3.098634183406829834e-01
4.358691871166229248e-01 -2.150122821331024170e-01 2.177469730377197266e-01
-4.194204509258270264e-01 2.215115725994110107e-02 -2.561315000057220459e-01
-6.916412711143493652e-02 2.405653744935989380e-01 -5.544014275074005127e-04
1.305471509695053101e-01 1.970235854387283325e-01 1.852968931198120117e-01
-5.121581628918647766e-02 2.339106351137161255e-01 1.054463610053062439e-01
3.201580047607421875e-01 -1.387356817722320557e-01 -5.533733963966369629e-01
3.795528709888458252e-01 -3.914564102888107300e-02 -3.653742969036102295e-01
-4.175103828310966492e-02 2.383756786584854126e-01 -1.513137370347976685e-01
-4.532012939453125000e-01 -2.770181894302368164e-01 4.295895993709564209e-02
2.655544281005859375e-01 -4.839961528778076172e-01 -1.318535208702087402e-01
4.324505925178527832e-01 -1.426393091678619385e-01 -2.708430290222167969e-01
2.163038849830627441e-01 -2.495349645614624023e-01 -6.526264548301696777e-01
4.548753201961517334e-01 -2.255325019359588623e-01 6.895335763692855835e-02
4.048508405685424805e-01 -3.274207413196563721e-01 -2.179353386163711548e-01
3.768839538097381592e-01 -3.816540539264678955e-02 3.160514533519744873e-01
-8.180109411478042603e-02 1.161065548658370972e-01 5.064942836761474609e-01
1.352647840976715088e-01 2.152177542448043823e-01 -7.228351384401321411e-02
-1.055788546800613403e-01 2.062920182943344116e-01 2.476039230823516846e-01
-2.555221319198608398e-01 -2.337375283241271973e-02 -6.274596452713012695e-01
2.925208508968353271e-01 4.688614606857299805e-02 3.712503015995025635e-01
-3.234887123107910156e-01 9.258286654949188232e-02 -3.828962147235870361e-01
-4.594290852546691895e-01 -1.816061139106750488e-01 -2.367513030767440796e-01
2.578275203704833984e-01 -4.967316389083862305e-01 3.264190629124641418e-03
-4.009014070034027100e-01 -1.690989881753921509e-01 4.108442068099975586e-01
-3.447075486183166504e-01 -4.246749877929687500e-01 3.144127130508422852e-02
2.554758191108703613e-01 -3.618885874748229980e-01 5.017676353454589844e-01
4.030329883098602295e-01 -1.353786885738372803e-01 -3.748483061790466309e-01
-1.662487983703613281e-01 -1.086255908012390137e-01 -7.270247340202331543e-01
2.909008562564849854e-01 -2.693524062633514404e-01 -5.580834150314331055e-01
4.524092972278594971e-01 -1.684132665395736694e-01 -1.617688089609146118e-01
-3.540798425674438477e-01 1.289633363485336304e-01 5.199161916971206665e-02
-4.888651892542839050e-04 5.873329937458038330e-02 -6.661559939384460449e-01
-4.546346515417098999e-02 2.113116234540939331e-01 -3.350084424018859863e-01
2.871792912483215332e-01 9.176103770732879639e-02 2.722302079200744629e-01
-2.912624478340148926e-01 1.679587811231613159e-01 -1.812226772308349609e-01
1.854247599840164185e-01 -4.945040941238403320e-01 -2.806289494037628174e-01
-8.187320828437805176e-02 1.672678142786026001e-01 -4.733276665210723877e-01
-2.265377342700958252e-01 -4.879980683326721191e-01 2.008543759584426880e-01
-3.728809654712677002e-01 -3.907977044582366943e-01 -1.094855368137359619e-01
9.508331865072250366e-02 5.157065391540527344e-02 5.808079838752746582e-01
-1.182187572121620178e-01 -4.462419748306274414e-01 -4.734215140342712402e-01
-2.814955711364746094e-01 -3.833088576793670654e-01 4.270920753479003906e-01
-3.988317549228668213e-01 -1.922824084758758545e-01 -4.314851164817810059e-01
-2.755769491195678711e-01 -4.703297019004821777e-01 -1.054117232561111450e-01
-1.472898423671722412e-01 -1.196430772542953491e-01 7.014580965042114258e-01
-3.359029591083526611e-01 1.401112824678421021e-01 -1.593005359172821045e-01
3.545541167259216309e-01 -4.203054904937744141e-01 9.911033511161804199e-02
3.630022108554840088e-01 2.490699291229248047e-03 2.861353754997253418e-01
3.602221608161926270e-01 -2.791460752487182617e-01 4.114935100078582764e-01
-1.141997575759887695e-01 -7.622408121824264526e-02 -7.434908747673034668e-01
-1.883864253759384155e-01 2.083435803651809692e-01 -2.219405770301818848e-01
-1.635254472494125366e-01 -4.378768801689147949e-02 -7.088940143585205078e-01
1.489233821630477905e-01 1.101091504096984863e-03 -6.661256551742553711e-01
9.904332458972930908e-02 1.297562867403030396e-01 -5.219182372093200684e-01
-3.131399750709533691e-01 -3.465345799922943115e-01 4.358070194721221924e-01
3.414248824119567871e-01 -1.086409389972686768e-02 3.674315214157104492e-01
-1.492155343294143677e-01 2.206784635782241821e-01 1.185839325189590454e-01
-2.826909720897674561e-01 1.936405897140502930e-03 5.247484445571899414e-01
-4.814070761203765869e-01 -9.564273059368133545e-02 8.016584441065788269e-03
-3.035677373409271240e-01 -4.038431644439697266e-01 3.363566994667053223e-01
-1.804542690515518188e-01 2.180867940187454224e-01 -1.569155901670455933e-01
-1.633365750312805176e-01 -7.857141643762588501e-02 6.796668767929077148e-01
-3.301826119422912598e-02 8.210170269012451172e-02 5.691491365432739258e-01
4.124104976654052734e-01 -1.079629361629486084e-02 8.687304705381393433e-02
-2.226283252239227295e-01 -4.811631441116333008e-01 -2.292989641427993774e-01
8.469206839799880981e-02 -1.837132275104522705e-01 -7.517932653427124023e-01
4.662627354264259338e-02 -5.273679494857788086e-01 2.883304059505462646e-01
2.033272758126258850e-03 -2.215077579021453857e-01 7.325171828269958496e-01
4.023596942424774170e-01 -8.432892709970474243e-02 -3.454064428806304932e-01
2.641807496547698975e-01 -3.778255730867385864e-02 5.324026942253112793e-01
-2.626118659973144531e-01 4.173521697521209717e-02 5.012598633766174316e-01
-4.363490939140319824e-01 -3.069141507148742676e-01 -8.701621741056442261e-02
-3.002137541770935059e-01 -4.218030571937561035e-01 2.902051210403442383e-01
-5.051013827323913574e-02 1.836037784814834595e-01 -4.346503019332885742e-01
4.150689542293548584e-01 -3.287209272384643555e-01 -1.546282768249511719e-01
-3.154659271240234375e-01 2.670174837112426758e-02 -5.077662467956542969e-01
4.088659211993217468e-02 -2.600609660148620605e-01 7.160506248474121094e-01
6.147431582212448120e-02 -4.314205646514892578e-01 5.448701381683349609e-01
-3.004383146762847900e-01 -4.478073120117187500e-01 1.704226434230804443e-01
1.610150039196014404e-01 2.006006389856338501e-01 -1.698810309171676636e-01
-4.059140756726264954e-02 -5.120769143104553223e-01 3.465012013912200928e-01
1.979692280292510986e-01 1.534222811460494995e-01 -3.435609638690948486e-01
3.569796979427337646e-01 5.631217360496520996e-02 -2.201439291238784790e-01
3.799099922180175781e-01 -3.958431780338287354e-01 5.855506658554077148e-02
2.201941311359405518e-01 1.788836866617202759e-01 -1.009188592433929443e-01
-2.723562419414520264e-01 -8.246615529060363770e-02 -6.376383304595947266e-01
-1.613732278347015381e-01 -4.484315514564514160e-01 -4.328872263431549072e-01
3.851482272148132324e-01 -2.855781316757202148e-01 -3.613735437393188477e-01
4.262096881866455078e-01 -5.075553059577941895e-02 1.288804262876510620e-01
-4.458854794502258301e-01 -1.737315654754638672e-01 -3.012997806072235107e-01
3.502753674983978271e-01 -3.869794607162475586e-01 2.674293518066406250e-01
-4.231080710887908936e-01 -7.737870514392852783e-02 3.322202265262603760e-01
-3.992646932601928711e-01 -1.016709133982658386e-01 4.069873690605163574e-01
2.466702461242675781e-01 3.370018303394317627e-02 4.699806869029998779e-01
-1.023378148674964905e-01 1.710556596517562866e-01 3.738426268100738525e-01
3.194295465946197510e-01 -4.558750987052917480e-01 4.061452299356460571e-02
4.374659657478332520e-01 -2.277468442916870117e-01 -2.291109263896942139e-01
5.673783272504806519e-02 -9.701046347618103027e-02 7.151243090629577637e-01
-1.090631112456321716e-01 4.612827301025390625e-02 -6.660236120223999023e-01
2.173438519239425659e-01 3.010241687297821045e-02 -5.762211680412292480e-01
-4.056019186973571777e-01 -3.385608196258544922e-01 -1.771697103977203369e-01
-3.880562782287597656e-01 -3.465722203254699707e-01 -2.346259802579879761e-01
-8.434222079813480377e-03 1.149475425481796265e-01 5.138406157493591309e-01
-1.840534806251525879e-01 -4.916061758995056152e-01 2.824890017509460449e-01
4.364674910902976990e-02 -4.523385316133499146e-02 6.917181611061096191e-01
-4.526769220829010010e-01 -1.027687788009643555e-01 -2.799538075923919678e-01
-1.816328018903732300e-01 1.653546839952468872e-01 3.348162472248077393e-01
-1.070174425840377808e-01 -4.965269565582275391e-01 3.609602451324462891e-01
4.031876623630523682e-01 1.048202812671661377e-02 -1.168244704604148865e-01
2.735697925090789795e-01 -3.145219385623931885e-01 -5.414787530899047852e-01
3.222804665565490723e-01 8.380751311779022217e-02 -2.632857263088226318e-01
-3.052271008491516113e-01 -7.118584960699081421e-02 -5.953719019889831543e-01
-1.544630974531173706e-01 -4.460836052894592285e-01 4.590911269187927246e-01
3.220179080963134766e-01 -3.663018941879272461e-01 -3.900412619113922119e-01
1.129185184836387634e-01 2.115783840417861938e-01 1.236054152250289917e-01
-4.565265402197837830e-02 2.090260237455368042e-01 2.564213275909423828e-01
3.628994226455688477e-01 6.811846792697906494e-02 -8.800249546766281128e-02
-1.711631566286087036e-01 -2.538391947746276855e-01 6.741113662719726562e-01
-3.376149237155914307e-01 -8.618093281984329224e-02 5.156163573265075684e-01
5.177561938762664795e-02 -4.860558509826660156e-01 -4.130770862102508545e-01
-2.274924069643020630e-01 8.852690458297729492e-02 4.669302105903625488e-01
-2.215641885995864868e-01 4.783642292022705078e-02 -5.959086418151855469e-01
4.172602295875549316e-01 -3.167187571525573730e-01 1.666160374879837036e-01
-4.473713934421539307e-01 -7.137963175773620605e-02 2.432128787040710449e-01
2.088339924812316895e-01 -3.848165273666381836e-01 5.243526101112365723e-01
4.425650537014007568e-01 -2.853956520557403564e-01 -5.478812754154205322e-02
-3.527597188949584961e-01 -3.411075770854949951e-01 3.608506023883819580e-01
-2.787581086158752441e-01 1.624030023813247681e-01 -2.595343887805938721e-01
4.151680171489715576e-01 -4.713356494903564453e-03 -4.803394526243209839e-02
3.297879099845886230e-01 9.242124855518341064e-02 1.094630360603332520e-01
1.106176525354385376e-01 -5.223099589347839355e-01 2.711782753467559814e-01
3.263430297374725342e-01 8.309900760650634766e-03 -4.333140850067138672e-01
-2.432375550270080566e-01 1.584329456090927124e-01 -3.535566031932830811e-01
1.365840286016464233e-01 -1.416686922311782837e-01 -7.332031726837158203e-01
2.953611314296722412e-01 -1.956360340118408203e-01 5.562291145324707031e-01
-4.804021418094635010e-01 -1.830768585205078125e-01 2.115876786410808563e-02
6.182830035686492920e-02 -4.674612283706665039e-01 -4.591880142688751221e-01
2.218259871006011963e-01 1.132644861936569214e-01 -4.236528277397155762e-01
-4.695709645748138428e-01 -1.115316450595855713e-01 1.627259850502014160e-01
8.551408350467681885e-02 -2.309612929821014404e-01 -7.372702956199645996e-01
-1.321964524686336517e-02 -3.141970932483673096e-01 6.887132525444030762e-01
-4.390896260738372803e-01 -2.888873815536499023e-01 -1.508133709430694580e-01
1.857629567384719849e-01 -4.258680939674377441e-01 -4.740271866321563721e-01
9.495523571968078613e-02 1.998042017221450806e-01 2.242727875709533691e-01
2.407708764076232910e-01 1.412422209978103638e-01 2.121486961841583252e-01
3.560770452022552490e-01 7.465432584285736084e-02 3.177390247583389282e-02
5.049089714884757996e-02 2.265909761190414429e-01 1.117081046104431152e-01
2.665871679782867432e-01 9.220390021800994873e-02 -3.936169743537902832e-01
2.378831952810287476e-01 -4.061024785041809082e-01 4.571563899517059326e-01
3.682029247283935547e-02 -5.447593331336975098e-01 -1.629408299922943115e-01
-4.766077697277069092e-01 -1.218944191932678223e-01 -1.470753997564315796e-01
2.896640300750732422e-01 -3.581914305686950684e-01 4.573666155338287354e-01
1.750035285949707031e-01 1.398861557245254517e-01 -4.236076772212982178e-01
1.302856653928756714e-01 -4.049845933914184570e-01 -5.535866022109985352e-01
-2.688868939876556396e-01 1.886020153760910034e-01 -6.665278226137161255e-02
-4.137138128280639648e-01 -2.437423616647720337e-01 -3.499023318290710449e-01
-4.892252385616302490e-02 -3.999193906784057617e-01 -5.898208618164062500e-01
4.551465511322021484e-01 -1.222329586744308472e-01 -7.965288311243057251e-02
8.817972242832183838e-02 2.824679017066955566e-03 -6.975539326667785645e-01
-4.051707386970520020e-01 -6.431783735752105713e-02 -4.130744338035583496e-01
-3.979812264442443848e-01 -3.509625792503356934e-01 1.713332533836364746e-01
2.906221747398376465e-01 -1.778876036405563354e-01 -5.962899327278137207e-01
-3.480065762996673584e-01 1.251477152109146118e-01 1.225106716156005859e-01
2.813087105751037598e-01 -1.499573290348052979e-01 5.719134807586669922e-01
3.257955238223075867e-02 -5.021291375160217285e-01 3.876847326755523682e-01
-1.566725820302963257e-01 -3.427590727806091309e-01 6.176649928092956543e-01
-4.224382340908050537e-01 -3.334268331527709961e-01 5.637164413928985596e-02
-1.323298811912536621e-01 -3.185510635375976562e-01 6.540088653564453125e-01
6.600245833396911621e-02 2.293999940156936646e-01 5.207443982362747192e-02
-4.315721690654754639e-01 -2.670974433422088623e-01 2.401036620140075684e-01
6.513484567403793335e-02 -5.466418266296386719e-01 1.559098958969116211e-01
1.676603853702545166e-01 -2.489390075206756592e-01 6.690614223480224609e-01
-2.098408490419387817e-01 -4.225210547447204590e-01 -4.409389197826385498e-01
-6.042462307959794998e-03 2.179792672395706177e-01 2.096568346023559570e-01
5.191858112812042236e-02 8.967781066894531250e-02 5.436168313026428223e-01
4.598062932491302490e-01 -2.077301293611526489e-01 -5.068925209343433380e-03
2.886141538619995117e-01 -4.747441411018371582e-01 9.678680449724197388e-02
-1.079858988523483276e-01 -5.097562670707702637e-01 3.100185990333557129e-01
-1.016206741333007812e-01 -5.328143835067749023e-01 -1.659394651651382446e-01
-4.125777781009674072e-01 5.017451941967010498e-02 -2.054602503776550293e-01
2.376899272203445435e-01 -4.601444602012634277e-01 3.305099606513977051e-01
-4.578109681606292725e-01 -2.158779203891754150e-01 1.896194219589233398e-01
2.524199485778808594e-01 -2.153581380844116211e-01 -6.327443122863769531e-01
-4.778822883963584900e-02 -6.955238431692123413e-02 -7.567438483238220215e-01
-3.518049716949462891e-01 -1.035579890012741089e-01 -5.363094806671142578e-01
-8.847299963235855103e-02 -2.162124663591384888e-01 -7.455975413322448730e-01
1.953877061605453491e-01 -1.856323927640914917e-01 6.614923477172851562e-01
-1.854426860809326172e-01 -5.111083388328552246e-01 1.652321219444274902e-01
-1.447310447692871094e-01 -4.753596782684326172e-01 3.930444419384002686e-01
-2.749001085758209229e-01 -4.235433340072631836e-01 -3.332788348197937012e-01
2.958393394947052002e-01 -9.954452514648437500e-03 4.558807611465454102e-01
-1.272052675485610962e-01 -4.050504565238952637e-01 -5.488727688789367676e-01
-2.796325683593750000e-01 1.493420153856277466e-01 -3.130298256874084473e-01
2.215626090764999390e-01 1.716796308755874634e-01 9.530493617057800293e-02
1.614310890436172485e-01 -3.332971930503845215e-01 -6.289477348327636719e-01
-1.473908573389053345e-01 -5.167793631553649902e-01 2.199412733316421509e-01
-4.599825441837310791e-01 -2.497035562992095947e-01 -1.121261864900588989e-01
4.383939802646636963e-01 -2.794857323169708252e-01 1.165945529937744141e-01
8.890387415885925293e-02 1.789220422506332397e-01 3.156371116638183594e-01
-8.173672854900360107e-02 -2.675437033176422119e-01 7.066533565521240234e-01
-2.013549506664276123e-01 1.869259923696517944e-01 -3.141324520111083984e-01
-7.823710143566131592e-02 -4.734067916870117188e-01 -4.302376210689544678e-01
4.121841788291931152e-01 -3.526164889335632324e-01 5.989728495478630066e-03
-1.487063616514205933e-01 -3.785368800163269043e-01 5.807660222053527832e-01
1.445149183273315430e-01 -7.743250578641891479e-02 -7.160398960113525391e-01
4.384204745292663574e-01 -2.828063964843750000e-01 -1.254273951053619385e-01
4.872622340917587280e-02 2.076721638441085815e-01 -3.216818273067474365e-01
