-3.316929936408996582e-01 2.095304131507873535e-01 5.585857629776000977e-01
1.887957192957401276e-02 2.590783834457397461e-01 7.732926011085510254e-01
-6.365797668695449829e-02 1.860371828079223633e-01 5.410162210464477539e-01
-1.886782348155975342e-01 2.536237537860870361e-01 8.308452367782592773e-01
-2.127741649746894836e-02 1.974010318517684937e-01 8.381946086883544922e-01
-1.620887964963912964e-01 2.451292872428894043e-01 9.433574676513671875e-01
6.944070011377334595e-02 1.964901834726333618e-01 8.351495265960693359e-01
-1.696662902832031250e-01 1.911568045616149902e-01 6.565619707107543945e-01
-3.079487979412078857e-01 2.385360449552536011e-01 6.156257390975952148e-01
1.042566820979118347e-01 2.542569041252136230e-01 9.493250250816345215e-01
5.935841798782348633e-02 2.194051742553710938e-01 9.940346479415893555e-01
-1.128980219364166260e-01 2.214054912328720093e-01 4.026339650154113770e-01
-2.275114655494689941e-01 2.478853464126586914e-01 6.327368021011352539e-01
-2.564222365617752075e-02 2.552111148834228516e-01 6.660118103027343750e-01
-1.486542522907257080e-01 1.887833178043365479e-01 5.300661921501159668e-01
-1.511379927396774292e-01 1.917866021394729614e-01 6.944299936294555664e-01
-6.685512512922286987e-02 1.993740797042846680e-01 3.960540890693664551e-01
-3.158552050590515137e-01 2.057898193597793579e-01 6.393683552742004395e-01
1.155754253268241882e-01 1.891853064298629761e-01 5.443178415298461914e-01
-1.677301824092864990e-01 1.895496398210525513e-01 5.979726910591125488e-01
1.884383261203765869e-01 2.224190086126327515e-01 5.011385679244995117e-01
2.336474061012268066e-01 2.203858047723770142e-01 9.533227086067199707e-01
2.877362072467803955e-01 2.333326935768127441e-01 6.683261990547180176e-01
-3.111360073089599609e-01 2.410183995962142944e-01 6.846721172332763672e-01
-2.987296581268310547e-01 2.370589077472686768e-01 8.142189383506774902e-01
9.478290379047393799e-02 2.453753203153610229e-01 5.836399793624877930e-01
-9.069198369979858398e-02 2.579641938209533691e-01 7.416248917579650879e-01
-3.319472372531890869e-01 2.338362634181976318e-01 6.133646368980407715e-01
-1.110217068344354630e-02 2.042349278926849365e-01 9.011387228965759277e-01
-9.124211966991424561e-02 1.890675127506256104e-01 6.911135315895080566e-01
-3.885012120008468628e-04 2.442316710948944092e-01 1.014491915702819824e+00
-2.250556796789169312e-01 2.236264795064926147e-01 4.381209909915924072e-01
-2.701675891876220703e-01 2.453575581312179565e-01 8.048151731491088867e-01
2.026902511715888977e-02 2.430945336818695068e-01 5.335530638694763184e-01
-5.159370601177215576e-02 1.855579763650894165e-01 5.831126570701599121e-01
8.538880199193954468e-02 1.867086142301559448e-01 6.196817159652709961e-01
-2.416653037071228027e-01 1.988700926303863525e-01 4.714285731315612793e-01
2.994112670421600342e-01 2.394319474697113037e-01 7.879694700241088867e-01
1.749707572162151337e-02 1.982173621654510498e-01 4.117863476276397705e-01
1.646855622529983521e-01 2.368728518486022949e-01 5.566190481185913086e-01
5.852398276329040527e-02 2.591285109519958496e-01 8.402209281921386719e-01
1.741447597742080688e-01 2.118709534406661987e-01 4.713676571846008301e-01
6.659217923879623413e-02 1.867018342018127441e-01 5.561444759368896484e-01
1.138693243265151978e-01 2.553505301475524902e-01 7.402760386466979980e-01
-5.852133780717849731e-02 2.517903149127960205e-01 9.666790366172790527e-01
-2.212934046983718872e-01 2.184621542692184448e-01 8.822995424270629883e-01
-2.252671271562576294e-01 2.004882544279098511e-01 7.446686029434204102e-01
-1.086831539869308472e-01 2.469767332077026367e-01 5.597429275512695312e-01
2.493852525949478149e-01 2.135091423988342285e-01 9.079279899597167969e-01
6.019835919141769409e-02 2.485206872224807739e-01 5.997116565704345703e-01
1.794305592775344849e-01 1.916528642177581787e-01 6.828582882881164551e-01
-2.970921993255615234e-02 2.294885516166687012e-01 4.364798367023468018e-01
2.496514469385147095e-01 2.472962588071823120e-01 8.081779479980468750e-01
-2.208258062601089478e-01 2.464193403720855713e-01 6.035113334655761719e-01
2.312092036008834839e-01 2.094874680042266846e-01 8.941090106964111328e-01
-3.090404570102691650e-01 2.310534417629241943e-01 5.419480800628662109e-01
8.338147401809692383e-02 2.213483899831771851e-01 1.000898718833923340e+00
2.123253196477890015e-01 2.481924891471862793e-01 7.266933917999267578e-01
-4.199541360139846802e-02 2.577790617942810059e-01 7.196428179740905762e-01
-3.123940229415893555e-01 2.058414816856384277e-01 5.337973833084106445e-01
-2.872269749641418457e-01 2.449480742216110229e-01 7.044721841812133789e-01
2.282811850309371948e-01 1.981925815343856812e-01 7.683361172676086426e-01
-1.080649048089981079e-01 2.578929960727691650e-01 7.560560703277587891e-01
-5.848418176174163818e-02 1.887510120868682861e-01 4.714326858520507812e-01
-9.742455184459686279e-02 1.866353303194046021e-01 5.481397509574890137e-01
-1.924158036708831787e-01 2.539876401424407959e-01 8.065324425697326660e-01
-2.447861880064010620e-01 1.959789693355560303e-01 6.306249499320983887e-01
-2.571136951446533203e-01 2.423101812601089478e-01 8.574230074882507324e-01
9.073907136917114258e-02 1.917993724346160889e-01 7.680811882019042969e-01
-1.825284808874130249e-01 2.183606028556823730e-01 9.110212922096252441e-01
1.445970982313156128e-01 2.155946344137191772e-01 9.688754081726074219e-01
9.225789457559585571e-02 1.870415210723876953e-01 5.852905511856079102e-01
1.494415998458862305e-01 2.187042534351348877e-01 4.640798270702362061e-01
-2.092575877904891968e-01 2.531171143054962158e-01 7.615181207656860352e-01
1.115445941686630249e-01 1.909057945013046265e-01 5.099852085113525391e-01
-3.000989742577075958e-02 2.352235615253448486e-01 4.671280980110168457e-01
9.250374510884284973e-03 2.071251571178436279e-01 9.253247976303100586e-01
2.174565941095352173e-02 2.572384476661682129e-01 9.266281127929687500e-01
2.263794541358947754e-01 2.024946510791778564e-01 8.327370882034301758e-01
-8.102731406688690186e-02 2.160423845052719116e-01 3.889836370944976807e-01
-1.080138310790061951e-01 1.914804577827453613e-01 4.482728838920593262e-01
5.275166779756546021e-02 1.977197080850601196e-01 8.493740558624267578e-01
-1.706125587224960327e-01 2.555422186851501465e-01 7.615978121757507324e-01
1.847572326660156250e-01 2.521975934505462646e-01 7.664468288421630859e-01
-1.184079125523567200e-01 1.871644109487533569e-01 5.640414953231811523e-01
7.170978933572769165e-02 2.106640189886093140e-01 9.513942003250122070e-01
2.762573063373565674e-01 2.172555923461914062e-01 5.796653032302856445e-01
-2.347105592489242554e-01 2.480579316616058350e-01 8.436813950538635254e-01
1.573371887207031250e-02 2.528800666332244873e-01 9.762376546859741211e-01
-1.038999669253826141e-02 2.539101839065551758e-01 6.469684839248657227e-01
9.410173445940017700e-02 1.962971240282058716e-01 8.293984532356262207e-01
9.917604923248291016e-02 2.123285382986068726e-01 9.592924118041992188e-01
1.193690150976181030e-01 2.290472239255905151e-01 4.831313490867614746e-01
-1.602446138858795166e-01 2.359030693769454956e-01 4.772639870643615723e-01
-2.508612722158432007e-02 1.856725513935089111e-01 5.437752008438110352e-01
1.905429512262344360e-01 1.966102123260498047e-01 7.863771915435791016e-01
-1.867366284132003784e-01 2.458967864513397217e-01 9.196687936782836914e-01
1.782705076038837433e-02 1.949122697114944458e-01 8.168667554855346680e-01
-2.319512963294982910e-01 2.504013180732727051e-01 6.973909139633178711e-01
-1.589661687612533569e-01 2.336670011281967163e-01 9.622428417205810547e-01
-1.914546787738800049e-01 2.469064742326736450e-01 5.882015824317932129e-01
-1.983402818441390991e-01 2.409686297178268433e-01 5.294196605682373047e-01
-3.250685930252075195e-01 2.162209600210189819e-01 7.390297055244445801e-01
7.683285325765609741e-02 2.580733001232147217e-01 8.874492645263671875e-01
-2.311347275972366333e-01 2.509000003337860107e-01 7.936513423919677734e-01
-5.461195111274719238e-02 2.590065300464630127e-01 7.644370794296264648e-01
9.994117915630340576e-02 2.489962875843048096e-01 9.954813718795776367e-01
1.432340592145919800e-02 1.855806112289428711e-01 5.597581863403320312e-01
-1.671878844499588013e-01 2.094414234161376953e-01 8.732413053512573242e-01
2.947676777839660645e-01 2.407614886760711670e-01 8.176958560943603516e-01
-3.275229334831237793e-01 2.214988023042678833e-01 5.224355459213256836e-01
-1.305269915610551834e-02 1.877716034650802612e-01 4.879104495048522949e-01
-2.034634351730346680e-02 1.893976330757141113e-01 7.303763628005981445e-01
-1.783249825239181519e-01 2.389471828937530518e-01 5.044141411781311035e-01
-1.111209243535995483e-01 2.052300423383712769e-01 8.752009868621826172e-01
2.505893707275390625e-01 2.460364699363708496e-01 7.660062909126281738e-01
-1.505444496870040894e-01 1.903510242700576782e-01 4.879029691219329834e-01
1.769100874662399292e-02 2.553129792213439941e-01 6.772035360336303711e-01
4.981949180364608765e-02 1.909893900156021118e-01 7.628654837608337402e-01
-1.528314314782619476e-03 2.391441464424133301e-01 4.977509975433349609e-01
-9.881935268640518188e-02 2.585313022136688232e-01 7.853003144264221191e-01
2.524784207344055176e-01 2.467277795076370239e-01 8.683325052261352539e-01
1.438249945640563965e-01 2.222605645656585693e-01 9.961463212966918945e-01
-1.334228217601776123e-01 2.111396938562393188e-01 9.036890864372253418e-01
-1.456894576549530029e-01 2.547498345375061035e-01 8.762563467025756836e-01
-1.665087342262268066e-01 2.003994137048721313e-01 7.994939684867858887e-01
4.071150720119476318e-02 2.470726668834686279e-01 5.766908526420593262e-01
2.102690786123275757e-01 2.512997090816497803e-01 8.659902215003967285e-01
4.349369555711746216e-02 2.511074244976043701e-01 9.897148013114929199e-01
1.796145737171173096e-01 1.974555850028991699e-01 5.133425593376159668e-01
1.112646907567977905e-01 2.563360333442687988e-01 7.647587656974792480e-01
-2.930848598480224609e-01 2.277341932058334351e-01 5.030606985092163086e-01
1.639482229948043823e-01 2.496957033872604370e-01 9.631452560424804688e-01
2.336472570896148682e-01 2.275874763727188110e-01 5.611588358879089355e-01
-5.134842544794082642e-02 2.336122989654541016e-01 1.010099530220031738e+00
6.088925153017044067e-02 2.513181269168853760e-01 6.339024901390075684e-01
2.048776894807815552e-01 2.392863631248474121e-01 6.093963980674743652e-01
2.453802376985549927e-01 2.350166887044906616e-01 6.190720200538635254e-01
-3.145796805620193481e-02 2.583577334880828857e-01 8.956899642944335938e-01
3.284483850002288818e-01 2.308591753244400024e-01 7.649250626564025879e-01
-7.491983473300933838e-02 1.860050261020660400e-01 5.922102332115173340e-01
1.448896378278732300e-01 2.549353241920471191e-01 7.725611925125122070e-01
8.732263743877410889e-02 2.251486629247665405e-01 4.513050019741058350e-01
1.503448486328125000e-01 2.443289160728454590e-01 6.089779138565063477e-01
1.369455903768539429e-01 2.476059496402740479e-01 6.344532370567321777e-01
-1.284198015928268433e-01 2.489171326160430908e-01 5.858005285263061523e-01
1.569483578205108643e-01 2.553253769874572754e-01 8.409510254859924316e-01
-2.688660919666290283e-01 1.983532309532165527e-01 5.334264636039733887e-01
-6.073296815156936646e-02 2.565520405769348145e-01 6.920138597488403320e-01
-8.239436149597167969e-02 1.866897493600845337e-01 5.256099700927734375e-01
2.421525865793228149e-01 1.981888264417648315e-01 7.415487170219421387e-01
-2.234898060560226440e-01 2.328902333974838257e-01 4.815815985202789307e-01
1.643975079059600830e-02 1.871970593929290771e-01 5.066924095153808594e-01
-2.934853732585906982e-01 2.429686635732650757e-01 6.609610319137573242e-01
9.275086969137191772e-02 2.520325481891632080e-01 6.614838838577270508e-01
-9.120796620845794678e-02 2.311410903930664062e-01 4.408179521560668945e-01
3.643932938575744629e-02 1.863079220056533813e-01 5.412490367889404297e-01
-2.884405553340911865e-01 2.034415751695632935e-01 6.819418072700500488e-01
2.204119116067886353e-01 1.946019828319549561e-01 6.759102344512939453e-01
4.759775102138519287e-02 1.934263110160827637e-01 4.463953077793121338e-01
1.814629510045051575e-02 2.489535957574844360e-01 5.895033478736877441e-01
4.105800390243530273e-02 2.573722004890441895e-01 7.303195595741271973e-01
-3.032670021057128906e-01 2.155325710773468018e-01 4.798502326011657715e-01
2.793879508972167969e-01 2.432052046060562134e-01 8.016136288642883301e-01
-2.515877783298492432e-01 2.344072163105010986e-01 8.864039778709411621e-01
1.227657496929168701e-01 2.562698125839233398e-01 8.959206342697143555e-01
1.650901585817337036e-01 2.546550631523132324e-01 8.678861856460571289e-01
-2.069736421108245850e-01 2.503674924373626709e-01 6.543569564819335938e-01
1.256022751331329346e-01 2.037751078605651855e-01 8.965946435928344727e-01
9.203342348337173462e-02 2.400290518999099731e-01 1.024554848670959473e+00
1.418363004922866821e-01 2.540526390075683594e-01 9.264994859695434570e-01
-1.040252000093460083e-01 1.936261802911758423e-01 7.612714767456054688e-01
-2.571894824504852295e-01 2.449073493480682373e-01 6.221441626548767090e-01
-1.157724019140005112e-02 2.577886581420898438e-01 9.136933684349060059e-01
-2.484478652477264404e-01 2.149594575166702271e-01 8.402588367462158203e-01
2.210647463798522949e-01 2.505201101303100586e-01 8.323448896408081055e-01
-4.155427217483520508e-02 1.925869435071945190e-01 7.751146554946899414e-01
1.517454534769058228e-01 1.939800381660461426e-01 7.746550440788269043e-01
-1.006763726472854614e-01 1.869415938854217529e-01 6.137201786041259766e-01
7.750740647315979004e-02 1.902541369199752808e-01 4.915459156036376953e-01
2.611886560916900635e-01 2.241834253072738647e-01 9.456413984298706055e-01
1.753728538751602173e-01 2.166875004768371582e-01 9.652326107025146484e-01
-3.093614578247070312e-01 2.354157418012619019e-01 5.799269080162048340e-01
-1.771705299615859985e-01 2.058057636022567749e-01 8.401654958724975586e-01
-2.291957139968872070e-01 2.383236438035964966e-01 5.236526131629943848e-01
-4.779516905546188354e-02 2.542587816715240479e-01 6.487431526184082031e-01
-3.140752017498016357e-01 2.391943633556365967e-01 6.444289684295654297e-01
-2.199395298957824707e-01 1.928611695766448975e-01 5.660284161567687988e-01
-1.414789259433746338e-01 2.004393786191940308e-01 8.173003792762756348e-01
-2.321993410587310791e-01 2.512464523315429688e-01 7.578244805335998535e-01
5.611657164990901947e-03 2.570309340953826904e-01 7.075570821762084961e-01
-1.226546689867973328e-01 2.248908877372741699e-01 9.675823450088500977e-01
3.206486701965332031e-01 2.109738439321517944e-01 7.550965547561645508e-01
5.738548934459686279e-02 1.937624067068099976e-01 8.028764724731445312e-01
9.364590048789978027e-03 1.854556053876876831e-01 6.137959957122802734e-01
2.913150191307067871e-01 2.356095314025878906e-01 6.970074176788330078e-01
1.585554480552673340e-01 1.906073093414306641e-01 5.809632539749145508e-01
-1.101865917444229126e-01 2.554459869861602783e-01 6.824733018875122070e-01
-1.204964891076087952e-01 2.515374422073364258e-01 6.181637048721313477e-01
-1.353040337562561035e-01 2.152338773012161255e-01 3.911889493465423584e-01
2.566063702106475830e-01 2.284993976354598999e-01 5.911661982536315918e-01
1.054058521986007690e-01 2.151271700859069824e-01 4.329481124877929688e-01
9.958526492118835449e-02 2.550222277641296387e-01 7.186195254325866699e-01
-8.972612023353576660e-02 1.969693452119827271e-01 4.062340557575225830e-01
3.057285845279693604e-01 2.356020659208297729e-01 7.346770167350769043e-01
-2.613848447799682617e-01 2.402569949626922607e-01 5.672743916511535645e-01
-2.879085540771484375e-01 2.074615955352783203e-01 7.343264222145080566e-01
-1.231545731425285339e-01 2.565341889858245850e-01 7.187224626541137695e-01
-9.156192839145660400e-02 2.387244403362274170e-01 4.868850708007812500e-01
8.908285200595855713e-02 2.568876743316650391e-01 9.127163290977478027e-01
3.423754125833511353e-02 1.856693923473358154e-01 6.166302561759948730e-01
4.070235788822174072e-02 2.504041790962219238e-01 6.137939691543579102e-01
-2.771474719047546387e-01 1.988662034273147583e-01 5.567399859428405762e-01
1.079090088605880737e-01 2.370067983865737915e-01 5.224382877349853516e-01
-7.462860643863677979e-02 2.530363798141479492e-01 9.501594901084899902e-01
-6.591200828552246094e-02 1.863162964582443237e-01 6.279093027114868164e-01
-1.870790868997573853e-01 2.492652386426925659e-01 8.969222307205200195e-01
-6.003455072641372681e-02 2.331433594226837158e-01 4.521301686763763428e-01
-2.214549034833908081e-01 1.941223591566085815e-01 6.380515694618225098e-01
-3.257192671298980713e-02 1.882745325565338135e-01 7.043434977531433105e-01
3.297807276248931885e-01 2.181782275438308716e-01 6.971067190170288086e-01
-3.280112892389297485e-02 2.597635984420776367e-01 8.155210614204406738e-01
9.185134619474411011e-02 2.522257566452026367e-01 9.750385284423828125e-01
2.582981251180171967e-03 2.597101926803588867e-01 8.498494625091552734e-01
-2.678772211074829102e-01 2.466701567173004150e-01 6.809038519859313965e-01
1.964854001998901367e-01 2.450620681047439575e-01 9.729930162429809570e-01
-6.375120580196380615e-02 2.368005067110061646e-01 4.739271998405456543e-01
1.950707100331783295e-02 2.284201681613922119e-01 1.017559051513671875e+00
1.429286301136016846e-01 1.994313448667526245e-01 8.506023287773132324e-01
2.547501921653747559e-01 2.027626484632492065e-01 5.806147456169128418e-01
-9.451463818550109863e-02 2.202497869729995728e-01 9.650654792785644531e-01
1.642076075077056885e-01 1.918799281120300293e-01 5.595651268959045410e-01
-2.399317026138305664e-01 1.964589357376098633e-01 6.567017436027526855e-01
2.537303268909454346e-01 2.387749403715133667e-01 6.631848812103271484e-01
1.511718332767486572e-01 1.924003362655639648e-01 5.319440364837646484e-01
-2.601412534713745117e-01 1.983332782983779907e-01 5.086620450019836426e-01
4.226859658956527710e-02 2.592334747314453125e-01 8.020817041397094727e-01
8.885144442319869995e-02 2.051181048154830933e-01 9.131432771682739258e-01
1.260796785354614258e-01 2.008820921182632446e-01 8.706327676773071289e-01
-3.306710720062255859e-01 2.340500950813293457e-01 7.505691051483154297e-01
4.608280211687088013e-02 1.958030313253402710e-01 8.284677863121032715e-01
1.102735176682472229e-01 1.875395774841308594e-01 6.155392527580261230e-01
2.155292034149169922e-01 2.278366386890411377e-01 5.448657274246215820e-01
-7.845111191272735596e-02 2.586515843868255615e-01 7.622944116592407227e-01
2.610539197921752930e-01 2.000598162412643433e-01 6.301958560943603516e-01
-1.968669742345809937e-01 2.518422007560729980e-01 8.536543846130371094e-01
3.199563175439834595e-02 2.125824391841888428e-01 9.610025882720947266e-01
-4.758652299642562866e-02 2.485473006963729858e-01 5.737915039062500000e-01
2.700338363647460938e-01 2.388239651918411255e-01 9.297370314598083496e-01
-2.822818458080291748e-01 2.165822237730026245e-01 8.105356693267822266e-01
4.542709141969680786e-02 2.583998739719390869e-01 8.968446254730224609e-01
-3.005150556564331055e-01 2.051020264625549316e-01 5.100854635238647461e-01
-5.067096650600433350e-02 2.525251209735870361e-01 6.226630210876464844e-01
-2.735201120376586914e-01 2.367173582315444946e-01 5.452909469604492188e-01
-1.929206103086471558e-01 2.315016537904739380e-01 9.380403757095336914e-01
-1.246869191527366638e-01 1.876525431871414185e-01 6.059183478355407715e-01
-1.459699124097824097e-01 2.568689882755279541e-01 7.945397496223449707e-01
1.567825525999069214e-01 1.898526549339294434e-01 6.149035692214965820e-01
-2.962185628712177277e-02 2.064219117164611816e-01 9.130591154098510742e-01
-1.609733551740646362e-01 2.173429280519485474e-01 9.203113317489624023e-01
8.586893230676651001e-02 2.584260106086730957e-01 8.412437438964843750e-01
1.365445703268051147e-01 2.020164430141448975e-01 4.556648433208465576e-01
2.097828388214111328e-01 2.458723783493041992e-01 6.860221624374389648e-01
-1.248199716210365295e-01 2.370545715093612671e-01 4.781758189201354980e-01
-3.081618845462799072e-01 2.034385204315185547e-01 5.746750831604003906e-01
7.679747045040130615e-02 1.867614388465881348e-01 6.450283527374267578e-01
2.894963324069976807e-01 2.143512517213821411e-01 8.715543746948242188e-01
7.323673367500305176e-02 2.574779093265533447e-01 7.570002079010009766e-01
1.282536238431930542e-01 2.329537123441696167e-01 5.082778334617614746e-01
1.338970810174942017e-01 2.419496476650238037e-01 1.013594627380371094e+00
1.962333321571350098e-01 1.963987052440643311e-01 5.432310104370117188e-01
1.395927965641021729e-01 2.559469342231750488e-01 8.038918972015380859e-01
1.235117316246032715e-01 2.101031243801116943e-01 9.427694082260131836e-01
-1.996350735425949097e-01 2.153947055339813232e-01 8.851114511489868164e-01
-3.448717594146728516e-01 2.124594449996948242e-01 6.063498258590698242e-01
8.610893040895462036e-03 1.903292983770370483e-01 7.517526745796203613e-01
-2.639606893062591553e-01 2.285339087247848511e-01 4.819059073925018311e-01
5.619803816080093384e-02 2.033667713403701782e-01 9.009907841682434082e-01
9.514233469963073730e-02 1.981013417243957520e-01 4.438790977001190186e-01
3.195713460445404053e-02 1.887512207031250000e-01 4.863413274288177490e-01
-2.189469635486602783e-01 1.929350942373275757e-01 5.949374437332153320e-01
2.118633687496185303e-01 2.205106019973754883e-01 9.660899639129638672e-01
-1.022630408406257629e-01 1.909641325473785400e-01 7.208383083343505859e-01
-8.825446665287017822e-02 2.560163736343383789e-01 9.086579680442810059e-01
6.081914156675338745e-02 2.588639557361602783e-01 8.662620782852172852e-01
2.840499579906463623e-01 2.031464278697967529e-01 6.566443443298339844e-01
-3.255139291286468506e-01 2.068673521280288696e-01 5.975669026374816895e-01
1.917567700147628784e-01 1.922920942306518555e-01 6.198096871376037598e-01
2.743204534053802490e-01 2.020991742610931396e-01 7.492665648460388184e-01
-1.047826185822486877e-01 1.976557970046997070e-01 8.099994659423828125e-01
3.193707764148712158e-02 2.595264315605163574e-01 8.480537533760070801e-01
6.892376393079757690e-02 1.895098537206649780e-01 7.326261401176452637e-01
-1.083621308207511902e-01 2.576037943363189697e-01 8.547563552856445312e-01
-9.902998805046081543e-02 2.536498904228210449e-01 9.310361146926879883e-01
-6.002902984619140625e-02 1.894809603691101074e-01 7.178387045860290527e-01
1.775190420448780060e-02 2.024905234575271606e-01 8.917204141616821289e-01
5.107026547193527222e-02 2.538270354270935059e-01 9.680472612380981445e-01
-9.326081722974777222e-02 2.537354826927185059e-01 6.448714137077331543e-01
-6.015937030315399170e-02 1.908032149076461792e-01 7.412073016166687012e-01
-2.739962637424468994e-01 2.196116596460342407e-01 4.567115306854248047e-01
-6.246598064899444580e-02 2.591944932937622070e-01 8.444523811340332031e-01
-1.965187788009643555e-01 1.926300972700119019e-01 6.498098373413085938e-01
-1.203116625547409058e-01 2.579074800014495850e-01 8.041479587554931641e-01
2.626940011978149414e-01 2.047389149665832520e-01 8.175092339515686035e-01
-2.435031905770301819e-02 1.862697750329971313e-01 5.203105211257934570e-01
1.228661686182022095e-01 2.481821477413177490e-01 9.936615228652954102e-01
-4.945557564496994019e-02 1.872411519289016724e-01 6.719938516616821289e-01
-3.216092009097337723e-03 2.312876880168914795e-01 4.498201012611389160e-01
9.877873957157135010e-02 1.875505149364471436e-01 6.570238471031188965e-01
-1.380182243883609772e-02 1.853949725627899170e-01 5.625041127204895020e-01
-7.186472415924072266e-02 2.227054536342620850e-01 9.819131493568420410e-01
3.236726671457290649e-02 1.923340857028961182e-01 7.840562462806701660e-01
1.686559319496154785e-01 2.441171109676361084e-01 6.216891407966613770e-01
-1.513256579637527466e-01 2.559007704257965088e-01 8.401409983634948730e-01
-1.669600903987884521e-01 1.993455886840820312e-01 4.142237603664398193e-01
2.288589328527450562e-01 2.481696605682373047e-01 7.600253820419311523e-01
1.555191576480865479e-01 1.903946995735168457e-01 6.857798695564270020e-01
2.158816158771514893e-01 2.330747097730636597e-01 9.890300035476684570e-01
-2.019005119800567627e-01 2.311692535877227783e-01 4.619657397270202637e-01
4.618282616138458252e-02 2.568762302398681641e-01 9.302811026573181152e-01
-8.304260671138763428e-02 2.490850090980529785e-01 5.800439119338989258e-01
-2.959062457084655762e-01 2.432881295680999756e-01 7.543920874595642090e-01
4.064941406250000000e-02 2.594531476497650146e-01 8.261628746986389160e-01
-1.387271881103515625e-01 1.952959746122360229e-01 7.609668374061584473e-01
4.218628257513046265e-02 2.333218306303024292e-01 4.725567400455474854e-01
-8.854377269744873047e-02 2.454900294542312622e-01 5.426610708236694336e-01
2.190313041210174561e-01 1.944290101528167725e-01 6.467949151992797852e-01
2.195827960968017578e-01 1.971217989921569824e-01 5.729547142982482910e-01
1.645023934543132782e-03 1.923156231641769409e-01 7.813586592674255371e-01
-1.684544533491134644e-01 2.550475895404815674e-01 7.260164022445678711e-01
1.979835033416748047e-01 2.504614889621734619e-01 7.479541897773742676e-01
4.779078811407089233e-02 2.551798224449157715e-01 6.870891451835632324e-01
2.459533959627151489e-01 1.971886605024337769e-01 6.791408658027648926e-01
-9.000605344772338867e-02 1.875765621662139893e-01 5.028389692306518555e-01
3.186890780925750732e-01 2.272689789533615112e-01 8.739787340164184570e-01
-2.144827544689178467e-01 2.417387664318084717e-01 9.106903076171875000e-01
-1.803004592657089233e-01 1.991209834814071655e-01 7.745273709297180176e-01
1.511965394020080566e-01 2.529824078083038330e-01 7.307934761047363281e-01
-3.176221847534179688e-01 2.105420827865600586e-01 7.073721885681152344e-01
2.379937022924423218e-01 2.016552537679672241e-01 5.600655078887939453e-01
-9.139288216829299927e-02 2.587607502937316895e-01 8.202747106552124023e-01
-2.714770734310150146e-01 2.413711547851562500e-01 5.916392207145690918e-01
8.072787523269653320e-02 2.018487602472305298e-01 8.872656822204589844e-01
1.548170298337936401e-02 1.871525049209594727e-01 6.857789754867553711e-01
1.040620133280754089e-01 2.008760571479797363e-01 8.754552602767944336e-01
-1.800090968608856201e-01 1.956585943698883057e-01 7.301111817359924316e-01
-2.680896818637847900e-01 1.976577341556549072e-01 5.917531251907348633e-01
-1.316859573125839233e-02 2.497353106737136841e-01 5.911493897438049316e-01
-2.531400918960571289e-01 2.490963786840438843e-01 7.650923728942871094e-01
-1.685588508844375610e-01 2.556532919406890869e-01 8.003979921340942383e-01
2.016975879669189453e-01 1.936851292848587036e-01 5.988600254058837891e-01
1.143374294042587280e-01 1.906049549579620361e-01 7.355936169624328613e-01
1.970208287239074707e-01 2.525776922702789307e-01 8.307149410247802734e-01
-1.742636412382125854e-01 1.900532990694046021e-01 5.332622528076171875e-01
-1.761146932840347290e-01 1.938233375549316406e-01 4.586242437362670898e-01
-1.919612586498260498e-01 2.043604105710983276e-01 8.167939186096191406e-01
-1.862720996141433716e-01 2.524870932102203369e-01 6.757158637046813965e-01
-2.036994844675064087e-01 1.921032667160034180e-01 5.280259251594543457e-01
2.159962654113769531e-01 2.064874023199081421e-01 5.120646953582763672e-01
-2.841061055660247803e-01 2.045254856348037720e-01 7.069191336631774902e-01
2.035989314317703247e-01 2.077618986368179321e-01 8.985753059387207031e-01
2.024046182632446289e-01 1.934515833854675293e-01 6.949264407157897949e-01
-2.570310533046722412e-01 2.067449092864990234e-01 4.435177743434906006e-01
-1.879875808954238892e-01 2.534389495849609375e-01 7.035913467407226562e-01
3.112443983554840088e-01 2.365889549255371094e-01 8.430126309394836426e-01
1.578335016965866089e-01 2.368805855512619019e-01 1.013626217842102051e+00
-2.022715210914611816e-01 2.010727226734161377e-01 7.759740948677062988e-01
-6.879065930843353271e-02 1.872205883264541626e-01 6.595586538314819336e-01
9.165178984403610229e-02 2.409977465867996216e-01 5.435242056846618652e-01
2.168037928640842438e-03 2.513912022113800049e-01 6.143848896026611328e-01
-2.313145548105239868e-01 2.411874681711196899e-01 5.509728193283081055e-01
-3.254259377717971802e-02 2.588553428649902344e-01 7.527934312820434570e-01
1.174865514039993286e-01 2.471975535154342651e-01 6.159808039665222168e-01
3.252099156379699707e-01 2.173933237791061401e-01 8.232333660125732422e-01
3.086153268814086914e-01 2.122238576412200928e-01 6.438975334167480469e-01
-2.101301252841949463e-01 2.522665858268737793e-01 7.084214091300964355e-01
-5.828386545181274414e-02 2.028791457414627075e-01 8.781600594520568848e-01
2.926641143858432770e-02 2.591558098793029785e-01 8.756800889968872070e-01
-2.580097615718841553e-01 2.486400008201599121e-01 7.269062995910644531e-01
2.141060829162597656e-01 2.503474950790405273e-01 7.830108404159545898e-01
1.613361835479736328e-01 2.124221622943878174e-01 9.475011825561523438e-01
-2.625204622745513916e-01 2.085796296596527100e-01 7.812968492507934570e-01
3.186944127082824707e-02 2.378947287797927856e-01 4.975901842117309570e-01
-8.236190676689147949e-02 2.133231759071350098e-01 9.387776851654052734e-01
-3.677982091903686523e-02 2.447128891944885254e-01 5.366785526275634766e-01
-2.781632356345653534e-02 1.906759887933731079e-01 7.505407929420471191e-01
2.313572615385055542e-01 2.422665953636169434e-01 6.693844199180603027e-01
2.333382815122604370e-01 2.318940311670303345e-01 5.840999484062194824e-01
-1.238152310252189636e-01 1.942250877618789673e-01 4.287382960319519043e-01
5.693558603525161743e-02 1.880224496126174927e-01 5.119598507881164551e-01
1.342246979475021362e-01 1.895895302295684814e-01 5.623493194580078125e-01
-1.722446084022521973e-01 2.536523044109344482e-01 8.603948950767517090e-01
-2.256758511066436768e-01 2.025612592697143555e-01 7.677403092384338379e-01
1.347343176603317261e-01 1.886521577835083008e-01 6.104260087013244629e-01
-1.771728098392486572e-01 2.430444210767745972e-01 5.391887426376342773e-01
1.029882207512855530e-01 1.943773776292800903e-01 8.030053377151489258e-01
-1.255212128162384033e-01 2.493153959512710571e-01 9.481730461120605469e-01
-9.193276613950729370e-02 1.892333328723907471e-01 4.715571999549865723e-01
-1.603430360555648804e-01 2.496004551649093628e-01 9.201890826225280762e-01
-2.398204244673252106e-02 2.472211122512817383e-01 5.622484087944030762e-01
1.085425391793251038e-01 1.894313395023345947e-01 7.121436595916748047e-01
-1.110509410500526428e-01 2.559705972671508789e-01 8.912585377693176270e-01
-2.883414737880229950e-02 2.553322911262512207e-01 9.453092813491821289e-01
-1.482895314693450928e-01 2.445839941501617432e-01 5.441182851791381836e-01
5.312295258045196533e-02 1.983802765607833862e-01 4.230497777462005615e-01
1.921504735946655273e-01 2.031030803918838501e-01 8.645984530448913574e-01
-2.086866050958633423e-01 2.004510313272476196e-01 4.309073984622955322e-01
2.132441252470016479e-01 2.327750921249389648e-01 5.695438981056213379e-01
-8.256802707910537720e-02 2.094374299049377441e-01 9.163993597030639648e-01
2.935221791267395020e-01 2.080160528421401978e-01 8.050374984741210938e-01
1.489125341176986694e-01 1.912212818861007690e-01 7.212885022163391113e-01
2.853880524635314941e-01 2.105913311243057251e-01 8.474200963973999023e-01
-4.623846616595983505e-03 2.590373158454895020e-01 7.623176574707031250e-01
-1.301493048667907715e-01 1.887110918760299683e-01 5.050926208496093750e-01
1.713031232357025146e-01 2.391713261604309082e-01 5.789222717285156250e-01
9.662749618291854858e-02 1.876789629459381104e-01 5.608940720558166504e-01
-1.624369174242019653e-01 1.890804022550582886e-01 5.757484436035156250e-01
3.207435309886932373e-01 2.344193309545516968e-01 7.935068607330322266e-01
-1.399175524711608887e-01 2.410529851913452148e-01 5.104629993438720703e-01
-1.616987138986587524e-01 2.297994941473007202e-01 4.425689578056335449e-01
1.324285864830017090e-01 1.933128535747528076e-01 5.012731552124023438e-01
2.271220386028289795e-01 2.404243499040603638e-01 6.441649794578552246e-01
-1.486348062753677368e-01 1.978345066308975220e-01 7.849766016006469727e-01
-3.348930180072784424e-02 2.596798837184906006e-01 8.391300439834594727e-01
-1.775963306427001953e-01 1.899352967739105225e-01 5.594101548194885254e-01
3.106324672698974609e-01 2.277590930461883545e-01 6.737442612648010254e-01
1.074788197875022888e-01 2.236910313367843628e-01 1.006585359573364258e+00
1.909449398517608643e-01 1.933016628026962280e-01 7.174170017242431641e-01
4.336474835872650146e-02 2.436416596174240112e-01 5.453859567642211914e-01
2.887700200080871582e-01 2.032885849475860596e-01 7.107130289077758789e-01
-1.313136368989944458e-01 2.026032507419586182e-01 8.433305025100708008e-01
2.787249982357025146e-01 2.170392870903015137e-01 9.009390473365783691e-01
-1.974221132695674896e-02 1.900462508201599121e-01 4.561783671379089355e-01
-1.014488488435745239e-01 1.882588416337966919e-01 6.626193523406982422e-01
-5.732735991477966309e-02 2.594219446182250977e-01 7.955830097198486328e-01
-1.357816755771636963e-01 1.989000886678695679e-01 4.058566689491271973e-01
-3.286385908722877502e-02 2.019765824079513550e-01 8.781415224075317383e-01
-3.415741324424743652e-01 2.330848276615142822e-01 6.435781121253967285e-01
-1.468768864870071411e-01 2.550645172595977783e-01 6.981008648872375488e-01
2.660324871540069580e-01 2.434278726577758789e-01 8.971546888351440430e-01
-1.162724941968917847e-01 1.875746250152587891e-01 5.265448093414306641e-01
-4.176095128059387207e-02 1.862609237432479858e-01 6.438007354736328125e-01
1.708543747663497925e-01 2.004327923059463501e-01 8.489723205566406250e-01
-1.398531645536422729e-01 1.896405816078186035e-01 6.579653024673461914e-01
-3.193715810775756836e-01 2.191700190305709839e-01 7.670642137527465820e-01
-2.678624689579010010e-01 2.456326186656951904e-01 6.541636586189270020e-01
5.556800402700901031e-03 2.130620032548904419e-01 9.604353904724121094e-01
1.674896925687789917e-01 2.521091997623443604e-01 9.323096275329589844e-01
2.550662159919738770e-01 2.412415891885757446e-01 6.931981444358825684e-01
1.275619268417358398e-01 2.413683533668518066e-01 5.662920475006103516e-01
-7.168167084455490112e-02 2.530261576175689697e-01 6.305550336837768555e-01
2.435591258108615875e-02 2.530125081539154053e-01 6.426203250885009766e-01
1.478892266750335693e-01 2.283685654401779175e-01 4.963333606719970703e-01
1.330442726612091064e-01 2.565749287605285645e-01 8.329708576202392578e-01
-1.171409860253334045e-01 1.966099292039871216e-01 7.914364933967590332e-01
-2.203083634376525879e-01 2.071599066257476807e-01 8.152880668640136719e-01
-1.894408911466598511e-01 2.104884088039398193e-01 8.646022677421569824e-01
1.185714900493621826e-01 1.880472302436828613e-01 6.458286046981811523e-01
4.467055946588516235e-02 2.084445953369140625e-01 9.373455047607421875e-01
2.493440955877304077e-01 2.058079093694686890e-01 8.460127115249633789e-01
-2.602031826972961426e-01 2.114324122667312622e-01 8.057637214660644531e-01
-2.599503472447395325e-02 2.463953495025634766e-01 1.003188610076904297e+00
-3.558687865734100342e-02 2.504591643810272217e-01 9.826914072036743164e-01
-1.587219238281250000e-01 2.525786161422729492e-01 6.529641151428222656e-01
2.603849470615386963e-01 1.994718611240386963e-01 7.212557196617126465e-01
-9.008529782295227051e-02 1.950508654117584229e-01 7.874464988708496094e-01
-4.779043048620223999e-02 2.587261795997619629e-01 8.775821924209594727e-01
-9.219488129019737244e-04 2.580336332321166992e-01 7.304999232292175293e-01
4.830309003591537476e-02 2.271039187908172607e-01 4.442213475704193115e-01
1.622968316078186035e-01 2.485201954841613770e-01 6.680006980895996094e-01
-1.675171554088592529e-01 1.904972791671752930e-01 5.044636726379394531e-01
5.118818581104278564e-02 1.877793520689010620e-01 6.976441740989685059e-01
-3.144482076168060303e-01 2.308219820261001587e-01 8.001105785369873047e-01
-1.417331844568252563e-01 1.934642195701599121e-01 4.417057633399963379e-01
1.130544021725654602e-01 1.948578208684921265e-01 4.728418290615081787e-01
-1.131709665060043335e-03 2.174221277236938477e-01 4.005038142204284668e-01
-5.578614771366119385e-02 2.195715904235839844e-01 3.977487683296203613e-01
2.571341991424560547e-01 2.443145960569381714e-01 7.452170252799987793e-01
-2.328844219446182251e-01 2.445619255304336548e-01 8.772939443588256836e-01
-4.464703798294067383e-02 1.961550712585449219e-01 8.185120820999145508e-01
-8.504154533147811890e-02 -6.366410851478576660e-02 -2.395287007093429565e-01
-1.587227433919906616e-01 -1.750462651252746582e-01 -2.191182374954223633e-01
1.015146151185035706e-01 -2.603066563606262207e-01 -3.815261125564575195e-01
-1.986626386642456055e-01 -3.005098402500152588e-01 -2.153879106044769287e-01
-1.606359779834747314e-01 -5.000441074371337891e-01 -2.545665800571441650e-01
-1.298560500144958496e-01 -3.204819560050964355e-01 -1.829592585563659668e-01
-1.392199248075485229e-01 -1.795619130134582520e-01 -3.746173977851867676e-01
2.021962702274322510e-01 -1.576330661773681641e-01 -3.403312265872955322e-01
-1.188515499234199524e-01 -2.785401046276092529e-02 -2.840831279754638672e-01
2.955477125942707062e-02 -5.049198865890502930e-01 -1.812804937362670898e-01
-8.339884877204895020e-02 -2.780894339084625244e-01 -1.760374903678894043e-01
-2.046653330326080322e-01 -1.227042078971862793e-01 -2.909227609634399414e-01
2.369763553142547607e-01 -1.914719492197036743e-01 -2.915059030055999756e-01
3.296005353331565857e-02 -4.567527770996093750e-01 -3.426830470561981201e-01
-2.251620739698410034e-01 -2.820398509502410889e-01 -2.402873039245605469e-01
-1.460501104593276978e-01 -4.382396936416625977e-01 -3.241653442382812500e-01
-1.271841675043106079e-01 -8.962838351726531982e-02 -3.664987981319427490e-01
6.794891506433486938e-02 -5.352170467376708984e-01 -2.022985517978668213e-01
-1.977338045835494995e-01 -1.078292429447174072e-01 -3.030206859111785889e-01
6.651323288679122925e-02 -3.486799597740173340e-01 -3.726597428321838379e-01
1.448793709278106689e-01 -4.140802025794982910e-01 -1.888084560632705688e-01
1.294108927249908447e-01 -3.052208721637725830e-01 -3.683177232742309570e-01
1.616518646478652954e-01 -2.196018993854522705e-01 -3.668069839477539062e-01
9.632569551467895508e-02 -4.475169181823730469e-01 -3.359476625919342041e-01
-6.921859085559844971e-02 -3.666681051254272461e-01 -1.680845320224761963e-01
-1.636981368064880371e-01 -1.507948935031890869e-01 -3.618623316287994385e-01
2.922251820564270020e-02 -1.132820844650268555e-01 -3.920889794826507568e-01
1.261287480592727661e-01 -9.138543903827667236e-02 -2.340365350246429443e-01
-1.614279001951217651e-01 -3.696315288543701172e-01 -3.428749144077301025e-01
-1.589692384004592896e-02 -3.884392976760864258e-02 -2.417669594287872314e-01
-1.293598562479019165e-01 -2.517608404159545898e-01 -3.755970895290374756e-01
1.139138936996459961e-01 -2.388768792152404785e-01 -3.807727694511413574e-01
6.935145705938339233e-02 -3.866804838180541992e-01 -3.625696897506713867e-01
1.611172705888748169e-01 -1.142988204956054688e-01 -3.591865897178649902e-01
-2.285197973251342773e-01 -3.687225878238677979e-01 -2.567131519317626953e-01
9.460615366697311401e-02 -3.051581978797912598e-01 -3.766449987888336182e-01
-5.227466300129890442e-02 -3.065064549446105957e-01 -1.686482280492782593e-01
2.327026426792144775e-01 -3.563945293426513672e-01 -2.828025519847869873e-01
-1.568376868963241577e-01 -6.075695157051086426e-02 -3.314201235771179199e-01
-2.336945533752441406e-01 -2.141741812229156494e-01 -3.013218641281127930e-01
-1.685642749071121216e-01 -2.621735334396362305e-01 -3.605331182479858398e-01
-1.228329315781593323e-01 -4.569818377494812012e-01 -1.895912736654281616e-01
-1.239374577999114990e-01 -5.270414352416992188e-01 -2.684742510318756104e-01
1.335946470499038696e-01 -5.446456372737884521e-02 -3.535232543945312500e-01
2.069556415081024170e-01 -1.947411596775054932e-01 -2.356432080268859863e-01
-1.997501254081726074e-01 -1.362887024879455566e-01 -2.656021118164062500e-01
-1.794901937246322632e-01 -2.439962625503540039e-01 -2.118376791477203369e-01
1.670288443565368652e-01 -2.735659778118133545e-01 -3.599894940853118896e-01
-1.868714690208435059e-01 -4.256954789161682129e-01 -2.181042432785034180e-01
1.473503187298774719e-02 -3.321409225463867188e-03 -2.669075727462768555e-01
1.078900545835494995e-01 -5.247380733489990234e-01 -2.821032702922821045e-01
-8.730644732713699341e-02 -5.508134365081787109e-01 -2.286137044429779053e-01
2.021978497505187988e-01 -3.355574309825897217e-01 -2.126215994358062744e-01
-6.995727121829986572e-02 9.654045104980468750e-03 -3.200810253620147705e-01
1.433020830154418945e-01 -3.663562536239624023e-01 -1.842561960220336914e-01
7.904314994812011719e-02 -4.072746336460113525e-01 -3.546985983848571777e-01
-1.196944490075111389e-01 -2.070518136024475098e-01 -3.807769417762756348e-01
5.441909283399581909e-02 -2.389971315860748291e-01 -1.764878630638122559e-01
-8.061338216066360474e-03 -1.363059878349304199e-02 -2.585183084011077881e-01
-1.468267887830734253e-01 -2.237658798694610596e-01 -3.718081712722778320e-01
-2.176834344863891602e-01 -3.730661869049072266e-01 -3.005312085151672363e-01
-1.171765848994255066e-01 -3.639788031578063965e-01 -1.780875027179718018e-01
-1.635625027120113373e-02 2.189615368843078613e-02 -3.052266538143157959e-01
8.352245390415191650e-02 1.987308263778686523e-03 -2.903319597244262695e-01
-2.099089473485946655e-01 -4.167740345001220703e-01 -2.812478542327880859e-01
9.740752726793289185e-02 -4.638949036598205566e-01 -1.820820569992065430e-01
-5.293257907032966614e-02 6.901770830154418945e-03 -3.417932689189910889e-01
-7.837162911891937256e-02 -2.099338620901107788e-01 -3.894574046134948730e-01
4.197895899415016174e-02 -4.880421757698059082e-01 -1.775139868259429932e-01
-3.652184968814253807e-03 -3.738988339900970459e-01 -3.712198734283447266e-01
-2.107936143875122070e-01 -2.565042376518249512e-01 -3.358021080493927002e-01
1.859803497791290283e-01 -4.414997696876525879e-01 -2.929075062274932861e-01
-9.385703131556510925e-03 -1.942960768938064575e-01 -1.833159476518630981e-01
-2.094686217606067657e-02 -1.627341955900192261e-01 -1.917561143636703491e-01
1.254522055387496948e-01 -1.674296259880065918e-01 -2.051781713962554932e-01
1.951501369476318359e-01 -1.372179388999938965e-01 -2.497863322496414185e-01
-2.319084703922271729e-01 -3.004206418991088867e-01 -2.482200860977172852e-01
-1.706664562225341797e-01 -4.220898151397705078e-01 -2.050964236259460449e-01
-2.009819895029067993e-01 -3.489479124546051025e-01 -3.262756764888763428e-01
-1.083838418126106262e-01 -2.344944477081298828e-01 -3.823568820953369141e-01
1.134143918752670288e-01 -5.366718173027038574e-01 -2.561410963535308838e-01
-2.130816131830215454e-01 -2.357631623744964600e-01 -2.364421784877777100e-01
-1.342689096927642822e-01 -3.850417435169219971e-01 -1.839151382446289062e-01
9.820339828729629517e-02 -2.022099494934082031e-02 -3.514051139354705811e-01
-1.163382977247238159e-01 -1.964085996150970459e-01 -1.981047689914703369e-01
1.058215275406837463e-01 -7.186311483383178711e-02 -3.716609179973602295e-01
-1.811949303373694420e-03 -1.284958422183990479e-01 -3.943529129028320312e-01
2.177496999502182007e-01 -3.221046924591064453e-01 -2.248652428388595581e-01
3.263592720031738281e-02 -3.653831779956817627e-02 -3.751986026763916016e-01
1.357510406523942947e-02 -2.961155176162719727e-01 -1.666138768196105957e-01
-6.925198435783386230e-02 -2.137085795402526855e-02 -2.634954452514648438e-01
8.109020441770553589e-02 -1.772064268589019775e-01 -3.897159397602081299e-01
2.560638077557086945e-02 -3.792240917682647705e-01 -1.632960140705108643e-01
3.143887966871261597e-02 -8.327373862266540527e-02 -3.875829279422760010e-01
6.323829293251037598e-02 -1.919109672307968140e-01 -3.922456204891204834e-01
-1.722256839275360107e-01 -7.152341306209564209e-02 -3.173703551292419434e-01
1.662303507328033447e-02 -1.177209019660949707e-01 -2.051502168178558350e-01
-1.803712844848632812e-01 -3.763320446014404297e-01 -3.311477601528167725e-01
1.650387197732925415e-01 -6.373795866966247559e-02 -2.754927277565002441e-01
1.141728982329368591e-01 -4.917874932289123535e-02 -3.606073558330535889e-01
7.371034473180770874e-02 -8.806939423084259033e-02 -2.219696193933486938e-01
7.462351769208908081e-02 1.214870810508728027e-02 -3.084267675876617432e-01
-2.911152131855487823e-02 -4.433922171592712402e-01 -1.681601256132125854e-01
2.380323782563209534e-02 -4.003775417804718018e-01 -3.632075190544128418e-01
1.463181376457214355e-01 -4.360327124595642090e-01 -3.233940005302429199e-01
-2.142136245965957642e-01 -3.120886087417602539e-01 -2.268287539482116699e-01
-1.472531259059906006e-01 -1.239091008901596069e-01 -2.329575866460800171e-01
-4.343735426664352417e-02 -2.399155497550964355e-02 -3.675556182861328125e-01
5.489388480782508850e-03 -2.595966458320617676e-01 -1.709763854742050171e-01
-1.238200515508651733e-01 -2.714278995990753174e-01 -1.860159635543823242e-01
7.274016737937927246e-02 -1.257100403308868408e-01 -3.885562419891357422e-01
-4.756258800625801086e-02 -4.545198082923889160e-01 -3.427001833915710449e-01
1.242959219962358475e-02 -7.158535718917846680e-02 -3.861781656742095947e-01
-8.105209469795227051e-02 -4.691407978534698486e-01 -1.799365282058715820e-01
1.700946241617202759e-01 -4.116808772087097168e-01 -2.005695700645446777e-01
7.406678050756454468e-02 -5.127413570880889893e-02 -2.405232042074203491e-01
1.994529217481613159e-01 -3.337770998477935791e-01 -3.312416672706604004e-01
1.539348810911178589e-01 -1.316298395395278931e-01 -3.659523725509643555e-01
1.226523295044898987e-01 -3.735711872577667236e-01 -1.780154258012771606e-01
-1.012470871210098267e-01 -3.949710130691528320e-01 -1.749154180288314819e-01
-1.861806809902191162e-01 -4.056922197341918945e-01 -3.158228695392608643e-01
-6.898662447929382324e-02 -1.758409887552261353e-01 -1.932650506496429443e-01
-2.351269274950027466e-01 -3.454594910144805908e-01 -2.746705710887908936e-01
-1.605748981237411499e-01 -4.481772780418395996e-01 -3.113407790660858154e-01
-2.063587307929992676e-01 -4.172177314758300781e-01 -2.375369817018508911e-01
4.627737775444984436e-02 -1.447272896766662598e-01 -3.933200836181640625e-01
-4.008941352367401123e-02 -4.221430420875549316e-01 -1.667892932891845703e-01
1.380397081375122070e-01 -2.381245642900466919e-01 -3.741769194602966309e-01
2.401115745306015015e-01 -2.086121439933776855e-01 -2.811797261238098145e-01
1.883313655853271484e-01 -4.552803635597229004e-01 -2.758432626724243164e-01
2.004915624856948853e-01 -4.225718975067138672e-01 -2.903269231319427490e-01
1.508502215147018433e-01 -8.662851154804229736e-02 -2.475687265396118164e-01
6.658548861742019653e-02 -2.323082685470581055e-01 -3.899598121643066406e-01
-1.680506318807601929e-01 -9.240545332431793213e-02 -3.426755070686340332e-01
7.339868694543838501e-02 -7.625272870063781738e-02 -3.808102607727050781e-01
-7.275187224149703979e-02 -4.793057441711425781e-01 -3.276937007904052734e-01
1.229366511106491089e-01 -1.263827085494995117e-02 -3.059317469596862793e-01
5.060466006398200989e-02 -2.136359363794326782e-01 -3.929250836372375488e-01
-2.068909443914890289e-02 -2.674394249916076660e-01 -3.905048370361328125e-01
1.825713813304901123e-01 -1.444576382637023926e-01 -3.525609970092773438e-01
2.321800291538238525e-01 -1.723631322383880615e-01 -2.881868183612823486e-01
-4.222583025693893433e-02 -2.870333790779113770e-01 -1.695747077465057373e-01
-1.304389387369155884e-01 -5.279892086982727051e-01 -2.493124306201934814e-01
-1.260847896337509155e-01 -4.593347907066345215e-01 -3.224094808101654053e-01
5.166814103722572327e-02 -1.500612497329711914e-01 -1.967331916093826294e-01
-1.522995382547378540e-01 -1.984470188617706299e-01 -3.701679110527038574e-01
6.636454910039901733e-02 -4.945887625217437744e-01 -3.197437226772308350e-01
-2.351793274283409119e-02 -5.667538642883300781e-01 -2.215236872434616089e-01
-1.681594103574752808e-01 -3.120639622211456299e-01 -3.536300063133239746e-01
-1.659883707761764526e-01 -2.607145011425018311e-01 -2.024780809879302979e-01
-9.409945458173751831e-02 -3.383421003818511963e-01 -1.730823814868927002e-01
