-3.465115725994110107e-01 3.853356838226318359e-02 -2.724035978317260742e-01
-3.639856576919555664e-01 -6.335377693176269531e-03 -6.977255642414093018e-02
-2.473335713148117065e-01 5.406030416488647461e-01 -5.233976840972900391e-01
-9.155714511871337891e-02 2.885283529758453369e-01 3.145777881145477295e-01
-2.177881598472595215e-01 5.868768095970153809e-01 4.972059726715087891e-01
-3.919247388839721680e-01 2.132396548986434937e-01 -3.342704772949218750e-01
-2.832253575325012207e-01 2.309046089649200439e-01 -5.289983153343200684e-01
-1.862627118825912476e-01 1.030433475971221924e-01 -3.812061548233032227e-01
-4.132496714591979980e-01 4.965191781520843506e-01 4.983409866690635681e-02
-3.449643552303314209e-01 2.779003083705902100e-01 -4.707071781158447266e-01
-6.954246759414672852e-02 2.624650001525878906e-01 -1.956188976764678955e-01
-3.837929666042327881e-02 4.524296224117279053e-01 7.364030927419662476e-02
-2.405956089496612549e-01 1.132122278213500977e-01 4.502226412296295166e-01
-4.340621232986450195e-01 1.779656261205673218e-01 -1.639772206544876099e-02
-3.999826908111572266e-01 5.377946496009826660e-01 1.034809574484825134e-01
-3.544585704803466797e-01 -3.492742776870727539e-03 1.714586019515991211e-01
-2.130271941423416138e-01 1.059444546699523926e-01 -4.209176898002624512e-01
-2.561362683773040771e-01 2.377710491418838501e-01 5.485458374023437500e-01
-3.228013813495635986e-01 7.099647521972656250e-01 3.689587861299514771e-02
-7.187369465827941895e-02 6.709896326065063477e-01 1.220965310931205750e-01
-1.324495077133178711e-01 1.317448467016220093e-01 2.611891627311706543e-01
-2.304365783929824829e-01 7.809138298034667969e-01 1.399775296449661255e-01
-3.248765468597412109e-01 -8.980840444564819336e-03 -2.047430425882339478e-01
-2.523978054523468018e-01 6.380373239517211914e-01 -4.337036907672882080e-01
-1.057868450880050659e-01 6.595566272735595703e-01 -3.307113051414489746e-01
-4.316484928131103516e-01 3.964744210243225098e-01 7.758204638957977295e-02
-3.400667309761047363e-01 5.515674352645874023e-01 -3.720432817935943604e-01
-8.813893795013427734e-02 4.996130764484405518e-01 -4.015655517578125000e-01
-4.193228781223297119e-01 4.331665337085723877e-01 -1.322168409824371338e-01
-1.689108610153198242e-01 7.989892959594726562e-01 -3.208483010530471802e-02
-3.883802890777587891e-01 3.225927948951721191e-01 4.051660597324371338e-01
-4.125064015388488770e-01 4.802740514278411865e-01 -1.015549227595329285e-01
-1.044204235076904297e-01 1.431467831134796143e-01 1.193969622254371643e-01
-1.237025558948516846e-01 1.097997725009918213e-01 1.552006602287292480e-01
-2.487803399562835693e-01 3.438350856304168701e-01 5.759324431419372559e-01
-2.948351502418518066e-01 1.941790133714675903e-01 -5.026073455810546875e-01
-1.382608711719512939e-01 7.869860529899597168e-02 -1.644210517406463623e-01
-2.668394148349761963e-01 4.152360260486602783e-01 5.691332221031188965e-01
-3.738789260387420654e-01 5.145125985145568848e-01 3.352498412132263184e-01
-3.728626668453216553e-01 5.748433470726013184e-01 2.380082458257675171e-01
-2.407120317220687866e-01 5.001196265220642090e-01 5.489805936813354492e-01
-3.485513329505920410e-01 5.520331859588623047e-01 3.750423491001129150e-01
-1.674186289310455322e-01 3.234016597270965576e-01 5.180079340934753418e-01
-3.892231583595275879e-01 4.974300861358642578e-01 -2.492430508136749268e-01
-1.813676655292510986e-01 1.744729280471801758e-02 1.390818208456039429e-01
-1.040467619895935059e-01 2.608371675014495850e-01 -3.712041378021240234e-01
-8.612442016601562500e-02 2.769426405429840088e-01 -3.178876936435699463e-01
-1.347639262676239014e-01 7.828087806701660156e-01 -3.472921624779701233e-02
-2.174725532531738281e-01 -2.320772409439086914e-02 9.116169065237045288e-02
-2.525120973587036133e-01 1.830187439918518066e-02 -3.063683211803436279e-01
-2.272846549749374390e-01 7.666405439376831055e-01 2.068227827548980713e-01
-3.540083765983581543e-01 6.044405102729797363e-01 -2.399735599756240845e-01
-1.050362139940261841e-01 3.840320706367492676e-01 -4.455415904521942139e-01
-2.593395709991455078e-01 2.844377756118774414e-01 -5.587264299392700195e-01
-4.580153524875640869e-02 4.178911745548248291e-01 1.457245647907257080e-01
-8.980570733547210693e-02 3.874335587024688721e-01 -4.039877951145172119e-01
-4.037458300590515137e-01 5.150874257087707520e-01 1.459897905588150024e-01
-4.199422001838684082e-01 2.162138819694519043e-01 -2.102615684270858765e-01
-3.652080595493316650e-01 2.296855747699737549e-01 -4.161064028739929199e-01
-2.994997501373291016e-01 3.908578157424926758e-01 -5.366404652595520020e-01
-2.854902148246765137e-01 2.352017164230346680e-02 3.342482149600982666e-01
-1.336760222911834717e-01 6.692174673080444336e-01 3.471368849277496338e-01
-3.223434686660766602e-01 2.251530885696411133e-01 5.134985446929931641e-01
-5.518940091133117676e-02 6.384948492050170898e-01 4.109949246048927307e-02
-3.668561279773712158e-01 4.915536046028137207e-01 -3.507432341575622559e-01
-4.339004755020141602e-01 1.748512089252471924e-01 5.969019234180450439e-02
-3.209025561809539795e-01 6.555616855621337891e-03 2.767210900783538818e-01
-4.030194282531738281e-01 3.906824588775634766e-01 3.281978368759155273e-01
-1.199758648872375488e-01 3.501529991626739502e-01 4.393943548202514648e-01
-4.269214868545532227e-01 3.838924467563629150e-01 -1.282314062118530273e-01
-1.662198901176452637e-01 7.710809111595153809e-01 -2.090659141540527344e-01
-4.499574005603790283e-02 3.511393666267395020e-01 -9.455932676792144775e-02
-1.937603652477264404e-01 7.971556186676025391e-01 -9.253269433975219727e-02
-2.535659372806549072e-01 5.978600978851318359e-01 -4.749772250652313232e-01
-4.374080300331115723e-01 3.098689317703247070e-01 1.189845502376556396e-01
-4.708226025104522705e-02 5.816258192062377930e-01 -1.412343531847000122e-01
-1.092747002840042114e-01 1.363264620304107666e-01 -1.701804995536804199e-01
-1.412838995456695557e-01 6.429234147071838379e-02 -1.142288222908973694e-01
-7.413522899150848389e-02 5.824793577194213867e-01 2.687058150768280029e-01
-3.712269663810729980e-01 6.155384182929992676e-01 1.078503876924514771e-01
-4.362661838531494141e-01 3.600104451179504395e-01 -7.726071868091821671e-03
-3.382811248302459717e-01 6.778377890586853027e-01 -9.619229286909103394e-02
-4.105018377304077148e-01 2.303805500268936157e-01 3.140885233879089355e-01
-4.029620885848999023e-01 2.663245201110839844e-01 -3.101300299167633057e-01
-4.276619553565979004e-01 1.354958564043045044e-01 1.373417023569345474e-02
-3.707979023456573486e-01 4.533701539039611816e-01 4.043688178062438965e-01
-3.652605116367340088e-01 3.442690968513488770e-01 4.631801843643188477e-01
-8.558492362499237061e-02 6.909895539283752441e-01 1.601163595914840698e-01
-4.062091708183288574e-01 4.816613793373107910e-01 2.072584331035614014e-01
-3.523815870285034180e-01 6.459197402000427246e-01 1.567499190568923950e-01
-4.352136552333831787e-01 3.733260631561279297e-01 3.873720392584800720e-02
-1.942807286977767944e-01 4.151424169540405273e-01 -5.674788951873779297e-01
-3.778315782546997070e-01 4.471824467182159424e-01 -3.495489358901977539e-01
-4.104588031768798828e-01 1.877414882183074951e-01 2.905582189559936523e-01
-1.063125133514404297e-01 6.641592383384704590e-01 2.906175553798675537e-01
-1.159215793013572693e-01 7.594308853149414062e-01 7.832918316125869751e-02
-4.403780698776245117e-01 2.957119941711425781e-01 4.045919701457023621e-02
-2.890263497829437256e-01 3.023767173290252686e-01 -5.463711619377136230e-01
-2.647903561592102051e-01 -2.041834592819213867e-02 -2.088992595672607422e-01
-5.409273505210876465e-02 4.459830522537231445e-01 -2.661947906017303467e-01
-3.774484097957611084e-01 2.190519869327545166e-01 -3.810337185859680176e-01
-2.366246581077575684e-01 6.969615221023559570e-01 -3.652176260948181152e-01
-3.913924992084503174e-01 4.522858262062072754e-01 -2.907269597053527832e-01
-4.403281509876251221e-01 2.516369223594665527e-01 2.102314867079257965e-02
-1.222626268863677979e-01 1.813669502735137939e-01 -3.367420136928558350e-01
-1.271793395280838013e-01 8.248427510261535645e-02 3.275933861732482910e-02
-4.217104911804199219e-01 3.970901668071746826e-01 2.111337929964065552e-01
-1.483636200428009033e-01 7.886403203010559082e-01 -7.618135958909988403e-02
-9.878799319267272949e-02 1.894155591726303101e-01 2.108341008424758911e-01
-1.128294020891189575e-01 4.624229967594146729e-01 4.357141852378845215e-01
-1.565004587173461914e-01 7.801083326339721680e-01 -1.585669219493865967e-01
-4.023379683494567871e-01 1.446620374917984009e-01 -2.434398382902145386e-01
-9.783092141151428223e-02 5.947349071502685547e-01 -3.785550594329833984e-01
-1.555171757936477661e-01 7.193224430084228516e-01 3.038896024227142334e-01
-4.384233951568603516e-01 2.155283689498901367e-01 1.283952500671148300e-02
-2.335650920867919922e-01 3.966363966464996338e-01 5.749714374542236328e-01
-6.373016536235809326e-02 2.594482898712158203e-01 7.628703117370605469e-02
-1.402253806591033936e-01 6.564302444458007812e-01 -4.001931548118591309e-01
-1.865961253643035889e-01 7.930724024772644043e-01 1.090102791786193848e-01
-3.933058381080627441e-01 3.244361281394958496e-02 5.037585273385047913e-02
-1.248097270727157593e-01 1.894667595624923706e-01 3.282863497734069824e-01
-4.098151922225952148e-01 4.360392391681671143e-01 -2.063980251550674438e-01
-2.295300811529159546e-01 7.397571802139282227e-01 2.829900979995727539e-01
-1.638220846652984619e-01 6.607803702354431152e-02 2.337423712015151978e-01
-1.940611451864242554e-01 4.180034101009368896e-01 5.560953617095947266e-01
-3.233751058578491211e-01 6.178746819496154785e-01 3.527065813541412354e-01
-4.118701815605163574e-01 9.701409935951232910e-02 -1.043580472469329834e-01
-3.582376241683959961e-01 1.268586069345474243e-01 -3.659706711769104004e-01
-6.045907735824584961e-02 5.440189242362976074e-01 2.313102930784225464e-01
-1.246648430824279785e-01 7.490516901016235352e-01 1.666610240936279297e-01
-1.061476171016693115e-01 2.070918977260589600e-01 -3.136555552482604980e-01
-6.856842339038848877e-02 6.717884540557861328e-01 -1.345175206661224365e-01
-1.585570573806762695e-01 3.139883279800415039e-02 6.722141988575458527e-03
-9.425665438175201416e-02 5.343461036682128906e-01 3.685630261898040771e-01
-1.993909925222396851e-01 7.628247737884521484e-01 2.351432591676712036e-01
-1.887588798999786377e-01 5.321611166000366211e-01 5.209971666336059570e-01
-6.198099255561828613e-02 5.084631443023681641e-01 -3.022016286849975586e-01
-3.196431398391723633e-01 4.803377389907836914e-02 3.581204116344451904e-01
-2.509253323078155518e-01 -4.089593887329101562e-02 -8.979467302560806274e-02
-3.916707336902618408e-01 5.161476135253906250e-01 2.453394383192062378e-01
-1.235022917389869690e-01 4.533115923404693604e-01 -4.895924925804138184e-01
-1.795186400413513184e-01 3.132200241088867188e-02 -2.025264352560043335e-01
-8.495005965232849121e-02 2.424963116645812988e-01 -2.657737433910369873e-01
-3.373559117317199707e-01 3.221119046211242676e-01 -4.884351193904876709e-01
-4.141826629638671875e-01 3.694943785667419434e-01 -2.379010170698165894e-01
-2.855312228202819824e-01 7.116701602935791016e-01 -2.470792979001998901e-01
-6.732183694839477539e-02 3.905670046806335449e-01 -3.193548321723937988e-01
-4.273528456687927246e-01 1.394637823104858398e-01 -3.091040812432765961e-02
-1.458286494016647339e-01 7.479932308197021484e-01 2.253337651491165161e-01
-2.109377682209014893e-01 4.554840922355651855e-02 3.146367371082305908e-01
-3.816035091876983643e-01 2.808636426925659180e-02 1.561477184295654297e-01
-3.213824927806854248e-01 9.706568717956542969e-02 4.215483665466308594e-01
-3.295528590679168701e-01 1.929902881383895874e-01 4.902837574481964111e-01
-3.015560805797576904e-01 6.175917387008666992e-01 -3.851394653320312500e-01
-5.105423927307128906e-02 5.298997163772583008e-01 -2.307064980268478394e-01
-1.267487853765487671e-01 2.456769347190856934e-01 -4.232832789421081543e-01
-4.312867522239685059e-01 3.164747357368469238e-01 1.915482580661773682e-01
-3.350637257099151611e-01 6.035066843032836914e-01 -3.171251118183135986e-01
-3.440838158130645752e-01 3.389950096607208252e-01 5.045842528343200684e-01
-3.972192108631134033e-02 4.059919118881225586e-01 5.591605231165885925e-02
-2.908338308334350586e-01 1.855438947677612305e-02 -3.076722919940948486e-01
-1.284095048904418945e-01 8.929866552352905273e-02 1.052587926387786865e-01
-4.204604327678680420e-01 1.439516991376876831e-01 1.813364475965499878e-01
-1.237374544143676758e-01 6.240501403808593750e-01 -4.087663590908050537e-01
-5.594527721405029297e-02 2.810176908969879150e-01 -4.507304355502128601e-02
-2.624978423118591309e-01 6.715025305747985840e-01 -3.760045766830444336e-01
-5.908718705177307129e-02 5.577429533004760742e-01 -2.612328529357910156e-01
-2.947422862052917480e-01 1.244596242904663086e-01 4.672763049602508545e-01
-3.406011462211608887e-01 6.500399112701416016e-01 2.203347384929656982e-01
-2.051685452461242676e-01 4.590177536010742188e-02 -3.109515011310577393e-01
-3.582364618778228760e-01 6.144325733184814453e-01 -1.927563101053237915e-01
-4.170019328594207764e-01 4.767260253429412842e-01 -3.707663342356681824e-02
-4.075483679771423340e-01 1.227016150951385498e-01 -1.884261518716812134e-01
-9.375675022602081299e-02 1.815293729305267334e-01 1.560986936092376709e-01
-6.489454209804534912e-02 2.670180201530456543e-01 1.161290854215621948e-01
-1.484204828739166260e-01 3.642403185367584229e-01 -5.229174494743347168e-01
-2.212014943361282349e-01 6.923177838325500488e-01 3.791137337684631348e-01
-3.545996248722076416e-01 5.447207093238830566e-01 -3.348937332630157471e-01
-4.061076045036315918e-01 8.297032117843627930e-02 1.619652807712554932e-01
-3.225416839122772217e-01 -3.877681493759155273e-02 1.018324047327041626e-01
-3.833049535751342773e-01 9.041205048561096191e-02 -2.519741952419281006e-01
-3.587179481983184814e-01 3.612092733383178711e-01 -4.419910907745361328e-01
-1.479021608829498291e-01 7.515289187431335449e-01 -2.442910671234130859e-01
-3.069321811199188232e-01 6.356698274612426758e-01 -3.465326726436614990e-01
-3.989427387714385986e-01 8.566433191299438477e-02 -1.720312684774398804e-01
-2.264585942029953003e-01 -2.620095014572143555e-02 -1.150144264101982117e-01
-6.740655004978179932e-02 6.802226901054382324e-01 -7.527332752943038940e-02
-6.338056921958923340e-02 3.739226758480072021e-01 2.453281134366989136e-01
-4.171636104583740234e-01 1.016003489494323730e-01 -5.641174316406250000e-02
-5.103550851345062256e-02 3.328723907470703125e-01 1.019886583089828491e-01
-1.390466392040252686e-01 4.168613553047180176e-01 -5.157397389411926270e-01
-5.641469359397888184e-02 3.293310105800628662e-01 1.538287550210952759e-01
-3.274908363819122314e-01 2.006072402000427246e-01 -4.717618823051452637e-01
-7.349200546741485596e-02 2.150485068559646606e-01 -7.424668967723846436e-02
-1.385417580604553223e-01 2.537904381752014160e-01 4.311864078044891357e-01
-3.565708994865417480e-01 -9.525865316390991211e-03 1.342430710792541504e-01
-1.848757565021514893e-01 7.130132913589477539e-01 3.416237533092498779e-01
-1.667281687259674072e-01 1.696355640888214111e-01 4.159342944622039795e-01
-2.078197151422500610e-01 1.489520072937011719e-04 -1.851952970027923584e-01
-3.253546953201293945e-01 5.949884057044982910e-01 -3.587294220924377441e-01
-4.008007049560546875e-01 4.453790187835693359e-01 -2.505883574485778809e-01
-4.802858829498291016e-02 3.458661437034606934e-01 -1.362195611000061035e-01
-1.503834426403045654e-01 5.255742073059082031e-01 4.861848354339599609e-01
-1.913682967424392700e-01 7.508158683776855469e-01 -2.795534133911132812e-01
-8.212229609489440918e-02 6.423935890197753906e-01 2.357995510101318359e-01
-4.830268025398254395e-02 4.597464203834533691e-01 1.795279979705810547e-01
-3.415627479553222656e-01 5.084543824195861816e-01 4.375461339950561523e-01
-4.277692437171936035e-01 2.279008030891418457e-01 -1.623782962560653687e-01
-1.642407923936843872e-01 1.115686297416687012e-01 -3.493909239768981934e-01
-1.362992078065872192e-01 6.015212535858154297e-01 4.205564260482788086e-01
-1.419459879398345947e-01 2.202813178300857544e-01 4.116970002651214600e-01
-9.332436323165893555e-02 7.366908192634582520e-01 1.506566302850842476e-03
-1.564976423978805542e-01 2.457031905651092529e-01 -4.829759299755096436e-01
-1.652006357908248901e-01 1.348178386688232422e-01 -3.873318433761596680e-01
-1.604099720716476440e-01 4.750468730926513672e-01 5.152329802513122559e-01
-3.703781366348266602e-01 3.391641378402709961e-02 -1.911711841821670532e-01
-2.922536134719848633e-01 2.486592233180999756e-01 5.452821254730224609e-01
-4.393139481544494629e-01 2.353378981351852417e-01 6.265007704496383667e-02
-1.284441500902175903e-01 1.171287298202514648e-01 -2.349617034196853638e-01
-3.552852272987365723e-01 -2.101445198059082031e-02 4.480025544762611389e-02
-1.877110898494720459e-01 3.209632635116577148e-02 2.230815291404724121e-01
-8.023677766323089600e-02 2.346042394638061523e-01 -2.213632464408874512e-01
-1.539571285247802734e-01 7.862295508384704590e-01 -1.184790506958961487e-01
-7.497128844261169434e-02 2.331025302410125732e-01 -1.738744229078292847e-01
-1.210017353296279907e-01 5.608698129653930664e-01 -4.510356783866882324e-01
-1.921185255050659180e-01 8.570042252540588379e-02 3.532616794109344482e-01
-4.172299206256866455e-01 4.744160175323486328e-01 9.180851280689239502e-02
-3.844414055347442627e-01 5.534141063690185547e-01 -1.753174960613250732e-01
-9.346677362918853760e-02 1.538765877485275269e-01 -2.637973427772521973e-02
-1.108354926109313965e-01 7.587668299674987793e-01 3.477760776877403259e-02
-3.999846577644348145e-01 3.439380228519439697e-01 -3.177459239959716797e-01
-1.885343343019485474e-01 2.933921217918395996e-01 5.332069993019104004e-01
-1.915385872125625610e-01 6.616321802139282227e-01 -4.310727417469024658e-01
-2.593236565589904785e-01 4.471157193183898926e-01 -5.581778287887573242e-01
-5.362951755523681641e-02 6.283762454986572266e-01 -1.063722223043441772e-01
-5.311055481433868408e-02 3.034167885780334473e-01 5.359204486012458801e-02
-4.244950413703918457e-01 3.245424330234527588e-01 -1.930731236934661865e-01
-3.033353984355926514e-01 3.418455719947814941e-01 -5.362175107002258301e-01
-9.704858064651489258e-02 6.238391995429992676e-01 -3.496771156787872314e-01
-3.135702013969421387e-01 4.113813638687133789e-01 5.347630381584167480e-01
-5.752168595790863037e-02 4.225419759750366211e-01 2.337961345911026001e-01
-2.045664638280868530e-01 8.002002239227294922e-01 -3.950100392103195190e-02
-3.780122399330139160e-01 2.506743967533111572e-01 4.282702803611755371e-01
-4.174554049968719482e-01 3.354273438453674316e-01 2.830201089382171631e-01
-4.352830648422241211e-01 3.546579778194427490e-01 -5.171414464712142944e-02
-5.143919587135314941e-02 3.740561306476593018e-01 1.630710959434509277e-01
-2.574276626110076904e-01 -3.242889046669006348e-02 -1.542676836252212524e-01
-2.046991586685180664e-01 5.867437124252319336e-01 -5.037915110588073730e-01
-1.949062347412109375e-01 1.045268774032592773e-02 1.728814244270324707e-01
-1.130902245640754700e-01 6.351628303527832031e-01 3.438276648521423340e-01
-4.026376008987426758e-01 4.122810065746307373e-01 -2.711227536201477051e-01
-3.852756023406982422e-01 2.608993649482727051e-02 1.190265938639640808e-01
-6.848777830600738525e-02 2.328702658414840698e-01 3.389961645007133484e-02
-4.351624548435211182e-01 2.917888462543487549e-01 1.584679484367370605e-01
-3.877211809158325195e-01 4.084546864032745361e-01 3.785770833492279053e-01
-1.894038617610931396e-01 -4.396349191665649414e-03 -3.498319908976554871e-02
-1.701082289218902588e-01 5.440583229064941406e-01 -5.180525779724121094e-01
-6.207057833671569824e-02 2.538127601146697998e-01 -2.148578315973281860e-02
-3.142890930175781250e-01 7.143502235412597656e-01 -9.728126227855682373e-02
-4.237741529941558838e-01 4.477225840091705322e-01 5.962212011218070984e-02
-4.338344037532806396e-01 3.052997887134552002e-01 -1.174037829041481018e-01
-2.172512859106063843e-01 5.182191133499145508e-01 -5.451036691665649414e-01
-3.932846188545227051e-01 5.493195652961730957e-01 -1.063902229070663452e-01
-2.825795412063598633e-01 1.576157510280609131e-01 4.990269839763641357e-01
-4.171194434165954590e-01 2.862995266914367676e-01 2.935495972633361816e-01
-3.524219095706939697e-01 6.421970129013061523e-01 -1.422129869461059570e-01
-2.980899214744567871e-01 -3.890074789524078369e-01 4.613598883152008057e-01
-2.468051314353942871e-01 -3.297247290611267090e-01 -5.370556116104125977e-01
-1.112459599971771240e-01 -4.951776564121246338e-01 2.316082566976547241e-01
1.248796284198760986e-02 -2.113791406154632568e-01 3.438760936260223389e-01
-6.818814575672149658e-02 -4.237046241760253906e-01 -3.352545201778411865e-01
2.649039030075073242e-02 -1.439754217863082886e-01 2.594693303108215332e-01
-3.974879980087280273e-01 -4.533896446228027344e-01 -2.207801491022109985e-01
-4.781345725059509277e-01 -2.466955333948135376e-01 -3.110419511795043945e-01
-4.843378365039825439e-01 -3.088971674442291260e-01 2.257719337940216064e-01
-4.343598783016204834e-01 -4.494776129722595215e-01 7.074369490146636963e-02
-3.619784116744995117e-02 -9.479895234107971191e-02 3.394677340984344482e-01
-1.754272580146789551e-01 -5.298230648040771484e-01 -1.249459758400917053e-01
-8.726505935192108154e-02 -5.072671175003051758e-01 -7.306812703609466553e-02
-5.078319311141967773e-01 -2.012612223625183105e-01 1.387118101119995117e-01
7.019206881523132324e-02 -1.858777254819869995e-01 1.104813739657402039e-01
-1.483315527439117432e-01 5.801662802696228027e-02 3.407230973243713379e-02
-4.038468003273010254e-01 -4.753862619400024414e-01 -8.481647819280624390e-02
-5.026519298553466797e-01 -3.398796319961547852e-01 5.811441317200660706e-02
-7.183729112148284912e-02 -8.125783503055572510e-02 -4.176891148090362549e-01
-3.636004924774169922e-01 -2.011690586805343628e-01 -5.083367228507995605e-01
-5.732834339141845703e-02 1.693743467330932617e-02 5.161358788609504700e-02
-4.417541623115539551e-01 -6.830941140651702881e-02 -2.576010227203369141e-01
-1.633104830980300903e-01 -4.825567901134490967e-01 3.244718015193939209e-01
-7.171596586704254150e-02 -4.713673889636993408e-01 -2.201505005359649658e-01
-1.250666826963424683e-01 -4.367053806781768799e-01 -3.790657520294189453e-01
6.921312212944030762e-02 -1.505927592515945435e-01 4.170336760580539703e-03
-1.087090224027633667e-01 -4.267798662185668945e-01 3.919360041618347168e-01
-3.949705362319946289e-01 -1.763678193092346191e-01 -4.660139381885528564e-01
-7.739455997943878174e-02 -3.983096182346343994e-01 -3.905225396156311035e-01
-9.699185192584991455e-02 -4.712678194046020508e-01 2.863528430461883545e-01
-3.976628184318542480e-02 8.329421281814575195e-03 -1.303315814584493637e-02
-4.026414453983306885e-01 -3.664754629135131836e-01 3.716869950294494629e-01
-1.014020666480064392e-01 -4.423323869705200195e-01 3.576068580150604248e-01
-4.081538617610931396e-01 -3.967948257923126221e-01 -3.315300345420837402e-01
-3.246553540229797363e-01 -3.672954440116882324e-01 -4.729809463024139404e-01
-4.016386866569519043e-01 -3.398934006690979004e-01 -4.156010150909423828e-01
-2.336957603693008423e-01 -3.702748417854309082e-01 -5.053729414939880371e-01
-7.584725320339202881e-02 -5.008473396301269531e-01 1.012433692812919617e-01
-3.042637109756469727e-01 -5.269350409507751465e-01 -7.769021391868591309e-02
-3.910122215747833252e-01 -4.726710915565490723e-02 2.733251452445983887e-01
-2.069159746170043945e-01 -1.956626772880554199e-03 3.263234198093414307e-01
-2.923905849456787109e-01 -4.972336590290069580e-01 2.683677077293395996e-01
-2.668542563915252686e-01 -4.663866758346557617e-01 3.644933998584747314e-01
4.986521601676940918e-02 -2.357153594493865967e-01 -2.558901011943817139e-01
-2.367122471332550049e-02 -2.183970361948013306e-01 -4.327879846096038818e-01
-4.394272565841674805e-01 -4.590970277786254883e-02 -1.994730383157730103e-01
-1.930484175682067871e-01 -5.411437749862670898e-01 -1.122164353728294373e-02
-1.045644134283065796e-01 -4.601083397865295410e-01 3.245626091957092285e-01
-9.167489409446716309e-02 2.917483448982238770e-02 1.090743169188499451e-01
-1.116406917572021484e-02 -1.178850308060646057e-01 3.224032521247863770e-01
-1.720018982887268066e-01 -2.318952977657318115e-02 3.614694178104400635e-01
-3.224650025367736816e-02 -3.410856425762176514e-02 2.080098390579223633e-01
-3.764487206935882568e-01 -4.841669797897338867e-01 1.619180440902709961e-01
5.227604508399963379e-02 -1.922008842229843140e-01 -2.360484302043914795e-01
-4.030268788337707520e-01 -5.235384404659271240e-02 -3.251231610774993896e-01
7.091763615608215332e-02 -1.800648272037506104e-01 -1.150756254792213440e-01
-2.539336979389190674e-01 6.055814027786254883e-02 -1.562357544898986816e-01
5.483159422874450684e-02 -3.375119566917419434e-01 1.398203074932098389e-01
-3.483321666717529297e-01 -9.108904004096984863e-02 -4.599432349205017090e-01
3.746134042739868164e-02 -3.389019370079040527e-01 -2.213679254055023193e-01
-4.100911915302276611e-01 -4.425874352455139160e-02 -2.910257577896118164e-01
-1.005364805459976196e-01 -3.443208336830139160e-02 -3.829421401023864746e-01
-1.258175075054168701e-01 -4.170513749122619629e-01 -4.125148653984069824e-01
-2.419912368059158325e-01 -4.892598986625671387e-01 3.207367360591888428e-01
-2.201559245586395264e-01 6.276804208755493164e-02 7.783541083335876465e-02
-1.179526895284652710e-01 -2.463582456111907959e-01 5.164829492568969727e-01
7.439112663269042969e-02 -2.887928187847137451e-01 7.349534332752227783e-02
-2.726535499095916748e-02 -4.374066591262817383e-01 -2.158230692148208618e-01
-8.014012873172760010e-02 -1.288943290710449219e-01 4.363136589527130127e-01
-3.507650494575500488e-01 -5.023220777511596680e-01 1.439231634140014648e-01
-3.892261981964111328e-01 -4.065051078796386719e-01 3.421696126461029053e-01
-7.789123058319091797e-02 -1.436445713043212891e-01 -4.801609516143798828e-01
-4.617407917976379395e-02 -4.865507185459136963e-01 1.275790575891733170e-02
-4.463331103324890137e-01 -3.291140496730804443e-01 -3.426880240440368652e-01
-1.931310892105102539e-01 6.539693474769592285e-02 3.658748790621757507e-02
-6.426203250885009766e-02 2.008545398712158203e-02 -1.242443174123764038e-01
4.077193140983581543e-02 -1.193349286913871765e-01 -1.972377747297286987e-01
-1.472049355506896973e-01 -4.268682003021240234e-01 4.213153123855590820e-01
-4.106473326683044434e-01 -1.587128639221191406e-01 3.871129453182220459e-01
-1.524241566658020020e-01 -1.563608199357986450e-01 5.072337388992309570e-01
-1.977527141571044922e-01 -4.834167957305908203e-01 3.361983597278594971e-01
-4.885145723819732666e-01 -2.690120935440063477e-01 -2.693238556385040283e-01
-3.858763575553894043e-01 -9.605363011360168457e-02 -4.204345643520355225e-01
-2.585005164146423340e-01 5.510425567626953125e-02 -1.913811415433883667e-01
-5.421090126037597656e-02 -2.514096796512603760e-01 4.587791264057159424e-01
-3.873372077941894531e-01 -3.934363722801208496e-01 -3.727760314941406250e-01
7.330030202865600586e-04 -4.427157640457153320e-01 6.564203649759292603e-02
-3.493906855583190918e-01 -1.257286071777343750e-01 -4.892772734165191650e-01
2.831724286079406738e-02 -6.322005391120910645e-02 -2.510545775294303894e-02
-2.245222181081771851e-01 2.063724398612976074e-02 2.686746716499328613e-01
7.297959923744201660e-02 -2.395706623792648315e-01 1.268914043903350830e-01
-2.909310460090637207e-01 -9.279358386993408203e-02 4.499855339527130127e-01
-4.780861437320709229e-01 -2.658384442329406738e-01 2.712482511997222900e-01
-2.271021008491516113e-01 3.499257564544677734e-02 2.219244241714477539e-01
-4.063444137573242188e-01 3.618061542510986328e-03 -8.006109297275543213e-02
-3.842277526855468750e-01 -3.068897426128387451e-01 -4.641075730323791504e-01
-2.754215002059936523e-01 -5.007796287536621094e-01 -2.566479742527008057e-01
-3.222423195838928223e-01 7.766962051391601562e-03 -3.148544728755950928e-01
-2.529587149620056152e-01 -5.239218473434448242e-01 1.933193057775497437e-01
-1.358166486024856567e-01 -3.691975772380828857e-01 -4.794670045375823975e-01
-3.050368428230285645e-01 5.338156223297119141e-02 4.709356278181076050e-02
-3.910519182682037354e-02 -2.951301634311676025e-01 -4.382189810276031494e-01
-2.693610191345214844e-01 6.085124611854553223e-02 5.625513568520545959e-02
-1.741852760314941406e-01 4.134264588356018066e-02 1.828401386737823486e-01
-4.956439435482025146e-01 -1.614324152469635010e-01 1.608688533306121826e-01
5.774188041687011719e-02 -3.536692261695861816e-01 -3.713761270046234131e-02
-4.583951830863952637e-02 -1.620566248893737793e-01 4.209477603435516357e-01
-5.067641735076904297e-01 -1.390172094106674194e-01 -5.176608636975288391e-02
-4.709188044071197510e-01 -1.870152652263641357e-01 2.769798040390014648e-01
-4.569378495216369629e-01 -1.396169364452362061e-01 -3.272640407085418701e-01
-5.821406841278076172e-03 -2.501949071884155273e-01 -3.994570374488830566e-01
-2.005750089883804321e-01 6.800571084022521973e-02 -7.424698024988174438e-02
-3.366298675537109375e-01 -4.962437450885772705e-01 -1.989492475986480713e-01
7.452455163002014160e-02 -3.014788031578063965e-01 -1.966892555356025696e-02
-2.041412293910980225e-01 -2.854534387588500977e-01 -5.603297352790832520e-01
2.895791828632354736e-02 -2.514678537845611572e-01 -3.199748098850250244e-01
-3.023594617843627930e-03 -2.446608245372772217e-02 -3.835109993815422058e-02
-1.811198890209197998e-01 2.821776270866394043e-02 2.367829680442810059e-01
7.060375809669494629e-02 -2.466330379247665405e-01 -1.531832218170166016e-01
-3.740131258964538574e-01 -4.539039134979248047e-01 -2.724125981330871582e-01
-4.752995371818542480e-01 -3.024809956550598145e-01 -2.902746796607971191e-01
-5.103774070739746094e-01 -3.236969709396362305e-01 -1.302383188158273697e-02
-1.573119461536407471e-01 -5.181514620780944824e-01 -1.740555316209793091e-01
-1.789931952953338623e-02 -3.998343348503112793e-01 2.939403057098388672e-01
-4.149574041366577148e-01 -4.696090221405029297e-01 4.888203740119934082e-02
-5.124817490577697754e-01 -1.647413372993469238e-01 3.561319038271903992e-02
5.103227496147155762e-02 -3.668618798255920410e-01 6.280357390642166138e-02
2.830855548381805420e-02 -6.725972890853881836e-02 4.759931936860084534e-02
3.156650066375732422e-02 -2.097770422697067261e-01 2.954862713813781738e-01
-3.042086064815521240e-01 -5.030969381332397461e-01 2.345798909664154053e-01
5.651301145553588867e-02 -1.288758963346481323e-01 -1.193809509277343750e-01
3.197091817855834961e-02 -3.902475237846374512e-01 1.303470432758331299e-01
-4.817169904708862305e-02 1.317490637302398682e-02 -7.829248905181884766e-02
-5.062934160232543945e-01 -2.615754902362823486e-01 -1.950495690107345581e-01
-8.195264637470245361e-02 -4.027963280677795410e-01 3.977822661399841309e-01
-4.574547708034515381e-01 -4.736822843551635742e-02 -2.431654371321201324e-03
-2.333945035934448242e-02 -1.891378015279769897e-01 4.029775559902191162e-01
-2.716037631034851074e-02 -1.710569709539413452e-01 -4.264556467533111572e-01
-4.218897223472595215e-01 -1.246360391378402710e-01 -3.910414874553680420e-01
-2.812634706497192383e-01 -4.511710405349731445e-01 -3.800425231456756592e-01
-4.177020490169525146e-01 -3.615124523639678955e-01 -3.653880059719085693e-01
-2.008140832185745239e-01 -1.788616478443145752e-01 5.311758518218994141e-01
-1.217741221189498901e-01 -1.767566204071044922e-01 5.019979476928710938e-01
-3.860367238521575928e-01 -4.740584492683410645e-01 -1.735824942588806152e-01
-4.760512709617614746e-01 -9.755018353462219238e-02 1.265824437141418457e-01
-3.241534531116485596e-02 -4.089689254760742188e-01 -2.982415556907653809e-01
-6.046363711357116699e-02 -4.844602048397064209e-01 -1.297020167112350464e-01
-5.963087081909179688e-02 3.382608294486999512e-03 1.489843875169754028e-01
-4.196118116378784180e-01 -4.301757514476776123e-01 2.264848202466964722e-01
-3.769387006759643555e-01 -7.737427949905395508e-03 -2.683869898319244385e-01
-3.519584238529205322e-02 -7.056581974029541016e-02 -3.429708778858184814e-01
-3.131118118762969971e-01 1.647263765335083008e-03 2.716491818428039551e-01
-2.042181491851806641e-01 5.903470516204833984e-02 -1.776632368564605713e-01
-2.930311858654022217e-02 -1.363420486450195312e-02 1.193179488182067871e-01
2.819448709487915039e-04 -3.651500642299652100e-01 3.041228353977203369e-01
-3.417166769504547119e-01 -4.215264916419982910e-01 -3.864850699901580811e-01
-4.982913434505462646e-01 -2.623957991600036621e-01 1.981609314680099487e-01
-7.795757055282592773e-02 -1.691083908081054688e-01 4.626970887184143066e-01
-2.393501698970794678e-01 -1.861535906791687012e-01 5.333535671234130859e-01
4.037040472030639648e-02 -1.788152903318405151e-01 2.502605617046356201e-01
-5.170277357101440430e-01 -2.603656351566314697e-01 8.196915686130523682e-02
-3.741489350795745850e-02 -6.634296476840972900e-02 2.954921722412109375e-01
-9.869805723428726196e-02 3.968900442123413086e-02 -1.148830577731132507e-01
-3.350988328456878662e-01 -2.041816115379333496e-01 4.961000978946685791e-01
-1.563634723424911499e-01 -4.892855584621429443e-01 -2.833449244499206543e-01
6.581887602806091309e-02 -1.860591173171997070e-01 -1.624054759740829468e-01
-3.021885156631469727e-01 5.740019679069519043e-02 -7.328492403030395508e-02
-3.180856704711914062e-01 -2.469319105148315430e-02 3.282732069492340088e-01
-1.063257455825805664e-01 -4.917166829109191895e-01 -2.147687822580337524e-01
-3.069438934326171875e-01 -2.419542521238327026e-01 -5.510665774345397949e-01
2.332468330860137939e-02 -1.885599195957183838e-01 -3.292656242847442627e-01
-1.404103934764862061e-01 -1.099891066551208496e-01 4.659665226936340332e-01
-2.154786586761474609e-01 -3.624045550823211670e-01 5.076714754104614258e-01
-7.671955227851867676e-02 -1.030530035495758057e-01 4.068274796009063721e-01
-5.202010869979858398e-01 -2.008852660655975342e-01 -5.782132223248481750e-02
4.951664805412292480e-02 -3.031962811946868896e-01 2.185455262660980225e-01
-2.498182058334350586e-01 -3.036901354789733887e-03 -3.903362452983856201e-01
-2.039307951927185059e-01 5.218735337257385254e-02 -2.184572666883468628e-01
3.819337487220764160e-02 -2.655140459537506104e-01 -2.882496416568756104e-01
-4.756491482257843018e-01 -7.902109622955322266e-02 5.178905650973320007e-02
-3.834313750267028809e-01 -2.516277432441711426e-01 4.549681842327117920e-01
-3.639829158782958984e-01 -4.393234848976135254e-01 -3.246688246726989746e-01
-3.876972198486328125e-01 -1.379807889461517334e-01 -4.553601443767547607e-01
-5.169656872749328613e-02 -4.839947819709777832e-01 -9.222543239593505859e-02
-7.868619263172149658e-02 5.046129226684570312e-03 -2.499662786722183228e-01
-3.849390745162963867e-01 -7.005386054515838623e-02 -3.882906138896942139e-01
-2.948124408721923828e-01 -4.461937248706817627e-01 3.865050077438354492e-01
-2.621572315692901611e-01 3.586751222610473633e-02 2.062559872865676880e-01
-4.327229857444763184e-01 -3.734207749366760254e-01 -3.176449835300445557e-01
-7.645547389984130859e-02 -4.866962730884552002e-01 1.923780739307403564e-01
-2.514682710170745850e-02 -6.267204880714416504e-03 4.065440595149993896e-02
-1.066891700029373169e-01 -5.723729729652404785e-02 3.764033019542694092e-01
-9.367763996124267578e-03 -4.312152862548828125e-01 -1.749877482652664185e-01
-5.120382308959960938e-01 -1.561603844165802002e-01 -8.745094761252403259e-03
-4.017646908760070801e-01 -4.190167784690856934e-01 -3.017951846122741699e-01
-7.490891218185424805e-02 -3.628136515617370605e-01 4.336655139923095703e-01
4.845911264419555664e-02 -2.131127119064331055e-01 2.428056150674819946e-01
7.067993283271789551e-03 -3.222903013229370117e-01 3.327145278453826904e-01
-1.405770480632781982e-01 -4.828895628452301025e-02 3.889593482017517090e-01
6.446287035942077637e-02 -2.462852448225021362e-01 1.796644777059555054e-01
-2.619956731796264648e-01 -3.442353010177612305e-01 5.131939053535461426e-01
-5.542157590389251709e-02 -4.364295005798339844e-01 3.010512888431549072e-01
-1.198996156454086304e-01 -5.223207473754882812e-01 8.726917207241058350e-02
-4.064911603927612305e-01 -2.236365973949432373e-01 4.220363497734069824e-01
-7.944022119045257568e-02 -1.806801706552505493e-01 -4.982478022575378418e-01
8.083060383796691895e-02 -2.579510211944580078e-01 -4.715637303888797760e-03
-4.739995002746582031e-01 -3.543922901153564453e-01 -2.258773744106292725e-01
-1.471521854400634766e-01 4.557228088378906250e-02 1.337567269802093506e-01
-5.405607819557189941e-02 1.556932926177978516e-03 -1.964050680398941040e-01
-3.735512495040893555e-01 6.623595952987670898e-03 -2.240068167448043823e-01
-3.621934056282043457e-01 -4.995774626731872559e-01 -1.104962155222892761e-01
-3.777689933776855469e-01 -1.993072032928466797e-02 -3.019852042198181152e-01
-1.603287458419799805e-01 -1.219657883048057556e-01 -5.276724100112915039e-01
-4.341879487037658691e-01 -8.046382665634155273e-02 2.431369572877883911e-01
-1.154653951525688171e-01 -5.076891183853149414e-01 1.840167343616485596e-01
6.590723991394042969e-02 -2.889195978641510010e-01 -1.515414267778396606e-01
-1.250846236944198608e-01 -5.269834399223327637e-01 1.883914694190025330e-02
-2.958173453807830811e-01 -3.105367720127105713e-01 -5.338630676269531250e-01
-4.899817705154418945e-02 -4.135166108608245850e-02 2.660961747169494629e-01
-3.118328452110290527e-01 2.720087766647338867e-02 1.907154321670532227e-01
4.000976681709289551e-02 -1.513440757989883423e-01 -2.498870790004730225e-01
-7.792302966117858887e-02 -4.056543111801147461e-02 3.132203817367553711e-01
-2.892285883426666260e-01 5.480602383613586426e-02 -1.523009985685348511e-01
-4.414248466491699219e-01 -3.130002319812774658e-02 -1.058584079146385193e-01
-1.393665969371795654e-01 3.135538101196289062e-02 -2.572362124919891357e-01
4.761034250259399414e-02 -3.376063108444213867e-01 -1.779408603906631470e-01
-3.461992144584655762e-01 -3.174408078193664551e-01 4.777419865131378174e-01
8.410394191741943359e-03 -4.048800468444824219e-02 -9.084160625934600830e-02
-5.723437666893005371e-02 -2.059406787157058716e-01 4.560288786888122559e-01
-1.340015828609466553e-01 -3.148540854454040527e-02 3.553225696086883545e-01
-4.695299267768859863e-01 -1.041001528501510620e-01 -2.350214570760726929e-01
7.702288031578063965e-02 -2.359920591115951538e-01 9.099712222814559937e-02
4.030987620353698730e-02 -8.848197758197784424e-02 -9.754691272974014282e-02
-2.676260769367218018e-01 -1.425788104534149170e-01 -5.473590493202209473e-01
-5.283489823341369629e-02 -2.987973392009735107e-02 -2.971400022506713867e-01
-3.806908130645751953e-01 -4.578491449356079102e-01 2.497293502092361450e-01
-4.948293268680572510e-01 -1.105735152959823608e-01 -7.713288813829421997e-02
-2.321735024452209473e-03 -8.302305638790130615e-02 2.459160536527633667e-01
-3.318507671356201172e-01 2.034997940063476562e-02 -2.601621747016906738e-01
-2.279160320758819580e-01 -5.425075888633728027e-01 2.666718512773513794e-02
-4.234550893306732178e-02 -1.303500235080718994e-01 3.906653821468353271e-01
-3.204702138900756836e-01 -5.238708853721618652e-01 6.454665958881378174e-02
-2.727428674697875977e-01 2.550867199897766113e-02 -3.078727722167968750e-01
-1.960937827825546265e-01 -6.618866324424743652e-02 -4.889786541461944580e-01
-4.461068212985992432e-01 -3.741829395294189453e-01 -2.824201881885528564e-01
-3.367038667201995850e-01 -5.184241533279418945e-01 -3.194111213088035583e-02
-1.973957866430282593e-01 -3.997907042503356934e-01 -4.706827700138092041e-01
-3.796453773975372314e-01 2.259141206741333008e-02 2.820764668285846710e-03
-4.783035218715667725e-01 -7.823950052261352539e-02 7.262402214109897614e-03
-5.212304592132568359e-01 -2.604526281356811523e-01 -5.677891522645950317e-02
1.750567555427551270e-02 -5.922006070613861084e-02 -1.373366415500640869e-01
-3.578412532806396484e-01 -2.822670042514801025e-01 4.790337383747100830e-01
-4.599648714065551758e-01 -4.006633758544921875e-01 1.583970040082931519e-01
-1.123964488506317139e-01 -5.212500095367431641e-01 -3.372592851519584656e-02
-3.425191938877105713e-01 -8.891895413398742676e-02 4.069313406944274902e-01
-2.941093146800994873e-01 -1.757198125123977661e-01 -5.512129664421081543e-01
4.466554522514343262e-02 -1.072896718978881836e-01 1.087854653596878052e-01
-3.569081425666809082e-01 2.674350142478942871e-02 -1.701361835002899170e-01
-5.162894129753112793e-01 -2.156790345907211304e-01 8.737491816282272339e-02
2.513758838176727295e-02 -4.122826755046844482e-01 6.144154444336891174e-02
-2.954511642456054688e-01 -4.309514760971069336e-01 -4.086179435253143311e-01
-2.803287804126739502e-01 -2.098513394594192505e-01 -5.632089376449584961e-01
3.157392144203186035e-02 -2.734508216381072998e-01 2.972160577774047852e-01
-2.793655991554260254e-01 -8.650359511375427246e-02 -5.022132396697998047e-01
-1.547128409147262573e-01 6.197091937065124512e-02 -3.679779917001724243e-02
-9.343194961547851562e-02 -2.126885205507278442e-01 4.940285384654998779e-01
-1.176054626703262329e-01 -3.859505355358123779e-01 4.516346156597137451e-01
-5.120114088058471680e-01 -3.107606470584869385e-01 -7.513137161731719971e-02
-3.186113238334655762e-01 -4.859461188316345215e-01 -2.642776370048522949e-01
-3.250929117202758789e-01 -2.721547484397888184e-01 5.085277557373046875e-01
5.121856927871704102e-02 -1.859384179115295410e-01 2.157568633556365967e-01
1.296207308769226074e-02 -3.762619793415069580e-01 2.510743737220764160e-01
-4.327596426010131836e-01 -3.154461979866027832e-01 3.599325120449066162e-01
2.153727412223815918e-02 -3.209574520587921143e-01 2.971584200859069824e-01
-2.845648229122161865e-01 4.013004899024963379e-02 1.699191182851791382e-01
-6.458246707916259766e-02 -5.027320981025695801e-02 -3.613225519657135010e-01
2.786284685134887695e-02 -6.395216286182403564e-02 -6.148327142000198364e-02
-4.512418508529663086e-01 -2.811086773872375488e-01 3.374390304088592529e-01
-1.874486207962036133e-01 -5.259631276130676270e-01 1.834829598665237427e-01
-2.515758872032165527e-01 -3.995211124420166016e-01 4.700257778167724609e-01
2.532020211219787598e-03 -4.405406713485717773e-01 -4.903015121817588806e-02
1.668682694435119629e-02 -2.889140248298645020e-01 -3.358976542949676514e-01
-2.324086576700210571e-01 -1.501573622226715088e-01 5.160626769065856934e-01
-3.704799413681030273e-01 -5.395889282226562500e-03 2.037196159362792969e-01
-2.386914193630218506e-02 -3.121464252471923828e-01 -4.036828875541687012e-01
-4.873162508010864258e-01 -3.595614731311798096e-01 -1.468013375997543335e-01
-2.287548631429672241e-01 2.070379257202148438e-02 -3.367381095886230469e-01
-1.937681734561920166e-01 -5.194512605667114258e-01 2.190090715885162354e-01
-8.271634578704833984e-04 -3.239051997661590576e-02 6.472741067409515381e-02
6.531405448913574219e-02 -2.067138850688934326e-01 1.642305701971054077e-01
-4.861977398395538330e-01 -1.091588884592056274e-01 -1.604146510362625122e-01
-3.903217613697052002e-01 -3.436822593212127686e-01 4.113566577434539795e-01
-3.928775191307067871e-01 -3.102657198905944824e-01 4.285495281219482422e-01
-3.619877099990844727e-01 -4.006903171539306641e-01 3.903561532497406006e-01
-1.553356647491455078e-03 -4.340967535972595215e-01 1.437443792819976807e-01
-5.122672915458679199e-01 -1.758136451244354248e-01 -1.210067942738533020e-01
-1.709980368614196777e-01 -5.096590518951416016e-01 -2.250614464282989502e-01
-1.859486103057861328e-03 -2.964941263198852539e-01 -3.729547858238220215e-01
-3.431290984153747559e-01 -4.732099771499633789e-01 2.766163051128387451e-01
-9.298627078533172607e-02 2.006408572196960449e-02 1.611359715461730957e-01
-4.901479780673980713e-01 -1.102882772684097290e-01 7.332748174667358398e-02
-2.330227941274642944e-01 -5.271289348602294922e-01 -1.642708927392959595e-01
-3.569693565368652344e-01 2.503272891044616699e-02 1.049704924225807190e-01
-1.088161170482635498e-01 3.917068243026733398e-03 -3.069911897182464600e-01
-3.545016050338745117e-01 -4.544823169708251953e-01 3.067177832126617432e-01
-2.590433955192565918e-01 -2.494196593761444092e-02 -4.291535913944244385e-01
-8.745855093002319336e-02 -4.654936492443084717e-01 -2.689335048198699951e-01
7.864326238632202148e-02 -2.615203261375427246e-01 -6.642500311136245728e-02
-1.722322255373001099e-01 1.375219225883483887e-02 2.766017019748687744e-01
-2.116451412439346313e-01 -2.345600575208663940e-01 5.465242862701416016e-01
5.897909402847290039e-02 -2.293973267078399658e-01 -2.185285687446594238e-01
-1.861361414194107056e-01 -9.517475962638854980e-03 -4.003581404685974121e-01
-2.713954746723175049e-01 2.387639880180358887e-02 2.424617856740951538e-01
-1.827814877033233643e-01 -4.968769252300262451e-01 2.954521179199218750e-01
-5.300174653530120850e-02 -4.896529018878936768e-01 -4.094137251377105713e-02
-1.165482178330421448e-01 -1.161604598164558411e-01 -4.973136186599731445e-01
-8.084803819656372070e-03 -1.792341768741607666e-01 3.713359236717224121e-01
-2.625260055065155029e-01 -2.423119544982910156e-02 3.638579547405242920e-01
6.052249670028686523e-02 -3.488633334636688232e-01 4.247474484145641327e-03
7.476845383644104004e-02 -1.863063126802444458e-01 6.397490948438644409e-02
-5.854313075542449951e-02 -2.927505075931549072e-01 4.567702114582061768e-01
5.250185728073120117e-02 -1.581182479858398438e-01 -2.042477577924728394e-01
-3.459330797195434570e-01 -5.149717926979064941e-01 2.571180090308189392e-02
-4.792499840259552002e-01 -2.011343538761138916e-01 -3.045993745326995850e-01
-2.774825394153594971e-01 -3.466470837593078613e-01 -5.170310735702514648e-01
1.162098348140716553e-02 -1.322895884513854980e-01 -3.187414407730102539e-01
-1.875385493040084839e-01 6.409624218940734863e-02 -1.198715269565582275e-01
-3.611253201961517334e-01 -4.253050684928894043e-01 -3.568021357059478760e-01
-2.614157497882843018e-01 -1.186000406742095947e-01 4.871332943439483643e-01
7.101178169250488281e-03 -4.226428270339965820e-01 -1.323367357254028320e-01
-3.514427840709686279e-01 -3.754144906997680664e-02 3.166052401065826416e-01
-2.641112208366394043e-01 -2.762584090232849121e-01 -5.600084662437438965e-01
-3.522535562515258789e-01 -3.415022790431976318e-01 -4.736530184745788574e-01
-3.889074921607971191e-01 1.315990090370178223e-02 4.804523289203643799e-02
-3.288203775882720947e-01 -3.147755265235900879e-01 -5.120440125465393066e-01
-1.607026159763336182e-02 -4.162092208862304688e-01 -2.419876605272293091e-01
-4.495202600955963135e-01 -4.230419099330902100e-01 1.285399347543716431e-01
-3.715583086013793945e-01 -2.104083597660064697e-01 4.636457860469818115e-01
-4.154387116432189941e-01 -1.509201824665069580e-01 -4.230534136295318604e-01
-3.652094304561614990e-02 -3.100804984569549561e-02 -2.608573436737060547e-01
-9.938775002956390381e-02 -4.563472270965576172e-01 -3.104439079761505127e-01
-2.624846398830413818e-01 -5.163946747779846191e-01 -2.045145630836486816e-01
-4.318426251411437988e-01 -8.306512236595153809e-02 -3.160763978958129883e-01
-4.989096224308013916e-01 -3.093963861465454102e-01 1.591995656490325928e-01
2.588547766208648682e-02 -3.761505484580993652e-01 -1.947438418865203857e-01
3.800034523010253906e-02 -7.920698821544647217e-02 9.748681448400020599e-03
-3.508569002151489258e-01 -2.630816996097564697e-01 -5.168847441673278809e-01
-4.883639514446258545e-01 -1.773421764373779297e-01 2.113573551177978516e-01
-3.938037753105163574e-01 -4.586575031280517578e-01 2.144400179386138916e-01
-1.820050328969955444e-01 5.013027787208557129e-02 1.460372209548950195e-01
-8.342027664184570312e-02 -2.477180957794189453e-01 -5.069790482521057129e-01
-4.507376253604888916e-01 -3.315595984458923340e-01 3.077499568462371826e-01
-2.911937832832336426e-01 -4.283277094364166260e-01 4.173259437084197998e-01
-1.709384918212890625e-01 -3.571277856826782227e-01 -5.081400871276855469e-01
-2.192908674478530884e-01 -4.810329675674438477e-01 -3.298859000205993652e-01
-2.742308378219604492e-02 -1.211330294609069824e-02 -1.551343500614166260e-01
1.657241582870483398e-02 -6.211620569229125977e-02 1.139327883720397949e-01
