4.289848804473876953e-01 -3.708312213420867920e-01 -3.015396893024444580e-01
4.195349216461181641e-01 -4.669615626335144043e-01 -2.168254405260086060e-01
4.449378252029418945e-01 -3.682990372180938721e-01 3.204154074192047119e-01
4.276092052459716797e-01 -2.885961830615997314e-01 3.054245412349700928e-01
3.873613774776458740e-01 -3.586581647396087646e-01 -1.284326240420341492e-02
4.383032619953155518e-01 -3.104817271232604980e-01 -1.847437024116516113e-01
4.083175659179687500e-01 -3.380131721496582031e-01 -2.963263988494873047e-01
3.934727907180786133e-01 -3.742685317993164062e-01 2.682770788669586182e-01
4.271699488162994385e-01 -4.928515553474426270e-01 1.691339462995529175e-01
4.471018314361572266e-01 -3.046610951423645020e-01 1.699626296758651733e-01
4.323738515377044678e-01 -4.809384346008300781e-01 -1.219043508172035217e-02
4.179273247718811035e-01 -2.945885658264160156e-01 -2.289537936449050903e-01
4.309736192226409912e-01 -4.742843210697174072e-01 2.556992769241333008e-01
4.001128375530242920e-01 -3.038541972637176514e-01 -1.268351525068283081e-01
4.442996680736541748e-01 -3.703065514564514160e-01 -1.592140197753906250e-01
3.916989266872406006e-01 -3.617301881313323975e-01 2.158893644809722900e-01
4.030655920505523682e-01 -3.065998852252960205e-01 2.330579608678817749e-01
4.125699996948242188e-01 -3.728065192699432373e-01 4.245302975177764893e-01
3.957053720951080322e-01 -3.087680339813232422e-01 3.894982486963272095e-02
4.251162409782409668e-01 -4.361605346202850342e-01 4.031198918819427490e-01
3.900856077671051025e-01 -3.459855318069458008e-01 1.179834306240081787e-01
4.436903595924377441e-01 -2.862207889556884766e-01 1.453171968460083008e-01
4.295530021190643311e-01 -4.070507586002349854e-01 -2.797022461891174316e-01
4.167462289333343506e-01 -4.902147054672241211e-01 -1.364854425191879272e-01
3.902191817760467529e-01 -4.732122719287872314e-01 3.452285379171371460e-02
3.925289511680603027e-01 -4.142595529556274414e-01 2.725915014743804932e-01
4.438868761062622070e-01 -4.262152016162872314e-01 -6.596130132675170898e-02
3.979175090789794922e-01 -4.103493988513946533e-01 3.384529352188110352e-01
3.848295509815216064e-01 -4.191581010818481445e-01 4.056231677532196045e-02
3.979972898960113525e-01 -3.301177024841308594e-01 -2.018923908472061157e-01
3.883352577686309814e-01 -4.170770347118377686e-01 -1.525209993124008179e-01
4.105468094348907471e-01 -5.093947649002075195e-01 1.948143541812896729e-02
4.345505833625793457e-01 -3.890484273433685303e-01 4.094076156616210938e-01
4.380502402782440186e-01 -4.027971327304840088e-01 -2.128064185380935669e-01
4.072533249855041504e-01 -3.108507096767425537e-01 -2.352603226900100708e-01
3.868191540241241455e-01 -4.263520538806915283e-01 1.436133086681365967e-01
4.502098262310028076e-01 -3.907498717308044434e-01 2.761514671146869659e-02
4.076105654239654541e-01 -5.015628933906555176e-01 1.874017268419265747e-01
3.938782215118408203e-01 -3.847543001174926758e-01 -2.381221503019332886e-01
4.500369429588317871e-01 -3.990761041641235352e-01 1.128686964511871338e-01
4.428380429744720459e-01 -4.486000835895538330e-01 5.988989770412445068e-02
4.131959080696105957e-01 -3.168498277664184570e-01 -2.756688594818115234e-01
3.849482536315917969e-01 -4.053207933902740479e-01 6.537505239248275757e-02
4.517374336719512939e-01 -3.536396026611328125e-01 6.215922534465789795e-02
4.282687008380889893e-01 -2.571740150451660156e-01 4.569501057267189026e-02
4.435326457023620605e-01 -3.043607771396636963e-01 -9.965105354785919189e-02
4.250607490539550781e-01 -3.759315907955169678e-01 4.409871101379394531e-01
3.962989747524261475e-01 -3.229356706142425537e-01 -1.497494727373123169e-01
-2.599285542964935303e-01 -4.058969318866729736e-01 2.222887426614761353e-02
-3.092406690120697021e-01 -3.706366121768951416e-01 -8.658090233802795410e-02
-2.740438878536224365e-01 -2.814812958240509033e-01 5.414226651191711426e-02
-2.733015716075897217e-01 -4.776770770549774170e-01 -2.085787616670131683e-02
-2.745968401432037354e-01 -4.688338041305541992e-01 -1.737461984157562256e-01
-2.813265025615692139e-01 -2.918326556682586670e-01 -4.706679657101631165e-02
-3.096210956573486328e-01 -3.747810125350952148e-01 -1.088568493723869324e-01
-2.628868818283081055e-01 -4.219773113727569580e-01 5.486343801021575928e-02
-2.837566435337066650e-01 -4.562715291976928711e-01 -2.702499330043792725e-01
-2.655517756938934326e-01 -4.189425110816955566e-01 -1.396020203828811646e-01
-3.007519841194152832e-01 -3.457571864128112793e-01 7.725452631711959839e-02
-2.757686972618103027e-01 -4.694887697696685791e-01 -1.878640353679656982e-01
-2.741567492485046387e-01 -4.011274576187133789e-01 -2.308416068553924561e-01
-2.792679667472839355e-01 -4.969200789928436279e-01 -1.200193688273429871e-01
-3.114113807678222656e-01 -3.861885666847229004e-01 -1.136370226740837097e-01
-2.609708607196807861e-01 -3.447987735271453857e-01 1.546596586704254150e-01
-2.917042970657348633e-01 -3.695661127567291260e-01 1.825097203254699707e-01
-2.991047203540802002e-01 -3.566515445709228516e-01 1.194276735186576843e-01
-2.577708363533020020e-01 -3.250258862972259521e-01 5.425317585468292236e-02
-3.016843199729919434e-01 -3.341892957687377930e-01 -4.368185251951217651e-02
-3.147580623626708984e-01 -4.509215056896209717e-01 -2.068118751049041748e-01
-3.163461089134216309e-01 -4.385574460029602051e-01 -1.303816437721252441e-01
-2.683795690536499023e-01 -3.628021180629730225e-01 -1.732317507266998291e-01
-2.625084817409515381e-01 -4.228240251541137695e-01 3.769645094871520996e-02
-3.027431666851043701e-01 -3.407015800476074219e-01 1.004947721958160400e-02
-2.928265929222106934e-01 -3.148540854454040527e-01 -9.465597569942474365e-02
-3.069383203983306885e-01 -4.700324237346649170e-01 4.436842352151870728e-02
-3.156243860721588135e-01 -4.581433534622192383e-01 -6.337308883666992188e-02
-2.701798081398010254e-01 -3.805171251296997070e-01 -1.976674497127532959e-01
-2.697996497154235840e-01 -4.171455502510070801e-01 -1.937398612499237061e-01
-2.756854891777038574e-01 -3.734000921249389648e-01 -2.253759503364562988e-01
-2.582871019840240479e-01 -3.656609058380126953e-01 1.005612686276435852e-01
-2.660104334354400635e-01 -4.377024173736572266e-01 -1.089521348476409912e-01
-2.841618657112121582e-01 -2.891084849834442139e-01 2.997790277004241943e-02
-2.683915793895721436e-01 -4.595360755920410156e-01 -4.349557682871818542e-02
-2.621774971485137939e-01 -4.103661477565765381e-01 -8.855672180652618408e-02
-3.103483021259307861e-01 -4.163959324359893799e-01 -2.267918884754180908e-01
-2.883520126342773438e-01 -4.707520306110382080e-01 1.083633527159690857e-01
-2.600915431976318359e-01 -3.894540369510650635e-01 9.728037565946578979e-02
-2.800067067146301270e-01 -3.150386214256286621e-01 1.817805469036102295e-01
-2.630527317523956299e-01 -4.256963729858398438e-01 -6.691426038742065430e-02
-2.936770915985107422e-01 -3.121777772903442383e-01 5.829080194234848022e-02
-2.642285823822021484e-01 -3.040230870246887207e-01 1.425687074661254883e-01
-2.766283154487609863e-01 -3.116501569747924805e-01 -1.279890537261962891e-01
-2.996735274791717529e-01 -5.265047550201416016e-01 -1.486363708972930908e-01
-2.645791769027709961e-01 -3.138204216957092285e-01 1.643808186054229736e-01
-3.125020861625671387e-01 -4.142236709594726562e-01 -1.928363144397735596e-01
-3.119777739048004150e-01 -3.959019780158996582e-01 -1.482377052307128906e-01
-2.574124634265899658e-01 -3.345583677291870117e-01 7.905185222625732422e-02
-2.627446353435516357e-01 -3.267125487327575684e-01 -7.582768797874450684e-02
-2.997111976146697998e-01 -3.696942627429962158e-01 1.286488771438598633e-01
-3.075385391712188721e-01 -5.076591968536376953e-01 -2.338013350963592529e-01
-3.143238425254821777e-01 -4.958834648132324219e-01 -1.493210196495056152e-01
-3.103342652320861816e-01 -4.572856128215789795e-01 -2.619568109512329102e-01
-2.835915982723236084e-01 -4.315260052680969238e-01 -2.792990207672119141e-01
-2.970128655433654785e-01 -3.717794716358184814e-01 1.519143879413604736e-01
-2.858258485794067383e-01 -3.054785132408142090e-01 -9.995067119598388672e-02
-2.575317025184631348e-01 -3.761457800865173340e-01 6.569746881723403931e-03
-3.043974637985229492e-01 -3.554409146308898926e-01 4.142837226390838623e-02
-2.992544174194335938e-01 -3.314117789268493652e-01 -9.952105581760406494e-02
-2.651626169681549072e-01 -3.784966468811035156e-01 -1.525161266326904297e-01
-2.614282369613647461e-01 -3.745276927947998047e-01 -1.038651838898658752e-01
-2.941709160804748535e-01 -3.198558688163757324e-01 8.962856978178024292e-02
-2.585021257400512695e-01 -3.917493224143981934e-01 1.263168826699256897e-02
-2.700853943824768066e-01 -3.153796494007110596e-01 -1.128757819533348083e-01
-2.675789594650268555e-01 -3.901672661304473877e-01 1.767416894435882568e-01
-3.072145283222198486e-01 -3.964595496654510498e-01 -2.233654558658599854e-01
-2.747519612312316895e-01 -4.836347997188568115e-01 -3.809653595089912415e-02
-2.867517769336700439e-01 -2.937095463275909424e-01 -2.452503889799118042e-03
-2.596435546875000000e-01 -3.126908540725708008e-01 9.578021615743637085e-02
-2.801905274391174316e-01 -2.942876815795898438e-01 -6.499716639518737793e-02
-2.575720548629760742e-01 -3.554099798202514648e-01 9.160494059324264526e-02
-2.850748300552368164e-01 -3.059942424297332764e-01 1.372228562831878662e-01
-2.594600021839141846e-01 -3.949063122272491455e-01 -4.212065041065216064e-02
-2.670057117938995361e-01 -3.471329212188720703e-01 1.971614062786102295e-01
-2.593581080436706543e-01 -3.623946607112884521e-01 -6.552301347255706787e-02
-3.112348914146423340e-01 -5.034420490264892578e-01 -2.098775207996368408e-01
-2.686823308467864990e-01 -3.947512805461883545e-01 -1.889992058277130127e-01
-3.025918602943420410e-01 -3.560945391654968262e-01 -1.649413257837295532e-01
-3.154246807098388672e-01 -4.503854215145111084e-01 -1.920883655548095703e-01
-2.747926414012908936e-01 -4.511603116989135742e-01 -2.111087143421173096e-01
-2.978335618972778320e-01 -3.921597599983215332e-01 1.533851027488708496e-01
-2.892094254493713379e-01 -4.954549670219421387e-01 -2.466050982475280762e-01
-2.625009119510650635e-01 -4.162707030773162842e-01 6.928034126758575439e-02
-2.934158444404602051e-01 -4.058849811553955078e-01 1.737623512744903564e-01
-2.663521766662597656e-01 -4.487978816032409668e-01 -5.667806044220924377e-02
-2.700112164020538330e-01 -3.436125516891479492e-01 -1.637896597385406494e-01
-2.770105004310607910e-01 -4.802079498767852783e-01 -1.728507578372955322e-01
-2.684944570064544678e-01 -4.338989257812500000e-01 1.061035320162773132e-01
-2.855317890644073486e-01 -5.119522809982299805e-01 -1.299577653408050537e-01
-3.147190213203430176e-01 -4.217208623886108398e-01 -1.588985919952392578e-01
-3.148035705089569092e-01 -4.915066957473754883e-01 -1.626264303922653198e-01
-2.657547593116760254e-01 -3.164517879486083984e-01 -8.475476503372192383e-02
-2.639280855655670166e-01 -3.722289204597473145e-01 1.690967977046966553e-01
-2.709926366806030273e-01 -4.504436552524566650e-01 8.327417820692062378e-02
-2.570348083972930908e-01 -3.607326745986938477e-01 6.058259308338165283e-02
-2.851768434047698975e-01 -4.934676289558410645e-01 -2.238568365573883057e-01
-2.990002930164337158e-01 -4.033334255218505859e-01 1.460633873939514160e-01
-2.700816094875335693e-01 -2.999765574932098389e-01 -6.809208542108535767e-02
-2.681379616260528564e-01 -4.215625524520874023e-01 1.320412456989288330e-01
-3.113183677196502686e-01 -4.719839096069335938e-01 -2.274893224239349365e-03
-2.590352594852447510e-01 -3.546066284179687500e-01 -5.536472797393798828e-02
-2.728152275085449219e-01 -4.553632736206054688e-01 -1.819619536399841309e-01
-2.622019052505493164e-01 -3.645672500133514404e-01 1.597613990306854248e-01
-2.766658067703247070e-01 -3.330609500408172607e-01 -1.766381859779357910e-01
-3.000504672527313232e-01 -3.550822436809539795e-01 1.067631319165229797e-01
-2.589769661426544189e-01 -3.144524991512298584e-01 4.260569065809249878e-02
-2.956411242485046387e-01 -3.362821340560913086e-01 1.193779930472373962e-01
-3.016598224639892578e-01 -3.343043029308319092e-01 -1.149001345038414001e-02
-3.064171969890594482e-01 -3.986497521400451660e-01 8.159080892801284790e-02
-3.079426288604736328e-01 -3.689045906066894531e-01 4.195842891931533813e-03
-2.607180774211883545e-01 -3.105832338333129883e-01 6.643310189247131348e-05
-2.595711052417755127e-01 -3.218243122100830078e-01 -1.398907788097858429e-02
-3.123344779014587402e-01 -5.046430826187133789e-01 -1.806090176105499268e-01
-2.588131129741668701e-01 -3.459773659706115723e-01 1.243778392672538757e-01
-3.120545446872711182e-01 -4.061553180217742920e-01 -5.684345960617065430e-04
-2.584824264049530029e-01 -3.899807035923004150e-01 3.829210996627807617e-02
-3.028034865856170654e-01 -4.336569309234619141e-01 -2.907241880893707275e-01
-3.167173862457275391e-01 -4.512979984283447266e-01 -1.296906769275665283e-01
-3.063088357448577881e-01 -3.682694733142852783e-01 -1.585132330656051636e-01
-3.166839778423309326e-01 -4.634525477886199951e-01 -1.271106451749801636e-01
-2.808859646320343018e-01 -4.782432913780212402e-01 -2.226105928421020508e-01
-2.725116014480590820e-01 -3.953945040702819824e-01 1.931846737861633301e-01
-3.095729947090148926e-01 -3.912065923213958740e-01 -1.827679276466369629e-01
-2.951861917972564697e-01 -4.494495987892150879e-01 1.329538822174072266e-01
-3.048849105834960938e-01 -3.489335775375366211e-01 -7.976758480072021484e-02
-2.603668570518493652e-01 -3.634675741195678711e-01 1.397472023963928223e-01
-3.159513771533966064e-01 -4.796663522720336914e-01 -1.266065537929534912e-01
-2.827444374561309814e-01 -2.873714566230773926e-01 1.814901456236839294e-02
-2.631694376468658447e-01 -4.295394718647003174e-01 1.671990379691123962e-02
-2.952742576599121094e-01 -5.241930484771728516e-01 -1.596782207489013672e-01
-2.700834870338439941e-01 -2.844139635562896729e-01 1.895712316036224365e-02
-2.738289535045623779e-01 -4.650537967681884766e-01 6.192056834697723389e-02
-2.581408321857452393e-01 -3.257432579994201660e-01 9.029272943735122681e-02
-2.737566530704498291e-01 -4.234220683574676514e-01 1.627054214477539062e-01
-2.789707481861114502e-01 -3.439116179943084717e-01 -2.014370560646057129e-01
-2.724899649620056152e-01 -3.525336086750030518e-01 2.129395902156829834e-01
-2.852688729763031006e-01 -5.099008679389953613e-01 -5.512099340558052063e-02
-3.118962645530700684e-01 -4.284689724445343018e-01 -2.262254655361175537e-01
-3.039814233779907227e-01 -5.015479326248168945e-01 -1.279171556234359741e-03
-2.879951596260070801e-01 -4.590067863464355469e-01 1.307967305183410645e-01
-3.117573559284210205e-01 -3.866032958030700684e-01 -8.758394420146942139e-02
-2.828399837017059326e-01 -3.518817126750946045e-01 -2.210356891155242920e-01
-2.979444265365600586e-01 -3.248787522315979004e-01 -8.005481213331222534e-02
-2.870272099971771240e-01 -5.149574279785156250e-01 -8.926806598901748657e-02
-2.965408265590667725e-01 -5.013109445571899414e-01 2.672409266233444214e-02
-3.067265748977661133e-01 -4.099068641662597656e-01 -2.494108974933624268e-01
-2.698545753955841064e-01 -4.658046662807464600e-01 -6.252051144838333130e-02
-2.903801500797271729e-01 -5.168805122375488281e-01 -1.745879948139190674e-01
-3.041300773620605469e-01 -4.777570962905883789e-01 -2.878573238849639893e-01
-3.090992271900177002e-01 -3.853552639484405518e-01 -1.726095378398895264e-01
-3.115006387233734131e-01 -5.053089857101440430e-01 -9.670273959636688232e-02
-3.113335072994232178e-01 -4.553629159927368164e-01 1.695342361927032471e-02
-2.981466650962829590e-01 -5.179296731948852539e-01 -4.257845133543014526e-02
-2.637859880924224854e-01 -4.350501596927642822e-01 -2.671717107295989990e-02
-3.105441927909851074e-01 -4.363964498043060303e-01 -2.490524649620056152e-01
-3.032808303833007812e-01 -3.779291510581970215e-01 1.007986888289451599e-01
-2.979775965213775635e-01 -3.647372424602508545e-01 1.391545832157135010e-01
-2.714225053787231445e-01 -4.555830955505371094e-01 -1.618002653121948242e-01
-3.029263019561767578e-01 -3.991034626960754395e-01 -2.572914958000183105e-01
-3.164820671081542969e-01 -4.634986817836761475e-01 -1.596429049968719482e-01
-2.843347787857055664e-01 -4.052048921585083008e-01 -2.765422761440277100e-01
-2.608607113361358643e-01 -3.118447661399841309e-01 1.214763447642326355e-01
-3.117821514606475830e-01 -4.632432460784912109e-01 -2.501632869243621826e-01
-2.606394290924072266e-01 -4.104819297790527344e-01 3.383167833089828491e-02
-2.908287048339843750e-01 -3.211962878704071045e-01 1.317245066165924072e-01
-2.867850959300994873e-01 -4.589586853981018066e-01 -2.819854915142059326e-01
-2.811132669448852539e-01 -4.995036721229553223e-01 -3.005605936050415039e-02
-2.862456142902374268e-01 -5.016393065452575684e-01 -2.080923616886138916e-01
-2.968643605709075928e-01 -4.366223812103271484e-01 -3.023427724838256836e-01
-2.946214079856872559e-01 -3.122271597385406494e-01 -4.182185605168342590e-02
-3.163263797760009766e-01 -4.395655989646911621e-01 -9.798686206340789795e-02
-2.969431281089782715e-01 -4.726075530052185059e-01 9.321685880422592163e-02
-2.698216140270233154e-01 -4.537278413772583008e-01 -1.394562125205993652e-01
-3.138080537319183350e-01 -4.919210672378540039e-01 -8.932247757911682129e-02
-2.950229346752166748e-01 -5.204991102218627930e-01 -1.918967664241790771e-01
-2.570391893386840820e-01 -3.497644066810607910e-01 7.281213253736495972e-02
-2.657825350761413574e-01 -3.052190840244293213e-01 -5.366904288530349731e-02
-3.145182132720947266e-01 -4.717141091823577881e-01 -5.324893817305564880e-02
-2.602455914020538330e-01 -3.398537337779998779e-01 -6.267912685871124268e-02
-3.118691444396972656e-01 -3.981077373027801514e-01 -1.599805057048797607e-01
-2.610713243484497070e-01 -4.085388481616973877e-01 -6.150785088539123535e-02
-3.142478764057159424e-01 -4.936506748199462891e-01 -1.124868094921112061e-01
-2.610742747783660889e-01 -3.030895888805389404e-01 8.538333326578140259e-02
-2.621955871582031250e-01 -3.735687732696533203e-01 1.520529985427856445e-01
-2.619172632694244385e-01 -3.805541992187500000e-01 1.409113109111785889e-01
-3.065196275711059570e-01 -4.446648061275482178e-01 -2.813917398452758789e-01
-3.078305125236511230e-01 -4.273675978183746338e-01 7.106610387563705444e-02
-2.622557282447814941e-01 -3.974590003490447998e-01 -1.082663834095001221e-01
-3.133449554443359375e-01 -4.276310205459594727e-01 -2.041516602039337158e-01
-2.873121500015258789e-01 -3.691614270210266113e-01 -2.493410408496856689e-01
-3.098036050796508789e-01 -3.843048214912414551e-01 6.949033588171005249e-03
-2.969947755336761475e-01 -4.038972258567810059e-01 1.576658189296722412e-01
-2.627478241920471191e-01 -4.283193647861480713e-01 -4.855100065469741821e-03
-3.053642511367797852e-01 -3.512244522571563721e-01 -1.136111095547676086e-02
-2.997570633888244629e-01 -4.931926131248474121e-01 4.089886695146560669e-02
-3.121834993362426758e-01 -3.933632373809814453e-01 -1.277544796466827393e-01
-2.982655167579650879e-01 -3.606096804141998291e-01 -2.115205824375152588e-01
-2.762875556945800781e-01 -4.122812449932098389e-01 -2.447402775287628174e-01
-3.133675754070281982e-01 -4.393115043640136719e-01 -2.194574177265167236e-01
-2.880936563014984131e-01 -3.067551851272583008e-01 1.136332228779792786e-01
-2.683794796466827393e-01 -4.451542794704437256e-01 6.868106126785278320e-02
-2.854697406291961670e-01 -3.245103657245635986e-01 1.745433807373046875e-01
-2.629238665103912354e-01 -3.565189242362976074e-01 -1.166124269366264343e-01
-3.145197033882141113e-01 -4.262142479419708252e-01 -3.692893311381340027e-02
-3.051988184452056885e-01 -4.296163916587829590e-01 -2.788695991039276123e-01
-2.704388797283172607e-01 -4.656538963317871094e-01 -9.861880540847778320e-02
-2.947737872600555420e-01 -3.130477368831634521e-01 3.612104803323745728e-02
-2.787088751792907715e-01 -4.646620750427246094e-01 9.924348443746566772e-02
-3.139687180519104004e-01 -4.090989828109741211e-01 -1.373199224472045898e-01
-3.065643012523651123e-01 -4.433970451354980469e-01 7.563252747058868408e-02
-2.610512375831604004e-01 -4.155577123165130615e-01 1.405046880245208740e-02
-2.737884223461151123e-01 -3.396136462688446045e-01 2.116128802299499512e-01
-2.622176706790924072e-01 -3.865087926387786865e-01 -1.143116876482963562e-01
-3.081449568271636963e-01 -4.565175771713256836e-01 5.044408887624740601e-02
-3.024671077728271484e-01 -3.731761574745178223e-01 -2.135942578315734863e-01
-2.696797847747802734e-01 -2.979698181152343750e-01 1.554686129093170166e-01
-3.040731847286224365e-01 -4.162548780441284180e-01 1.078334227204322815e-01
-2.801850140094757080e-01 -2.871581912040710449e-01 -1.591101288795471191e-02
-2.874459922313690186e-01 -3.012005686759948730e-01 9.610923379659652710e-02
-2.947755157947540283e-01 -3.116328418254852295e-01 -2.401709184050559998e-02
-3.152269423007965088e-01 -4.836571216583251953e-01 -1.802064478397369385e-01
-3.143746554851531982e-01 -4.105314016342163086e-01 -1.218192353844642639e-01
-2.686855196952819824e-01 -2.851817309856414795e-01 8.821175247430801392e-02
-2.680057287216186523e-01 -3.791061341762542725e-01 1.892867386341094971e-01
-3.013717830181121826e-01 -4.298895299434661865e-01 1.222138032317161560e-01
-3.165164291858673096e-01 -4.584844708442687988e-01 -9.992688149213790894e-02
-2.984724640846252441e-01 -3.229843676090240479e-01 -3.974344953894615173e-02
-2.823635935783386230e-01 -4.816991090774536133e-01 6.674586236476898193e-02
-3.095603287220001221e-01 -4.409393072128295898e-01 4.771633446216583252e-02
-2.695735991001129150e-01 -3.610178232192993164e-01 2.049720287322998047e-01
-2.597021460533142090e-01 -4.044744968414306641e-01 -1.647360622882843018e-04
-2.989866733551025391e-01 -3.784496486186981201e-01 -2.433214485645294189e-01
-2.850852310657501221e-01 -5.046928524971008301e-01 -1.558755896985530853e-02
-2.785878777503967285e-01 -4.837443232536315918e-01 3.286793082952499390e-02
-3.039668798446655273e-01 -3.643075823783874512e-01 -1.764120757579803467e-01
-2.620037198066711426e-01 -3.011347353458404541e-01 2.043623477220535278e-02
-2.587385177612304688e-01 -3.940225839614868164e-01 2.661748230457305908e-02
-2.999590039253234863e-01 -3.875557482242584229e-01 -2.539479434490203857e-01
-2.752325534820556641e-01 -4.829363226890563965e-01 -1.234382390975952148e-01
-2.632479071617126465e-01 -3.361737728118896484e-01 1.739708483219146729e-01
-2.856604456901550293e-01 -3.154653310775756836e-01 1.572889089584350586e-01
-2.710564732551574707e-01 -4.638565480709075928e-01 -1.271436214447021484e-01
-2.645596265792846680e-01 -2.908731698989868164e-01 5.298990011215209961e-02
-2.597520351409912109e-01 -3.809382915496826172e-01 -7.078761607408523560e-02
-3.021097183227539062e-01 -3.422524034976959229e-01 3.878233581781387329e-02
-2.707504332065582275e-01 -4.661206603050231934e-01 4.845239222049713135e-03
-2.684519588947296143e-01 -4.492535293102264404e-01 5.276870727539062500e-02
-3.160968422889709473e-01 -4.481597840785980225e-01 -7.553100585937500000e-02
-2.913844585418701172e-01 -5.213435292243957520e-01 -1.365012377500534058e-01
-3.156191408634185791e-01 -4.734084010124206543e-01 -8.589298278093338013e-02
-2.933214902877807617e-01 -3.218367099761962891e-01 -1.239410713315010071e-01
-3.000273108482360840e-01 -4.753108620643615723e-01 7.736421376466751099e-02
-2.626090347766876221e-01 -3.185231387615203857e-01 -5.632139742374420166e-02
-3.142407238483428955e-01 -4.293780326843261719e-01 -1.901489496231079102e-01
-2.622478008270263672e-01 -3.416721224784851074e-01 -9.347859770059585571e-02
-2.900800108909606934e-01 -3.210045397281646729e-01 -1.413093209266662598e-01
-2.604452967643737793e-01 -3.495652079582214355e-01 -7.695157825946807861e-02
-2.647309601306915283e-01 -4.195793867111206055e-01 -1.248726248741149902e-01
-2.608312666416168213e-01 -3.649345636367797852e-01 -9.269277751445770264e-02
-2.675116360187530518e-01 -3.460154235363006592e-01 -1.497569084167480469e-01
-2.671898901462554932e-01 -4.161224365234375000e-01 -1.654355227947235107e-01
-2.807646989822387695e-01 -4.984890818595886230e-01 -1.474131941795349121e-01
-2.641559243202209473e-01 -3.988335728645324707e-01 -1.374525427818298340e-01
-2.665414512157440186e-01 -3.787599802017211914e-01 -1.665634512901306152e-01
-2.693219780921936035e-01 -3.241193294525146484e-01 -1.274701356887817383e-01
-2.729656696319580078e-01 -4.763709604740142822e-01 -1.024843081831932068e-01
-2.846280932426452637e-01 -3.942730128765106201e-01 -2.708553671836853027e-01
-2.727672457695007324e-01 -3.727667033672332764e-01 -2.098792195320129395e-01
-3.021377623081207275e-01 -3.472449183464050293e-01 5.830870568752288818e-02
-3.135485947132110596e-01 -4.010609090328216553e-01 -9.582066535949707031e-02
-2.963385283946990967e-01 -3.159436881542205811e-01 3.083512187004089355e-03
-2.578900158405303955e-01 -3.721318840980529785e-01 7.758466154336929321e-02
-2.961048185825347900e-01 -3.228603005409240723e-01 7.146912068128585815e-02
-2.806851565837860107e-01 -4.753479957580566406e-01 7.854718714952468872e-02
-2.723990380764007568e-01 -4.672348499298095703e-01 -1.418495476245880127e-01
-2.767719030380249023e-01 -4.287088811397552490e-01 -2.449046671390533447e-01
-2.642790377140045166e-01 -3.876261413097381592e-01 1.558971405029296875e-01
-2.818284034729003906e-01 -4.909170866012573242e-01 -1.991104781627655029e-01
-2.641647756099700928e-01 -3.635077476501464844e-01 1.768499314785003662e-01
-2.750601172447204590e-01 -4.365849196910858154e-01 -2.282907366752624512e-01
-3.124954402446746826e-01 -4.029228985309600830e-01 -1.822827570140361786e-02
-3.022024631500244141e-01 -4.532187581062316895e-01 9.776280075311660767e-02
-3.027069568634033203e-01 -3.418134450912475586e-01 -9.314608573913574219e-02
-3.092459142208099365e-01 -5.166407227516174316e-01 -1.453121900558471680e-01
-2.636567652225494385e-01 -2.981554567813873291e-01 2.762366086244583130e-03
-3.134594857692718506e-01 -4.013399481773376465e-01 -1.135516315698623657e-01
-2.687067389488220215e-01 -4.130139350891113281e-01 1.524183452129364014e-01
-2.975909709930419922e-01 -4.517621397972106934e-01 1.217109784483909607e-01
-3.013312518596649170e-01 -4.182761013507843018e-01 1.277883052825927734e-01
-2.950788438320159912e-01 -5.243358016014099121e-01 -1.021541208028793335e-01
-2.770301997661590576e-01 -4.373676776885986328e-01 1.517017781734466553e-01
-2.870537340641021729e-01 -5.153597593307495117e-01 -1.065378487110137939e-01
-3.157877624034881592e-01 -4.344743788242340088e-01 -7.301288098096847534e-02
-2.840887606143951416e-01 -3.592858314514160156e-01 -2.334856092929840088e-01
-2.663497328758239746e-01 -3.615578114986419678e-01 -1.555751264095306396e-01
-2.847919762134552002e-01 -5.045795440673828125e-01 -1.790404319763183594e-01
-2.840687632560729980e-01 -5.051122307777404785e-01 -1.649248600006103516e-01
-3.032689392566680908e-01 -3.809275329113006592e-01 -2.244761586189270020e-01
-2.641230821609497070e-01 -4.242708981037139893e-01 -1.029989719390869141e-01
-3.082284629344940186e-01 -3.976922035217285156e-01 5.762059241533279419e-02
-3.079922795295715332e-01 -4.631940126419067383e-01 -2.775380313396453857e-01
-2.636496424674987793e-01 -3.048537969589233398e-01 -2.824866026639938354e-02
-3.090584874153137207e-01 -4.821972846984863281e-01 5.381073802709579468e-03
-2.614904642105102539e-01 -3.894942104816436768e-01 1.215525045990943909e-01
-2.958346605300903320e-01 -3.836565911769866943e-01 1.642319560050964355e-01
-2.660509049892425537e-01 -4.278190433979034424e-01 9.404244273900985718e-02
-2.696955800056457520e-01 -2.882920503616333008e-01 -1.081534847617149353e-02
-2.708344757556915283e-01 -4.443305432796478271e-01 -1.767238974571228027e-01
-3.089230358600616455e-01 -5.162799954414367676e-01 -1.208972036838531494e-01
-2.863788604736328125e-01 -4.908847212791442871e-01 5.237501859664916992e-02
-2.994989156723022461e-01 -3.322244584560394287e-01 4.939866811037063599e-02
-3.139978945255279541e-01 -4.142206609249114990e-01 -4.025862365961074829e-02
-3.147056102752685547e-01 -4.126292467117309570e-01 -1.012642756104469299e-01
-2.835824489593505859e-01 -3.668712973594665527e-01 2.097819447517395020e-01
-2.915687859058380127e-01 -3.425677418708801270e-01 -1.973406672477722168e-01
-3.044242858886718750e-01 -4.742605686187744141e-01 5.599925667047500610e-02
-2.654102742671966553e-01 -2.944385111331939697e-01 1.200904324650764465e-01
-2.849253118038177490e-01 -2.923929691314697266e-01 7.085143774747848511e-02
-2.593293786048889160e-01 -3.774767220020294189e-01 1.057367697358131409e-01
-2.912476658821105957e-01 -4.204293489456176758e-01 1.727651357650756836e-01
-2.610516846179962158e-01 -3.999224603176116943e-01 9.074199944734573364e-02
-2.598764300346374512e-01 -3.955832719802856445e-01 -5.537120252847671509e-02
-2.717559337615966797e-01 -4.346550703048706055e-01 1.314529478549957275e-01
-3.149380981922149658e-01 -4.608485102653503418e-01 -4.802283644676208496e-02
-3.099048733711242676e-01 -5.145376324653625488e-01 -1.330633163452148438e-01
-3.126314878463745117e-01 -3.958896994590759277e-01 -4.907147213816642761e-02
-2.844211757183074951e-01 -4.191975593566894531e-01 -2.815130650997161865e-01
-3.129897117614746094e-01 -4.413051009178161621e-01 8.073225617408752441e-04
-2.934069633483886719e-01 -4.874683618545532227e-01 6.898585706949234009e-02
-2.694503664970397949e-01 -4.565364122390747070e-01 3.579560667276382446e-02
-2.878640294075012207e-01 -3.771817088127136230e-01 1.989956796169281006e-01
-2.984159588813781738e-01 -4.249695539474487305e-01 1.418460309505462646e-01
-2.863184213638305664e-01 -5.050758123397827148e-01 -1.951943039894104004e-01
-2.587877213954925537e-01 -3.795157074928283691e-01 -4.668969660997390747e-02
-2.892258167266845703e-01 -5.114004611968994141e-01 -2.522417716681957245e-02
-3.039171099662780762e-01 -3.686083853244781494e-01 -1.897212266921997070e-01
-3.160217106342315674e-01 -4.761718511581420898e-01 -1.649628281593322754e-01
-3.103688359260559082e-01 -4.913555085659027100e-01 -2.888903953135013580e-02
-2.596376836299896240e-01 -3.434470891952514648e-01 1.378148794174194336e-01
-2.634430229663848877e-01 -4.314019680023193359e-01 -4.890961572527885437e-02
-2.788604497909545898e-01 -3.223490417003631592e-01 -1.591885089874267578e-01
-3.147080540657043457e-01 -4.206711053848266602e-01 -5.244627594947814941e-02
-3.127496242523193359e-01 -4.531294107437133789e-01 -1.024506986141204834e-03
-2.905206680297851562e-01 -3.488896191120147705e-01 1.763494610786437988e-01
-2.659196853637695312e-01 -3.316366076469421387e-01 -1.164518743753433228e-01
-3.067274987697601318e-01 -4.851748049259185791e-01 1.999706774950027466e-02
-2.657813727855682373e-01 -2.891064882278442383e-01 3.521937876939773560e-02
-3.047440350055694580e-01 -4.646697044372558594e-01 6.802230328321456909e-02
-2.996515929698944092e-01 -4.707725942134857178e-01 -2.982176244258880615e-01
-2.614946961402893066e-01 -3.197605311870574951e-01 1.455641090869903564e-01
-2.859580516815185547e-01 -4.941234290599822998e-01 3.946219384670257568e-02
-2.730049490928649902e-01 -4.491065442562103271e-01 -1.952720582485198975e-01
-2.669738829135894775e-01 -3.971043527126312256e-01 -1.722391843795776367e-01
-2.610263228416442871e-01 -3.303354382514953613e-01 1.508324444293975830e-01
-3.082720935344696045e-01 -3.663644492626190186e-01 -2.394705079495906830e-02
-3.065158426761627197e-01 -3.876470625400543213e-01 -2.117103636264801025e-01
-3.111339807510375977e-01 -4.855514466762542725e-01 -2.456554770469665527e-01
-3.165044784545898438e-01 -4.702636599540710449e-01 -1.369096040725708008e-01
-2.984082102775573730e-01 -5.074738264083862305e-01 -2.520640194416046143e-01
-3.008978366851806641e-01 -4.071400165557861328e-01 1.331061124801635742e-01
-3.107101619243621826e-01 -3.791756927967071533e-01 -7.263810932636260986e-02
-3.098929524421691895e-01 -3.982526063919067383e-01 -1.966657936573028564e-01
-2.589115798473358154e-01 -3.410765528678894043e-01 -3.941439092159271240e-02
-2.574719786643981934e-01 -3.729008436203002930e-01 5.495099723339080811e-02
-2.755804061889648438e-01 -3.626434803009033203e-01 -2.149190306663513184e-01
-3.032498657703399658e-01 -4.122857749462127686e-01 -2.719548642635345459e-01
-3.148710429668426514e-01 -4.445438086986541748e-01 -3.747405484318733215e-02
-2.765271365642547607e-01 -4.654196202754974365e-01 8.416206389665603638e-02
-2.643693089485168457e-01 -4.375721216201782227e-01 4.143927246332168579e-03
-2.776732444763183594e-01 -4.546211659908294678e-01 -2.324869334697723389e-01
-3.093454837799072266e-01 -4.204731881618499756e-01 5.404514819383621216e-02
-2.749403715133666992e-01 -4.792386293411254883e-01 -1.396192908287048340e-01
-2.749154567718505859e-01 -4.848693907260894775e-01 -8.517636358737945557e-02
-2.605360448360443115e-01 -4.063881039619445801e-01 -4.867293685674667358e-02
-2.922109067440032959e-01 -4.409628212451934814e-01 1.510660946369171143e-01
-2.620671391487121582e-01 -4.102919995784759521e-01 8.081887662410736084e-02
-2.641899585723876953e-01 -3.460160791873931885e-01 1.820092499256134033e-01
-2.677062451839447021e-01 -4.515381455421447754e-01 2.376490831375122070e-02
-2.711940109729766846e-01 -4.291706681251525879e-01 -1.993060410022735596e-01
-3.126814365386962891e-01 -5.046101808547973633e-01 -1.645984649658203125e-01
-2.645417153835296631e-01 -3.445010781288146973e-01 -1.222348958253860474e-01
-2.690559029579162598e-01 -4.551733136177062988e-01 -1.174627691507339478e-01
-3.127400577068328857e-01 -4.904878735542297363e-01 -2.206295728683471680e-01
-2.662019729614257812e-01 -2.898306250572204590e-01 1.013673469424247742e-01
-3.142199814319610596e-01 -4.095407426357269287e-01 -6.781727075576782227e-02
-3.027317225933074951e-01 -3.499185144901275635e-01 -1.389756798744201660e-01
-3.073039054870605469e-01 -3.729692101478576660e-01 3.361969441175460815e-02
-3.032023310661315918e-01 -3.448412120342254639e-01 2.346354722976684570e-02
-2.766474187374114990e-01 -4.631766676902770996e-01 -2.109823524951934814e-01
-2.904030084609985352e-01 -4.578284323215484619e-01 -2.942718267440795898e-01
-2.959336042404174805e-01 -3.145621120929718018e-01 -9.549513459205627441e-03
-2.736979722976684570e-01 -3.861621916294097900e-01 -2.232940196990966797e-01
-3.040304780006408691e-01 -3.930429220199584961e-01 -2.417731285095214844e-01
-3.082529306411743164e-01 -4.394579529762268066e-01 -2.689169347286224365e-01
-3.141951262950897217e-01 -4.770222306251525879e-01 -2.153937816619873047e-01
-2.945379018783569336e-01 -3.391870260238647461e-01 1.357187032699584961e-01
-2.807844281196594238e-01 -4.538539648056030273e-01 -2.554207146167755127e-01
-3.092310726642608643e-01 -4.188823997974395752e-01 -2.415346503257751465e-01
-3.098400831222534180e-01 -4.017314016819000244e-01 3.677285462617874146e-02
-3.010441660881042480e-01 -3.674188256263732910e-01 1.133849695324897766e-01
-3.143091797828674316e-01 -4.387666285037994385e-01 -2.443581633269786835e-02
-2.794323563575744629e-01 -4.249286055564880371e-01 -2.612997293472290039e-01
-3.135394155979156494e-01 -4.872715473175048828e-01 -6.742093712091445923e-02
-2.592192888259887695e-01 -3.616045117378234863e-01 1.239598765969276428e-01
-2.826797366142272949e-01 -5.058589577674865723e-01 -6.629303097724914551e-02
-2.572404146194458008e-01 -3.657175898551940918e-01 1.283429563045501709e-03
-2.943769991397857666e-01 -4.500155150890350342e-01 -3.030452430248260498e-01
-2.613375782966613770e-01 -3.161496222019195557e-01 -3.157804906368255615e-02
-2.911252379417419434e-01 -4.760917127132415771e-01 -2.835632264614105225e-01
-2.791617810726165771e-01 -4.765842556953430176e-01 -2.096661627292633057e-01
-3.103457391262054443e-01 -3.777736127376556396e-01 -9.617926180362701416e-02
-2.802982330322265625e-01 -4.895689189434051514e-01 -1.851414740085601807e-01
-2.939747273921966553e-01 -5.089705586433410645e-01 -2.359054684638977051e-01
2.823308706283569336e-01 -1.270985603332519531e-02 2.355336397886276245e-01
2.422560304403305054e-01 6.608545780181884766e-02 3.762637674808502197e-01
3.127158880233764648e-01 1.843726634979248047e-01 2.590853869915008545e-01
2.926562428474426270e-01 1.589106619358062744e-01 -3.222296535968780518e-01
1.854596436023712158e-01 1.175913214683532715e-02 7.355036213994026184e-04
2.512142360210418701e-01 -5.261421203613281250e-03 -2.080245614051818848e-01
3.266667425632476807e-01 1.203843355178833008e-01 -3.381229937076568604e-01
4.325098395347595215e-01 1.337669044733047485e-02 2.582012116909027100e-01
1.249566674232482910e-01 2.375107109546661377e-01 2.840030789375305176e-01
2.119956314563751221e-01 1.813086867332458496e-02 2.184453457593917847e-01
6.412640213966369629e-02 1.243887543678283691e-01 -6.440240144729614258e-02
3.706886172294616699e-01 2.719562500715255737e-02 -3.239201605319976807e-01
1.393145918846130371e-01 1.015648841857910156e-01 2.982150912284851074e-01
2.418738603591918945e-01 3.126729279756546021e-02 -3.096108436584472656e-01
4.471793770790100098e-01 -4.852461069822311401e-02 -8.936958014965057373e-02
4.607498347759246826e-01 1.827257871627807617e-02 1.839951872825622559e-01
4.515762031078338623e-01 -5.329709500074386597e-02 3.746357932686805725e-02
1.400226056575775146e-01 2.469289004802703857e-01 2.655813097953796387e-01
4.379423260688781738e-01 2.210937440395355225e-03 -2.205131649971008301e-01
1.707254946231842041e-01 2.648985385894775391e-01 -1.395871341228485107e-01
1.926830410957336426e-01 1.808054447174072266e-01 -3.513614535331726074e-01
3.777942359447479248e-01 2.669370919466018677e-02 3.360015451908111572e-01
4.069275557994842529e-01 -6.363507360219955444e-02 5.052012950181961060e-02
3.465898633003234863e-01 1.887031346559524536e-01 7.404557615518569946e-02
2.390603572130203247e-01 -1.620487123727798462e-02 -8.741203695535659790e-02
5.850823223590850830e-02 2.628792822360992432e-01 -1.153912022709846497e-01
4.816394448280334473e-01 -1.377553492784500122e-02 4.301753267645835876e-02
3.961641192436218262e-01 -3.332111984491348267e-02 2.268938720226287842e-01
4.235314726829528809e-01 -2.554854005575180054e-02 2.229910641908645630e-01
1.803757846355438232e-01 2.744107842445373535e-01 1.285211369395256042e-02
1.784984916448593140e-01 2.303442656993865967e-01 3.009628951549530029e-01
2.863003611564636230e-01 2.102886438369750977e-01 2.205113172531127930e-01
1.426910459995269775e-01 1.127439215779304504e-01 3.229420483112335205e-01
3.969424962997436523e-01 1.230881959199905396e-01 -1.811410039663314819e-01
4.460120797157287598e-01 6.876762956380844116e-02 1.754295527935028076e-01
3.997096419334411621e-02 1.635537296533584595e-01 -6.624723225831985474e-02
2.118412405252456665e-01 1.109149828553199768e-01 3.955507278442382812e-01
4.224032759666442871e-01 1.215377524495124817e-01 3.766006976366043091e-02
1.718989759683609009e-01 2.728761732578277588e-01 1.102971285581588745e-01
1.149023026227951050e-01 8.704487979412078857e-02 -1.856556385755538940e-01
3.003141880035400391e-01 1.797144114971160889e-01 2.992983162403106689e-01
3.866924941539764404e-01 1.271660178899765015e-01 -2.040322273969650269e-01
9.618952870368957520e-02 2.625730633735656738e-01 -1.717625558376312256e-01
1.067591756582260132e-01 7.731197774410247803e-02 -7.711590081453323364e-02
2.344847917556762695e-01 3.349035978317260742e-05 1.924276202917098999e-01
8.575132489204406738e-02 2.461618185043334961e-01 2.347817122936248779e-01
5.285614728927612305e-02 1.696531474590301514e-01 1.764711290597915649e-01
1.469810009002685547e-01 5.370822921395301819e-02 -1.671848148107528687e-01
3.649256825447082520e-01 -6.209982186555862427e-02 3.181106969714164734e-02
2.737265527248382568e-01 -2.433774620294570923e-02 1.580253690481185913e-01
1.839268356561660767e-01 2.479049861431121826e-01 -2.076994478702545166e-01
2.497348487377166748e-01 2.373250722885131836e-01 -1.345126479864120483e-01
3.580756485462188721e-01 1.751044392585754395e-01 -9.117715805768966675e-02
4.596864581108093262e-01 7.198099792003631592e-02 1.264056935906410217e-02
3.703659176826477051e-01 1.706683337688446045e-01 5.972855165600776672e-02
4.355667829513549805e-01 -1.766783744096755981e-02 -2.038682252168655396e-01
9.403240680694580078e-02 1.334234029054641724e-01 -2.418320327997207642e-01
4.485614895820617676e-01 8.876341581344604492e-02 3.670078143477439880e-02
3.056121766567230225e-01 2.176347374916076660e-01 4.188149236142635345e-03
3.023507893085479736e-01 1.987750530242919922e-01 -1.894779801368713379e-01
3.155392408370971680e-01 1.580184400081634521e-01 3.251059949398040771e-01
3.419886231422424316e-01 5.625732243061065674e-03 -3.133868277072906494e-01
4.031552374362945557e-01 9.181995689868927002e-02 -2.425718456506729126e-01
4.048651158809661865e-01 1.398144364356994629e-01 4.606525599956512451e-02
3.410314321517944336e-01 1.379290074110031128e-01 -2.891553342342376709e-01
1.916963905096054077e-01 1.633668690919876099e-02 -1.373456120491027832e-01
1.298602670431137085e-01 5.330405756831169128e-02 -1.551416609436273575e-02
6.199766695499420166e-02 1.357312500476837158e-01 -1.173674836754798889e-01
4.469144940376281738e-01 -4.235789924860000610e-02 1.329227387905120850e-01
3.408799767494201660e-01 -3.471610695123672485e-02 2.147033214569091797e-01
3.384557068347930908e-01 -4.910226911306381226e-02 1.320227235555648804e-01
9.646074473857879639e-02 8.453711122274398804e-02 2.756511420011520386e-02
4.730368256568908691e-01 -6.422258913516998291e-03 -1.037870496511459351e-01
3.458738625049591064e-01 -3.849543631076812744e-03 3.069589734077453613e-01
4.698210954666137695e-02 1.647029817104339600e-01 1.351161897182464600e-01
4.143435359001159668e-01 5.956290289759635925e-02 -2.596187889575958252e-01
4.492552280426025391e-01 -3.738094121217727661e-02 -1.308181881904602051e-01
3.761212229728698730e-01 1.645596921443939209e-01 8.351316303014755249e-02
3.932108879089355469e-01 1.113983020186424255e-01 -2.280088812112808228e-01
2.778863906860351562e-01 2.338290661573410034e-01 1.880676113069057465e-02
1.635529398918151855e-01 1.289657056331634521e-01 -3.533374965190887451e-01
4.291887879371643066e-01 8.222481608390808105e-02 2.134984284639358521e-01
2.865847647190093994e-01 1.267443895339965820e-01 -3.685980737209320068e-01
4.462071061134338379e-01 7.795395702123641968e-02 1.450455486774444580e-01
1.923102140426635742e-01 2.771345525979995728e-02 -2.050114870071411133e-01
3.439140319824218750e-02 1.834418177604675293e-01 1.023987457156181335e-01
3.886995315551757812e-01 8.048840612173080444e-02 3.186179399490356445e-01
2.946932911872863770e-01 1.147766932845115662e-01 3.966575264930725098e-01
1.240388005971908569e-01 5.910995602607727051e-02 4.137353599071502686e-02
1.055613458156585693e-01 8.432695269584655762e-02 1.262556463479995728e-01
2.666860520839691162e-01 2.394642233848571777e-01 -4.361807368695735931e-03
4.021342992782592773e-01 3.679375350475311279e-02 -2.918959558010101318e-01
1.330674886703491211e-01 2.547668218612670898e-01 2.421609461307525635e-01
3.696601390838623047e-01 -3.606168180704116821e-02 2.226342111825942993e-01
1.370399594306945801e-01 1.235982477664947510e-01 -3.169014155864715576e-01
4.682429432868957520e-01 3.273930400609970093e-02 1.365206390619277954e-01
1.651814877986907959e-01 5.270495265722274780e-02 2.284844964742660522e-01
2.518402636051177979e-01 1.878064274787902832e-01 3.442517817020416260e-01
8.154080808162689209e-02 2.839256227016448975e-01 1.403333246707916260e-02
1.918953955173492432e-01 1.694518327713012695e-02 1.412403434514999390e-01
2.781161665916442871e-01 2.267267704010009766e-01 1.459700614213943481e-01
7.123604416847229004e-02 1.811535954475402832e-01 -2.359379231929779053e-01
4.266673922538757324e-01 -6.196903437376022339e-02 -2.609443664550781250e-02
3.971955776214599609e-01 6.560117006301879883e-03 -2.847757041454315186e-01
2.468949705362319946e-01 -2.332251518964767456e-02 1.062719430774450302e-02
3.766799569129943848e-01 -7.967546582221984863e-03 -2.817393243312835693e-01
1.568231880664825439e-01 2.774119079113006592e-01 -5.811823531985282898e-02
3.110367059707641602e-01 2.120573520660400391e-01 9.304680675268173218e-02
2.770129442214965820e-01 2.210584282875061035e-01 -1.500972956418991089e-01
4.284068942070007324e-01 1.113985627889633179e-01 9.046127647161483765e-02
1.208320111036300659e-01 2.088730037212371826e-01 -2.983993291854858398e-01
8.044664561748504639e-02 1.974943876266479492e-01 2.741990685462951660e-01
4.837094247341156006e-01 -1.331858336925506592e-03 1.819637045264244080e-02
1.333597153425216675e-01 7.128937542438507080e-02 -1.941530108451843262e-01
1.832815408706665039e-01 3.523365408182144165e-02 2.115370780229568481e-01
3.214737474918365479e-01 1.639533936977386475e-01 -2.658045589923858643e-01
3.898510038852691650e-01 -6.160654872655868530e-02 8.135187625885009766e-02
3.356816768646240234e-01 1.598972678184509277e-01 -2.463439851999282837e-01
2.454112470149993896e-02 2.048638015985488892e-01 -4.719721525907516479e-02
4.797476530075073242e-02 1.934225559234619141e-01 -1.742304563522338867e-01
4.451122879981994629e-01 7.562121748924255371e-02 -1.269121170043945312e-01
6.215469539165496826e-02 1.920468211174011230e-01 2.318596690893173218e-01
3.688759207725524902e-01 1.471450030803680420e-01 2.321359366178512573e-01
3.375559151172637939e-01 1.662930846214294434e-01 -2.210526764392852783e-01
1.168501377105712891e-01 2.855757772922515869e-01 3.045566752552986145e-02
4.215206205844879150e-01 1.217411682009696960e-01 -2.044678479433059692e-02
2.377130538225173950e-01 1.720523536205291748e-01 -3.491323590278625488e-01
4.665133953094482422e-01 5.603046715259552002e-02 7.254537194967269897e-02
4.275902509689331055e-01 7.188098877668380737e-02 2.392210513353347778e-01
2.984647452831268311e-01 2.216412425041198730e-01 5.382604151964187622e-02
2.996855974197387695e-01 -4.475668817758560181e-02 -4.813707619905471802e-02
1.955718696117401123e-01 3.433864563703536987e-02 -2.402421087026596069e-01
7.636758685111999512e-02 1.065045893192291260e-01 -2.764071896672248840e-02
3.206534683704376221e-02 2.253939807415008545e-01 1.260846257209777832e-01
1.013496220111846924e-01 2.730539143085479736e-01 -1.290465742349624634e-01
2.072854936122894287e-01 2.519454360008239746e-01 -1.530580818653106689e-01
3.617116808891296387e-01 1.746556162834167480e-01 -6.669872254133224487e-02
3.411002159118652344e-01 1.867661178112030029e-01 1.436629146337509155e-01
2.641920149326324463e-01 -3.046249598264694214e-02 -5.025782808661460876e-02
2.643135786056518555e-01 2.158981561660766602e-01 2.487481236457824707e-01
3.632047772407531738e-01 -5.376552790403366089e-02 -1.276681423187255859e-01
2.022371441125869751e-01 1.329920440912246704e-01 3.974541425704956055e-01
2.417855262756347656e-01 2.374387979507446289e-01 1.971274465322494507e-01
3.068214654922485352e-01 -1.098105311393737793e-02 -2.659707963466644287e-01
3.532137870788574219e-01 1.673791110515594482e-01 2.045820802450180054e-01
4.407473206520080566e-01 5.024693906307220459e-02 2.281167358160018921e-01
3.803877234458923340e-01 1.600560545921325684e-01 -5.381878837943077087e-02
3.485018908977508545e-01 1.886054426431655884e-01 2.596996352076530457e-02
3.756967186927795410e-02 2.285928279161453247e-01 1.492291092872619629e-01
1.309238076210021973e-01 2.808793783187866211e-01 -6.568496674299240112e-02
3.681269884109497070e-01 1.116803511977195740e-01 3.179997205734252930e-01
2.174562364816665649e-01 6.768599152565002441e-03 1.772948503494262695e-01
8.927156031131744385e-02 1.513177901506423950e-01 2.657583355903625488e-01
4.704206585884094238e-01 -3.063853830099105835e-02 -6.929740309715270996e-02
2.818252146244049072e-02 2.297095954418182373e-01 -8.187861740589141846e-02
6.412388384342193604e-02 1.456053555011749268e-01 1.707003861665725708e-01
4.740769863128662109e-01 2.858404815196990967e-02 1.036171913146972656e-01
3.345600068569183350e-01 1.395830214023590088e-01 3.300590515136718750e-01
3.456550836563110352e-02 2.496735751628875732e-01 9.611264616250991821e-02
2.190917879343032837e-01 3.976712375879287720e-02 -2.996015846729278564e-01
2.288152724504470825e-01 -7.999867200851440430e-03 1.159960851073265076e-01
