2.752735093235969543e-02 2.594711184501647949e-01 1.397822983562946320e-03
2.541650086641311646e-02 2.833257317543029785e-01 2.873844280838966370e-02
1.959984377026557922e-02 2.407664060592651367e-01 4.016761854290962219e-02
8.778633549809455872e-03 2.662275135517120361e-01 3.681049495935440063e-02
1.897262223064899445e-02 3.671807348728179932e-01 3.407914564013481140e-02
1.405364647507667542e-02 1.760038435459136963e-01 -2.499233372509479523e-02
1.383602805435657501e-02 3.444583714008331299e-01 3.801040723919868469e-02
2.987380139529705048e-03 2.221423238515853882e-01 8.123049512505531311e-03
2.205066755414009094e-02 1.705689430236816406e-01 1.926328055560588837e-02
2.185423672199249268e-02 2.011631727218627930e-01 -1.990280114114284515e-02
2.325328812003135681e-02 3.492529392242431641e-01 -2.439107000827789307e-02
2.206232398748397827e-02 1.852050125598907471e-01 2.583609335124492645e-02
9.008841589093208313e-03 4.142062366008758545e-01 -7.349401712417602539e-03
2.615592814981937408e-02 3.587042391300201416e-01 1.470497809350490570e-02
2.554604038596153259e-02 2.611755728721618652e-01 2.723563089966773987e-02
2.043061703443527222e-02 1.922214925289154053e-01 -2.146835625171661377e-02
2.691597491502761841e-02 3.372769355773925781e-01 1.501877326518297195e-02
3.548718057572841644e-03 2.121448516845703125e-01 -9.083225391805171967e-03
2.778159454464912415e-02 2.921286821365356445e-01 -1.218782505020499229e-03
5.290852859616279602e-03 3.780356049537658691e-01 4.456907045096158981e-04
1.915531605482101440e-02 3.579260706901550293e-01 3.556907176971435547e-02
7.280480116605758667e-03 3.238875269889831543e-01 3.010867163538932800e-02
2.284534275531768799e-02 4.130498766899108887e-01 2.945594256743788719e-03
1.010707020759582520e-02 3.112377822399139404e-01 3.743948414921760559e-02
5.425267852842807770e-03 3.046403527259826660e-01 -2.686940878629684448e-02
9.842548519372940063e-03 1.594763249158859253e-01 2.334609813988208771e-02
2.758237533271312714e-03 2.664228975772857666e-01 1.330317556858062744e-02
1.157647650688886642e-02 1.820870488882064819e-01 -2.589388377964496613e-02
1.843056641519069672e-02 3.093937337398529053e-01 4.138804227113723755e-02
1.264986023306846619e-02 3.664322197437286377e-01 -3.319965675473213196e-02
2.506827004253864288e-02 1.957239210605621338e-01 5.223108921200037003e-03
4.054695367813110352e-03 3.353492319583892822e-01 1.377311348915100098e-02
2.105756476521492004e-02 2.895178794860839844e-01 -3.240061178803443909e-02
1.476195733994245529e-02 2.665482163429260254e-01 -3.792261704802513123e-02
1.861292868852615356e-02 3.351212441921234131e-01 3.909416496753692627e-02
2.290609478950500488e-02 2.583378255367279053e-01 -2.645813301205635071e-02
1.792966388165950775e-02 2.918441593647003174e-01 -3.684113547205924988e-02
4.047900438308715820e-03 2.887222468852996826e-01 -2.200880646705627441e-02
2.741399779915809631e-02 3.362090289592742920e-01 9.504273766651749611e-04
2.362124994397163391e-02 1.789815723896026611e-01 -1.934100873768329620e-04
3.598089329898357391e-03 3.442094624042510986e-01 -8.072078227996826172e-03
2.747458592057228088e-02 3.238709270954132080e-01 1.193649228662252426e-02
7.303067017346620560e-03 2.608226537704467773e-01 3.348677605390548706e-02
2.086633816361427307e-02 1.987853050231933594e-01 3.271100670099258423e-02
1.651859283447265625e-02 4.306265115737915039e-01 -1.298497430980205536e-02
7.821707986295223236e-03 2.273971736431121826e-01 -2.954888157546520233e-02
1.662649028003215790e-02 3.437828421592712402e-01 -3.586705774068832397e-02
2.576764486730098724e-02 3.566834330558776855e-01 -1.171113830059766769e-02
2.456500008702278137e-02 3.908173739910125732e-01 1.082729361951351166e-02
2.454113028943538666e-02 2.958367764949798584e-01 3.174651786684989929e-02
3.347094170749187469e-03 3.368756771087646484e-01 -8.636455051600933075e-03
2.637718245387077332e-02 2.922054231166839600e-01 -1.462211553007364273e-02
2.296349965035915375e-03 2.632424235343933105e-01 -8.440700359642505646e-03
2.743026800453662872e-02 3.251089751720428467e-01 -3.531210822984576225e-03
2.715350314974784851e-02 3.414366841316223145e-01 1.028134301304817200e-02
4.642101936042308807e-03 1.935612857341766357e-01 -1.024401839822530746e-02
4.070966504514217377e-03 3.324970901012420654e-01 -1.716888323426246643e-02
2.461920306086540222e-02 2.111381590366363525e-01 2.281493693590164185e-02
1.774366386234760284e-02 3.973583579063415527e-01 2.758497186005115509e-02
1.426264923065900803e-02 1.871614754199981689e-01 -2.777368016541004181e-02
2.497628331184387207e-02 2.249484211206436157e-01 2.460210397839546204e-02
1.233089715242385864e-02 4.008843898773193359e-01 2.385959587991237640e-02
2.348895557224750519e-02 3.931761085987091064e-01 1.685783453285694122e-02
1.966627314686775208e-02 1.863659620285034180e-01 3.217601776123046875e-02
7.343748118728399277e-03 2.422531396150588989e-01 3.290660679340362549e-02
1.955095678567886353e-02 1.584604531526565552e-01 2.271774597465991974e-02
2.604560740292072296e-02 2.777316272258758545e-01 2.577618509531021118e-02
5.175272002816200256e-03 2.224339991807937622e-01 2.387092635035514832e-02
2.738618291914463043e-02 3.057774603366851807e-01 1.612706482410430908e-02
2.149692550301551819e-02 1.631745100021362305e-01 1.746422983705997467e-02
2.635249122977256775e-02 3.522877395153045654e-01 1.544636767357587814e-02
9.962473064661026001e-03 1.429615318775177002e-01 1.423815917223691940e-02
9.658377617597579956e-03 1.513042002916336060e-01 1.897663250565528870e-02
2.513617277145385742e-02 3.638907074928283691e-01 1.994624547660350800e-02
2.756921201944351196e-02 2.584892213344573975e-01 7.402500137686729431e-03
2.341333776712417603e-03 3.056730628013610840e-01 -4.521440714597702026e-03
6.107085384428501129e-03 3.443017899990081787e-01 -2.471488155424594879e-02
1.287860795855522156e-02 2.179217934608459473e-01 3.952576965093612671e-02
6.092592142522335052e-03 1.804318279027938843e-01 1.766255497932434082e-02
2.765109948813915253e-02 2.845116257667541504e-01 -2.912035910412669182e-03
9.070275351405143738e-03 2.598911523818969727e-01 -3.456242009997367859e-02
2.692931517958641052e-02 2.524711489677429199e-01 1.700302399694919586e-02
3.053627908229827881e-03 3.291715979576110840e-01 5.254465155303478241e-03
5.277921445667743683e-03 2.861941456794738770e-01 2.687643095850944519e-02
2.608209662139415741e-02 3.474083840847015381e-01 1.902254484593868256e-02
4.158861003816127777e-03 2.578481137752532959e-01 -2.177388966083526611e-02
4.179120995104312897e-03 2.041518390178680420e-01 -1.138004474341869354e-02
2.572808414697647095e-02 3.293287158012390137e-01 -1.675391197204589844e-02
1.826667226850986481e-02 4.090098738670349121e-01 2.315686829388141632e-02
2.064115181565284729e-02 2.249587774276733398e-01 3.729393705725669861e-02
1.303496118634939194e-02 2.112249433994293213e-01 3.888595476746559143e-02
8.985919877886772156e-03 1.445672959089279175e-01 -3.282651072368025780e-03
2.585505694150924683e-02 2.235374003648757935e-01 -6.387660279870033264e-03
5.733907222747802734e-03 3.736970424652099609e-01 -1.404613535851240158e-02
1.372492220252752304e-02 3.221427202224731445e-01 4.043188691139221191e-02
2.437612600624561310e-02 3.467490673065185547e-01 2.724865265190601349e-02
2.574869617819786072e-02 2.863735854625701904e-01 -1.786154508590698242e-02
2.722223661839962006e-02 2.509332597255706787e-01 -1.136492704972624779e-03
2.680499479174613953e-02 3.561927676200866699e-01 8.975899545475840569e-04
1.780125498771667480e-02 3.960615396499633789e-01 -2.649618685245513916e-02
9.253801777958869934e-03 1.693561226129531860e-01 2.546812407672405243e-02
5.023097619414329529e-03 3.512414395809173584e-01 1.544893160462379456e-02
1.590392924845218658e-02 1.308695822954177856e-01 4.977813921868801117e-03
2.482068724930286407e-03 3.089981973171234131e-01 4.461145959794521332e-03
2.686646208167076111e-02 3.471484184265136719e-01 1.193895190954208374e-02
8.029311895370483398e-03 3.471539914608001709e-01 2.858250960707664490e-02
2.761308103799819946e-02 2.755294442176818848e-01 -2.189541002735495567e-03
2.843631431460380554e-03 2.191722095012664795e-01 6.575867300853133202e-04
2.606100030243396759e-02 3.705113828182220459e-01 8.656474761664867401e-03
6.298147141933441162e-03 3.777853250503540039e-01 1.266084611415863037e-02
2.046239934861660004e-02 3.013575971126556396e-01 -3.355022892355918884e-02
3.064287826418876648e-03 2.842829823493957520e-01 -1.640530116856098175e-02
1.412147469818592072e-02 3.637506365776062012e-01 3.514970839023590088e-02
1.570648886263370514e-02 2.232929021120071411e-01 -3.369080275297164917e-02
1.828326098620891571e-02 2.788655757904052734e-01 4.247718304395675659e-02
2.418654784560203552e-02 2.562163472175598145e-01 3.205543011426925659e-02
5.284866318106651306e-03 2.694628834724426270e-01 -2.673792280256748199e-02
6.432023830711841583e-03 2.325536012649536133e-01 -2.706389315426349640e-02
2.173609659075737000e-02 4.009300768375396729e-01 -1.701308786869049072e-02
2.428244799375534058e-02 3.968225121498107910e-01 8.127653971314430237e-03
6.942072883248329163e-03 3.846096396446228027e-01 1.318704243749380112e-02
2.241672016680240631e-03 2.513678669929504395e-01 5.086634308099746704e-03
2.529808320105075836e-02 2.672435939311981201e-01 -1.871281675994396210e-02
2.506864257156848907e-03 2.728947103023529053e-01 -1.163883134722709656e-02
4.128117114305496216e-03 3.012576103210449219e-01 2.061149477958679199e-02
2.429855614900588989e-02 1.886874437332153320e-01 -1.419999403879046440e-03
2.575560659170150757e-02 3.013922572135925293e-01 -1.808242872357368469e-02
1.914503052830696106e-02 3.320438265800476074e-01 -3.443839773535728455e-02
2.114042639732360840e-03 2.920402586460113525e-01 7.100739749148488045e-04
2.042692154645919800e-03 2.736501097679138184e-01 2.515179337933659554e-03
2.044548839330673218e-02 1.562310755252838135e-01 -5.907061509788036346e-03
2.698685415089130402e-02 2.771467566490173340e-01 1.987151987850666046e-02
5.793598480522632599e-03 2.423841655254364014e-01 -2.641379460692405701e-02
3.960900940001010895e-03 1.985585987567901611e-01 9.043372236192226410e-03
3.100192174315452576e-03 3.350028097629547119e-01 1.365847652778029442e-03
1.082868687808513641e-02 1.640524715185165405e-01 2.700797282159328461e-02
5.986705422401428223e-03 2.844046950340270996e-01 -2.913414873182773590e-02
1.459593512117862701e-02 1.320842802524566650e-01 1.269575301557779312e-02
1.510234549641609192e-02 4.348807930946350098e-01 -9.209434501826763153e-03
3.185926005244255066e-03 2.352363765239715576e-01 -1.307311095297336578e-02
3.049218095839023590e-03 2.419320940971374512e-01 -1.329557318240404129e-02
1.731994561851024628e-02 1.664243638515472412e-01 -1.956721581518650055e-02
2.665286511182785034e-02 3.354328572750091553e-01 -9.882703423500061035e-03
6.084574386477470398e-03 3.464643657207489014e-01 2.216294221580028534e-02
6.145201623439788818e-03 3.106806874275207520e-01 -2.876280248165130615e-02
9.944535791873931885e-03 3.176509141921997070e-01 -3.576012328267097473e-02
3.479780629277229309e-03 2.853085398674011230e-01 1.819693110883235931e-02
4.047191701829433441e-03 3.532018363475799561e-01 -8.855335414409637451e-03
1.648649387061595917e-02 3.762746453285217285e-01 3.334985673427581787e-02
1.586943119764328003e-02 2.845564484596252441e-01 -3.818024694919586182e-02
3.485963679850101471e-03 3.103004693984985352e-01 -1.726204901933670044e-02
7.361499592661857605e-03 2.780991494655609131e-01 3.359058126807212830e-02
6.834098137915134430e-03 1.891310513019561768e-01 -1.936706714332103729e-02
2.350809797644615173e-02 4.051708281040191650e-01 -3.929615952074527740e-03
1.105073280632495880e-02 2.530455589294433594e-01 4.010286554694175720e-02
3.759123384952545166e-03 1.988904923200607300e-01 -3.134676953777670860e-03
2.751217409968376160e-02 2.663317322731018066e-01 -1.698632491752505302e-03
1.924556307494640350e-02 2.650155127048492432e-01 -3.436827659606933594e-02
1.044716872274875641e-02 4.224304258823394775e-01 5.222386680543422699e-03
4.835754632949829102e-03 2.734059393405914307e-01 2.550911344587802887e-02
4.186326637864112854e-03 2.351720631122589111e-01 -1.932888291776180267e-02
2.790213190019130707e-02 2.874892950057983398e-01 7.654752582311630249e-03
2.532270550727844238e-02 3.327371478080749512e-01 2.587115950882434845e-02
1.868800073862075806e-02 1.527195572853088379e-01 2.197923138737678528e-02
2.620899118483066559e-02 3.697813749313354492e-01 5.943857831880450249e-04
5.993676371872425079e-03 1.660798043012619019e-01 -1.444430323317646980e-03
1.493415888398885727e-02 2.950840890407562256e-01 4.267471283674240112e-02
1.241250894963741302e-02 3.948861062526702881e-01 2.600516006350517273e-02
7.639382500201463699e-03 3.531589508056640625e-01 -2.786759473383426666e-02
1.047138310968875885e-02 3.230971097946166992e-01 -3.603776916861534119e-02
7.467351853847503662e-03 3.570019900798797607e-01 2.485429495573043823e-02
2.743019349873065948e-02 2.728536427021026611e-01 1.516412664204835892e-02
7.471360266208648682e-03 1.671795845031738281e-01 -1.311614643782377243e-02
1.923572458326816559e-02 2.309945374727249146e-01 3.976427018642425537e-02
2.073501423001289368e-02 4.032034277915954590e-01 2.174568362534046173e-02
1.365142874419689178e-02 2.720379829406738281e-01 -3.823702037334442139e-02
2.099671773612499237e-02 2.518268227577209473e-01 -3.041310049593448639e-02
2.105061337351799011e-02 3.924122452735900879e-01 2.501417137682437897e-02
2.476564422249794006e-02 3.770349025726318359e-01 1.725732535123825073e-02
2.170688845217227936e-02 3.238581120967864990e-01 3.667809069156646729e-02
1.590782403945922852e-02 1.337821334600448608e-01 -2.442568773403763771e-03
2.787182107567787170e-02 3.089744746685028076e-01 6.644826382398605347e-03
2.107732556760311127e-02 2.086959481239318848e-01 -2.383608371019363403e-02
1.046086382120847702e-02 3.291608691215515137e-01 3.626180440187454224e-02
6.478457711637020111e-03 3.886929750442504883e-01 6.835261359810829163e-03
2.230727113783359528e-02 3.698621690273284912e-01 -2.388857305049896240e-02
8.240219205617904663e-03 4.101101756095886230e-01 -1.946147298440337181e-03
1.193164382129907608e-02 2.452358156442642212e-01 -3.612048923969268799e-02
4.269602708518505096e-03 1.882962286472320557e-01 4.005105700343847275e-03
1.941552758216857910e-02 1.575793027877807617e-01 -1.107884198427200317e-02
1.769031397998332977e-02 3.895657360553741455e-01 -2.819423563778400421e-02
2.613672241568565369e-02 3.645102679729461670e-01 1.203143037855625153e-02
6.826127879321575165e-03 2.125892341136932373e-01 -2.496537752449512482e-02
4.790731705725193024e-03 1.842092871665954590e-01 9.391707368195056915e-03
2.757375687360763550e-02 3.307356536388397217e-01 3.193331649526953697e-03
2.625200897455215454e-03 2.265171557664871216e-01 -2.347610425204038620e-04
7.904779165983200073e-03 1.563003808259963989e-01 -8.447766304016113281e-03
2.205323427915573120e-02 1.606793254613876343e-01 5.863640457391738892e-03
2.712227776646614075e-02 3.477577269077301025e-01 5.451378412544727325e-03
2.563991770148277283e-02 2.053869962692260742e-01 4.842858761548995972e-03
2.545032277703285217e-02 2.043665796518325806e-01 1.185457594692707062e-02
2.681929618120193481e-02 3.543072044849395752e-01 8.149876259267330170e-03
6.361648440361022949e-03 3.300700783729553223e-01 -2.764944173395633698e-02
6.491332314908504486e-03 1.601314246654510498e-01 2.062271581962704659e-03
2.340150065720081329e-02 3.657832741737365723e-01 2.648142352700233459e-02
3.078040666878223419e-03 3.055223524570465088e-01 1.297773793339729309e-02
4.593122750520706177e-03 2.561541795730590820e-01 2.428696490824222565e-02
2.042947337031364441e-03 2.845695316791534424e-01 -3.034977708011865616e-04
2.515665069222450256e-02 3.878627121448516846e-01 1.135687576606869698e-03
1.753773167729377747e-02 1.997743397951126099e-01 3.730852529406547546e-02
1.908396929502487183e-02 3.148828744888305664e-01 4.057235270738601685e-02
1.936677843332290649e-02 1.792824864387512207e-01 -2.015374042093753815e-02
1.110132038593292236e-02 1.758881062269210815e-01 3.079897910356521606e-02
5.477597936987876892e-03 2.057053744792938232e-01 2.222221158444881439e-02
2.360731363296508789e-02 2.113105058670043945e-01 -1.616859063506126404e-02
1.581506058573722839e-02 2.596599757671356201e-01 -3.717622160911560059e-02
6.542528048157691956e-03 1.654564291238784790e-01 1.227012556046247482e-02
5.771780386567115784e-03 3.829339146614074707e-01 3.596668131649494171e-03
2.547296509146690369e-02 2.954603135585784912e-01 -1.940555684268474579e-02
1.832192391157150269e-02 2.113568186759948730e-01 -2.947582863271236420e-02
1.410688273608684540e-02 2.356227636337280273e-01 4.167373105883598328e-02
1.360607054084539413e-02 2.978544235229492188e-01 -3.864417597651481628e-02
1.137593016028404236e-02 1.490073800086975098e-01 -1.377320196479558945e-02
1.643948256969451904e-02 3.492424488067626953e-01 -3.544801473617553711e-02
1.823930256068706512e-02 3.822700381278991699e-01 -2.919090725481510162e-02
2.722698822617530823e-02 2.620781064033508301e-01 1.581729017198085785e-02
1.389710325747728348e-02 3.606576323509216309e-01 -3.453638032078742981e-02
8.296402171254158020e-03 1.648465991020202637e-01 2.098733931779861450e-02
1.107337512075901031e-02 3.784233331680297852e-01 2.853863500058650970e-02
3.017406910657882690e-03 2.342896163463592529e-01 1.226831134408712387e-02
4.795067943632602692e-03 2.274488657712936401e-01 -2.084185555577278137e-02
7.759711705148220062e-03 1.497738212347030640e-01 4.593271762132644653e-03
6.827417761087417603e-03 3.734366893768310547e-01 1.751170121133327484e-02
2.769093960523605347e-02 2.659890949726104736e-01 8.008043281733989716e-03
2.183495461940765381e-02 1.798552274703979492e-01 2.470441535115242004e-02
2.123697102069854736e-02 1.794268190860748291e-01 -1.499788183718919754e-02
6.731315515935420990e-03 3.609013259410858154e-01 -2.349044010043144226e-02
1.308673061430454254e-02 1.839814782142639160e-01 3.460973128676414490e-02
1.744963228702545166e-02 3.108184039592742920e-01 -3.713516518473625183e-02
7.948102429509162903e-03 3.751396238803863525e-01 -2.385384216904640198e-02
3.746518865227699280e-03 2.909258008003234863e-01 1.943220756947994232e-02
1.297354698181152344e-02 3.700252175331115723e-01 3.302213177084922791e-02
5.268335342407226562e-03 3.579143881797790527e-01 -1.755760610103607178e-02
7.395491935312747955e-03 3.184726834297180176e-01 3.106750175356864929e-02
3.207946196198463440e-03 2.414348423480987549e-01 1.516859605908393860e-02
1.274893432855606079e-02 2.877244949340820312e-01 4.178496077656745911e-02
2.663110382854938507e-03 3.172224462032318115e-01 4.316475708037614822e-03
3.640549257397651672e-03 3.423775732517242432e-01 6.827179342508316040e-03
1.117843389511108398e-02 4.173354506492614746e-01 1.347535010427236557e-02
2.616708166897296906e-02 2.367507219314575195e-01 -8.310107514262199402e-03
4.967312328517436981e-03 2.159714102745056152e-01 -1.933247223496437073e-02
2.605405449867248535e-02 2.555306255817413330e-01 -1.325363200157880783e-02
6.027177907526493073e-03 2.546384632587432861e-01 2.968387492001056671e-02
7.098255679011344910e-03 3.873620033264160156e-01 -1.584609411656856537e-02
1.224703062325716019e-02 3.528883755207061768e-01 -3.483018651604652405e-02
4.162279888987541199e-03 3.595196604728698730e-01 6.969375535845756531e-04
2.187446318566799164e-02 3.545092642307281494e-01 -2.746254578232765198e-02
2.335291355848312378e-03 2.411985248327255249e-01 3.536428790539503098e-03
4.802512936294078827e-03 1.804195940494537354e-01 5.077420268207788467e-03
1.133413426578044891e-02 3.100942671298980713e-01 -3.743143752217292786e-02
2.386637963354587555e-03 2.959423959255218506e-01 6.866668350994586945e-03
2.110585942864418030e-02 1.568638533353805542e-01 1.448692008852958679e-02
2.393512800335884094e-02 1.801993697881698608e-01 8.147089742124080658e-03
1.052059233188629150e-02 3.633045554161071777e-01 3.101344034075737000e-02
2.774126455187797546e-02 3.209586441516876221e-01 2.958047203719615936e-03
3.252059221267700195e-03 3.140559792518615723e-01 1.280353683978319168e-02
5.239763297140598297e-03 3.211005330085754395e-01 -2.484122104942798615e-02
5.505030974745750427e-03 3.528585731983184814e-01 -2.033627405762672424e-02
2.621478959918022156e-02 2.174065113067626953e-01 9.259172715246677399e-03
2.541504800319671631e-02 2.338086664676666260e-01 2.416261099278926849e-02
2.171972580254077911e-02 3.852626681327819824e-01 -2.207766473293304443e-02
1.684308238327503204e-02 3.197634518146514893e-01 -3.728838637471199036e-02
7.370418868958950043e-03 3.656552433967590332e-01 2.229252643883228302e-02
2.628061920404434204e-02 2.196570038795471191e-01 1.965939998626708984e-03
2.908655442297458649e-03 3.280885815620422363e-01 -5.577243864536285400e-03
2.562227845191955566e-02 3.351683616638183594e-01 -1.664622314274311066e-02
2.696266770362854004e-02 2.388679683208465576e-01 1.128583308309316635e-02
1.858434453606605530e-02 1.488896012306213379e-01 -8.416462689638137817e-03
2.331082336604595184e-02 1.906407624483108521e-01 -1.043440867215394974e-02
6.430052220821380615e-03 3.178160786628723145e-01 -2.905803732573986053e-02
1.045165210962295532e-02 1.448310166597366333e-01 -9.519112296402454376e-03
1.218186412006616592e-02 2.428013086318969727e-01 4.086985066533088684e-02
8.846269920468330383e-03 2.081950157880783081e-01 -2.836466580629348755e-02
2.656073495745658875e-02 2.336095422506332397e-01 -3.121183020994067192e-03
2.555446885526180267e-02 3.621245324611663818e-01 -1.162952836602926254e-02
1.214932184666395187e-02 3.804186284542083740e-01 -3.027905710041522980e-02
3.436649218201637268e-03 3.245496451854705811e-01 1.179428305476903915e-02
5.323769524693489075e-03 1.778688430786132812e-01 1.056544203311204910e-02
2.063531801104545593e-02 1.682891547679901123e-01 2.407807856798171997e-02
1.106933783739805222e-02 1.336736083030700684e-01 2.663286402821540833e-03
1.724828965961933136e-02 1.619301438331604004e-01 2.837995253503322601e-02
3.868851810693740845e-03 3.516192436218261719e-01 3.712320700287818909e-03
5.192648619413375854e-03 1.744356006383895874e-01 2.741418778896331787e-03
1.546160876750946045e-02 2.156034559011459351e-01 -3.271697461605072021e-02
1.121570728719234467e-02 1.391154229640960693e-01 -6.758544594049453735e-03
7.659085560590028763e-03 3.804566860198974609e-01 -2.124652825295925140e-02
4.142471589148044586e-03 2.436526864767074585e-01 -2.030636370182037354e-02
1.399722602218389511e-02 4.369487762451171875e-01 -8.206092752516269684e-04
5.405108444392681122e-03 3.683201074600219727e-01 1.103407051414251328e-02
3.291422501206398010e-03 3.409553468227386475e-01 -2.596693346276879311e-03
2.590916119515895844e-03 2.456995695829391479e-01 9.744659066200256348e-03
2.440579980611801147e-02 1.860574781894683838e-01 6.946014240384101868e-03
2.603653073310852051e-02 2.193898260593414307e-01 1.453881058841943741e-02
3.835463896393775940e-03 3.371563851833343506e-01 -1.410571951419115067e-02
4.846064373850822449e-03 1.919722855091094971e-01 1.443587336689233780e-02
5.971519276499748230e-03 3.841620087623596191e-01 -8.830142207443714142e-03
8.152574300765991211e-03 1.782110780477523804e-01 2.518938854336738586e-02
1.106516830623149872e-02 2.333461791276931763e-01 -3.443552926182746887e-02
3.630511462688446045e-03 2.777450084686279297e-01 1.946786604821681976e-02
3.595808520913124084e-03 2.193767875432968140e-01 -1.220663916319608688e-02
2.661209180951118469e-02 3.090976178646087646e-01 -1.300826761871576309e-02
3.287376835942268372e-03 2.157448828220367432e-01 9.504960849881172180e-03
1.254520751535892487e-02 1.697420924901962280e-01 3.085792064666748047e-02
2.375803515315055847e-02 2.513854503631591797e-01 -2.309109456837177277e-02
2.308523282408714294e-02 1.714067310094833374e-01 1.041748002171516418e-02
2.163084037601947784e-02 2.460840493440628052e-01 -2.845910377800464630e-02
2.778569981455802917e-02 3.011011779308319092e-01 -1.119791297242045403e-03
2.652266249060630798e-02 2.966415286064147949e-01 2.321881800889968872e-02
1.968864724040031433e-02 1.443321257829666138e-01 4.550768062472343445e-03
1.044551841914653778e-02 3.566094934940338135e-01 3.218118101358413696e-02
2.491315081715583801e-02 3.525452911853790283e-01 2.401297725737094879e-02
2.409081533551216125e-02 1.843187212944030762e-01 1.235863380134105682e-02
7.992561906576156616e-03 1.925556361675262451e-01 -2.343129180371761322e-02
1.241506449878215790e-02 1.550947129726409912e-01 2.601337246596813202e-02
4.753341898322105408e-03 3.597292900085449219e-01 9.885812178254127502e-03
2.021589130163192749e-02 4.285011291503906250e-01 4.979449324309825897e-03
1.951736211776733398e-02 4.224424958229064941e-01 1.443093083798885345e-02
2.836106345057487488e-03 2.567010819911956787e-01 1.359218638390302658e-02
2.552019432187080383e-02 3.823660612106323242e-01 1.188902533613145351e-03
1.145850587636232376e-02 3.509973287582397461e-01 3.471479564905166626e-02
2.343490719795227051e-03 2.529767751693725586e-01 -7.588066160678863525e-03
2.535170689225196838e-02 2.377585172653198242e-01 -1.405338291078805923e-02
2.290288358926773071e-02 2.786473631858825684e-01 -2.785859629511833191e-02
2.091027237474918365e-02 3.399832546710968018e-01 3.617167845368385315e-02
5.378963425755500793e-03 3.766272366046905518e-01 -8.347426541149616241e-03
5.933132022619247437e-03 1.792624294757843018e-01 -1.178946346044540405e-02
1.213763467967510223e-02 1.546407043933868408e-01 -1.723580621182918549e-02
2.547352388501167297e-02 2.760230898857116699e-01 -1.861800067126750946e-02
1.100460439920425415e-02 2.305450141429901123e-01 3.885532170534133911e-02
9.091845713555812836e-03 2.944254279136657715e-01 -3.539197519421577454e-02
1.714765094220638275e-02 1.410444229841232300e-01 1.791824400424957275e-02
2.166539430618286133e-02 2.572788894176483154e-01 3.819068521261215210e-02
2.472494915127754211e-02 2.214335203170776367e-01 -1.352225709706544876e-02
2.268676273524761200e-02 1.824221163988113403e-01 -1.002237480133771896e-02
4.738978110253810883e-03 1.876082420349121094e-01 -7.684063166379928589e-03
-2.359054051339626312e-02 -3.302939832210540771e-01 -1.025776341557502747e-01
-1.861031353473663330e-02 -2.021015584468841553e-01 -2.809042111039161682e-02
-8.662675507366657257e-03 -3.748942911624908447e-01 1.251147687435150146e-01
3.221514075994491577e-02 -3.406696915626525879e-01 2.029476128518581390e-02
2.573373727500438690e-02 -3.694070577621459961e-01 -1.805786043405532837e-02
-4.472144413739442825e-03 -2.700435519218444824e-01 -1.459755599498748779e-01
9.221425279974937439e-03 -3.384027481079101562e-01 -1.306618601083755493e-01
-2.587291412055492401e-02 -3.124610185623168945e-01 -1.021246835589408875e-01
2.399386651813983917e-02 -3.172715306282043457e-01 9.601323306560516357e-02
3.117297962307929993e-02 -2.172508835792541504e-01 -2.303821407258510590e-02
3.730585426092147827e-02 -3.120788335800170898e-01 -5.260966718196868896e-03
-1.059046946465969086e-02 -1.959732472896575928e-01 3.943713009357452393e-02
-2.787476219236850739e-02 -2.701216936111450195e-01 1.167677044868469238e-01
2.183769643306732178e-02 -3.415727913379669189e-01 9.127413481473922729e-02
-3.344991803169250488e-02 -3.797378838062286377e-01 4.928062856197357178e-02
-3.915825858712196350e-02 -2.662481963634490967e-01 2.193550951778888702e-02
-1.835048198699951172e-02 -2.040147781372070312e-01 -4.088018089532852173e-02
-2.133544348180294037e-02 -3.844993114471435547e-01 1.038441807031631470e-01
-3.668593615293502808e-02 -2.525028288364410400e-01 2.605708688497543335e-02
-3.127750381827354431e-02 -3.603169620037078857e-01 1.057924628257751465e-01
-3.582579642534255981e-02 -2.512575984001159668e-01 4.187159985303878784e-02
-2.947983890771865845e-02 -3.866244256496429443e-01 6.647786498069763184e-02
-2.600796334445476532e-02 -2.342413365840911865e-01 -6.674542278051376343e-02
-1.778162457048892975e-02 -4.071677625179290771e-01 1.615950465202331543e-02
1.187534816563129425e-02 -3.979187607765197754e-01 -6.467055995017290115e-03
-4.050783067941665649e-02 -3.266683220863342285e-01 7.220271229743957520e-02
3.364622965455055237e-02 -2.532633543014526367e-01 -9.137252718210220337e-02
-3.131728246808052063e-02 -3.214700818061828613e-01 1.242510080337524414e-01
6.449342472478747368e-04 -1.829897761344909668e-01 -9.309089742600917816e-03
8.098586462438106537e-03 -3.172838687896728516e-01 1.386169493198394775e-01
-2.219659835100173950e-02 -4.017803668975830078e-01 4.997190460562705994e-02
2.721989341080188751e-02 -2.057940810918807983e-01 -3.788106516003608704e-02
1.307344902306795120e-02 -3.235367536544799805e-01 1.274724304676055908e-01
-3.148179501295089722e-02 -2.859050035476684570e-01 1.154021322727203369e-01
-1.049941405653953552e-02 -2.382378280162811279e-01 -1.232759281992912292e-01
1.969826966524124146e-02 -2.998496890068054199e-01 1.135828346014022827e-01
-3.337071090936660767e-02 -3.190989792346954346e-01 -6.984008848667144775e-02
3.845283761620521545e-02 -2.988880276679992676e-01 -1.324310060590505600e-02
-3.923651948571205139e-02 -3.497310876846313477e-01 6.338428705930709839e-02
-8.634409867227077484e-03 -4.081452786922454834e-01 5.637192726135253906e-02
3.303755819797515869e-02 -2.665592730045318604e-01 4.916692897677421570e-02
3.380697965621948242e-02 -3.004049658775329590e-01 -9.087082743644714355e-02
3.748152032494544983e-02 -2.622310221195220947e-01 3.407170064747333527e-03
2.246842533349990845e-02 -3.681667149066925049e-01 -5.997205525636672974e-02
3.740361705422401428e-02 -2.778116464614868164e-01 1.512292865663766861e-02
-3.688659146428108215e-02 -3.282880187034606934e-01 -4.516584798693656921e-02
3.081041201949119568e-02 -2.253287434577941895e-01 1.556298509240150452e-02
-1.449594274163246155e-02 -2.267727702856063843e-01 -1.033387705683708191e-01
-3.456922620534896851e-02 -3.689317703247070312e-01 7.461779564619064331e-02
1.042329706251621246e-02 -1.931306719779968262e-01 3.507073968648910522e-02
3.424700349569320679e-02 -2.461941838264465332e-01 -8.095759153366088867e-02
-2.015005331486463547e-03 -3.689917623996734619e-01 -1.038972362875938416e-01
-1.820151321589946747e-02 -2.177406400442123413e-01 -7.788953185081481934e-02
-3.723748028278350830e-03 -2.286252230405807495e-01 -1.264052540063858032e-01
2.161326073110103607e-02 -3.678204119205474854e-01 5.843400210142135620e-02
-4.005162045359611511e-02 -2.933962643146514893e-01 -2.145485766232013702e-02
3.756272792816162109e-02 -3.023323714733123779e-01 6.028268951922655106e-03
-2.796559967100620270e-02 -2.806296348571777344e-01 -9.429407119750976562e-02
-1.184082310646772385e-02 -2.149929106235504150e-01 -9.534430503845214844e-02
2.242850139737129211e-02 -2.618065476417541504e-01 9.558707475662231445e-02
-4.150021076202392578e-02 -3.317885994911193848e-01 7.773980963975191116e-03
2.010332606732845306e-02 -2.526329755783081055e-01 9.723565727472305298e-02
5.953979678452014923e-03 -1.880782544612884521e-01 2.519471570849418640e-02
5.653839558362960815e-03 -1.828844696283340454e-01 -3.285065665841102600e-02
2.007059752941131592e-02 -3.236401379108428955e-01 -1.264244019985198975e-01
2.733632922172546387e-02 -3.474779725074768066e-01 5.531546100974082947e-02
-3.747934103012084961e-02 -2.712016999721527100e-01 -3.055181354284286499e-02
1.889619976282119751e-02 -2.225472778081893921e-01 7.129129022359848022e-02
7.426597643643617630e-03 -2.293343394994735718e-01 -1.337364464998245239e-01
3.712290897965431213e-02 -3.162400424480438232e-01 -2.117265760898590088e-02
-1.153143774718046188e-02 -1.923944354057312012e-01 -3.403513506054878235e-02
7.361807394772768021e-03 -3.988345861434936523e-01 5.310746282339096069e-02
-3.835395444184541702e-03 -2.041021287441253662e-01 -9.562651067972183228e-02
2.973417565226554871e-02 -3.181318342685699463e-01 -1.001335531473159790e-01
3.471883386373519897e-02 -3.056333661079406738e-01 -8.085465431213378906e-02
-3.778013214468955994e-02 -3.641828894615173340e-01 4.009592533111572266e-02
3.394594416022300720e-02 -2.893358469009399414e-01 4.891534894704818726e-02
-1.043055020272731781e-02 -4.106843769550323486e-01 1.014988403767347336e-02
3.868416417390108109e-03 -4.048548340797424316e-01 -1.564025133848190308e-02
-4.125903360545635223e-03 -1.983921527862548828e-01 -8.359255641698837280e-02
-2.184206619858741760e-02 -2.279743552207946777e-01 -7.851065695285797119e-02
-2.054251544177532196e-02 -2.291841506958007812e-01 9.047958999872207642e-02
-4.242160171270370483e-02 -3.098904192447662354e-01 1.542665623128414154e-02
2.220284193754196167e-02 -1.989261507987976074e-01 -6.082563474774360657e-02
-3.672518953680992126e-02 -2.936597466468811035e-01 -5.162648856639862061e-02
-3.129987418651580811e-02 -2.330566346645355225e-01 -1.732488907873630524e-02
-2.013436704874038696e-02 -3.976425230503082275e-01 -2.409168146550655365e-02
3.718820959329605103e-02 -2.552169263362884521e-01 -5.848926305770874023e-02
-2.878942713141441345e-02 -3.899838626384735107e-01 4.225316923111677170e-03
2.724924869835376740e-02 -2.777279913425445557e-01 8.402535319328308105e-02
3.267064318060874939e-02 -2.975668311119079590e-01 5.705103650689125061e-02
-1.795017905533313751e-02 -3.867100477218627930e-01 -5.788044258952140808e-02
-2.817831374704837799e-02 -2.535979151725769043e-01 -7.833983004093170166e-02
2.766868844628334045e-02 -3.530955910682678223e-01 -6.201390922069549561e-02
2.371800318360328674e-02 -3.303959667682647705e-01 -1.120726466178894043e-01
-2.878281474113464355e-02 -2.226169854402542114e-01 8.625512942671775818e-03
4.106643609702587128e-03 -3.996077179908752441e-01 -3.993918374180793762e-02
-4.113940522074699402e-02 -3.417551517486572266e-01 2.445641905069351196e-02
3.730988875031471252e-02 -3.132417798042297363e-01 -3.346816077828407288e-02
1.880486682057380676e-02 -1.911676824092864990e-01 -3.796758130192756653e-02
-3.893840685486793518e-02 -3.040631711483001709e-01 8.578487485647201538e-02
3.577091172337532043e-02 -2.464135587215423584e-01 -6.581185758113861084e-02
-3.061976656317710876e-02 -3.783162236213684082e-01 8.208651840686798096e-02
-2.691605128347873688e-02 -2.227220237255096436e-01 4.478004947304725647e-02
3.111828491091728210e-02 -2.290318310260772705e-01 -8.116587251424789429e-02
-4.128174856305122375e-02 -2.846503555774688721e-01 1.629582047462463379e-02
-3.521573543548583984e-02 -2.483728677034378052e-01 -1.221348997205495834e-02
1.149320229887962341e-02 -3.261539340019226074e-01 -1.370957940816879272e-01
-3.712606430053710938e-02 -3.271701335906982422e-01 9.859759360551834106e-02
3.898646309971809387e-02 -2.741278111934661865e-01 -3.274378180503845215e-02
-4.415982402861118317e-04 -2.114314734935760498e-01 8.574587851762771606e-02
4.708021413534879684e-03 -3.850845098495483398e-01 9.583994001150131226e-02
-3.201160952448844910e-02 -2.736436724662780762e-01 -7.270685583353042603e-02
-2.970759756863117218e-02 -2.523786127567291260e-01 -6.897671520709991455e-02
3.180432692170143127e-02 -2.969421744346618652e-01 -1.037063077092170715e-01
1.324163656681776047e-02 -2.018192708492279053e-01 5.109706148505210876e-02
3.536852076649665833e-02 -2.717787623405456543e-01 -8.704496175050735474e-02
-7.312130648642778397e-03 -3.796771764755249023e-01 -8.669078350067138672e-02
8.900574408471584320e-03 -3.640300929546356201e-01 1.130436584353446960e-01
-1.350646093487739563e-02 -2.335638105869293213e-01 1.099770143628120422e-01
-7.882237434387207031e-03 -2.256681919097900391e-01 1.050496250391006470e-01
3.056744486093521118e-02 -2.732914388179779053e-01 6.679790467023849487e-02
-2.285361103713512421e-02 -2.238712012767791748e-01 7.264836877584457397e-02
4.372518742457032204e-04 -1.912016421556472778e-01 3.969825059175491333e-02
-3.183347731828689575e-02 -3.662002384662628174e-01 -3.712103888392448425e-02
2.473084256052970886e-03 -3.333426713943481445e-01 1.429677158594131470e-01
2.941674366593360901e-02 -3.573273420333862305e-01 -2.163501642644405365e-02
3.436513990163803101e-02 -3.259222805500030518e-01 2.218687720596790314e-02
1.276877336204051971e-02 -2.624919116497039795e-01 1.205805987119674683e-01
-1.203506253659725189e-02 -1.996380090713500977e-01 -6.272076815366744995e-02
3.011732175946235657e-02 -3.484379649162292480e-01 -5.165029317140579224e-02
-3.686169907450675964e-02 -3.161965012550354004e-01 1.012850627303123474e-01
-3.240639343857765198e-02 -3.653673827648162842e-01 9.479844570159912109e-02
2.195790410041809082e-02 -2.002603113651275635e-01 1.070120558142662048e-02
2.606831304728984833e-02 -3.629200160503387451e-01 3.362228721380233765e-02
2.350739389657974243e-02 -2.041265964508056641e-01 -7.208254933357238770e-02
-2.681231498718261719e-02 -2.197073698043823242e-01 3.206803649663925171e-02
2.217769995331764221e-02 -3.787154555320739746e-01 -1.639137044548988342e-02
1.371826627291738987e-03 -3.620173037052154541e-01 1.286745369434356689e-01
-3.907561302185058594e-02 -3.569599986076354980e-01 2.297363989055156708e-02
-3.385759517550468445e-02 -2.803430855274200439e-01 -6.551030278205871582e-02
3.561449050903320312e-02 -2.831467986106872559e-01 -8.506415784358978271e-02
3.308142721652984619e-02 -2.532398700714111328e-01 3.932283446192741394e-02
1.667294651269912720e-02 -2.307443320751190186e-01 8.743816614151000977e-02
2.825530059635639191e-02 -3.140515089035034180e-01 -1.094842180609703064e-01
-3.389586135745048523e-02 -2.419693470001220703e-01 3.598682582378387451e-02
-3.393230587244033813e-02 -3.746961653232574463e-01 6.529280543327331543e-02
-3.923953324556350708e-02 -3.341189920902252197e-01 -2.162389457225799561e-02
5.958784837275743484e-03 -2.402898073196411133e-01 -1.410929560661315918e-01
-3.073073457926511765e-03 -3.894098699092864990e-01 1.021481528878211975e-01
-3.792384266853332520e-02 -2.720007300376892090e-01 6.577226519584655762e-02
2.505537867546081543e-02 -3.072211742401123047e-01 9.437533468008041382e-02
3.205040097236633301e-02 -2.564501762390136719e-01 4.900763556361198425e-02
3.355232533067464828e-03 -3.508896231651306152e-01 1.337178647518157959e-01
3.356147930026054382e-02 -2.275204658508300781e-01 -1.531338039785623550e-02
5.443150177597999573e-03 -3.790336251258850098e-01 1.034037396311759949e-01
-2.340418286621570587e-02 -3.409680426120758057e-01 1.382109671831130981e-01
-3.157071396708488464e-02 -2.322304099798202515e-01 2.610098011791706085e-02
-3.981895372271537781e-02 -2.765290439128875732e-01 4.869572818279266357e-02
-3.703472763299942017e-02 -2.634529471397399902e-01 -2.409675531089305878e-02
-2.826307155191898346e-02 -2.302792072296142578e-01 -4.348447918891906738e-02
-4.033423215150833130e-02 -3.450964093208312988e-01 9.567215107381343842e-03
1.551757752895355225e-02 -2.712627649307250977e-01 1.188206821680068970e-01
-3.423415496945381165e-02 -3.783500790596008301e-01 3.630716353654861450e-02
-3.859941288828849792e-02 -3.495486080646514893e-01 -8.697827346622943878e-03
2.854909189045429230e-02 -3.029856681823730469e-01 -1.147333085536956787e-01
1.602183096110820770e-02 -1.878587007522583008e-01 -2.691439539194107056e-02
-1.414078380912542343e-02 -4.044982492923736572e-01 -1.980093494057655334e-02
-2.204873412847518921e-02 -2.342457473278045654e-01 -8.602573722600936890e-02
9.612587280571460724e-03 -1.851121634244918823e-01 1.010955427773296833e-03
3.725180029869079590e-02 -2.481974959373474121e-01 -3.537608683109283447e-02
-4.005719721317291260e-02 -2.922738194465637207e-01 6.857877969741821289e-02
3.792629390954971313e-02 -2.928987741470336914e-01 -5.662292242050170898e-02
-3.083542734384536743e-02 -3.433212339878082275e-01 -6.840046495199203491e-02
-3.705377504229545593e-02 -3.570217192173004150e-01 7.546519488096237183e-02
-3.833440318703651428e-02 -2.861140072345733643e-01 7.929250597953796387e-02
2.977968379855155945e-02 -2.136310636997222900e-01 -4.843839630484580994e-02
-3.986819833517074585e-02 -2.825381755828857422e-01 5.930709838867187500e-02
1.814080402255058289e-02 -3.158961534500122070e-01 1.162917315959930420e-01
1.389551907777786255e-02 -2.518862485885620117e-01 1.120366603136062622e-01
-2.886660397052764893e-02 -2.592147886753082275e-01 1.036057025194168091e-01
3.034117445349693298e-02 -2.999287247657775879e-01 7.074204087257385254e-02
8.396016201004385948e-04 -3.202788531780242920e-01 -1.430281400680541992e-01
4.010592121630907059e-03 -2.243795841932296753e-01 1.013873815536499023e-01
2.779323235154151917e-02 -2.240965217351913452e-01 -9.295974671840667725e-02
3.125355392694473267e-02 -3.470879495143890381e-01 -4.102311655879020691e-02
1.333294901996850967e-02 -3.934876620769500732e-01 3.723694011569023132e-02
-3.833880275487899780e-02 -3.306005299091339111e-01 -3.267049789428710938e-02
3.238956257700920105e-02 -3.237252235412597656e-01 4.541565850377082825e-02
-4.177976399660110474e-02 -3.108839988708496094e-01 5.709772929549217224e-02
2.654423937201499939e-02 -3.168567121028900146e-01 8.520144224166870117e-02
3.781863674521446228e-02 -2.646297514438629150e-01 -5.852269381284713745e-02
-2.953151706606149673e-03 -4.101847410202026367e-01 3.224893286824226379e-02
-1.808943785727024078e-02 -3.228814005851745605e-01 -1.196528896689414978e-01
1.527623087167739868e-02 -3.846627473831176758e-01 -5.132520571351051331e-02
2.673722803592681885e-03 -2.096293866634368896e-01 -1.116965040564537048e-01
1.568865031003952026e-02 -3.142731189727783203e-01 -1.389207839965820312e-01
-4.724763799458742142e-03 -2.196967303752899170e-01 9.823876619338989258e-02
3.033242374658584595e-02 -2.566019296646118164e-01 5.922042205929756165e-02
-2.762950584292411804e-02 -2.307328134775161743e-01 6.371767818927764893e-02
-4.086984321475028992e-02 -3.415668308734893799e-01 5.034543946385383606e-02
-3.852992877364158630e-02 -2.803453505039215088e-01 7.148852944374084473e-02
2.591762691736221313e-03 -2.346187829971313477e-01 1.137224063277244568e-01
-1.150858029723167419e-02 -2.804684638977050781e-01 -1.381558477878570557e-01
1.648750901222229004e-02 -3.323802053928375244e-01 -1.267718523740768433e-01
3.886945545673370361e-02 -2.921559214591979980e-01 -2.330682240426540375e-02
-3.406314924359321594e-02 -2.406273484230041504e-01 2.082153223454952240e-02
-1.124585140496492386e-02 -3.339286446571350098e-01 1.503434628248214722e-01
-3.325885534286499023e-02 -2.488460242748260498e-01 6.490029394626617432e-02
-2.102009952068328857e-03 -2.934350073337554932e-01 1.493865847587585449e-01
-4.224050045013427734e-02 -3.002988100051879883e-01 1.662152819335460663e-02
3.023136779665946960e-02 -2.886793315410614014e-01 7.180950790643692017e-02
-3.043577633798122406e-02 -3.106951713562011719e-01 1.267455816268920898e-01
2.503836154937744141e-02 -2.706673741340637207e-01 9.052750468254089355e-02
1.054673362523317337e-02 -2.048905789852142334e-01 6.333884596824645996e-02
1.587107591331005096e-02 -3.285236060619354248e-01 1.188185662031173706e-01
-1.409647706896066666e-02 -3.503309786319732666e-01 -1.108557954430580139e-01
-2.913906984031200409e-02 -3.020576536655426025e-01 -9.190102666616439819e-02
-2.693869546055793762e-02 -3.821933269500732422e-01 -3.389700129628181458e-02
-3.706922382116317749e-02 -2.805694639682769775e-01 -4.308407381176948547e-02
-3.364366944879293442e-03 -1.843135952949523926e-01 -1.882219314575195312e-02
3.673062846064567566e-02 -3.061335384845733643e-01 -6.039331853389739990e-02
-3.172240406274795532e-02 -3.008752763271331787e-01 1.207675784826278687e-01
9.274503216147422791e-03 -3.550439178943634033e-01 -1.155806630849838257e-01
3.554365038871765137e-02 -2.500268816947937012e-01 1.366690918803215027e-02
2.840299345552921295e-02 -2.086856365203857422e-01 -2.704529464244842529e-02
-1.426346134394407272e-02 -3.614552915096282959e-01 -1.004373505711555481e-01
3.164907917380332947e-02 -2.213047593832015991e-01 -5.622123554348945618e-02
3.325546905398368835e-02 -2.254138588905334473e-01 -4.320526868104934692e-02
4.590972792357206345e-03 -2.578100860118865967e-01 -1.485133022069931030e-01
3.558962047100067139e-02 -2.400361895561218262e-01 -5.496010184288024902e-02
-5.917178932577371597e-04 -3.570165038108825684e-01 -1.173511818051338196e-01
2.580196596682071686e-02 -2.263450324535369873e-01 4.991726949810981750e-02
3.054489195346832275e-02 -3.188701272010803223e-01 6.255909055471420288e-02
1.311771105974912643e-02 -2.170711457729339600e-01 7.853695005178451538e-02
2.988963574171066284e-02 -3.322003185749053955e-01 5.618789792060852051e-02
3.575012832880020142e-02 -2.712069153785705566e-01 3.039993718266487122e-02
-4.207077994942665100e-02 -2.952672839164733887e-01 3.027618676424026489e-02
-1.227726601064205170e-02 -3.272333443164825439e-01 -1.283441334962844849e-01
-1.419383566826581955e-02 -2.969342470169067383e-01 -1.335981935262680054e-01
-3.243105858564376831e-02 -3.031131029129028320e-01 -7.741443812847137451e-02
1.502611325122416019e-03 -3.910585045814514160e-01 -6.722966581583023071e-02
1.577853225171566010e-02 -3.909628689289093018e-01 -1.894134841859340668e-02
-3.345281630754470825e-02 -3.798747062683105469e-01 1.726998575031757355e-02
-1.542855612933635712e-02 -2.081200182437896729e-01 -7.030297070741653442e-02
-2.537475526332855225e-02 -2.597003877162933350e-01 1.150637790560722351e-01
-3.289242088794708252e-02 -2.414457052946090698e-01 -2.502288110554218292e-02
-7.677844725549221039e-03 -2.898580431938171387e-01 -1.438802182674407959e-01
-2.447563037276268005e-02 -3.561946749687194824e-01 1.283752620220184326e-01
-3.095643408596515656e-02 -2.530882358551025391e-01 8.704366534948348999e-02
-9.560811333358287811e-03 -3.840118050575256348e-01 -7.767793536186218262e-02
-5.195347592234611511e-03 -3.822106719017028809e-01 1.148185953497886658e-01
-2.437289804220199585e-02 -2.116727381944656372e-01 1.062339358031749725e-02
2.104146778583526611e-02 -2.537015974521636963e-01 -1.354523301124572754e-01
-7.536756806075572968e-03 -4.095345735549926758e-01 -6.055873353034257889e-03
2.415700629353523254e-02 -3.325377106666564941e-01 8.782553672790527344e-02
3.721864148974418640e-02 -2.863641679286956787e-01 -6.952428072690963745e-02
-4.058035090565681458e-02 -3.227038681507110596e-01 -1.527610328048467636e-02
2.091192826628684998e-02 -3.043760359287261963e-01 -1.347977370023727417e-01
-3.887921944260597229e-02 -3.195949494838714600e-01 8.840385079383850098e-02
3.761111199855804443e-02 -2.537537217140197754e-01 -4.617337137460708618e-02
-2.302356064319610596e-02 -3.892809748649597168e-01 9.082151949405670166e-02
-2.498926781117916107e-02 -2.802314162254333496e-01 1.305630356073379517e-01
-1.711441949009895325e-02 -1.987028419971466064e-01 1.235524658113718033e-02
1.222352776676416397e-02 -3.058937191963195801e-01 -1.457898020744323730e-01
2.075945958495140076e-02 -3.594892919063568115e-01 -8.589301258325576782e-02
-1.165594253689050674e-02 -2.283957004547119141e-01 -1.122947931289672852e-01
2.330583520233631134e-02 -2.280492186546325684e-01 -1.139549538493156433e-01
3.682637959718704224e-02 -2.510615587234497070e-01 -2.932107076048851013e-03
-3.409744426608085632e-02 -2.847716212272644043e-01 1.040365919470787048e-01
-4.147158935666084290e-03 -2.544798851013183594e-01 -1.417925059795379639e-01
2.514662779867649078e-02 -2.864498496055603027e-01 -1.301375329494476318e-01
-3.185546956956386566e-03 -1.922373771667480469e-01 -6.922584772109985352e-02
2.779392898082733154e-02 -3.528594374656677246e-01 4.213662818074226379e-02
2.551010809838771820e-02 -2.145949602127075195e-01 -8.756501227617263794e-02
-3.261770308017730713e-02 -2.733072936534881592e-01 1.020319983363151550e-01
1.727557182312011719e-02 -3.879585862159729004e-01 2.665792964398860931e-02
-3.559581190347671509e-02 -2.470007091760635376e-01 8.363394998013973236e-03
-3.843056783080101013e-02 -2.620589733123779297e-01 9.190115146338939667e-03
1.911750063300132751e-02 -3.644453883171081543e-01 7.807970792055130005e-02
-2.205057069659233093e-02 -2.548445761203765869e-01 -1.043558865785598755e-01
-2.002757415175437927e-02 -2.731924951076507568e-01 1.355943679809570312e-01
-2.794696576893329620e-02 -2.911336123943328857e-01 1.286278516054153442e-01
-4.177032783627510071e-02 -3.098901212215423584e-01 -1.767878304235637188e-03
3.692689910531044006e-02 -2.468019723892211914e-01 -1.792728342115879059e-02
