-2.560537159442901611e-01 -1.685508191585540771e-01 -1.341853886842727661e-01
-1.269733011722564697e-01 -3.755854815244674683e-02 2.551915943622589111e-01
-2.411991357803344727e-01 -1.171143352985382080e-01 -3.513768017292022705e-01
-1.113304495811462402e-01 -1.649421751499176025e-01 -1.338972598314285278e-01
-2.355363965034484863e-01 -1.036172360181808472e-01 3.179479241371154785e-01
-1.489770561456680298e-01 -1.102313399314880371e-02 -1.783641874790191650e-01
-2.348241955041885376e-01 -1.296956837177276611e-02 -1.212717741727828979e-01
-1.276591569185256958e-01 -7.213853299617767334e-03 -2.755244448781013489e-02
-2.626819908618927002e-01 -2.839054167270660400e-02 -9.442823380231857300e-02
-1.878651678562164307e-01 6.769001483917236328e-04 -8.528767526149749756e-02
-2.487741410732269287e-01 -3.902228176593780518e-02 1.974794715642929077e-01
-1.674519330263137817e-01 -1.875809133052825928e-01 -1.340007185935974121e-01
-2.901675105094909668e-01 -1.358992159366607666e-01 -3.640948608517646790e-02
-2.453976571559906006e-01 -1.791973561048507690e-01 -3.940427303314208984e-02
-2.483390718698501587e-01 -4.578266665339469910e-02 -2.711262106895446777e-01
-1.713946163654327393e-01 -1.861756443977355957e-01 1.157018691301345825e-01
-1.146611943840980530e-01 -3.248323500156402588e-02 2.035021930932998657e-01
-1.970902383327484131e-01 1.338690519332885742e-03 -3.697647154331207275e-02
-1.731330603361129761e-01 -2.922421693801879883e-02 2.740617990493774414e-01
-8.819884061813354492e-02 -3.700407966971397400e-02 -7.290900498628616333e-02
-2.934711277484893799e-01 -9.741481393575668335e-02 -1.546119004487991333e-01
-1.617576926946640015e-01 -1.895952224731445312e-02 2.272735685110092163e-01
-2.591042816638946533e-01 -8.060790598392486572e-02 -3.119786083698272705e-01
-2.679668664932250977e-01 -1.303175687789916992e-01 -2.610149383544921875e-01
-1.471318304538726807e-01 -1.509504914283752441e-01 2.796174287796020508e-01
-2.548529207706451416e-01 -9.133569896221160889e-02 -3.302170038223266602e-01
-1.901672631502151489e-01 -8.016387373208999634e-02 3.644780218601226807e-01
-2.686789929866790771e-01 -1.568864583969116211e-01 -1.467892229557037354e-01
-2.304147183895111084e-01 -7.261469960212707520e-03 -2.280279248952865601e-02
-1.545807868242263794e-01 -6.561850011348724365e-02 -3.693062663078308105e-01
-2.378945350646972656e-01 -4.264260455965995789e-02 2.428810149431228638e-01
-7.748314738273620605e-02 -5.176235735416412354e-02 7.326024770736694336e-02
-1.147150024771690369e-01 -1.694512367248535156e-02 -9.710454940795898438e-02
-1.028283089399337769e-01 -1.458540856838226318e-01 1.882400512695312500e-01
-8.016572892665863037e-02 -4.515473917126655579e-02 -4.129057377576828003e-02
-1.279975473880767822e-01 -1.740278303623199463e-01 -1.451305150985717773e-01
-2.089663892984390259e-01 -1.338323652744293213e-01 -3.686110079288482666e-01
-1.120916828513145447e-01 -1.490984857082366943e-02 -2.206188440322875977e-02
-2.874866425991058350e-01 -5.780454725027084351e-02 -9.019796550273895264e-02
-1.374863535165786743e-01 -1.653837412595748901e-01 -2.345529347658157349e-01
-1.726806908845901489e-01 -1.666021347045898438e-02 -2.410462200641632080e-01
-2.900206744670867920e-01 -9.712687879800796509e-02 -1.844061911106109619e-01
-7.025381177663803101e-02 -1.144672930240631104e-01 -7.955241203308105469e-02
-1.767026931047439575e-01 1.957908272743225098e-03 -5.975136905908584595e-02
-2.024880498647689819e-01 6.891414523124694824e-04 -1.704055443406105042e-02
-6.926373392343521118e-02 -1.096195429563522339e-01 8.270204067230224609e-02
-7.164798676967620850e-02 -9.149114042520523071e-02 -1.308264136314392090e-01
-2.439510822296142578e-01 -1.537555903196334839e-01 -2.690917551517486572e-01
-9.797527641057968140e-02 -2.528160810470581055e-02 3.691881895065307617e-02
-2.949962317943572998e-01 -1.236037611961364746e-01 -6.179425865411758423e-02
-1.202928721904754639e-01 -1.663261651992797852e-01 1.493022292852401733e-01
-2.727763354778289795e-01 -1.585147678852081299e-01 1.067404448986053467e-02
-2.604982554912567139e-01 -2.491565048694610596e-02 -5.680409818887710571e-02
-2.288706749677658081e-01 -4.890370741486549377e-02 2.799504697322845459e-01
-1.965151578187942505e-01 -1.506094634532928467e-02 -2.292589694261550903e-01
-1.141870394349098206e-01 -5.094451829791069031e-02 2.641009986400604248e-01
-2.675646841526031494e-01 -3.376744687557220459e-02 5.636475980281829834e-02
-2.238742113113403320e-01 -1.591455936431884766e-01 2.358560413122177124e-01
-1.740874201059341431e-01 -5.233903229236602783e-02 -3.603581190109252930e-01
-2.290887832641601562e-01 -1.211743131279945374e-01 3.153763711452484131e-01
-1.288418024778366089e-01 -1.778886318206787109e-01 7.979519665241241455e-02
-2.805708646774291992e-01 -1.022127419710159302e-01 1.768765151500701904e-01
-1.659405231475830078e-01 6.200894713401794434e-04 -7.799462229013442993e-02
-2.393242865800857544e-01 -7.964385300874710083e-02 -3.555285036563873291e-01
-1.045461595058441162e-01 -1.510949432849884033e-01 1.715122312307357788e-01
-2.394455969333648682e-01 -1.681209653615951538e-01 -2.145396918058395386e-01
-2.864194214344024658e-01 -1.418897360563278198e-01 -5.761789157986640930e-03
-2.808715105056762695e-01 -1.409099251031875610e-01 -1.541698873043060303e-01
-1.501672863960266113e-01 -1.681412756443023682e-01 2.160044759511947632e-01
-2.710050046443939209e-01 -3.882114216685295105e-02 -1.260013431310653687e-01
-2.149901092052459717e-01 -6.805400550365447998e-02 -3.747392594814300537e-01
-2.341478615999221802e-01 -1.837890446186065674e-01 5.883354693651199341e-03
-1.287957429885864258e-01 -1.215808093547821045e-01 -3.369898200035095215e-01
-2.296968400478363037e-01 -1.463455110788345337e-01 -3.204472661018371582e-01
-7.260944694280624390e-02 -1.164043247699737549e-01 1.020330935716629028e-01
-7.486856728792190552e-02 -5.655645579099655151e-02 -6.736445426940917969e-02
-2.112071961164474487e-01 -4.690451174974441528e-02 3.025954663753509521e-01
-1.321403533220291138e-01 -1.428455710411071777e-01 -3.038034737110137939e-01
-9.077598154544830322e-02 -1.507206112146377563e-01 7.746161520481109619e-02
-2.125557512044906616e-01 -8.700168132781982422e-02 -3.929016590118408203e-01
-1.528687477111816406e-01 -1.663289070129394531e-01 -2.608523070812225342e-01
-2.992210388183593750e-01 -9.935688972473144531e-02 -4.975683242082595825e-02
-8.573289215564727783e-02 -1.228945702314376831e-01 -1.896731406450271606e-01
-2.851506173610687256e-01 -7.384280115365982056e-02 -1.893811821937561035e-01
-2.610620856285095215e-01 -1.493348032236099243e-01 -2.304255366325378418e-01
-1.487104445695877075e-01 -3.262323886156082153e-02 -2.875921428203582764e-01
-1.012811660766601562e-01 -5.383247882127761841e-02 2.325600981712341309e-01
-2.858641147613525391e-01 -9.998324513435363770e-02 1.468123495578765869e-01
-9.593652188777923584e-02 -6.902895122766494751e-02 -2.472707033157348633e-01
-2.160740792751312256e-01 -1.387134939432144165e-02 -1.948901861906051636e-01
-9.445508569478988647e-02 -1.557182371616363525e-01 -7.596775144338607788e-02
-1.501761823892593384e-01 -7.275700569152832031e-03 -1.490048170089721680e-01
-1.430880725383758545e-01 -7.387630641460418701e-03 1.196570247411727905e-01
-2.623897790908813477e-01 -1.659652888774871826e-01 -1.089337170124053955e-01
-7.128555327653884888e-02 -7.967636734247207642e-02 -1.166240647435188293e-01
-1.780957132577896118e-01 7.145106792449951172e-06 -1.018267944455146790e-01
-1.366447955369949341e-01 -1.810430884361267090e-01 -1.099917590618133545e-01
-1.285920143127441406e-01 -1.804670095443725586e-01 2.483811788260936737e-02
-2.869418859481811523e-01 -1.240807175636291504e-01 -1.732335835695266724e-01
-1.060220152139663696e-01 -3.037685900926589966e-02 -1.601194441318511963e-01
-1.663126051425933838e-01 -1.776119768619537354e-01 1.809715479612350464e-01
-2.792016863822937012e-01 -1.272186338901519775e-01 1.491464525461196899e-01
-2.454109787940979004e-01 -1.004232391715049744e-01 2.986541688442230225e-01
-2.628268301486968994e-01 -3.181806951761245728e-02 8.286540210247039795e-02
-1.639430522918701172e-01 -6.549647450447082520e-02 3.525959253311157227e-01
-1.732064634561538696e-01 -2.718232572078704834e-03 -1.364407539367675781e-01
-8.530341088771820068e-02 -3.913273289799690247e-02 5.891887098550796509e-02
-1.391802132129669189e-01 -7.319848239421844482e-02 3.421948850154876709e-01
-8.722980320453643799e-02 -3.500130027532577515e-02 5.895692855119705200e-03
-7.790246605873107910e-02 -6.229912862181663513e-02 1.344235539436340332e-01
-6.531272083520889282e-02 -9.955566376447677612e-02 2.978358604013919830e-02
-1.952317059040069580e-01 -4.100941121578216553e-03 -1.448183357715606689e-01
-2.295913994312286377e-01 -3.502367064356803894e-02 -2.778796851634979248e-01
-1.243340522050857544e-01 -1.395656466484069824e-01 2.740248441696166992e-01
-1.512558013200759888e-01 -1.887762099504470825e-01 -3.620169311761856079e-02
-6.825958937406539917e-02 -6.817738711833953857e-02 2.142135053873062134e-04
-1.038184165954589844e-01 -5.993403121829032898e-02 -2.594688534736633301e-01
-1.381889730691909790e-01 -1.105713397264480591e-01 -3.638336956501007080e-01
-2.058172672986984253e-01 -1.913244575262069702e-01 -5.890484899282455444e-02
-2.641901373863220215e-01 -2.875718474388122559e-02 2.765472792088985443e-02
-8.075105398893356323e-02 -1.416401714086532593e-01 -2.914183959364891052e-02
-9.068056195974349976e-02 -3.207823634147644043e-02 -3.655228763818740845e-02
-2.801576852798461914e-01 -1.511885076761245728e-01 -5.198356509208679199e-02
-1.231244727969169617e-01 -1.761065721511840820e-01 -8.909851312637329102e-02
-1.483450531959533691e-01 -4.415426403284072876e-02 -3.217736184597015381e-01
-2.335533201694488525e-01 -9.679885208606719971e-02 -3.723936975002288818e-01
-1.569453924894332886e-01 -2.118907868862152100e-03 9.034202992916107178e-02
-2.446322143077850342e-01 -1.832533627748489380e-02 8.235088735818862915e-02
-2.104898989200592041e-01 -4.041394591331481934e-02 2.868989408016204834e-01
-6.823182851076126099e-02 -1.121435463428497314e-01 -5.283439159393310547e-02
-2.928785681724548340e-01 -8.735962212085723877e-02 8.583374321460723877e-02
-9.924793243408203125e-02 -8.034984767436981201e-02 -2.727285027503967285e-01
-1.675579249858856201e-01 -3.953170403838157654e-02 3.048512637615203857e-01
-2.877973020076751709e-01 -6.815090030431747437e-02 8.738396316766738892e-02
-1.972187310457229614e-01 -1.161879375576972961e-01 3.549410998821258545e-01
-1.681461483240127563e-01 2.305805683135986328e-03 -2.610278502106666565e-02
-2.261220216751098633e-01 -5.919009447097778320e-03 -4.796519130468368530e-02
-8.012310415506362915e-02 -1.013600081205368042e-01 -1.900554299354553223e-01
-1.515601426362991333e-01 -3.968697413802146912e-02 2.963199019432067871e-01
-1.542767286300659180e-01 -4.404790699481964111e-03 -1.282949894666671753e-01
-8.230257034301757812e-02 -9.877622872591018677e-02 2.013792842626571655e-01
-1.372097730636596680e-01 -1.671159267425537109e-02 -1.910737454891204834e-01
-7.977195084095001221e-02 -8.146337419748306274e-02 -1.848684549331665039e-01
-7.897805422544479370e-02 -6.373515725135803223e-02 -1.450480371713638306e-01
-1.439523547887802124e-01 -1.772192716598510742e-01 1.470526456832885742e-01
-1.868829727172851562e-01 -1.715869605541229248e-01 2.204698324203491211e-01
-2.501827478408813477e-01 -1.029551699757575989e-01 -3.417243659496307373e-01
-2.245961874723434448e-01 -4.769427329301834106e-02 -3.256728351116180420e-01
-1.694286912679672241e-01 -1.117283850908279419e-02 1.869077682495117188e-01
-2.586478590965270996e-01 -3.548744693398475647e-02 -1.874737739562988281e-01
-2.931789159774780273e-01 -1.148350238800048828e-01 -1.392360925674438477e-01
-1.985067725181579590e-01 -1.636469811201095581e-01 -2.961888611316680908e-01
-2.208662033081054688e-01 -1.758143305778503418e-01 -2.126088142395019531e-01
-2.653159201145172119e-01 -5.584471672773361206e-02 -2.447929680347442627e-01
-1.524479389190673828e-01 -1.297678053379058838e-02 -1.987302601337432861e-01
-8.584380894899368286e-02 -9.136569499969482422e-02 2.203800082206726074e-01
-1.711886972188949585e-01 -2.491324394941329956e-02 2.575414478778839111e-01
-1.224639564752578735e-01 -5.520465597510337830e-02 2.919549942016601562e-01
-2.500634491443634033e-01 -1.745531558990478516e-01 4.104263335466384888e-02
-2.965958118438720703e-01 -8.280660957098007202e-02 -9.000935405492782593e-02
-9.982088208198547363e-02 -2.603415399789810181e-02 -7.821664214134216309e-02
-6.527268141508102417e-02 -8.895494043827056885e-02 -3.557872399687767029e-02
-2.886586487293243408e-01 -1.329689621925354004e-01 -1.179329007863998413e-01
-8.229041099548339844e-02 -1.248771771788597107e-01 1.564747840166091919e-01
-1.066700443625450134e-01 -1.500651538372039795e-01 -2.020976096391677856e-01
-1.436930745840072632e-01 -1.804049462080001831e-01 1.176292449235916138e-01
-7.324973493814468384e-02 -9.156779944896697998e-02 1.458707600831985474e-01
-1.175420582294464111e-01 -1.535589993000030518e-01 -2.297844886779785156e-01
-7.596085220575332642e-02 -1.235652118921279907e-01 -1.128903850913047791e-01
-2.506161630153656006e-01 -1.877461373805999756e-02 -7.772544771432876587e-02
-6.954868137836456299e-02 -9.745696187019348145e-02 -1.079579368233680725e-01
-2.638424634933471680e-01 -8.679304271936416626e-02 2.454199939966201782e-01
-2.296998947858810425e-01 -3.278561308979988098e-02 2.281986325979232788e-01
-1.091975793242454529e-01 -1.662698090076446533e-01 8.530793339014053345e-02
-1.351259797811508179e-01 -1.871815323829650879e-02 1.886222362518310547e-01
-1.956517100334167480e-01 -1.839004904031753540e-01 1.368186920881271362e-01
-1.571425795555114746e-01 -1.587688326835632324e-01 2.640769183635711670e-01
-1.188153848052024841e-01 -9.764430671930313110e-02 -3.327415883541107178e-01
-2.338508218526840210e-01 -2.603714913129806519e-02 -2.277187407016754150e-01
-9.075868129730224609e-02 -8.022114634513854980e-02 2.367189079523086548e-01
-2.736324369907379150e-01 -1.467259228229522705e-01 1.099300682544708252e-01
-1.978038996458053589e-01 -1.741374731063842773e-01 -2.488802373409271240e-01
-2.908479571342468262e-01 -1.168502196669578552e-01 -1.584212779998779297e-01
-2.176929563283920288e-01 -1.891834884881973267e-01 -2.861674875020980835e-03
-2.300508469343185425e-01 -1.477901786565780640e-01 2.618618905544281006e-01
-1.713847965002059937e-01 -1.099145114421844482e-01 3.651595711708068848e-01
-2.191050648689270020e-01 -1.709989309310913086e-01 -2.442581057548522949e-01
-1.552598476409912109e-01 -5.229553952813148499e-02 -3.479424715042114258e-01
-2.233330607414245605e-01 -1.849577426910400391e-01 6.288712471723556519e-02
-1.440419256687164307e-01 -1.694746911525726318e-01 1.986339241266250610e-01
-2.744124233722686768e-01 -1.572412103414535522e-01 -6.980170309543609619e-02
-2.100828886032104492e-01 -1.899666488170623779e-01 -8.150095492601394653e-02
-1.161070466041564941e-01 -1.371452957391738892e-02 5.461911857128143311e-02
-2.422493845224380493e-01 -1.331780999898910522e-01 -3.274522423744201660e-01
-6.587177515029907227e-02 -1.061782166361808777e-01 5.439089611172676086e-03
-2.771675884723663330e-01 -1.300125867128372192e-01 -2.201166301965713501e-01
-1.662796735763549805e-01 -1.819117367267608643e-01 -1.881055235862731934e-01
-2.840129733085632324e-01 -1.172562465071678162e-01 -2.087426632642745972e-01
-1.433779150247573853e-01 -2.877697348594665527e-03 -6.280736625194549561e-02
-1.961274594068527222e-01 -1.372982263565063477e-01 3.258441686630249023e-01
-8.402341604232788086e-02 -1.087466031312942505e-01 -2.054928392171859741e-01
-1.864134520292282104e-01 -1.099009066820144653e-02 1.839470118284225464e-01
-1.132937297224998474e-01 -7.706727087497711182e-02 3.022425472736358643e-01
-8.782541751861572266e-02 -6.778327375650405884e-02 2.084185034036636353e-01
-2.594990134239196777e-01 -1.528004556894302368e-01 1.581460982561111450e-01
-2.084502726793289185e-01 -1.803114265203475952e-01 1.499049216508865356e-01
-1.881656348705291748e-01 -1.878199279308319092e-01 -1.486688852310180664e-01
-2.700205743312835693e-01 -1.189784333109855652e-01 2.097608745098114014e-01
-1.042888686060905457e-01 -1.623239815235137939e-01 -1.054639369249343872e-01
-1.151274144649505615e-01 -7.678803801536560059e-02 -3.163523077964782715e-01
-1.211740821599960327e-01 -1.463861018419265747e-02 -1.125381290912628174e-01
-2.767021358013153076e-01 -4.320958629250526428e-02 -1.049398183822631836e-01
-7.071482390165328979e-02 -1.214813664555549622e-01 4.121670871973037720e-02
-1.963635683059692383e-01 7.659569382667541504e-04 3.757810592651367188e-02
-2.089375257492065430e-01 -5.492081120610237122e-02 -3.585919439792633057e-01
-2.349773049354553223e-01 -1.668757349252700806e-01 -2.339762151241302490e-01
-1.009735465049743652e-01 -1.633609533309936523e-01 -4.318643361330032349e-02
-2.452338784933090210e-01 -1.606302708387374878e-02 4.422563314437866211e-02
-2.613120675086975098e-01 -4.214482381939888000e-02 -2.099188417196273804e-01
-2.892149388790130615e-01 -7.002919912338256836e-02 -1.434866786003112793e-01
-2.598690688610076904e-01 -1.305978894233703613e-01 2.269729077816009521e-01
-1.591143757104873657e-01 -1.628960222005844116e-01 -2.839260995388031006e-01
-9.795265644788742065e-02 -3.043492883443832397e-02 -1.083109900355339050e-01
-2.744482457637786865e-01 -8.090878278017044067e-02 -2.590906620025634766e-01
-2.600245475769042969e-01 -2.967675775289535522e-02 -1.356536597013473511e-01
-2.710918784141540527e-01 -6.335891783237457275e-02 1.840736269950866699e-01
-2.839717864990234375e-01 -5.603148415684700012e-02 -1.266461610794067383e-01
-2.172528803348541260e-01 -2.361366152763366699e-02 2.149061113595962524e-01
-1.080833375453948975e-01 -2.861613780260086060e-02 1.570622473955154419e-01
-8.933392912149429321e-02 -5.606785416603088379e-02 1.880346387624740601e-01
-1.481927782297134399e-01 -3.481465950608253479e-02 2.787037789821624756e-01
-2.122512757778167725e-01 -1.895295828580856323e-02 -2.340185046195983887e-01
-2.409971505403518677e-01 -1.590721458196640015e-01 1.968047618865966797e-01
-2.560006976127624512e-01 -1.657861024141311646e-01 9.632435441017150879e-02
-7.931208610534667969e-02 -1.251095384359359741e-01 1.336454004049301147e-01
-2.335474044084548950e-01 -1.589899659156799316e-01 2.165418267250061035e-01
-1.532044112682342529e-01 -2.675472199916839600e-02 -2.712459564208984375e-01
-1.681185513734817505e-01 -7.366143167018890381e-03 -1.772439479827880859e-01
-1.424838602542877197e-01 -1.863563805818557739e-01 -9.058305062353610992e-03
-1.102563664317131042e-01 -1.205951794981956482e-01 -2.936940491199493408e-01
-2.154378592967987061e-01 -1.456113457679748535e-01 2.904219925403594971e-01
-9.781365841627120972e-02 -1.034115031361579895e-01 -2.705347537994384766e-01
-1.054677888751029968e-01 -9.486462920904159546e-02 -2.980817258358001709e-01
-2.616665959358215332e-01 -3.962763026356697083e-02 1.441152244806289673e-01
-2.531155943870544434e-01 -1.234474927186965942e-01 -3.188753426074981689e-01
-2.627888917922973633e-01 -6.232633814215660095e-02 2.171020656824111938e-01
-1.978728771209716797e-01 -7.079702019691467285e-01 2.507511973381042480e-01
-3.013850748538970947e-01 -7.175844907760620117e-01 -8.501838892698287964e-02
-1.540117412805557251e-01 -7.180421352386474609e-01 3.617708384990692139e-01
-1.397200226783752441e-01 -7.106652855873107910e-01 -1.327299475669860840e-01
-1.680522561073303223e-01 -7.412728071212768555e-01 -1.111173853278160095e-01
-1.748657822608947754e-01 -7.396532893180847168e-01 -1.621685922145843506e-01
-1.976978182792663574e-01 -7.352230548858642578e-01 -2.531339824199676514e-01
-1.646274924278259277e-01 -7.044062018394470215e-01 -8.154477924108505249e-03
-1.280960440635681152e-01 -7.096714377403259277e-01 1.741815507411956787e-01
-1.302526593208312988e-01 -7.396614551544189453e-01 1.388099491596221924e-01
-3.020257651805877686e-01 -7.364964485168457031e-01 3.346491605043411255e-03
-1.628561317920684814e-01 -7.412772178649902344e-01 2.592501640319824219e-01
-2.522183060646057129e-01 -7.367899417877197266e-01 -2.259150147438049316e-01
-2.380034178495407104e-01 -7.084699273109436035e-01 -1.764779090881347656e-01
-2.915544211864471436e-01 -7.338562011718750000e-01 1.993636488914489746e-01
-2.061440944671630859e-01 -7.460024356842041016e-01 1.532245874404907227e-01
-2.382065951824188232e-01 -7.457384467124938965e-01 -5.117170512676239014e-03
-1.877242922782897949e-01 -7.034300565719604492e-01 5.179164186120033264e-02
-2.351437360048294067e-01 -7.460819482803344727e-01 2.029141411185264587e-02
-2.353180497884750366e-01 -7.453393340110778809e-01 1.535456776618957520e-01
-1.363033801317214966e-01 -7.398002147674560547e-01 -1.157547533512115479e-02
-2.007377892732620239e-01 -7.041656374931335449e-01 -7.258493453264236450e-02
-1.454432010650634766e-01 -7.075893282890319824e-01 1.834402680397033691e-01
-2.847627699375152588e-01 -7.154110670089721680e-01 -1.639879941940307617e-01
-1.073280200362205505e-01 -7.130253314971923828e-01 6.357043236494064331e-02
-1.739415824413299561e-01 -7.432229518890380859e-01 -7.007917761802673340e-02
-2.636666595935821533e-01 -7.436632513999938965e-01 -2.459318190813064575e-02
-2.813503742218017578e-01 -7.108981013298034668e-01 2.723268046975135803e-02
-1.264194995164871216e-01 -7.364742755889892578e-01 -5.117350071668624878e-02
-2.724526822566986084e-01 -7.415744066238403320e-01 -7.796853780746459961e-02
-1.350185871124267578e-01 -7.344312667846679688e-01 -1.322583854198455811e-01
-2.695868313312530518e-01 -7.142761945724487305e-01 2.186189293861389160e-01
-1.306340992450714111e-01 -7.212116718292236328e-01 3.368684351444244385e-01
-2.613115906715393066e-01 -7.094542384147644043e-01 -1.345638930797576904e-01
-3.045328855514526367e-01 -7.177684307098388672e-01 2.406537719070911407e-02
-2.160041630268096924e-01 -7.432876229286193848e-01 2.528175711631774902e-01
-2.213021814823150635e-01 -7.458029389381408691e-01 -3.258470445871353149e-02
-2.743111550807952881e-01 -7.350469231605529785e-01 2.610338628292083740e-01
-1.310166120529174805e-01 -7.370907068252563477e-01 -6.378024816513061523e-02
-2.389945685863494873e-01 -7.404911518096923828e-01 2.811067700386047363e-01
-2.297394126653671265e-01 -7.053056359291076660e-01 -8.769304305315017700e-02
-1.660211235284805298e-01 -7.399423718452453613e-01 -1.363443434238433838e-01
-2.205595374107360840e-01 -7.359385490417480469e-01 3.579353094100952148e-01
-1.776364743709564209e-01 -7.431687712669372559e-01 2.382486462593078613e-01
-1.662508845329284668e-01 -7.353081107139587402e-01 3.572553992271423340e-01
-1.319092363119125366e-01 -7.083882689476013184e-01 -3.070243448019027710e-02
-2.768013179302215576e-01 -7.153235673904418945e-01 2.054519355297088623e-01
-1.767873167991638184e-01 -7.107686400413513184e-01 -2.192079424858093262e-01
-1.597960144281387329e-01 -7.087365388870239258e-01 2.490704953670501709e-01
-2.124714255332946777e-01 -7.456374168395996094e-01 1.741155385971069336e-01
-2.363377511501312256e-01 -7.057374119758605957e-01 1.093773245811462402e-01
-2.557429075241088867e-01 -7.385809421539306641e-01 -1.953020691871643066e-01
-3.047354817390441895e-01 -7.231626510620117188e-01 1.377783417701721191e-01
-1.250737160444259644e-01 -7.346465587615966797e-01 2.635827362537384033e-01
-1.992303133010864258e-01 -7.463659644126892090e-01 3.540434688329696655e-02
-3.012672960758209229e-01 -7.341396212577819824e-01 1.298656761646270752e-01
-2.999597191810607910e-01 -7.206923961639404297e-01 -1.484400629997253418e-01
-2.276995033025741577e-01 -7.392959594726562500e-01 3.148514032363891602e-01
-1.887650787830352783e-01 -7.039939165115356445e-01 -5.603582412004470825e-02
-1.857499331235885620e-01 -7.418608069419860840e-01 -1.359328031539916992e-01
-3.002322316169738770e-01 -7.158978581428527832e-01 2.108987420797348022e-03
-1.468081176280975342e-01 -7.056886553764343262e-01 2.164606004953384399e-02
-1.217572242021560669e-01 -7.325453162193298340e-01 2.778795659542083740e-01
-1.703708469867706299e-01 -7.449055314064025879e-01 4.734036326408386230e-02
-2.071101963520050049e-01 -7.466170191764831543e-01 6.459347903728485107e-02
-9.605578333139419556e-02 -7.267327308654785156e-01 4.334582388401031494e-02
-2.666394412517547607e-01 -7.081981897354125977e-01 -2.283647656440734863e-03
-2.835434973239898682e-01 -7.118547558784484863e-01 6.708046793937683105e-02
-1.135267913341522217e-01 -7.294248938560485840e-01 -9.148540347814559937e-02
-2.143666297197341919e-01 -7.461215257644653320e-01 -1.266227290034294128e-02
-1.933222562074661255e-01 -7.033522725105285645e-01 1.348780468106269836e-02
-1.665003448724746704e-01 -7.078445553779602051e-01 -1.523112654685974121e-01
-2.186469286680221558e-01 -7.446139454841613770e-01 2.122252285480499268e-01
-2.362170219421386719e-01 -7.448666691780090332e-01 -6.392478197813034058e-02
-2.159740179777145386e-01 -7.051533460617065430e-01 -1.090327426791191101e-01
-1.487497538328170776e-01 -7.406705021858215332e-01 -5.657747387886047363e-02
-1.521012485027313232e-01 -7.380312681198120117e-01 2.995450794696807861e-01
-1.857328712940216064e-01 -7.035013437271118164e-01 -2.261646091938018799e-03
-1.483553051948547363e-01 -7.398698329925537109e-01 2.516611814498901367e-01
-1.663429141044616699e-01 -7.446852922439575195e-01 8.363020420074462891e-02
-1.726943850517272949e-01 -7.044994235038757324e-01 1.249444782733917236e-01
-2.366194128990173340e-01 -7.128162384033203125e-01 -2.508918046951293945e-01
-2.013697177171707153e-01 -7.417557835578918457e-01 -1.581686735153198242e-01
-2.484114021062850952e-01 -7.452755570411682129e-01 9.594417363405227661e-02
-2.279291301965713501e-01 -7.143796682357788086e-01 3.222247958183288574e-01
-3.043146729469299316e-01 -7.353619337081909180e-01 -2.284181863069534302e-02
-1.508871316909790039e-01 -7.052303552627563477e-01 3.752914071083068848e-02
-2.341668456792831421e-01 -7.219867110252380371e-01 3.695210814476013184e-01
-1.593244373798370361e-01 -7.102642655372619629e-01 2.787998914718627930e-01
-1.921035647392272949e-01 -7.346101999282836914e-01 3.785553872585296631e-01
-1.860108971595764160e-01 -7.080386281013488770e-01 -1.851837038993835449e-01
-1.613622307777404785e-01 -7.347049117088317871e-01 -2.064517140388488770e-01
-2.193718403577804565e-01 -7.295931577682495117e-01 -3.020684123039245605e-01
-2.252386212348937988e-01 -7.369173765182495117e-01 3.447635471820831299e-01
-1.580574959516525269e-01 -7.056471109390258789e-01 -5.953412503004074097e-02
-1.732216477394104004e-01 -7.435790300369262695e-01 -5.431760102510452271e-02
-1.970072239637374878e-01 -7.048443555831909180e-01 1.575147211551666260e-01
-1.280598044395446777e-01 -7.392045855522155762e-01 4.739272221922874451e-02
-2.090659141540527344e-01 -7.255038022994995117e-01 -3.128059506416320801e-01
-2.151751518249511719e-01 -7.037557959556579590e-01 -9.614884853363037109e-03
-1.598063707351684570e-01 -7.105149626731872559e-01 -1.869233846664428711e-01
-2.619209587574005127e-01 -7.308407425880432129e-01 -2.653465867042541504e-01
-1.882649064064025879e-01 -7.070135474205017090e-01 2.301596999168395996e-01
-1.066973358392715454e-01 -7.173255681991577148e-01 2.143008112907409668e-01
-2.295897603034973145e-01 -7.463717460632324219e-01 4.167558997869491577e-02
-2.664201855659484863e-01 -7.236204743385314941e-01 3.111392259597778320e-01
-2.727142274379730225e-01 -7.112510204315185547e-01 1.364167630672454834e-01
-2.847180962562561035e-01 -7.384922504425048828e-01 -1.096831932663917542e-01
-1.362297087907791138e-01 -7.199846506118774414e-01 -2.058760225772857666e-01
-2.350287288427352905e-01 -7.129428982734680176e-01 2.929201126098632812e-01
-2.841010093688964844e-01 -7.400883436203002930e-01 -6.184694170951843262e-02
-2.434342205524444580e-01 -7.076011896133422852e-01 -1.403680145740509033e-01
-2.426047027111053467e-01 -7.431682944297790527e-01 -1.159453466534614563e-01
-1.839851438999176025e-01 -7.366253733634948730e-01 -2.230671346187591553e-01
-2.331387698650360107e-01 -7.424803376197814941e-01 2.524930536746978760e-01
-3.144798874855041504e-01 -7.274456620216369629e-01 -5.420405417680740356e-03
-1.220832690596580505e-01 -7.159070372581481934e-01 2.729375660419464111e-01
-2.676888108253479004e-01 -7.355845570564270020e-01 2.770211100578308105e-01
-1.531080007553100586e-01 -7.385233640670776367e-01 -1.276479661464691162e-01
-2.358925342559814453e-01 -7.091392874717712402e-01 -1.946602165699005127e-01
-2.160512059926986694e-01 -7.401497960090637207e-01 -1.966845691204071045e-01
-2.064074426889419556e-01 -7.236068248748779297e-01 4.006330072879791260e-01
-1.037402302026748657e-01 -7.157384157180786133e-01 1.584001183509826660e-01
-2.065178900957107544e-01 -7.419994473457336426e-01 2.854598164558410645e-01
-2.246604859828948975e-01 -7.064087986946105957e-01 1.755540668964385986e-01
-9.419979155063629150e-02 -7.256063222885131836e-01 1.001483350992202759e-01
-2.078181505203247070e-01 -7.081209421157836914e-01 -1.961472034454345703e-01
-2.972968816757202148e-01 -7.152178287506103516e-01 4.125666245818138123e-02
-1.368694603443145752e-01 -7.314949631690979004e-01 -1.731337308883666992e-01
-2.758086919784545898e-01 -7.097394466400146484e-01 -1.566367223858833313e-02
-3.099848031997680664e-01 -7.286775708198547363e-01 1.020551919937133789e-01
-1.565825790166854858e-01 -7.078505754470825195e-01 -1.282322704792022705e-01
-1.574809849262237549e-01 -7.397266030311584473e-01 2.813237607479095459e-01
-1.600930392742156982e-01 -7.291067242622375488e-01 -2.491682171821594238e-01
-3.030775785446166992e-01 -7.175080776214599609e-01 -5.590779334306716919e-02
-2.362762391567230225e-01 -7.310056686401367188e-01 -2.905658483505249023e-01
-1.621756851673126221e-01 -7.411894798278808594e-01 -9.546426683664321899e-02
-2.870081067085266113e-01 -7.393124699592590332e-01 1.245167851448059082e-01
-2.102665752172470093e-01 -7.454993724822998047e-01 -4.810308665037155151e-02
-2.223096042871475220e-01 -7.082360386848449707e-01 -1.919122934341430664e-01
-2.871972322463989258e-01 -7.378895282745361328e-01 1.625864803791046143e-01
-2.601662278175354004e-01 -7.424324750900268555e-01 1.828587949275970459e-01
-1.526177227497100830e-01 -7.345219254493713379e-01 3.449763655662536621e-01
-2.662525475025177002e-01 -7.413198947906494141e-01 -1.126610264182090759e-01
-1.207160428166389465e-01 -7.113751173019409180e-01 -5.127343535423278809e-02
-1.756417304277420044e-01 -7.156211137771606445e-01 -2.650972306728363037e-01
-1.700763404369354248e-01 -7.439797520637512207e-01 -2.373889833688735962e-02
-2.875402569770812988e-01 -7.163512110710144043e-01 1.675134897232055664e-01
-2.898446917533874512e-01 -7.393419742584228516e-01 -4.105281829833984375e-02
-2.656601071357727051e-01 -7.195922136306762695e-01 2.917167842388153076e-01
-2.652982175350189209e-01 -7.176681756973266602e-01 2.762707471847534180e-01
-1.543673574924468994e-01 -7.432852387428283691e-01 4.173207283020019531e-02
-1.763841360807418823e-01 -7.450546622276306152e-01 1.478272974491119385e-01
-1.180908456444740295e-01 -7.103103399276733398e-01 2.256318368017673492e-02
-1.346932947635650635e-01 -7.326201200485229492e-01 3.221997022628784180e-01
-1.148540750145912170e-01 -7.108728885650634766e-01 8.566882461309432983e-02
-1.573480665683746338e-01 -7.048146724700927734e-01 8.012552559375762939e-02
-2.993977665901184082e-01 -7.203324437141418457e-01 1.498804241418838501e-01
-2.549578547477722168e-01 -7.419995069503784180e-01 -1.256840527057647705e-01
-2.996371090412139893e-01 -7.316930890083312988e-01 1.711670458316802979e-01
-1.270861625671386719e-01 -7.392639517784118652e-01 9.302243590354919434e-02
-1.223023459315299988e-01 -7.356214523315429688e-01 2.302458286285400391e-01
-2.594499289989471436e-01 -7.400156259536743164e-01 -1.624495387077331543e-01
-2.799648344516754150e-01 -7.360005378723144531e-01 2.296566367149353027e-01
-1.150271147489547729e-01 -7.321421504020690918e-01 2.494345903396606445e-01
-2.493422776460647583e-01 -7.452476024627685547e-01 9.269014000892639160e-03
-1.450001746416091919e-01 -7.061558961868286133e-01 -9.082704782485961914e-03
-2.269157469272613525e-01 -7.437770962715148926e-01 -1.134385988116264343e-01
-2.929537296295166016e-01 -7.166132926940917969e-01 1.364400237798690796e-01
-1.810560822486877441e-01 -7.362559437751770020e-01 3.607996106147766113e-01
-1.757008582353591919e-01 -7.064913511276245117e-01 2.106579840183258057e-01
-1.208165735006332397e-01 -7.151862978935241699e-01 -1.186771914362907410e-01
-1.503532379865646362e-01 -7.361547350883483887e-01 -1.597546339035034180e-01
-1.610782146453857422e-01 -7.077379822731018066e-01 2.270692884922027588e-01
-2.157193124294281006e-01 -7.156982421875000000e-01 -2.885546386241912842e-01
-2.499848902225494385e-01 -7.159013152122497559e-01 2.983548939228057861e-01
-2.285495102405548096e-01 -7.064787745475769043e-01 -1.385904848575592041e-01
-2.716931402683258057e-01 -7.389220595359802246e-01 -1.527892053127288818e-01
-1.292579472064971924e-01 -7.114930748939514160e-01 -1.042096987366676331e-01
-2.206116914749145508e-01 -7.093524932861328125e-01 -2.144678533077239990e-01
-1.791695356369018555e-01 -7.040021419525146484e-01 -3.775151073932647705e-02
-1.046108454465866089e-01 -7.312165498733520508e-01 1.828171014785766602e-01
-1.622211486101150513e-01 -7.191359400749206543e-01 3.770815134048461914e-01
-1.919083148241043091e-01 -7.394524216651916504e-01 -1.921969056129455566e-01
-2.524515688419342041e-01 -7.353108525276184082e-01 3.175059854984283447e-01
-1.345663964748382568e-01 -7.079751491546630859e-01 1.448478549718856812e-01
-2.698097229003906250e-01 -7.393101453781127930e-01 2.198392450809478760e-01
-2.683955729007720947e-01 -7.101030945777893066e-01 -1.205304041504859924e-01
-2.451739758253097534e-01 -7.434282302856445312e-01 2.027207911014556885e-01
-2.333059757947921753e-01 -7.060016393661499023e-01 1.350203901529312134e-01
-1.112747192382812500e-01 -7.349854111671447754e-01 1.379834413528442383e-01
-2.142410725355148315e-01 -7.118288874626159668e-01 -2.526179552078247070e-01
-1.047666296362876892e-01 -7.302025556564331055e-01 2.038766741752624512e-01
-2.090138345956802368e-01 -7.448325753211975098e-01 -7.658785581588745117e-02
-1.034680083394050598e-01 -7.146922349929809570e-01 4.226210713386535645e-02
-1.730176508426666260e-01 -7.039475440979003906e-01 7.877348363399505615e-02
-1.549792885780334473e-01 -7.087773084640502930e-01 -1.447204351425170898e-01
-3.102235198020935059e-01 -7.326341271400451660e-01 2.073278278112411499e-02
-1.534272581338882446e-01 -7.361078858375549316e-01 3.294384181499481201e-01
-1.921127736568450928e-01 -7.045434117317199707e-01 -8.922442048788070679e-02
-1.898008584976196289e-01 -7.064772844314575195e-01 2.156413495540618896e-01
-1.681062579154968262e-01 -7.444846630096435547e-01 2.095059491693973541e-02
-2.132301777601242065e-01 -7.439550757408142090e-01 2.365858554840087891e-01
-1.308859586715698242e-01 -7.076697349548339844e-01 7.056199759244918823e-02
-1.272431313991546631e-01 -7.185342311859130859e-01 3.135327994823455811e-01
-2.936217784881591797e-01 -7.367432713508605957e-01 -9.921980649232864380e-02
-2.806799709796905518e-01 -7.180806398391723633e-01 2.258733808994293213e-01
-1.987585574388504028e-01 -7.035784721374511719e-01 -2.797118574380874634e-02
-2.944592237472534180e-01 -7.372497916221618652e-01 -7.894431799650192261e-02
-2.386177480220794678e-01 -7.147868275642395020e-01 3.094412088394165039e-01
-2.109002321958541870e-01 -7.045360207557678223e-01 -8.628169447183609009e-02
-1.815191507339477539e-01 -7.045155763626098633e-01 1.397046744823455811e-01
-2.767383456230163574e-01 -7.238752841949462891e-01 2.811751663684844971e-01
-2.408062964677810669e-01 -7.054252028465270996e-01 5.631037801504135132e-02
-1.011796221137046814e-01 -7.158096432685852051e-01 1.175900623202323914e-01
-2.836515605449676514e-01 -7.115402817726135254e-01 4.311105981469154358e-02
-2.559165358543395996e-01 -7.147501111030578613e-01 -2.445829808712005615e-01
-2.202046364545822144e-01 -7.415296435356140137e-01 -1.710265576839447021e-01
-1.624372601509094238e-01 -7.191948294639587402e-01 -2.632694542407989502e-01
-1.222253590822219849e-01 -7.338111400604248047e-01 -8.183849602937698364e-02
-2.790653705596923828e-01 -7.415241599082946777e-01 9.941146522760391235e-02
-1.397815644741058350e-01 -7.087736725807189941e-01 -9.097247570753097534e-02
-1.990680843591690063e-01 -7.075237035751342773e-01 -1.828949153423309326e-01
-1.259326785802841187e-01 -7.381117939949035645e-01 1.801719963550567627e-01
-1.806017756462097168e-01 -7.324805855751037598e-01 3.890917897224426270e-01
-2.121149152517318726e-01 -7.053688764572143555e-01 1.625278592109680176e-01
-1.455242037773132324e-01 -7.168329358100891113e-01 3.405636847019195557e-01
-1.443298757076263428e-01 -7.085024714469909668e-01 2.085808217525482178e-01
-2.433952540159225464e-01 -7.445024251937866211e-01 1.691643595695495605e-01
-1.520592570304870605e-01 -7.323709130287170410e-01 3.614904284477233887e-01
-1.415093243122100830e-01 -7.399563193321228027e-01 -4.125787317752838135e-02
-1.342013925313949585e-01 -7.165715098381042480e-01 -1.833772063255310059e-01
-1.745424419641494751e-01 -7.452820539474487305e-01 1.042325496673583984e-01
-1.759727299213409424e-01 -7.133716940879821777e-01 3.372555673122406006e-01
-2.938070893287658691e-01 -7.139931917190551758e-01 -3.808548301458358765e-02
-1.201546490192413330e-01 -7.376400232315063477e-01 1.199127137660980225e-01
-1.253899335861206055e-01 -7.118166089057922363e-01 2.197359204292297363e-01
-2.527042031288146973e-01 -7.070418000221252441e-01 8.829658478498458862e-02
-2.471005022525787354e-01 -7.454729080200195312e-01 8.141946047544479370e-02
-1.869773119688034058e-01 -7.438021898269653320e-01 -8.331041783094406128e-02
-1.915751695632934570e-01 -7.333005070686340332e-01 -2.656077742576599121e-01
-2.559552490711212158e-01 -7.101562023162841797e-01 1.875002086162567139e-01
-1.686412394046783447e-01 -7.039831876754760742e-01 4.101829230785369873e-02
-1.905285418033599854e-01 -7.112995386123657227e-01 -2.397079467773437500e-01
-1.707212328910827637e-01 -7.050188779830932617e-01 1.494665741920471191e-01
-2.523605823516845703e-01 -7.107136249542236328e-01 -1.937447190284729004e-01
-1.731114238500595093e-01 -7.053084969520568848e-01 1.665285229682922363e-01
-2.765635251998901367e-01 -7.129302024841308594e-01 1.598469614982604980e-01
-2.526417970657348633e-01 -7.077169418334960938e-01 1.235183775424957275e-01
-1.082476451992988586e-01 -7.309109568595886230e-01 2.223156392574310303e-01
-2.837007045745849609e-01 -7.130379080772399902e-01 1.152620092034339905e-01
-2.688142359256744385e-01 -7.123105525970458984e-01 -1.755283772945404053e-01
-2.040183246135711670e-01 -7.058877944946289062e-01 1.911601424217224121e-01
-2.511625289916992188e-01 -7.098791003227233887e-01 -1.795729398727416992e-01
-1.781608313322067261e-01 -7.440538406372070312e-01 2.083955407142639160e-01
-1.052681505680084229e-01 -7.138521671295166016e-01 9.975466132164001465e-02
-1.532857716083526611e-01 -7.426250576972961426e-01 1.748054325580596924e-01
-1.364564895629882812e-01 -7.406346201896667480e-01 1.505673229694366455e-01
-1.974946707487106323e-01 -7.056739926338195801e-01 -1.346020400524139404e-01
-2.669156789779663086e-01 -7.088410854339599609e-01 -7.462969422340393066e-02
-1.600765585899353027e-01 -7.440073490142822266e-01 1.177831962704658508e-01
-2.175950407981872559e-01 -7.047858238220214844e-01 1.248798966407775879e-01
-3.138198852539062500e-01 -7.255209088325500488e-01 -3.576169162988662720e-02
-2.142044454813003540e-01 -7.150641083717346191e-01 3.453190326690673828e-01
-2.528245449066162109e-01 -7.398995757102966309e-01 2.620767056941986084e-01
-1.825175732374191284e-01 -7.375309467315673828e-01 -2.091664373874664307e-01
-1.756953448057174683e-01 -7.041102051734924316e-01 1.044840440154075623e-01
-2.342501133680343628e-01 -7.444819808006286621e-01 -8.300497382879257202e-02
-3.094104826450347900e-01 -7.216556668281555176e-01 6.699136644601821899e-02
-2.032962441444396973e-01 -7.045968174934387207e-01 1.411330401897430420e-01
-2.351012080907821655e-01 -7.460516691207885742e-01 9.817965328693389893e-02
-2.831688821315765381e-01 -7.111794948577880859e-01 -4.634302109479904175e-03
-2.794389426708221436e-01 -7.209793925285339355e-01 2.568382620811462402e-01
-1.846500486135482788e-01 -7.054093480110168457e-01 -1.161461398005485535e-01
-1.347663700580596924e-01 -7.355321645736694336e-01 -1.139815822243690491e-01
-2.465975284576416016e-01 -7.386558055877685547e-01 -2.067678272724151611e-01
-1.021430045366287231e-01 -7.309584617614746094e-01 1.542221307754516602e-01
-2.907617092132568359e-01 -7.330656051635742188e-01 -1.733669340610504150e-01
-2.776470184326171875e-01 -7.323225140571594238e-01 -2.232318222522735596e-01
-3.078334629535675049e-01 -7.200264334678649902e-01 5.243770033121109009e-02
-2.229626178741455078e-01 -7.172699570655822754e-01 3.560037016868591309e-01
-1.464625000953674316e-01 -7.392199635505676270e-01 -8.750397711992263794e-02
-1.638063937425613403e-01 -7.300525307655334473e-01 3.885269463062286377e-01
-1.964243948459625244e-01 -7.377474904060363770e-01 3.500030338764190674e-01
-1.919109821319580078e-01 -7.429757118225097656e-01 -1.173840090632438660e-01
-1.367968767881393433e-01 -7.213648557662963867e-01 3.512679338455200195e-01
-1.837611645460128784e-01 -7.451531291007995605e-01 1.694412529468536377e-01
-1.024579107761383057e-01 -7.193018198013305664e-01 -4.116239398717880249e-02
-1.387953460216522217e-01 -7.413451075553894043e-01 1.103978082537651062e-01
-1.680878847837448120e-01 -7.375315427780151367e-01 -1.838656365871429443e-01
-1.386757940053939819e-01 -7.366606593132019043e-01 2.841874361038208008e-01
-2.783234417438507080e-01 -7.123124003410339355e-01 -1.314778923988342285e-01
-2.293662726879119873e-01 -7.060177922248840332e-01 1.487270295619964600e-01
-1.717918664216995239e-01 -7.100042104721069336e-01 -2.012474834918975830e-01
-2.928445935249328613e-01 -7.245603203773498535e-01 2.190886139869689941e-01
-1.963778287172317505e-01 -7.401046752929687500e-01 3.188434243202209473e-01
-2.678418755531311035e-01 -7.436091899871826172e-01 5.518630892038345337e-02
-2.453967481851577759e-01 -7.059198021888732910e-01 -4.893065989017486572e-02
-2.481888383626937866e-01 -7.085412144660949707e-01 -1.546701490879058838e-01
-1.921410113573074341e-01 -7.437717318534851074e-01 2.388662695884704590e-01
-2.997025251388549805e-01 -7.179625034332275391e-01 1.075895726680755615e-01
-2.477831244468688965e-01 -7.117505669593811035e-01 -2.209752500057220459e-01
-9.452906250953674316e-02 -7.260943055152893066e-01 8.285470306873321533e-02
-2.718049585819244385e-01 -7.411994338035583496e-01 1.663281917572021484e-01
-2.283336669206619263e-01 -7.044541239738464355e-01 5.193717032670974731e-02
-2.515074610710144043e-01 -7.191922068595886230e-01 3.239757418632507324e-01
-1.568439155817031860e-01 -7.378816008567810059e-01 3.121695518493652344e-01
-1.189349666237831116e-01 -7.192069888114929199e-01 -1.406496167182922363e-01
-2.323320806026458740e-01 -7.425947785377502441e-01 -1.428513824939727783e-01
-2.701025307178497314e-01 -7.091138958930969238e-01 5.994467064738273621e-02
-1.357969343662261963e-01 -7.104307413101196289e-01 2.296943664550781250e-01
-1.452913880348205566e-01 -7.105326056480407715e-01 2.585367262363433838e-01
-1.417304277420043945e-01 -7.072696089744567871e-01 -4.957471787929534912e-02
-2.555927038192749023e-01 -7.071646451950073242e-01 7.235708087682723999e-02
-1.243023350834846497e-01 -7.334663271903991699e-01 -9.858585149049758911e-02
-2.257128804922103882e-01 -7.343145608901977539e-01 -2.702232599258422852e-01
-2.159850001335144043e-01 -7.461706995964050293e-01 1.392350494861602783e-01
-1.805546581745147705e-01 -7.427415251731872559e-01 -1.027934625744819641e-01
-2.161950767040252686e-01 -7.056976556777954102e-01 -1.295537650585174561e-01
-1.689307242631912231e-01 -7.113463282585144043e-01 3.064351081848144531e-01
-2.105393409729003906e-01 -7.395405769348144531e-01 3.250064253807067871e-01
-2.130138128995895386e-01 -7.038940787315368652e-01 7.519417256116867065e-02
-2.601449787616729736e-01 -7.415014505386352539e-01 2.086095511913299561e-01
-2.275153100490570068e-01 -7.086375355720520020e-01 2.308044731616973877e-01
-2.012627720832824707e-01 -7.051686644554138184e-01 -1.180892661213874817e-01
-1.277006417512893677e-01 -7.329214811325073242e-01 2.971198856830596924e-01
-2.347341775894165039e-01 -7.458968758583068848e-01 1.170477643609046936e-01
-1.973094940185546875e-01 -7.320410013198852539e-01 3.939359486103057861e-01
-2.692018449306488037e-01 -7.329490184783935547e-01 -2.376191020011901855e-01
-1.730446666479110718e-01 -7.447444200515747070e-01 8.421655744314193726e-03
-2.042516171932220459e-01 -7.155787348747253418e-01 3.574644625186920166e-01
-2.846347391605377197e-01 -7.409512400627136230e-01 2.881959080696105957e-03
-1.502310037612915039e-01 -7.338955402374267578e-01 -1.885445713996887207e-01
-1.410288214683532715e-01 -7.378550171852111816e-01 2.706665396690368652e-01
-2.204836457967758179e-01 -7.284218072891235352e-01 3.931029736995697021e-01
-2.442332208156585693e-01 -7.412090897560119629e-01 -1.632234752178192139e-01
-2.768906056880950928e-01 -7.415564656257629395e-01 -5.057755112648010254e-02
-1.800596266984939575e-01 -7.132654786109924316e-01 -2.513599097728729248e-01
-1.962661743164062500e-01 -7.164036631584167480e-01 -2.885089814662933350e-01
-1.984912306070327759e-01 -7.041282057762145996e-01 1.203126832842826843e-01
-2.560787200927734375e-01 -7.435812950134277344e-01 -6.859725713729858398e-02
-2.417513877153396606e-01 -7.306476235389709473e-01 3.624654710292816162e-01
-1.996861547231674194e-01 -7.127600312232971191e-01 -2.611425220966339111e-01
-2.406764924526214600e-01 -7.361574769020080566e-01 3.318374752998352051e-01
-2.679065465927124023e-01 -7.429592013359069824e-01 -3.991895914077758789e-02
-2.639150321483612061e-01 -7.440284490585327148e-01 1.821143180131912231e-02
-1.573769003152847290e-01 -7.051377296447753906e-01 1.128339096903800964e-01
-1.950581669807434082e-01 -7.104851603507995605e-01 2.990932464599609375e-01
-2.902594506740570068e-01 -7.147769331932067871e-01 -1.168276295065879822e-01
-1.521025449037551880e-01 -7.421906590461730957e-01 -1.496954262256622314e-02
-2.216266095638275146e-01 -7.332708239555358887e-01 3.756168484687805176e-01
-2.618089318275451660e-01 -7.425997257232666016e-01 -8.680976182222366333e-02
-2.323919832706451416e-01 -7.112392187118530273e-01 -2.347088158130645752e-01
-2.217203080654144287e-01 -7.433975338935852051e-01 -1.262233257293701172e-01
-1.605060994625091553e-01 -7.045035958290100098e-01 1.975382305681705475e-02
-2.338734269142150879e-01 -7.409053444862365723e-01 -1.791150569915771484e-01
-2.093864679336547852e-01 -7.040019035339355469e-01 -5.519786477088928223e-02
-1.862660348415374756e-01 -7.459235787391662598e-01 4.462294280529022217e-02
-1.316421627998352051e-01 -7.081677913665771484e-01 -1.701999455690383911e-02
-2.359365224838256836e-01 -7.461490035057067871e-01 7.079982757568359375e-02
-2.641173899173736572e-01 -7.134966850280761719e-01 -2.104069590568542480e-01
-2.550846338272094727e-01 -7.068019509315490723e-01 -3.483162075281143188e-02
-1.572306305170059204e-01 -7.422918677330017090e-01 -3.949585556983947754e-02
-1.121354475617408752e-01 -7.181150317192077637e-01 2.544913291931152344e-01
-1.373404562473297119e-01 -7.400714755058288574e-01 1.905821263790130615e-01
-1.754194349050521851e-01 -7.056170701980590820e-01 1.815167367458343506e-01
-9.950173646211624146e-02 -7.246294021606445312e-01 -2.430161088705062866e-02
-2.921258807182312012e-01 -7.369821071624755859e-01 1.486681699752807617e-01
-2.445420324802398682e-01 -7.430050373077392578e-01 2.166641056537628174e-01
-2.001357823610305786e-01 -7.454804182052612305e-01 1.798139810562133789e-01
-2.335147708654403687e-01 -7.233265638351440430e-01 -3.112421035766601562e-01
-1.396391391754150391e-01 -7.099715471267700195e-01 -1.189474985003471375e-01
-3.073192536830902100e-01 -7.322199344635009766e-01 -7.673037052154541016e-02
