-1.695207133889198303e-02 -6.032408475875854492e-01 3.582198321819305420e-01
-1.825000718235969543e-02 -5.824450850486755371e-01 1.925985515117645264e-01
-6.248053908348083496e-02 -5.797422528266906738e-01 -3.432945311069488525e-01
-8.718981593847274780e-02 -6.299178004264831543e-01 -6.444147229194641113e-02
-1.760431975126266479e-01 -6.012806296348571777e-01 5.157337337732315063e-02
-7.473766803741455078e-02 -6.046770215034484863e-01 3.077577948570251465e-01
-4.193327203392982483e-02 -6.065915822982788086e-01 -4.386794865131378174e-01
9.842268377542495728e-02 -6.234828829765319824e-01 6.004026532173156738e-02
1.466065943241119385e-01 -5.823540687561035156e-01 4.916037619113922119e-02
-4.206347838044166565e-02 -6.248050928115844727e-01 2.568378746509552002e-01
-1.554569303989410400e-01 -6.235477328300476074e-01 -7.394839078187942505e-03
1.365910470485687256e-01 -5.799999237060546875e-01 -1.822721213102340698e-03
-1.037322133779525757e-01 -6.236155629158020020e-01 -2.522422373294830322e-01
-1.863849759101867676e-01 -6.090473532676696777e-01 2.545416355133056641e-02
-2.555316686630249023e-02 -5.741311311721801758e-01 -2.231535017490386963e-01
4.130623117089271545e-02 -5.795340538024902344e-01 1.733137071132659912e-01
-2.599230781197547913e-02 -5.765640735626220703e-01 -3.063233196735382080e-01
1.221824437379837036e-01 -6.143233180046081543e-01 -1.379329264163970947e-01
-3.975351806730031967e-03 -5.749829411506652832e-01 -2.706734836101531982e-01
8.001619018614292145e-03 -5.823134779930114746e-01 -3.882788419723510742e-01
-6.047635897994041443e-02 -6.287657022476196289e-01 1.625312864780426025e-01
7.853112369775772095e-02 -6.240319609642028809e-01 -6.339007616043090820e-02
9.185075759887695312e-02 -5.749753713607788086e-01 -6.475754827260971069e-02
-1.578089296817779541e-01 -6.136813163757324219e-01 -3.100455403327941895e-01
7.833978533744812012e-02 -6.249334216117858887e-01 1.597208678722381592e-01
1.347884982824325562e-01 -5.796766877174377441e-01 -5.086256936192512512e-02
-7.001795619726181030e-02 -5.772335529327392578e-01 -2.667425274848937988e-01
1.178789585828781128e-01 -5.795540809631347656e-01 -1.702643930912017822e-01
1.117974892258644104e-01 -5.771770477294921875e-01 -1.119680106639862061e-01
-1.035782098770141602e-01 -5.803999900817871094e-01 -3.184505552053451538e-02
-3.118433058261871338e-02 -6.269690990447998047e-01 -1.948591470718383789e-01
-1.150670051574707031e-01 -5.804960727691650391e-01 -2.117536962032318115e-01
9.538944065570831299e-02 -5.772418975830078125e-01 -1.911111772060394287e-01
-1.365029253065586090e-02 -6.172812581062316895e-01 -3.438635766506195068e-01
7.681054621934890747e-02 -6.256594657897949219e-01 1.536395028233528137e-02
7.307973504066467285e-02 -6.262835860252380371e-01 4.971632361412048340e-02
1.017691493034362793e-01 -5.817869901657104492e-01 -2.592569589614868164e-01
-1.717766225337982178e-01 -5.937530994415283203e-01 -2.180149033665657043e-02
-1.017907857894897461e-01 -6.291733384132385254e-01 4.126806557178497314e-02
4.241273552179336548e-02 -5.740332603454589844e-01 2.091791480779647827e-02
1.290251314640045166e-01 -5.906624197959899902e-01 -2.548228502273559570e-01
-1.290929168462753296e-01 -5.864902138710021973e-01 3.619833290576934814e-02
8.450093120336532593e-02 -6.132446527481079102e-01 -2.583586275577545166e-01
-1.889569312334060669e-02 -6.311579346656799316e-01 6.472520530223846436e-02
1.476489305496215820e-01 -6.126121282577514648e-01 1.845579445362091064e-01
-1.286444514989852905e-01 -5.844508409500122070e-01 -1.346434280276298523e-02
-1.011802814900875092e-03 -5.805006623268127441e-01 1.749383211135864258e-01
4.438662528991699219e-02 -6.286055445671081543e-01 3.730713576078414917e-02
7.200203835964202881e-02 -6.238752007484436035e-01 -9.425923973321914673e-02
-1.263151019811630249e-01 -5.818732976913452148e-01 -1.201339513063430786e-01
-5.974817276000976562e-02 -5.853008031845092773e-01 -4.153422713279724121e-01
1.320618093013763428e-01 -6.175284385681152344e-01 1.474665105342864990e-01
-1.391757279634475708e-01 -5.836673974990844727e-01 -1.553926318883895874e-01
-1.496603637933731079e-01 -5.863093733787536621e-01 -2.360396683216094971e-01
1.488162577152252197e-01 -6.061749458312988281e-01 -1.445625722408294678e-01
-1.594265922904014587e-04 -6.301770210266113281e-01 -4.181675240397453308e-02
1.917830668389797211e-03 -5.726457834243774414e-01 -1.143372878432273865e-01
-3.351440653204917908e-02 -5.782284736633300781e-01 -3.377907872200012207e-01
-8.174040168523788452e-02 -5.864245295524597168e-01 1.615440249443054199e-01
-3.588226810097694397e-02 -5.737763643264770508e-01 -1.176465600728988647e-01
5.801151692867279053e-02 -6.174442172050476074e-01 3.297080397605895996e-01
1.260235756635665894e-01 -6.112324595451354980e-01 2.798316478729248047e-01
6.889847666025161743e-02 -5.959390401840209961e-01 3.430372178554534912e-01
-3.882954642176628113e-02 -5.864726305007934570e-01 2.265529930591583252e-01
-1.498522013425827026e-01 -6.231651902198791504e-01 5.107102543115615845e-02
-1.943450570106506348e-01 -6.019992232322692871e-01 -6.612360477447509766e-02
-8.978682570159435272e-03 -6.289306879043579102e-01 1.842961609363555908e-01
4.585931822657585144e-02 -6.242459416389465332e-01 2.546930611133575439e-01
-1.229017004370689392e-01 -5.816403031349182129e-01 -9.776782989501953125e-02
-1.235655695199966431e-02 -5.883178710937500000e-01 2.716895341873168945e-01
6.143000908195972443e-03 -5.744616985321044922e-01 -2.536630332469940186e-01
-9.118255227804183960e-02 -6.187744140625000000e-01 -3.359364867210388184e-01
2.242260798811912537e-02 -6.215797066688537598e-01 -2.500193119049072266e-01
-1.415553987026214600e-01 -5.999264121055603027e-01 1.627937257289886475e-01
1.033540535718202591e-02 -6.262537240982055664e-01 2.436909675598144531e-01
1.824560575187206268e-03 -6.232302188873291016e-01 -2.460574507713317871e-01
-4.053896665573120117e-02 -5.739620923995971680e-01 -1.360349059104919434e-01
7.039890438318252563e-02 -5.860928893089294434e-01 2.635225653648376465e-01
-4.818815365433692932e-02 -6.217456459999084473e-01 -3.011856377124786377e-01
-8.369657397270202637e-02 -6.292489767074584961e-01 1.043263748288154602e-01
-1.971876248717308044e-02 -5.844849348068237305e-01 2.207250297069549561e-01
-6.231214106082916260e-02 -6.294399499893188477e-01 1.387376189231872559e-01
1.504144519567489624e-01 -6.141241788864135742e-01 5.703087896108627319e-02
-4.552977904677391052e-02 -6.043520569801330566e-01 3.390688598155975342e-01
-1.139868870377540588e-01 -6.250079274177551270e-01 1.442049443721771240e-01
1.287748217582702637e-01 -6.180830597877502441e-01 -1.312647014856338501e-03
1.787759810686111450e-01 -5.943803787231445312e-01 7.952106744050979614e-02
-8.814631402492523193e-02 -6.048606038093566895e-01 2.897109091281890869e-01
5.145762488245964050e-02 -6.254284977912902832e-01 -1.097010150551795959e-01
-1.701664924621582031e-01 -5.909895300865173340e-01 -8.607481420040130615e-02
4.869005456566810608e-02 -5.795419812202453613e-01 -3.241881132125854492e-01
-5.733394995331764221e-02 -6.263668537139892578e-01 2.191849052906036377e-01
-1.004969626665115356e-01 -6.246559023857116699e-01 -2.340106666088104248e-01
-1.745178177952766418e-02 -5.730896592140197754e-01 -1.115211397409439087e-01
-1.454205662012100220e-01 -6.253690719604492188e-01 -5.821553617715835571e-02
-6.984623521566390991e-02 -5.765961408615112305e-01 -5.230840295553207397e-02
-3.707409650087356567e-02 -5.741875171661376953e-01 -2.005984187126159668e-01
-8.219087868928909302e-02 -6.297739148139953613e-01 8.325665444135665894e-02
-5.077387765049934387e-02 -6.307104229927062988e-01 -6.251604855060577393e-02
1.187070310115814209e-01 -5.847006440162658691e-01 1.979156434535980225e-01
5.724195390939712524e-02 -5.949628949165344238e-01 -3.965322673320770264e-01
-9.927015751600265503e-02 -6.284484863281250000e-01 -1.215487867593765259e-01
7.424305379390716553e-02 -6.254259347915649414e-01 -2.038235031068325043e-02
-2.133866585791110992e-02 -6.312471628189086914e-01 1.706156879663467407e-02
-1.019928678870201111e-01 -6.207376718521118164e-01 2.268227338790893555e-01
-7.270776480436325073e-02 -5.779510140419006348e-01 -2.108439803123474121e-03
-1.474226862192153931e-01 -5.856083035469055176e-01 -9.923129528760910034e-02
-2.744474634528160095e-02 -6.220585703849792480e-01 2.980717420578002930e-01
-9.525308758020401001e-02 -5.862542986869812012e-01 -3.944260179996490479e-01
9.658220410346984863e-02 -6.233008503913879395e-01 9.759638458490371704e-03
4.502125456929206848e-02 -5.772889852523803711e-01 1.253410577774047852e-01
9.622856974601745605e-02 -5.847437977790832520e-01 -3.011095523834228516e-01
-1.116034686565399170e-01 -6.288083791732788086e-01 -3.002052754163742065e-02
3.071540221571922302e-02 -5.949347019195556641e-01 3.422151505947113037e-01
-4.314982518553733826e-02 -5.918936729431152344e-01 2.772815823554992676e-01
-6.425429880619049072e-02 -5.819092392921447754e-01 1.199879869818687439e-01
-1.232367455959320068e-01 -6.267390251159667969e-01 6.621154397726058960e-02
-1.810172200202941895e-02 -6.305660605430603027e-01 -5.142802745103836060e-02
-5.924968793988227844e-02 -5.752018094062805176e-01 -1.887022852897644043e-01
-3.383460920304059982e-03 -6.180983185768127441e-01 -3.267568647861480713e-01
-1.386579573154449463e-01 -6.123728752136230469e-01 1.951679289340972900e-01
-9.884484857320785522e-02 -5.783396363258361816e-01 -1.451469063758850098e-01
8.164274692535400391e-02 -5.771826505661010742e-01 9.784371405839920044e-02
1.416161954402923584e-01 -6.138725876808166504e-01 -5.336431041359901428e-02
7.199954986572265625e-02 -5.738158226013183594e-01 -5.845008045434951782e-02
-3.931767120957374573e-02 -6.313724517822265625e-01 3.016952425241470337e-02
8.782145380973815918e-02 -6.160496473312377930e-01 3.102720975875854492e-01
1.368459314107894897e-01 -6.172909736633300781e-01 7.281040400266647339e-02
1.474382281303405762e-01 -5.866143107414245605e-01 -1.648488044738769531e-01
-8.052527159452438354e-02 -6.205552816390991211e-01 -3.167753517627716064e-01
-8.866672404110431671e-03 -5.771440267562866211e-01 -3.227339684963226318e-01
-1.256897151470184326e-01 -6.245038509368896484e-01 1.200677230954170227e-01
2.401202172040939331e-02 -6.280273199081420898e-01 1.873598694801330566e-01
-1.147096157073974609e-01 -6.223065257072448730e-01 1.844029724597930908e-01
8.906595408916473389e-02 -6.204481124877929688e-01 2.519927024841308594e-01
-1.590193361043930054e-01 -5.912669897079467773e-01 -3.041239380836486816e-01
1.555312331765890121e-02 -5.913271307945251465e-01 -4.330644011497497559e-01
2.470586076378822327e-02 -6.293628811836242676e-01 -1.756804250180721283e-02
-1.167679280042648315e-01 -5.904089212417602539e-01 1.379491388797760010e-01
-1.094297170639038086e-01 -5.831136703491210938e-01 2.961296588182449341e-02
1.735786348581314087e-02 -5.861033797264099121e-01 2.642425000667572021e-01
-2.401715517044067383e-02 -6.295561790466308594e-01 1.646382212638854980e-01
-9.782788157463073730e-02 -5.783603787422180176e-01 -1.922888755798339844e-01
-1.531888730823993683e-02 -5.730127692222595215e-01 -1.379461884498596191e-01
-1.634507179260253906e-01 -5.899567008018493652e-01 -2.543708384037017822e-01
-1.227907910943031311e-01 -6.277842521667480469e-01 -6.010472774505615234e-02
4.217205941677093506e-02 -5.998191833496093750e-01 -4.084626138210296631e-01
1.430952921509742737e-03 -6.281150579452514648e-01 2.043537199497222900e-01
-8.831642568111419678e-02 -6.233438849449157715e-01 -2.692172229290008545e-01
2.519737184047698975e-02 -6.297894716262817383e-01 4.863248020410537720e-02
-1.203508526086807251e-01 -5.808977484703063965e-01 -1.434513032436370850e-01
-6.636436283588409424e-02 -6.156195998191833496e-01 -3.769163191318511963e-01
-1.679753325879573822e-02 -5.811972022056579590e-01 -3.839064836502075195e-01
-2.655622363090515137e-02 -5.881513953208923340e-01 2.582413554191589355e-01
-1.627060472965240479e-01 -6.226226687431335449e-01 -4.910897463560104370e-02
-1.041962355375289917e-01 -5.977380871772766113e-01 2.327609658241271973e-01
9.743230044841766357e-02 -6.175579428672790527e-01 2.781032919883728027e-01
3.367761522531509399e-02 -5.781452655792236328e-01 1.448667049407958984e-01
-3.294976055622100830e-02 -6.290680170059204102e-01 -1.343127042055130005e-01
3.131066262722015381e-02 -6.292365789413452148e-01 5.968436598777770996e-03
6.942957639694213867e-02 -6.100466251373291016e-01 -3.181910514831542969e-01
2.460227534174919128e-02 -6.297501325607299805e-01 2.555365115404129028e-02
-1.368714720010757446e-01 -6.262340545654296875e-01 1.185413450002670288e-03
-2.285301685333251953e-03 -5.727993249893188477e-01 -8.966562151908874512e-02
5.399460345506668091e-02 -5.762396454811096191e-01 -2.594404220581054688e-01
-1.918361335992813110e-01 -5.983659029006958008e-01 -1.840740740299224854e-01
1.161023229360580444e-01 -6.187733411788940430e-01 2.034598588943481445e-01
-3.827496245503425598e-02 -5.845892429351806641e-01 2.026372849941253662e-01
1.626504063606262207e-01 -5.880802273750305176e-01 -9.730985760688781738e-02
1.652664840221405029e-01 -6.096277832984924316e-01 6.889166682958602905e-02
-1.093097776174545288e-01 -6.266162991523742676e-01 -1.710789203643798828e-01
-1.866061687469482422e-01 -6.164463758468627930e-01 -1.132482364773750305e-01
4.287158697843551636e-02 -6.256355047225952148e-01 2.289293110370635986e-01
6.058821454644203186e-04 -6.220753192901611328e-01 -2.671408653259277344e-01
1.655019074678421021e-02 -6.169068813323974609e-01 -3.222168385982513428e-01
-1.639984101057052612e-01 -6.223881840705871582e-01 -7.865370810031890869e-02
1.205211579799652100e-01 -6.183959245681762695e-01 -4.984517768025398254e-02
-1.761649847030639648e-01 -6.189032196998596191e-01 -1.471816599369049072e-01
2.527293190360069275e-02 -5.765533447265625000e-01 1.054878160357475281e-01
-2.993036806583404541e-02 -5.753905177116394043e-01 -2.705948650836944580e-01
-5.688506364822387695e-02 -5.781555175781250000e-01 4.772403091192245483e-02
1.307170838117599487e-01 -6.171163320541381836e-01 1.735456287860870361e-01
1.039769724011421204e-01 -6.150590777397155762e-01 -1.862364709377288818e-01
8.647613972425460815e-02 -6.217722296714782715e-01 2.319367229938507080e-01
-1.152754649519920349e-01 -5.802742242813110352e-01 -1.831402778625488281e-01
-1.017711237072944641e-01 -6.285895705223083496e-01 7.703890651464462280e-02
-8.843135088682174683e-02 -6.297619938850402832e-01 6.232106685638427734e-02
-5.502958968281745911e-02 -5.749518275260925293e-01 -9.644246101379394531e-02
-1.540547013282775879e-01 -6.233999729156494141e-01 -1.295230090618133545e-01
1.010658815503120422e-01 -6.119467020034790039e-01 -2.351196110248565674e-01
-7.410642504692077637e-02 -6.273210644721984863e-01 -1.888679563999176025e-01
3.583958745002746582e-02 -6.285924315452575684e-01 1.368621587753295898e-01
1.728757843375205994e-02 -5.725322961807250977e-01 -1.030419766902923584e-01
-9.356736391782760620e-02 -6.104691624641418457e-01 -4.109973311424255371e-01
-2.573479712009429932e-02 -6.285998821258544922e-01 1.934214830398559570e-01
-1.184531897306442261e-01 -6.267024278640747070e-01 -1.471770703792572021e-01
4.733629897236824036e-02 -5.756825208663940430e-01 8.101753890514373779e-02
9.088309109210968018e-02 -5.893101096153259277e-01 2.845091819763183594e-01
4.130756482481956482e-02 -5.846794843673706055e-01 -3.821215629577636719e-01
-1.072517633438110352e-01 -6.267344355583190918e-01 1.235636547207832336e-01
-1.127548143267631531e-01 -6.287169456481933594e-01 -9.278111159801483154e-03
8.944655768573284149e-03 -5.787143707275390625e-01 1.476679742336273193e-01
1.328327506780624390e-01 -5.799156427383422852e-01 3.503154218196868896e-02
-1.710622906684875488e-01 -5.907558202743530273e-01 -1.097973212599754333e-01
-8.827231824398040771e-02 -6.259874105453491211e-01 1.824552118778228760e-01
1.612742692232131958e-01 -5.851264595985412598e-01 1.176528632640838623e-02
-1.914045810699462891e-01 -6.113908290863037109e-01 -2.013049423694610596e-01
1.486057192087173462e-01 -6.104603409767150879e-01 -8.650267124176025391e-02
8.057862520217895508e-02 -5.762253999710083008e-01 6.849881261587142944e-02
-1.732110977172851562e-01 -5.913511514663696289e-01 -2.062159180641174316e-01
3.234000131487846375e-02 -6.195167899131774902e-01 -2.686571478843688965e-01
-1.155687589198350906e-02 -5.934940576553344727e-01 3.165366351604461670e-01
5.420415848493576050e-02 -6.177099347114562988e-01 -2.601356208324432373e-01
-3.747086971998214722e-02 -5.740301609039306641e-01 -8.793164789676666260e-02
-1.456622034311294556e-01 -6.248810291290283203e-01 -1.089878529310226440e-01
3.092426434159278870e-02 -5.829566717147827148e-01 2.280489504337310791e-01
-1.978801004588603973e-02 -5.759428143501281738e-01 5.050040781497955322e-02
5.409327894449234009e-02 -5.831449627876281738e-01 -3.561898767948150635e-01
-5.996782705187797546e-02 -6.308428049087524414e-01 7.045275717973709106e-02
1.789533346891403198e-01 -6.006729602813720703e-01 6.538141518831253052e-03
5.276846885681152344e-02 -5.735514163970947266e-01 -1.650182604789733887e-01
-5.205976590514183044e-02 -6.276069283485412598e-01 2.003501057624816895e-01
1.661358028650283813e-01 -5.969794392585754395e-01 -1.212049573659896851e-01
-1.521340757608413696e-01 -5.935461521148681641e-01 -3.516658544540405273e-01
8.072220534086227417e-02 -6.235691308975219727e-01 2.020766735076904297e-01
-6.362941116094589233e-02 -5.753082633018493652e-01 -1.439530402421951294e-01
3.602908551692962646e-02 -6.282012462615966797e-01 1.575775444507598877e-01
5.127036944031715393e-02 -5.832885503768920898e-01 2.333750128746032715e-01
7.939497940242290497e-03 -5.739420056343078613e-01 -2.342054545879364014e-01
-4.005658626556396484e-02 -5.739706158638000488e-01 -1.564445197582244873e-01
1.316266972571611404e-02 -5.741568803787231445e-01 2.228552103042602539e-02
-7.963989675045013428e-02 -6.304742693901062012e-01 3.642922639846801758e-02
-1.867488920688629150e-01 -6.121029257774353027e-01 -2.242236137390136719e-01
1.180423703044652939e-02 -6.299126744270324707e-01 1.202969327569007874e-01
8.918879181146621704e-02 -6.164792180061340332e-01 -2.045829594135284424e-01
-4.177758842706680298e-02 -6.203138828277587891e-01 -3.200117647647857666e-01
-6.015037000179290771e-02 -5.765600204467773438e-01 -1.655998453497886658e-02
-1.243367046117782593e-02 -6.271237730979919434e-01 -1.764456033706665039e-01
3.123395517468452454e-02 -5.731463432312011719e-01 -2.533380687236785889e-02
-2.966426685452461243e-02 -5.736654400825500488e-01 -1.777305006980895996e-01
1.574075669050216675e-01 -6.119115352630615234e-01 1.143105104565620422e-01
1.306006610393524170e-01 -5.895473361015319824e-01 2.367624640464782715e-01
-9.376126341521739960e-03 -5.853122472763061523e-01 -4.192699193954467773e-01
-6.021947413682937622e-02 -5.907578468322753906e-01 2.466412782669067383e-01
-2.530501037836074829e-02 -5.752707719802856445e-01 1.801791414618492126e-02
3.455253690481185913e-02 -6.125033497810363770e-01 -3.469949066638946533e-01
-1.719548404216766357e-01 -5.906322598457336426e-01 -1.761414408683776855e-01
6.472703814506530762e-02 -5.803537964820861816e-01 -3.131077885627746582e-01
1.135041937232017517e-01 -5.889092683792114258e-01 2.574905753135681152e-01
5.428747087717056274e-02 -5.733641386032104492e-01 -3.410308435559272766e-02
-1.036161407828330994e-01 -6.203111410140991211e-01 -3.076556026935577393e-01
-1.066504046320915222e-01 -5.842540860176086426e-01 -3.518564701080322266e-01
-1.655587181448936462e-02 -6.257462501525878906e-01 2.549180686473846436e-01
-1.217296347022056580e-01 -6.236289143562316895e-01 -2.281945943832397461e-01
9.248536825180053711e-02 -6.190861463546752930e-01 -1.490941643714904785e-01
-1.678929291665554047e-02 -6.270144581794738770e-01 2.319048643112182617e-01
-1.837166249752044678e-01 -5.966764688491821289e-01 -5.189468339085578918e-02
8.690793067216873169e-02 -5.858417153358459473e-01 2.509580254554748535e-01
1.366759389638900757e-01 -5.822203159332275391e-01 -1.463681757450103760e-01
8.112307637929916382e-02 -5.750026702880859375e-01 1.266956329345703125e-02
-9.975015372037887573e-02 -5.784466266632080078e-01 -1.715322732925415039e-01
-8.295376598834991455e-02 -6.275191903114318848e-01 1.598431169986724854e-01
-7.991023361682891846e-02 -5.806044936180114746e-01 -3.363628685474395752e-01
9.811595082283020020e-02 -5.932058095932006836e-01 3.091309368610382080e-01
-1.332645267248153687e-01 -6.178532242774963379e-01 -3.078989982604980469e-01
1.281037628650665283e-01 -6.117590069770812988e-01 -1.566911935806274414e-01
-1.694265753030776978e-03 -5.971252918243408203e-01 3.440574407577514648e-01
1.152362227439880371e-01 -5.782848000526428223e-01 -1.436723172664642334e-01
-1.571501493453979492e-01 -6.156076788902282715e-01 -2.903349101543426514e-01
1.388482898473739624e-01 -6.165406107902526855e-01 2.781171351671218872e-02
-8.563547581434249878e-02 -5.932230353355407715e-01 2.312367856502532959e-01
7.976278662681579590e-02 -6.104536056518554688e-01 3.520668148994445801e-01
-2.524829283356666565e-02 -6.277904510498046875e-01 2.134147584438323975e-01
-1.077543199062347412e-01 -5.939350128173828125e-01 1.964718997478485107e-01
-1.194066554307937622e-01 -6.279924511909484863e-01 1.596362888813018799e-02
-1.084225699305534363e-01 -5.810182094573974609e-01 -2.758101522922515869e-01
-7.690525799989700317e-02 -5.764721632003784180e-01 -1.076120287179946899e-01
-9.963113814592361450e-03 -5.741814374923706055e-01 -2.408461570739746094e-01
-5.649037659168243408e-03 -6.140645146369934082e-01 -3.712525963783264160e-01
6.766823679208755493e-02 -5.772676467895507812e-01 1.147978082299232483e-01
-1.427733898162841797e-01 -5.942804217338562012e-01 1.109868660569190979e-01
4.769105464220046997e-02 -5.809736847877502441e-01 1.985195875167846680e-01
4.257978871464729309e-04 -6.287322640419006348e-01 -1.104869320988655090e-01
4.143356159329414368e-02 -6.228263378143310547e-01 2.827110886573791504e-01
-6.269892305135726929e-02 -5.860721468925476074e-01 1.895162463188171387e-01
7.404748350381851196e-02 -5.860852599143981934e-01 -3.495806455612182617e-01
-1.849347352981567383e-01 -6.167714595794677734e-01 -5.344241484999656677e-02
6.643424928188323975e-02 -6.198000907897949219e-01 -2.035650610923767090e-01
1.665564998984336853e-02 -6.274445652961730957e-01 -1.267661750316619873e-01
-6.101592630147933960e-02 -6.269529461860656738e-01 -2.022862434387207031e-01
1.334323883056640625e-01 -5.799681544303894043e-01 -9.364213049411773682e-02
-1.259372681379318237e-01 -5.824180245399475098e-01 -7.647008448839187622e-02
3.081191331148147583e-02 -6.218821406364440918e-01 -2.328027784824371338e-01
-1.871891692280769348e-02 -6.295747756958007812e-01 -1.032131165266036987e-01
-9.394093416631221771e-03 -6.301017403602600098e-01 1.390955150127410889e-01
2.136594057083129883e-02 -5.795040130615234375e-01 1.691001653671264648e-01
7.207615673542022705e-02 -6.212052106857299805e-01 2.713301479816436768e-01
1.033221706748008728e-01 -5.771675109863281250e-01 5.116907507181167603e-02
1.509861350059509277e-01 -5.884785652160644531e-01 1.728215813636779785e-01
1.711883395910263062e-01 -5.888782739639282227e-01 5.031215399503707886e-02
-7.419999688863754272e-02 -6.186248064041137695e-01 -3.434374332427978516e-01
-9.585938602685928345e-02 -6.002576351165771484e-01 2.615179121494293213e-01
5.791123956441879272e-02 -6.266654729843139648e-01 -3.825986012816429138e-02
9.477415122091770172e-03 -5.801769495010375977e-01 -3.645586371421813965e-01
-1.392677873373031616e-01 -6.261637806892395020e-01 -3.891210630536079407e-02
-8.354087918996810913e-02 -6.235578656196594238e-01 2.271419465541839600e-01
-4.184844344854354858e-02 -6.286360025405883789e-01 1.844134032726287842e-01
7.386877387762069702e-02 -5.794645547866821289e-01 -2.861559391021728516e-01
1.464452594518661499e-01 -5.933275818824768066e-01 -2.063072919845581055e-01
-1.502180844545364380e-01 -6.218283176422119141e-01 8.105763047933578491e-02
-1.219536215066909790e-01 -6.244884133338928223e-01 -2.074732482433319092e-01
-6.459418684244155884e-02 -5.763319134712219238e-01 -2.437876164913177490e-01
5.126630887389183044e-02 -5.735309720039367676e-01 -1.497589051723480225e-02
-8.781976997852325439e-02 -5.910971164703369141e-01 2.072709500789642334e-01
-7.469472289085388184e-02 -5.835233330726623535e-01 -3.869655430316925049e-01
7.612860947847366333e-02 -5.740215778350830078e-01 -9.628695994615554810e-02
1.263084411621093750e-01 -6.102297902107238770e-01 -1.830532848834991455e-01
-1.406742185354232788e-01 -6.240687370300292969e-01 -1.701033413410186768e-01
-3.638298809528350830e-02 -6.267799139022827148e-01 2.289003431797027588e-01
-6.827330589294433594e-02 -6.239407658576965332e-01 -2.655923068523406982e-01
-5.351819843053817749e-02 -5.776998400688171387e-01 -3.103329837322235107e-01
1.281066834926605225e-01 -5.846391320228576660e-01 1.782189309597015381e-01
-5.245818942785263062e-02 -6.204106807708740234e-01 2.950792014598846436e-01
-8.573834598064422607e-02 -6.301804184913635254e-01 -4.339894652366638184e-02
-1.043804883956909180e-01 -5.842902660369873047e-01 7.249292731285095215e-02
1.722472757101058960e-01 -6.020931005477905273e-01 1.591033339500427246e-01
8.470327407121658325e-02 -5.747318863868713379e-01 -1.188974007964134216e-01
1.149941384792327881e-01 -6.097771525382995605e-01 -2.222994267940521240e-01
1.529803574085235596e-01 -5.861437320709228516e-01 -1.306185722351074219e-01
-3.597930446267127991e-02 -5.763355493545532227e-01 3.581714630126953125e-02
4.863810539245605469e-02 -5.767278671264648438e-01 -2.776791751384735107e-01
4.541761055588722229e-02 -5.743511915206909180e-01 -2.177164554595947266e-01
-1.112092137336730957e-01 -5.876359343528747559e-01 1.132342889904975891e-01
-1.365108639001846313e-01 -5.859326124191284180e-01 -2.988807559013366699e-01
-2.583014592528343201e-02 -6.231697201728820801e-01 -2.695859968662261963e-01
1.061039566993713379e-01 -6.194983720779418945e-01 2.242083251476287842e-01
4.865834116935729980e-02 -5.730542540550231934e-01 -1.341038048267364502e-01
-1.502709239721298218e-01 -5.882584452629089355e-01 -1.998184807598590851e-02
1.018210649490356445e-01 -6.206155419349670410e-01 -7.653850317001342773e-02
-1.090681850910186768e-01 -6.244290471076965332e-01 1.668297350406646729e-01
-1.477703452110290527e-01 -5.965313911437988281e-01 -3.787999451160430908e-01
1.180105060338973999e-01 1.714274883270263672e-01 7.280459403991699219e-01
5.428570508956909180e-01 1.574254930019378662e-01 -3.569605648517608643e-01
-2.518065087497234344e-02 1.198704093694686890e-01 -5.787143483757972717e-02
-3.803999125957489014e-01 1.890080571174621582e-01 3.770579770207405090e-02
-5.078780651092529297e-01 1.725747585296630859e-01 3.796523809432983398e-01
-2.889432609081268311e-01 1.923625916242599487e-01 -6.553342938423156738e-02
2.319282889366149902e-01 1.890026479959487915e-01 2.935224175453186035e-01
-4.592734277248382568e-01 1.850402951240539551e-01 -8.455637097358703613e-02
9.347297996282577515e-02 1.201977655291557312e-01 -2.044303901493549347e-02
-6.480138748884201050e-02 1.889389008283615112e-01 4.402233064174652100e-01
-4.893870651721954346e-01 1.338175535202026367e-01 -6.237528100609779358e-02
2.120209187269210815e-01 1.357458829879760742e-01 -5.922099351882934570e-01
1.355970203876495361e-01 1.214952021837234497e-01 -1.496547609567642212e-01
-7.546246051788330078e-02 1.898696124553680420e-01 -4.672252833843231201e-01
1.534102857112884521e-01 1.888029277324676514e-01 -4.373787939548492432e-01
2.858082652091979980e-01 1.329343318939208984e-01 -4.732329547405242920e-01
3.148832023143768311e-01 1.304671168327331543e-01 3.969474136829376221e-01
-6.254175901412963867e-01 1.506399363279342651e-01 -3.907483536750078201e-03
7.437262684106826782e-02 1.771807670593261719e-01 6.742932796478271484e-01
-3.265139162540435791e-01 1.319565325975418091e-01 -4.255641996860504150e-01
6.819730252027511597e-02 1.939886659383773804e-01 -2.491125166416168213e-01
-2.823806703090667725e-01 1.919351518154144287e-01 1.095273047685623169e-01
-3.860657811164855957e-01 1.736738830804824829e-01 5.496121048927307129e-01
-1.713614910840988159e-04 1.938425749540328979e-01 -2.921153604984283447e-01
8.549023419618606567e-02 1.201856285333633423e-01 8.084744215011596680e-02
5.403071641921997070e-01 1.699991077184677124e-01 2.203499078750610352e-01
-3.372737765312194824e-01 1.586650907993316650e-01 6.925971508026123047e-01
8.556114137172698975e-02 1.774764955043792725e-01 -7.067393660545349121e-01
1.613083779811859131e-01 1.617223322391510010e-01 7.725690007209777832e-01
4.695215076208114624e-02 1.760511547327041626e-01 -7.329090237617492676e-01
2.522490620613098145e-01 1.854645013809204102e-01 -4.489747285842895508e-01
1.754360944032669067e-01 1.936692744493484497e-01 6.460020784288644791e-03
-5.137433856725692749e-02 1.199065968394279480e-01 8.121336996555328369e-02
-1.251709759235382080e-01 1.221724897623062134e-01 2.605975568294525146e-01
-2.016409337520599365e-01 1.341293752193450928e-01 5.980187654495239258e-01
3.471588715910911560e-03 1.462181210517883301e-01 -7.808200120925903320e-01
-3.273123800754547119e-01 1.896083205938339233e-01 -2.505054771900177002e-01
-3.035452216863632202e-03 1.892807632684707642e-01 -4.883778989315032959e-01
6.881152838468551636e-02 1.337279081344604492e-01 6.381990313529968262e-01
-4.256246387958526611e-01 1.853213161230087280e-01 -2.414031326770782471e-01
-4.732036590576171875e-01 1.393481492996215820e-01 3.791509866714477539e-01
-8.919703215360641479e-02 1.383421272039413452e-01 -6.928350925445556641e-01
1.284937560558319092e-01 1.344763338565826416e-01 -6.132642626762390137e-01
5.966615676879882812e-01 1.536722630262374878e-01 1.084175407886505127e-01
-1.143997535109519958e-02 1.207900568842887878e-01 2.143107354640960693e-01
3.291744589805603027e-01 1.855297237634658813e-01 2.837783992290496826e-01
6.338643282651901245e-02 1.225971728563308716e-01 3.193094432353973389e-01
-4.871142655611038208e-02 1.399381607770919800e-01 7.280315756797790527e-01
2.335441112518310547e-01 1.252369582653045654e-01 3.044034838676452637e-01
1.443171054124832153e-01 1.439775079488754272e-01 -7.326272726058959961e-01
2.485822439193725586e-01 1.855638325214385986e-01 4.029793739318847656e-01
-2.866134345531463623e-01 1.898461133241653442e-01 2.513187229633331299e-01
-4.457937479019165039e-01 1.343816816806793213e-01 -2.903148829936981201e-01
-2.756415307521820068e-01 1.466959714889526367e-01 7.024843096733093262e-01
-2.613276243209838867e-01 1.901669949293136597e-01 -3.355526030063629150e-01
2.527563273906707764e-01 1.909131109714508057e-01 1.300082355737686157e-01
-1.844560541212558746e-02 1.524050682783126831e-01 8.088287115097045898e-01
5.269514024257659912e-02 1.206775456666946411e-01 1.894469857215881348e-01
2.297671884298324585e-02 1.321421563625335693e-01 6.163231730461120605e-01
6.372765451669692993e-02 1.953727006912231445e-01 5.494131240993738174e-03
3.291426897048950195e-01 1.603201627731323242e-01 6.725897192955017090e-01
-2.375808507204055786e-01 1.226263642311096191e-01 -6.015217676758766174e-02
1.687172949314117432e-01 1.325468569993972778e-01 -5.569135546684265137e-01
-3.488007783889770508e-01 1.295008063316345215e-01 3.235186040401458740e-01
1.050735637545585632e-01 1.872635930776596069e-01 -5.147846937179565430e-01
-4.739713370800018311e-01 1.826000660657882690e-01 -2.238804996013641357e-01
2.401489764451980591e-02 1.200150698423385620e-01 -8.291176706552505493e-02
-1.710968166589736938e-01 1.774727106094360352e-01 -6.973739862442016602e-01
-4.645431637763977051e-01 1.587366163730621338e-01 -5.825102329254150391e-01
-3.486950397491455078e-01 1.881811469793319702e-01 2.242903858423233032e-01
2.110037580132484436e-02 1.287194788455963135e-01 5.423907637596130371e-01
-2.492093443870544434e-01 1.822439134120941162e-01 -5.819432735443115234e-01
3.080095648765563965e-01 1.255230009555816650e-01 -1.200620457530021667e-01
-9.396578371524810791e-02 1.241924315690994263e-01 3.841693103313446045e-01
-7.386328279972076416e-02 1.869783252477645874e-01 4.954335987567901611e-01
6.712631136178970337e-02 1.361473202705383301e-01 -6.595718860626220703e-01
3.779543638229370117e-01 1.764521896839141846e-01 4.629533886909484863e-01
-1.675906330347061157e-01 1.912807524204254150e-01 3.132326006889343262e-01
4.345797002315521240e-01 1.821653991937637329e-01 1.447554826736450195e-01
-1.401229798793792725e-01 1.948365867137908936e-01 8.800774812698364258e-02
-5.487957000732421875e-01 1.781541109085083008e-01 1.771129108965396881e-02
1.042596995830535889e-03 1.203324869275093079e-01 1.693578511476516724e-01
-3.086717128753662109e-01 1.311224699020385742e-01 4.393410682678222656e-01
-3.717410564422607422e-01 1.270673125982284546e-01 6.583481281995773315e-02
9.302437305450439453e-02 1.949308365583419800e-01 -1.066869720816612244e-01
1.354856491088867188e-01 1.206658482551574707e-01 3.976045548915863037e-02
4.983274042606353760e-01 1.358621269464492798e-01 -1.938282698392868042e-02
3.903223946690559387e-02 1.943379938602447510e-01 1.786232739686965942e-01
-2.127448096871376038e-02 1.245006322860717773e-01 -3.835364282131195068e-01
-1.035079434514045715e-01 1.258961707353591919e-01 -4.167023301124572754e-01
-1.197822466492652893e-01 1.215471327304840088e-01 -1.862799674272537231e-01
8.516904711723327637e-02 1.261292397975921631e-01 4.560449719429016113e-01
-1.763423830270767212e-01 1.937028169631958008e-01 -2.256355136632919312e-01
-2.417575865983963013e-01 1.380036473274230957e-01 6.354197859764099121e-01
-1.440650373697280884e-01 1.881955415010452271e-01 -4.987812638282775879e-01
-1.993441879749298096e-01 1.219603046774864197e-01 1.248155683279037476e-01
2.115371674299240112e-01 1.919159591197967529e-01 -2.034811973571777344e-01
5.368168354034423828e-01 1.444092839956283569e-01 2.610112428665161133e-01
-2.717921733856201172e-01 1.776498109102249146e-01 -6.426251530647277832e-01
3.566552996635437012e-01 1.868105083703994751e-01 -1.786609143018722534e-01
4.148212671279907227e-01 1.820567548274993896e-01 -2.656254172325134277e-01
1.070086061954498291e-01 1.642760038375854492e-01 7.805719971656799316e-01
-2.924124598503112793e-01 1.916969716548919678e-01 -1.703402996063232422e-01
-2.909087836742401123e-01 1.244222596287727356e-01 1.356200873851776123e-01
-6.105839014053344727e-01 1.680347770452499390e-01 -1.576102972030639648e-01
8.303637057542800903e-02 1.531445384025573730e-01 -8.071426749229431152e-01
-1.881477683782577515e-01 1.839778423309326172e-01 -5.829867720603942871e-01
-6.285807490348815918e-02 1.213040202856063843e-01 -2.067337036132812500e-01
-2.147817611694335938e-01 1.404493600130081177e-01 6.822487115859985352e-01
-4.764394164085388184e-01 1.327241063117980957e-01 -1.336855255067348480e-02
4.567753970623016357e-01 1.816497743129730225e-01 2.920808084309101105e-02
4.491146802902221680e-01 1.319935768842697144e-01 -8.448935113847255707e-03
-6.050833463668823242e-01 1.681821346282958984e-01 1.496298164129257202e-01
3.303736448287963867e-01 1.857986748218536377e-01 -3.152039051055908203e-01
4.905065000057220459e-01 1.783437430858612061e-01 1.016868725419044495e-01
2.505545690655708313e-02 1.207685172557830811e-01 -1.723253577947616577e-01
-1.735178828239440918e-01 1.295991837978363037e-01 5.172358751296997070e-01
4.113957285881042480e-01 1.845446377992630005e-01 5.250018090009689331e-02
3.862376213073730469e-01 1.845610588788986206e-01 -2.274498045444488525e-01
9.023299068212509155e-02 1.891211569309234619e-01 -4.663405716419219971e-01
2.168209999799728394e-01 1.434554159641265869e-01 -6.928852200508117676e-01
-2.907525934278964996e-02 1.951479315757751465e-01 -1.906703412532806396e-01
5.079298019409179688e-01 1.757514327764511108e-01 1.594860255718231201e-01
2.676780223846435547e-01 1.347759217023849487e-01 5.538713335990905762e-01
1.942110657691955566e-01 1.254824697971343994e-01 3.629797399044036865e-01
4.043037593364715576e-01 1.792826354503631592e-01 3.523605465888977051e-01
3.959208726882934570e-01 1.848979294300079346e-01 1.185150891542434692e-01
-4.780125319957733154e-01 1.358657181262969971e-01 2.641111314296722412e-01
2.808086872100830078e-01 1.889285892248153687e-01 -2.617355585098266602e-01
1.504286378622055054e-01 1.791021078824996948e-01 -6.592731475830078125e-01
3.048039972782135010e-01 1.834178566932678223e-01 -4.416995942592620850e-01
1.597602516412734985e-01 1.835283935070037842e-01 -5.751853585243225098e-01
-4.406527876853942871e-01 1.384362876415252686e-01 4.228202402591705322e-01
-3.923290073871612549e-01 1.316951960325241089e-01 -3.099440038204193115e-01
-4.490163549780845642e-02 1.877143532037734985e-01 -5.346629619598388672e-01
-2.665470838546752930e-01 1.249981820583343506e-01 2.496490627527236938e-01
-5.018272399902343750e-01 1.811259686946868896e-01 1.312011629343032837e-01
-4.437351822853088379e-01 1.316119134426116943e-01 -1.511061191558837891e-01
-4.186482727527618408e-01 1.782253831624984741e-01 -4.822194576263427734e-01
-1.345632039010524750e-02 1.907037049531936646e-01 -4.414322972297668457e-01
-3.929979205131530762e-01 1.866537630558013916e-01 2.012072652578353882e-01
-4.245790243148803711e-01 1.844040900468826294e-01 -2.915948629379272461e-01
-2.962542176246643066e-01 1.807440519332885742e-01 -5.742341876029968262e-01
-4.914110153913497925e-02 1.292809247970581055e-01 -5.299459099769592285e-01
-1.837851479649543762e-02 1.954913735389709473e-01 7.939127087593078613e-02
-5.201121568679809570e-01 1.767567992210388184e-01 -3.037404716014862061e-01
3.948625624179840088e-01 1.766466796398162842e-01 -4.652940928936004639e-01
1.424307078123092651e-01 1.208868920803070068e-01 -4.752747341990470886e-02
-2.553086876869201660e-01 1.859843432903289795e-01 4.332295358180999756e-01
4.664983600378036499e-02 1.204062998294830322e-01 -1.256828457117080688e-01
-4.925330579280853271e-01 1.778810918331146240e-01 2.970684468746185303e-01
-6.126677989959716797e-01 1.616584062576293945e-01 -2.432634234428405762e-01
-4.051285982131958008e-02 1.230176240205764771e-01 -3.162705600261688232e-01
2.658711075782775879e-01 1.241776421666145325e-01 1.647976785898208618e-01
-4.582732319831848145e-01 1.789357662200927734e-01 3.459105491638183594e-01
1.831892579793930054e-01 1.520111560821533203e-01 -7.690047621726989746e-01
-5.523203611373901367e-01 1.769201904535293579e-01 1.059397384524345398e-01
-4.250082373619079590e-01 1.869802772998809814e-01 1.986286230385303497e-02
-5.692938566207885742e-01 1.691729128360748291e-01 -3.207026124000549316e-01
-1.408629119396209717e-01 1.310489028692245483e-01 -5.479903221130371094e-01
1.766416281461715698e-01 1.908165067434310913e-01 2.762192785739898682e-01
4.498535990715026855e-01 1.334376186132431030e-01 -1.652451753616333008e-01
8.477569371461868286e-02 1.238013952970504761e-01 3.686470985412597656e-01
-1.371786445379257202e-01 1.235471367835998535e-01 3.300767540931701660e-01
-1.137761920690536499e-01 1.203457638621330261e-01 -2.980727143585681915e-02
2.017882317304611206e-01 1.218586564064025879e-01 4.421179369091987610e-02
-4.114173948764801025e-01 1.288805454969406128e-01 3.844347223639488220e-02
-3.544749915599822998e-01 1.314150094985961914e-01 3.837426602840423584e-01
4.099673777818679810e-02 1.239596456289291382e-01 -3.564686477184295654e-01
5.106235742568969727e-01 1.771284788846969604e-01 5.031313281506299973e-03
-5.405534431338310242e-02 1.957039237022399902e-01 3.386075049638748169e-02
-2.339000701904296875e-01 1.916663944721221924e-01 -2.921658456325531006e-01
-3.217615187168121338e-01 1.843168735504150391e-01 4.130434393882751465e-01
4.356681406497955322e-01 1.790664792060852051e-01 2.872155904769897461e-01
-1.133636161684989929e-01 1.799407899379730225e-01 -6.804618835449218750e-01
-1.608639359474182129e-01 1.274718344211578369e-01 4.656091332435607910e-01
1.563166528940200806e-01 1.937308609485626221e-01 -1.411718279123306274e-01
-9.761314094066619873e-02 1.208142787218093872e-01 -1.383444219827651978e-01
5.580222606658935547e-01 1.529910266399383545e-01 -2.966488301753997803e-01
-2.999930679798126221e-01 1.264661550521850586e-01 -2.494325041770935059e-01
-7.392675429582595825e-02 1.909206807613372803e-01 3.693332970142364502e-01
3.575441539287567139e-01 1.831759661436080933e-01 3.204728364944458008e-01
2.894595861434936523e-01 1.242394447326660156e-01 1.257823407649993896e-02
8.469671010971069336e-02 1.860747188329696655e-01 5.031145811080932617e-01
-8.354804664850234985e-02 1.957088112831115723e-01 -5.620964616537094116e-02
-2.106942534446716309e-01 1.293600052595138550e-01 4.861979484558105469e-01
1.700370907783508301e-01 1.238287538290023804e-01 3.095629811286926270e-01
2.054584324359893799e-01 1.221107393503189087e-01 9.842437505722045898e-02
-1.306404769420623779e-01 1.909467875957489014e-01 3.492619097232818604e-01
-5.129039287567138672e-01 1.471101790666580200e-01 4.264824986457824707e-01
-3.977415859699249268e-01 1.377498954534530640e-01 -4.722944796085357666e-01
-1.831756085157394409e-01 1.921964436769485474e-01 -3.193234801292419434e-01
-2.844929397106170654e-01 1.321507394313812256e-01 -4.778465926647186279e-01
-1.699355393648147583e-01 1.947775781154632568e-01 -9.688146412372589111e-02
-3.198258280754089355e-01 1.290800273418426514e-01 -3.382450342178344727e-01
-1.865972280502319336e-01 1.897356361150741577e-01 3.639636933803558350e-01
-4.413559734821319580e-01 1.306072771549224854e-01 -4.760902374982833862e-02
5.223081111907958984e-01 1.408030539751052856e-01 -1.987056285142898560e-01
4.217633903026580811e-01 1.309582293033599854e-01 1.500554233789443970e-01
3.503581881523132324e-01 1.863614916801452637e-01 1.882942467927932739e-01
-5.470726266503334045e-02 1.257976591587066650e-01 -4.270801544189453125e-01
-7.436518371105194092e-02 1.921440958976745605e-01 3.172518014907836914e-01
-2.903110384941101074e-01 1.722518652677536011e-01 6.518718004226684570e-01
-1.311875581741333008e-01 1.253681927919387817e-01 4.120223224163055420e-01
2.819515168666839600e-01 1.875691711902618408e-01 2.811704576015472412e-01
-4.075523614883422852e-01 1.830044388771057129e-01 3.249336779117584229e-01
1.110868453979492188e-01 1.259641647338867188e-01 -4.084614813327789307e-01
4.796834290027618408e-01 1.346503496170043945e-01 -8.066307753324508667e-02
-2.274453938007354736e-01 1.312966942787170410e-01 -5.051110982894897461e-01
1.875219196081161499e-01 1.215615421533584595e-01 -5.831583403050899506e-03
-9.831120073795318604e-02 1.833321005105972290e-01 5.754510760307312012e-01
5.257838964462280273e-02 1.812586188316345215e-01 -6.602494716644287109e-01
7.645806670188903809e-02 1.858810782432556152e-01 -5.619381666183471680e-01
4.921331107616424561e-01 1.460731923580169678e-01 -4.001138508319854736e-01
-3.784783780574798584e-01 1.891353428363800049e-01 -9.220118075609207153e-02
1.110993176698684692e-01 1.881807744503021240e-01 4.317059218883514404e-01
-3.829414248466491699e-01 1.274856626987457275e-01 -1.569344103336334229e-02
-3.685694038867950439e-01 1.737110763788223267e-01 -6.111644506454467773e-01
7.201689481735229492e-02 1.907545924186706543e-01 -4.168159365653991699e-01
-2.462322413921356201e-01 1.260228008031845093e-01 3.360812067985534668e-01
2.517107427120208740e-01 1.249746978282928467e-01 2.601875662803649902e-01
-1.549776196479797363e-01 1.239689216017723083e-01 -3.079683184623718262e-01
-2.775027155876159668e-01 1.236951053142547607e-01 8.489133417606353760e-02
-2.419754266738891602e-01 1.935392171144485474e-01 4.392883274704217911e-03
3.004819154739379883e-01 1.899159848690032959e-01 4.052452743053436279e-02
6.531234085559844971e-02 1.282024383544921875e-01 5.222241282463073730e-01
-5.426468849182128906e-01 1.787835806608200073e-01 -6.464769691228866577e-02
1.900217533111572266e-01 1.302720308303833008e-01 -4.908057153224945068e-01
-3.962617516517639160e-01 1.874056905508041382e-01 1.406040489673614502e-01
-5.157449245452880859e-01 1.389767974615097046e-01 -2.538249790668487549e-01
4.906874895095825195e-02 1.896568536758422852e-01 4.084572792053222656e-01
1.448831856250762939e-01 1.380928754806518555e-01 6.798688173294067383e-01
1.571491733193397522e-02 1.376276463270187378e-01 -6.888154745101928711e-01
-2.086662501096725464e-01 1.914457380771636963e-01 2.697025537490844727e-01
-1.743392944335937500e-01 1.211810335516929626e-01 5.504911020398139954e-02
-1.730101406574249268e-01 1.354202032089233398e-01 6.348466277122497559e-01
-6.338565349578857422e-01 1.547770798206329346e-01 5.649426579475402832e-02
-4.937459826469421387e-01 1.823106408119201660e-01 8.529064804315567017e-02
-8.486890792846679688e-02 1.735572218894958496e-01 7.236446738243103027e-01
4.009181857109069824e-01 1.851261556148529053e-01 -1.014804393053054810e-01
-1.050556749105453491e-01 1.943796277046203613e-01 1.709170639514923096e-01
-2.528957724571228027e-01 1.228480637073516846e-01 9.574253112077713013e-03
-2.926976382732391357e-01 1.882546097040176392e-01 3.160870969295501709e-01
2.639409303665161133e-01 1.545822620391845703e-01 -7.315541505813598633e-01
2.349617183208465576e-01 1.918580532073974609e-01 8.090708404779434204e-02
1.110558584332466125e-02 1.280887573957443237e-01 -5.004246830940246582e-01
4.320682883262634277e-01 1.753697693347930908e-01 3.942854106426239014e-01
-1.416865289211273193e-01 1.229064911603927612e-01 -2.613488435745239258e-01
-1.108019948005676270e-01 1.322306692600250244e-01 -5.842803716659545898e-01
4.067881107330322266e-01 1.841118484735488892e-01 -1.738994866609573364e-01
4.157046973705291748e-01 1.301105767488479614e-01 9.439543634653091431e-02
1.971819251775741577e-02 1.952259242534637451e-01 -1.655362546443939209e-01
1.782074198126792908e-02 1.946629434823989868e-01 -2.257561981678009033e-01
4.891524612903594971e-01 1.777690798044204712e-01 -1.818625032901763916e-01
-4.173397719860076904e-01 1.869820505380630493e-01 -1.455323994159698486e-01
-5.596517324447631836e-01 1.475527733564376831e-01 3.191348612308502197e-01
-1.902264356613159180e-01 1.223880946636199951e-01 -1.644072085618972778e-01
2.715366333723068237e-02 1.569072306156158447e-01 -8.245589733123779297e-01
2.129933685064315796e-01 1.908882707357406616e-01 2.211060076951980591e-01
-4.465018510818481445e-01 1.855713129043579102e-01 6.224711239337921143e-02
2.584587335586547852e-01 1.284599453210830688e-01 4.052790403366088867e-01
-2.159508317708969116e-01 1.941080242395401001e-01 -5.812227353453636169e-02
-4.494968950748443604e-01 1.746574193239212036e-01 4.510352611541748047e-01
6.262503564357757568e-02 1.818431764841079712e-01 6.021336317062377930e-01
3.188064396381378174e-01 1.285397708415985107e-01 -2.871137857437133789e-01
5.888386964797973633e-01 1.489436775445938110e-01 6.166035681962966919e-02
1.219815611839294434e-01 1.946851909160614014e-01 -1.807880774140357971e-02
1.806655228137969971e-01 1.858676671981811523e-01 -5.054777264595031738e-01
-4.899850189685821533e-01 1.826873272657394409e-01 -1.323084533214569092e-01
-3.562782406806945801e-01 1.875568032264709473e-01 -3.029147982597351074e-01
-4.976513981819152832e-02 1.231566220521926880e-01 3.533414304256439209e-01
-1.750042289495468140e-01 1.292165964841842651e-01 -4.851215481758117676e-01
3.464329987764358521e-02 1.797204315662384033e-01 6.442108154296875000e-01
-9.472960233688354492e-02 1.319595724344253540e-01 6.021412611007690430e-01
2.754917442798614502e-01 1.878246366977691650e-01 -3.302491307258605957e-01
-3.788150250911712646e-01 1.661408245563507080e-01 6.292434930801391602e-01
9.955282509326934814e-02 1.207687556743621826e-01 -1.192449182271957397e-01
2.291279882192611694e-01 1.761816143989562988e-01 -6.532371044158935547e-01
1.887409240007400513e-01 1.266359090805053711e-01 -3.804510533809661865e-01
-5.923306941986083984e-01 1.486707627773284912e-01 2.218881696462631226e-01
1.282947324216365814e-02 1.917371302843093872e-01 3.368473052978515625e-01
2.362926602363586426e-01 1.902201920747756958e-01 -2.754644751548767090e-01
3.484675586223602295e-01 1.495519429445266724e-01 -6.402474641799926758e-01
2.578211426734924316e-01 1.412944942712783813e-01 6.555581688880920410e-01
-2.409094125032424927e-01 1.932280361652374268e-01 7.792022079229354858e-02
