-1.129806637763977051e-01 8.659320324659347534e-02 -6.112453341484069824e-02
-2.687947750091552734e-01 -5.046431422233581543e-01 -2.706509530544281006e-01
-1.476641893386840820e-01 1.526087224483489990e-01 4.549590349197387695e-01
-1.641990840435028076e-01 3.629674315452575684e-01 3.823723196983337402e-01
-4.682680368423461914e-01 -6.761690378189086914e-01 4.185779020190238953e-02
-1.594038605690002441e-01 -1.244565173983573914e-01 -2.804081737995147705e-01
-3.354018926620483398e-01 -5.900406241416931152e-01 -2.611703276634216309e-01
-5.297914743423461914e-01 -1.364948451519012451e-01 -6.357446908950805664e-01
-6.462697982788085938e-01 1.637992560863494873e-01 3.946710228919982910e-01
-6.522180438041687012e-01 4.001342952251434326e-01 1.904052495956420898e-01
-2.316399663686752319e-01 -5.229572057723999023e-01 2.592714130878448486e-01
-2.542879283428192139e-01 -4.607146084308624268e-01 4.464743733406066895e-01
-2.256135344505310059e-01 5.629703402519226074e-01 -1.695609092712402344e-01
-4.790795445442199707e-01 -1.508230343461036682e-02 7.070340514183044434e-01
-5.772981643676757812e-01 3.367539048194885254e-01 4.984984099864959717e-01
-2.563512325286865234e-01 -4.602190554141998291e-01 -3.021441400051116943e-01
-5.199725627899169922e-01 2.700730264186859131e-01 6.236413717269897461e-01
-1.050483584403991699e-01 3.316940367221832275e-02 1.837699413299560547e-01
-2.922495305538177490e-01 -9.738375991582870483e-02 7.111676335334777832e-01
-3.643146157264709473e-01 -6.062341481447219849e-02 7.452167272567749023e-01
-2.500776648521423340e-01 5.899928212165832520e-01 -2.087755203247070312e-01
-1.870936155319213867e-01 4.563530683517456055e-01 3.599288761615753174e-01
-4.193866252899169922e-01 3.891029581427574158e-02 7.434866428375244141e-01
-6.054039001464843750e-01 -5.173680782318115234e-01 5.348183959722518921e-02
-4.729574024677276611e-01 -4.008046388626098633e-01 5.682879686355590820e-01
-6.676220893859863281e-01 -7.692357152700424194e-02 3.241848945617675781e-01
-3.843646347522735596e-01 -6.773636341094970703e-01 -7.179920375347137451e-02
-2.133716791868209839e-01 -1.957242488861083984e-01 -4.137868881225585938e-01
-6.417501568794250488e-01 1.958539895713329315e-02 -4.924498200416564941e-01
-1.777925491333007812e-01 5.065081715583801270e-01 1.777916252613067627e-01
-6.638972163200378418e-01 1.452353000640869141e-01 -4.121877253055572510e-01
-6.171287298202514648e-01 5.363250374794006348e-01 -1.802341341972351074e-01
-6.261562108993530273e-01 -2.592518925666809082e-01 3.855032622814178467e-01
-6.403362751007080078e-01 4.622659385204315186e-01 1.513763815164566040e-01
-6.070443391799926758e-01 5.789244174957275391e-01 -7.397604733705520630e-02
-7.020506858825683594e-01 -1.283092200756072998e-01 -1.624122262001037598e-01
-5.001154541969299316e-01 -4.989615380764007568e-01 4.446570277214050293e-01
-6.183751821517944336e-01 5.349084734916687012e-01 1.195972040295600891e-01
-5.067688226699829102e-01 2.159363627433776855e-01 6.568757891654968262e-01
-1.677437126636505127e-01 4.545359015464782715e-01 -6.839165091514587402e-02
-3.378705084323883057e-01 5.524226427078247070e-01 -4.279698431491851807e-01
-3.817047476768493652e-01 -2.473654747009277344e-01 6.955520510673522949e-01
-4.679794013500213623e-01 -5.582274794578552246e-01 4.062012434005737305e-01
-5.534592866897583008e-01 2.224193215370178223e-01 5.921919345855712891e-01
-1.958406418561935425e-01 -4.641246795654296875e-01 -3.221676498651504517e-02
-2.077327817678451538e-01 -4.981426298618316650e-01 1.768033802509307861e-01
-5.952871441841125488e-01 2.054337412118911743e-03 5.460144877433776855e-01
-5.329685807228088379e-01 4.909110665321350098e-01 -4.762065410614013672e-01
-6.772605180740356445e-01 -1.612377762794494629e-01 2.404670715332031250e-01
-6.823819875717163086e-01 -1.960845887660980225e-01 1.807669997215270996e-01
-5.582131743431091309e-01 9.630902856588363647e-02 -6.298550367355346680e-01
-1.285617649555206299e-01 8.985781669616699219e-02 -1.740210652351379395e-01
-4.796268045902252197e-01 -2.405470609664916992e-01 6.544810533523559570e-01
-6.480135321617126465e-01 4.286934435367584229e-01 -2.385881841182708740e-01
-1.183719933032989502e-01 3.267566487193107605e-02 3.296227753162384033e-01
-3.669856190681457520e-01 -5.166507363319396973e-01 4.973762035369873047e-01
-2.945829629898071289e-01 -3.729217946529388428e-01 -4.617170989513397217e-01
-6.189860105514526367e-01 -1.359956711530685425e-02 -5.412903428077697754e-01
-6.764379739761352539e-01 2.326083183288574219e-01 2.345191240310668945e-01
-3.738079071044921875e-01 2.051256895065307617e-01 -6.518545746803283691e-01
-3.671183288097381592e-01 5.033259987831115723e-01 5.786666870117187500e-01
-1.227393448352813721e-01 -1.652428507804870605e-01 -3.491644561290740967e-02
-1.794180124998092651e-01 3.914362937211990356e-02 -3.799150586128234863e-01
-1.424989402294158936e-01 -1.254927814006805420e-01 4.123855531215667725e-01
-1.427154541015625000e-01 9.743642807006835938e-02 4.489546120166778564e-01
-6.257817149162292480e-01 -4.633773863315582275e-01 -1.435277760028839111e-01
-1.867890059947967529e-01 3.394559025764465332e-01 -3.038991689682006836e-01
-1.951207220554351807e-01 -6.617160141468048096e-02 5.895473957061767578e-01
-1.726170182228088379e-01 4.149138629436492920e-01 -1.709167659282684326e-01
-4.250518381595611572e-01 -4.850331842899322510e-01 -4.676412642002105713e-01
-1.894042938947677612e-01 -2.917485237121582031e-01 4.663613140583038330e-01
-1.140404343605041504e-01 1.565386354923248291e-01 -3.863553702831268311e-02
-1.911358684301376343e-01 -5.211968719959259033e-02 -4.037825465202331543e-01
-5.539627671241760254e-01 5.211720466613769531e-01 3.926970660686492920e-01
-2.678108215332031250e-01 -5.866053104400634766e-01 -7.642499357461929321e-02
-4.353480637073516846e-01 -2.293747067451477051e-01 6.887719035148620605e-01
-1.650971025228500366e-01 1.130869425833225250e-02 -3.336831629276275635e-01
-3.706847131252288818e-01 -4.617963433265686035e-01 5.561670064926147461e-01
-6.659052968025207520e-01 5.706053227186203003e-02 3.444308042526245117e-01
-6.555544137954711914e-01 7.826626300811767578e-02 -4.523697495460510254e-01
-1.674452722072601318e-01 2.830605506896972656e-01 -2.729940414428710938e-01
-5.312275886535644531e-01 -1.511391103267669678e-01 6.286058425903320312e-01
-6.860922574996948242e-01 -2.682464718818664551e-01 -7.817190140485763550e-02
-1.135561764240264893e-01 -4.650542140007019043e-02 2.705762982368469238e-01
-2.434877753257751465e-01 1.390443146228790283e-01 -5.189905762672424316e-01
-1.682944446802139282e-01 -3.984968364238739014e-01 1.878038235008716583e-02
-1.505029499530792236e-01 2.640581130981445312e-01 -2.127253413200378418e-01
-6.907112002372741699e-01 -1.356809139251708984e-01 1.726122200489044189e-01
-1.487812101840972900e-01 -2.062161862850189209e-01 -1.825229823589324951e-01
-2.851185798645019531e-01 -2.896086573600769043e-01 -5.030181407928466797e-01
-4.580961763858795166e-01 3.144883811473846436e-01 6.661553978919982910e-01
-1.279864609241485596e-01 -2.108498811721801758e-01 2.369250357151031494e-01
-1.888716965913772583e-01 4.524897411465644836e-02 5.867665410041809082e-01
-2.510387301445007324e-01 -3.602695763111114502e-01 -3.939192295074462891e-01
-5.929715633392333984e-01 4.413399994373321533e-01 3.804827630519866943e-01
-2.364715784788131714e-01 4.559495449066162109e-01 4.996197521686553955e-01
-5.363030433654785156e-01 3.506664931774139404e-02 -6.531829237937927246e-01
-6.199865341186523438e-01 5.366975069046020508e-02 -5.410236120223999023e-01
-2.820864319801330566e-01 -5.377012491226196289e-01 3.854617774486541748e-01
-4.626820981502532959e-01 1.629804074764251709e-01 7.087041139602661133e-01
-1.295463442802429199e-01 1.576986536383628845e-02 -1.820397675037384033e-01
-6.867207884788513184e-01 -1.171542033553123474e-01 -2.975707650184631348e-01
-1.469720900058746338e-01 -1.747163757681846619e-02 -2.619816958904266357e-01
-4.190027713775634766e-01 -4.155055582523345947e-01 -5.294069647789001465e-01
-1.282714903354644775e-01 1.719113588333129883e-01 3.573388159275054932e-01
-3.554374575614929199e-01 -6.548722982406616211e-01 2.233526110649108887e-01
-1.240738630294799805e-01 -3.073442727327346802e-02 3.561324775218963623e-01
-2.735533118247985840e-01 -5.841937065124511719e-01 2.546566426753997803e-01
-3.593377768993377686e-01 5.775085091590881348e-01 5.038509368896484375e-01
-1.726734191179275513e-01 -3.776867389678955078e-01 -9.108863770961761475e-02
-6.962342262268066406e-01 -2.076267004013061523e-01 -8.269070833921432495e-02
-4.704499244689941406e-01 7.338876128196716309e-01 1.277361512184143066e-01
-1.725664734840393066e-01 4.848814606666564941e-01 -2.377229928970336914e-02
-5.505774021148681641e-01 6.725658178329467773e-01 -4.725376516580581665e-02
-1.770492494106292725e-01 -1.049586758017539978e-02 5.569936037063598633e-01
-3.023668527603149414e-01 -6.137115359306335449e-01 -1.274355947971343994e-01
-3.268018364906311035e-01 1.338888108730316162e-01 -6.305341124534606934e-01
-1.408201158046722412e-01 1.936929225921630859e-01 4.106485843658447266e-01
-6.526533365249633789e-01 3.588659465312957764e-01 -3.162430226802825928e-01
-2.303545922040939331e-01 7.596024870872497559e-02 6.587070226669311523e-01
-6.944404244422912598e-01 2.699311077594757080e-01 -1.190808042883872986e-01
-1.320639848709106445e-01 -1.979965865612030029e-01 2.947897911071777344e-01
-6.901092529296875000e-01 2.859281301498413086e-01 5.900355428457260132e-02
-6.257624626159667969e-01 4.912829101085662842e-01 -2.425147593021392822e-01
-1.776089966297149658e-01 -1.786243319511413574e-01 -3.202476799488067627e-01
-1.272316277027130127e-01 -2.380403578281402588e-01 1.225081682205200195e-01
-1.685045361518859863e-01 2.388340532779693604e-01 4.906988739967346191e-01
-6.887741088867187500e-01 -6.422229856252670288e-02 -3.100663721561431885e-01
-6.897732019424438477e-01 3.089904189109802246e-01 -4.596863687038421631e-02
-2.001957744359970093e-01 -1.047997847199440002e-01 -4.150671660900115967e-01
-1.040644049644470215e-01 1.988742500543594360e-03 9.736181050539016724e-02
-6.207510828971862793e-01 3.254939019680023193e-01 -4.510295689105987549e-01
-5.455206632614135742e-01 -2.153508067131042480e-01 -5.952419042587280273e-01
-4.953217208385467529e-01 -6.233988404273986816e-01 2.344176769256591797e-01
-1.147536039352416992e-01 -1.399707794189453125e-01 4.219270870089530945e-02
-3.529320359230041504e-01 4.543341398239135742e-01 6.142538189888000488e-01
-1.479802727699279785e-01 -3.302651047706604004e-01 4.110748693346977234e-02
-1.620860844850540161e-01 -3.855352401733398438e-01 1.207509264349937439e-01
-6.233228445053100586e-01 -3.355292081832885742e-01 -3.814134895801544189e-01
-6.741749048233032227e-01 -2.829313576221466064e-01 -2.063422203063964844e-01
-3.128975033760070801e-01 -1.501838564872741699e-01 7.117156982421875000e-01
-2.881689667701721191e-01 -1.653076112270355225e-01 -5.618413090705871582e-01
-2.679933905601501465e-01 6.478624939918518066e-01 -1.386085152626037598e-01
-2.271354496479034424e-01 6.002321243286132812e-01 2.339995801448822021e-01
-4.138220846652984619e-01 7.422372698783874512e-02 -6.852546930313110352e-01
-1.852342784404754639e-01 -4.275703728199005127e-01 2.488394379615783691e-01
-2.244281470775604248e-01 -1.194130852818489075e-01 -4.673528075218200684e-01
-6.788631677627563477e-01 3.643983900547027588e-01 -5.323702841997146606e-02
-4.287007451057434082e-01 2.245567440986633301e-01 -6.646478176116943359e-01
-5.116494297981262207e-01 6.267929077148437500e-01 -3.315620422363281250e-01
-1.914077103137969971e-01 5.222387909889221191e-01 -7.541576027870178223e-02
-3.241937756538391113e-01 5.933079123497009277e-02 7.412396669387817383e-01
-1.954256743192672729e-01 5.576837062835693359e-01 5.033512413501739502e-02
-4.314227998256683350e-01 -5.139387845993041992e-01 4.920724630355834961e-01
-2.488294839859008789e-01 -5.774430036544799805e-01 1.125089153647422791e-01
-4.221873879432678223e-01 6.463662981986999512e-01 4.077490568161010742e-01
-4.435243606567382812e-01 -2.542570829391479492e-01 -6.281332373619079590e-01
-1.128645539283752441e-01 1.041536033153533936e-02 -6.234356760978698730e-02
-5.734267234802246094e-01 4.434773027896881104e-01 -4.594639539718627930e-01
-5.312011241912841797e-01 -5.305520296096801758e-01 3.472371101379394531e-01
-5.483161211013793945e-01 -6.064081192016601562e-01 -8.455888926982879639e-02
-4.611999094486236572e-01 6.411283016204833984e-01 -3.577196002006530762e-01
-2.074138373136520386e-01 -4.333823621273040771e-01 3.542266786098480225e-01
-6.636214852333068848e-01 4.087998270988464355e-01 -1.559371054172515869e-01
-3.361260592937469482e-01 6.755390167236328125e-01 3.406379222869873047e-01
-4.227431714534759521e-01 2.092024683952331543e-01 7.204298973083496094e-01
-4.582092761993408203e-01 -6.763186454772949219e-01 9.943420439958572388e-02
-3.701606392860412598e-01 2.683070600032806396e-01 7.123884558677673340e-01
-6.505296230316162109e-01 2.515404820442199707e-01 -4.115702509880065918e-01
-1.362139284610748291e-01 3.318733870983123779e-01 2.505077123641967773e-01
-5.304677486419677734e-01 -5.735867023468017578e-01 -2.664344608783721924e-01
-5.889932513236999512e-01 -4.668942987918853760e-01 2.860521078109741211e-01
-1.070504188537597656e-01 1.285525560379028320e-01 4.425135999917984009e-02
-3.326871395111083984e-01 -6.543914675712585449e-01 1.743756532669067383e-01
-2.853913009166717529e-01 -6.248802542686462402e-01 6.372103095054626465e-02
-1.045542657375335693e-01 4.212130233645439148e-02 5.380588024854660034e-02
-6.829277276992797852e-01 2.918426692485809326e-01 -2.176063358783721924e-01
-2.332158535718917847e-01 2.900164425373077393e-01 -4.540975391864776611e-01
-1.035914123058319092e-01 5.517045408487319946e-02 1.223962306976318359e-01
-6.428862810134887695e-01 -3.289050161838531494e-01 -3.194698095321655273e-01
-6.307516098022460938e-01 5.265855193138122559e-01 -4.343266785144805908e-02
-6.935776472091674805e-01 2.524268031120300293e-01 -1.725676953792572021e-01
-4.561998248100280762e-01 -1.289421617984771729e-01 7.074341177940368652e-01
-5.211932063102722168e-01 5.510063767433166504e-01 4.231496155261993408e-01
-3.170046508312225342e-01 3.425031602382659912e-01 6.669805645942687988e-01
-3.010850846767425537e-01 -4.817445576190948486e-01 -3.680263757705688477e-01
-4.682031869888305664e-01 -6.740909814834594727e-01 -4.006406664848327637e-02
-5.760788917541503906e-01 1.522458344697952271e-01 -6.006432771682739258e-01
-7.091519236564636230e-01 1.246026530861854553e-01 2.206254005432128906e-02
-6.968077421188354492e-01 -1.786976754665374756e-01 6.483030319213867188e-02
-7.130277752876281738e-01 -7.137596607208251953e-03 -4.999377578496932983e-02
-1.130840480327606201e-01 1.822364628314971924e-01 2.215891778469085693e-01
-1.607482433319091797e-01 4.618156254291534424e-01 1.359096616506576538e-01
-4.922423958778381348e-01 -2.142280340194702148e-01 -6.334310173988342285e-01
-4.448874592781066895e-01 4.687197804450988770e-01 -5.478774309158325195e-01
-6.499147415161132812e-01 -9.971373528242111206e-02 -4.511407017707824707e-01
-3.532096743583679199e-01 -5.255106091499328613e-01 -3.838533461093902588e-01
-1.635792404413223267e-01 -3.398919701576232910e-01 3.000547289848327637e-01
-2.956061661243438721e-01 -5.835872888565063477e-01 -1.909408271312713623e-01
-3.906255364418029785e-01 -2.536020874977111816e-01 -6.175255775451660156e-01
-4.650576710700988770e-01 -6.110947132110595703e-01 3.167832195758819580e-01
-5.154422521591186523e-01 6.984940767288208008e-01 1.314100921154022217e-01
-5.774266719818115234e-01 2.865044176578521729e-01 -5.558462738990783691e-01
-1.611554920673370361e-01 7.250006496906280518e-02 5.150614380836486816e-01
-1.147406995296478271e-01 -9.496501833200454712e-02 -2.598892152309417725e-02
-5.228075981140136719e-01 4.508737921714782715e-01 -5.214738249778747559e-01
-4.877236783504486084e-01 2.090680897235870361e-01 -6.603302359580993652e-01
-3.529770374298095703e-01 7.359716892242431641e-01 -9.413772076368331909e-02
-6.728764772415161133e-01 8.324780315160751343e-02 -3.929013609886169434e-01
-1.836705803871154785e-01 -2.331102788448333740e-01 -3.082149624824523926e-01
-1.283039748668670654e-01 -2.385057508945465088e-01 5.056385695934295654e-02
-6.151340603828430176e-01 1.655268371105194092e-01 4.840944707393646240e-01
-6.877888441085815430e-01 -2.094899117946624756e-01 1.211010366678237915e-01
-1.246207058429718018e-01 -7.155976444482803345e-02 -1.284868121147155762e-01
-2.251370102167129517e-01 -4.690199196338653564e-01 -1.906310319900512695e-01
-1.968006044626235962e-01 -4.771281182765960693e-01 2.392617613077163696e-02
-3.416323065757751465e-01 -1.163661107420921326e-02 -6.474741697311401367e-01
-1.090478301048278809e-01 1.794980764389038086e-01 1.172491908073425293e-01
-2.885911166667938232e-01 7.043679356575012207e-01 3.923939913511276245e-02
-4.989824295043945312e-01 -4.798829257488250732e-01 -4.490589201450347900e-01
-5.413768291473388672e-01 6.491764187812805176e-01 2.024368047714233398e-01
-1.064117550849914551e-01 -5.078027397394180298e-02 1.478800773620605469e-01
-5.895935297012329102e-01 -4.171598255634307861e-01 3.525530993938446045e-01
-3.213058412075042725e-01 -4.266926050186157227e-01 -4.533870518207550049e-01
-3.597674965858459473e-01 -5.948628187179565430e-01 3.797369599342346191e-01
-1.692468523979187012e-01 -8.214301615953445435e-02 -3.309680223464965820e-01
-1.129354834556579590e-01 2.059543132781982422e-01 3.903337940573692322e-02
-6.794167757034301758e-01 3.490703701972961426e-01 -1.341076493263244629e-01
-4.564421474933624268e-01 5.900894999504089355e-01 -4.303677678108215332e-01
-4.638523459434509277e-01 4.609403312206268311e-01 5.778607130050659180e-01
-5.567560195922851562e-01 -2.592187821865081787e-01 -5.626053810119628906e-01
-1.729600727558135986e-01 -1.114952787756919861e-01 5.243517756462097168e-01
-1.322495341300964355e-01 -1.572614312171936035e-01 3.374539017677307129e-01
-6.643859148025512695e-01 3.970233201980590820e-01 1.016712859272956848e-01
-1.412343382835388184e-01 2.979598343372344971e-01 -1.324451267719268799e-01
-3.658182621002197266e-01 7.183946967124938965e-01 -1.820526421070098877e-01
-2.131188362836837769e-01 -3.622521162033081055e-01 4.656969606876373291e-01
-6.441397666931152344e-01 -3.293702006340026855e-01 2.527678906917572021e-01
-5.343915224075317383e-01 -6.335455924272537231e-02 -6.472749710083007812e-01
-3.136940598487854004e-01 -5.908612608909606934e-01 3.384678959846496582e-01
-5.937926173210144043e-01 -1.359460949897766113e-01 -5.617794990539550781e-01
-6.502811312675476074e-01 3.445394337177276611e-01 2.706297636032104492e-01
-2.951764762401580811e-01 -2.288143634796142578e-01 -5.471835732460021973e-01
-5.674824714660644531e-01 -5.861269235610961914e-01 -2.946297079324722290e-02
-2.751342356204986572e-01 6.884170174598693848e-01 1.136585772037506104e-01
-6.278402805328369141e-01 3.564233779907226562e-01 3.494608402252197266e-01
-5.435876846313476562e-01 5.240330696105957031e-01 -4.275116920471191406e-01
-1.474795341491699219e-01 1.314423978328704834e-01 -2.586409449577331543e-01
-1.433292329311370850e-01 3.818684443831443787e-02 4.560067057609558105e-01
-3.402485549449920654e-01 -2.993932068347930908e-01 -5.623223781585693359e-01
-1.773684322834014893e-01 2.544328570365905762e-01 -3.245355188846588135e-01
-2.452646046876907349e-01 4.594661295413970947e-01 -3.669717013835906982e-01
-6.446721553802490234e-01 -4.023521840572357178e-01 -1.799316406250000000e-01
-2.305473089218139648e-01 1.122940517961978912e-02 6.597607135772705078e-01
-6.234695315361022949e-01 2.047439813613891602e-01 -5.052595734596252441e-01
-6.609904170036315918e-01 1.423582434654235840e-01 3.481725752353668213e-01
-6.853922605514526367e-01 -2.507626712322235107e-01 7.335650175809860229e-02
-3.767165541648864746e-01 2.914566099643707275e-01 -6.275423169136047363e-01
-5.238544344902038574e-01 6.899932622909545898e-01 -1.374465823173522949e-01
-1.427975594997406006e-01 -9.707786887884140015e-02 -2.204797863960266113e-01
-5.620248913764953613e-01 -5.658321976661682129e-01 -1.908593177795410156e-01
-3.213282525539398193e-01 -4.324383139610290527e-01 5.621215701103210449e-01
-4.224109053611755371e-01 -1.492635160684585571e-02 7.409548163414001465e-01
-6.115282177925109863e-01 -4.684352576732635498e-01 1.837963461875915527e-01
-4.367754757404327393e-01 -6.532327532768249512e-01 -1.877935230731964111e-01
-3.701514005661010742e-01 -3.913587033748626709e-01 -5.272521376609802246e-01
-6.146963238716125488e-01 3.241828978061676025e-01 4.147379398345947266e-01
-5.590465664863586426e-01 -3.138956725597381592e-01 5.126362442970275879e-01
-1.370702981948852539e-01 -2.631523013114929199e-01 2.320122420787811279e-01
-3.607881665229797363e-01 -3.657343983650207520e-01 6.308044791221618652e-01
-6.623429059982299805e-01 2.162323892116546631e-01 3.130644857883453369e-01
-3.108027577400207520e-01 6.421204209327697754e-01 -2.676247656345367432e-01
-6.786266565322875977e-01 2.057559788227081299e-01 -3.251341879367828369e-01
-6.615792512893676758e-01 -3.138761222362518311e-01 1.748525798320770264e-01
-3.881416916847229004e-01 -1.821731030941009521e-01 -6.432933807373046875e-01
-5.510603189468383789e-01 -1.929538547992706299e-01 5.862405300140380859e-01
-7.091625928878784180e-01 -1.430824398994445801e-02 6.151491031050682068e-02
-5.981927514076232910e-01 5.329700112342834473e-01 2.393214702606201172e-01
-5.340615510940551758e-01 5.882951617240905762e-01 3.471817672252655029e-01
-7.007477879524230957e-01 8.576475083827972412e-02 -2.440066039562225342e-01
-7.059853672981262207e-01 8.312136679887771606e-02 9.828659892082214355e-02
-6.471546888351440430e-01 4.662672281265258789e-01 -1.492964625358581543e-01
-2.741573452949523926e-01 5.009505748748779297e-01 -3.873959779739379883e-01
-2.179268449544906616e-01 6.006577014923095703e-01 1.539899110794067383e-01
-1.108298301696777344e-01 -1.098603829741477966e-01 1.534973978996276855e-01
-6.054370403289794922e-01 -2.283098101615905762e-01 -5.031906962394714355e-01
-4.277092516422271729e-01 5.488331317901611328e-01 -4.797140955924987793e-01
-1.360505223274230957e-01 -2.078178226947784424e-01 -1.013045236468315125e-01
-2.598028779029846191e-01 4.004521965980529785e-01 5.821189284324645996e-01
-6.982488036155700684e-01 -1.141306981444358826e-01 -2.183172702789306641e-01
-2.347312718629837036e-01 -4.958522617816925049e-01 3.387404978275299072e-01
-4.018823206424713135e-01 -5.791622996330261230e-01 4.148176014423370361e-01
-6.933162212371826172e-01 1.226844340562820435e-01 -2.842020988464355469e-01
-2.385302335023880005e-01 -1.796022057533264160e-01 -4.757609367370605469e-01
-1.358149647712707520e-01 1.526856124401092529e-01 -1.974695324897766113e-01
-5.818149447441101074e-01 6.014203429222106934e-01 1.552615910768508911e-01
-3.288739323616027832e-01 3.956630229949951172e-01 6.441369652748107910e-01
-6.516186594963073730e-01 -4.061976671218872070e-01 -6.283438205718994141e-02
-1.276283264160156250e-01 2.246677279472351074e-01 3.182773590087890625e-01
-5.064750313758850098e-01 -2.829998135566711426e-01 -5.951871871948242188e-01
-2.794541120529174805e-01 6.630226969718933105e-01 2.630265355110168457e-01
-6.523527503013610840e-01 -4.023397266864776611e-01 1.530800014734268188e-02
-4.860760569572448730e-01 -4.048672914505004883e-01 -5.274530053138732910e-01
-5.386362075805664062e-01 -6.222442984580993652e-01 2.718891575932502747e-02
-5.872158408164978027e-01 -5.160317420959472656e-01 1.953983604907989502e-01
-5.132624506950378418e-01 2.794923782348632812e-01 -6.250462532043457031e-01
-6.017450094223022461e-01 -2.649111747741699219e-01 4.507853388786315918e-01
-2.322151511907577515e-01 -1.520925164222717285e-01 6.321393847465515137e-01
-5.967108607292175293e-01 5.449067354202270508e-01 -2.668730020523071289e-01
-2.918156385421752930e-01 -3.805258870124816895e-01 5.808328390121459961e-01
-2.497923523187637329e-01 3.491816222667694092e-01 -4.569241106510162354e-01
-2.076822817325592041e-01 4.765619039535522461e-01 -2.403408586978912354e-01
-7.097818851470947266e-01 7.606387138366699219e-02 -1.497330367565155029e-01
-5.342543125152587891e-01 -2.875178158283233643e-01 5.691809654235839844e-01
-1.850562095642089844e-01 4.151408076286315918e-01 4.062530398368835449e-01
-4.462012946605682373e-01 5.780183076858520508e-01 4.835591912269592285e-01
-3.988209962844848633e-01 8.922353386878967285e-02 7.469161748886108398e-01
-2.999983727931976318e-01 5.462662577629089355e-01 4.998563826084136963e-01
-3.694030344486236572e-01 3.398013412952423096e-01 6.836141347885131836e-01
-6.700142621994018555e-01 -1.666826903820037842e-01 -3.509998917579650879e-01
-7.049307227134704590e-01 -1.362339258193969727e-01 -8.618512749671936035e-02
-2.424936890602111816e-01 -5.615009665489196777e-01 -1.412271708250045776e-02
-6.888824105262756348e-01 6.310231983661651611e-04 2.356395721435546875e-01
-5.761805772781372070e-01 6.284042000770568848e-01 8.400079607963562012e-02
-3.737790584564208984e-01 -4.596459567546844482e-01 -4.726602435111999512e-01
-1.202731430530548096e-01 2.299391627311706543e-01 2.500904500484466553e-01
-5.166022181510925293e-01 -5.827100872993469238e-01 2.846469879150390625e-01
-4.123658239841461182e-01 7.049406170845031738e-01 3.007146716117858887e-01
-3.465219438076019287e-01 -7.532821595668792725e-02 -6.437720060348510742e-01
-3.270727992057800293e-01 -6.460577249526977539e-01 -8.627096563577651978e-02
-2.182217240333557129e-01 4.745484292507171631e-01 4.386293590068817139e-01
-5.204222202301025391e-01 3.709994554519653320e-01 5.753583908081054688e-01
-2.400032132863998413e-01 -5.640869736671447754e-01 4.874191433191299438e-02
-6.140037178993225098e-01 5.650507807731628418e-01 9.951725602149963379e-03
-5.480514764785766602e-01 6.435263901948928833e-02 6.290289163589477539e-01
-5.373147726058959961e-01 -5.962080955505371094e-01 1.873600184917449951e-01
-1.597674340009689331e-01 -3.591866791248321533e-01 -2.380268648266792297e-02
-4.509027898311614990e-01 7.424912452697753906e-01 -1.011167094111442566e-01
-3.197799324989318848e-01 -2.863231599330902100e-01 6.622395515441894531e-01
-6.674443483352661133e-01 -3.366405665874481201e-01 7.239381223917007446e-02
-1.480652987957000732e-01 -2.934975326061248779e-01 -6.868351995944976807e-02
-1.711257696151733398e-01 4.723515510559082031e-01 2.355468869209289551e-01
-6.495765447616577148e-01 -2.168831527233123779e-01 3.315946161746978760e-01
-1.532279551029205322e-01 -3.313400149345397949e-01 2.359979152679443359e-01
-6.590534448623657227e-01 4.385296404361724854e-01 2.102854661643505096e-02
-2.994479537010192871e-01 9.646687656641006470e-03 -6.074067354202270508e-01
-1.542343795299530029e-01 -2.035972774028778076e-01 4.134549200534820557e-01
-7.038624286651611328e-01 1.738638877868652344e-01 5.610531941056251526e-02
-6.324405670166015625e-01 -1.653158366680145264e-01 4.174834489822387695e-01
-7.081917524337768555e-01 -5.269428342580795288e-02 -1.533702015876770020e-01
-2.948027253150939941e-01 1.787247955799102783e-01 -5.886581540107727051e-01
-4.904063940048217773e-01 7.302368283271789551e-01 -4.160810261964797974e-02
-6.943562030792236328e-01 -1.766810119152069092e-01 -1.885595023632049561e-01
-5.975424647331237793e-01 3.156908452510833740e-01 -5.075628161430358887e-01
-5.468148589134216309e-01 -4.628871679306030273e-01 4.058926403522491455e-01
-1.388816833496093750e-01 -6.580466777086257935e-02 4.214709699153900146e-01
-6.097822189331054688e-01 -1.717711389064788818e-01 4.769646823406219482e-01
-5.986993312835693359e-01 -1.072874143719673157e-01 5.231095552444458008e-01
-3.003285527229309082e-01 1.676498949527740479e-01 7.164248228073120117e-01
-2.601027786731719971e-01 -2.500089704990386963e-01 6.290173530578613281e-01
-6.385929584503173828e-01 2.362972795963287354e-01 3.914818167686462402e-01
-1.083934307098388672e-01 2.479383721947669983e-02 2.381742894649505615e-01
-6.351556777954101562e-01 -4.542398750782012939e-01 -3.672675043344497681e-02
-2.503901422023773193e-01 -5.306705832481384277e-01 -1.645781397819519043e-01
-6.323971748352050781e-01 4.456227719783782959e-01 2.295208573341369629e-01
-5.801960825920104980e-01 -5.553245544433593750e-01 -1.295495629310607910e-01
-5.076276063919067383e-01 7.173870801925659180e-01 4.340960085391998291e-02
-3.991357684135437012e-01 -1.116106137633323669e-01 7.348937988281250000e-01
-3.806260228157043457e-01 6.874909400939941406e-01 -2.720173597335815430e-01
-6.750632524490356445e-01 3.086825013160705566e-01 1.695228815078735352e-01
-5.631130337715148926e-01 -5.239778757095336914e-01 -2.887758910655975342e-01
-5.646790266036987305e-01 2.954201698303222656e-01 5.447368025779724121e-01
-1.241228580474853516e-01 2.488555014133453369e-01 -5.208453536033630371e-02
-2.252728193998336792e-01 -9.442084282636642456e-02 6.377780437469482422e-01
-4.492376744747161865e-01 6.759206652641296387e-01 3.363671302795410156e-01
-6.351628303527832031e-01 -3.790241181850433350e-01 -2.839995920658111572e-01
-6.624832749366760254e-01 2.779584825038909912e-01 -3.496194779872894287e-01
-6.970483064651489258e-01 1.528660953044891357e-01 1.491620540618896484e-01
-4.595234096050262451e-01 -6.035212278366088867e-01 -2.973842620849609375e-01
-5.255615711212158203e-01 4.996470808982849121e-01 4.708652496337890625e-01
-6.194244623184204102e-01 8.323168382048606873e-03 4.908816814422607422e-01
-2.074690610170364380e-01 5.358864665031433105e-01 3.061504065990447998e-01
-6.968637704849243164e-01 2.623867690563201904e-01 -1.634695753455162048e-02
-7.007360458374023438e-01 1.674859225749969482e-01 -1.997845470905303955e-01
-1.166349351406097412e-01 -1.487588584423065186e-01 1.978352367877960205e-01
-1.924458742141723633e-01 5.505270361900329590e-01 1.244938820600509644e-01
-1.108179092407226562e-01 1.090389937162399292e-01 2.517637312412261963e-01
-2.918364703655242920e-01 4.999440312385559082e-01 5.390654206275939941e-01
-6.703664064407348633e-01 -3.385989665985107422e-01 8.902778849005699158e-03
-5.191228985786437988e-01 3.579108119010925293e-01 -5.851671099662780762e-01
-1.976755857467651367e-01 8.010257780551910400e-02 -4.282434880733489990e-01
-6.130909919738769531e-01 1.502335518598556519e-01 -5.420393347740173340e-01
-4.414277672767639160e-01 -7.660028338432312012e-02 7.258759140968322754e-01
-2.339615076780319214e-01 2.109215259552001953e-01 -4.849817752838134766e-01
-2.891044616699218750e-01 -4.695000946521759033e-01 4.930188357830047607e-01
-1.640384346246719360e-01 -1.930530369281768799e-01 -2.622429132461547852e-01
-6.812137365341186523e-01 -1.879232525825500488e-01 -2.785823941230773926e-01
-3.591150641441345215e-01 4.805678427219390869e-01 -5.118365883827209473e-01
-4.508908987045288086e-01 -8.016618341207504272e-02 -6.794807314872741699e-01
-5.476520061492919922e-01 6.737409234046936035e-01 5.742894858121871948e-02
-2.098781317472457886e-01 1.827669739723205566e-01 -4.408906102180480957e-01
-2.457496076822280884e-01 -2.644590735435485840e-01 -4.495351910591125488e-01
-6.263639926910400391e-01 4.013951420783996582e-01 3.121984899044036865e-01
-5.113506317138671875e-01 1.754571311175823212e-02 6.771742701530456543e-01
-5.443766117095947266e-01 -5.697245001792907715e-01 2.362040579319000244e-01
-5.750069618225097656e-01 -5.573179125785827637e-01 1.344858407974243164e-01
-2.295614182949066162e-01 3.949436545372009277e-01 -3.840295672416687012e-01
-1.577319800853729248e-01 -1.608030200004577637e-01 4.548244178295135498e-01
-6.347599029541015625e-01 -4.160524010658264160e-01 1.616378426551818848e-01
-5.780074596405029297e-01 -6.722527742385864258e-02 -6.008910536766052246e-01
-6.474394798278808594e-01 -2.666096985340118408e-01 3.027223050594329834e-01
-1.106376647949218750e-01 -1.130402907729148865e-01 9.985903650522232056e-02
-7.102447152137756348e-01 -6.570301949977874756e-02 -9.253567457199096680e-02
-6.067973375320434570e-01 4.896869659423828125e-01 2.762514352798461914e-01
-5.405722260475158691e-01 -4.132364392280578613e-01 4.694590270519256592e-01
-2.090784907341003418e-01 2.468109428882598877e-01 -4.180258810520172119e-01
-5.531171560287475586e-01 -5.376827716827392578e-01 2.784202694892883301e-01
-6.475714445114135742e-01 -1.780712008476257324e-01 -4.258960187435150146e-01
-4.656941294670104980e-01 4.138578176498413086e-01 6.085481047630310059e-01
-5.630800724029541016e-01 -1.293425858020782471e-01 5.863862037658691406e-01
-6.594385504722595215e-01 4.386488497257232666e-01 -8.716598898172378540e-02
-1.508106887340545654e-01 4.195365905761718750e-01 1.424689032137393951e-02
-4.765591621398925781e-01 -1.411856710910797119e-01 -6.622786521911621094e-01
-1.317989528179168701e-01 3.465447425842285156e-01 1.077647060155868530e-01
-6.419634222984313965e-01 -4.208760559558868408e-01 8.647838234901428223e-02
-5.288997888565063477e-01 -6.010880321264266968e-02 6.503773331642150879e-01
-5.673311352729797363e-01 -2.498136758804321289e-01 5.337808728218078613e-01
-2.878899276256561279e-01 1.133832335472106934e-02 7.206012606620788574e-01
-7.066099047660827637e-01 1.764027476310729980e-01 -8.642144501209259033e-02
-2.142518460750579834e-01 5.181158781051635742e-01 3.663111925125122070e-01
-4.265944659709930420e-01 -6.711543798446655273e-01 -1.252929270267486572e-01
-1.504459977149963379e-01 2.615259885787963867e-01 4.127990901470184326e-01
-4.244989156723022461e-01 6.660746932029724121e-01 -3.269039690494537354e-01
-6.852275133132934570e-01 2.273466885089874268e-01 -2.725453674793243408e-01
-1.706163585186004639e-01 3.443413674831390381e-01 -2.395054697990417480e-01
-3.276639580726623535e-01 3.786965012550354004e-01 -5.512909293174743652e-01
-2.967836856842041016e-01 -9.952097386121749878e-02 -5.902822613716125488e-01
-2.053657621145248413e-01 -5.006046891212463379e-01 8.943678438663482666e-02
-2.774050235748291016e-01 2.250117063522338867e-01 6.848867535591125488e-01
-3.189216852188110352e-01 -5.187362432479858398e-01 4.660024344921112061e-01
-4.844064116477966309e-01 -6.508436799049377441e-01 1.672314107418060303e-01
-5.715839862823486328e-01 6.295706629753112793e-01 -1.476504206657409668e-01
-2.523384690284729004e-01 3.467663750052452087e-02 -5.418090820312500000e-01
-6.923894882202148438e-01 1.033272221684455872e-01 2.049995064735412598e-01
-6.517747044563293457e-01 -1.313569843769073486e-01 3.674535751342773438e-01
-6.996067166328430176e-01 -1.142068952322006226e-02 -2.560681104660034180e-01
-2.432695180177688599e-01 6.044238805770874023e-01 2.972406148910522461e-01
-1.270646154880523682e-01 6.647639721632003784e-02 3.813577890396118164e-01
-5.569441914558410645e-01 -4.553253948688507080e-01 -4.051751494407653809e-01
-4.878143966197967529e-01 6.841831207275390625e-01 2.615085542201995850e-01
-4.659101963043212891e-01 -3.211223483085632324e-01 -5.916623473167419434e-01
-6.691934466361999512e-01 3.554871976375579834e-01 -2.258596718311309814e-01
-6.383896470069885254e-01 4.985965490341186523e-01 5.213443189859390259e-02
-2.924023866653442383e-01 6.979731321334838867e-01 -5.750174820423126221e-02
-1.064751148223876953e-01 -4.339437186717987061e-02 6.045118346810340881e-02
-5.813829302787780762e-01 6.274634599685668945e-01 1.913138106465339661e-02
-3.656048774719238281e-01 -5.805870890617370605e-01 -3.159996569156646729e-01
-6.429833173751831055e-01 -2.747840583324432373e-01 -3.747133016586303711e-01
-3.776291906833648682e-01 7.548707723617553711e-01 9.447324275970458984e-02
-6.985123157501220703e-01 4.549726843833923340e-02 1.733599305152893066e-01
-6.809080839157104492e-01 3.395270109176635742e-01 5.419513583183288574e-02
-7.099571228027343750e-01 2.070911973714828491e-02 -1.569198071956634521e-01
-2.460583746433258057e-01 -8.318968862295150757e-02 -5.183216333389282227e-01
-6.593860387802124023e-01 -3.189690411090850830e-01 -2.507510185241699219e-01
-6.002272367477416992e-01 5.087618827819824219e-01 -3.185330331325531006e-01
-1.490807235240936279e-01 3.905695974826812744e-01 -5.176560580730438232e-02
-6.278167366981506348e-01 -4.713655412197113037e-01 1.328503154218196869e-02
-3.330520391464233398e-01 2.167144119739532471e-01 7.209870815277099609e-01
-4.131266772747039795e-01 4.503625631332397461e-01 6.145034432411193848e-01
-1.181548237800598145e-01 5.171117559075355530e-02 -1.098276898264884949e-01
-4.096603393554687500e-01 -3.014977276325225830e-01 6.662556529045104980e-01
-5.253123044967651367e-01 1.658456623554229736e-01 6.470003724098205566e-01
-5.029896497726440430e-01 -5.150642991065979004e-01 -4.035093784332275391e-01
-2.954025268554687500e-01 -6.329774260520935059e-01 1.178365722298622131e-01
-2.223526835441589355e-01 -5.185019373893737793e-01 -4.886941611766815186e-02
-2.730410397052764893e-01 2.538535892963409424e-01 -5.387365221977233887e-01
-5.617427229881286621e-01 3.981625139713287354e-01 4.902129471302032471e-01
-1.655391007661819458e-01 1.485274136066436768e-01 5.153055787086486816e-01
-3.762895762920379639e-01 -6.249839663505554199e-01 3.264737725257873535e-01
-5.438573360443115234e-01 -3.437683284282684326e-01 -5.261544585227966309e-01
-3.764235377311706543e-01 7.227668166160583496e-01 2.531081438064575195e-01
-5.731161236763000488e-01 2.351554669439792633e-02 -6.155947446823120117e-01
-5.638002157211303711e-01 2.384680807590484619e-01 -5.930342674255371094e-01
-2.098057121038436890e-01 -2.209676802158355713e-01 5.639042258262634277e-01
-1.536368131637573242e-01 -3.511339128017425537e-01 1.682734787464141846e-01
-1.208045780658721924e-01 -1.343201100826263428e-01 2.710115313529968262e-01
-1.936019510030746460e-01 1.229327470064163208e-01 5.897935628890991211e-01
-1.255972385406494141e-01 -1.032067015767097473e-01 3.336976468563079834e-01
-1.900507807731628418e-01 -3.225263953208923340e-01 -2.562716603279113770e-01
-5.173889398574829102e-01 6.662054061889648438e-01 -2.383196949958801270e-01
2.638701796531677246e-01 7.061729431152343750e-01 -3.334107100963592529e-01
5.505828261375427246e-01 3.762855827808380127e-01 3.924441635608673096e-01
-8.364118635654449463e-02 4.219229519367218018e-01 3.200729787349700928e-01
4.429138004779815674e-01 6.930167675018310547e-01 2.125764042139053345e-01
2.671490609645843506e-01 7.391271591186523438e-01 1.638830304145812988e-01
-5.080698430538177490e-02 6.148381233215332031e-01 -2.112950384616851807e-01
4.000476002693176270e-01 1.481085717678070068e-01 -4.208416342735290527e-01
1.939064860343933105e-01 7.482897639274597168e-01 -1.260852366685867310e-01
2.143011987209320068e-01 5.529284477233886719e-03 5.272408947348594666e-02
6.096873283386230469e-01 3.394034504890441895e-01 -2.916153073310852051e-01
1.235260739922523499e-01 7.278636693954467773e-01 -1.551754176616668701e-01
6.005934476852416992e-01 2.226611226797103882e-01 -1.545671969652175903e-01
5.409197509288787842e-02 4.345289170742034912e-01 4.803768396377563477e-01
2.277418375015258789e-01 6.913849115371704102e-01 -3.665964901447296143e-01
2.290068566799163818e-01 5.062531232833862305e-01 -5.910075306892395020e-01
-1.841917634010314941e-03 5.318786501884460449e-01 -4.542971253395080566e-01
2.115544825792312622e-01 7.261118888854980469e-01 1.973914951086044312e-01
4.909534156322479248e-01 5.832128524780273438e-01 -4.001335203647613525e-01
4.910565614700317383e-01 6.472712755203247070e-01 -2.959999740123748779e-01
3.701202869415283203e-01 7.477474808692932129e-01 -8.383046090602874756e-02
5.559100508689880371e-01 6.189181804656982422e-01 -2.247035950422286987e-01
2.560923993587493896e-02 6.441158056259155273e-01 -3.089218735694885254e-01
-1.044306606054306030e-01 1.843516975641250610e-01 1.633204817771911621e-01
2.338900864124298096e-01 7.017441391944885254e-01 2.805248200893402100e-01
-1.518728584051132202e-01 2.286891490221023560e-01 -1.686909645795822144e-01
4.104410409927368164e-01 7.356021404266357422e-01 -9.968915581703186035e-02
6.469491124153137207e-02 4.556090831756591797e-01 -5.636507272720336914e-01
3.537648618221282959e-01 2.789342403411865234e-02 6.238845363259315491e-02
-1.440734714269638062e-01 2.035779654979705811e-01 3.230220451951026917e-02
-1.503354161977767944e-01 4.653134644031524658e-01 9.915988147258758545e-02
3.903118968009948730e-01 7.242681980133056641e-01 -2.098221033811569214e-01
4.197042584419250488e-01 6.033107638359069824e-02 1.131782084703445435e-01
3.627246618270874023e-01 7.486236691474914551e-01 4.568211361765861511e-02
-4.204945266246795654e-02 6.385126113891601562e-01 3.352439031004905701e-02
3.292930722236633301e-01 7.497926950454711914e-01 8.489577472209930420e-02
4.157204627990722656e-01 9.430953860282897949e-02 -2.957977056503295898e-01
6.643667221069335938e-01 3.888733386993408203e-01 -7.509443163871765137e-02
1.625130474567413330e-01 3.731399774551391602e-03 -4.698527231812477112e-02
2.778233885765075684e-01 6.640071868896484375e-01 3.652068674564361572e-01
3.431460857391357422e-01 6.968842744827270508e-01 2.855312526226043701e-01
2.955770492553710938e-01 6.583195924758911133e-02 2.812885940074920654e-01
4.812220335006713867e-01 5.251161456108093262e-01 4.299145936965942383e-01
-8.511826395988464355e-03 2.886686623096466064e-01 4.196731448173522949e-01
5.057305693626403809e-01 2.616533339023590088e-01 -4.305507540702819824e-01
-6.542091071605682373e-02 1.797821670770645142e-01 2.494611442089080811e-01
-1.032428890466690063e-01 5.285936594009399414e-01 -2.713794708251953125e-01
6.110944747924804688e-01 2.189832478761672974e-01 2.651626989245414734e-02
6.072843670845031738e-01 5.199908614158630371e-01 -2.568501532077789307e-01
1.249194145202636719e-01 6.031632423400878906e-02 2.529352605342864990e-01
5.997668504714965820e-01 3.988262712955474854e-01 -3.330249190330505371e-01
-5.189226567745208740e-02 6.012879014015197754e-01 1.577041149139404297e-01
3.073407709598541260e-01 2.396093606948852539e-01 -5.686998963356018066e-01
3.231100738048553467e-02 4.612318873405456543e-01 4.517037570476531982e-01
5.199983716011047363e-03 3.826672136783599854e-01 4.478198587894439697e-01
-4.104183614253997803e-02 6.375994682312011719e-01 -1.410204470157623291e-01
5.633810162544250488e-01 1.618965417146682739e-01 -1.079249382019042969e-01
6.154097616672515869e-02 7.107280492782592773e-01 -5.569318681955337524e-02
2.650892734527587891e-01 1.908874362707138062e-01 4.798519611358642578e-01
1.703630238771438599e-01 1.474684476852416992e-02 -1.829482018947601318e-01
4.626234173774719238e-01 7.238137722015380859e-02 -2.350035309791564941e-02
6.447124481201171875e-02 6.670638918876647949e-01 -3.081881403923034668e-01
6.438014507293701172e-01 4.143528342247009277e-01 1.868500411510467529e-01
-6.139059364795684814e-02 2.274654954671859741e-01 3.122934997081756592e-01
5.453460216522216797e-01 2.030501961708068848e-01 2.612490952014923096e-01
-1.068712025880813599e-01 1.443502455949783325e-01 -1.242863982915878296e-01
6.180351376533508301e-01 2.415289282798767090e-01 9.151227772235870361e-02
2.684373259544372559e-01 4.154372215270996094e-02 2.226934432983398438e-01
9.857602417469024658e-02 1.433333307504653931e-01 3.895147442817687988e-01
-1.337503045797348022e-01 5.276496410369873047e-01 1.929223164916038513e-02
3.278680145740509033e-02 6.534079313278198242e-01 2.112595885992050171e-01
4.295210540294647217e-01 5.438166856765747070e-01 -4.981482625007629395e-01
1.052543073892593384e-01 7.217111587524414062e-01 7.768440246582031250e-02
6.500808596611022949e-01 5.159756541252136230e-01 1.188773661851882935e-03
3.068647980690002441e-01 1.499230712652206421e-01 -4.847469031810760498e-01
4.191478490829467773e-01 3.389606475830078125e-01 -5.548734664916992188e-01
5.763192772865295410e-01 5.947978496551513672e-01 1.991918534040451050e-01
2.249109745025634766e-02 4.148504137992858887e-02 -5.435907468199729919e-02
-2.242870628833770752e-02 6.064825654029846191e-01 2.191425859928131104e-01
5.573641657829284668e-01 1.536457538604736328e-01 6.728069484233856201e-02
-1.178240031003952026e-01 5.430437326431274414e-01 7.178425788879394531e-02
4.450822472572326660e-01 2.067451924085617065e-01 -4.512183070182800293e-01
9.750556945800781250e-02 7.329896092414855957e-02 -3.473070263862609863e-01
5.753223896026611328e-01 5.326384305953979492e-01 -3.207646608352661133e-01
5.313269495964050293e-01 5.502394437789916992e-01 3.513122200965881348e-01
5.948666930198669434e-01 6.094948649406433105e-01 7.141438126564025879e-02
5.772066116333007812e-01 6.310826539993286133e-01 -9.025636315345764160e-02
-1.699171960353851318e-02 1.476700603961944580e-01 2.818533182144165039e-01
1.922051608562469482e-01 3.055754303932189941e-02 -2.624278664588928223e-01
-1.188275068998336792e-01 5.541803240776062012e-01 -1.072388291358947754e-01
4.114136993885040283e-01 1.101599633693695068e-01 -3.399979770183563232e-01
4.310949444770812988e-01 5.638056397438049316e-01 4.390809834003448486e-01
3.357915580272674561e-02 5.949214100837707520e-01 3.307445943355560303e-01
4.025448560714721680e-01 4.122601151466369629e-01 -5.712265372276306152e-01
1.543360948562622070e-02 6.752446293830871582e-02 -2.315784096717834473e-01
5.339040160179138184e-01 4.703162610530853271e-01 4.027899205684661865e-01
5.664994716644287109e-01 1.790684908628463745e-01 1.414903998374938965e-01
-1.130979508161544800e-01 4.752742052078247070e-01 -3.216132223606109619e-01
1.974080502986907959e-02 6.879166364669799805e-01 -2.566552348434925079e-02
4.390048682689666748e-01 4.092775285243988037e-01 -5.460469126701354980e-01
5.080551505088806152e-01 1.864467263221740723e-01 -3.391671478748321533e-01
6.203786134719848633e-01 3.342340886592864990e-01 2.366084754467010498e-01
2.480270117521286011e-01 7.589555978775024414e-01 -4.150987416505813599e-02
6.179791688919067383e-02 5.200849175453186035e-01 -5.236831903457641602e-01
1.217016205191612244e-01 2.217755615711212158e-01 -5.571082830429077148e-01
6.534465551376342773e-01 4.780285358428955078e-01 9.839485585689544678e-02
4.011117815971374512e-01 4.140976071357727051e-02 7.494252175092697144e-03
4.120289087295532227e-01 6.138310432434082031e-01 3.968634903430938721e-01
-1.256412118673324585e-01 4.516708254814147949e-01 2.077648788690567017e-01
6.058560013771057129e-01 2.603816986083984375e-01 1.958039999008178711e-01
-1.474456042051315308e-01 2.766145467758178711e-01 -2.626378238201141357e-01
1.817747801542282104e-01 9.948551654815673828e-03 8.281967043876647949e-02
5.284305214881896973e-01 1.846323162317276001e-01 -2.960457205772399902e-01
6.189017891883850098e-01 3.713995516300201416e-01 2.598412036895751953e-01
6.542986631393432617e-02 2.070773243904113770e-01 -5.194133520126342773e-01
4.914104640483856201e-01 2.885897755622863770e-01 -4.674279689788818359e-01
-9.608443081378936768e-02 2.128847539424896240e-01 2.302135527133941650e-01
4.924516677856445312e-01 6.981750726699829102e-01 -1.043334603309631348e-01
4.888300299644470215e-01 5.218786001205444336e-01 -4.595998525619506836e-01
6.336073875427246094e-01 5.116583108901977539e-01 -1.746283173561096191e-01
1.840426474809646606e-01 2.017471939325332642e-01 -5.556243658065795898e-01
6.383157372474670410e-01 3.499696254730224609e-01 1.873547881841659546e-01
3.919298052787780762e-01 7.438262104988098145e-01 1.488031446933746338e-02
-1.804055273532867432e-02 6.268536448478698730e-01 -2.679789662361145020e-01
1.538018584251403809e-01 2.714461088180541992e-02 1.616019606590270996e-01
-2.478037774562835693e-02 5.565320849418640137e-01 3.025137484073638916e-01
2.886011302471160889e-01 1.993854641914367676e-01 -5.437452793121337891e-01
-6.846740841865539551e-03 1.589735746383666992e-01 -4.058358371257781982e-01
3.266626298427581787e-01 1.785066723823547363e-02 -8.801658451557159424e-02
6.471493840217590332e-01 3.422966301441192627e-01 1.409180611371994019e-01
1.740223616361618042e-01 6.207457780838012695e-01 4.076708555221557617e-01
3.847230374813079834e-01 4.257224798202514648e-01 5.327789783477783203e-01
4.704757332801818848e-01 8.377951383590698242e-02 -1.207718849182128906e-01
1.616511493921279907e-01 7.334431409835815430e-01 -1.878450810909271240e-01
3.382275402545928955e-01 5.905529260635375977e-01 -5.074814558029174805e-01
-3.207488358020782471e-02 3.830662667751312256e-01 4.064108133316040039e-01
