1.607531756162643433e-01 -3.759562969207763672e-01 5.227881073951721191e-01
-1.567808836698532104e-01 -5.175125598907470703e-01 -3.160034418106079102e-01
4.199404716491699219e-01 -3.103263974189758301e-01 3.194448649883270264e-01
4.248682856559753418e-01 -2.893714904785156250e-01 2.313081473112106323e-01
-1.678368896245956421e-01 -3.549694120883941650e-01 3.382560312747955322e-01
3.271538019180297852e-02 -6.072944402694702148e-01 -2.555568814277648926e-01
-1.887282878160476685e-01 -3.287929296493530273e-01 -1.779338717460632324e-01
2.147036939859390259e-01 -6.659123897552490234e-01 7.465748488903045654e-02
-6.105564534664154053e-02 -2.687245905399322510e-01 1.936128363013267517e-02
2.545444965362548828e-01 -2.720987796783447266e-01 -2.332796007394790649e-01
-1.377943605184555054e-01 -3.273401260375976562e-01 -2.461508363485336304e-01
1.093323305249214172e-01 -6.341797709465026855e-01 -1.847259700298309326e-01
6.912700533866882324e-01 -4.345626533031463623e-01 -5.307395383715629578e-02
2.542974948883056641e-01 -5.780931711196899414e-01 -3.416302502155303955e-01
-1.431937515735626221e-02 -2.738513648509979248e-01 -1.653266698122024536e-01
4.911785125732421875e-01 -6.227387189865112305e-01 1.148977503180503845e-01
1.998563110828399658e-01 -6.048320531845092773e-01 4.565731287002563477e-01
1.544286906719207764e-01 -5.194313526153564453e-01 -4.348551928997039795e-01
1.000866070389747620e-01 -2.516769170761108398e-01 -9.220986068248748779e-02
4.693136215209960938e-01 -3.135361075401306152e-01 -2.371768206357955933e-01
6.324875950813293457e-01 -5.256708860397338867e-01 -1.227007657289505005e-01
3.917303681373596191e-01 -3.001737892627716064e-01 3.064888417720794678e-01
-1.526674479246139526e-01 -2.949990034103393555e-01 -5.286183580756187439e-02
2.466147541999816895e-01 -3.652243912220001221e-01 -4.360444545745849609e-01
6.766166090965270996e-01 -4.163263440132141113e-01 1.834904700517654419e-01
-3.223857879638671875e-01 -4.392432570457458496e-01 2.200232744216918945e-01
3.386639356613159180e-01 -3.002687692642211914e-01 3.388138115406036377e-01
5.354181528091430664e-01 -5.846206545829772949e-01 -1.227281391620635986e-01
6.104879379272460938e-01 -4.770749509334564209e-01 3.503397107124328613e-01
2.653078138828277588e-01 -6.228546500205993652e-01 -2.184955030679702759e-01
3.470820784568786621e-01 -4.870649874210357666e-01 -4.309248924255371094e-01
2.233373820781707764e-01 -2.562958598136901855e-01 -1.539064794778823853e-01
4.371516704559326172e-01 -6.375320553779602051e-01 9.042786061763763428e-02
-1.971503049135208130e-01 -3.151856660842895508e-01 1.332386285066604614e-01
3.089425861835479736e-01 -3.355461657047271729e-01 4.402301907539367676e-01
3.515565991401672363e-01 -2.767367959022521973e-01 -2.046780139207839966e-01
-1.164988428354263306e-01 -4.923053085803985596e-01 -3.698893487453460693e-01
-2.702055573463439941e-01 -5.280169248580932617e-01 -1.570458710193634033e-01
1.151847392320632935e-01 -6.617948412895202637e-01 -7.146421819925308228e-03
-3.317937254905700684e-03 -2.755754590034484863e-01 2.156078368425369263e-01
5.637533068656921387e-01 -4.849893152713775635e-01 -2.877324521541595459e-01
-2.514500021934509277e-01 -4.229825139045715332e-01 -2.522237300872802734e-01
6.206143498420715332e-01 -4.714081883430480957e-01 -2.219906002283096313e-01
9.603103995323181152e-02 -4.150283336639404297e-01 5.543575882911682129e-01
4.190406203269958496e-01 -2.677253484725952148e-01 -1.461057737469673157e-02
5.107795596122741699e-01 -5.725728273391723633e-01 -1.998884528875350952e-01
4.389861226081848145e-01 -4.818868935108184814e-01 -3.915059566497802734e-01
-3.649249672889709473e-02 -3.524878621101379395e-01 4.362105429172515869e-01
2.457889914512634277e-01 -2.625343799591064453e-01 -1.879350841045379639e-01
3.056174516677856445e-01 -6.506279706954956055e-01 2.441068440675735474e-01
2.016135305166244507e-01 -5.341525077819824219e-01 5.577321648597717285e-01
-2.343366891145706177e-01 -3.280834555625915527e-01 -4.472931101918220520e-02
4.250434041023254395e-01 -6.348773837089538574e-01 2.025692313909530640e-01
3.603003025054931641e-01 -3.632768392562866211e-01 -4.028025865554809570e-01
-1.149793416261672974e-01 -2.916511297225952148e-01 1.656504422426223755e-01
1.352685838937759399e-01 -2.497434169054031372e-01 -9.061723947525024414e-02
-2.248566895723342896e-01 -5.901170969009399414e-01 1.842862516641616821e-01
-2.453049570322036743e-01 -3.432975411415100098e-01 -1.093635559082031250e-01
3.013550639152526855e-01 -2.559647560119628906e-01 1.294165551662445068e-01
5.582761764526367188e-01 -3.086895942687988281e-01 4.495828598737716675e-02
-1.274129301309585571e-01 -4.134937524795532227e-01 4.609516561031341553e-01
2.995770573616027832e-01 -3.642015755176544189e-01 4.921088218688964844e-01
2.722086906433105469e-01 -2.629089355468750000e-01 2.046978473663330078e-01
1.930325031280517578e-01 -5.616062283515930176e-01 5.306776762008666992e-01
2.022628486156463623e-01 -2.652050852775573730e-01 2.365290522575378418e-01
5.054114460945129395e-01 -3.655191361904144287e-01 3.808261454105377197e-01
-1.688189804553985596e-02 -6.294451951980590820e-01 -1.464615464210510254e-01
3.131831586360931396e-01 -4.593400955200195312e-01 5.618991851806640625e-01
-8.876517415046691895e-03 -6.549335718154907227e-01 9.660005569458007812e-02
3.720942139625549316e-01 -6.499868631362915039e-01 1.302356868982315063e-01
-8.920212090015411377e-02 -6.402392387390136719e-01 1.089278608560562134e-01
2.097063064575195312e-01 -6.645401716232299805e-01 2.998435869812965393e-02
1.276609152555465698e-01 -5.939630270004272461e-01 4.783793389797210693e-01
1.314563453197479248e-01 -6.560341715812683105e-01 -6.790259480476379395e-02
-6.591914594173431396e-02 -4.808139503002166748e-01 -4.065644741058349609e-01
4.644684791564941406e-01 -4.358795881271362305e-01 -3.884449899196624756e-01
3.149377107620239258e-01 -6.142829656600952148e-01 4.030354022979736328e-01
3.512375950813293457e-01 -2.574001550674438477e-01 6.936066597700119019e-02
2.181570231914520264e-01 -4.394492506980895996e-01 5.726448893547058105e-01
-2.487910836935043335e-01 -4.184918105602264404e-01 3.428184688091278076e-01
-1.249842196702957153e-01 -3.005091547966003418e-01 2.033121287822723389e-01
-1.031607389450073242e-02 -2.911462783813476562e-01 -2.492090314626693726e-01
-1.164697557687759399e-01 -6.068873405456542969e-01 -1.484560519456863403e-01
4.439401030540466309e-01 -6.324629783630371094e-01 3.149323165416717529e-03
-2.093768268823623657e-01 -5.974634885787963867e-01 1.834038496017456055e-01
-1.190077811479568481e-01 -5.696969032287597656e-01 4.136762022972106934e-01
-1.117944866418838501e-01 -6.283141970634460449e-01 2.096561789512634277e-01
1.684156656265258789e-01 -5.666109919548034668e-01 5.247904658317565918e-01
-2.618895173072814941e-01 -3.949219584465026855e-01 2.894915342330932617e-01
1.159992590546607971e-01 -6.313763856887817383e-01 3.782838881015777588e-01
8.112213015556335449e-02 -2.565384507179260254e-01 1.492886990308761597e-01
6.078401207923889160e-01 -3.395544588565826416e-01 1.319146305322647095e-01
5.416200160980224609e-01 -6.029679775238037109e-01 1.556656509637832642e-01
-3.284342288970947266e-01 -4.010048210620880127e-01 -2.748036012053489685e-02
4.027127325534820557e-01 -6.446635127067565918e-01 6.770268827676773071e-02
-1.657543331384658813e-01 -2.993286252021789551e-01 8.988492935895919800e-02
-2.204790264368057251e-01 -5.980152487754821777e-01 1.095630228519439697e-01
4.330793619155883789e-01 -4.124153256416320801e-01 4.913840591907501221e-01
-4.743397235870361328e-03 -4.158078432083129883e-01 5.284765958786010742e-01
1.906112134456634521e-01 -2.576741576194763184e-01 1.905116736888885498e-01
1.489048451185226440e-01 -4.680313169956207275e-01 -4.689588546752929688e-01
3.234517574310302734e-02 -6.458864212036132812e-01 -9.238392114639282227e-02
5.676457881927490234e-01 -4.632108211517333984e-01 4.065908193588256836e-01
9.113833308219909668e-03 -2.659628987312316895e-01 1.626705229282379150e-01
-8.159728348255157471e-02 -6.404724717140197754e-01 1.518310606479644775e-01
1.607243716716766357e-01 -6.572852134704589844e-01 -6.167848035693168640e-02
3.231872320175170898e-01 -3.531750738620758057e-01 -4.048107266426086426e-01
-2.158966809511184692e-01 -4.634865522384643555e-01 4.082764685153961182e-01
1.206491068005561829e-01 -2.684471607208251953e-01 -2.196888178586959839e-01
-6.089434027671813965e-02 -2.755380272865295410e-01 1.404445618391036987e-01
4.380628466606140137e-03 -2.574742734432220459e-01 -3.648817539215087891e-03
-9.346647560596466064e-02 -6.151311993598937988e-01 3.129480481147766113e-01
4.061470627784729004e-01 -6.100023388862609863e-01 -1.849991083145141602e-01
-1.951987296342849731e-01 -5.619860887527465820e-01 -1.971363574266433716e-01
-1.914836466312408447e-02 -6.446109414100646973e-01 2.380706965923309326e-01
1.872122287750244141e-03 -6.553988456726074219e-01 1.452565640211105347e-01
3.880409598350524902e-01 -2.836122512817382812e-01 -2.061793357133865356e-01
5.022687315940856934e-01 -3.810057640075683594e-01 4.086211025714874268e-01
6.819001436233520508e-01 -4.044172167778015137e-01 -4.348427429795265198e-02
-2.451127767562866211e-02 -4.378860294818878174e-01 -4.357568323612213135e-01
2.499591112136840820e-01 -6.459257602691650391e-01 -1.203283071517944336e-01
4.691545963287353516e-01 -4.579548835754394531e-01 4.910539090633392334e-01
7.844226807355880737e-02 -5.437040925025939941e-01 -3.977974355220794678e-01
5.667157769203186035e-01 -3.235889971256256104e-01 -1.142938733100891113e-01
7.670013606548309326e-02 -5.123417973518371582e-01 -4.329216778278350830e-01
4.788880348205566406e-01 -6.236289739608764648e-01 1.699233949184417725e-01
5.313577055931091309e-01 -3.005020618438720703e-01 8.961603790521621704e-02
3.027510344982147217e-01 -5.182303786277770996e-01 -4.191478192806243896e-01
-5.147868394851684570e-02 -4.025060236454010010e-01 4.968995153903961182e-01
7.115139067173004150e-02 -6.283782720565795898e-01 -1.979371160268783569e-01
4.084419608116149902e-01 -3.043603599071502686e-01 3.085716366767883301e-01
1.328249424695968628e-01 -4.716585874557495117e-01 5.796236395835876465e-01
5.785337686538696289e-01 -4.415598809719085693e-01 3.891019225120544434e-01
6.832301020622253418e-01 -3.987376093864440918e-01 -8.416716009378433228e-03
-1.539872586727142334e-02 -3.414081633090972900e-01 4.256283044815063477e-01
1.128698438405990601e-01 -6.611866354942321777e-01 2.067937999963760376e-01
-2.098131179809570312e-02 -6.168981790542602539e-01 -1.960782110691070557e-01
3.866403996944427490e-01 -4.992964863777160645e-01 -4.063917100429534912e-01
1.374463438987731934e-01 -6.383217573165893555e-01 3.549658060073852539e-01
-3.371412158012390137e-01 -4.086150228977203369e-01 7.443165779113769531e-02
-1.940159946680068970e-01 -3.937007784843444824e-01 -3.010283410549163818e-01
4.944905042648315430e-01 -6.219433546066284180e-01 7.463640719652175903e-02
5.797113180160522461e-01 -3.224489688873291016e-01 -6.177691742777824402e-02
6.612208485603332520e-01 -5.017703175544738770e-01 -1.026060581207275391e-01
6.715868711471557617e-01 -5.246081352233886719e-01 4.946094751358032227e-02
4.941063523292541504e-01 -6.022501587867736816e-01 -1.132465004920959473e-01
-2.360391169786453247e-01 -5.524166822433471680e-01 3.068858981132507324e-01
-7.606233656406402588e-02 -4.250870347023010254e-01 -4.095779657363891602e-01
4.044345319271087646e-01 -5.058586001396179199e-01 -3.922643661499023438e-01
-2.880100011825561523e-01 -5.604088306427001953e-01 5.790274590253829956e-02
6.919841170310974121e-01 -4.201690256595611572e-01 -2.587526664137840271e-02
1.813483685255050659e-01 -2.518712878227233887e-01 -1.230775266885757446e-01
4.832614064216613770e-01 -3.440474271774291992e-01 3.574610054492950439e-01
1.141652315855026245e-01 -6.656734943389892578e-01 7.122358679771423340e-02
5.120211839675903320e-01 -2.916553318500518799e-01 -2.077296376228332520e-03
1.501689553260803223e-01 -4.880219399929046631e-01 -4.595660567283630371e-01
3.105796873569488525e-02 -4.114429950714111328e-01 -4.498681426048278809e-01
5.309566259384155273e-01 -3.220379948616027832e-01 -1.825837194919586182e-01
-2.279219180345535278e-01 -5.098918080329895020e-01 3.796741366386413574e-01
1.673127710819244385e-02 -6.373038291931152344e-01 -1.316166222095489502e-01
-1.322420090436935425e-01 -3.837190866470336914e-01 4.236216843128204346e-01
-4.976600408554077148e-03 -6.242623329162597656e-01 3.551426827907562256e-01
3.131139278411865234e-01 -6.404946446418762207e-01 3.028514087200164795e-01
6.843156367540359497e-02 -5.824896097183227539e-01 4.887665212154388428e-01
-2.473185807466506958e-01 -3.676546216011047363e-01 2.544743120670318604e-01
-1.060303002595901489e-01 -2.945551872253417969e-01 2.000893056392669678e-01
4.970349073410034180e-01 -3.215602636337280273e-01 2.798857390880584717e-01
1.191608607769012451e-01 -2.575278878211975098e-01 1.779761165380477905e-01
-6.394357979297637939e-02 -2.924315631389617920e-01 -2.072222083806991577e-01
-1.783532053232192993e-01 -4.677613973617553711e-01 -3.353530168533325195e-01
6.292466521263122559e-01 -4.046066403388977051e-01 -1.969904750585556030e-01
5.648853778839111328e-01 -5.809132456779479980e-01 2.391880452632904053e-01
4.091222584247589111e-01 -5.912951827049255371e-01 -2.435636669397354126e-01
-4.981261491775512695e-02 -5.299599766731262207e-01 -3.718778789043426514e-01
-1.521662324666976929e-01 -6.237313747406005859e-01 8.770959824323654175e-02
6.285310983657836914e-01 -3.688274025917053223e-01 2.045395672321319580e-01
4.594920277595520020e-01 -2.845423817634582520e-01 1.493352800607681274e-01
-1.222107559442520142e-01 -3.171007335186004639e-01 2.804784476757049561e-01
3.450430035591125488e-01 -4.355602264404296875e-01 5.449703931808471680e-01
1.116231158375740051e-01 -6.396645307540893555e-01 3.450061082839965820e-01
-2.899373769760131836e-01 -5.545541048049926758e-01 -2.031274139881134033e-03
-1.339161545038223267e-01 -3.522128462791442871e-01 3.666602969169616699e-01
4.610599279403686523e-01 -6.315826177597045898e-01 8.681450784206390381e-02
-1.732491999864578247e-01 -6.127389669418334961e-01 -3.690570592880249023e-03
3.859100937843322754e-01 -6.209881305694580078e-01 3.349148929119110107e-01
5.548242479562759399e-02 -2.513725161552429199e-01 2.779849804937839508e-02
1.399939507246017456e-01 -6.224061846733093262e-01 -2.337466329336166382e-01
2.195093035697937012e-01 -6.022538542747497559e-01 -2.916044890880584717e-01
-2.367356270551681519e-01 -5.410591363906860352e-01 -1.872003674507141113e-01
7.963424175977706909e-02 -6.362640261650085449e-01 -1.675611287355422974e-01
6.060701012611389160e-01 -5.272123217582702637e-01 -1.732069849967956543e-01
5.737566351890563965e-01 -3.769043684005737305e-01 -2.505065500736236572e-01
2.907379865646362305e-01 -5.994414091110229492e-01 -2.826224863529205322e-01
3.293545246124267578e-01 -2.570211291313171387e-01 1.075347289443016052e-01
9.900060296058654785e-02 -5.904315710067749023e-01 4.810719192028045654e-01
-2.025925070047378540e-01 -5.355485677719116211e-01 -2.442473620176315308e-01
-3.507490158081054688e-01 -4.802912473678588867e-01 4.429987072944641113e-02
4.144127368927001953e-01 -3.404254913330078125e-01 -3.438338637351989746e-01
3.967539668083190918e-01 -2.632569670677185059e-01 2.859324403107166290e-02
-2.568320631980895996e-01 -3.385603129863739014e-01 -2.020330354571342468e-02
4.015144407749176025e-01 -5.462883710861206055e-01 -3.440331220626831055e-01
-1.198346912860870361e-02 -3.561474084854125977e-01 -3.909961581230163574e-01
-1.833377927541732788e-01 -6.113216280937194824e-01 1.475057750940322876e-01
-1.869443804025650024e-01 -6.060475111007690430e-01 1.902251392602920532e-01
2.380138635635375977e-01 -2.482665181159973145e-01 -6.465372443199157715e-02
6.984754800796508789e-01 -4.550169706344604492e-01 -1.772667840123176575e-02
-1.700064092874526978e-01 -5.824550986289978027e-01 3.301862180233001709e-01
5.092043280601501465e-01 -3.527831137180328369e-01 -2.882914841175079346e-01
1.172585338354110718e-01 -2.702033519744873047e-01 2.545318901538848877e-01
2.287846505641937256e-01 -3.185890018939971924e-01 -3.721954524517059326e-01
1.815790832042694092e-01 -3.137904107570648193e-01 4.117717146873474121e-01
1.879401654005050659e-01 -6.535500884056091309e-01 -8.845789730548858643e-02
6.160215735435485840e-01 -5.687843561172485352e-01 1.088871806859970093e-01
-3.000005483627319336e-01 -3.697481155395507812e-01 9.564953297376632690e-02
4.045060873031616211e-01 -6.422140598297119141e-01 1.678105890750885010e-01
3.975475132465362549e-01 -5.888544321060180664e-01 -2.583305239677429199e-01
3.766366839408874512e-02 -2.549006938934326172e-01 -5.635647848248481750e-02
1.282655000686645508e-01 -2.647693157196044922e-01 2.282664626836776733e-01
3.343417644500732422e-01 -6.561443209648132324e-01 9.827648103237152100e-02
2.046679109334945679e-01 -6.658514142036437988e-01 1.372007876634597778e-01
-1.409012526273727417e-01 -3.208473622798919678e-01 2.711686193943023682e-01
5.392705649137496948e-02 -3.095299005508422852e-01 3.790930211544036865e-01
4.254348874092102051e-01 -3.330874443054199219e-01 3.782643675804138184e-01
-4.950582981109619141e-03 -5.995711684226989746e-01 4.277853667736053467e-01
-1.585093289613723755e-01 -3.101520836353302002e-01 1.965727210044860840e-01
1.992078721523284912e-01 -4.983311295509338379e-01 -4.525889754295349121e-01
-1.226809471845626831e-01 -6.232311129570007324e-01 -4.920161888003349304e-02
-5.285714566707611084e-02 -2.674098014831542969e-01 -1.587778702378273010e-02
4.660199880599975586e-01 -3.065356016159057617e-01 -2.172958999872207642e-01
1.121245548129081726e-01 -6.228079795837402344e-01 -2.287368327379226685e-01
5.081030726432800293e-01 -3.044286966323852539e-01 1.881709843873977661e-01
1.160339117050170898e-01 -2.488324940204620361e-01 -6.478790938854217529e-02
-1.372270137071609497e-01 -3.112137913703918457e-01 2.373651266098022461e-01
6.591539382934570312e-01 -3.691581487655639648e-01 6.184575706720352173e-02
-2.130225449800491333e-01 -3.503250479698181152e-01 -2.042016834020614624e-01
-2.005632370710372925e-01 -5.784295797348022461e-01 2.963701784610748291e-01
3.173473477363586426e-01 -4.984533488750457764e-01 -4.326182901859283447e-01
2.729820609092712402e-01 -5.595201253890991211e-01 -3.717518150806427002e-01
-6.696121394634246826e-02 -3.156730234622955322e-01 -2.829988300800323486e-01
3.965386748313903809e-01 -6.304358243942260742e-01 -9.890145063400268555e-02
8.797556161880493164e-03 -2.629090845584869385e-01 -1.106924116611480713e-01
5.347109436988830566e-01 -3.727802634239196777e-01 3.643138706684112549e-01
3.943136930465698242e-01 -6.174136996269226074e-01 -1.658367067575454712e-01
6.095695495605468750e-01 -5.153714418411254883e-01 -1.897485256195068359e-01
-1.633072346448898315e-01 -4.384952187538146973e-01 4.504117071628570557e-01
1.819730997085571289e-01 -5.635936856269836426e-01 -3.764134943485260010e-01
5.403723567724227905e-02 -5.083349347114562988e-01 5.600072741508483887e-01
2.800754308700561523e-01 -2.880289256572723389e-01 -2.851419150829315186e-01
3.523382842540740967e-01 -3.068465590476989746e-01 -3.087705671787261963e-01
2.394404709339141846e-01 -6.625592112541198730e-01 1.764262318611145020e-01
2.775052785873413086e-01 -6.593012809753417969e-01 8.764024823904037476e-03
5.422600507736206055e-01 -5.897458791732788086e-01 -8.520486950874328613e-02
-1.686993390321731567e-01 -3.266338706016540527e-01 -2.032131701707839966e-01
2.090466767549514771e-01 -2.791440486907958984e-01 -2.698759734630584717e-01
1.334421485662460327e-01 -3.206158280372619629e-01 4.253368377685546875e-01
1.184388473629951477e-01 -2.728486061096191406e-01 -2.390997558832168579e-01
2.399456501007080078e-02 -6.080998778343200684e-01 4.201893210411071777e-01
3.389534950256347656e-01 -2.550693452358245850e-01 -2.865817770361900330e-02
6.454222202301025391e-01 -4.014267921447753906e-01 2.443440258502960205e-01
-7.053537666797637939e-02 -6.400685310363769531e-01 -7.236249744892120361e-03
2.542649209499359131e-02 -2.782252430915832520e-01 2.520363926887512207e-01
-2.631891369819641113e-01 -3.466926217079162598e-01 -6.276580691337585449e-02
3.016473650932312012e-01 -3.252995610237121582e-01 4.205890297889709473e-01
-2.200400978326797485e-01 -4.492706954479217529e-01 -2.975752949714660645e-01
2.621563374996185303e-01 -6.623340845108032227e-01 1.526593714952468872e-01
3.372809886932373047e-01 -5.959660410881042480e-01 -2.733622789382934570e-01
2.727319598197937012e-01 -2.723162472248077393e-01 -2.282199710607528687e-01
1.156027093529701233e-01 -2.957780957221984863e-01 -3.168957233428955078e-01
3.945926725864410400e-01 -5.615600347518920898e-01 4.733292162418365479e-01
-2.548156380653381348e-01 -4.559697508811950684e-01 -2.535275518894195557e-01
3.841939866542816162e-01 -5.189259052276611328e-01 -3.889759778976440430e-01
3.032410144805908203e-01 -5.494509935379028320e-01 5.263448953628540039e-01
6.435410976409912109e-01 -5.315548777580261230e-01 2.143848240375518799e-01
3.948725461959838867e-01 -5.150074958801269531e-01 5.202051997184753418e-01
-3.192409873008728027e-01 -5.141203999519348145e-01 1.911314874887466431e-01
-1.279230564832687378e-01 -6.245331764221191406e-01 2.033633142709732056e-01
5.878265500068664551e-01 -5.794323086738586426e-01 -1.541563495993614197e-02
-1.326553970575332642e-01 -6.046715974807739258e-01 3.059423863887786865e-01
5.541039109230041504e-01 -4.192546010017395020e-01 -3.103888034820556641e-01
-3.140009641647338867e-01 -3.890260457992553711e-01 1.353034079074859619e-01
-2.761159539222717285e-01 -4.050767123699188232e-01 -1.974121779203414917e-01
-1.194814294576644897e-01 -5.690672397613525391e-01 -2.607574462890625000e-01
3.324452638626098633e-01 -6.561814546585083008e-01 1.191280782222747803e-01
9.599532932043075562e-02 -5.636776685714721680e-01 -3.703640103340148926e-01
4.771195054054260254e-01 -5.276389122009277344e-01 -3.219475448131561279e-01
2.945409417152404785e-01 -2.824196815490722656e-01 -2.606196403503417969e-01
4.275248646736145020e-01 -6.359962224960327148e-01 1.841731220483779907e-01
-2.129777818918228149e-01 -3.219585120677947998e-01 1.332178115844726562e-01
3.560708165168762207e-01 -2.567939162254333496e-01 -4.121799021959304810e-03
5.472917109727859497e-02 -2.513900399208068848e-01 -3.853376954793930054e-03
-2.926351428031921387e-01 -4.388152360916137695e-01 -1.911181509494781494e-01
5.502101778984069824e-01 -5.455290079116821289e-01 -2.183917909860610962e-01
-3.292101621627807617e-02 -4.047247469425201416e-01 5.077643394470214844e-01
6.386781930923461914e-01 -5.412551164627075195e-01 -5.191692337393760681e-02
4.371773600578308105e-01 -4.455430507659912109e-01 -4.049225449562072754e-01
6.495534777641296387e-01 -5.352679491043090820e-01 1.779526770114898682e-01
4.717884659767150879e-01 -3.442288041114807129e-01 -3.081945478916168213e-01
-2.294197529554367065e-01 -5.857594013214111328e-01 -3.834592923521995544e-02
-1.675882190465927124e-01 -4.202411174774169922e-01 4.346091747283935547e-01
4.073768258094787598e-01 -6.418129205703735352e-01 2.111379802227020264e-02
1.298979669809341431e-01 -5.664352774620056152e-01 -3.699044883251190186e-01
2.832101583480834961e-01 -2.490489184856414795e-01 3.225446492433547974e-02
5.671763420104980469e-01 -5.682476758956909180e-01 -1.286241263151168823e-01
1.745480298995971680e-01 -2.452826648950576782e-01 -1.639774814248085022e-02
8.787816017866134644e-02 -3.959981203079223633e-01 -4.561542272567749023e-01
7.990688830614089966e-02 -6.208514571189880371e-01 -2.282419651746749878e-01
3.635628223419189453e-01 -2.645384967327117920e-01 1.405997425317764282e-01
-1.647763997316360474e-01 -5.337293148040771484e-01 -2.869565486907958984e-01
4.486143589019775391e-01 -3.481182754039764404e-01 3.946881294250488281e-01
8.249203115701675415e-02 -6.639024615287780762e-01 6.579474359750747681e-02
-2.313179224729537964e-01 -4.306668639183044434e-01 -2.819826900959014893e-01
3.797686100006103516e-01 -2.602760195732116699e-01 6.477676331996917725e-03
-1.109973639249801636e-01 -3.028174936771392822e-01 2.358473092317581177e-01
4.015150964260101318e-01 -6.022617816925048828e-01 -2.159482687711715698e-01
-7.162444293498992920e-02 -6.220409870147705078e-01 3.078009486198425293e-01
2.555620670318603516e-01 -2.554455697536468506e-01 -1.356057822704315186e-01
2.182523906230926514e-01 -5.895800590515136719e-01 4.860767722129821777e-01
4.922927618026733398e-01 -5.318937301635742188e-01 4.430193006992340088e-01
-2.260362058877944946e-01 -3.212295174598693848e-01 4.071507602930068970e-02
6.710559129714965820e-01 -4.162794947624206543e-01 -1.110521256923675537e-01
-2.851870656013488770e-01 -5.440070629119873047e-01 -7.667751610279083252e-02
1.921663433313369751e-01 -6.124238967895507812e-01 -2.658955752849578857e-01
-9.177251160144805908e-02 -3.380735218524932861e-01 -3.147663176059722900e-01
6.750616431236267090e-01 -4.024193584918975830e-01 1.567811369895935059e-01
4.113097786903381348e-01 -6.386035680770874023e-01 -1.110778376460075378e-02
2.887717187404632568e-01 -6.606940031051635742e-01 5.734426155686378479e-02
3.858971595764160156e-01 -6.460261940956115723e-01 2.315124496817588806e-02
-2.070968002080917358e-01 -3.873958587646484375e-01 -2.794020175933837891e-01
3.399076163768768311e-01 -4.241035580635070801e-01 -4.472286701202392578e-01
-2.234002947807312012e-02 -5.032124519348144531e-01 -4.114992916584014893e-01
-1.578411012887954712e-01 -4.478846490383148193e-01 -3.569165468215942383e-01
5.801423192024230957e-01 -3.524435162544250488e-01 -1.930729597806930542e-01
1.352841556072235107e-01 -2.711085081100463867e-01 -2.351765781641006470e-01
3.873608112335205078e-01 -4.163727164268493652e-01 5.173602104187011719e-01
1.685025244951248169e-01 -4.504807889461517334e-01 5.780358910560607910e-01
8.293540030717849731e-02 -6.589064598083496094e-01 -2.128000184893608093e-02
1.510568708181381226e-01 -6.532093286514282227e-01 2.814049720764160156e-01
-8.220054209232330322e-02 -3.419217169284820557e-01 3.865787684917449951e-01
-1.768584996461868286e-01 -3.152030706405639648e-01 1.872099339962005615e-01
5.908863544464111328e-01 -3.828358352184295654e-01 -2.343954294919967651e-01
-5.477574467658996582e-02 -3.427353203296661377e-01 4.066966474056243896e-01
-1.947690695524215698e-01 -6.006300449371337891e-01 2.073265910148620605e-01
6.502907276153564453e-01 -5.386809110641479492e-01 -1.365223154425621033e-02
3.358286023139953613e-01 -2.717730402946472168e-01 -1.913886666297912598e-01
-6.517305970191955566e-03 -6.457725167274475098e-01 -5.788045004010200500e-02
3.606854975223541260e-01 -3.286100924015045166e-01 -3.523797690868377686e-01
3.644286990165710449e-01 -5.445746183395385742e-01 5.095203518867492676e-01
2.955865561962127686e-01 -3.204803466796875000e-01 -3.619236350059509277e-01
-1.778628379106521606e-01 -3.017942309379577637e-01 5.626067519187927246e-02
-3.043101429939270020e-01 -5.047621130943298340e-01 -1.271949708461761475e-01
-1.453743129968643188e-01 -5.349744558334350586e-01 -3.023206591606140137e-01
-7.859344780445098877e-02 -3.306508660316467285e-01 3.623577654361724854e-01
4.901984333992004395e-01 -5.951867103576660156e-01 -1.500426828861236572e-01
2.485098540782928467e-01 -3.070973753929138184e-01 3.883661627769470215e-01
-1.236254125833511353e-01 -4.643912315368652344e-01 4.884993135929107666e-01
-3.319519758224487305e-01 -3.996207714080810547e-01 2.950417995452880859e-02
-3.422053456306457520e-01 -4.575831890106201172e-01 1.612570136785507202e-01
5.685751438140869141e-01 -4.378125965595245361e-01 -2.989585101604461670e-01
1.983416825532913208e-01 -6.373106241226196289e-01 3.591329157352447510e-01
-1.905308216810226440e-01 -5.910170078277587891e-01 2.680668234825134277e-01
5.820066332817077637e-01 -4.810001552104949951e-01 3.875509500503540039e-01
2.721967101097106934e-01 -6.397178173065185547e-01 -1.445727199316024780e-01
-2.439316958189010620e-01 -3.424685597419738770e-01 1.665727198123931885e-01
6.190270185470581055e-02 -2.870846092700958252e-01 -2.746713757514953613e-01
2.782868146896362305e-01 -5.179852843284606934e-01 -4.252857863903045654e-01
-1.081507056951522827e-01 -3.189820051193237305e-01 -2.548080980777740479e-01
1.838608980178833008e-01 -3.611539900302886963e-01 5.031257271766662598e-01
-2.435296922922134399e-01 -3.316571712493896484e-01 -2.872378006577491760e-02
-2.106532454490661621e-02 -3.316374123096466064e-01 4.016637504100799561e-01
4.699799418449401855e-02 -4.930426478385925293e-01 5.634074807167053223e-01
-8.277784287929534912e-02 -4.501553177833557129e-01 -4.073601961135864258e-01
-3.323926329612731934e-01 -4.791643619537353516e-01 1.961694061756134033e-01
-1.132013648748397827e-01 -6.080440878868103027e-01 3.177671134471893311e-01
-4.547153413295745850e-02 -6.464969515800476074e-01 1.467164978384971619e-02
2.915645241737365723e-01 -3.383792936801910400e-01 -3.938983678817749023e-01
-1.366390436887741089e-01 -6.102704405784606934e-01 -1.049002110958099365e-01
-2.466331869363784790e-01 -5.588378906250000000e-01 2.699849307537078857e-01
4.619261026382446289e-01 -4.358380138874053955e-01 4.888059198856353760e-01
-3.082164525985717773e-01 -4.008885025978088379e-01 1.972778290510177612e-01
-2.135086804628372192e-01 -5.072084665298461914e-01 3.989776372909545898e-01
-2.705219388008117676e-01 -3.726993799209594727e-01 2.195716500282287598e-01
1.606869399547576904e-01 -2.855742871761322021e-01 3.265499472618103027e-01
-2.083369642496109009e-01 -3.145188093185424805e-01 7.261914014816284180e-02
4.431760907173156738e-01 -6.250844001770019531e-01 -6.594800949096679688e-02
5.836291313171386719e-01 -5.401217341423034668e-01 -1.824472695589065552e-01
6.311385035514831543e-01 -3.519958555698394775e-01 1.146186143159866333e-01
2.624519467353820801e-01 -2.660556137561798096e-01 2.277603447437286377e-01
-8.762077987194061279e-02 -6.369141340255737305e-01 -1.332752406597137451e-03
2.850378751754760742e-01 -6.504368185997009277e-01 2.619964182376861572e-01
1.900889426469802856e-01 -3.111288249492645264e-01 -3.598914146423339844e-01
-1.346907764673233032e-01 -5.639371275901794434e-01 4.102813005447387695e-01
4.624435305595397949e-01 -4.853052496910095215e-01 -3.747911155223846436e-01
3.387910127639770508e-01 -2.568268179893493652e-01 8.841773867607116699e-02
4.721719026565551758e-01 -2.799108624458312988e-01 -3.507956862449645996e-03
2.495256811380386353e-01 -2.575569152832031250e-01 -1.545897871255874634e-01
1.386994421482086182e-01 -6.662266254425048828e-01 6.291471421718597412e-02
3.035916388034820557e-02 -3.117458820343017578e-01 3.760982751846313477e-01
4.127242565155029297e-01 -3.865045309066772461e-01 4.770340621471405029e-01
5.961018800735473633e-01 -5.767750144004821777e-01 4.758313298225402832e-05
5.709769129753112793e-01 -4.092746376991271973e-01 3.742934763431549072e-01
6.216900795698165894e-02 -6.403969526290893555e-01 3.253355324268341064e-01
9.593798220157623291e-02 -2.670808136463165283e-01 2.309633493423461914e-01
2.619293332099914551e-01 -3.865143060684204102e-01 -4.510750770568847656e-01
-1.805407553911209106e-01 -5.375018715858459473e-01 -2.653490006923675537e-01
6.561800241470336914e-01 -5.400677919387817383e-01 6.057042255997657776e-02
1.856546401977539062e-01 -4.040869176387786865e-01 5.521839857101440430e-01
-1.512966901063919067e-01 -4.945770204067230225e-01 -3.428247272968292236e-01
3.490269482135772705e-01 -2.640777230262756348e-01 1.550041586160659790e-01
2.301970273256301880e-01 -5.730939507484436035e-01 -3.554854393005371094e-01
1.984270513057708740e-01 -2.571003139019012451e-01 -1.637369543313980103e-01
5.258131027221679688e-01 -3.393988907337188721e-01 -2.418760210275650024e-01
5.236021876335144043e-01 -3.949099481105804443e-01 4.078337550163269043e-01
3.926780819892883301e-01 -2.652928531169891357e-01 -6.934741139411926270e-02
3.937190175056457520e-01 -2.761627435684204102e-01 -1.613486409187316895e-01
-1.918623596429824829e-01 -3.485741913318634033e-01 -2.320151180028915405e-01
-7.755021750926971436e-02 -3.722041547298431396e-01 4.454228878021240234e-01
5.955157279968261719e-01 -4.410800933837890625e-01 -2.664760351181030273e-01
-8.541761338710784912e-02 -2.886952459812164307e-01 1.967056840658187866e-01
-2.250417023897171021e-01 -4.127204120159149170e-01 -2.809082865715026855e-01
-4.175245761871337891e-02 -4.567575454711914062e-01 5.330423712730407715e-01
1.534988731145858765e-01 -3.002048730850219727e-01 -3.336117565631866455e-01
-2.408560067415237427e-01 -5.830318927764892578e-01 1.752658635377883911e-01
-4.125478863716125488e-02 -6.497977972030639648e-01 1.050299108028411865e-01
6.908178329467773438e-01 -4.657519757747650146e-01 -5.347556248307228088e-02
7.007246017456054688e-01 -4.315339028835296631e-01 5.039622262120246887e-02
5.114289373159408569e-02 -5.563204288482666016e-01 -3.728890419006347656e-01
6.726678013801574707e-01 -4.466360509395599365e-01 -1.242081373929977417e-01
7.536009699106216431e-02 -6.003190279006958008e-01 -2.885374128818511963e-01
1.441638469696044922e-01 -3.151893019676208496e-01 4.135085344314575195e-01
-4.736241698265075684e-02 -5.625972747802734375e-01 4.743396937847137451e-01
3.264324665069580078e-01 -6.175915598869323730e-01 3.873696625232696533e-01
-1.792512387037277222e-01 -3.926367759704589844e-01 -3.153267204761505127e-01
4.654653370380401611e-02 -2.710672616958618164e-01 -2.004608064889907837e-01
-1.500743180513381958e-01 -2.957594990730285645e-01 1.102465316653251648e-01
-2.104249149560928345e-01 -5.953832864761352539e-01 -3.135265782475471497e-02
5.942657589912414551e-03 -2.589064240455627441e-01 -5.441738292574882507e-02
1.739529669284820557e-01 -6.587361097335815430e-01 -4.930234327912330627e-02
-2.816925644874572754e-01 -3.526990413665771484e-01 2.125433459877967834e-02
3.154439330101013184e-01 -6.584703922271728516e-01 1.045645326375961304e-01
3.829693198204040527e-01 -2.999473214149475098e-01 -2.710584998130798340e-01
-1.853983551263809204e-01 -6.125357151031494141e-01 9.320968389511108398e-02
-1.277554780244827271e-01 -6.088303923606872559e-01 -1.252040863037109375e-01
5.414803624153137207e-01 -3.065547347068786621e-01 -7.242555916309356689e-02
-1.297019869089126587e-01 -2.939442098140716553e-01 1.513020694255828857e-01
1.999551653861999512e-01 -6.659615635871887207e-01 5.788092687726020813e-02
4.835945367813110352e-01 -4.655523598194122314e-01 4.818418025970458984e-01
6.297580599784851074e-01 -3.620700240135192871e-01 1.758725345134735107e-01
5.982809066772460938e-01 -3.271423876285552979e-01 1.870982721447944641e-02
2.840925157070159912e-01 -2.541876137256622314e-01 1.261877864599227905e-01
2.436818480491638184e-01 -2.704648077487945557e-01 2.568821609020233154e-01
-1.271962672472000122e-01 -4.777004718780517578e-01 -3.714468479156494141e-01
2.236625105142593384e-01 -2.500454783439636230e-01 -9.713824093341827393e-02
-3.985367715358734131e-02 -2.876353859901428223e-01 2.452161908149719238e-01
4.425560832023620605e-01 -3.676719665527343750e-01 4.337846934795379639e-01
-3.370214700698852539e-01 -4.307270944118499756e-01 1.567933708429336548e-01
3.095578253269195557e-01 -6.589754819869995117e-01 7.446155697107315063e-02
2.546564638614654541e-01 -6.638805866241455078e-01 1.186384707689285278e-01
4.201033711433410645e-02 -3.024503290653228760e-01 3.537873029708862305e-01
-1.293521672487258911e-01 -2.934653162956237793e-01 -1.116085499525070190e-01
4.287257194519042969e-01 -5.815100669860839844e-01 -2.552573382854461670e-01
6.321139335632324219e-01 -4.404764473438262939e-01 -2.114629000425338745e-01
5.970075726509094238e-01 -4.872040152549743652e-01 3.656346797943115234e-01
-8.030416071414947510e-02 -5.417497754096984863e-01 4.812552034854888916e-01
-2.146265953779220581e-01 -4.385975301265716553e-01 4.011508524417877197e-01
2.455677092075347900e-02 -6.287124156951904297e-01 -1.765604466199874878e-01
1.918613910675048828e-01 -3.395008444786071777e-01 -4.099788665771484375e-01
3.999499082565307617e-01 -2.856136560440063477e-01 2.387665063142776489e-01
1.718309521675109863e-01 -6.614925265312194824e-01 -2.237797901034355164e-02
2.060710340738296509e-01 -2.616849839687347412e-01 2.156866043806076050e-01
-2.598714232444763184e-01 -5.195414423942565918e-01 -1.916082203388214111e-01
-8.001182973384857178e-02 -5.658789873123168945e-01 -2.972630858421325684e-01
-2.286753058433532715e-02 -2.862299084663391113e-01 2.539561092853546143e-01
5.963857769966125488e-01 -4.924451410770416260e-01 -2.405987530946731567e-01
1.518175899982452393e-01 -6.030507683753967285e-01 -2.925277948379516602e-01
2.737646102905273438e-01 -6.588052511215209961e-01 1.952259093523025513e-01
1.159008443355560303e-01 -5.209967494010925293e-01 -4.304779171943664551e-01
4.333198070526123047e-01 -2.703800201416015625e-01 1.765463501214981079e-02
3.679013252258300781e-01 -4.487342238426208496e-01 5.415872931480407715e-01
1.981688588857650757e-01 -3.119932711124420166e-01 4.068756997585296631e-01
6.445473432540893555e-01 -3.713985979557037354e-01 1.652394086122512817e-01
6.235001236200332642e-02 -2.757358849048614502e-01 -2.312688678503036499e-01
6.249519586563110352e-01 -5.124276876449584961e-01 2.988174855709075928e-01
-3.967092931270599365e-02 -2.822703719139099121e-01 2.174629867076873779e-01
-3.450209498405456543e-01 -4.968577623367309570e-01 5.352320149540901184e-02
4.834344983100891113e-01 -6.143585443496704102e-01 -6.344981491565704346e-02
1.728624105453491211e-03 -5.460718274116516113e-01 -3.727013468742370605e-01
4.788013696670532227e-01 -2.986459136009216309e-01 2.072328329086303711e-01
5.704346895217895508e-01 -5.934373736381530762e-01 7.565205544233322144e-02
-1.425663679838180542e-01 -4.820537865161895752e-01 -3.579977750778198242e-01
6.851307749748229980e-01 -4.342215061187744141e-01 -7.976312935352325439e-02
3.674019277095794678e-01 -6.512131094932556152e-01 1.076007187366485596e-01
-7.990078628063201904e-02 -2.791421413421630859e-01 1.353701353073120117e-01
3.449353277683258057e-01 -6.516816616058349609e-01 8.801672607660293579e-03
4.124439358711242676e-01 -5.748261213302612305e-01 -2.830464243888854980e-01
4.704296588897705078e-01 -6.288691759109497070e-01 1.110532432794570923e-01
-1.491425484418869019e-01 -2.975587844848632812e-01 -9.299841523170471191e-02
1.391741335391998291e-01 -6.497693061828613281e-01 3.006168305873870850e-01
-2.798203229904174805e-01 -5.148529410362243652e-01 2.938991487026214600e-01
3.062115907669067383e-01 -4.818904697895050049e-01 -4.464125335216522217e-01
1.601879000663757324e-01 -3.598006367683410645e-01 -4.351362884044647217e-01
5.105059146881103516e-01 -2.917718291282653809e-01 -2.193744853138923645e-02
2.539339959621429443e-01 -3.394365906715393066e-01 4.608964920043945312e-01
-6.872183084487915039e-02 -2.964969277381896973e-01 2.572355270385742188e-01
1.018421426415443420e-01 -2.602828145027160645e-01 1.909378021955490112e-01
4.078647494316101074e-01 -2.672865986824035645e-01 8.351664990186691284e-02
-9.945024549961090088e-02 -6.326569318771362305e-01 -1.837966963648796082e-02
-3.505353331565856934e-01 -4.438947737216949463e-01 8.956044912338256836e-03
1.384617388248443604e-01 -3.090513348579406738e-01 -3.532137274742126465e-01
-2.695497870445251465e-02 -3.233670294284820557e-01 3.783059716224670410e-01
5.563808679580688477e-01 -5.973019599914550781e-01 1.882321760058403015e-02
3.562757670879364014e-01 -2.584523260593414307e-01 -5.350714549422264099e-02
-2.627468705177307129e-01 -3.496698141098022461e-01 1.440563797950744629e-01
1.164440140128135681e-01 -6.569115519523620605e-01 -5.675768479704856873e-02
5.984733104705810547e-01 -5.738624930381774902e-01 1.721741110086441040e-01
2.000060677528381348e-02 -6.577769517898559570e-01 1.427891850471496582e-01
-3.511483967304229736e-02 -3.241500854492187500e-01 -3.254894614219665527e-01
-1.773270517587661743e-01 -3.010010123252868652e-01 3.191689401865005493e-02
5.370963811874389648e-01 -4.262658953666687012e-01 4.244417548179626465e-01
-1.942231208086013794e-01 -4.938716292381286621e-01 -3.051549494266510010e-01
4.616572856903076172e-01 -6.304526329040527344e-01 1.370706707239151001e-01
5.478506088256835938e-01 -5.283224582672119141e-01 3.921276330947875977e-01
-1.566969305276870728e-01 -3.665216267108917236e-01 3.739869892597198486e-01
4.616493582725524902e-01 -5.850049257278442383e-01 -2.172686308622360229e-01
6.179436296224594116e-02 -6.473546028137207031e-01 -1.013961285352706909e-01
-2.576465010643005371e-01 -5.356977581977844238e-01 3.029803037643432617e-01
-9.463967382907867432e-02 -3.057534098625183105e-01 2.684760987758636475e-01
3.678352236747741699e-01 -6.324646472930908203e-01 2.998040318489074707e-01
2.776861786842346191e-01 -6.129247546195983887e-01 4.212906658649444580e-01
2.190804779529571533e-01 -6.086993813514709473e-01 4.453795850276947021e-01
5.236519575119018555e-01 -6.034375429153442383e-01 -4.569989070296287537e-02
4.275326132774353027e-01 -6.395233869552612305e-01 7.045834511518478394e-02
-3.676298260688781738e-02 -2.786885499954223633e-01 1.995563805103302002e-01
6.214185953140258789e-01 -5.619849562644958496e-01 1.515670567750930786e-01
-8.159832656383514404e-02 -6.378298997879028320e-01 1.891739368438720703e-01
2.294413000345230103e-01 -2.706446051597595215e-01 -2.329096347093582153e-01
2.608364820480346680e-01 -5.981872677803039551e-01 4.614763259887695312e-01
-3.291922211647033691e-01 -4.133518338203430176e-01 -6.555818021297454834e-02
-2.355038672685623169e-01 -3.940586745738983154e-01 -2.502855956554412842e-01
4.278637468814849854e-02 -6.609157323837280273e-01 1.171521693468093872e-01
-1.700843423604965210e-01 -5.005211830139160156e-01 -3.220953047275543213e-01
-6.111606955528259277e-02 -5.935140848159790039e-01 -2.442328482866287231e-01
-1.909784227609634399e-01 -5.985183715820312500e-01 -6.460459530353546143e-02
7.961854338645935059e-03 -6.549172997474670410e-01 2.012716606259346008e-02
6.741446852684020996e-01 -3.839157521724700928e-01 2.447417192161083221e-02
-6.038041412830352783e-02 -5.201439261436462402e-01 5.109984874725341797e-01
-2.767559289932250977e-01 -3.806168437004089355e-01 -1.546357572078704834e-01
6.300706267356872559e-01 -5.580708980560302734e-01 2.022634074091911316e-02
5.228653550148010254e-01 -5.643510222434997559e-01 3.611085414886474609e-01
9.361535310745239258e-03 -6.554397344589233398e-01 1.645643562078475952e-01
2.615599632263183594e-01 -6.342451572418212891e-01 -1.745003163814544678e-01
5.191084146499633789e-01 -3.401587307453155518e-01 3.101986050605773926e-01
1.182056963443756104e-02 -2.986736297607421875e-01 -2.877995967864990234e-01
7.714707404375076294e-02 -6.536597013473510742e-01 -6.567172706127166748e-02
-1.303195208311080933e-01 -4.965036511421203613e-01 -3.571858406066894531e-01
2.650934159755706787e-01 -6.472430825233459473e-01 2.938226461410522461e-01
-1.847396790981292725e-02 -6.353113055229187012e-01 -1.149814724922180176e-01
3.199417591094970703e-01 -2.527765333652496338e-01 -2.643610164523124695e-02
-9.317247569561004639e-02 -2.770701348781585693e-01 6.694168597459793091e-02
-3.353566527366638184e-01 -4.592287838459014893e-01 -8.364421129226684570e-02
2.787516415119171143e-01 -2.838229537010192871e-01 3.051727414131164551e-01
2.077699899673461914e-01 -6.557452678680419922e-01 2.602543532848358154e-01
5.459991693496704102e-01 -4.987622201442718506e-01 4.202237427234649658e-01
-2.549829483032226562e-01 -4.653352200984954834e-01 3.602195382118225098e-01
8.958389610052108765e-02 -6.411156058311462402e-01 3.325974345207214355e-01
5.352462530136108398e-01 -2.995944023132324219e-01 3.763399273157119751e-02
5.235491394996643066e-01 -6.065716147422790527e-01 1.917773336172103882e-01
-2.705689072608947754e-01 -5.717138051986694336e-01 1.048142090439796448e-01
2.814353108406066895e-01 -3.573105037212371826e-01 -4.212532937526702881e-01
7.710310071706771851e-02 -4.263090789318084717e-01 5.583588480949401855e-01
6.322090625762939453e-01 -3.773720264434814453e-01 -1.467707008123397827e-01
3.110423088073730469e-01 -2.751896977424621582e-01 2.538245022296905518e-01
3.782230317592620850e-01 -3.090060949325561523e-01 -2.998075485229492188e-01
-2.284350246191024780e-01 -5.696392059326171875e-01 -1.200302839279174805e-01
4.102846384048461914e-01 -5.693721175193786621e-01 4.516877830028533936e-01
-1.165109723806381226e-01 -3.454348146915435791e-01 -3.084076046943664551e-01
7.000820040702819824e-01 -4.707549810409545898e-01 9.517668187618255615e-02
1.030670478940010071e-01 -3.750390410423278809e-01 5.160999298095703125e-01
6.491514295339584351e-02 -6.589381694793701172e-01 1.980829685926437378e-01
1.938401162624359131e-01 -3.427637517452239990e-01 4.729890525341033936e-01
5.603606253862380981e-02 -6.609597206115722656e-01 1.548938900232315063e-01
6.314859986305236816e-01 -3.472744226455688477e-01 5.238408595323562622e-02
-1.321804672479629517e-01 -5.324848294258117676e-01 4.547777771949768066e-01
-2.774163484573364258e-01 -5.640491843223571777e-01 1.471814215183258057e-01
4.518160820007324219e-01 -5.564407706260681152e-01 -2.937773466110229492e-01
2.131081521511077881e-01 -6.610097885131835938e-01 -1.877292618155479431e-02
7.420079410076141357e-02 -6.637109518051147461e-01 9.195640683174133301e-02
6.422411203384399414e-01 -3.659774959087371826e-01 1.494697630405426025e-01
-1.058935374021530151e-01 -5.026714801788330078e-01 4.942123889923095703e-01
2.604734897613525391e-01 -2.772123217582702637e-01 -2.527720034122467041e-01
5.893983244895935059e-01 -3.450511693954467773e-01 2.132848948240280151e-01
1.305509805679321289e-01 -2.467053532600402832e-01 -3.215560689568519592e-02
5.956549644470214844e-01 -5.404286980628967285e-01 -1.612156629562377930e-01
2.720034122467041016e-01 -6.303054094314575195e-01 3.682320713996887207e-01
1.571502685546875000e-01 -4.318740367889404297e-01 5.705094337463378906e-01
4.184089601039886475e-01 -2.923067808151245117e-01 2.522032260894775391e-01
5.745956897735595703e-01 -5.895345211029052734e-01 2.357093431055545807e-02
1.974427402019500732e-01 -6.599600315093994141e-01 2.277792990207672119e-01
4.382880926132202148e-01 -2.795152664184570312e-01 -1.176662892103195190e-01
3.097106218338012695e-01 -3.912034630775451660e-01 5.228081345558166504e-01
2.775753140449523926e-01 -3.307764530181884766e-01 -3.853303492069244385e-01
-1.717287302017211914e-02 -6.224422454833984375e-01 -1.770490705966949463e-01
-1.588455885648727417e-01 -5.312021970748901367e-01 4.336729347705841064e-01
-6.473395228385925293e-02 -6.372290849685668945e-01 2.290370464324951172e-01
1.205828040838241577e-01 -3.728144168853759766e-01 5.156726241111755371e-01
2.253046333789825439e-01 -6.651976704597473145e-01 1.335371881723403931e-01
5.010026693344116211e-01 -6.082264184951782227e-01 2.391117811203002930e-01
-1.841279715299606323e-01 -4.620430767536163330e-01 4.400229752063751221e-01
2.327088564634323120e-01 -6.419092416763305664e-01 -1.474779546260833740e-01
4.929322004318237305e-01 -4.209350645542144775e-01 -3.658470213413238525e-01
-1.402887701988220215e-02 -5.137571096420288086e-01 5.359531044960021973e-01
-5.608253180980682373e-02 -2.769718766212463379e-01 1.610797196626663208e-01
-2.722908854484558105e-01 -5.301317572593688965e-01 2.850000262260437012e-01
-4.262325167655944824e-02 -4.301094412803649902e-01 5.221588015556335449e-01
5.629809498786926270e-01 -3.709796369075775146e-01 3.274978697299957275e-01
-4.417781531810760498e-02 -2.934355139732360840e-01 2.676555514335632324e-01
1.438517868518829346e-02 -6.503543257713317871e-01 2.311429232358932495e-01
-3.205389380455017090e-01 -4.172438979148864746e-01 1.947598308324813843e-01
6.861641407012939453e-01 -4.873479008674621582e-01 1.623519808053970337e-01
-1.133850663900375366e-01 -6.345506310462951660e-01 1.005668416619300842e-01
6.284354925155639648e-01 -3.798857629299163818e-01 2.365882098674774170e-01
6.612643003463745117e-01 -4.338795244693756104e-01 2.495173215866088867e-01
6.517443805932998657e-02 -3.284347057342529297e-01 4.292736649513244629e-01
-6.184203922748565674e-02 -3.379604220390319824e-01 -3.360466063022613525e-01
4.965954422950744629e-01 -5.819578170776367188e-01 3.495621681213378906e-01
3.793763518333435059e-01 -3.248425722122192383e-01 3.869011104106903076e-01
