2.838986814022064209e-01 -1.848117075860500336e-02 2.829693257808685303e-01
3.180335164070129395e-01 1.024888455867767334e-01 2.185353338718414307e-01
3.187672495841979980e-01 1.166704818606376648e-01 2.104138880968093872e-01
3.375245928764343262e-01 1.117659732699394226e-01 -1.227022856473922729e-01
8.610604703426361084e-02 -5.029121786355972290e-02 2.590116858482360840e-01
2.903198897838592529e-01 -1.367570459842681885e-02 2.688972949981689453e-01
2.599016129970550537e-01 7.556483149528503418e-02 3.595746457576751709e-01
2.895209789276123047e-01 8.198662847280502319e-02 -2.584230601787567139e-01
3.255578875541687012e-01 5.818820372223854065e-02 -2.068535834550857544e-01
9.623792022466659546e-02 -1.382087469100952148e-01 2.651601135730743408e-01
3.145419359207153320e-01 1.898208260536193848e-01 -3.513781353831291199e-02
3.020283877849578857e-01 2.092455476522445679e-01 4.927832633256912231e-02
1.245794743299484253e-01 -2.266889363527297974e-01 -4.669086262583732605e-02
3.035030961036682129e-01 9.081435203552246094e-02 2.678388357162475586e-01
1.602503061294555664e-01 -2.346903681755065918e-01 -9.578809142112731934e-02
2.988198399543762207e-01 2.102396190166473389e-01 9.138321876525878906e-02
2.065734863281250000e-01 -2.194164842367172241e-01 -1.348062008619308472e-01
1.805356293916702271e-01 -2.421931177377700806e-01 -4.421898350119590759e-02
1.685149967670440674e-01 -2.294902354478836060e-01 1.426066607236862183e-01
2.896723449230194092e-01 -1.412002295255661011e-01 -6.726919114589691162e-02
1.915252953767776489e-01 -8.168045431375503540e-03 -2.842948138713836670e-01
8.909880369901657104e-02 4.728336818516254425e-03 2.034046798944473267e-01
1.096847653388977051e-01 5.059824511408805847e-02 2.645234763622283936e-01
1.416745483875274658e-01 -2.325398176908493042e-01 -7.550172507762908936e-02
1.801767498254776001e-01 -9.812159091234207153e-02 3.709133565425872803e-01
1.701129078865051270e-01 4.274335131049156189e-02 -2.152093499898910522e-01
1.140849515795707703e-01 -2.083968371152877808e-01 1.775084435939788818e-01
1.047097817063331604e-01 -7.564627379179000854e-02 3.290989995002746582e-01
3.109159469604492188e-01 5.302363261580467224e-02 -2.449413686990737915e-01
2.626514434814453125e-01 2.057110816240310669e-01 2.135452777147293091e-01
1.962330192327499390e-01 -2.169778645038604736e-01 1.461930871009826660e-01
9.484345465898513794e-02 -2.018360197544097900e-01 7.137174159288406372e-02
3.177963495254516602e-01 1.348790079355239868e-01 -1.630468517541885376e-01
2.535554468631744385e-01 6.025947257876396179e-02 3.698534071445465088e-01
2.163996100425720215e-01 -8.165876567363739014e-02 -3.091977834701538086e-01
1.336868405342102051e-01 -2.127793133258819580e-01 1.977783590555191040e-01
3.307389616966247559e-01 -1.312416046857833862e-03 -1.730592548847198486e-01
1.973826587200164795e-01 -7.730273157358169556e-02 -3.009324073791503906e-01
3.102521300315856934e-01 9.977106750011444092e-02 2.458897531032562256e-01
3.285717666149139404e-01 1.508182138204574585e-01 1.328033357858657837e-01
2.167658805847167969e-01 1.920520514249801636e-01 2.487447112798690796e-01
2.552115619182586670e-01 -1.864063441753387451e-01 3.105487301945686340e-02
3.188162446022033691e-01 1.851604133844375610e-01 1.035701632499694824e-01
3.459334671497344971e-01 1.175530031323432922e-01 5.969032645225524902e-04
1.728508919477462769e-01 -2.235462069511413574e-01 1.608280837535858154e-01
3.466750383377075195e-01 7.286074012517929077e-02 -8.328533172607421875e-02
2.743915319442749023e-01 2.216025292873382568e-01 9.037471562623977661e-02
2.351152449846267700e-01 -9.310534223914146423e-04 3.834981024265289307e-01
3.288395404815673828e-01 1.329251080751419067e-01 1.544805765151977539e-01
3.243808150291442871e-01 1.830348223447799683e-01 4.942853748798370361e-02
3.337346315383911133e-01 -3.402450680732727051e-02 -4.296082630753517151e-02
2.849569320678710938e-01 1.571335345506668091e-01 2.728214859962463379e-01
7.971414923667907715e-02 -9.206022322177886963e-02 2.228076606988906860e-01
2.709039449691772461e-01 -6.033487617969512939e-02 -2.948924601078033447e-01
3.078162670135498047e-01 -4.487545043230056763e-02 1.702912002801895142e-01
2.920277416706085205e-01 2.145456522703170776e-01 3.145907819271087646e-02
2.567574083805084229e-01 -9.656972438097000122e-02 2.680833935737609863e-01
7.573041319847106934e-02 -5.823063850402832031e-02 1.406142264604568481e-01
1.100610420107841492e-01 -1.793942749500274658e-01 -1.025670915842056274e-01
2.432755976915359497e-01 -1.544716656208038330e-01 -2.389873713254928589e-01
1.756632477045059204e-01 9.354039281606674194e-02 3.795029520988464355e-01
2.624180912971496582e-01 -1.130196452140808105e-01 -2.659714221954345703e-01
2.902796864509582520e-01 -2.908822149038314819e-03 -2.858782112598419189e-01
1.239080652594566345e-01 1.000616475939750671e-01 1.063404455780982971e-01
3.470115661621093750e-01 4.658946767449378967e-02 -6.652484834194183350e-02
2.142991274595260620e-01 -1.985741555690765381e-01 1.649787724018096924e-01
7.877445220947265625e-02 -3.532657772302627563e-02 1.401075571775436401e-01
1.990711987018585205e-01 1.967946439981460571e-01 1.582450568675994873e-01
1.626708209514617920e-01 1.539078652858734131e-01 4.549380764365196228e-02
1.431209892034530640e-01 -2.404016554355621338e-01 8.779653906822204590e-02
2.180373519659042358e-01 2.087659686803817749e-01 7.181178778409957886e-02
9.198484569787979126e-02 -1.922707259654998779e-01 1.240215003490447998e-01
1.894604861736297607e-01 -1.369683444499969482e-01 -2.734375298023223877e-01
9.534250199794769287e-02 -1.496301144361495972e-01 -7.129977643489837646e-02
2.079668194055557251e-01 -1.281236559152603149e-01 3.155973851680755615e-01
1.123463138937950134e-01 -3.576545789837837219e-02 3.503328263759613037e-01
1.476719081401824951e-01 1.268247514963150024e-01 2.591198384761810303e-01
3.166469335556030273e-01 2.507568150758743286e-02 -2.363611310720443726e-01
2.730385959148406982e-01 -8.419914543628692627e-02 2.412549257278442383e-01
2.994527518749237061e-01 -2.633829601109027863e-03 2.496632039546966553e-01
1.387283802032470703e-01 -1.584729999303817749e-01 -1.974913328886032104e-01
1.268677711486816406e-01 6.473468244075775146e-02 3.179007470607757568e-01
2.627393603324890137e-01 1.485857516527175903e-01 -1.904730796813964844e-01
3.367434144020080566e-01 2.888594567775726318e-02 -1.584004014730453491e-01
3.262217044830322266e-01 -4.513621330261230469e-02 4.783762991428375244e-02
2.246283441781997681e-01 -1.986618041992187500e-01 -1.730694770812988281e-01
2.643892168998718262e-01 -1.781499981880187988e-01 -3.615938127040863037e-03
1.489287018775939941e-01 -1.710569709539413452e-01 -2.048059850931167603e-01
8.845610171556472778e-02 -1.880270838737487793e-01 8.697345107793807983e-02
3.356966674327850342e-01 1.489549130201339722e-01 8.142896741628646851e-02
7.539467513561248779e-02 -7.525438070297241211e-02 1.728047728538513184e-01
3.025854527950286865e-01 -1.117510274052619934e-01 2.120374515652656555e-02
1.062166541814804077e-01 -2.611426636576652527e-02 3.324341475963592529e-01
3.068580627441406250e-01 1.931886672973632812e-01 -5.189589038491249084e-02
3.292537033557891846e-01 8.130197972059249878e-02 1.735907644033432007e-01
2.520059645175933838e-01 -1.566340476274490356e-01 -2.195919901132583618e-01
8.083839714527130127e-02 -5.923804640769958496e-02 2.265103459358215332e-01
2.898047566413879395e-01 -1.360833048820495605e-01 -1.162166595458984375e-01
2.502641677856445312e-01 1.550590693950653076e-01 -1.741158515214920044e-01
3.075006604194641113e-01 -8.890295773744583130e-02 -1.620639264583587646e-01
1.491323113441467285e-01 -6.999257206916809082e-02 -2.387816160917282104e-01
2.345855534076690674e-01 1.638836562633514404e-01 3.189200758934020996e-01
2.874811589717864990e-01 -2.578382194042205811e-02 -2.860417962074279785e-01
1.245016455650329590e-01 9.377609938383102417e-02 2.342867702245712280e-01
1.399438828229904175e-01 -2.136677503585815430e-02 -1.998252868652343750e-01
1.557625532150268555e-01 3.821437433362007141e-02 3.974033296108245850e-01
2.003815621137619019e-01 -1.848215460777282715e-01 2.293964922428131104e-01
3.189548552036285400e-01 -7.743151485919952393e-02 -8.533567190170288086e-03
2.968563437461853027e-01 -2.075413241982460022e-02 -2.718598544597625732e-01
1.487486064434051514e-01 -2.442223429679870605e-01 5.765621736645698547e-02
2.503218948841094971e-01 1.955499798059463501e-01 -7.774706184864044189e-02
7.594764232635498047e-02 -6.077643856406211853e-02 9.863172471523284912e-02
2.589069008827209473e-01 -9.513683617115020752e-02 -2.870851755142211914e-01
7.580871880054473877e-02 -1.371164470911026001e-01 1.060754060745239258e-01
3.023034930229187012e-01 -1.747649163007736206e-02 2.267969399690628052e-01
7.396833598613739014e-02 -9.015040844678878784e-02 1.493573039770126343e-01
3.221422135829925537e-01 9.448440372943878174e-02 -1.969410926103591919e-01
1.169250234961509705e-01 -1.407763361930847168e-01 -1.559284329414367676e-01
1.614460200071334839e-01 1.070749610662460327e-01 3.445526659488677979e-01
3.389164209365844727e-01 1.305545419454574585e-01 8.863203972578048706e-02
3.463014960289001465e-01 3.144939988851547241e-02 -3.226229920983314514e-02
3.328536748886108398e-01 1.412802338600158691e-01 1.203423887491226196e-01
3.031827807426452637e-01 -1.161521375179290771e-01 -4.634161666035652161e-02
9.858403354883193970e-02 4.276209697127342224e-02 1.399158388376235962e-01
2.971894145011901855e-01 1.689920276403427124e-01 -1.393382698297500610e-01
3.103029131889343262e-01 1.402321308851242065e-01 2.242286354303359985e-01
3.384267687797546387e-01 6.631263345479965210e-02 1.180091947317123413e-01
2.898774445056915283e-01 8.496364951133728027e-02 3.033462166786193848e-01
2.796402275562286377e-01 -1.558619886636734009e-01 -9.083727002143859863e-02
3.018764853477478027e-01 3.503150120377540588e-02 -2.659447789192199707e-01
1.167432889342308044e-01 -1.093672811985015869e-01 -1.638765186071395874e-01
2.442454099655151367e-01 1.938453763723373413e-01 2.580452263355255127e-01
3.204773366451263428e-01 1.496839802712202072e-02 1.834836006164550781e-01
1.443980485200881958e-01 8.493847399950027466e-02 3.395069837570190430e-01
2.993206679821014404e-01 1.430668830871582031e-01 -1.831338554620742798e-01
2.153761386871337891e-01 -2.171945869922637939e-01 8.715315163135528564e-02
1.049837991595268250e-01 3.162406012415885925e-02 2.253718674182891846e-03
9.178319573402404785e-02 -7.935682684183120728e-02 2.887361347675323486e-01
1.922893822193145752e-01 -2.030525654554367065e-01 -1.930827498435974121e-01
2.399175465106964111e-01 1.565956771373748779e-01 -1.630818098783493042e-01
9.884408861398696899e-02 3.395848721265792847e-02 2.222492098808288574e-01
2.426474988460540771e-01 -4.240867495536804199e-02 3.512555956840515137e-01
3.219974935054779053e-01 1.199266538023948669e-01 1.959231942892074585e-01
3.161509335041046143e-01 4.112839326262474060e-02 2.187011837959289551e-01
3.338988423347473145e-01 9.271518141031265259e-02 1.486959159374237061e-01
2.481870949268341064e-01 -1.984629929065704346e-01 -2.252848073840141296e-02
3.221660852432250977e-01 -2.387796901166439056e-02 -1.953163743019104004e-01
3.348003923892974854e-01 1.607011854648590088e-01 -1.020834222435951233e-02
1.441162675619125366e-01 5.303245410323143005e-02 -1.375468224287033081e-01
2.691648602485656738e-01 2.189947813749313354e-01 2.071899548172950745e-02
2.824787199497222900e-01 -9.644260257482528687e-02 1.891591548919677734e-01
1.117036417126655579e-01 -2.122285664081573486e-01 -4.281893000006675720e-02
2.543720602989196777e-01 3.718253970146179199e-02 3.675566017627716064e-01
7.728615403175354004e-02 -7.960352301597595215e-02 2.014948576688766479e-01
2.129553854465484619e-01 -2.251787781715393066e-01 -8.401301503181457520e-02
1.313862502574920654e-01 -1.919355243444442749e-01 2.459287196397781372e-01
3.403128683567047119e-01 -6.092784460633993149e-03 -3.648370876908302307e-02
7.770244777202606201e-02 -1.442894339561462402e-01 1.401879340410232544e-01
3.442889153957366943e-01 1.267709732055664062e-01 -1.840889081358909607e-02
1.747227907180786133e-01 -2.409933954477310181e-01 -6.474952399730682373e-02
1.782818734645843506e-01 -2.367161512374877930e-01 -8.994293212890625000e-02
3.414090871810913086e-01 1.395169645547866821e-03 -1.262222602963447571e-02
1.737226247787475586e-01 -2.289606332778930664e-01 -1.244529336690902710e-01
2.241672724485397339e-01 2.134822756052017212e-01 1.161080002784729004e-01
1.167581900954246521e-01 5.804317072033882141e-02 2.879781424999237061e-01
1.316674053668975830e-01 -1.643947511911392212e-01 -1.782369166612625122e-01
2.159536033868789673e-01 7.528378069400787354e-02 -2.523331046104431152e-01
2.828431725502014160e-01 -1.339753717184066772e-01 -1.732429265975952148e-01
8.604598045349121094e-02 -3.371336683630943298e-02 1.654503121972084045e-02
2.207471132278442383e-01 2.033198326826095581e-01 1.314925774931907654e-02
2.695766687393188477e-01 -7.672312855720520020e-02 2.613503336906433105e-01
2.487260699272155762e-01 2.142594456672668457e-01 1.835868209600448608e-01
2.005742341279983521e-01 -1.514919251203536987e-01 2.913782894611358643e-01
3.098812103271484375e-01 -9.699553251266479492e-02 -1.092412769794464111e-01
2.633919715881347656e-01 -1.091589331626892090e-01 2.309666872024536133e-01
1.161850020289421082e-01 7.185903377830982208e-03 3.447418808937072754e-01
2.133548706769943237e-01 1.796315312385559082e-01 2.815244197845458984e-01
2.810593843460083008e-01 -1.409090459346771240e-01 7.713801413774490356e-02
7.821205258369445801e-02 -9.802661836147308350e-02 2.507426030933856964e-02
1.234351322054862976e-01 -2.283523678779602051e-01 1.204527616500854492e-01
2.868293225765228271e-01 2.350076287984848022e-02 3.009616732597351074e-01
1.701449155807495117e-01 1.106246486306190491e-01 -1.194251775741577148e-01
1.267708539962768555e-01 3.803035616874694824e-02 3.491186499595642090e-01
1.428446620702743530e-01 5.746036395430564880e-02 3.669586181640625000e-01
2.769060730934143066e-01 -9.949320554733276367e-02 2.041161805391311646e-01
2.381448596715927124e-01 1.370860487222671509e-01 3.498760759830474854e-01
1.931355744600296021e-01 7.015024125576019287e-02 4.040671288967132568e-01
2.177568227052688599e-01 -1.086098551750183105e-01 3.267092406749725342e-01
3.308264613151550293e-01 1.651801541447639465e-02 1.301615089178085327e-01
1.698135733604431152e-01 1.649655252695083618e-01 5.983545258641242981e-02
1.292674392461776733e-01 5.143120512366294861e-02 3.423915207386016846e-01
1.467476487159729004e-01 4.503097757697105408e-02 -1.561805754899978638e-01
9.773717820644378662e-02 -1.913505792617797852e-01 1.708098948001861572e-01
2.039380073547363281e-01 1.050113886594772339e-01 3.843806982040405273e-01
3.383068740367889404e-01 1.333081126213073730e-01 -8.089371025562286377e-02
1.507301628589630127e-01 1.159324217587709427e-02 -2.016056329011917114e-01
9.289817512035369873e-02 -9.998503327369689941e-02 -7.379658520221710205e-02
8.143950998783111572e-02 -1.646336019039154053e-01 6.567455083131790161e-02
8.362916111946105957e-02 -1.570219844579696655e-01 1.762409508228302002e-01
8.021274209022521973e-02 -5.317660421133041382e-02 4.317715391516685486e-02
2.454529106616973877e-01 -1.995805799961090088e-01 -8.088639378547668457e-02
3.377159237861633301e-01 1.487201452255249023e-01 5.696387961506843567e-02
1.348162591457366943e-01 7.910064421594142914e-03 -1.626998931169509888e-01
1.643151044845581055e-01 -1.479669362306594849e-01 -2.442327290773391724e-01
9.565266966819763184e-02 -4.654077813029289246e-02 3.029019534587860107e-01
1.966198384761810303e-01 1.708282679319381714e-01 -4.650242254137992859e-02
9.432089328765869141e-02 7.874694652855396271e-03 2.894054912030696869e-02
2.984508872032165527e-01 1.759999990463256836e-01 -1.219486296176910400e-01
1.507490277290344238e-01 -3.954569995403289795e-02 4.006838798522949219e-01
7.474881410598754883e-02 -1.251860707998275757e-01 1.289931535720825195e-01
3.064116239547729492e-01 -1.399420574307441711e-02 -2.538776397705078125e-01
2.587906122207641602e-01 -1.680093854665756226e-01 1.036026850342750549e-01
1.592041105031967163e-01 8.047933876514434814e-02 -1.413721740245819092e-01
3.383560478687286377e-01 3.153045848011970520e-02 9.374436736106872559e-02
1.751734912395477295e-01 1.492929607629776001e-01 -4.035682603716850281e-02
1.052585467696189880e-01 -5.001690983772277832e-02 3.338087499141693115e-01
2.313786447048187256e-01 2.162176221609115601e-01 8.479110896587371826e-02
2.877583503723144531e-01 2.175004482269287109e-01 7.967353612184524536e-02
3.425479531288146973e-01 9.990251064300537109e-02 8.556058257818222046e-02
2.847809791564941406e-01 -4.435103386640548706e-02 2.562968134880065918e-01
1.688267588615417480e-01 -2.051986902952194214e-01 2.186311483383178711e-01
2.344556897878646851e-01 -7.208630442619323730e-02 3.399785161018371582e-01
3.218614161014556885e-01 -6.568405032157897949e-02 1.721639186143875122e-02
1.088596656918525696e-01 6.664705276489257812e-02 9.894287586212158203e-02
8.975106477737426758e-02 -1.063738483935594559e-02 2.456079870462417603e-01
1.034817099571228027e-01 1.385215576738119125e-02 2.940910160541534424e-01
2.404173910617828369e-01 -2.017854899168014526e-01 -1.045839935541152954e-01
1.039757579565048218e-01 -2.151443362236022949e-01 8.995218575000762939e-02
2.137022912502288818e-01 1.028297618031501770e-01 -2.183095663785934448e-01
1.221108362078666687e-01 -2.282203882932662964e-01 -2.790987119078636169e-02
8.961684256792068481e-02 1.403624285012483597e-02 1.494475007057189941e-01
1.646693497896194458e-01 1.351065188646316528e-01 2.996228933334350586e-01
2.614262998104095459e-01 -1.514511704444885254e-01 1.459727734327316284e-01
7.652153074741363525e-02 -8.019818365573883057e-02 5.477081984281539917e-02
2.760591208934783936e-01 -3.709733486175537109e-02 -2.976999878883361816e-01
1.468813419342041016e-01 7.699096947908401489e-02 3.551264405250549316e-01
2.330859750509262085e-01 -2.017971724271774292e-01 8.640411496162414551e-02
2.606615424156188965e-01 -5.760149657726287842e-02 3.046972751617431641e-01
3.224622607231140137e-01 1.617629528045654297e-01 1.479117721319198608e-01
2.916051149368286133e-01 -5.540710687637329102e-02 2.208197563886642456e-01
8.526091277599334717e-02 -1.363949924707412720e-01 2.225587815046310425e-01
3.129646182060241699e-01 -6.641747057437896729e-02 -1.808453202247619629e-01
1.901332139968872070e-01 -2.402067780494689941e-01 -3.096101805567741394e-02
2.644225656986236572e-01 4.888009652495384216e-02 3.533087372779846191e-01
1.964839547872543335e-01 1.824268847703933716e-01 2.427030950784683228e-01
3.016335368156433105e-01 2.711856737732887268e-02 2.617691755294799805e-01
2.191048264503479004e-01 1.783834248781204224e-01 -8.166164159774780273e-02
3.272711932659149170e-01 -5.299925059080123901e-02 -8.919072151184082031e-02
3.332979679107666016e-01 1.034652292728424072e-01 -1.522511392831802368e-01
1.281887888908386230e-01 8.423496782779693604e-02 2.864720523357391357e-01
1.387501955032348633e-01 1.254342794418334961e-01 1.949594467878341675e-01
9.027991443872451782e-02 -1.753171086311340332e-01 1.765906512737274170e-01
1.330320388078689575e-01 1.138555631041526794e-01 7.871955633163452148e-02
1.274744272232055664e-01 -9.256340563297271729e-03 -1.560532003641128540e-01
1.736474037170410156e-01 5.759713426232337952e-02 -2.066630870103836060e-01
2.834230661392211914e-01 -1.117237359285354614e-01 1.531468331813812256e-01
3.153687715530395508e-01 1.133710220456123352e-01 -1.952967196702957153e-01
3.091476559638977051e-01 1.277496218681335449e-01 2.373051792383193970e-01
7.791572809219360352e-02 -1.393060535192489624e-01 1.584053933620452881e-01
2.492558509111404419e-01 -1.704419255256652832e-01 -1.949465721845626831e-01
3.432208299636840820e-01 1.330133825540542603e-01 -4.160713404417037964e-03
3.377882242202758789e-01 -6.462990771979093552e-03 -1.083735674619674683e-01
3.426420390605926514e-01 2.197634801268577576e-02 -1.025800853967666626e-01
2.339950203895568848e-01 -2.105476707220077515e-01 1.790861785411834717e-02
1.340301632881164551e-01 4.631045460700988770e-02 -1.134090274572372437e-01
1.469245254993438721e-01 2.240395545959472656e-02 3.941081464290618896e-01
2.261448502540588379e-01 2.029260098934173584e-01 -6.294745951890945435e-03
3.391121625900268555e-01 1.488026380538940430e-01 2.378786914050579071e-02
9.821392595767974854e-02 -8.895315229892730713e-02 3.073331713676452637e-01
2.743050456047058105e-01 -1.622418761253356934e-01 1.752375066280364990e-02
2.249663770198822021e-01 1.533872634172439575e-01 -1.517682224512100220e-01
2.391813546419143677e-01 -1.365205049514770508e-01 -2.681498825550079346e-01
1.107597202062606812e-01 3.211569413542747498e-02 -3.338022157549858093e-02
9.624417871236801147e-02 -1.357091218233108521e-01 -8.376505970954895020e-02
2.743976116180419922e-01 -7.595163583755493164e-02 -2.810769975185394287e-01
2.283200323581695557e-01 -9.270872920751571655e-02 3.289946615695953369e-01
1.492586731910705566e-01 1.383482366800308228e-01 2.165295481681823730e-01
1.903527379035949707e-01 -2.369098067283630371e-01 -7.136990129947662354e-02
8.413548767566680908e-02 -3.542751073837280273e-02 3.132983669638633728e-02
3.293591737747192383e-01 1.744480133056640625e-01 1.872222498059272766e-02
2.914494276046752930e-01 -8.778044581413269043e-02 -2.331283837556838989e-01
3.334673941135406494e-01 1.128630787134170532e-01 1.441980898380279541e-01
1.307626962661743164e-01 -3.916748613119125366e-02 3.823522329330444336e-01
1.385564953088760376e-01 1.181188151240348816e-01 4.667445644736289978e-02
2.700688242912292480e-01 -2.565947547554969788e-02 -3.056932687759399414e-01
2.887926697731018066e-01 -1.321621090173721313e-01 5.596707016229629517e-02
2.820325195789337158e-01 1.411169767379760742e-01 2.940463721752166748e-01
3.084387779235839844e-01 6.641884148120880127e-02 2.531459331512451172e-01
2.034081965684890747e-01 1.039762198925018311e-01 -2.021472603082656860e-01
1.247234120965003967e-01 -7.420640438795089722e-02 3.659601211547851562e-01
2.992447614669799805e-01 1.810885369777679443e-01 2.029722481966018677e-01
2.902401089668273926e-01 -1.207941025495529175e-01 9.078030288219451904e-02
9.214804321527481079e-02 -3.213343396782875061e-02 -2.621880546212196350e-02
2.922522425651550293e-01 3.592033684253692627e-02 2.920081019401550293e-01
7.412515580654144287e-02 -8.036756515502929688e-02 1.066814586520195007e-01
2.520959079265594482e-01 1.412162184715270996e-01 -1.985142529010772705e-01
1.872255504131317139e-01 -1.100492402911186218e-01 -2.855786085128784180e-01
3.449797928333282471e-01 1.158037260174751282e-01 -5.051170662045478821e-02
3.000669777393341064e-01 1.198230907320976257e-01 -2.128670066595077515e-01
9.976679086685180664e-02 2.910666540265083313e-02 2.453677058219909668e-01
1.361068338155746460e-01 -1.067723706364631653e-01 3.587802946567535400e-01
9.501519799232482910e-02 3.121282905340194702e-02 1.218788772821426392e-01
2.735803127288818359e-01 -1.657872200012207031e-01 -9.286087006330490112e-03
8.668250590562820435e-02 -1.298831552267074585e-01 -3.592978045344352722e-02
9.137070924043655396e-02 -1.159036308526992798e-01 -6.608563661575317383e-02
3.166044056415557861e-01 1.345335841178894043e-01 2.070304006338119507e-01
2.898488640785217285e-01 6.909622251987457275e-02 3.041804730892181396e-01
2.184188365936279297e-01 -2.197668552398681641e-01 -9.944097697734832764e-02
2.603700160980224609e-01 -1.642300933599472046e-01 -1.779083758592605591e-01
8.897477388381958008e-02 -9.272629395127296448e-04 2.191188782453536987e-01
7.408018410205841064e-02 -1.112551018595695496e-01 9.011869132518768311e-02
2.931899428367614746e-01 -1.045942157506942749e-01 -1.993622332811355591e-01
1.709401607513427734e-01 1.534634232521057129e-01 -6.888881325721740723e-03
2.863383591175079346e-01 1.657219380140304565e-01 2.595167160034179688e-01
1.148527413606643677e-01 6.637431681156158447e-02 2.574891448020935059e-01
7.545216381549835205e-02 -1.227026656270027161e-01 6.775258481502532959e-02
9.048547595739364624e-02 -1.204482018947601318e-01 2.627693414688110352e-01
2.603663802146911621e-01 -1.401316970586776733e-01 -2.322589606046676636e-01
3.477755188941955566e-01 7.828817516565322876e-02 2.395058237016201019e-02
3.220665156841278076e-01 1.862998902797698975e-01 7.015790790319442749e-03
2.826945781707763672e-01 -1.242764592170715332e-01 1.241039484739303589e-01
8.920571953058242798e-02 -2.807780727744102478e-02 2.626116275787353516e-01
1.253598630428314209e-01 -3.339006565511226654e-03 3.703079819679260254e-01
3.330810666084289551e-01 -2.830381318926811218e-02 -1.074544787406921387e-01
2.070038020610809326e-01 -2.146361470222473145e-01 1.280522346496582031e-01
2.863601446151733398e-01 1.762234717607498169e-01 2.439715266227722168e-01
3.234937787055969238e-01 1.804874837398529053e-01 -2.451178058981895447e-02
3.471128046512603760e-01 4.041991010308265686e-02 -1.635054126381874084e-02
8.320042490959167480e-02 -7.171420753002166748e-02 2.477216124534606934e-01
2.185669839382171631e-01 -1.109020188450813293e-01 -2.976365387439727783e-01
3.051377236843109131e-01 -8.426975458860397339e-02 1.050085723400115967e-01
2.244816422462463379e-01 -2.132343947887420654e-01 6.666482239961624146e-02
2.213682532310485840e-01 4.080495797097682953e-03 -3.049941956996917725e-01
1.914086490869522095e-01 1.909813880920410156e-01 1.014031991362571716e-01
2.951107919216156006e-01 -8.510402590036392212e-02 1.577125042676925659e-01
3.226891160011291504e-01 -6.917526572942733765e-02 -6.414653360843658447e-02
1.065996661782264709e-01 5.905347689986228943e-02 8.493554592132568359e-02
1.045696586370468140e-01 -1.372002996504306793e-02 -7.232065498828887939e-02
1.530077010393142700e-01 -1.874523311853408813e-01 2.629938125610351562e-01
8.424897491931915283e-02 -1.762132495641708374e-01 7.912290096282958984e-02
3.336425125598907471e-01 3.415296971797943115e-02 -1.769675314426422119e-01
2.168538570404052734e-01 -1.020947098731994629e-02 -3.072880506515502930e-01
1.721749007701873779e-01 1.724636256694793701e-01 1.547432839870452881e-01
1.930282264947891235e-01 7.105670124292373657e-02 -2.267016917467117310e-01
3.291396796703338623e-01 -2.968443930149078369e-02 6.388279795646667480e-02
2.329017519950866699e-01 2.028852701187133789e-02 -3.036915659904479980e-01
3.180995285511016846e-01 -4.996363073587417603e-02 -1.818346530199050903e-01
1.837506890296936035e-01 1.670275032520294189e-01 2.631590664386749268e-01
1.809263825416564941e-01 -1.443870514631271362e-01 -2.627045512199401855e-01
8.360956609249114990e-02 -5.268062651157379150e-02 2.440669834613800049e-01
1.430000960826873779e-01 8.849327266216278076e-02 -7.126833498477935791e-02
2.786506414413452148e-01 1.943154335021972656e-01 -9.041287004947662354e-02
1.696691066026687622e-01 1.672292202711105347e-01 1.905092447996139526e-01
2.800285220146179199e-01 -1.381966769695281982e-01 9.440878778696060181e-02
3.062580823898315430e-01 2.052426934242248535e-01 2.860138751566410065e-02
3.371063768863677979e-01 -1.641492918133735657e-02 1.879334449768066406e-03
7.945443689823150635e-02 -1.300057619810104370e-01 1.916820257902145386e-01
1.315496265888214111e-01 1.070703193545341492e-01 2.338370829820632935e-01
2.975065112113952637e-01 -1.198444217443466187e-01 -1.276667714118957520e-01
8.720219135284423828e-02 -7.432430982589721680e-02 -3.373033925890922546e-02
2.336620986461639404e-01 -1.682242453098297119e-01 1.962882280349731445e-01
3.373517394065856934e-01 1.117307096719741821e-01 1.203165352344512939e-01
9.093166887760162354e-02 7.373771630227565765e-03 6.373269110918045044e-02
3.327277302742004395e-01 1.304654628038406372e-01 1.347839385271072388e-01
7.348060607910156250e-02 -9.891654551029205322e-02 1.161184012889862061e-01
1.540147215127944946e-01 8.681692928075790405e-02 -1.148255914449691772e-01
1.133267432451248169e-01 1.941785961389541626e-02 -6.890685856342315674e-02
2.666005790233612061e-01 1.009859666228294373e-01 3.431985974311828613e-01
9.925688803195953369e-02 -8.741389960050582886e-03 2.979815900325775146e-01
2.747929990291595459e-01 1.569124460220336914e-01 -1.766775697469711304e-01
8.584651350975036621e-02 -1.533640027046203613e-01 1.995375752449035645e-01
2.002854049205780029e-01 -1.737575829029083252e-01 2.527132034301757812e-01
1.479633301496505737e-01 -1.940887272357940674e-01 -1.761850863695144653e-01
3.247127830982208252e-01 1.156723126769065857e-01 -1.695013344287872314e-01
2.316879481077194214e-01 -2.129437923431396484e-01 -7.256035506725311279e-02
3.405619859695434570e-01 3.588866069912910461e-02 7.968601584434509277e-02
2.930487096309661865e-01 1.855766773223876953e-01 -1.044083535671234131e-01
7.771022617816925049e-02 -6.464308500289916992e-02 5.709423497319221497e-02
2.961329519748687744e-01 -5.578824505209922791e-02 -2.541803717613220215e-01
2.812330126762390137e-01 8.562178909778594971e-02 3.217322230339050293e-01
8.155152201652526855e-02 -1.521966159343719482e-01 2.541141770780086517e-02
2.079259306192398071e-01 8.434341289103031158e-03 -2.933735251426696777e-01
3.129720985889434814e-01 4.707450419664382935e-02 2.329772114753723145e-01
2.473472058773040771e-01 3.668458014726638794e-02 -2.995480000972747803e-01
1.409748643636703491e-01 9.813563525676727295e-02 3.074730038642883301e-01
1.843816339969635010e-01 1.646623462438583374e-01 -2.406496927142143250e-02
1.906623691320419312e-01 -1.191855221986770630e-01 3.440507054328918457e-01
2.330725491046905518e-01 -1.164137572050094604e-01 2.919314503669738770e-01
8.110250532627105713e-02 -1.653647273778915405e-01 9.158696234226226807e-02
3.371868133544921875e-01 1.525297611951828003e-01 -2.478831633925437927e-02
1.485670804977416992e-01 -1.029131934046745300e-01 -2.382639199495315552e-01
1.558796465396881104e-01 1.508323103189468384e-01 9.149817377328872681e-02
2.002919912338256836e-01 1.627877801656723022e-01 -8.170989155769348145e-02
2.826543450355529785e-01 1.982885897159576416e-01 -7.546161115169525146e-02
2.953236103057861328e-01 2.094301581382751465e-01 1.217981427907943726e-01
1.206855624914169312e-01 8.197215199470520020e-02 2.497118860483169556e-01
2.739791274070739746e-01 -5.075973644852638245e-02 2.796791493892669678e-01
2.337303906679153442e-01 1.211426183581352234e-01 -2.153756171464920044e-01
9.931742399930953979e-02 -3.670581802725791931e-02 3.136376142501831055e-01
1.361654847860336304e-01 7.191646099090576172e-02 3.361585438251495361e-01
2.315886169672012329e-01 -2.089789807796478271e-01 5.226126685738563538e-02
3.133248388767242432e-01 -2.839206904172897339e-02 1.684517860412597656e-01
2.236720919609069824e-01 -5.415392667055130005e-02 3.692893385887145996e-01
1.107657700777053833e-01 -9.267286211252212524e-02 -1.447644382715225220e-01
2.458160221576690674e-01 2.163168787956237793e-01 1.690873205661773682e-01
1.032295972108840942e-01 -2.152597904205322266e-01 6.497677415609359741e-02
2.896558940410614014e-01 1.087120175361633301e-01 -2.350556105375289917e-01
3.043397367000579834e-01 -1.110690981149673462e-01 -1.169558614492416382e-03
2.815275192260742188e-01 -1.260373145341873169e-01 -1.993702799081802368e-01
8.524562418460845947e-02 -1.114656329154968262e-01 -3.149949386715888977e-02
2.136337310075759888e-01 1.885478198528289795e-01 -3.419340774416923523e-02
2.768372297286987305e-01 -1.935224048793315887e-02 3.002959489822387695e-01
1.048155426979064941e-01 5.876720324158668518e-02 1.738808751106262207e-01
1.814708113670349121e-01 -1.832571774721145630e-01 2.567198574542999268e-01
7.990314066410064697e-02 -4.532133042812347412e-02 6.139829382300376892e-02
3.000164330005645752e-01 6.961102038621902466e-02 2.783634066581726074e-01
1.551718562841415405e-01 1.225368753075599670e-01 -3.757260367274284363e-02
1.953160613775253296e-01 5.987909808754920959e-02 -2.417766898870468140e-01
1.481821238994598389e-01 1.344624459743499756e-01 5.126140266656875610e-02
2.910597622394561768e-01 1.400262266397476196e-01 -1.957986056804656982e-01
9.826266765594482422e-02 4.098798707127571106e-02 1.711092740297317505e-01
3.090268373489379883e-01 -3.001974895596504211e-02 1.859346181154251099e-01
1.289560645818710327e-01 -2.378634214401245117e-01 6.268640607595443726e-02
3.224980235099792480e-01 -4.345623776316642761e-02 8.653922379016876221e-02
1.876912415027618408e-01 1.832926720380783081e-01 5.302616581320762634e-02
1.077293083071708679e-01 1.659574732184410095e-02 3.093472421169281006e-01
2.892168760299682617e-01 1.864413768053054810e-01 2.187345325946807861e-01
1.052892431616783142e-01 -3.420047461986541748e-02 -9.640283882617950439e-02
3.028877377510070801e-01 -1.064717024564743042e-01 -1.384369134902954102e-01
1.471738219261169434e-01 -2.187656909227371216e-01 1.876936852931976318e-01
2.473479807376861572e-01 1.758421659469604492e-01 -1.289782971143722534e-01
2.456705570220947266e-01 2.208530604839324951e-01 8.318036794662475586e-02
2.793094515800476074e-01 -1.537110507488250732e-01 -1.127180308103561401e-01
1.174289435148239136e-01 -5.173892155289649963e-02 -1.533938497304916382e-01
1.436526179313659668e-01 1.136176958680152893e-01 2.813796103000640869e-01
1.396163254976272583e-01 -2.428404986858367920e-01 6.304878741502761841e-03
1.734530180692672729e-01 8.511631749570369720e-03 4.148557186126708984e-01
7.821768522262573242e-02 -1.147274449467658997e-01 2.502897381782531738e-02
3.029685318470001221e-01 -4.193039238452911377e-02 -2.473208755254745483e-01
2.811541557312011719e-01 -9.022588282823562622e-02 -2.562568187713623047e-01
1.613694578409194946e-01 -1.985663771629333496e-01 2.382794320583343506e-01
1.222542524337768555e-01 -1.652934849262237549e-01 -1.546493172645568848e-01
9.623553603887557983e-02 3.078145906329154968e-03 2.696989178657531738e-01
1.500692963600158691e-01 1.322999149560928345e-01 2.558108977973461151e-02
9.505563974380493164e-02 -1.981088370084762573e-01 2.325798384845256805e-02
3.184128403663635254e-01 -3.081497922539710999e-02 1.383416056632995605e-01
3.443619310855865479e-01 1.107404306530952454e-01 5.692140758037567139e-02
2.739931643009185791e-01 -1.663804501295089722e-01 -4.434696212410926819e-02
1.774027645587921143e-01 -8.781988918781280518e-02 -2.815675139427185059e-01
1.336008161306381226e-01 8.680754899978637695e-02 -3.186952695250511169e-02
1.395070850849151611e-01 3.648140653967857361e-02 -1.452546119689941406e-01
1.667810529470443726e-01 2.426492795348167419e-02 -2.255748659372329712e-01
3.275087475776672363e-01 -5.493042245507240295e-02 -6.109459325671195984e-02
9.582033753395080566e-02 -1.197241321206092834e-01 -8.688090741634368896e-02
2.473964244127273560e-01 -1.591543704271316528e-01 1.774094104766845703e-01
8.395148813724517822e-02 -1.539052575826644897e-01 4.463884979486465454e-03
2.191457450389862061e-01 -1.186207123100757599e-02 3.962014019489288330e-01
1.181101799011230469e-01 1.698883622884750366e-02 -9.371054172515869141e-02
7.366502285003662109e-02 -9.915769845247268677e-02 1.011252254247665405e-01
3.185988962650299072e-01 -4.433056712150573730e-02 1.123602688312530518e-01
1.243963390588760376e-01 3.288597986102104187e-02 -9.677655994892120361e-02
2.968311905860900879e-01 8.405936509370803833e-02 2.866117954254150391e-01
1.123635396361351013e-01 -2.676865831017494202e-02 -1.187829673290252686e-01
2.390688806772232056e-01 -2.006376534700393677e-01 -1.197865903377532959e-01
2.022792249917984009e-01 -3.318510204553604126e-02 -3.028143048286437988e-01
1.812286525964736938e-01 -2.248910665512084961e-01 -1.382641941308975220e-01
1.688329577445983887e-01 -1.442394964396953583e-02 4.126153886318206787e-01
2.998872995376586914e-01 -1.222629547119140625e-01 -7.033215463161468506e-02
2.654614150524139404e-01 1.998842507600784302e-01 -7.323634624481201172e-02
1.303283572196960449e-01 -4.743815213441848755e-02 -1.892421990633010864e-01
1.806282103061676025e-01 -2.600711956620216370e-02 -2.778472900390625000e-01
3.038613796234130859e-01 1.966812014579772949e-01 1.445756554603576660e-01
3.218595385551452637e-01 -2.841594070196151733e-02 1.219006776809692383e-01
2.810112535953521729e-01 -7.338151335716247559e-02 2.319098263978958130e-01
9.885747730731964111e-02 3.619549795985221863e-02 7.556793093681335449e-02
1.415846049785614014e-01 7.943643629550933838e-02 -8.444949984550476074e-02
2.506292760372161865e-01 2.162175625562667847e-01 1.428185403347015381e-02
1.237956956028938293e-01 1.016195118427276611e-01 1.380490362644195557e-01
1.964856982231140137e-01 -2.316952943801879883e-01 7.414255291223526001e-02
3.111671805381774902e-01 1.632695198059082031e-01 1.945646703243255615e-01
2.554357647895812988e-01 -1.852963119745254517e-01 -1.120185405015945435e-01
3.262326717376708984e-01 1.586147546768188477e-01 -9.054121375083923340e-02
2.094030380249023438e-01 8.145790547132492065e-02 -2.384158819913864136e-01
1.816561967134475708e-01 8.294484019279479980e-02 -1.918521523475646973e-01
3.454972505569458008e-01 6.107329949736595154e-02 5.167008936405181885e-02
3.425959646701812744e-01 6.299366801977157593e-02 -1.254063099622726440e-01
2.375415563583374023e-01 -1.796984672546386719e-01 -1.987432390451431274e-01
1.959358155727386475e-01 1.776736527681350708e-01 -1.876531168818473816e-02
1.125561147928237915e-01 -1.681005507707595825e-01 -1.236138641834259033e-01
2.999839782714843750e-01 1.333580166101455688e-01 2.598404884338378906e-01
1.311865150928497314e-01 -7.856471836566925049e-02 -2.011530250310897827e-01
3.483795523643493652e-01 8.031793683767318726e-02 -4.736530408263206482e-02
2.424350231885910034e-01 -2.040403783321380615e-01 -5.865338072180747986e-02
7.781167328357696533e-02 -5.407232418656349182e-02 7.481428980827331543e-02
2.214768528938293457e-01 -1.239800825715065002e-01 3.017285466194152832e-01
1.130651608109474182e-01 -2.010467089712619781e-02 3.489684462547302246e-01
3.305060863494873047e-01 4.170091450214385986e-02 -1.916968524456024170e-01
2.859968841075897217e-01 2.122702598571777344e-01 -9.243376553058624268e-03
3.038535416126251221e-01 -5.976052582263946533e-02 1.644613742828369141e-01
2.560811340808868408e-01 1.296338737010955811e-01 3.411737978458404541e-01
2.203994393348693848e-01 -1.400385797023773193e-01 2.798683047294616699e-01
3.107881546020507812e-01 1.721322089433670044e-01 1.810538321733474731e-01
1.565375924110412598e-01 1.537547707557678223e-01 1.253131031990051270e-01
2.214107364416122437e-01 -1.258911788463592529e-01 -2.875123023986816406e-01
2.008867114782333374e-01 4.095515608787536621e-02 -2.656838297843933105e-01
2.969644069671630859e-01 1.160914376378059387e-01 2.775932252407073975e-01
2.316995561122894287e-01 1.626739352941513062e-01 -1.415614187717437744e-01
2.967485785484313965e-01 -1.277575641870498657e-01 -1.764931157231330872e-02
3.233768641948699951e-01 -6.758844852447509766e-02 -4.886484518647193909e-02
1.983610987663269043e-01 1.631212383508682251e-01 3.031913936138153076e-01
2.546043694019317627e-01 -1.791943907737731934e-01 -1.485466361045837402e-01
2.206701487302780151e-01 1.131674423813819885e-01 3.771462440490722656e-01
1.116930991411209106e-01 -5.395258776843547821e-03 -9.483660757541656494e-02
8.186930418014526367e-02 -1.126273572444915771e-01 2.270543724298477173e-01
7.884579896926879883e-02 -6.583780050277709961e-02 2.120412588119506836e-01
3.390200138092041016e-01 1.378052234649658203e-01 -6.290753185749053955e-02
7.667164504528045654e-02 -1.293720453977584839e-01 5.413411185145378113e-02
1.400858163833618164e-01 1.302065700292587280e-01 1.463513076305389404e-01
9.108233451843261719e-02 1.379305496811866760e-03 4.340013861656188965e-02
1.960614174604415894e-01 1.887544393539428711e-01 3.690715506672859192e-02
3.366242051124572754e-01 5.361535027623176575e-02 -1.634948551654815674e-01
3.148800432682037354e-01 -8.237995952367782593e-02 -1.218494772911071777e-01
3.175101876258850098e-01 5.635585263371467590e-02 -2.294855266809463501e-01
2.417587786912918091e-01 2.048512250185012817e-01 -3.206910565495491028e-02
8.352376520633697510e-02 -1.719414144754409790e-01 1.196409016847610474e-01
1.198555901646614075e-01 5.715003982186317444e-02 -3.088885173201560974e-02
2.621975541114807129e-01 -1.692639291286468506e-01 7.883100956678390503e-02
2.903778851032257080e-01 1.987563222646713257e-01 1.849261820316314697e-01
8.079877495765686035e-02 -3.971583396196365356e-02 2.057137787342071533e-01
3.434810042381286621e-01 8.238680660724639893e-02 -1.115096956491470337e-01
8.656491339206695557e-02 -8.137787692248821259e-03 6.946440041065216064e-02
1.722243428230285645e-01 7.744801230728626251e-03 -2.480130046606063843e-01
8.721119910478591919e-02 -1.841245032846927643e-02 3.441222757101058960e-02
1.670589596033096313e-01 -2.461970001459121704e-01 1.552271097898483276e-02
1.736773550510406494e-01 -1.551576554775238037e-01 3.099312186241149902e-01
1.160552203655242920e-01 -7.618623971939086914e-02 3.521870672702789307e-01
2.472999840974807739e-01 -1.055669188499450684e-01 2.777774631977081299e-01
3.109644055366516113e-01 -3.200281411409378052e-02 -2.312857359647750854e-01
1.747660338878631592e-01 1.140613928437232971e-01 3.559477031230926514e-01
3.115550279617309570e-01 -8.302092552185058594e-02 6.034293770790100098e-02
8.787461370229721069e-02 -5.905107408761978149e-02 -2.705160900950431824e-02
1.407577097415924072e-01 1.295348703861236572e-01 1.030915081501007080e-01
1.047012805938720703e-01 -1.263344883918762207e-01 2.995082736015319824e-01
2.832880318164825439e-01 -1.442204713821411133e-01 -1.316039115190505981e-01
2.273200154304504395e-01 -2.177567332983016968e-01 -2.553783357143402100e-03
2.889749407768249512e-01 -1.029249504208564758e-01 -2.181218415498733521e-01
3.310473561286926270e-01 9.356983006000518799e-02 1.639610528945922852e-01
3.270150125026702881e-01 9.570134431123733521e-02 1.831641197204589844e-01
8.267134428024291992e-02 -5.035855248570442200e-02 2.202293090522289276e-02
2.103338688611984253e-01 -6.599938869476318359e-02 3.751889765262603760e-01
1.274174451828002930e-01 -1.813519895076751709e-01 -1.517227888107299805e-01
1.160061061382293701e-01 7.681790739297866821e-02 2.306005656719207764e-01
2.613773345947265625e-01 9.541963227093219757e-03 3.487666547298431396e-01
2.874763011932373047e-01 -6.919211149215698242e-02 2.160926163196563721e-01
1.336730122566223145e-01 -3.029247745871543884e-02 -1.891412287950515747e-01
2.928887903690338135e-01 2.019457370042800903e-01 -4.970699921250343323e-02
1.968532800674438477e-01 1.666075363755226135e-02 4.146271646022796631e-01
2.952426671981811523e-01 7.435196079313755035e-03 2.697844803333282471e-01
1.780596971511840820e-01 1.763010397553443909e-03 -2.611798644065856934e-01
1.267981529235839844e-01 2.053401246666908264e-02 -1.227043718099594116e-01
3.325189352035522461e-01 1.287879794836044312e-01 -1.234258860349655151e-01
1.127111539244651794e-01 4.426513612270355225e-02 -1.890549436211585999e-02
1.625989824533462524e-01 9.262309968471527100e-02 3.649114966392517090e-01
2.708025276660919189e-01 -1.229329183697700500e-01 -2.369304746389389038e-01
1.990854740142822266e-01 1.561755686998367310e-01 3.183351457118988037e-01
7.690693438053131104e-02 -1.431612968444824219e-01 8.313652127981185913e-02
1.177994236350059509e-01 -2.555463463068008423e-02 -1.376271098852157593e-01
2.306934744119644165e-01 -2.796754240989685059e-02 -3.164929151535034180e-01
1.161216944456100464e-01 -1.932446211576461792e-01 2.228023260831832886e-01
3.039737045764923096e-01 1.301131676882505417e-02 2.461438328027725220e-01
1.014291867613792419e-01 2.966181561350822449e-02 2.481857500970363617e-02
3.046498596668243408e-01 -6.193921342492103577e-02 -2.234364002943038940e-01
3.212080597877502441e-01 1.544624269008636475e-01 1.662426441907882690e-01
2.806263566017150879e-01 2.201339155435562134e-01 6.263785064220428467e-02
2.014513760805130005e-01 1.487376987934112549e-01 3.335602283477783203e-01
1.150169968605041504e-01 -1.752471476793289185e-01 2.564892470836639404e-01
3.279930651187896729e-01 1.750055253505706787e-01 -1.107665896415710449e-02
1.690442115068435669e-01 -2.449382096529006958e-01 4.041428118944168091e-02
2.577123641967773438e-01 -5.360763147473335266e-02 -3.091476261615753174e-01
2.617126405239105225e-01 2.104555666446685791e-01 -2.973138168454170227e-02
7.851615548133850098e-02 -5.077869817614555359e-02 1.929276138544082642e-01
8.748971670866012573e-02 -1.681207269430160522e-01 -1.408167183399200439e-03
1.891845166683197021e-01 1.178814396262168884e-01 3.659908771514892578e-01
1.852800697088241577e-01 -7.117222994565963745e-02 3.889208734035491943e-01
3.103386163711547852e-01 1.541179567575454712e-01 2.098118364810943604e-01
1.276901960372924805e-01 -5.779330432415008545e-02 3.751024007797241211e-01
9.467763453722000122e-02 -1.152599900960922241e-01 2.816832065582275391e-01
1.291244328022003174e-01 1.760511100292205811e-02 3.686667680740356445e-01
3.480150103569030762e-01 5.607293173670768738e-02 -1.545675098896026611e-03
1.041718348860740662e-01 5.526970699429512024e-02 1.915837824344635010e-01
3.444248437881469727e-01 9.888403862714767456e-02 6.678592413663864136e-02
2.726169824600219727e-01 1.374512165784835815e-01 3.132102191448211670e-01
1.595850735902786255e-01 1.576284021139144897e-01 1.572743654251098633e-01
2.750327587127685547e-01 -1.394865959882736206e-01 -1.918296068906784058e-01
2.209809422492980957e-01 -2.101577371358871460e-01 9.986115992069244385e-02
2.142620086669921875e-01 -2.271359860897064209e-01 -5.214917287230491638e-02
2.956658899784088135e-01 2.135726362466812134e-01 6.529555469751358032e-02
1.306270807981491089e-01 -2.395025938749313354e-01 3.618541732430458069e-02
1.166760846972465515e-01 2.211285382509231567e-02 3.351504802703857422e-01
3.002084195613861084e-01 -1.049564331769943237e-01 7.552333176136016846e-02
8.755865693092346191e-02 -1.840884387493133545e-01 1.123502254486083984e-01
2.656801342964172363e-01 -3.196977078914642334e-02 3.162075877189636230e-01
3.177651166915893555e-01 -7.085885852575302124e-02 -1.364121735095977783e-01
1.083418428897857666e-01 -1.521874815225601196e-01 -1.223567873239517212e-01
1.544035822153091431e-01 -2.459567487239837646e-01 -4.296004772186279297e-03
3.381187915802001953e-01 9.221683256328105927e-03 6.334262341260910034e-02
2.686794698238372803e-01 1.396405100822448730e-01 -2.049816995859146118e-01
2.684609293937683105e-01 -1.530157178640365601e-01 1.078557297587394714e-01
1.640332192182540894e-01 -1.321907490491867065e-01 3.425520062446594238e-01
2.538733482360839844e-01 -1.391791403293609619e-01 -2.460907548666000366e-01
3.397938609123229980e-01 5.696536228060722351e-02 1.037259995937347412e-01
2.101414501667022705e-01 -1.875960826873779297e-01 -2.163435667753219604e-01
9.473878145217895508e-02 -1.692495793104171753e-01 2.130899578332901001e-01
3.220580220222473145e-01 1.320312470197677612e-01 1.873622685670852661e-01
8.689995110034942627e-02 2.777005545794963837e-03 1.197494715452194214e-01
2.426061630249023438e-01 -8.200943470001220703e-02 -3.069994747638702393e-01
2.703832983970642090e-01 1.837022453546524048e-01 2.587545216083526611e-01
2.649759054183959961e-01 1.955147534608840942e-01 2.402822822332382202e-01
3.330297768115997314e-01 4.374855384230613708e-02 1.407212466001510620e-01
3.019136190414428711e-01 1.470246016979217529e-01 2.432702183723449707e-01
3.234845399856567383e-01 -2.162517048418521881e-03 -2.067057043313980103e-01
2.890581786632537842e-01 -1.420709937810897827e-01 -2.392937615513801575e-02
1.219602525234222412e-01 -8.750770241022109985e-02 -1.783032864332199097e-01
2.575823068618774414e-01 -1.876858472824096680e-01 -5.736980959773063660e-02
8.152873814105987549e-02 -1.276239305734634399e-01 -3.244057297706604004e-04
3.108405470848083496e-01 9.401588886976242065e-02 -2.219301313161849976e-01
1.443661153316497803e-01 1.081767305731773376e-01 -2.789801731705665588e-02
1.073035672307014465e-01 -2.096813321113586426e-01 1.491363942623138428e-01
1.299877166748046875e-01 -1.157619506120681763e-01 -1.979679614305496216e-01
1.492377072572708130e-01 -2.305128872394561768e-01 1.463245302438735962e-01
2.990570068359375000e-01 2.035792022943496704e-01 -2.742295339703559875e-02
2.967654466629028320e-01 -1.285460740327835083e-01 -3.392317518591880798e-02
