5.310603380203247070e-01 -4.087950885295867920e-01 1.651676297187805176e-01
6.401437520980834961e-01 -3.719184398651123047e-01 -1.066159978508949280e-01
5.562100410461425781e-01 -3.959964513778686523e-01 1.257028877735137939e-01
5.787054896354675293e-01 -8.444881439208984375e-01 8.857477456331253052e-02
6.143104434013366699e-01 -7.447913885116577148e-01 -3.349696397781372070e-01
4.190244376659393311e-01 -7.049253582954406738e-01 -4.800292551517486572e-01
4.316811561584472656e-01 -2.758640646934509277e-01 -2.614503204822540283e-01
5.491775870323181152e-01 -5.790969729423522949e-01 -4.860001504421234131e-01
2.959630787372589111e-01 -2.969314157962799072e-01 3.496637195348739624e-02
1.678265929222106934e-01 -7.747752666473388672e-01 -3.389451205730438232e-01
1.830761432647705078e-01 -2.924658954143524170e-01 -9.711466729640960693e-02
-3.245890140533447266e-03 -5.229374170303344727e-01 -2.593384087085723877e-01
2.044414579868316650e-01 -7.159292697906494141e-01 2.883949577808380127e-01
5.151326656341552734e-01 -3.894211053848266602e-01 -4.390864074230194092e-01
1.003629267215728760e-01 -4.451820850372314453e-01 -4.025758802890777588e-01
5.996954441070556641e-01 -8.293325901031494141e-01 -1.969629228115081787e-01
5.705689191818237305e-01 -8.241857290267944336e-01 -2.554424405097961426e-01
1.832700073719024658e-01 -8.713227510452270508e-01 1.495792716741561890e-02
6.972397565841674805e-01 -4.359432458877563477e-01 -1.570492982864379883e-01
3.825978338718414307e-01 -8.201286196708679199e-01 -3.592417538166046143e-01
3.803704977035522461e-01 -8.542011380195617676e-01 -2.981917858123779297e-01
3.668822348117828369e-01 -9.018994569778442383e-01 8.717577904462814331e-02
6.608023643493652344e-01 -5.822451710700988770e-01 1.704369187355041504e-01
5.423133969306945801e-01 -3.051371574401855469e-01 -1.342445611953735352e-01
3.463692665100097656e-01 -7.264978289604187012e-01 3.239320218563079834e-01
7.151594161987304688e-01 -6.742311716079711914e-01 6.059464067220687866e-02
4.539962410926818848e-01 -3.068051338195800781e-01 2.999132126569747925e-02
7.060615420341491699e-01 -7.229840755462646484e-01 -1.886480003595352173e-01
1.142267584800720215e-01 -6.855467557907104492e-01 -3.868048489093780518e-01
9.301686286926269531e-02 -4.154053032398223877e-01 1.030525490641593933e-01
7.265504002571105957e-01 -5.058670639991760254e-01 -1.999850124120712280e-01
7.129009962081909180e-01 -5.466044545173645020e-01 -2.844024896621704102e-01
3.640884160995483398e-02 -3.913553953170776367e-01 -1.186816170811653137e-01
7.246936559677124023e-01 -5.708565711975097656e-01 -2.568974196910858154e-01
3.931510150432586670e-01 -9.020091295242309570e-01 8.453097194433212280e-02
1.441862583160400391e-01 -8.248040080070495605e-01 1.162540689110755920e-01
5.599200129508972168e-01 -6.192728877067565918e-01 -4.697167277336120605e-01
4.846876561641693115e-01 -8.713690042495727539e-01 -2.202837169170379639e-01
5.838071703910827637e-01 -8.129979372024536133e-01 -2.629770636558532715e-01
2.484476119279861450e-01 -5.353459715843200684e-01 -5.244261026382446289e-01
2.387144416570663452e-01 -4.855592846870422363e-01 2.749615013599395752e-01
2.738646566867828369e-01 -4.969481229782104492e-01 -5.288387537002563477e-01
5.833485722541809082e-02 -4.342156052589416504e-01 7.652115076780319214e-02
3.808167576789855957e-01 -9.084638357162475586e-01 -1.196541562676429749e-01
6.234738230705261230e-02 -3.671802878379821777e-01 -1.951667070388793945e-01
7.366911768913269043e-01 -6.810134649276733398e-01 -1.059847474098205566e-01
5.949844121932983398e-01 -7.286232709884643555e-01 -3.731253743171691895e-01
6.690264344215393066e-01 -7.888049483299255371e-01 1.007972657680511475e-02
1.997546553611755371e-01 -7.484882473945617676e-01 2.673136889934539795e-01
3.384866416454315186e-01 -8.495670557022094727e-01 2.141618430614471436e-01
2.030128389596939087e-01 -4.722233712673187256e-01 2.508364021778106689e-01
4.745166003704071045e-01 -5.101573467254638672e-01 -5.215477347373962402e-01
2.440970540046691895e-01 -4.825117588043212891e-01 -5.166715979576110840e-01
2.051840573549270630e-01 -3.602492213249206543e-01 1.260640025138854980e-01
9.813630580902099609e-02 -3.595155477523803711e-01 -2.892545461654663086e-01
4.997917413711547852e-01 -8.905211091041564941e-01 4.616098850965499878e-02
2.102665454149246216e-01 -7.859160304069519043e-01 2.426635622978210449e-01
7.227224111557006836e-02 -7.013944983482360840e-01 -3.203174471855163574e-01
7.800686359405517578e-02 -3.780104219913482666e-01 6.381832063198089600e-03
6.191249489784240723e-01 -7.999895811080932617e-01 -2.381750345230102539e-01
6.835064291954040527e-02 -7.774577140808105469e-01 -1.773167252540588379e-01
-4.453837871551513672e-03 -5.061461925506591797e-01 2.124539017677307129e-02
4.743705391883850098e-01 -5.357856750488281250e-01 2.979091107845306396e-01
4.548811912536621094e-02 -6.395584344863891602e-01 -3.332944810390472412e-01
4.641165137290954590e-01 -8.269623517990112305e-01 -3.305079936981201172e-01
8.979842066764831543e-02 -3.563368916511535645e-01 -2.597152292728424072e-01
6.873880624771118164e-01 -7.576452493667602539e-01 -1.716494560241699219e-01
1.488693505525588989e-01 -6.565383076667785645e-01 2.715049684047698975e-01
3.011531829833984375e-01 -8.979940414428710938e-01 -1.474812179803848267e-01
4.390365481376647949e-01 -9.103020429611206055e-01 -4.091946035623550415e-02
6.014140248298645020e-01 -5.350653529167175293e-01 -4.477241635322570801e-01
1.248548030853271484e-01 -6.269443631172180176e-01 -4.336584806442260742e-01
3.516137003898620605e-01 -4.026992917060852051e-01 -5.004603266716003418e-01
3.403135836124420166e-01 -2.691017985343933105e-01 -2.722715735435485840e-01
2.601299881935119629e-01 -8.164482116699218750e-01 -3.386117517948150635e-01
4.318601489067077637e-01 -8.945504426956176758e-01 9.964353591203689575e-02
3.171373307704925537e-01 -7.370687127113342285e-01 -4.535273015499114990e-01
4.477164149284362793e-01 -4.809902310371398926e-01 -5.239371061325073242e-01
4.289664328098297119e-01 -7.279530763626098633e-01 3.162063658237457275e-01
2.588358521461486816e-01 -8.762106299400329590e-01 -2.010373473167419434e-01
1.565041542053222656e-01 -8.382606506347656250e-01 1.019696369767189026e-01
2.447536885738372803e-01 -3.479326963424682617e-01 -4.250960946083068848e-01
3.474541604518890381e-01 -9.140571951866149902e-01 -1.968317478895187378e-02
4.741970002651214600e-01 -3.984001278877258301e-01 -4.706960618495941162e-01
7.985213398933410645e-02 -4.700068831443786621e-01 1.494166254997253418e-01
2.993128895759582520e-01 -4.930383265018463135e-01 -5.337131023406982422e-01
5.643536448478698730e-01 -3.239656388759613037e-01 -6.899976730346679688e-02
2.035359889268875122e-01 -3.041457235813140869e-01 -4.473365843296051025e-03
5.492835044860839844e-01 -7.049390673637390137e-01 2.727884054183959961e-01
4.466525316238403320e-01 -2.978258430957794189e-01 8.077450096607208252e-03
2.050919979810714722e-01 -2.904092967510223389e-01 -6.013001874089241028e-02
2.240860760211944580e-01 -3.850363194942474365e-01 1.733693480491638184e-01
1.859077662229537964e-01 -8.613917827606201172e-01 -1.597756594419479370e-01
3.559909760951995850e-01 -2.605831921100616455e-01 -1.358516514301300049e-01
8.429923653602600098e-02 -7.488902807235717773e-01 -2.750971615314483643e-01
1.471059769392013550e-01 -3.513552546501159668e-01 5.777878314256668091e-02
4.659466147422790527e-01 -2.775561511516571045e-01 -2.094795405864715576e-01
2.293452173471450806e-01 -2.748367786407470703e-01 -1.300498098134994507e-01
5.327926874160766602e-01 -3.021680712699890137e-01 -2.109344601631164551e-01
4.729472994804382324e-01 -6.951956748962402344e-01 3.146214485168457031e-01
3.481217026710510254e-01 -5.088834762573242188e-01 -5.412651896476745605e-01
4.442358016967773438e-02 -7.439048290252685547e-01 7.049686461687088013e-02
1.083208918571472168e-01 -4.798384308815002441e-01 -4.284248352050781250e-01
1.569467633962631226e-01 -3.097140491008758545e-01 -2.544423043727874756e-01
4.966578483581542969e-01 -2.867904305458068848e-01 -1.280391514301300049e-01
6.222755908966064453e-01 -4.217137694358825684e-01 -3.622893989086151123e-01
2.847781777381896973e-01 -2.696914374828338623e-01 -7.977156341075897217e-02
6.285976171493530273e-01 -7.370060682296752930e-01 1.810213029384613037e-01
1.668298244476318359e-01 -2.956280410289764404e-01 -1.423278599977493286e-01
3.034564256668090820e-01 -3.833228349685668945e-01 1.959253847599029541e-01
6.389911770820617676e-01 -3.711004853248596191e-01 -1.949526518583297729e-01
1.753667294979095459e-01 -6.607096195220947266e-01 2.886812984943389893e-01
6.755505800247192383e-01 -7.831555604934692383e-01 -1.279545277357101440e-01
5.732127428054809570e-01 -7.826324701309204102e-01 2.024627327919006348e-01
6.935338973999023438e-01 -6.174640059471130371e-01 1.246705427765846252e-01
3.667324483394622803e-01 -2.652360200881958008e-01 -9.084577113389968872e-02
8.620163798332214355e-02 -7.149478793144226074e-01 -3.249357640743255615e-01
3.863015770912170410e-02 -4.585384428501129150e-01 7.274707406759262085e-02
5.771387219429016113e-01 -8.330088853836059570e-01 1.209001913666725159e-01
6.478330492973327637e-02 -4.768646061420440674e-01 1.357560753822326660e-01
7.020263671875000000e-01 -4.457074701786041260e-01 -9.362253546714782715e-02
6.646218299865722656e-01 -6.498945355415344238e-01 -3.542388677597045898e-01
1.352433264255523682e-01 -8.351769447326660156e-01 6.632050126791000366e-02
2.681301534175872803e-01 -2.685171663761138916e-01 -1.082634851336479187e-01
5.821567177772521973e-01 -4.037223756313323975e-01 -3.941800892353057861e-01
2.670297622680664062e-01 -3.075194656848907471e-01 5.251642316579818726e-02
2.329437881708145142e-01 -4.526671767234802246e-01 -5.026994943618774414e-01
4.771493673324584961e-01 -8.792786002159118652e-01 1.189137771725654602e-01
5.584286451339721680e-01 -8.733553886413574219e-01 -8.705984801054000854e-02
6.410178542137145996e-02 -7.405781745910644531e-01 1.233964934945106506e-01
3.442481160163879395e-02 -6.784057021141052246e-01 -2.799017131328582764e-01
7.185974121093750000e-01 -7.221606969833374023e-01 -3.343389183282852173e-02
4.110625386238098145e-02 -4.792380034923553467e-01 -3.384207487106323242e-01
9.832191467285156250e-02 -3.396886587142944336e-01 -2.184414714574813843e-01
1.172907352447509766e-01 -3.215894103050231934e-01 -1.399172693490982056e-01
4.594978392124176025e-01 -4.997887611389160156e-01 2.841861546039581299e-01
5.100357532501220703e-02 -7.412485480308532715e-01 -2.212294042110443115e-01
8.903190493583679199e-02 -6.179646253585815430e-01 2.218342423439025879e-01
4.786340594291687012e-01 -8.389211893081665039e-01 -3.018556833267211914e-01
2.723354697227478027e-01 -9.035847187042236328e-01 -4.680027812719345093e-02
-1.713114976882934570e-02 -4.890189766883850098e-01 -1.557148694992065430e-01
-1.855930685997009277e-02 -6.609342694282531738e-01 -7.769142836332321167e-02
2.564123868942260742e-01 -6.957802772521972656e-01 -4.709902703762054443e-01
3.522172868251800537e-01 -8.114988803863525391e-01 2.647098004817962646e-01
2.523951828479766846e-01 -5.154532790184020996e-01 -5.249148607254028320e-01
5.222165584564208984e-01 -3.059286773204803467e-01 -5.684175714850425720e-02
2.449969947338104248e-01 -8.581472039222717285e-01 1.590366959571838379e-01
9.535655379295349121e-02 -3.547144532203674316e-01 -2.170734107494354248e-02
9.577223658561706543e-02 -4.643404185771942139e-01 1.629746258258819580e-01
3.381310999393463135e-01 -7.432112693786621094e-01 -4.507534205913543701e-01
4.695304036140441895e-01 -3.792079687118530273e-01 -4.552456140518188477e-01
6.676330566406250000e-01 -7.669709920883178711e-01 -2.099058926105499268e-01
6.617620587348937988e-02 -5.110282897949218750e-01 1.638980507850646973e-01
2.161819189786911011e-01 -5.736068487167358398e-01 -5.084217190742492676e-01
4.065142571926116943e-01 -9.098704457283020020e-01 -1.008954197168350220e-01
3.628438711166381836e-02 -4.003633260726928711e-01 -2.129780948162078857e-01
-2.165877819061279297e-02 -4.986766278743743896e-01 -1.027095764875411987e-01
7.344887852668762207e-01 -5.937396883964538574e-01 1.444622874259948730e-02
5.126082897186279297e-01 -8.932509422302246094e-01 -3.163075447082519531e-02
5.012777447700500488e-01 -6.712815165519714355e-01 -4.778298735618591309e-01
3.598025143146514893e-01 -2.795804440975189209e-01 -1.534486562013626099e-02
2.050616443157196045e-01 -3.700799345970153809e-01 -4.296131134033203125e-01
2.825425267219543457e-01 -3.367475867271423340e-01 -4.247592687606811523e-01
6.363881230354309082e-01 -7.612418532371520996e-01 -2.826725244522094727e-01
2.542930841445922852e-01 -3.562101423740386963e-01 1.444953680038452148e-01
1.948909312486648560e-01 -8.788521885871887207e-01 -1.930806785821914673e-02
6.395721435546875000e-02 -7.511265277862548828e-01 -2.317681908607482910e-01
6.142110824584960938e-01 -8.409674763679504395e-01 -9.710858762264251709e-02
1.148815751075744629e-01 -8.350607156753540039e-01 -5.475607514381408691e-02
2.359115183353424072e-01 -8.536511063575744629e-01 -2.476338148117065430e-01
1.180845499038696289e-02 -4.249202907085418701e-01 -1.480871140956878662e-01
1.042847931385040283e-01 -8.158646821975708008e-01 5.117208510637283325e-02
4.277279078960418701e-01 -5.042769908905029297e-01 -5.338273048400878906e-01
9.938281774520874023e-02 -7.112045288085937500e-01 2.042975127696990967e-01
4.203784465789794922e-01 -3.478046655654907227e-01 1.354082524776458740e-01
7.064478993415832520e-01 -7.282714843750000000e-01 2.292345464229583740e-02
4.205897450447082520e-01 -7.650271654129028320e-01 2.980910241603851318e-01
5.346454977989196777e-01 -4.973703920841217041e-01 -4.905528426170349121e-01
5.698434114456176758e-01 -5.957704186439514160e-01 2.659400403499603271e-01
3.846083283424377441e-01 -2.726771831512451172e-01 -5.293161794543266296e-02
2.324849963188171387e-01 -3.677584528923034668e-01 1.529991328716278076e-01
2.014486938714981079e-01 -8.654923439025878906e-01 -1.704024225473403931e-01
4.191380739212036133e-01 -7.577142715454101562e-01 -4.343147873878479004e-01
4.316025972366333008e-02 -4.011928141117095947e-01 -2.442612648010253906e-01
5.881621241569519043e-01 -5.654120445251464844e-01 2.431149780750274658e-01
1.457926332950592041e-01 -8.548371791839599609e-01 -4.422442242503166199e-02
1.945463567972183228e-01 -8.625063896179199219e-01 8.981180936098098755e-02
2.581802010536193848e-02 -4.723747074604034424e-01 6.310036033391952515e-02
2.489907741546630859e-01 -2.992903888225555420e-01 -3.387204110622406006e-01
1.478781402111053467e-01 -7.747831344604492188e-01 2.027007043361663818e-01
3.611247837543487549e-01 -7.938408851623535156e-01 -3.964876234531402588e-01
5.255860090255737305e-02 -7.656431794166564941e-01 4.409832507371902466e-02
6.188282966613769531e-01 -7.875993251800537109e-01 1.398389637470245361e-01
4.231673479080200195e-01 -8.081317543983459473e-01 -3.722858726978302002e-01
6.710292100906372070e-01 -6.697608232498168945e-01 1.565148532390594482e-01
5.320605635643005371e-01 -5.107560753822326660e-01 2.569023370742797852e-01
1.788469552993774414e-01 -6.001029610633850098e-01 -4.827944040298461914e-01
3.152074217796325684e-01 -6.733249425888061523e-01 3.365134000778198242e-01
9.368622303009033203e-02 -6.438945531845092773e-01 2.244268357753753662e-01
3.694271445274353027e-01 -9.125838279724121094e-01 -8.461909741163253784e-02
5.999045968055725098e-01 -5.076865553855895996e-01 -4.438641071319580078e-01
1.207368373870849609e-01 -6.134680509567260742e-01 2.522167265415191650e-01
2.045073211193084717e-01 -8.778799772262573242e-01 -1.116658151149749756e-01
9.859824180603027344e-02 -8.224529027938842773e-01 -2.347039431333541870e-02
2.544544041156768799e-01 -7.859365940093994141e-01 -3.810199201107025146e-01
6.673219799995422363e-02 -4.239784479141235352e-01 -3.373410701751708984e-01
1.160968840122222900e-01 -3.367258906364440918e-01 -3.586336225271224976e-02
1.615660935640335083e-01 -4.831139743328094482e-01 -4.741522669792175293e-01
1.681216210126876831e-01 -3.525524139404296875e-01 -3.771986961364746094e-01
4.383223354816436768e-01 -3.162340819835662842e-01 6.439635902643203735e-02
3.982746899127960205e-01 -9.117920994758605957e-01 2.091405540704727173e-02
4.803657531738281250e-02 -4.738941490650177002e-01 1.073438897728919983e-01
4.527214169502258301e-01 -8.740197420120239258e-01 1.495627462863922119e-01
3.219605088233947754e-01 -7.122343778610229492e-01 -4.751194715499877930e-01
2.671870589256286621e-02 -7.352958321571350098e-01 -1.558463573455810547e-01
6.494675874710083008e-01 -6.250795125961303711e-01 1.926741898059844971e-01
2.817427217960357666e-01 -9.053764343261718750e-01 -1.225122064352035522e-02
2.250310778617858887e-02 -6.515478491783142090e-01 1.169267669320106506e-01
3.755936920642852783e-01 -8.965349793434143066e-01 -1.803649365901947021e-01
1.361225694417953491e-01 -4.561474323272705078e-01 -4.443899393081665039e-01
1.191408783197402954e-01 -7.596716284751892090e-01 -3.088801205158233643e-01
2.777079641819000244e-01 -7.678877711296081543e-01 2.891601324081420898e-01
1.299928426742553711e-01 -4.331655502319335938e-01 1.663175523281097412e-01
2.370446920394897461e-03 -5.843156576156616211e-01 -2.760516703128814697e-01
3.523727059364318848e-01 -3.522615432739257812e-01 -4.545011520385742188e-01
3.350962996482849121e-01 -2.620644569396972656e-01 -2.228076756000518799e-01
3.197594583034515381e-01 -2.797714173793792725e-01 -3.136214315891265869e-01
6.029031872749328613e-01 -7.349448204040527344e-01 2.127067148685455322e-01
3.801872432231903076e-01 -8.614083528518676758e-01 1.958549320697784424e-01
3.426682651042938232e-01 -7.056821584701538086e-01 3.313508629798889160e-01
1.803655177354812622e-01 -7.108348011970520020e-01 -4.207214117050170898e-01
4.078089892864227295e-01 -8.352283835411071777e-01 2.333806157112121582e-01
8.430200815200805664e-02 -8.056989312171936035e-01 1.770053803920745850e-02
1.256070435047149658e-01 -7.484996914863586426e-01 2.054213881492614746e-01
2.210807949304580688e-01 -2.760064601898193359e-01 -1.628082543611526489e-01
2.625041007995605469e-01 -7.505018115043640137e-01 -4.257822036743164062e-01
6.107420325279235840e-01 -3.503347933292388916e-01 -8.865206688642501831e-02
2.176194787025451660e-01 -8.566634654998779297e-01 1.377086341381072998e-01
7.321810722351074219e-02 -6.877677440643310547e-01 -3.357268571853637695e-01
5.535570383071899414e-01 -4.661957919597625732e-01 2.096813321113586426e-01
7.434332370758056641e-01 -5.957442522048950195e-01 -2.896437793970108032e-02
6.663453578948974609e-01 -4.027435779571533203e-01 -2.136395871639251709e-01
3.934423923492431641e-01 -7.648217082023620605e-01 -4.299869835376739502e-01
4.389753043651580811e-01 -7.308922410011291504e-01 -4.556955099105834961e-01
8.638545870780944824e-02 -3.514557182788848877e-01 -6.263830512762069702e-02
5.551480054855346680e-01 -8.405373096466064453e-01 1.347459256649017334e-01
2.154649198055267334e-01 -8.007981777191162109e-01 -3.375778794288635254e-01
7.092806100845336914e-01 -5.332872867584228516e-01 5.480348318815231323e-02
6.631109714508056641e-01 -6.956003308296203613e-01 1.583148539066314697e-01
4.810052514076232910e-01 -6.065282821655273438e-01 3.163532316684722900e-01
3.260997533798217773e-01 2.206179052591323853e-01 1.677225083112716675e-01
-5.071455240249633789e-02 3.110248744487762451e-01 -6.929775327444076538e-02
3.188327550888061523e-01 2.322607636451721191e-01 2.394299358129501343e-01
6.280635297298431396e-02 3.094356060028076172e-01 -1.383184641599655151e-01
-1.625502109527587891e-01 2.961655855178833008e-01 8.543905615806579590e-02
3.304886817932128906e-01 2.457910031080245972e-01 -2.774210572242736816e-01
-1.198832094669342041e-01 3.068081736564636230e-01 6.687469780445098877e-02
2.836418151855468750e-02 2.200205177068710327e-01 -2.528769895434379578e-02
-1.025711596012115479e-01 2.487516850233078003e-01 -1.540391892194747925e-01
2.371044754981994629e-01 2.821482121944427490e-01 3.051368296146392822e-01
-1.715305447578430176e-02 2.472845166921615601e-01 2.384302169084548950e-01
1.187654957175254822e-01 3.036386370658874512e-01 2.477512210607528687e-01
4.999383538961410522e-02 3.141438364982604980e-01 -7.849694043397903442e-02
3.616373240947723389e-02 2.274346798658370972e-01 -1.846719384193420410e-01
1.073593646287918091e-01 3.134616911411285400e-01 1.575701087713241577e-01
1.486568599939346313e-01 2.621773183345794678e-01 3.329351842403411865e-01
1.622654944658279419e-01 2.158139944076538086e-01 -1.634928584098815918e-01
1.918931305408477783e-02 2.210601419210433960e-01 -1.700545661151409149e-03
3.069877624511718750e-01 3.005807399749755859e-01 -7.785080373287200928e-02
-6.839267909526824951e-02 3.123263418674468994e-01 -1.454265695065259933e-02
3.190354108810424805e-01 2.625081539154052734e-01 -2.772193551063537598e-01
2.026606351137161255e-01 2.163726389408111572e-01 -1.837664395570755005e-01
1.002934426069259644e-01 3.071714341640472412e-01 2.250974178314208984e-01
1.787289977073669434e-03 2.930090427398681641e-01 -2.310429960489273071e-01
9.675170481204986572e-02 3.139757812023162842e-01 -7.772573083639144897e-02
2.158021628856658936e-01 2.863527536392211914e-01 3.010835647583007812e-01
1.263779252767562866e-01 3.141437470912933350e-01 -6.243199855089187622e-02
-1.933445036411285400e-02 2.934590578079223633e-01 2.678775787353515625e-01
1.839641332626342773e-01 2.476222068071365356e-01 3.113272488117218018e-01
2.766087949275970459e-01 2.868486940860748291e-01 -2.249283790588378906e-01
2.015769481658935547e-03 3.068095445632934570e-01 2.131595611572265625e-01
1.305911391973495483e-01 2.772543728351593018e-01 -2.993338704109191895e-01
2.833026945590972900e-01 2.441230416297912598e-01 -2.946187853813171387e-01
2.533529698848724365e-02 3.171997070312500000e-01 6.961224973201751709e-02
8.998128771781921387e-02 2.158583998680114746e-01 -9.092793613672256470e-02
-6.544427573680877686e-02 2.560259997844696045e-01 -2.287322729825973511e-01
3.375462889671325684e-01 2.880606055259704590e-01 2.161342650651931763e-01
2.944389581680297852e-01 2.125670313835144043e-01 9.272684156894683838e-02
4.422778487205505371e-01 2.210325449705123901e-01 2.755450829863548279e-02
-1.207002699375152588e-01 3.072226941585540771e-01 2.936562895774841309e-02
4.328111112117767334e-01 2.190957218408584595e-01 1.136982440948486328e-02
3.795686364173889160e-02 2.365046143531799316e-01 2.243296653032302856e-01
-1.568559706211090088e-01 2.620203197002410889e-01 -1.091664433479309082e-01
4.088259637355804443e-01 2.869072258472442627e-01 -4.417746886610984802e-02
-1.102952063083648682e-01 3.018070459365844727e-01 1.550420075654983521e-01
-3.400930762290954590e-02 2.299224436283111572e-01 7.414787262678146362e-02
-7.712759077548980713e-02 3.072580397129058838e-01 1.511789262294769287e-01
3.949772566556930542e-02 3.117317557334899902e-01 -1.104606389999389648e-01
4.237119257450103760e-01 2.201941907405853271e-01 6.708716601133346558e-02
-7.495497167110443115e-02 2.443077862262725830e-01 1.587131768465042114e-01
-1.683986186981201172e-01 2.668048739433288574e-01 1.077663078904151917e-01
-1.623556017875671387e-03 2.235481739044189453e-01 9.552847594022750854e-03
-6.025993824005126953e-02 2.873664498329162598e-01 -2.194433361291885376e-01
-5.482935905456542969e-02 2.409961968660354614e-01 1.630392819643020630e-01
3.341159224510192871e-01 2.768591940402984619e-01 2.660211920738220215e-01
3.666049540042877197e-01 2.777605652809143066e-01 -1.966954618692398071e-01
2.088333815336227417e-01 2.094051837921142578e-01 1.241490337997674942e-02
2.153838425874710083e-01 2.394566237926483154e-01 -2.993197143077850342e-01
2.876896262168884277e-01 3.046748042106628418e-01 1.068304330110549927e-01
-6.108978390693664551e-02 2.372549623250961304e-01 1.183779165148735046e-01
3.095398247241973877e-01 2.838608324527740479e-01 2.613289654254913330e-01
6.978102028369903564e-02 3.147030174732208252e-01 1.447136849164962769e-01
3.871845304965972900e-01 2.151372134685516357e-01 4.926797002553939819e-02
1.508129239082336426e-01 2.815864682197570801e-01 -2.872812151908874512e-01
2.193892300128936768e-01 2.105975002050399780e-01 5.909317359328269958e-02
3.908798098564147949e-01 2.783458232879638672e-01 -1.649518311023712158e-01
4.060703217983245850e-01 2.221982181072235107e-01 -1.463348120450973511e-01
3.467659354209899902e-01 2.989217340946197510e-01 4.238937795162200928e-02
3.474603891372680664e-01 2.970775067806243896e-01 1.075543388724327087e-01
-4.816530644893646240e-02 2.309919297695159912e-01 5.276673659682273865e-02
3.445359766483306885e-01 2.821508646011352539e-01 -1.962424665689468384e-01
2.767144441604614258e-01 3.070639967918395996e-01 1.281426846981048584e-02
-9.489390254020690918e-02 2.709101736545562744e-01 2.350871860980987549e-01
1.112778037786483765e-01 2.144675701856613159e-01 -9.340544790029525757e-02
1.001640707254409790e-01 3.169789910316467285e-01 1.129335723817348480e-03
-4.986466467380523682e-02 2.505467832088470459e-01 2.238062471151351929e-01
4.712514877319335938e-01 2.555988729000091553e-01 1.463930159807205200e-01
1.078933700919151306e-01 3.107366859912872314e-01 1.915673911571502686e-01
5.727100372314453125e-02 2.174843400716781616e-01 -5.037818476557731628e-02
4.469085037708282471e-01 2.645858824253082275e-01 -1.490332782268524170e-01
3.833839297294616699e-01 2.216172367334365845e-01 1.375486403703689575e-01
2.716921865940093994e-01 3.048724532127380371e-01 1.365515589714050293e-01
3.382468223571777344e-02 2.861712276935577393e-01 -2.649915814399719238e-01
-1.773524284362792969e-01 2.907154560089111328e-01 7.509192079305648804e-02
1.006957888603210449e-01 2.167537659406661987e-01 -1.266728937625885010e-01
1.674834042787551880e-01 3.133702278137207031e-01 -4.472478106617927551e-02
1.413916796445846558e-01 2.648513317108154297e-01 -3.173418343067169189e-01
-1.645901799201965332e-01 2.979885339736938477e-01 2.911722660064697266e-02
3.997884988784790039e-01 2.150405645370483398e-01 8.860865607857704163e-03
-1.517292857170104980e-01 2.893250882625579834e-01 1.520992368459701538e-01
4.380465447902679443e-01 2.310134172439575195e-01 -1.586713641881942749e-01
2.701230049133300781e-01 2.122384905815124512e-01 9.399639815092086792e-02
2.486241757869720459e-01 2.779447138309478760e-01 -2.746824324131011963e-01
-5.524224042892456055e-02 2.990600764751434326e-01 2.262005656957626343e-01
2.400886118412017822e-01 2.281939536333084106e-01 2.373496145009994507e-01
4.506541788578033447e-02 3.148557543754577637e-01 1.403110772371292114e-01
5.006249547004699707e-01 2.381434738636016846e-01 -1.829821243882179260e-02
4.010974168777465820e-01 2.318688631057739258e-01 -2.037484049797058105e-01
3.833882808685302734e-01 2.190875411033630371e-01 1.130522787570953369e-01
-1.719323396682739258e-01 2.761586606502532959e-01 -1.009883955121040344e-01
1.502079963684082031e-01 3.070133924484252930e-01 -1.473052799701690674e-01
3.423264324665069580e-01 2.597948014736175537e-01 -2.673921287059783936e-01
-1.776891052722930908e-01 2.919237315654754639e-01 -1.895101740956306458e-02
1.659156978130340576e-01 3.151535689830780029e-01 3.488069400191307068e-02
3.568609356880187988e-01 2.833538651466369629e-01 -1.763558536767959595e-01
-1.434176266193389893e-01 2.498711943626403809e-01 3.186063840985298157e-02
6.052705645561218262e-02 2.255266755819320679e-01 -1.909434944391250610e-01
8.693610876798629761e-02 3.170900046825408936e-01 8.215387910604476929e-02
-1.070619523525238037e-01 2.485123574733734131e-01 1.352634131908416748e-01
1.288859546184539795e-01 2.121505141258239746e-01 -2.693847194314002991e-02
1.043719947338104248e-01 2.267573475837707520e-01 -2.293743789196014404e-01
1.560818850994110107e-01 2.239141315221786499e-01 -2.318613529205322266e-01
-6.086166203022003174e-02 3.073845505714416504e-01 1.676545292139053345e-01
2.127242237329483032e-01 3.023649454116821289e-01 2.231138348579406738e-01
-1.929006874561309814e-01 2.771148383617401123e-01 -5.597962997853755951e-03
-6.058995425701141357e-02 2.323686629533767700e-01 -6.437084078788757324e-02
4.847802817821502686e-01 2.315294295549392700e-01 -4.836899042129516602e-02
3.810044825077056885e-01 2.323060631752014160e-01 2.056532502174377441e-01
3.330687284469604492e-01 2.783949375152587891e-01 -2.243790924549102783e-01
1.639796793460845947e-01 3.133867383003234863e-01 1.241043210029602051e-01
3.712105751037597656e-01 2.831460833549499512e-01 2.050037980079650879e-01
-8.597481250762939453e-02 3.099001944065093994e-01 1.005589216947555542e-01
2.446580380201339722e-01 2.951195538043975830e-01 -1.959912925958633423e-01
2.153823673725128174e-01 3.040011227130889893e-01 -1.417774409055709839e-01
-1.825388669967651367e-01 2.798163592815399170e-01 9.350639581680297852e-02
3.303648829460144043e-01 2.250162512063980103e-01 1.968862414360046387e-01
-3.933125734329223633e-02 2.946185767650604248e-01 -2.053979188203811646e-01
2.520505785942077637e-01 2.990740537643432617e-01 -1.604096740484237671e-01
-1.378608644008636475e-01 2.534167766571044922e-01 1.045984551310539246e-01
2.165973633527755737e-01 2.140274494886398315e-01 1.181895509362220764e-01
4.121613800525665283e-01 2.802662849426269531e-01 -1.173386275768280029e-01
1.374182701110839844e-01 2.119024246931076050e-01 5.964427255094051361e-03
2.451534569263458252e-02 2.914262712001800537e-01 2.905413210391998291e-01
4.779838919639587402e-01 2.281348854303359985e-01 -1.319523248821496964e-02
1.500876247882843018e-02 3.088276684284210205e-01 -1.355629563331604004e-01
1.130302250385284424e-01 2.978502213954925537e-01 -2.232410162687301636e-01
4.311660230159759521e-01 2.838498353958129883e-01 3.105998784303665161e-02
2.677342593669891357e-01 2.880822122097015381e-01 2.720069289207458496e-01
-3.777980804443359375e-03 2.350415736436843872e-01 -2.016119956970214844e-01
4.230979979038238525e-01 2.544960379600524902e-01 -2.057970017194747925e-01
6.227508187294006348e-02 3.127742707729339600e-01 -9.952460974454879761e-02
1.444631814956665039e-02 2.250712215900421143e-01 9.600636363029479980e-02
2.186828404664993286e-01 3.113899827003479004e-01 -1.414743158966302872e-02
8.766420930624008179e-02 2.198751866817474365e-01 -1.577153205871582031e-01
1.985221803188323975e-01 2.231905162334442139e-01 -2.360836416482925415e-01
4.899719059467315674e-01 2.634274363517761230e-01 -3.207268938422203064e-02
-1.320857107639312744e-01 2.620088756084442139e-01 1.667632758617401123e-01
1.524509191513061523e-01 2.187927663326263428e-01 1.524742394685745239e-01
-9.019586443901062012e-02 2.371604442596435547e-01 -4.445125907659530640e-02
1.432633996009826660e-01 2.148857265710830688e-01 9.548356384038925171e-02
-7.852078974246978760e-02 3.101018071174621582e-01 -4.583753272891044617e-02
3.893817067146301270e-01 2.230007052421569824e-01 -1.707030832767486572e-01
3.358026146888732910e-01 2.948141396045684814e-01 -1.069032624363899231e-01
2.534328699111938477e-01 2.571509778499603271e-01 -3.081747591495513916e-01
1.620567440986633301e-01 3.042092025279998779e-01 -1.685689836740493774e-01
1.243454068899154663e-01 2.563385665416717529e-01 3.238233029842376709e-01
2.751000523567199707e-01 2.092601060867309570e-01 2.383657544851303101e-02
3.750432729721069336e-01 2.128727138042449951e-01 -4.748534783720970154e-02
1.676097512245178223e-02 3.146882951259613037e-01 1.339650303125381470e-01
-1.642346382141113281e-02 2.357301115989685059e-01 1.704797595739364624e-01
2.159412801265716553e-01 2.091751396656036377e-01 -5.514851957559585571e-02
1.632731407880783081e-01 3.119012117385864258e-01 -7.820937782526016235e-02
4.401198625564575195e-01 2.786936759948730469e-01 -6.259411573410034180e-02
1.225383579730987549e-02 3.127923607826232910e-01 1.602132022380828857e-01
-2.727007865905761719e-02 2.438962161540985107e-01 2.131710499525070190e-01
-7.736761868000030518e-02 3.122702836990356445e-01 2.096276916563510895e-02
9.376093745231628418e-03 2.790565788745880127e-01 -2.745501697063446045e-01
7.264611124992370605e-02 2.296457290649414062e-01 2.024418413639068604e-01
2.321117371320724487e-01 3.065771460533142090e-01 1.652952432632446289e-01
2.067838907241821289e-01 2.105030715465545654e-01 -9.753897786140441895e-02
4.695112407207489014e-01 2.720476686954498291e-01 6.395869702100753784e-02
2.012498825788497925e-01 2.335968017578125000e-01 -2.836627662181854248e-01
2.989407181739807129e-01 3.043447732925415039e-01 -1.084532123059034348e-02
1.066048145294189453e-01 2.835977971553802490e-01 -2.828583121299743652e-01
1.756306439638137817e-01 3.145676851272583008e-01 5.990007519721984863e-02
5.637471377849578857e-02 2.218993008136749268e-01 1.116503775119781494e-01
2.252383381128311157e-01 2.548409104347229004e-01 -3.147281110286712646e-01
1.996723711490631104e-01 2.917447090148925781e-01 -2.371492683887481689e-01
7.937774062156677246e-02 2.204203307628631592e-01 1.179906204342842102e-01
2.531886696815490723e-01 2.126626372337341309e-01 -1.452513784170150757e-01
4.786908924579620361e-01 2.287595421075820923e-01 1.690295152366161346e-02
-1.442010700702667236e-01 3.030588626861572266e-01 2.264701202511787415e-02
2.948869466781616211e-01 2.814853787422180176e-01 -2.384631633758544922e-01
-1.417195796966552734e-01 2.494698464870452881e-01 -4.305978491902351379e-02
1.368290334939956665e-01 2.474545091390609741e-01 3.068009614944458008e-01
-1.336708366870880127e-01 3.014409542083740234e-01 1.152429953217506409e-01
2.536315321922302246e-01 3.060708045959472656e-01 1.455228030681610107e-01
1.383714675903320312e-01 3.116672635078430176e-01 1.705752313137054443e-01
-1.862826943397521973e-02 2.523220777511596680e-01 2.567024528980255127e-01
-5.064371228218078613e-02 3.041974008083343506e-01 2.011625319719314575e-01
3.374032676219940186e-01 2.143944501876831055e-01 9.622381627559661865e-02
3.117721676826477051e-01 2.120279967784881592e-01 7.529768347740173340e-02
4.269304126501083374e-02 2.611691057682037354e-01 -3.002707362174987793e-01
3.224759101867675781e-01 2.129282504320144653e-01 -1.252364963293075562e-01
-6.372749805450439453e-03 3.143489956855773926e-01 1.258951425552368164e-01
-1.369960010051727295e-01 2.564431130886077881e-01 1.294716000556945801e-01
1.790059506893157959e-01 3.111019432544708252e-01 1.522028446197509766e-01
7.016172260046005249e-02 2.955693304538726807e-01 -2.349295765161514282e-01
-5.343331396579742432e-02 3.128722012042999268e-01 -3.092963993549346924e-02
-1.928866505622863770e-01 2.810714840888977051e-01 2.366473153233528137e-02
6.590111553668975830e-02 2.568071484565734863e-01 -3.056760430335998535e-01
-6.254109740257263184e-02 2.499682307243347168e-01 2.081580758094787598e-01
2.618003487586975098e-01 2.090602368116378784e-01 -6.628874689340591431e-02
3.381717205047607422e-01 2.364217787981033325e-01 -2.595867216587066650e-01
4.732574224472045898e-01 2.681642174720764160e-01 9.285873919725418091e-02
4.470750987529754639e-01 2.668372988700866699e-01 1.658735275268554688e-01
-1.064587235450744629e-01 3.051726520061492920e-01 1.303220838308334351e-01
3.683154284954071045e-01 2.191635370254516602e-01 -1.605061441659927368e-01
1.925384849309921265e-01 2.096861302852630615e-01 -5.314157530665397644e-02
3.437044024467468262e-01 2.984011769294738770e-01 8.887355774641036987e-02
3.147706985473632812e-01 3.028441965579986572e-01 6.298977881669998169e-02
2.299167513847351074e-01 2.333298474550247192e-01 -2.819214165210723877e-01
3.595501184463500977e-01 2.264377176761627197e-01 1.898501813411712646e-01
-2.812877297401428223e-03 3.147145509719848633e-01 -4.830827191472053528e-02
-1.123199164867401123e-01 3.060812056064605713e-01 1.067313924431800842e-01
-3.425937891006469727e-02 2.423111647367477417e-01 -2.115780711174011230e-01
4.848524928092956543e-03 2.233843505382537842e-01 3.599537163972854614e-02
-1.350286602973937988e-02 3.007752895355224609e-01 -1.861055791378021240e-01
3.507716059684753418e-01 2.950782179832458496e-01 1.330964565277099609e-01
1.957804262638092041e-01 2.130805253982543945e-01 -1.419024318456649780e-01
3.053741157054901123e-02 3.121092915534973145e-01 1.748654246330261230e-01
1.431274116039276123e-01 3.141694664955139160e-01 1.264073252677917480e-01
5.066754221916198730e-01 2.452447861433029175e-01 1.648356020450592041e-02
3.920392394065856934e-01 2.731729745864868164e-01 2.231733351945877075e-01
5.815847963094711304e-02 3.067272603511810303e-01 2.280705720186233521e-01
4.601702094078063965e-03 2.521132230758666992e-01 -2.732453346252441406e-01
-1.203829348087310791e-01 2.494894266128540039e-01 1.145962774753570557e-01
9.868507087230682373e-02 3.119456768035888672e-01 -1.072186380624771118e-01
1.162757128477096558e-01 2.477024048566818237e-01 3.035500943660736084e-01
3.441578894853591919e-02 3.155899643898010254e-01 1.239949166774749756e-01
4.284775555133819580e-01 2.831580936908721924e-01 -3.480214625597000122e-02
3.834314346313476562e-01 2.827947139739990234e-01 -1.459348201751708984e-01
1.534844338893890381e-01 3.054163455963134766e-01 2.271852791309356689e-01
4.230856895446777344e-03 3.097727894783020020e-01 1.896919757127761841e-01
3.320518434047698975e-01 2.119632214307785034e-01 5.843469873070716858e-02
-2.863903343677520752e-02 2.399161756038665771e-01 1.876377761363983154e-01
1.343916356563568115e-01 2.191455364227294922e-01 -1.849712133407592773e-01
-4.710781574249267578e-02 2.346922010183334351e-01 -1.395236849784851074e-01
8.670457452535629272e-02 2.308934926986694336e-01 -2.445244193077087402e-01
1.857152432203292847e-01 3.129799365997314453e-01 -3.007411211729049683e-02
4.042791724205017090e-01 2.886523306369781494e-01 -2.399518713355064392e-02
-2.604915201663970947e-02 3.152093589305877686e-01 8.243419975042343140e-02
-1.226863861083984375e-01 2.468528747558593750e-01 7.927287369966506958e-02
4.947461783885955811e-01 2.621528804302215576e-01 -7.235701195895671844e-03
4.233133196830749512e-01 2.855792343616485596e-01 1.219599321484565735e-02
3.441851735115051270e-01 2.184533178806304932e-01 -1.727598756551742554e-01
2.475866675376892090e-02 2.208434194326400757e-01 2.191611379384994507e-02
4.393151998519897461e-01 2.230112105607986450e-01 -9.854289144277572632e-02
4.901788830757141113e-01 2.357832491397857666e-01 -6.674605607986450195e-02
2.636466920375823975e-02 3.064175546169281006e-01 2.241960465908050537e-01
4.055852293968200684e-01 2.799687981605529785e-01 1.734933257102966309e-01
-1.576876044273376465e-01 2.860979139804840088e-01 -1.141084581613540649e-01
4.708851277828216553e-01 2.331535816192626953e-01 -1.101217493414878845e-01
-7.670120894908905029e-02 2.589948475360870361e-01 2.283358126878738403e-01
3.540851473808288574e-01 2.141986638307571411e-01 7.860879600048065186e-02
1.187519878149032593e-01 2.307556420564651489e-01 -2.576088309288024902e-01
3.008252382278442383e-01 2.386272847652435303e-01 -2.801991403102874756e-01
-8.246719837188720703e-02 2.363681495189666748e-01 4.390317201614379883e-02
2.459436804056167603e-01 2.243683934211730957e-01 -2.433025836944580078e-01
-1.179470121860504150e-01 2.598549723625183105e-01 1.807842999696731567e-01
9.336859732866287231e-02 2.180462181568145752e-01 9.828639775514602661e-02
-9.509697556495666504e-03 2.249825596809387207e-01 -6.673099100589752197e-02
-5.314229428768157959e-02 2.304827719926834106e-01 -3.389128297567367554e-02
4.670059978961944580e-01 2.274122238159179688e-01 5.324232205748558044e-02
3.275156319141387939e-01 2.727153003215789795e-01 -2.491559088230133057e-01
4.017924070358276367e-01 2.423767447471618652e-01 -2.266154289245605469e-01
4.319173991680145264e-01 2.189540416002273560e-01 -4.187122732400894165e-02
3.346906602382659912e-01 2.107405960559844971e-01 1.969651132822036743e-02
-1.380707919597625732e-01 2.891182005405426025e-01 1.755531877279281616e-01
1.252325475215911865e-01 3.065403997898101807e-01 -1.594987213611602783e-01
3.076773881912231445e-01 3.005931079387664795e-01 1.404164135456085205e-01
6.189937889575958252e-02 2.628231644630432129e-01 3.189643621444702148e-01
2.543025314807891846e-01 3.019967675209045410e-01 -1.300034672021865845e-01
1.724730432033538818e-02 2.412158250808715820e-01 -2.502940595149993896e-01
2.857441902160644531e-01 2.284660339355468750e-01 2.318307757377624512e-01
2.298400551080703735e-01 2.120985984802246094e-01 9.165675193071365356e-02
2.488350868225097656e-01 2.098782360553741455e-01 4.745623096823692322e-02
4.754509031772613525e-01 2.629077136516571045e-01 1.182151511311531067e-01
3.979161977767944336e-01 2.605555653572082520e-01 2.408715039491653442e-01
-1.253317892551422119e-01 3.058888912200927734e-01 -8.494435809552669525e-03
1.730425059795379639e-01 2.132217288017272949e-01 -1.328550130128860474e-01
3.837474882602691650e-01 2.886545956134796143e-01 -8.999335765838623047e-02
2.735448181629180908e-01 3.037922978401184082e-01 -8.348130434751510620e-02
4.544683694839477539e-01 2.718438208103179932e-01 -9.127683937549591064e-02
-3.139843046665191650e-02 3.125077486038208008e-01 -6.534661352634429932e-02
2.945343255996704102e-01 2.861909866333007812e-01 -2.163538336753845215e-01
2.415708303451538086e-01 2.894559502601623535e-01 -2.311932295560836792e-01
-5.028775334358215332e-02 2.374184876680374146e-01 1.390846818685531616e-01
-1.082785725593566895e-01 2.860721647739410400e-01 -1.829979866743087769e-01
4.019577503204345703e-01 2.272070944309234619e-01 1.613127738237380981e-01
2.465901970863342285e-01 3.071335554122924805e-01 -6.796605139970779419e-02
1.639218032360076904e-01 3.081033825874328613e-01 1.991987973451614380e-01
1.606996804475784302e-01 2.304786145687103271e-01 2.437975704669952393e-01
3.906065225601196289e-01 2.920493483543395996e-01 2.315946295857429504e-02
-8.422432839870452881e-02 2.403435707092285156e-01 -1.230577677488327026e-01
2.089055031538009644e-01 2.997271418571472168e-01 2.439496964216232300e-01
-1.624115705490112305e-01 2.556014358997344971e-01 1.266291178762912750e-02
2.368489503860473633e-01 2.172356247901916504e-01 -1.952685415744781494e-01
3.365076184272766113e-01 2.457641959190368652e-01 2.731718420982360840e-01
4.254291057586669922e-01 2.768311798572540283e-01 1.573525667190551758e-01
3.518699705600738525e-01 2.979163825511932373e-01 6.362286955118179321e-02
3.357861042022705078e-01 2.823331356048583984e-01 2.462585121393203735e-01
-1.303067803382873535e-02 3.162837922573089600e-01 5.659199133515357971e-02
-9.162878990173339844e-02 2.563624680042266846e-01 -2.016043663024902344e-01
1.179060712456703186e-01 3.169356286525726318e-01 4.261558875441551208e-02
-5.507646501064300537e-02 2.329303175210952759e-01 7.111627608537673950e-02
2.567704617977142334e-01 3.070141971111297607e-01 1.234037950634956360e-01
1.374226361513137817e-01 2.953315079212188721e-01 2.876304686069488525e-01
1.492138504981994629e-01 3.158704936504364014e-01 4.790905863046646118e-02
2.887209653854370117e-01 2.093485295772552490e-01 -6.589115411043167114e-02
-1.353815197944641113e-02 2.802553176879882812e-01 2.943376600742340088e-01
1.990972757339477539e-01 2.242196053266525269e-01 2.117266952991485596e-01
2.006400823593139648e-01 3.075802028179168701e-01 -1.121273636817932129e-01
2.230883240699768066e-01 2.106356322765350342e-01 -1.075534448027610779e-01
8.698112517595291138e-02 2.157436162233352661e-01 3.729614987969398499e-02
3.169895708560943604e-02 2.227629125118255615e-01 -1.247318387031555176e-01
-1.216519176959991455e-01 3.033934533596038818e-01 -6.411266326904296875e-02
2.265843749046325684e-01 2.210142314434051514e-01 -2.240410447120666504e-01
4.035786092281341553e-01 2.194014489650726318e-01 -1.228619068861007690e-01
-1.759596765041351318e-01 2.939202785491943359e-01 1.046070642769336700e-02
-6.549657881259918213e-02 3.042999505996704102e-01 1.883309036493301392e-01
3.135085105895996094e-01 2.882979810237884521e-01 2.383190542459487915e-01
4.185175895690917969e-01 2.838301360607147217e-01 1.090914681553840637e-01
1.649978905916213989e-01 3.009557723999023438e-01 2.540099024772644043e-01
-3.462471067905426025e-02 2.276372760534286499e-01 -9.458490647375583649e-03
3.305876255035400391e-01 2.615610361099243164e-01 2.897881865501403809e-01
-8.380696177482604980e-03 2.554175853729248047e-01 2.730595469474792480e-01
1.011949777603149414e-02 3.037334084510803223e-01 -1.758244931697845459e-01
2.189919352531433105e-01 2.140073776245117188e-01 -1.606911122798919678e-01
2.118981480598449707e-01 3.083672523498535156e-01 -9.101197123527526855e-02
2.784923315048217773e-01 2.909829318523406982e-01 2.520160675048828125e-01
1.595520973205566406e-02 2.256266474723815918e-01 -1.402578949928283691e-01
8.543044328689575195e-02 2.170879542827606201e-01 -1.116598844528198242e-01
2.826460599899291992e-01 2.232532799243927002e-01 2.015158683061599731e-01
1.310452818870544434e-02 2.348859757184982300e-01 1.943810582160949707e-01
1.349246501922607422e-02 2.230148315429687500e-01 5.363025516271591187e-02
1.340745985507965088e-01 2.130838483572006226e-01 4.710689187049865723e-02
-6.225852668285369873e-02 2.463451474905014038e-01 -1.997256577014923096e-01
-4.443489015102386475e-02 3.053936958312988281e-01 -1.364053189754486084e-01
2.630716562271118164e-01 2.174722850322723389e-01 -1.954747140407562256e-01
-1.527990698814392090e-01 2.713868021965026855e-01 1.577274352312088013e-01
2.208061814308166504e-01 2.929736673831939697e-01 -2.220598608255386353e-01
5.049492120742797852e-01 2.450978010892868042e-01 3.615164011716842651e-02
3.130706548690795898e-01 2.267039865255355835e-01 2.139928489923477173e-01
2.660631239414215088e-01 2.230410277843475342e-01 -2.333825677633285522e-01
-6.971310079097747803e-02 2.331631928682327271e-01 4.128358326852321625e-03
2.141633331775665283e-01 3.103657960891723633e-01 -5.204484239220619202e-02
7.564373314380645752e-02 3.176738023757934570e-01 3.904370218515396118e-02
3.035089969635009766e-01 2.091832756996154785e-01 -2.961337193846702576e-02
2.527587711811065674e-01 2.086664587259292603e-01 -4.255929589271545410e-02
1.186134964227676392e-01 2.128305435180664062e-01 -4.120390862226486206e-03
2.011627256870269775e-01 2.810882329940795898e-01 -2.800938487052917480e-01
-2.972215414047241211e-03 2.259280383586883545e-01 -1.092345863580703735e-01
3.896190822124481201e-01 2.743487656116485596e-01 -1.875025480985641479e-01
9.093600511550903320e-02 3.157370090484619141e-01 -4.468793049454689026e-02
-1.563581526279449463e-01 2.954254150390625000e-01 1.121188774704933167e-01
3.620831370353698730e-01 2.924083769321441650e-01 -8.840719610452651978e-02
1.614523977041244507e-01 2.191616445779800415e-01 -1.977757066488265991e-01
3.115737438201904297e-02 3.156419992446899414e-01 -4.652007296681404114e-02
4.224879443645477295e-01 2.186142504215240479e-01 4.082561284303665161e-02
-1.473423838615417480e-01 3.020281791687011719e-01 5.461369454860687256e-02
4.363940358161926270e-01 2.592372298240661621e-01 -1.814135015010833740e-01
-5.824925005435943604e-02 2.318651974201202393e-01 3.300551325082778931e-02
-1.733843088150024414e-01 2.650234103202819824e-01 -7.142320275306701660e-02
2.594289779663085938e-01 2.181506901979446411e-01 1.651914417743682861e-01
-1.380879878997802734e-01 2.477702647447586060e-01 4.080615006387233734e-03
1.844687908887863159e-01 2.097352892160415649e-01 -1.607251912355422974e-02
-1.498543620109558105e-01 2.930992841720581055e-01 -9.732890874147415161e-02
4.183886945247650146e-02 3.164065778255462646e-01 -3.086877241730690002e-02
-7.760217785835266113e-02 3.050230741500854492e-01 -1.112452074885368347e-01
4.528283178806304932e-01 2.297304123640060425e-01 1.106269434094429016e-01
2.650091946125030518e-01 3.038804531097412109e-01 1.613571941852569580e-01
1.563291251659393311e-02 3.165923058986663818e-01 -1.185913477092981339e-02
8.387735486030578613e-02 2.748164236545562744e-01 -3.008801341056823730e-01
1.500747650861740112e-01 2.141298800706863403e-01 -1.318229734897613525e-01
5.557090789079666138e-02 3.176911473274230957e-01 2.585021406412124634e-02
5.023419857025146484e-01 2.508335709571838379e-01 5.778526887297630310e-02
1.729621589183807373e-01 2.367065995931625366e-01 -2.917540669441223145e-01
2.684142589569091797e-01 2.801168859004974365e-01 -2.586614787578582764e-01
-9.655123949050903320e-02 3.070177137851715088e-01 -6.394621729850769043e-02
