-3.467251360416412354e-01 3.305960446596145630e-02 -1.188820719718933105e+00
-4.751429259777069092e-01 2.424792200326919556e-02 -6.470662355422973633e-01
1.321163773536682129e-01 6.608884781599044800e-03 -3.071904778480529785e-01
2.769694328308105469e-01 9.225797653198242188e-02 -3.963077068328857422e-01
4.664523601531982422e-01 6.484095007181167603e-02 -1.041308641433715820e-01
-1.160726323723793030e-01 1.391041651368141174e-02 -1.080709397792816162e-01
-2.349591255187988281e-01 9.380149841308593750e-02 -9.015400409698486328e-01
-2.022573202848434448e-01 1.056436076760292053e-02 -8.807528614997863770e-01
-7.385174185037612915e-02 9.874947369098663330e-02 -5.212352871894836426e-01
1.680649071931838989e-01 2.020094916224479675e-02 3.649538755416870117e-02
-3.976518809795379639e-01 2.721461281180381775e-02 -2.603873312473297119e-01
-2.634560689330101013e-02 3.710694611072540283e-03 -4.872392117977142334e-01
2.270648777484893799e-01 9.473216533660888672e-02 -6.949960589408874512e-01
3.289392888545989990e-01 7.119466364383697510e-02 2.426791191101074219e-02
-2.644085139036178589e-02 9.721258282661437988e-02 -3.923023939132690430e-01
1.249784305691719055e-01 9.834030270576477051e-02 -6.696743965148925781e-01
4.798126518726348877e-01 6.444086134433746338e-02 -7.619167566299438477e-01
-1.672499179840087891e-01 9.739098697900772095e-02 -7.860888242721557617e-01
-1.157336533069610596e-01 5.100689828395843506e-03 -4.186269938945770264e-01
2.605391144752502441e-01 2.141642011702060699e-02 1.997590065002441406e-03
2.252941578626632690e-01 9.154342114925384521e-03 -5.808148980140686035e-01
-1.162772066891193390e-03 9.122736006975173950e-02 -1.061034917831420898e+00
-2.748743891716003418e-01 1.031632348895072937e-02 -7.638584375381469727e-01
2.535722553730010986e-01 7.377979159355163574e-02 -1.102792978286743164e+00
3.177801147103309631e-03 6.032194942235946655e-03 -2.776599228382110596e-01
-7.041762024164199829e-02 7.699874043464660645e-02 1.549690961837768555e-02
-4.060665518045425415e-02 3.913376480340957642e-03 -4.517766833305358887e-01
2.164671719074249268e-01 2.581650018692016602e-02 -1.033669114112854004e+00
-3.081631958484649658e-01 8.468875288963317871e-02 -1.085409879684448242e+00
-5.550632998347282410e-02 9.018401801586151123e-02 -1.093870878219604492e+00
7.021392695605754852e-03 3.806475549936294556e-03 -4.600742459297180176e-01
-3.335923552513122559e-01 1.632930710911750793e-02 -9.080499410629272461e-01
-4.426143765449523926e-01 8.156375586986541748e-02 -8.454180359840393066e-01
-5.098869800567626953e-01 2.911629527807235718e-02 -7.072638273239135742e-01
-1.493630558252334595e-01 7.681477814912796021e-03 -8.055140972137451172e-01
-3.534437119960784912e-01 1.362071558833122253e-02 -5.489707589149475098e-01
-1.708904206752777100e-01 1.349824666976928711e-02 -9.844262599945068359e-01
-4.150774478912353516e-01 8.358147740364074707e-02 -5.927626490592956543e-01
3.914695680141448975e-01 3.259909152984619141e-02 1.655817031860351562e-04
-1.012197211384773254e-01 8.581772446632385254e-03 -2.311886847019195557e-01
2.938012480735778809e-01 2.360399998724460602e-02 -9.021782875061035156e-01
7.999325543642044067e-02 8.312694728374481201e-03 -1.930709481239318848e-01
-4.890614002943038940e-02 8.988332748413085938e-02 -1.767462491989135742e-01
5.080263018608093262e-01 7.054099440574645996e-02 -4.228727817535400391e-01
1.028034314513206482e-01 6.360862404108047485e-03 -6.742490530014038086e-01
-1.313513368368148804e-01 2.031525224447250366e-02 -1.124928712844848633e+00
-1.021714806556701660e-01 9.546408057212829590e-02 -9.519903063774108887e-01
3.708272874355316162e-01 4.173126816749572754e-02 -9.826147556304931641e-01
-3.407362997531890869e-01 1.569518074393272400e-02 -8.719851970672607422e-01
-2.195105999708175659e-01 9.432089328765869141e-02 -4.879168570041656494e-01
1.243260428309440613e-01 1.738983392715454102e-02 -9.882518649101257324e-01
-4.799756109714508057e-01 6.338615715503692627e-02 -1.106166362762451172e+00
-2.180223912000656128e-01 2.664894424378871918e-02 -1.192796826362609863e+00
5.071905255317687988e-01 6.809134781360626221e-02 -5.953627228736877441e-01
3.786993920803070068e-01 1.922637969255447388e-02 -2.467612028121948242e-01
1.297888159751892090e-01 6.066679954528808594e-03 -6.037092804908752441e-01
2.631190121173858643e-01 8.846417814493179321e-02 -8.727050423622131348e-01
2.738535702228546143e-01 2.838617190718650818e-02 -9.993281960487365723e-01
-2.616417109966278076e-01 9.447982907295227051e-02 -7.624475955963134766e-01
-2.330486476421356201e-01 8.549956232309341431e-02 -1.135529756546020508e+00
4.123538732528686523e-02 2.674699015915393829e-02 -1.173617243766784668e+00
4.014590680599212646e-01 2.333091385662555695e-02 -1.737028062343597412e-01
-2.775611281394958496e-01 6.161502748727798462e-02 -1.748383045196533203e-02
2.093088626861572266e-01 9.362757951021194458e-02 -8.017727732658386230e-01
1.924614310264587402e-01 9.625154733657836914e-02 -6.837455034255981445e-01
3.897183835506439209e-01 8.499480783939361572e-02 -3.827861547470092773e-01
5.311233997344970703e-01 5.280387029051780701e-02 -6.143285632133483887e-01
-1.659380793571472168e-01 8.816288411617279053e-02 -1.119489431381225586e+00
8.938007056713104248e-02 6.416093558073043823e-03 -2.779620885848999023e-01
-3.906970918178558350e-01 1.710930466651916504e-02 -7.874646782875061035e-01
-2.695527076721191406e-01 9.374180436134338379e-02 -8.147490024566650391e-01
-2.205859571695327759e-01 7.279586046934127808e-03 -4.924481213092803955e-01
-1.082546077668666840e-02 3.979980945587158203e-02 -1.297912597656250000e+00
3.150064945220947266e-01 1.316127553582191467e-02 -4.976648092269897461e-01
-9.116204828023910522e-02 4.095647484064102173e-03 -5.548710823059082031e-01
-3.231291174888610840e-01 2.269533462822437286e-02 -1.071131348609924316e+00
4.645759165287017822e-01 7.690847665071487427e-02 -3.631208539009094238e-01
-3.800584971904754639e-01 8.305784314870834351e-02 -4.450699687004089355e-01
-4.385592639446258545e-01 2.526128664612770081e-02 -9.406449794769287109e-01
-1.807177253067493439e-02 4.622501879930496216e-02 -1.327381610870361328e+00
-2.199630141258239746e-01 7.227614521980285645e-03 -6.636829376220703125e-01
1.354489773511886597e-01 6.688512861728668213e-03 -6.401936411857604980e-01
-3.859494030475616455e-01 1.890723034739494324e-02 -8.840225338935852051e-01
-3.431986570358276367e-01 1.265066489577293396e-02 -6.353476643562316895e-01
-3.433409333229064941e-01 3.022009879350662231e-02 -1.161148786544799805e+00
-4.204669594764709473e-01 8.438295125961303711e-02 -7.312486767768859863e-01
1.919981539249420166e-01 3.886494040489196777e-02 -1.177625179290771484e+00
-2.107567936182022095e-01 8.403779566287994385e-02 -1.171420812606811523e+00
-1.831865459680557251e-01 8.008368313312530518e-03 -3.483309745788574219e-01
-4.383881390094757080e-02 1.927357539534568787e-02 -1.103340148925781250e+00
-2.298927679657936096e-02 5.747068673372268677e-03 -2.979432642459869385e-01
1.578174233436584473e-01 3.517197817564010620e-02 -1.179993867874145508e+00
-1.199874579906463623e-01 9.886807203292846680e-02 -6.581310629844665527e-01
3.302082419395446777e-01 6.120290234684944153e-02 9.992390871047973633e-02
1.441062092781066895e-01 1.415047794580459595e-02 -9.024466276168823242e-01
-4.275667071342468262e-01 3.694815933704376221e-02 -1.138742446899414062e+00
4.475603103637695312e-01 6.963406503200531006e-02 -1.215164363384246826e-01
-3.306881189346313477e-01 2.107184939086437225e-02 -1.032338976860046387e+00
3.152425289154052734e-01 7.462520897388458252e-02 -2.915382385253906250e-03
-1.251282989978790283e-01 7.212483137845993042e-02 -1.308860778808593750e+00
-4.952691029757261276e-03 1.417698711156845093e-02 -9.997681379318237305e-01
2.652133107185363770e-01 1.688488572835922241e-02 -8.773863315582275391e-02
-1.642590314149856567e-01 6.246622651815414429e-03 -7.061405777931213379e-01
-3.529103696346282959e-01 1.358214393258094788e-02 -7.066765427589416504e-01
1.528879255056381226e-01 5.955297499895095825e-03 -4.392355978488922119e-01
-3.497651815414428711e-01 8.009223639965057373e-02 -1.119981288909912109e+00
3.908079862594604492e-01 6.587501615285873413e-02 1.001757383346557617e-02
-3.747139275074005127e-01 6.943997740745544434e-02 -1.214309453964233398e+00
1.966060250997543335e-01 2.737057022750377655e-02 1.081755161285400391e-01
-2.347409427165985107e-01 9.296614676713943481e-02 -9.400398731231689453e-01
-2.208545506000518799e-01 1.170089840888977051e-02 -2.687244117259979248e-01
-2.943241968750953674e-03 9.811556339263916016e-02 -8.394508361816406250e-01
-4.670354127883911133e-01 4.283208772540092468e-02 -2.757024466991424561e-01
2.005605250597000122e-01 1.078010722994804382e-02 -7.280539870262145996e-01
3.536665737628936768e-01 2.936662174761295319e-02 -8.914138078689575195e-01
-3.028232157230377197e-01 1.246125623583793640e-02 -8.162328004837036133e-01
-3.521918952465057373e-01 4.047693684697151184e-02 -1.243079662322998047e+00
2.756735980510711670e-01 8.626507967710494995e-02 -9.036378860473632812e-01
-3.758768439292907715e-01 8.274783194065093994e-02 -1.026580929756164551e+00
3.042007088661193848e-01 9.159721434116363525e-02 -4.622009694576263428e-01
1.210156157612800598e-01 9.336687624454498291e-02 -2.502946853637695312e-01
-4.704049229621887207e-01 2.700084820389747620e-02 -8.914441466331481934e-01
-3.568174242973327637e-01 8.761148154735565186e-02 -5.440868735313415527e-01
2.097040265798568726e-01 8.820316940546035767e-02 -9.600350856781005859e-01
2.966260015964508057e-01 1.470815390348434448e-02 -6.726531982421875000e-01
-3.000171110033988953e-02 1.521141454577445984e-02 -3.941643238067626953e-02
-5.007252693176269531e-01 7.466156035661697388e-02 -8.146868944168090820e-01
2.530403733253479004e-01 1.036694645881652832e-02 -5.726103782653808594e-01
1.988641768693923950e-01 9.630370885133743286e-02 -6.504353880882263184e-01
-1.901116520166397095e-01 6.700061261653900146e-03 -6.961379051208496094e-01
-4.938200116157531738e-02 2.378276921808719635e-02 -1.168357372283935547e+00
6.683390587568283081e-02 9.517516195774078369e-02 -9.236365556716918945e-01
3.502937257289886475e-01 2.123750746250152588e-02 -1.109059154987335205e-01
-5.420000553131103516e-01 6.362203508615493774e-02 -5.924714207649230957e-01
-1.147617027163505554e-01 9.887555241584777832e-02 -6.231935620307922363e-01
4.562928676605224609e-01 3.637273609638214111e-02 -7.716208696365356445e-02
2.485157921910285950e-02 9.769874811172485352e-02 -8.491708040237426758e-01
-3.729481101036071777e-01 8.553247153759002686e-02 -9.494633078575134277e-01
-5.254532694816589355e-01 3.214652836322784424e-02 -6.512930989265441895e-01
1.596954464912414551e-02 2.686553075909614563e-02 1.145259141921997070e-01
2.868957817554473877e-01 2.252817898988723755e-02 -4.031598567962646484e-03
4.464626312255859375e-02 9.248594939708709717e-02 -2.137263417243957520e-01
-7.650399208068847656e-02 5.249299108982086182e-03 -3.583212792873382568e-01
1.559099256992340088e-01 7.315989583730697632e-02 8.965176343917846680e-02
-3.422305583953857422e-01 8.282390981912612915e-02 -3.518475890159606934e-01
-3.448460996150970459e-01 8.193530142307281494e-02 -1.093957901000976562e+00
4.477093517780303955e-01 3.086331114172935486e-02 -1.314736008644104004e-01
1.981111243367195129e-02 7.963161915540695190e-03 -8.200111389160156250e-01
3.989182785153388977e-02 2.122076973319053650e-02 -1.104256629943847656e+00
-3.359916433691978455e-02 2.846159599721431732e-02 -1.217849493026733398e+00
1.574347168207168579e-01 7.024958729743957520e-03 -6.163669824600219727e-01
2.669467926025390625e-01 1.027988269925117493e-02 -4.676826596260070801e-01
-1.219759210944175720e-01 9.475163370370864868e-02 -9.700492024421691895e-01
2.321461141109466553e-01 8.283833414316177368e-02 -6.266599893569946289e-02
-3.373881876468658447e-01 1.271709799766540527e-02 -5.308833122253417969e-01
5.085851550102233887e-01 3.592395782470703125e-02 -5.292694568634033203e-01
-3.792884200811386108e-02 6.237406283617019653e-03 -7.683244347572326660e-01
3.445091843605041504e-01 8.904601633548736572e-02 -5.914764404296875000e-01
-4.695821180939674377e-02 3.786846995353698730e-03 -5.598729848861694336e-01
-1.396633684635162354e-01 6.581012159585952759e-03 -7.564524412155151367e-01
-1.566234827041625977e-01 1.915475353598594666e-02 -5.086553096771240234e-02
1.010799035429954529e-01 6.414885818958282471e-02 -1.279468059539794922e+00
4.098874926567077637e-01 2.135744690895080566e-02 -2.835855484008789062e-01
4.010470509529113770e-01 8.362972736358642578e-02 -3.571445643901824951e-01
-5.433642864227294922e-01 6.669525802135467529e-02 -7.251869440078735352e-01
1.789299398660659790e-01 3.383219242095947266e-02 -1.152565360069274902e+00
-2.145740687847137451e-01 6.844498217105865479e-03 -5.286117196083068848e-01
-2.196357697248458862e-01 8.765508234500885010e-02 -2.684701979160308838e-01
1.299279779195785522e-01 5.441293120384216309e-03 -4.259220957756042480e-01
-6.694597005844116211e-02 9.866823256015777588e-02 -8.031183481216430664e-01
2.067440748214721680e-02 7.512763142585754395e-02 -1.262148141860961914e+00
3.157532215118408203e-01 1.498856022953987122e-02 -6.271851062774658203e-01
3.036545813083648682e-01 1.389027386903762817e-02 -2.525242865085601807e-01
1.250316500663757324e-01 8.392199128866195679e-02 -4.096978902816772461e-02
3.871972560882568359e-01 8.600162714719772339e-02 -4.755289256572723389e-01
1.154905185103416443e-01 8.217395097017288208e-02 -1.144728660583496094e+00
-1.106233149766921997e-01 8.500944077968597412e-02 -1.182217121124267578e+00
-1.315284669399261475e-01 2.346380800008773804e-02 1.996570825576782227e-02
3.523904830217361450e-03 1.038173586130142212e-02 -1.304702758789062500e-01
-2.456768304109573364e-01 1.159097626805305481e-02 -3.126945495605468750e-01
-5.511514544486999512e-01 6.429838389158248901e-02 -8.045326471328735352e-01
2.876096367835998535e-01 2.096849121153354645e-02 -3.015887737274169922e-02
3.271645605564117432e-01 1.562269032001495361e-02 -2.376039624214172363e-01
3.120363652706146240e-01 5.826231837272644043e-02 -1.103444814682006836e+00
3.236896097660064697e-01 8.577381819486618042e-02 -8.199923634529113770e-01
1.336963176727294922e-01 7.285263389348983765e-03 -2.690556943416595459e-01
6.093107908964157104e-02 7.881522923707962036e-02 -1.213276505470275879e+00
-6.286583840847015381e-02 2.935255132615566254e-02 1.080848574638366699e-01
-1.295471042394638062e-01 1.082630082964897156e-02 -9.268673062324523926e-01
-1.680516302585601807e-01 9.480735659599304199e-02 -4.196998476982116699e-01
2.729266881942749023e-01 9.214793145656585693e-02 -7.127841711044311523e-01
2.562075257301330566e-01 8.981393277645111084e-02 -2.462558150291442871e-01
-6.228801235556602478e-02 5.790453404188156128e-03 -7.462751865386962891e-01
-2.762671411037445068e-01 1.613968238234519958e-02 -9.788048267364501953e-01
-4.298867285251617432e-01 6.741455197334289551e-02 -2.814088165760040283e-01
-4.823994636535644531e-01 3.261312842369079590e-02 -4.006689190864562988e-01
4.732699990272521973e-01 7.652088999748229980e-02 -4.429563879966735840e-01
3.188562020659446716e-02 9.948550164699554443e-02 -5.429964661598205566e-01
-3.004713058471679688e-01 7.155041396617889404e-02 -1.179805696010589600e-01
-4.869933128356933594e-01 7.033201307058334351e-02 -4.702587723731994629e-01
3.415358066558837891e-01 7.856607437133789062e-02 -9.254940152168273926e-01
5.112352967262268066e-02 4.029877483844757080e-03 -5.055771470069885254e-01
-1.892229318618774414e-01 2.703151106834411621e-02 -1.205394268035888672e+00
-4.060322046279907227e-01 8.417582511901855469e-02 -8.949832916259765625e-01
3.153512254357337952e-02 9.861961007118225098e-02 -4.595746695995330811e-01
-3.213600814342498779e-01 7.973745465278625488e-02 -2.545941770076751709e-01
1.097409054636955261e-03 6.383517384529113770e-02 -1.325534105300903320e+00
2.027857452630996704e-01 3.611846268177032471e-02 -1.149648666381835938e+00
-4.569658637046813965e-01 2.830513194203376770e-02 -3.918438553810119629e-01
-1.182645484805107117e-01 9.833030402660369873e-02 -5.534000396728515625e-01
4.188091754913330078e-01 7.062572240829467773e-02 -8.662217855453491211e-01
3.707988560199737549e-01 3.559589385986328125e-02 -9.342684745788574219e-01
-4.282212257385253906e-01 7.188905775547027588e-02 -3.327546119689941406e-01
-1.285512000322341919e-01 7.816974073648452759e-03 -8.233423829078674316e-01
-2.033933103084564209e-01 7.761064916849136353e-03 -4.006641507148742676e-01
1.242271736264228821e-01 2.779629640281200409e-02 -1.137206077575683594e+00
3.229176700115203857e-01 1.365260034799575806e-02 -3.588488996028900146e-01
-3.094823285937309265e-02 9.898039698600769043e-02 -5.018447041511535645e-01
-2.314218282699584961e-01 3.246835246682167053e-02 -1.248599052429199219e+00
-3.285638093948364258e-01 8.494183421134948730e-02 -3.760704398155212402e-01
-2.489040344953536987e-01 7.021804153919219971e-02 -4.793751239776611328e-02
-5.036610960960388184e-01 3.991219401359558105e-02 -1.027453660964965820e+00
2.914149314165115356e-02 9.481347352266311646e-02 -2.843060791492462158e-01
-3.173198401927947998e-01 3.312882408499717712e-02 -1.211795926094055176e+00
-1.724571734666824341e-01 6.597001105546951294e-03 -4.095746576786041260e-01
-3.734356164932250977e-01 2.983075566589832306e-02 -1.126766562461853027e+00
2.327155917882919312e-01 6.314454972743988037e-02 1.439406275749206543e-01
3.951053917407989502e-01 2.029593288898468018e-02 -5.628750324249267578e-01
4.340555965900421143e-01 7.781997323036193848e-02 -2.528247237205505371e-01
4.291009902954101562e-01 7.973051071166992188e-02 -6.644194126129150391e-01
1.801867336034774780e-01 2.237804420292377472e-02 -1.022140622138977051e+00
-1.436220556497573853e-01 1.770145073533058167e-02 -1.079748153686523438e+00
4.909040778875350952e-02 9.095361828804016113e-02 -1.747523844242095947e-01
4.279103279113769531e-01 2.436474338173866272e-02 -5.872884988784790039e-01
-1.634473167359828949e-02 6.576956808567047119e-02 1.319583654403686523e-01
2.450139671564102173e-01 2.572821453213691711e-02 -1.000475168228149414e+00
9.486175328493118286e-02 2.179176732897758484e-02 -1.081738710403442383e+00
-5.168022960424423218e-02 9.233925491571426392e-02 -2.372722029685974121e-01
4.311659932136535645e-01 6.380719691514968872e-02 -2.890950441360473633e-02
1.893478929996490479e-01 3.351331129670143127e-02 1.558209061622619629e-01
2.610246241092681885e-01 2.732473984360694885e-02 7.599711418151855469e-02
5.782866477966308594e-02 9.113711863756179810e-02 -1.036658287048339844e+00
4.131475463509559631e-03 1.179058849811553955e-02 -9.671372175216674805e-02
-5.003930330276489258e-01 7.417759299278259277e-02 -8.520865440368652344e-01
-5.107386112213134766e-01 6.595035642385482788e-02 -1.005625009536743164e+00
2.180883586406707764e-01 8.954578638076782227e-02 -1.979328691959381104e-01
1.068498715758323669e-01 7.168547809123992920e-02 1.076008677482604980e-01
3.023849725723266602e-01 8.084234595298767090e-02 -9.587506055831909180e-01
2.829432860016822815e-02 4.744928330183029175e-03 -3.547459244728088379e-01
-4.474085271358489990e-01 2.167646586894989014e-02 -7.659419775009155273e-01
-3.770565986633300781e-01 7.494906336069107056e-02 -2.734372913837432861e-01
1.391313821077346802e-01 8.149126172065734863e-02 -1.135473251342773438e+00
-5.403599739074707031e-01 6.746292859315872192e-02 -7.807109951972961426e-01
4.634024575352668762e-02 9.958987683057785034e-02 -5.764210820198059082e-01
-1.549347937107086182e-01 6.293093413114547729e-02 8.013153076171875000e-02
-3.583125770092010498e-01 1.791998371481895447e-02 -9.128712415695190430e-01
5.499144196510314941e-01 5.204846709966659546e-02 -4.450505971908569336e-01
-2.890606597065925598e-02 4.271946474909782410e-02 1.776357293128967285e-01
3.906935453414916992e-02 1.092969253659248352e-02 -1.124721169471740723e-01
-4.650600254535675049e-01 7.695157825946807861e-02 -9.396264553070068359e-01
-2.324993461370468140e-01 7.370207458734512329e-03 -6.071872115135192871e-01
-1.705448627471923828e-01 5.569409579038619995e-03 -5.208238363265991211e-01
-2.174121141433715820e-02 1.020850241184234619e-02 -1.415435969829559326e-01
4.050856232643127441e-01 2.032136917114257812e-02 -4.968869388103485107e-01
1.146950647234916687e-01 1.096584275364875793e-02 -1.232563257217407227e-01
1.193762496113777161e-01 9.247409552335739136e-02 -2.226903140544891357e-01
-3.125146627426147461e-01 9.211005270481109619e-02 -7.059530019760131836e-01
-4.249964058399200439e-01 2.877840213477611542e-02 -1.040376663208007812e+00
-1.713129729032516479e-01 9.177482873201370239e-02 -1.036064386367797852e+00
-4.416720271110534668e-01 2.715187147259712219e-02 -3.675724864006042480e-01
1.339315772056579590e-01 3.824797645211219788e-02 -1.218287825584411621e+00
-9.572561830282211304e-04 8.707815408706665039e-02 -1.027624905109405518e-01
-4.221377074718475342e-01 6.345649808645248413e-02 -2.309303581714630127e-01
-1.302468925714492798e-01 8.693334460258483887e-02 -1.150372624397277832e+00
1.581266820430755615e-01 9.422470629215240479e-02 -3.012113273143768311e-01
-3.480005264282226562e-01 1.311296597123146057e-02 -6.829950213432312012e-01
2.119498699903488159e-01 2.344168350100517273e-02 -1.005573391914367676e+00
-2.590225636959075928e-01 2.079513482749462128e-02 -1.296370923519134521e-01
-4.446302950382232666e-01 8.043967187404632568e-02 -8.972895741462707520e-01
1.608594655990600586e-01 8.964067697525024414e-02 -1.639688014984130859e-01
3.111273944377899170e-01 9.143234789371490479e-02 -5.561641454696655273e-01
-6.995746865868568420e-03 1.342252641916275024e-02 -6.517422199249267578e-02
-3.059581816196441650e-01 2.998439967632293701e-02 -1.187308788299560547e+00
-4.291788637638092041e-01 8.254656195640563965e-02 -6.140578985214233398e-01
3.851054310798645020e-01 4.188494384288787842e-02 -9.597768783569335938e-01
6.243641674518585205e-02 6.850913166999816895e-03 -2.450650930404663086e-01
3.872239589691162109e-01 2.551960386335849762e-02 -7.554408311843872070e-01
9.653328359127044678e-02 9.897390007972717285e-02 -5.559369325637817383e-01
-4.047392606735229492e-01 8.542252331972122192e-02 -6.602090001106262207e-01
2.443632930517196655e-01 1.415282860398292542e-02 -1.334955394268035889e-01
-4.583007991313934326e-01 3.479436039924621582e-02 -3.073856234550476074e-01
1.045215576887130737e-01 1.904810965061187744e-02 3.500360250473022461e-02
2.634786069393157959e-01 3.105218894779682159e-02 1.078523993492126465e-01
-1.921196281909942627e-01 8.247528225183486938e-02 -1.406196355819702148e-01
-3.156057894229888916e-01 9.150823205709457397e-02 -6.254764795303344727e-01
1.268786787986755371e-01 1.845365390181541443e-02 2.275300025939941406e-02
5.377411842346191406e-01 6.156374514102935791e-02 -4.926290512084960938e-01
-4.215717613697052002e-01 7.880601286888122559e-02 -4.466399550437927246e-01
-2.932379767298698425e-02 5.157701671123504639e-03 -7.077856063842773438e-01
4.629516601562500000e-02 4.110276699066162109e-03 -4.398405551910400391e-01
-7.283111661672592163e-02 4.616707563400268555e-03 -6.631011962890625000e-01
3.417549133300781250e-01 1.507520675659179688e-02 -3.369619250297546387e-01
-3.757362663745880127e-01 2.624107897281646729e-02 -2.307395637035369873e-01
8.061153441667556763e-02 7.416810840368270874e-02 8.431851863861083984e-02
2.168476209044456482e-02 8.460465073585510254e-02 -1.165005207061767578e+00
4.152320623397827148e-01 2.199074067175388336e-02 -5.422705411911010742e-01
3.052209690213203430e-02 1.539616659283638000e-02 -2.185493707656860352e-02
1.729840189218521118e-01 1.607001945376396179e-02 -9.159452915191650391e-01
2.775396108627319336e-01 9.053276479244232178e-02 -3.064939677715301514e-01
-3.453859984874725342e-01 8.378905057907104492e-02 -1.054852008819580078e+00
2.120240777730941772e-01 9.475612640380859375e-02 -7.386642694473266602e-01
3.987265825271606445e-01 6.017538905143737793e-02 -9.700232744216918945e-01
4.824194312095642090e-01 7.155296206474304199e-02 -2.593506574630737305e-01
-6.388845294713973999e-02 7.988651096820831299e-02 -1.601117849349975586e-02
-2.868866920471191406e-01 8.412310481071472168e-02 -1.118582487106323242e+00
1.297469586133956909e-01 9.791915118694305420e-02 -4.826338291168212891e-01
5.189988613128662109e-01 3.639172390103340149e-02 -4.110906124114990234e-01
1.696456074714660645e-01 6.964072585105895996e-03 -5.765564441680908203e-01
-2.671854794025421143e-01 1.340102031826972961e-02 -9.107474088668823242e-01
3.732099831104278564e-01 6.011723726987838745e-02 -1.013301372528076172e+00
-1.453449130058288574e-01 9.835007786750793457e-02 -6.550429463386535645e-01
4.650738835334777832e-01 7.603146135807037354e-02 -6.104534268379211426e-01
-9.727244824171066284e-02 9.769370406866073608e-02 -4.724233150482177734e-01
2.186949104070663452e-01 3.038811683654785156e-02 -1.084387540817260742e+00
-4.533665478229522705e-01 8.078117668628692627e-02 -8.137922883033752441e-01
-2.434922158718109131e-01 1.069352030754089355e-02 -8.413897752761840820e-01
2.602806091308593750e-01 8.498391509056091309e-02 -9.539983868598937988e-01
3.131714761257171631e-01 1.643311977386474609e-02 -6.941912770271301270e-01
-3.609269857406616211e-01 2.163519710302352905e-02 -1.005252480506896973e+00
-1.455649137496948242e-01 3.259807825088500977e-02 -1.266250729560852051e+00
-2.239550650119781494e-01 9.723715484142303467e-03 -8.250676393508911133e-01
-4.243497177958488464e-02 2.162345871329307556e-02 -1.138120651245117188e+00
-1.489893794059753418e-01 9.372975677251815796e-03 -2.497832775115966797e-01
-1.517828926444053650e-02 1.054590567946434021e-02 -9.156159162521362305e-01
-6.926771998405456543e-02 4.140987992286682129e-03 -6.111950278282165527e-01
4.382146298885345459e-01 4.984227567911148071e-02 -8.950961828231811523e-01
-1.094006672501564026e-01 1.685420051217079163e-02 -1.067764043807983398e+00
-1.663378924131393433e-01 9.198607504367828369e-02 -3.182535767555236816e-01
-5.486201047897338867e-01 6.541112065315246582e-02 -7.499521970748901367e-01
4.219994880259037018e-03 9.655965864658355713e-02 -9.085588455200195312e-01
-2.092457413673400879e-01 6.590783596038818359e-03 -5.528611540794372559e-01
-4.053819477558135986e-01 8.238562196493148804e-02 -5.006906986236572266e-01
-2.992227971553802490e-01 9.070333838462829590e-02 -9.207103252410888672e-01
3.458587825298309326e-01 1.511637866497039795e-02 -3.695240616798400879e-01
4.307629168033599854e-01 2.882760018110275269e-02 -7.045917510986328125e-01
-1.274426430463790894e-01 9.755934029817581177e-02 -8.370736837387084961e-01
-2.543839216232299805e-01 7.981143146753311157e-02 -1.206711530685424805e+00
-5.142343640327453613e-01 3.362926840782165527e-02 -5.093433260917663574e-01
-2.350202798843383789e-01 2.421283721923828125e-02 -1.154925823211669922e+00
-3.429962694644927979e-02 8.164905756711959839e-02 -2.700936794281005859e-02
3.475860692560672760e-03 9.893631935119628906e-02 -7.839674949645996094e-01
-3.245079517364501953e-01 6.471989303827285767e-02 -9.029185771942138672e-02
-2.725984156131744385e-01 9.170662611722946167e-03 -5.282937884330749512e-01
2.487414330244064331e-01 9.396791458129882812e-03 -4.203696846961975098e-01
-2.555619776248931885e-01 3.966504707932472229e-02 -1.292747259140014648e+00
-1.360538452863693237e-01 3.508818149566650391e-02 1.028605103492736816e-01
-8.913479745388031006e-02 1.888649538159370422e-02 -1.102949619293212891e+00
1.243359819054603577e-01 5.682438611984252930e-03 -5.792478919029235840e-01
1.584158092737197876e-02 2.312604524195194244e-02 7.958316802978515625e-02
-1.083485409617424011e-01 4.787769168615341187e-03 -6.506434679031372070e-01
-3.019801676273345947e-01 8.626365661621093750e-02 -3.590200543403625488e-01
-3.492030203342437744e-01 6.082019209861755371e-02 -9.888899326324462891e-02
-1.530539542436599731e-01 2.767439186573028564e-02 4.464221000671386719e-02
-6.350795179605484009e-02 3.834046423435211182e-03 -5.403608679771423340e-01
1.929183751344680786e-01 1.281752064824104309e-02 -8.095209598541259766e-01
-3.746647238731384277e-01 8.099146932363510132e-02 -1.067926049232482910e+00
3.574288785457611084e-01 8.739170432090759277e-02 -6.481480002403259277e-01
-4.373969137668609619e-01 2.004214376211166382e-02 -6.849430799484252930e-01
-1.082374379038810730e-01 1.244835183024406433e-02 -1.330463588237762451e-01
1.444535702466964722e-01 2.121625468134880066e-02 -1.036538600921630859e+00
-1.389794200658798218e-01 7.813883572816848755e-02 -1.260926961898803711e+00
-1.241575330495834351e-01 9.231850504875183105e-02 -2.860421240329742432e-01
-1.499555706977844238e-01 9.725819528102874756e-02 -5.248777866363525391e-01
-2.883990108966827393e-01 9.239769726991653442e-02 -5.699447989463806152e-01
-4.056769609451293945e-02 9.395016729831695557e-02 -2.774736881256103516e-01
-2.443132251501083374e-01 2.113510295748710632e-02 -1.103741407394409180e+00
-2.822064459323883057e-01 5.839423462748527527e-02 -1.324155092239379883e+00
-1.582128852605819702e-01 8.568696677684783936e-03 -8.379292488098144531e-01
-1.208558753132820129e-01 8.714175224304199219e-02 -1.631821393966674805e-01
2.429789155721664429e-01 8.847535401582717896e-02 -9.063973426818847656e-01
-5.200602486729621887e-02 9.966613352298736572e-02 -6.867996454238891602e-01
4.512179195880889893e-01 2.973282523453235626e-02 -1.638437211513519287e-01
8.751792460680007935e-02 2.846106328070163727e-02 1.352339982986450195e-01
-3.235996663570404053e-01 1.567086949944496155e-02 -3.401337862014770508e-01
-1.654028333723545074e-02 9.984128177165985107e-02 -6.135848164558410645e-01
-1.528046429157257080e-01 9.463390707969665527e-02 -3.921297788619995117e-01
-3.336631953716278076e-01 2.553285844624042511e-02 -1.107456803321838379e+00
1.072348933666944504e-02 4.830583930015563965e-03 -6.701337099075317383e-01
-2.608911097049713135e-01 8.368470519781112671e-02 -2.382233142852783203e-01
1.120919883251190186e-01 9.677566587924957275e-02 -8.156017065048217773e-01
-1.102414578199386597e-01 4.367850720882415771e-03 -5.741054415702819824e-01
2.855308949947357178e-01 8.815963566303253174e-02 -2.341194152832031250e-01
-2.899571321904659271e-03 9.389437735080718994e-02 -9.972908496856689453e-01
2.143466770648956299e-01 9.966894984245300293e-03 -6.637442111968994141e-01
-3.200367391109466553e-01 9.020311385393142700e-02 -5.473169684410095215e-01
-1.789811849594116211e-01 1.063480228185653687e-02 -8.998430967330932617e-01
-3.751687407493591309e-01 2.503506839275360107e-02 -1.052340507507324219e+00
2.311771735548973083e-03 9.928636997938156128e-02 -5.159808993339538574e-01
-4.476313889026641846e-01 8.117990195751190186e-02 -6.561241745948791504e-01
1.586912125349044800e-01 8.358635008335113525e-02 -4.282760620117187500e-02
-4.325907677412033081e-02 9.962229430675506592e-02 -5.887189507484436035e-01
1.048185378313064575e-01 4.234971106052398682e-02 -1.258871078491210938e+00
-5.377418398857116699e-01 5.250653252005577087e-02 -1.000546336174011230e+00
-2.100963741540908813e-01 8.466406166553497314e-02 -1.960721611976623535e-01
1.404780298471450806e-01 8.008430898189544678e-02 1.328265666961669922e-02
2.140283584594726562e-01 8.021585643291473389e-03 -4.034321904182434082e-01
1.603847146034240723e-01 9.075140953063964844e-02 -1.919637918472290039e-01
-3.131098747253417969e-01 8.800317347049713135e-02 -9.949320554733276367e-01
-2.475925385951995850e-01 8.739992976188659668e-03 -7.244709134101867676e-01
-1.382847428321838379e-01 1.001054048538208008e-02 -8.993222713470458984e-01
-4.681678414344787598e-01 2.356394566595554352e-02 -6.182266473770141602e-01
5.526380985975265503e-02 7.338596135377883911e-02 8.955061435699462891e-02
-1.530724018812179565e-02 2.640052698552608490e-02 -1.191048741340637207e+00
1.640081107616424561e-01 1.623566448688507080e-02 -2.578586339950561523e-02
-1.214873641729354858e-01 8.978381007909774780e-02 -1.099420309066772461e+00
-2.978513538837432861e-01 9.289018809795379639e-02 -7.317177653312683105e-01
2.266419678926467896e-01 4.417849332094192505e-02 -1.173997998237609863e+00
2.015786468982696533e-01 4.559044167399406433e-02 1.923989057540893555e-01
-4.461385309696197510e-01 3.759257495403289795e-02 -2.570062875747680664e-01
-2.844943106174468994e-01 8.553633093833923340e-02 -1.093594312667846680e+00
-3.987901508808135986e-01 7.900086045265197754e-02 -3.905856013298034668e-01
-6.030872464179992676e-02 1.611068844795227051e-02 -3.665453195571899414e-02
-3.446818888187408447e-02 7.122502475976943970e-02 -1.304481506347656250e+00
1.244754269719123840e-01 9.558971971273422241e-03 -1.693609654903411865e-01
-1.235629543662071228e-01 7.217448949813842773e-02 3.497672080993652344e-02
-2.217205017805099487e-01 9.578059613704681396e-02 -6.013329625129699707e-01
-4.687646031379699707e-01 3.227871656417846680e-02 -1.010528087615966797e+00
-3.293736279010772705e-01 1.332221552729606628e-02 -4.493432641029357910e-01
-1.095346137881278992e-01 4.399601370096206665e-03 -4.993690252304077148e-01
-2.716877162456512451e-01 8.098350465297698975e-02 -2.045558393001556396e-01
-4.264234602451324463e-01 2.228651568293571472e-02 -8.878523111343383789e-01
6.026808172464370728e-02 5.831524729728698730e-03 -2.945908606052398682e-01
-3.789769113063812256e-01 8.771860599517822266e-02 -7.784340381622314453e-01
-6.078160926699638367e-02 9.555296599864959717e-02 -3.420888483524322510e-01
-5.547651052474975586e-01 6.113325431942939758e-02 -8.669447898864746094e-01
1.288184076547622681e-01 1.484198123216629028e-02 -9.326934814453125000e-01
-4.317668080329895020e-01 7.151657342910766602e-02 -1.120112776756286621e+00
-3.444413244724273682e-01 6.901801377534866333e-02 -1.516732275485992432e-01
-5.603854656219482422e-01 4.144418239593505859e-02 -7.749869227409362793e-01
-9.431543946266174316e-02 9.980622678995132446e-03 -1.840520799160003662e-01
2.310622781515121460e-01 1.666429638862609863e-02 -5.916488170623779297e-02
5.131034255027770996e-01 6.338237226009368896e-02 -6.443003416061401367e-01
-5.388513803482055664e-01 6.721217930316925049e-02 -6.790553927421569824e-01
1.808469444513320923e-01 9.256284683942794800e-03 -2.281677722930908203e-01
-3.442798256874084473e-01 8.780464529991149902e-02 -5.095417499542236328e-01
3.605931997299194336e-01 8.672635257244110107e-02 -3.518986105918884277e-01
3.292020559310913086e-01 1.426413655281066895e-02 -5.170624852180480957e-01
2.584333121776580811e-01 9.396116435527801514e-02 -4.783475399017333984e-01
1.931407302618026733e-01 9.137952327728271484e-02 -2.306246161460876465e-01
3.954043686389923096e-01 8.512310683727264404e-02 -4.405018687248229980e-01
-3.587849736213684082e-01 3.751097992062568665e-02 -1.217538118362426758e+00
-3.482559919357299805e-01 2.300927974283695221e-02 -1.049553036689758301e+00
-6.624635308980941772e-02 1.346162706613540649e-02 -9.977769851684570312e-01
-2.024569213390350342e-01 2.098527923226356506e-02 -1.120024681091308594e+00
-1.801242306828498840e-02 3.233244270086288452e-02 -1.249217510223388672e+00
-2.462363243103027344e-01 9.402538836002349854e-02 -5.385358929634094238e-01
2.277797311544418335e-01 1.234617456793785095e-02 -7.376671433448791504e-01
4.373498558998107910e-01 8.085381984710693359e-02 -4.171378910541534424e-01
-4.624882340431213379e-01 4.426004737615585327e-02 -1.141027927398681641e+00
-8.873944729566574097e-02 8.161689341068267822e-02 -5.187684297561645508e-02
-1.929851919412612915e-01 1.158680021762847900e-02 -9.210731387138366699e-01
-1.094420850276947021e-01 2.357868291437625885e-02 -1.171996831893920898e+00
6.344370543956756592e-02 6.404243409633636475e-02 1.590880155563354492e-01
8.275365084409713745e-02 3.688078746199607849e-02 1.833498477935791016e-01
4.529837146401405334e-02 1.312519609928131104e-02 -6.304198503494262695e-02
1.319571286439895630e-01 6.167266517877578735e-03 -3.398405313491821289e-01
4.361923635005950928e-01 8.125294744968414307e-02 -4.677060246467590332e-01
-8.874333649873733521e-02 8.314058184623718262e-02 -1.207560300827026367e+00
-1.135509684681892395e-01 5.214225500822067261e-03 -6.858314275741577148e-01
-1.465363204479217529e-01 2.357802353799343109e-02 -1.170150637626647949e+00
6.026676297187805176e-02 3.736330941319465637e-02 -1.255660533905029297e+00
-2.460225969552993774e-01 9.517241269350051880e-03 -4.013043940067291260e-01
1.423638612031936646e-01 9.711014479398727417e-02 -4.335810542106628418e-01
1.633163243532180786e-01 4.809059202671051025e-02 2.014772891998291016e-01
-2.125358879566192627e-01 9.639768302440643311e-02 -6.447647213935852051e-01
1.822209209203720093e-01 8.105953037738800049e-02 -1.094567775726318359e-02
2.376248687505722046e-01 8.985240012407302856e-03 -4.938145577907562256e-01
-7.302546501159667969e-02 9.034086763858795166e-02 -1.995341777801513672e-01
-3.204784914851188660e-02 9.659051895141601562e-02 -3.671799004077911377e-01
-1.558352559804916382e-01 5.153913050889968872e-03 -5.638322234153747559e-01
-3.972896188497543335e-02 9.925484657287597656e-02 -5.339929461479187012e-01
-4.800709336996078491e-02 6.237518787384033203e-02 1.394878029823303223e-01
-2.975678443908691406e-01 1.091822609305381775e-02 -4.791302680969238281e-01
1.560120284557342529e-01 8.699040114879608154e-02 -1.042286157608032227e+00
1.963383406400680542e-01 8.803822845220565796e-02 -1.446901857852935791e-01
3.640195429325103760e-01 6.941270083189010620e-02 8.126616477966308594e-03
-2.165862768888473511e-01 2.286767773330211639e-02 -5.567777156829833984e-02
3.000574111938476562e-01 8.801598846912384033e-02 -8.101640939712524414e-01
-2.424635142087936401e-01 8.126188069581985474e-02 -1.735596954822540283e-01
-4.070536792278289795e-01 7.547780871391296387e-02 -1.109482288360595703e+00
-3.446310162544250488e-01 1.962872222065925598e-02 -9.826127290725708008e-01
1.279604434967041016e-01 9.689357876777648926e-02 -4.022123813629150391e-01
2.890282571315765381e-01 8.397665619850158691e-02 -9.276289939880371094e-01
3.098986148834228516e-01 1.513265818357467651e-02 -2.123900353908538818e-01
-2.126045525074005127e-02 4.587851464748382568e-03 -6.654521226882934570e-01
-1.869903802871704102e-01 8.039882779121398926e-02 -1.048061847686767578e-01
2.682362794876098633e-01 4.358100146055221558e-02 -1.129032135009765625e+00
4.290220737457275391e-01 2.263733558356761932e-02 -3.360526859760284424e-01
2.489474862813949585e-01 9.461870044469833374e-02 -5.330389142036437988e-01
-2.103849947452545166e-01 9.613652527332305908e-02 -7.943285703659057617e-01
-3.176777958869934082e-01 1.173950731754302979e-02 -5.071918964385986328e-01
1.533312499523162842e-01 1.307852193713188171e-02 -8.674159646034240723e-02
9.735661000013351440e-02 9.770596027374267578e-02 -4.263760149478912354e-01
-3.676602244377136230e-01 1.963347196578979492e-02 -3.350495994091033936e-01
-4.934793114662170410e-01 7.213093340396881104e-02 -9.587299823760986328e-01
-9.446658939123153687e-02 9.203848242759704590e-02 -2.550688982009887695e-01
4.572668373584747314e-01 3.759505599737167358e-02 -7.688158154487609863e-01
4.537636041641235352e-01 4.040794074535369873e-02 -8.070747852325439453e-01
2.322292029857635498e-01 9.330677986145019531e-02 -3.507083058357238770e-01
1.871735602617263794e-02 8.836187422275543213e-03 -8.508906364440917969e-01
-2.813805639743804932e-01 2.589578367769718170e-02 -1.153255939483642578e+00
5.419479310512542725e-02 1.909523084759712219e-02 -1.064565420150756836e+00
-5.367853045463562012e-01 4.473470523953437805e-02 -9.734123945236206055e-01
-2.353371232748031616e-01 4.208179563283920288e-02 -1.312427997589111328e+00
-3.567720651626586914e-01 8.753480017185211182e-02 -9.130382537841796875e-01
1.778600811958312988e-01 9.719230979681015015e-02 -5.465998649597167969e-01
-3.368278145790100098e-01 9.055987000465393066e-02 -7.767971158027648926e-01
3.269960582256317139e-01 1.367943733930587769e-02 -4.258796572685241699e-01
4.458589479327201843e-02 8.225154131650924683e-03 -8.150180578231811523e-01
-3.290641605854034424e-01 7.574674487113952637e-02 -1.199778676033020020e+00
3.387696444988250732e-01 1.465161517262458801e-02 -4.813779592514038086e-01
5.302213877439498901e-02 7.056175172328948975e-02 -1.277859807014465332e+00
-3.693450689315795898e-01 8.574993163347244263e-02 -5.047560930252075195e-01
-1.845029592514038086e-01 3.306407481431961060e-02 5.873578786849975586e-02
2.962256222963333130e-02 8.959069103002548218e-02 -1.460573971271514893e-01
-5.531688686460256577e-03 5.439803004264831543e-03 -7.178828716278076172e-01
-6.123487278819084167e-02 9.942431002855300903e-02 -7.268762588500976562e-01
-4.007788300514221191e-01 1.833513379096984863e-02 -8.135590553283691406e-01
8.333168923854827881e-02 7.593270391225814819e-03 -7.589432001113891602e-01
-2.269143313169479370e-01 9.216001629829406738e-02 -9.801357388496398926e-01
3.967374861240386963e-01 8.494488149881362915e-02 -5.649290084838867188e-01
-6.173294410109519958e-02 6.721198558807373047e-02 -1.329433560371398926e+00
1.014452353119850159e-01 9.506560862064361572e-03 -8.136082291603088379e-01
-1.239905729889869690e-01 6.512118875980377197e-02 8.727055788040161133e-02
3.550464212894439697e-01 8.176766335964202881e-02 -1.709443330764770508e-01
3.431758582592010498e-01 8.890794962644577026e-02 -6.169211268424987793e-01
3.589762747287750244e-02 7.939129322767257690e-02 2.177524566650390625e-02
4.838564991950988770e-01 2.975092455744743347e-02 -4.533231854438781738e-01
-5.003594160079956055e-01 4.188830778002738953e-02 -3.648442029953002930e-01
3.889872729778289795e-01 8.275123685598373413e-02 -7.229986786842346191e-01
2.014261037111282349e-01 8.211836218833923340e-03 -3.256674706935882568e-01
-4.152626916766166687e-02 4.103571176528930664e-03 -6.196916103363037109e-01
2.527820467948913574e-01 4.759583994746208191e-02 -1.160536527633666992e+00
1.457850933074951172e-01 9.798290580511093140e-02 -5.379961133003234863e-01
-2.522063553333282471e-01 5.215851217508316040e-02 -1.336627602577209473e+00
-5.025088191032409668e-01 7.467009872198104858e-02 -7.297807931900024414e-01
4.383135735988616943e-01 2.705996483564376831e-02 -6.340861320495605469e-01
-2.079739421606063843e-01 7.597786188125610352e-02 -6.710618734359741211e-02
-2.087029218673706055e-01 7.226344197988510132e-03 -4.535389542579650879e-01
1.473240852355957031e-01 1.263789087533950806e-02 -8.608624935150146484e-01
4.136967658996582031e-01 3.269390016794204712e-02 -3.352344036102294922e-02
-2.569756805896759033e-01 1.146104186773300171e-02 -3.388266861438751221e-01
3.416855335235595703e-01 3.113461099565029144e-02 -9.346782565116882324e-01
3.393523395061492920e-03 4.625234752893447876e-03 -3.613194525241851807e-01
-1.958620697259902954e-01 9.610407799482345581e-02 -5.440944433212280273e-01
-1.913461536169052124e-01 7.892470806837081909e-02 -1.243271112442016602e+00
-2.261892110109329224e-01 5.334838107228279114e-02 -1.345582008361816406e+00
-5.792153254151344299e-02 3.949668258428573608e-03 -5.889105796813964844e-01
-5.213354527950286865e-02 9.971252083778381348e-02 -6.419941782951354980e-01
5.074750185012817383e-01 5.056248605251312256e-02 -7.112894654273986816e-01
2.532950043678283691e-01 9.904298931360244751e-03 -3.598836362361907959e-01
-4.353154823184013367e-02 7.311198860406875610e-03 -8.159345388412475586e-01
4.096857309341430664e-01 3.492109477519989014e-02 -8.527054190635681152e-01
9.529030323028564453e-02 8.132070302963256836e-02 7.683634757995605469e-04
-3.616351783275604248e-01 6.995411217212677002e-02 -1.863372027873992920e-01
-5.504177212715148926e-01 5.633134767413139343e-02 -9.433264732360839844e-01
-6.770524382591247559e-02 3.236353024840354919e-02 -1.260477781295776367e+00
4.425704479217529297e-01 6.477656215429306030e-02 -5.628126859664916992e-02
-2.965804636478424072e-01 1.125397533178329468e-02 -4.518553018569946289e-01
-8.399130403995513916e-02 4.031788557767868042e-03 -5.101478695869445801e-01
1.748569458723068237e-01 9.521810710430145264e-02 -3.616734743118286133e-01
-9.550704807043075562e-02 6.120890378952026367e-03 -7.567110061645507812e-01
-3.587194085121154785e-01 7.930614799261093140e-02 -3.112790882587432861e-01
2.929953038692474365e-01 7.534956932067871094e-02 -1.039883375167846680e+00
-4.299832880496978760e-01 8.332918584346771240e-02 -6.914289593696594238e-01
-1.279842760413885117e-02 3.008610755205154419e-02 1.312581896781921387e-01
3.129017949104309082e-01 2.364780753850936890e-02 -8.719723224639892578e-01
5.365344882011413574e-02 9.953700751066207886e-02 -6.633720397949218750e-01
-1.486419588327407837e-01 2.253828383982181549e-02 -1.958608627319335938e-03
1.209107711911201477e-01 5.701329559087753296e-03 -3.623154759407043457e-01
2.377332448959350586e-01 9.329728782176971436e-02 -7.532695531845092773e-01
-3.070029914379119873e-01 9.167432785034179688e-02 -5.941461324691772461e-01
3.863518685102462769e-02 7.689832150936126709e-02 -1.240832686424255371e+00
1.648708805441856384e-02 9.590297937393188477e-02 -3.246457278728485107e-01
-4.102397263050079346e-01 1.752975583076477051e-02 -6.644577980041503906e-01
-8.174876123666763306e-02 1.143974438309669495e-02 -1.388887465000152588e-01
-1.712365001440048218e-01 1.626156643033027649e-02 -1.088572740554809570e-01
-4.215684831142425537e-01 8.185390383005142212e-02 -9.348804354667663574e-01
1.651507019996643066e-01 9.263056516647338867e-02 -9.057191610336303711e-01
6.851693242788314819e-02 6.422865390777587891e-02 -1.296756625175476074e+00
3.711075335741043091e-02 9.459856897592544556e-02 -9.603836536407470703e-01
-3.669082522392272949e-01 1.596500352025032043e-02 -8.150258064270019531e-01
-4.162456691265106201e-01 2.581113390624523163e-02 -3.241218030452728271e-01
4.043017625808715820e-01 3.886093571782112122e-02 3.149688243865966797e-02
4.413343369960784912e-01 2.427202463150024414e-02 -4.957912862300872803e-01
3.101332783699035645e-01 1.844510808587074280e-02 -7.633601427078247070e-01
4.850356876850128174e-01 5.546726286411285400e-02 -7.863944768905639648e-01
1.867721602320671082e-02 9.565904736518859863e-02 -9.355046749114990234e-01
-3.629662096500396729e-01 1.773726195096969604e-02 -3.754788637161254883e-01
5.912636965513229370e-02 3.182065859436988831e-02 -1.214833974838256836e+00
3.873844146728515625e-01 8.595754206180572510e-02 -5.375940203666687012e-01
-9.748271107673645020e-02 9.813923388719558716e-02 -5.026890039443969727e-01
4.234197437763214111e-01 8.262911438941955566e-02 -5.015996694564819336e-01
-1.666940152645111084e-01 8.142221719026565552e-02 -1.221416234970092773e+00
-2.512891590595245361e-01 2.873768098652362823e-02 -1.203836798667907715e+00
-3.110500872135162354e-01 2.336057275533676147e-02 -1.093681931495666504e+00
-1.775321960449218750e-01 1.068959385156631470e-02 -2.412282824516296387e-01
4.936238825321197510e-01 3.963434323668479919e-02 -6.777023077011108398e-01
-1.235746741294860840e-01 1.655417308211326599e-02 -6.586164236068725586e-02
-5.663617849349975586e-01 4.421197250485420227e-02 -6.875131726264953613e-01
9.163972735404968262e-02 8.340865373611450195e-02 -2.981442213058471680e-02
-9.497651830315589905e-03 7.126376032829284668e-02 9.446930885314941406e-02
-2.044110149145126343e-01 8.683986961841583252e-02 -1.127669811248779297e+00
2.946877479553222656e-01 1.173978671431541443e-02 -4.088680744171142578e-01
1.211980506777763367e-01 8.885903656482696533e-02 -1.038739442825317383e+00
1.718411222100257874e-03 9.979949891567230225e-02 -6.795408725738525391e-01
3.286805450916290283e-01 1.384040713310241699e-02 -4.561755359172821045e-01
3.318802714347839355e-01 7.503976672887802124e-02 -2.383613586425781250e-02
4.505523741245269775e-01 2.484475821256637573e-02 -4.261669814586639404e-01
1.478433012962341309e-01 2.671171352267265320e-02 1.154849529266357422e-01
2.947362363338470459e-01 1.615889370441436768e-02 -1.470067799091339111e-01
4.639896154403686523e-01 7.772076129913330078e-02 -5.107833147048950195e-01
-4.347170889377593994e-02 9.114339202642440796e-02 -2.032249271869659424e-01
2.821757793426513672e-01 8.565384149551391602e-02 -1.615578532218933105e-01
-1.549987941980361938e-01 1.061428710818290710e-02 -2.184095382690429688e-01
4.147509038448333740e-01 2.382673509418964386e-02 -2.001834809780120850e-01
2.478839904069900513e-01 7.792947441339492798e-02 2.938866615295410156e-03
