-1.962409764528274536e-01 -3.348731100559234619e-01 5.026270747184753418e-01
-2.514030933380126953e-01 -3.899378776550292969e-01 6.279274821281433105e-01
-2.662014961242675781e-01 -4.424334764480590820e-01 4.595690965652465820e-01
-1.780521571636199951e-01 -3.967836499214172363e-01 -1.937553882598876953e-01
-2.411477863788604736e-01 -4.573390483856201172e-01 2.514517009258270264e-01
-2.493757754564285278e-01 -4.291534423828125000e-01 1.279155731201171875e+00
-2.026212215423583984e-01 -3.416336774826049805e-01 7.974681854248046875e-01
-2.578116357326507568e-01 -4.034506678581237793e-01 5.519522428512573242e-01
-1.752462685108184814e-01 -4.229779243469238281e-01 4.636053144931793213e-01
-2.505255043506622314e-01 -3.958629965782165527e-01 4.324394166469573975e-01
-2.653495669364929199e-01 -4.363279938697814941e-01 1.153107285499572754e+00
-1.861875057220458984e-01 -4.280086755752563477e-01 7.470655441284179688e-02
-2.598558664321899414e-01 -4.273524880409240723e-01 3.542417883872985840e-01
-2.095389217138290405e-01 -4.393810331821441650e-01 3.348106145858764648e-02
-2.494869381189346313e-01 -4.031450152397155762e-01 3.068336546421051025e-01
-2.581466138362884521e-01 -3.989980518817901611e-01 8.455439805984497070e-01
-2.296103537082672119e-01 -4.647667407989501953e-01 7.058426141738891602e-01
-2.044678181409835815e-01 -3.752200901508331299e-01 -1.102857589721679688e-01
-1.548501700162887573e-01 -3.962737619876861572e-01 2.523509860038757324e-01
-1.919848024845123291e-01 -4.379913806915283203e-01 2.288866043090820312e-01
-1.886175572872161865e-01 -4.107733666896820068e-01 -1.550081372261047363e-01
-2.189450562000274658e-01 -4.539014697074890137e-01 2.275609970092773438e-01
-1.783411055803298950e-01 -3.993749916553497314e-01 9.859405159950256348e-01
-2.729589045047760010e-01 -4.548407793045043945e-01 7.349158525466918945e-01
-1.764857023954391479e-01 -3.283238410949707031e-01 6.895489692687988281e-01
-1.901375800371170044e-01 -4.224904775619506836e-01 -5.861669778823852539e-02
-2.346844226121902466e-01 -3.826904296875000000e-01 1.164048671722412109e+00
-2.124839574098587036e-01 -3.521184623241424561e-01 2.980508804321289062e-01
-1.455306410789489746e-01 -3.532406389713287354e-01 6.280700564384460449e-01
-1.870638430118560791e-01 -3.818470537662506104e-01 1.149412393569946289e+00
-1.760253608226776123e-01 -3.299225270748138428e-01 7.378502488136291504e-01
-1.931569725275039673e-01 -3.398796916007995605e-01 1.864958703517913818e-01
-1.796190142631530762e-01 -3.278386890888214111e-01 6.399905681610107422e-01
-1.924317181110382080e-01 -3.340981006622314453e-01 7.030318975448608398e-01
-2.732481360435485840e-01 -4.548861682415008545e-01 7.614977955818176270e-01
-2.118409126996994019e-01 -4.302157163619995117e-01 1.140747308731079102e+00
-1.567690074443817139e-01 -3.219514191150665283e-01 4.034794867038726807e-01
-2.005964964628219604e-01 -4.103121161460876465e-01 1.176981449127197266e+00
-2.477998882532119751e-01 -4.424129426479339600e-01 1.786878407001495361e-01
-2.352668642997741699e-01 -3.680483400821685791e-01 6.935148835182189941e-01
-2.719256281852722168e-01 -4.463309347629547119e-01 1.015410423278808594e+00
-1.515288203954696655e-01 -3.842789530754089355e-01 5.423699617385864258e-01
-1.707306355237960815e-01 -3.380962312221527100e-01 -2.472376823425292969e-02
-1.993922889232635498e-01 -3.915374875068664551e-01 1.225442528724670410e+00
-1.965434402227401733e-01 -3.508841395378112793e-01 1.037541747093200684e+00
-2.067765742540359497e-01 -4.512452185153961182e-01 6.311246156692504883e-01
-1.830433607101440430e-01 -4.031883776187896729e-01 1.024609684944152832e+00
-1.390894651412963867e-01 -3.391025066375732422e-01 1.250000000000000000e-01
-2.109880596399307251e-01 -3.820226788520812988e-01 -9.194368124008178711e-02
-1.776522994041442871e-01 -4.209506213665008545e-01 8.810824155807495117e-02
-2.676261961460113525e-01 -4.528110325336456299e-01 1.070104598999023438e+00
-2.056818157434463501e-01 -3.486155867576599121e-01 9.451493620872497559e-01
-2.503249347209930420e-01 -4.706073701381683350e-01 6.385385394096374512e-01
-2.203106731176376343e-01 -3.540289103984832764e-01 7.870693802833557129e-01
-1.505096703767776489e-01 -3.547362089157104492e-01 7.314504981040954590e-01
-1.511556953191757202e-01 -3.760940134525299072e-01 -6.495463848114013672e-02
-2.076306939125061035e-01 -4.230235517024993896e-01 1.160125970840454102e+00
-1.825013309717178345e-01 -4.304445385932922363e-01 2.705238163471221924e-01
-2.154950648546218872e-01 -4.524326622486114502e-01 8.498731851577758789e-01
-2.027217447757720947e-01 -3.438982665538787842e-01 2.807236611843109131e-01
-2.007062882184982300e-01 -3.654569685459136963e-01 1.164272069931030273e+00
-2.346450537443161011e-01 -3.684925138950347900e-01 5.720793008804321289e-01
-1.765331029891967773e-01 -4.101098179817199707e-01 8.440443277359008789e-01
-2.424778044223785400e-01 -4.583117067813873291e-01 1.061900138854980469e+00
-1.681832671165466309e-01 -3.327378630638122559e-01 7.862268686294555664e-01
-1.624098122119903564e-01 -4.012458622455596924e-01 6.124545931816101074e-01
-1.370741426944732666e-01 -3.473298251628875732e-01 2.003969848155975342e-01
-2.557410299777984619e-01 -4.327366650104522705e-01 2.654208242893218994e-01
-2.595531642436981201e-01 -4.127540290355682373e-01 1.125573635101318359e+00
-1.583474278450012207e-01 -3.754834234714508057e-01 8.118958473205566406e-01
-2.259105741977691650e-01 -4.011977910995483398e-01 -3.407245874404907227e-02
-2.334513068199157715e-01 -3.732398152351379395e-01 1.036857008934020996e+00
-2.510603368282318115e-01 -3.901536166667938232e-01 5.964166522026062012e-01
-2.138445824384689331e-01 -4.245476126670837402e-01 -9.267330169677734375e-02
-2.658009529113769531e-01 -4.641178548336029053e-01 6.208410263061523438e-01
-1.780595630407333374e-01 -4.154624640941619873e-01 -2.493387460708618164e-02
-1.409781873226165771e-01 -3.510434031486511230e-01 5.020051598548889160e-01
-1.745655387639999390e-01 -4.209126532077789307e-01 1.888022124767303467e-01
-2.481253594160079956e-01 -4.669128656387329102e-01 9.145604372024536133e-01
-1.985539197921752930e-01 -3.701256513595581055e-01 -1.267803311347961426e-01
-1.646217107772827148e-01 -4.106035232543945312e-01 3.205275237560272217e-01
-2.094804942607879639e-01 -4.534906148910522461e-01 3.967692255973815918e-01
-2.621827721595764160e-01 -4.689378142356872559e-01 7.351965904235839844e-01
-2.299147248268127441e-01 -4.641261398792266846e-01 7.566153407096862793e-01
-2.152999192476272583e-01 -4.573063850402832031e-01 4.250574409961700439e-01
-1.534391492605209351e-01 -3.272143304347991943e-01 1.116995215415954590e-01
-2.245523035526275635e-01 -3.747274279594421387e-01 1.418125927448272705e-01
-1.758911907672882080e-01 -4.110593497753143311e-01 -5.804628133773803711e-02
-2.351704090833663940e-01 -4.674476683139801025e-01 6.778475046157836914e-01
-1.664551496505737305e-01 -4.113393723964691162e-01 4.894082248210906982e-01
-1.702761352062225342e-01 -4.173597693443298340e-01 2.652512490749359131e-01
-1.538589596748352051e-01 -3.248632550239562988e-01 1.747832894325256348e-01
-2.720522284507751465e-01 -4.502193927764892578e-01 6.460116505622863770e-01
-2.192338854074478149e-01 -3.799409866333007812e-01 1.076322793960571289e-02
-2.722919583320617676e-01 -4.586743712425231934e-01 8.216384649276733398e-01
-2.497187852859497070e-01 -4.467948377132415771e-01 2.180978059768676758e-01
-2.161322087049484253e-01 -3.818577527999877930e-01 -3.964078426361083984e-02
-1.557617187500000000e-01 -3.791109919548034668e-01 -1.145185232162475586e-01
-2.608465254306793213e-01 -4.467376172542572021e-01 1.173965930938720703e+00
-2.284740656614303589e-01 -4.219383895397186279e-01 -3.359776735305786133e-02
-2.580148279666900635e-01 -4.110046327114105225e-01 4.360905289649963379e-01
-2.250115722417831421e-01 -3.772034645080566406e-01 1.201320588588714600e-01
-1.991024911403656006e-01 -4.374544620513916016e-01 8.591071367263793945e-01
-2.511039972305297852e-01 -3.937504291534423828e-01 4.947826564311981201e-01
-1.584550738334655762e-01 -3.301241099834442139e-01 6.853058338165283203e-01
-2.245645076036453247e-01 -4.291273653507232666e-01 1.245209932327270508e+00
-2.085865586996078491e-01 -4.502628445625305176e-01 2.630746066570281982e-01
-1.922672390937805176e-01 -3.338344097137451172e-01 3.713922202587127686e-01
-1.794889867305755615e-01 -4.178905487060546875e-01 7.888551950454711914e-01
-2.720265984535217285e-01 -4.534632861614227295e-01 6.658670306205749512e-01
-1.874827295541763306e-01 -4.346129000186920166e-01 2.467414438724517822e-01
-2.241774499416351318e-01 -4.613812267780303955e-01 4.079670906066894531e-01
-1.575130671262741089e-01 -3.446134328842163086e-01 -1.127043366432189941e-01
-2.156772911548614502e-01 -3.604934811592102051e-01 1.895417571067810059e-01
-1.907949596643447876e-01 -4.077026844024658203e-01 1.091329336166381836e+00
-1.659546494483947754e-01 -3.387894928455352783e-01 8.481172323226928711e-01
-2.154762744903564453e-01 -4.124167263507843018e-01 1.272032380104064941e+00
-1.812492907047271729e-01 -3.960283994674682617e-01 1.047606587409973145e+00
-2.532557249069213867e-01 -4.656018614768981934e-01 9.684041738510131836e-01
-2.092720717191696167e-01 -3.441621065139770508e-01 5.247762799263000488e-01
-1.952456235885620117e-01 -3.956051170825958252e-01 1.190047264099121094e+00
-2.365698516368865967e-01 -4.584295749664306641e-01 1.016461491584777832e+00
-1.937172561883926392e-01 -3.334157466888427734e-01 4.809979796409606934e-01
-2.735723555088043213e-01 -4.545658528804779053e-01 7.990435361862182617e-01
-1.697064936161041260e-01 -3.917907476425170898e-01 -1.733381152153015137e-01
-2.489154487848281860e-01 -4.067370295524597168e-01 2.615495026111602783e-01
-2.428994774818420410e-01 -3.963002264499664307e-01 1.213537454605102539e+00
-2.210156768560409546e-01 -3.997672796249389648e-01 -7.545143365859985352e-02
-1.762442588806152344e-01 -4.160846769809722900e-01 7.386897206306457520e-01
-2.134909927845001221e-01 -4.342221915721893311e-01 -2.958685159683227539e-02
-2.272464036941528320e-01 -4.365095496177673340e-01 1.093661785125732422e-02
-2.111131697893142700e-01 -3.763336837291717529e-01 1.227837204933166504e+00
-1.373684108257293701e-01 -3.445595204830169678e-01 1.724812984466552734e-01
-2.691798806190490723e-01 -4.462486207485198975e-01 5.386570096015930176e-01
-2.428426891565322876e-01 -3.979007005691528320e-01 2.211356461048126221e-01
-1.795039176940917969e-01 -3.295117318630218506e-01 2.382177114486694336e-01
-2.677485346794128418e-01 -4.515865743160247803e-01 5.180810093879699707e-01
-1.776521354913711548e-01 -3.277424871921539307e-01 2.716600894927978516e-01
-1.630052030086517334e-01 -4.082012474536895752e-01 3.753685355186462402e-01
-2.526087164878845215e-01 -4.695120453834533691e-01 5.722394585609436035e-01
-1.923164576292037964e-01 -4.352239966392517090e-01 7.444458603858947754e-01
-1.925948858261108398e-01 -3.719724118709564209e-01 -1.761550307273864746e-01
-2.548575699329376221e-01 -4.010816216468811035e-01 1.077699542045593262e+00
-1.381015479564666748e-01 -3.372730016708374023e-01 2.979292869567871094e-01
-2.227520197629928589e-01 -4.589548408985137939e-01 3.305084705352783203e-01
-2.053813338279724121e-01 -3.550676107406616211e-01 1.055927515029907227e+00
-2.557005584239959717e-01 -3.970030546188354492e-01 9.519637227058410645e-01
-1.691921800374984741e-01 -4.131175279617309570e-01 1.197979152202606201e-01
-2.078912258148193359e-01 -4.443480372428894043e-01 8.920205831527709961e-01
-1.955170929431915283e-01 -4.426388740539550781e-01 5.681238174438476562e-01
-2.220566719770431519e-01 -3.561544716358184814e-01 4.947045445442199707e-01
-2.592795193195343018e-01 -4.065741598606109619e-01 1.046490430831909180e+00
-2.301510572433471680e-01 -3.721051812171936035e-01 1.072284340858459473e+00
-2.506645321846008301e-01 -4.487761259078979492e-01 2.387919127941131592e-01
-2.456049323081970215e-01 -4.689066410064697266e-01 8.171619176864624023e-01
-1.992574036121368408e-01 -4.312469661235809326e-01 9.687917232513427734e-01
-2.284570187330245972e-01 -4.635305702686309814e-01 4.346781671047210693e-01
-1.654174476861953735e-01 -3.705624938011169434e-01 9.419419765472412109e-01
-2.189277857542037964e-01 -4.600835144519805908e-01 5.571445822715759277e-01
-2.681505084037780762e-01 -4.200997352600097656e-01 7.255309224128723145e-01
-2.464521825313568115e-01 -4.702646136283874512e-01 6.206794977188110352e-01
-1.836988925933837891e-01 -3.348744213581085205e-01 1.528656482696533203e-01
-2.432141005992889404e-01 -4.103988409042358398e-01 1.287965774536132812e+00
-1.776815056800842285e-01 -4.245607852935791016e-01 5.436175465583801270e-01
-1.893128156661987305e-01 -4.360841512680053711e-01 6.035231947898864746e-01
-1.968880593776702881e-01 -3.367623984813690186e-01 7.234987020492553711e-01
-2.158383429050445557e-01 -3.508099317550659180e-01 8.087861537933349609e-01
-1.723347008228302002e-01 -3.828157782554626465e-01 -2.208410501480102539e-01
-2.562294006347656250e-01 -4.638599753379821777e-01 1.006157994270324707e+00
-1.964941769838333130e-01 -4.358306229114532471e-01 8.362660408020019531e-01
-1.647522151470184326e-01 -3.232128620147705078e-01 5.326995849609375000e-01
-1.921984702348709106e-01 -4.403575658798217773e-01 4.931349754333496094e-01
-2.493174225091934204e-01 -4.382939338684082031e-01 1.254996061325073242e+00
-1.718071103096008301e-01 -4.181286096572875977e-01 5.050770640373229980e-01
-1.525065749883651733e-01 -3.227401375770568848e-01 2.970041334629058838e-01
-1.784899532794952393e-01 -3.525913357734680176e-01 1.025243520736694336e+00
-2.045490145683288574e-01 -4.350104033946990967e-01 9.972196221351623535e-01
-2.016472816467285156e-01 -4.361861050128936768e-01 9.319491386413574219e-01
-2.711883187294006348e-01 -4.407965540885925293e-01 1.039599299430847168e+00
-1.397256851196289062e-01 -3.635668158531188965e-01 2.095995247364044189e-01
-1.937750279903411865e-01 -4.218941628932952881e-01 1.003733634948730469e+00
-1.804960966110229492e-01 -4.106263816356658936e-01 9.148328900337219238e-01
-2.531135380268096924e-01 -3.981040716171264648e-01 4.779451191425323486e-01
-2.442057281732559204e-01 -4.039313495159149170e-01 1.955319941043853760e-01
-2.590761482715606689e-01 -4.006229937076568604e-01 7.501853108406066895e-01
-1.688474565744400024e-01 -3.707774877548217773e-01 9.845834970474243164e-01
-2.508584260940551758e-01 -4.665779173374176025e-01 4.622920751571655273e-01
-2.613125145435333252e-01 -4.214545786380767822e-01 4.234130084514617920e-01
-2.315086126327514648e-01 -3.897040188312530518e-01 1.250077247619628906e+00
-1.809515357017517090e-01 -3.676050007343292236e-01 -2.073060870170593262e-01
-1.594067215919494629e-01 -3.259750604629516602e-01 1.421546936035156250e-01
-1.649711430072784424e-01 -3.798512518405914307e-01 -1.954546570777893066e-01
-1.966229677200317383e-01 -4.183365404605865479e-01 1.078543305397033691e+00
-1.859819591045379639e-01 -4.250907301902770996e-01 8.112512826919555664e-01
-1.569430828094482422e-01 -3.224729001522064209e-01 2.767048776149749756e-01
-2.097554057836532593e-01 -3.676274418830871582e-01 3.908514976501464844e-03
-2.571134865283966064e-01 -3.974269926548004150e-01 7.329577207565307617e-01
-2.569580972194671631e-01 -4.287135004997253418e-01 2.932846546173095703e-01
-2.370263636112213135e-01 -3.721362948417663574e-01 9.044831991195678711e-01
-1.423934698104858398e-01 -3.448206484317779541e-01 5.449985861778259277e-01
-2.366626709699630737e-01 -4.621149003505706787e-01 9.393028616905212402e-01
-1.546583622694015503e-01 -3.837539255619049072e-01 6.558821201324462891e-01
-2.480883300304412842e-01 -4.578170776367187500e-01 2.950178980827331543e-01
-2.188020944595336914e-01 -4.599394202232360840e-01 5.843510627746582031e-01
-1.643513292074203491e-01 -3.441925048828125000e-01 8.790888190269470215e-01
-1.632515788078308105e-01 -3.677099347114562988e-01 9.179801940917968750e-01
-1.949564516544342041e-01 -4.332598745822906494e-01 5.138087272644042969e-02
-2.037678956985473633e-01 -3.460635840892791748e-01 2.458505928516387939e-01
-1.828273236751556396e-01 -4.309847354888916016e-01 5.032056570053100586e-01
-2.667718827724456787e-01 -4.245137572288513184e-01 5.658725500106811523e-01
-2.479305267333984375e-01 -4.081771373748779297e-01 1.247781515121459961e+00
-2.686912119388580322e-01 -4.340282976627349854e-01 1.085660696029663086e+00
-1.946882158517837524e-01 -4.316970109939575195e-01 8.789424300193786621e-01
-1.695336848497390747e-01 -4.116738736629486084e-01 6.936261057853698730e-02
-2.494739443063735962e-01 -3.979143500328063965e-01 3.696777820587158203e-01
-1.390036642551422119e-01 -3.342554867267608643e-01 2.523623406887054443e-01
-2.003320902585983276e-01 -4.461950659751892090e-01 6.157324910163879395e-01
-1.972332596778869629e-01 -4.441576004028320312e-01 3.394969105720520020e-01
-1.509785652160644531e-01 -3.330901861190795898e-01 6.380922794342041016e-01
-2.392971217632293701e-01 -4.649043679237365723e-01 3.942340612411499023e-01
-1.788271963596343994e-01 -4.273938834667205811e-01 3.367564678192138672e-01
-2.354144454002380371e-01 -4.195056557655334473e-01 2.299886941909790039e-02
-1.532271802425384521e-01 -3.915630877017974854e-01 4.427027702331542969e-01
-1.981797516345977783e-01 -3.484078943729400635e-01 9.782662987709045410e-02
-2.304160892963409424e-01 -3.949434459209442139e-01 1.282750844955444336e+00
-1.614833474159240723e-01 -3.924994766712188721e-01 -7.982665300369262695e-02
-1.727139055728912354e-01 -3.474508523941040039e-01 9.609683752059936523e-01
-2.117156386375427246e-01 -3.658084869384765625e-01 4.913005232810974121e-02
-2.541398406028747559e-01 -4.322591423988342285e-01 2.409355342388153076e-01
-2.280839085578918457e-01 -3.833905458450317383e-01 1.045352220535278320e-01
-1.464293599128723145e-01 -3.783608973026275635e-01 1.075647175312042236e-01
-2.344953566789627075e-01 -4.659167230129241943e-01 7.760007381439208984e-01
-1.571162790060043335e-01 -3.532709181308746338e-01 8.356525897979736328e-01
-1.972526907920837402e-01 -4.329714179039001465e-01 2.324837446212768555e-02
-1.386808454990386963e-01 -3.597076833248138428e-01 2.650797665119171143e-01
-1.443946957588195801e-01 -3.647118210792541504e-01 5.416700839996337891e-01
-1.619569063186645508e-01 -3.851033747196197510e-01 -1.475763916969299316e-01
-1.755145937204360962e-01 -4.028519392013549805e-01 -1.396690011024475098e-01
-2.357099056243896484e-01 -4.568593204021453857e-01 1.036679029464721680e+00
-1.497639417648315430e-01 -3.668642938137054443e-01 -9.824883937835693359e-02
-1.644764244556427002e-01 -3.970069587230682373e-01 7.458884119987487793e-01
-1.995195150375366211e-01 -4.397198557853698730e-01 8.179813027381896973e-01
-1.962261945009231567e-01 -3.743906915187835693e-01 1.194704413414001465e+00
-1.517803370952606201e-01 -3.912392556667327881e-01 2.832933068275451660e-01
-2.169818431138992310e-01 -4.003160595893859863e-01 -1.093028783798217773e-01
-2.705594003200531006e-01 -4.395633041858673096e-01 5.904967784881591797e-01
-2.218537479639053345e-01 -4.616665840148925781e-01 5.328960418701171875e-01
-2.565144300460815430e-01 -3.961683511734008789e-01 7.744286060333251953e-01
-1.877475231885910034e-01 -3.619873225688934326e-01 -1.487453579902648926e-01
-1.693149656057357788e-01 -3.431317508220672607e-01 -8.878493309020996094e-02
-2.065762579441070557e-01 -3.423636555671691895e-01 4.899597465991973877e-01
-2.370077073574066162e-01 -3.705131113529205322e-01 8.138493895530700684e-01
-1.408117711544036865e-01 -3.571800589561462402e-01 4.668542146682739258e-01
-2.104602605104446411e-01 -3.460754156112670898e-01 4.539953470230102539e-01
-2.574523687362670898e-01 -4.612428545951843262e-01 1.049621582031250000e+00
-2.268087565898895264e-01 -4.391902685165405273e-01 1.185148000717163086e+00
-2.627537548542022705e-01 -4.098290205001831055e-01 6.462529897689819336e-01
-1.386385858058929443e-01 -3.358127772808074951e-01 3.152247071266174316e-01
-2.233897149562835693e-01 -3.606163561344146729e-01 3.771650493144989014e-01
-1.876354962587356567e-01 -4.172806441783905029e-01 -9.698182344436645508e-02
-2.407979518175125122e-01 -3.786987960338592529e-01 4.767422676086425781e-01
-1.465825140476226807e-01 -3.267183899879455566e-01 4.375458359718322754e-01
-1.384716629981994629e-01 -3.583708107471466064e-01 2.885385751724243164e-01
-2.302632033824920654e-01 -4.471129477024078369e-01 1.021831333637237549e-01
-2.354027330875396729e-01 -4.659528136253356934e-01 7.939478158950805664e-01
-2.049070596694946289e-01 -4.464015960693359375e-01 2.081757187843322754e-01
-2.021955996751785278e-01 -3.595978319644927979e-01 1.117741823196411133e+00
-2.337167114019393921e-01 -3.889165818691253662e-01 1.428090333938598633e-01
-1.400733590126037598e-01 -3.403660953044891357e-01 4.533889591693878174e-01
-2.105467915534973145e-01 -3.455190658569335938e-01 7.283211946487426758e-01
-2.637991905212402344e-01 -4.166239202022552490e-01 1.065707921981811523e+00
-2.447130531072616577e-01 -4.575801193714141846e-01 2.710608243942260742e-01
-1.505251824855804443e-01 -3.689409196376800537e-01 6.849977970123291016e-01
-2.075740844011306763e-01 -3.542838394641876221e-01 1.482642889022827148e-01
-1.515742093324661255e-01 -3.907385468482971191e-01 2.369826436042785645e-01
-2.299903035163879395e-01 -4.516170322895050049e-01 1.523900628089904785e-01
-1.646514236927032471e-01 -3.848488628864288330e-01 8.686234951019287109e-01
-1.826385855674743652e-01 -4.310633540153503418e-01 4.778737723827362061e-01
-2.633115649223327637e-01 -4.678237140178680420e-01 6.814512610435485840e-01
-1.739723384380340576e-01 -3.250921368598937988e-01 5.694215893745422363e-01
-2.579554319381713867e-01 -4.666259884834289551e-01 5.309079289436340332e-01
-2.633078396320343018e-01 -4.081328511238098145e-01 8.084710836410522461e-01
-1.947106122970581055e-01 -3.359257280826568604e-01 3.481040596961975098e-01
-1.906498521566390991e-01 -4.351525306701660156e-01 6.941522955894470215e-01
-2.690640389919281006e-01 -4.305115342140197754e-01 1.054869294166564941e+00
-2.116055488586425781e-01 -4.454715549945831299e-01 1.133753359317779541e-01
-1.575801968574523926e-01 -3.967799842357635498e-01 8.130988478660583496e-02
-1.473435610532760620e-01 -3.516128063201904297e-01 6.697415709495544434e-01
-2.073450237512588501e-01 -4.477342665195465088e-01 7.962645292282104492e-01
-2.723495066165924072e-01 -4.544312059879302979e-01 6.913400888442993164e-01
-1.665592491626739502e-01 -3.957698047161102295e-01 8.091944456100463867e-01
-2.645551264286041260e-01 -4.597182869911193848e-01 1.031707048416137695e+00
-2.672457993030548096e-01 -4.176334142684936523e-01 9.222705960273742676e-01
-2.513264417648315430e-01 -3.999378681182861328e-01 3.916056752204895020e-01
-1.742378622293472290e-01 -3.498932123184204102e-01 -1.299554705619812012e-01
-2.593919932842254639e-01 -4.442229866981506348e-01 1.194991827011108398e+00
-1.995037943124771118e-01 -3.404799699783325195e-01 8.173432350158691406e-01
-2.188079953193664551e-01 -3.650708198547363281e-01 1.096768856048583984e+00
-1.849050223827362061e-01 -3.301186859607696533e-01 3.336850404739379883e-01
-2.523462176322937012e-01 -3.903719782829284668e-01 6.857944726943969727e-01
-2.011716216802597046e-01 -3.775364458560943604e-01 -1.481823921203613281e-01
-1.809612959623336792e-01 -4.066172540187835693e-01 9.648581147193908691e-01
-2.377724796533584595e-01 -3.716357648372650146e-01 8.356845378875732422e-01
-1.881780028343200684e-01 -3.301661014556884766e-01 5.221146941184997559e-01
-1.771281361579895020e-01 -4.241746664047241211e-01 2.163749933242797852e-01
-1.630592942237854004e-01 -3.228942751884460449e-01 5.158755183219909668e-01
-2.434731274843215942e-01 -4.220557510852813721e-01 1.080225110054016113e-01
-2.217673063278198242e-01 -4.579423367977142334e-01 8.176078796386718750e-01
-2.143941521644592285e-01 -3.523460924625396729e-01 9.049923419952392578e-01
-1.417091935873031616e-01 -3.461485505104064941e-01 5.276951193809509277e-01
-2.376588732004165649e-01 -4.605337083339691162e-01 9.853457808494567871e-01
-2.362909168004989624e-01 -4.405088722705841064e-01 7.827305793762207031e-02
-2.733028531074523926e-01 -4.556559622287750244e-01 8.435833454132080078e-01
-2.222520411014556885e-01 -4.537605643272399902e-01 9.376583099365234375e-01
-1.629321575164794922e-01 -3.759534657001495361e-01 8.890656828880310059e-01
-2.057388424873352051e-01 -4.514985084533691406e-01 4.989223182201385498e-01
-1.832886934280395508e-01 -3.424015343189239502e-01 1.108616590499877930e-02
-2.412709444761276245e-01 -4.642893075942993164e-01 3.763007521629333496e-01
-1.647982299327850342e-01 -3.238050937652587891e-01 2.484263777732849121e-01
-2.126406133174896240e-01 -3.643796145915985107e-01 1.130516886711120605e+00
-2.053367197513580322e-01 -4.217322468757629395e-01 -1.165831089019775391e-01
-1.720763891935348511e-01 -4.044463038444519043e-01 8.241544961929321289e-01
-2.238080352544784546e-01 -3.804728686809539795e-01 6.789016723632812500e-02
-2.274707555770874023e-01 -3.598727881908416748e-01 7.135400176048278809e-01
-2.707674503326416016e-01 -4.573132693767547607e-01 9.586010575294494629e-01
-1.535392999649047852e-01 -3.387380540370941162e-01 -5.546003580093383789e-02
-2.614459097385406494e-01 -4.690539240837097168e-01 7.021573185920715332e-01
-1.741757094860076904e-01 -4.185869395732879639e-01 6.077401041984558105e-01
-1.431640982627868652e-01 -3.544615209102630615e-01 -2.401089668273925781e-02
-1.814935803413391113e-01 -3.396726250648498535e-01 3.473496437072753906e-02
-1.873780190944671631e-01 -3.560010790824890137e-01 1.081166267395019531e+00
-1.782349944114685059e-01 -4.234889745712280273e-01 1.442037224769592285e-01
-2.035307586193084717e-01 -3.679753541946411133e-01 -6.791591644287109375e-02
-1.489417254924774170e-01 -3.239443302154541016e-01 3.705749511718750000e-01
-1.439219862222671509e-01 -3.700560033321380615e-01 6.019708514213562012e-02
-1.873115748167037964e-01 -3.478173613548278809e-01 -2.258455753326416016e-02
-1.417451351881027222e-01 -3.699593544006347656e-01 2.394837141036987305e-01
-2.324086576700210571e-01 -4.658466875553131104e-01 4.947463870048522949e-01
-2.168363481760025024e-01 -3.631333708763122559e-01 1.674090921878814697e-01
-1.440519690513610840e-01 -3.388878703117370605e-01 5.607033967971801758e-01
-2.549477219581604004e-01 -4.662405550479888916e-01 4.869826734066009521e-01
-2.415322363376617432e-01 -4.658526778221130371e-01 8.902220726013183594e-01
-2.320453375577926636e-01 -3.730025291442871094e-01 3.290830552577972412e-01
-2.055393755435943604e-01 -3.423940837383270264e-01 7.500241994857788086e-01
-2.195526957511901855e-01 -3.528644442558288574e-01 7.472335100173950195e-01
-1.602709442377090454e-01 -3.959168493747711182e-01 6.443580389022827148e-01
-1.745171099901199341e-01 -3.538085818290710449e-01 1.008722066879272461e+00
-1.880422085523605347e-01 -3.309136927127838135e-01 3.934929966926574707e-01
-2.359946072101593018e-01 -3.972104787826538086e-01 1.107172667980194092e-01
-1.658802330493927002e-01 -4.036932587623596191e-01 6.781710982322692871e-01
-2.169192582368850708e-01 -4.570322930812835693e-01 7.240028381347656250e-01
-1.736519038677215576e-01 -4.215544164180755615e-01 3.012883961200714111e-01
-2.466739416122436523e-01 -4.098783135414123535e-01 1.265595912933349609e+00
-2.530175745487213135e-01 -4.705704748630523682e-01 7.674577236175537109e-01
-1.942112296819686890e-01 -4.423169791698455811e-01 4.519118368625640869e-01
-1.390562057495117188e-01 -3.533685803413391113e-01 8.930423855781555176e-02
-2.740387916564941406e-01 -4.400003552436828613e-01 8.181769847869873047e-01
-1.511651277542114258e-01 -3.884589672088623047e-01 1.407209932804107666e-01
-2.535672485828399658e-01 -4.632995724678039551e-01 4.156590104103088379e-01
-1.914945989847183228e-01 -3.423276543617248535e-01 9.326558709144592285e-01
-2.652804851531982422e-01 -4.665075242519378662e-01 8.573514223098754883e-01
-1.456539928913116455e-01 -3.596195280551910400e-01 -5.909806489944458008e-02
-2.212118953466415405e-01 -3.565365672111511230e-01 8.725860118865966797e-01
-2.032696753740310669e-01 -3.399201631546020508e-01 6.812516450881958008e-01
-1.997998654842376709e-01 -4.279763400554656982e-01 1.020329713821411133e+00
-2.086855173110961914e-01 -3.465007245540618896e-01 8.402285575866699219e-01
-2.112703919410705566e-01 -4.511257708072662354e-01 2.438745200634002686e-01
-2.117933034896850586e-01 -3.731386661529541016e-01 -2.255666255950927734e-02
-2.280736714601516724e-01 -3.654080331325531006e-01 9.690038561820983887e-01
-2.479579299688339233e-01 -4.700588583946228027e-01 5.901688337326049805e-01
-2.324004918336868286e-01 -3.653918504714965820e-01 7.934428453445434570e-01
-2.337077707052230835e-01 -4.670498073101043701e-01 6.470403671264648438e-01
-1.478518992662429810e-01 -3.767066299915313721e-01 1.929908990859985352e-02
-1.617781817913055420e-01 -4.013477563858032227e-01 5.861897468566894531e-01
-1.813269555568695068e-01 -3.771420121192932129e-01 1.105506420135498047e+00
-2.491860687732696533e-01 -4.045693576335906982e-01 2.861905395984649658e-01
-2.341089993715286255e-01 -3.963890969753265381e-01 8.864146471023559570e-02
-2.383802682161331177e-01 -4.531899392604827881e-01 1.110688090324401855e+00
-2.455877512693405151e-01 -4.291897118091583252e-01 1.285686492919921875e-01
-1.379423737525939941e-01 -3.375426828861236572e-01 2.774879336357116699e-01
-2.727720737457275391e-01 -4.338701367378234863e-01 7.779119014739990234e-01
-1.653572022914886475e-01 -4.075583815574645996e-01 5.698377490043640137e-01
-2.028523981571197510e-01 -4.477392137050628662e-01 6.503461599349975586e-01
-1.486409008502960205e-01 -3.735339641571044922e-01 5.943902730941772461e-01
-1.679481565952301025e-01 -3.467998206615447998e-01 9.245138764381408691e-01
-1.780161112546920776e-01 -3.822403550148010254e-01 1.065666437149047852e+00
-2.719534039497375488e-01 -4.572014808654785156e-01 9.151330590248107910e-01
-1.607040613889694214e-01 -3.637566268444061279e-01 -1.924450397491455078e-01
-2.556838393211364746e-01 -4.460254609584808350e-01 2.833076417446136475e-01
-2.340540140867233276e-01 -4.320920705795288086e-01 1.269256830215454102e+00
-2.531120181083679199e-01 -4.096396863460540771e-01 3.253222107887268066e-01
-1.524817347526550293e-01 -3.880463242530822754e-01 5.042781233787536621e-01
-2.503525018692016602e-01 -3.879592418670654297e-01 8.937021493911743164e-01
-1.410256028175354004e-01 -3.581092059612274170e-01 4.175844788551330566e-02
-1.369784474372863770e-01 -3.476316928863525391e-01 2.230524122714996338e-01
-1.969778984785079956e-01 -4.446061551570892334e-01 4.184895753860473633e-01
-1.859383881092071533e-01 -3.291522860527038574e-01 5.504399538040161133e-01
-2.624206244945526123e-01 -4.066339433193206787e-01 8.606536388397216797e-01
-2.499586045742034912e-01 -3.863409459590911865e-01 7.902711033821105957e-01
-2.135773897171020508e-01 -4.254945814609527588e-01 1.194384694099426270e+00
-1.432761251926422119e-01 -3.336172401905059814e-01 8.803033828735351562e-02
-1.994575113058090210e-01 -4.417283236980438232e-01 7.633141875267028809e-01
-1.613290011882781982e-01 -3.239138424396514893e-01 2.169105112552642822e-01
-1.824553608894348145e-01 -3.538300693035125732e-01 1.050581932067871094e+00
-1.514413058757781982e-01 -3.905849754810333252e-01 3.036504387855529785e-01
-2.644957602024078369e-01 -4.190620481967926025e-01 5.474631786346435547e-01
-1.910020858049392700e-01 -3.356896936893463135e-01 2.601375877857208252e-01
-2.709953188896179199e-01 -4.580261111259460449e-01 9.387028217315673828e-01
-2.635942697525024414e-01 -4.176582992076873779e-01 1.084573268890380859e+00
-2.500790953636169434e-01 -3.960443735122680664e-01 4.154825210571289062e-01
-1.611109822988510132e-01 -3.865923583507537842e-01 7.853591442108154297e-01
-2.296954542398452759e-01 -3.956226706504821777e-01 3.394216299057006836e-02
-1.823171377182006836e-01 -4.107724726200103760e-01 9.450266361236572266e-01
-2.661913335323333740e-01 -4.304332435131072998e-01 4.948354065418243408e-01
-2.105750441551208496e-01 -3.597805202007293701e-01 1.106215715408325195e-01
-2.228048443794250488e-01 -3.769534230232238770e-01 8.789384365081787109e-02
-2.052345871925354004e-01 -3.672854006290435791e-01 -4.467707872390747070e-02
-2.635278105735778809e-01 -4.454672634601593018e-01 4.063317179679870605e-01
-1.940549165010452271e-01 -4.416466057300567627e-01 5.400804281234741211e-01
-1.926652193069458008e-01 -4.014900028705596924e-01 1.146534323692321777e+00
-2.595694959163665771e-01 -4.042006433010101318e-01 6.207727789878845215e-01
-1.708271354436874390e-01 -4.184240102767944336e-01 3.584954142570495605e-01
-2.641889452934265137e-01 -4.515837132930755615e-01 4.415192604064941406e-01
-2.740485072135925293e-01 -4.409718811511993408e-01 8.852006793022155762e-01
-2.515852153301239014e-01 -4.040846228599548340e-01 3.457678556442260742e-01
-2.506855726242065430e-01 -4.217233657836914062e-01 2.087699472904205322e-01
-1.765714585781097412e-01 -4.249319732189178467e-01 4.133068025112152100e-01
-1.805147975683212280e-01 -3.267926573753356934e-01 4.215020239353179932e-01
-1.550673097372055054e-01 -3.428030610084533691e-01 7.724505066871643066e-01
-2.478364706039428711e-01 -3.842960000038146973e-01 8.758535385131835938e-01
-1.576710641384124756e-01 -3.925700783729553223e-01 -6.104648113250732422e-03
-2.408089786767959595e-01 -4.192705154418945312e-01 1.307424783706665039e+00
-1.546446382999420166e-01 -3.907062113285064697e-01 4.482802748680114746e-02
-1.534959077835083008e-01 -3.597959280014038086e-01 7.802988886833190918e-01
-2.246435284614562988e-01 -4.601771831512451172e-01 3.489224314689636230e-01
-1.486823260784149170e-01 -3.853740692138671875e-01 2.212393879890441895e-01
-2.679656147956848145e-01 -4.182247817516326904e-01 8.345614075660705566e-01
-1.919594258069992065e-01 -3.376801013946533203e-01 2.205293774604797363e-01
-2.686063051223754883e-01 -4.243113696575164795e-01 1.001366496086120605e+00
-1.819550246000289917e-01 -4.162314832210540771e-01 8.703070878982543945e-01
-2.461765110492706299e-01 -4.680240750312805176e-01 8.621020317077636719e-01
-1.667467057704925537e-01 -3.289418816566467285e-01 7.138810157775878906e-01
-2.230912148952484131e-01 -4.478177428245544434e-01 1.053613424301147461e+00
-1.704829037189483643e-01 -4.126119315624237061e-01 6.354881525039672852e-01
-1.838461458683013916e-01 -3.299009203910827637e-01 6.730210185050964355e-01
-2.129418700933456421e-01 -3.945170640945434570e-01 -1.258780360221862793e-01
-1.441894620656967163e-01 -3.747211098670959473e-01 3.623403012752532959e-01
-2.582002878189086914e-01 -4.537211656570434570e-01 3.589436411857604980e-01
-2.433667480945587158e-01 -4.694927930831909180e-01 7.419369816780090332e-01
-2.188464701175689697e-01 -3.519798219203948975e-01 5.781418681144714355e-01
-2.261174470186233521e-01 -4.589725136756896973e-01 8.714207410812377930e-01
-1.968239992856979370e-01 -3.629954457283020020e-01 1.145276784896850586e+00
-2.062654793262481689e-01 -3.575934767723083496e-01 7.594701647758483887e-02
-2.666923403739929199e-01 -4.289201796054840088e-01 5.208249092102050781e-01
-1.929798275232315063e-01 -4.089311957359313965e-01 1.108250260353088379e+00
-1.545836031436920166e-01 -3.894320428371429443e-01 5.646497011184692383e-01
-1.560804843902587891e-01 -3.793912827968597412e-01 7.374250292778015137e-01
-1.688359379768371582e-01 -3.856711983680725098e-01 9.329681396484375000e-01
5.064805224537849426e-02 -3.794425725936889648e-01 7.396230697631835938e-01
-6.201431527733802795e-02 -3.798862099647521973e-01 7.459548711776733398e-01
-3.127579111605882645e-03 -3.745771944522857666e-01 5.379113554954528809e-01
3.908416256308555603e-02 -3.654116392135620117e-01 5.602099299430847168e-01
6.608722358942031860e-02 -3.599691092967987061e-01 7.675102353096008301e-01
5.392774194478988647e-02 -3.774450123310089111e-01 5.875915288925170898e-01
-8.420754969120025635e-02 -3.736618757247924805e-01 6.049884557723999023e-01
4.320412501692771912e-02 -3.605227470397949219e-01 7.910838723182678223e-01
4.382977262139320374e-02 -3.587858378887176514e-01 6.331989169120788574e-01
-2.706645242869853973e-02 -3.824054002761840820e-01 5.982258319854736328e-01
1.155187934637069702e-02 -3.828371167182922363e-01 7.144672870635986328e-01
2.407137304544448853e-02 -3.580734133720397949e-01 7.523286938667297363e-01
-2.134793251752853394e-02 -3.708675801753997803e-01 5.406402349472045898e-01
5.582367256283760071e-02 -3.586345911026000977e-01 6.463199853897094727e-01
5.636533722281455994e-02 -3.666898012161254883e-01 8.162044882774353027e-01
-3.547155857086181641e-02 -3.629829287528991699e-01 6.025884747505187988e-01
3.070022165775299072e-02 -3.770649731159210205e-01 7.939240336418151855e-01
-1.297334674745798111e-03 -3.807974159717559814e-01 7.655887603759765625e-01
6.803350150585174561e-02 -3.581821322441101074e-01 7.036656141281127930e-01
1.032143458724021912e-02 -3.826694488525390625e-01 6.166946887969970703e-01
7.611254230141639709e-03 -3.835880756378173828e-01 6.789658665657043457e-01
-8.412560820579528809e-02 -3.798764646053314209e-01 6.676824688911437988e-01
-1.660236530005931854e-02 -3.837606310844421387e-01 6.340235471725463867e-01
4.937728866934776306e-02 -3.634957671165466309e-01 5.774019360542297363e-01
-1.172060146927833557e-02 -3.840323984622955322e-01 6.756882071495056152e-01
-1.128632761538028717e-02 -3.662524223327636719e-01 8.218748569488525391e-01
9.631278365850448608e-02 -3.733630478382110596e-01 7.156957387924194336e-01
6.890984624624252319e-02 -3.609715998172760010e-01 6.191600561141967773e-01
-1.260252669453620911e-03 -3.587999045848846436e-01 7.526870965957641602e-01
6.234594061970710754e-02 -3.787135481834411621e-01 6.241727471351623535e-01
2.583415433764457703e-02 -3.590458631515502930e-01 7.735769152641296387e-01
-2.754035778343677521e-02 -3.597637712955474854e-01 6.610385179519653320e-01
-6.179295852780342102e-02 -3.810562789440155029e-01 7.283605337142944336e-01
-6.996969133615493774e-02 -3.691805899143218994e-01 5.931361913681030273e-01
-4.557366669178009033e-02 -3.819089531898498535e-01 6.006751060485839844e-01
1.561382971704006195e-02 -3.582504391670227051e-01 6.447678804397583008e-01
2.339061722159385681e-02 -3.572086691856384277e-01 6.949799656867980957e-01
-6.312142312526702881e-02 -3.632613122463226318e-01 6.772784590721130371e-01
-3.518515080213546753e-02 -3.836881220340728760e-01 6.925550103187561035e-01
-1.804405637085437775e-02 -3.608883619308471680e-01 6.145557761192321777e-01
-1.833938993513584137e-02 -3.587941229343414307e-01 7.100128531455993652e-01
-8.918866515159606934e-03 -3.835202455520629883e-01 7.074417471885681152e-01
-6.643635779619216919e-02 -3.656449019908905029e-01 6.225567460060119629e-01
4.129304364323616028e-02 -3.817111551761627197e-01 6.607267260551452637e-01
-6.101138424128293991e-03 -3.621314465999603271e-01 5.872474908828735352e-01
-7.976412773132324219e-02 -3.802527487277984619e-01 6.417185068130493164e-01
7.351945340633392334e-02 -3.780061602592468262e-01 6.501438021659851074e-01
7.443944364786148071e-02 -3.589207828044891357e-01 6.743511557579040527e-01
3.612881526350975037e-02 -3.576149046421051025e-01 7.380989193916320801e-01
5.199290812015533447e-02 -3.576712012290954590e-01 7.269117236137390137e-01
-7.377985119819641113e-02 -3.709159493446350098e-01 7.689700722694396973e-01
-7.843413949012756348e-02 -3.796674907207489014e-01 7.142290472984313965e-01
6.714466214179992676e-02 -3.788794577121734619e-01 7.033786773681640625e-01
7.465102709829807281e-03 -3.576586246490478516e-01 6.790344715118408203e-01
-5.916317924857139587e-02 -3.739522695541381836e-01 7.896216511726379395e-01
7.497835159301757812e-02 -3.700234889984130859e-01 5.795379877090454102e-01
2.960481308400630951e-02 -3.782463669776916504e-01 5.678166747093200684e-01
9.441704303026199341e-02 -3.702580034732818604e-01 7.582995891571044922e-01
6.159918755292892456e-02 -3.797893524169921875e-01 6.843408942222595215e-01
-1.521639153361320496e-02 -3.791495263576507568e-01 7.857967615127563477e-01
-5.308248475193977356e-02 -3.622171282768249512e-01 7.220783233642578125e-01
2.852185629308223724e-02 -3.576582968235015869e-01 6.606197357177734375e-01
7.847311347723007202e-02 -3.757617175579071045e-01 6.184402108192443848e-01
-5.837580189108848572e-02 -3.828288912773132324e-01 6.518710255622863770e-01
3.308669105172157288e-02 -3.797503709793090820e-01 7.598322629928588867e-01
4.381545633077621460e-02 -3.589366972446441650e-01 7.688927054405212402e-01
1.223063096404075623e-02 -3.834032714366912842e-01 6.553664207458496094e-01
6.417038291692733765e-02 -3.707872629165649414e-01 5.667116045951843262e-01
7.046613097190856934e-02 -3.590806722640991211e-01 6.574984192848205566e-01
-4.154366254806518555e-02 -3.829557299613952637e-01 7.138335108757019043e-01
-2.898943610489368439e-02 -3.824614286422729492e-01 7.353488206863403320e-01
-3.500217944383621216e-02 -3.613798320293426514e-01 6.300493478775024414e-01
-3.137698024511337280e-02 -3.839924633502960205e-01 6.708176136016845703e-01
-9.535329416394233704e-03 -3.821424841880798340e-01 5.931634902954101562e-01
-1.605262793600559235e-02 -3.599055409431457520e-01 6.323916316032409668e-01
5.771481245756149292e-02 -3.580047786235809326e-01 6.696645021438598633e-01
7.026850432157516479e-02 -3.626478314399719238e-01 7.900369167327880859e-01
1.689847372472286224e-02 -3.608915209770202637e-01 7.968545556068420410e-01
1.286517456173896790e-02 -3.788934648036956787e-01 5.626030564308166504e-01
-6.452643871307373047e-02 -3.819023668766021729e-01 6.315999627113342285e-01
-2.151371538639068604e-02 -3.812198042869567871e-01 7.595728635787963867e-01
-2.959422953426837921e-02 -3.648259341716766357e-01 5.756654143333435059e-01
-6.556622684001922607e-02 -3.647732138633728027e-01 7.393602132797241211e-01
-3.951490670442581177e-02 -3.829744160175323486e-01 6.175894737243652344e-01
5.872061010450124741e-03 -3.655541837215423584e-01 8.250886797904968262e-01
-4.116781800985336304e-02 -3.613451421260833740e-01 6.456438899040222168e-01
6.431888788938522339e-02 -3.622092306613922119e-01 5.998970270156860352e-01
-8.453056216239929199e-02 -3.754212856292724609e-01 7.407087683677673340e-01
-3.819330409169197083e-02 -3.617202937602996826e-01 7.560824751853942871e-01
2.928046323359012604e-02 -3.572857379913330078e-01 7.211899161338806152e-01
2.109650988131761551e-03 -3.591645956039428711e-01 6.300863623619079590e-01
-3.277993947267532349e-02 -3.664969801902770996e-01 8.087086081504821777e-01
5.131869576871395111e-03 -3.758640289306640625e-01 8.118676543235778809e-01
-2.479860745370388031e-02 -3.811219930648803711e-01 5.787245631217956543e-01
1.050841137766838074e-01 -3.648286163806915283e-01 6.658058762550354004e-01
-1.934398524463176727e-02 -3.616337180137634277e-01 7.831707596778869629e-01
-3.916187211871147156e-02 -3.604801297187805176e-01 6.758490204811096191e-01
-1.664255559444427490e-02 -3.831784427165985107e-01 6.139290928840637207e-01
-3.260429948568344116e-02 -3.787929117679595947e-01 5.601499676704406738e-01
-8.988810703158378601e-03 -3.822849988937377930e-01 7.415962815284729004e-01
-9.982891380786895752e-03 -3.582813441753387451e-01 6.890514492988586426e-01
1.262454502284526825e-02 -3.808588981628417969e-01 5.837976932525634766e-01
9.229576587677001953e-02 -3.630391955375671387e-01 6.365985870361328125e-01
-1.114933565258979797e-02 -3.795648813247680664e-01 5.619953274726867676e-01
-8.321306109428405762e-02 -3.798456490039825439e-01 6.867389082908630371e-01
-9.526154398918151855e-02 -3.743029534816741943e-01 7.013947367668151855e-01
-3.921363502740859985e-02 -3.796607553958892822e-01 7.714283466339111328e-01
3.313181921839714050e-02 -3.617184758186340332e-01 5.863769650459289551e-01
-4.298891872167587280e-04 -3.579031825065612793e-01 7.159628272056579590e-01
2.196686901152133942e-02 -3.654808998107910156e-01 5.550397634506225586e-01
4.201125353574752808e-02 -3.810425102710723877e-01 6.281501650810241699e-01
1.037729717791080475e-02 -3.632077574729919434e-01 5.710046291351318359e-01
8.646225184202194214e-02 -3.664420843124389648e-01 6.018408536911010742e-01
6.783692631870508194e-03 -3.591421544551849365e-01 7.678552865982055664e-01
6.979414075613021851e-02 -3.770280480384826660e-01 7.437828183174133301e-01
8.171458542346954346e-02 -3.760815560817718506e-01 7.254492640495300293e-01
-1.474741846323013306e-02 -3.591006696224212646e-01 7.395260334014892578e-01
-5.174885317683219910e-02 -3.713776767253875732e-01 5.591575503349304199e-01
-5.930051207542419434e-02 -3.623216450214385986e-01 -7.654361724853515625e-01
-6.881737709045410156e-02 -3.782117366790771484e-01 -6.150406002998352051e-01
-4.731222614645957947e-02 -3.800358474254608154e-01 -6.425168514251708984e-01
-2.978186309337615967e-02 -3.758536577224731445e-01 -8.144337534904479980e-01
8.459120988845825195e-02 -3.769281208515167236e-01 -7.649238705635070801e-01
7.873467355966567993e-02 -3.769580125808715820e-01 -6.226175427436828613e-01
3.509500250220298767e-02 -3.798384666442871094e-01 -6.486408114433288574e-01
-5.192398279905319214e-02 -3.579278886318206787e-01 -6.802183389663696289e-01
3.355975076556205750e-02 -3.806723058223724365e-01 -7.273710370063781738e-01
-1.354186832904815674e-01 -3.638962209224700928e-01 -6.560924649238586426e-01
-1.064368486404418945e-01 -3.788382411003112793e-01 -6.890074610710144043e-01
-1.141387671232223511e-01 -3.727858066558837891e-01 -5.890470147132873535e-01
7.535823434591293335e-02 -3.578733205795288086e-01 -6.838427186012268066e-01
-6.610801815986633301e-02 -3.673475980758666992e-01 -8.019275665283203125e-01
-1.181828603148460388e-01 -3.625011742115020752e-01 -6.969169378280639648e-01
7.216981798410415649e-02 -3.573532402515411377e-01 -6.565333008766174316e-01
4.134768992662429810e-02 -3.572265803813934326e-01 -5.987959504127502441e-01
1.968827843666076660e-02 -3.565621376037597656e-01 -6.679778695106506348e-01
-7.482098042964935303e-02 -3.591157793998718262e-01 -6.889626979827880859e-01
-2.564352378249168396e-02 -3.615959882736206055e-01 -7.714034914970397949e-01
8.818554133176803589e-02 -3.684469759464263916e-01 -7.963751554489135742e-01
-1.940435357391834259e-02 -3.571917712688446045e-01 -6.858759522438049316e-01
-6.394388526678085327e-02 -3.803226053714752197e-01 -6.644234657287597656e-01
5.429912358522415161e-02 -3.643101751804351807e-01 -7.932654023170471191e-01
2.308156155049800873e-02 -3.570743799209594727e-01 -6.924969553947448730e-01
1.205625757575035095e-01 -3.626946806907653809e-01 -7.285802960395812988e-01
5.365281179547309875e-02 -3.754405975341796875e-01 -5.813388228416442871e-01
-1.311922073364257812e-01 -3.752332329750061035e-01 -6.402985453605651855e-01
-1.401226669549942017e-01 -3.680069744586944580e-01 -7.300340533256530762e-01
-1.279016211628913879e-02 -3.565813004970550537e-01 -6.414862871170043945e-01
-1.197449304163455963e-02 -3.744365274906158447e-01 -5.562365055084228516e-01
6.425628811120986938e-02 -3.783120214939117432e-01 -6.354792118072509766e-01
-7.774944603443145752e-02 -3.785166740417480469e-01 -7.705405354499816895e-01
-3.666990250349044800e-02 -3.806068301200866699e-01 -6.554661989212036133e-01
-9.868044406175613403e-02 -3.774112462997436523e-01 -6.265445351600646973e-01
-1.141766682267189026e-01 -3.681972920894622803e-01 -5.728203654289245605e-01
1.145883053541183472e-01 -3.745943307876586914e-01 -6.312885880470275879e-01
1.211354136466979980e-01 -3.615565598011016846e-01 -7.090049982070922852e-01
7.632164657115936279e-02 -3.784424364566802979e-01 -7.454524636268615723e-01
1.140208020806312561e-01 -3.757238686084747314e-01 -6.561648845672607422e-01
-2.129373140633106232e-02 -3.777875602245330811e-01 -5.934623479843139648e-01
1.620784588158130646e-02 -3.582831323146820068e-01 -7.260915040969848633e-01
1.698332838714122772e-02 -3.767969310283660889e-01 -5.835351943969726562e-01
3.158539161086082458e-02 -3.778150677680969238e-01 -6.028407812118530273e-01
-1.133917048573493958e-01 -3.752186298370361328e-01 -6.110227108001708984e-01
1.110939905047416687e-01 -3.638074696063995361e-01 -5.738303661346435547e-01
6.097929179668426514e-02 -3.774186968803405762e-01 -6.140549778938293457e-01
