-1.896680295467376709e-01 1.113931927829980850e-02 -1.207276433706283569e-01
2.759917974472045898e-01 1.203831378370523453e-02 5.937584638595581055e-01
1.075893715023994446e-01 -5.838451534509658813e-02 -5.399369001388549805e-01
6.140452250838279724e-02 3.589741885662078857e-02 -4.761357307434082031e-01
-8.700642734766006470e-02 1.024164352566003799e-02 5.609741210937500000e-01
2.236124575138092041e-01 1.452919933944940567e-02 6.584345102310180664e-01
6.863796710968017578e-02 -6.471601873636245728e-02 3.578856587409973145e-01
1.107268035411834717e-01 4.572685062885284424e-02 -6.022396311163902283e-02
1.564454436302185059e-01 -3.636213392019271851e-02 -7.581264972686767578e-01
-5.344460159540176392e-02 9.287717752158641815e-03 -6.920511126518249512e-01
2.981767058372497559e-01 6.856155581772327423e-03 5.877405405044555664e-01
1.095988303422927856e-01 1.870816573500633240e-02 -7.107225060462951660e-01
1.716665178537368774e-01 2.152127772569656372e-02 6.425952911376953125e-01
3.860236406326293945e-01 -4.026718437671661377e-02 8.052788674831390381e-02
4.073010981082916260e-01 -2.851240709424018860e-02 -3.402044251561164856e-02
-8.022489398717880249e-02 -2.825285866856575012e-02 -6.671688556671142578e-01
-1.201029494404792786e-01 -5.179801955819129944e-02 -1.198782697319984436e-01
-1.313303112983703613e-01 2.648036181926727295e-02 1.519199907779693604e-01
-1.431726217269897461e-01 1.387018617242574692e-02 3.508314788341522217e-01
1.953098624944686890e-01 -6.690931320190429688e-02 2.575215995311737061e-01
-3.290972858667373657e-02 2.819865942001342773e-02 -5.259104371070861816e-01
2.161291241645812988e-01 -5.622037500143051147e-02 -4.923262298107147217e-01
2.045748531818389893e-01 3.107285872101783752e-02 -4.587278068065643311e-01
-1.169750466942787170e-01 3.032746538519859314e-02 1.031675860285758972e-01
3.189852833747863770e-01 -5.556553229689598083e-02 -1.632669419050216675e-01
2.180065363645553589e-01 -6.851429492235183716e-02 -5.443761870265007019e-02
-3.291781991720199585e-02 -3.932849317789077759e-02 6.132038831710815430e-01
1.350274235010147095e-01 3.891141712665557861e-02 -3.809238970279693604e-01
-7.071620970964431763e-02 -5.589726939797401428e-02 -3.196916580200195312e-01
1.588907241821289062e-01 -6.945566087961196899e-02 -2.088944762945175171e-01
3.003847599029541016e-01 1.639489457011222839e-02 4.848253726959228516e-01
-9.368095546960830688e-02 -3.090714290738105774e-02 -6.224232912063598633e-01
6.781487166881561279e-02 4.339531064033508301e-02 2.300688922405242920e-01
2.397512793540954590e-01 -1.147048547863960266e-02 -7.407630681991577148e-01
3.566795587539672852e-02 -6.063435226678848267e-02 4.186908602714538574e-01
1.907748281955718994e-01 -6.327160447835922241e-02 -3.837965130805969238e-01
3.860551118850708008e-02 4.438374936580657959e-02 -1.681490242481231689e-01
2.720313519239425659e-02 1.716686412692070007e-02 6.768873333930969238e-01
1.221688017249107361e-01 2.968991175293922424e-02 5.638195276260375977e-01
-1.635541617870330811e-01 -2.526823244988918304e-02 -4.335620999336242676e-01
1.451662033796310425e-01 4.420821368694305420e-02 -1.349326670169830322e-01
2.766778469085693359e-01 -6.135183572769165039e-02 2.103270888328552246e-01
3.866981565952301025e-01 -1.008669473230838776e-02 -3.138758540153503418e-01
2.867469489574432373e-01 -5.405460670590400696e-02 -3.662232160568237305e-01
-1.426957249641418457e-01 -4.159881174564361572e-02 2.355768084526062012e-01
-1.317909359931945801e-01 2.874102070927619934e-02 -3.422801196575164795e-02
-1.464742422103881836e-01 -2.739023789763450623e-02 4.066634774208068848e-01
3.434078395366668701e-01 -4.462918266654014587e-02 3.499304950237274170e-01
1.477907299995422363e-01 -7.069876044988632202e-02 -1.433873176574707031e-01
-8.024249225854873657e-02 3.493290022015571594e-02 1.597995907068252563e-01
3.795730769634246826e-01 3.086282871663570404e-03 -2.565347254276275635e-01
-7.383256405591964722e-02 3.357346355915069580e-02 -3.068942725658416748e-01
1.694101542234420776e-01 4.384405165910720825e-02 3.487509116530418396e-02
1.610330194234848022e-01 -6.411077082157135010e-02 3.886482119560241699e-01
-3.138319402933120728e-02 -4.901558160781860352e-02 5.076735615730285645e-01
2.230705320835113525e-01 3.535024821758270264e-02 3.232547342777252197e-01
1.727648079395294189e-02 -2.354054152965545654e-02 7.648274898529052734e-01
1.525753289461135864e-01 -7.136594504117965698e-02 2.672871202230453491e-02
-1.750691533088684082e-01 -1.942840591073036194e-02 -4.136636853218078613e-01
4.134231433272361755e-02 2.980691567063331604e-02 5.439596176147460938e-01
8.168598264455795288e-02 -5.024453252553939819e-02 -6.532455682754516602e-01
2.040672898292541504e-01 -6.902369111776351929e-02 1.025300025939941406e-01
-1.615412831306457520e-01 1.045932713896036148e-02 -3.877026140689849854e-01
-3.206356614828109741e-02 1.802862063050270081e-02 6.011084914207458496e-01
6.398058682680130005e-02 -6.375237554311752319e-02 -4.128136038780212402e-01
1.427976489067077637e-01 -6.738114356994628906e-02 -3.153150081634521484e-01
6.558443605899810791e-02 4.390225932002067566e-02 2.035759836435317993e-01
2.039711177349090576e-02 -2.733666822314262390e-02 -7.964696288108825684e-01
2.157934606075286865e-01 -6.717219948768615723e-02 1.900323480367660522e-01
6.042406708002090454e-02 3.163979202508926392e-02 -5.548348426818847656e-01
3.399191498756408691e-01 2.252991870045661926e-02 -6.600251793861389160e-02
-1.610100567340850830e-01 -3.611674904823303223e-02 2.245583981275558472e-01
8.342910557985305786e-02 4.604332894086837769e-02 -1.511902082711458206e-02
1.025912687182426453e-01 -6.508216261863708496e-02 -3.959002792835235596e-01
4.009231925010681152e-02 -6.717164814472198486e-02 -2.686806023120880127e-01
9.839761257171630859e-02 -7.054021954536437988e-02 -1.732017546892166138e-01
-1.731560826301574707e-01 9.145797230303287506e-03 2.501800358295440674e-01
3.271185755729675293e-01 -2.431502193212509155e-02 5.826270580291748047e-01
-4.250479489564895630e-02 -6.296458840370178223e-02 -1.476372331380844116e-01
1.227199286222457886e-02 3.265739604830741882e-02 -5.083210468292236328e-01
-9.893438965082168579e-02 -5.598561838269233704e-02 -6.450086086988449097e-02
1.879445165395736694e-01 -6.779782474040985107e-02 -2.365193068981170654e-01
-3.136130422353744507e-02 2.237838134169578552e-02 -6.079386472702026367e-01
1.018053144216537476e-01 3.691875934600830078e-02 -4.527050852775573730e-01
-1.703558266162872314e-01 -1.727594994008541107e-03 -4.408566355705261230e-01
-9.561402350664138794e-02 -5.473102908581495285e-03 -6.780798435211181641e-01
1.526703834533691406e-01 3.049379587173461914e-02 5.363729596138000488e-01
2.008188664913177490e-01 2.624064311385154724e-02 5.537829995155334473e-01
-1.161506101489067078e-01 -5.287353694438934326e-02 -1.651879400014877319e-03
4.375349730253219604e-02 5.769715644419193268e-03 7.615227103233337402e-01
-1.618821918964385986e-02 3.764987364411354065e-02 -3.519067764282226562e-01
8.700898289680480957e-02 4.239126667380332947e-02 2.788945436477661133e-01
9.259813278913497925e-02 4.559102654457092285e-02 9.201005846261978149e-02
-1.219268813729286194e-01 -4.491511732339859009e-02 2.843350768089294434e-01
6.665136665105819702e-02 4.564467072486877441e-02 7.109048962593078613e-02
2.506338357925415039e-01 3.260953351855278015e-02 3.187566101551055908e-01
5.785598233342170715e-02 1.935924589633941650e-02 6.771976947784423828e-01
1.483988165855407715e-01 -7.107672840356826782e-02 -1.050621569156646729e-01
2.049230188131332397e-01 -6.476332992315292358e-02 3.171151876449584961e-01
2.325341105461120605e-01 3.080482408404350281e-02 4.172994196414947510e-01
2.232606410980224609e-01 -6.504863500595092773e-02 2.655707299709320068e-01
6.611374020576477051e-02 -5.098749697208404541e-02 6.071492433547973633e-01
1.541864275932312012e-01 4.018173553049564362e-03 7.810194492340087891e-01
-6.393959373235702515e-02 -2.228393964469432831e-02 6.587464213371276855e-01
8.862403035163879395e-02 -6.629991531372070312e-02 -3.562380671501159668e-01
1.673250198364257812e-01 2.636167407035827637e-02 -5.882947444915771484e-01
1.460862606763839722e-01 -7.147518545389175415e-02 -4.375823959708213806e-02
-1.032449826598167419e-01 -3.715409338474273682e-02 -5.451516509056091309e-01
1.876904964447021484e-01 -2.866944298148155212e-02 7.732705473899841309e-01
3.711157143115997314e-01 1.455558184534311295e-02 3.767346218228340149e-02
1.524814069271087646e-01 1.126277353614568710e-02 7.419582605361938477e-01
-3.871018439531326294e-02 -6.076444312930107117e-02 -2.881011068820953369e-01
2.480515241622924805e-01 3.014492988586425781e-02 -3.732453584671020508e-01
1.310279369354248047e-01 -7.127434760332107544e-02 9.287858754396438599e-02
2.579095661640167236e-01 3.504985570907592773e-02 1.869220882654190063e-01
-2.085604369640350342e-01 -2.497007139027118683e-03 1.328061986714601517e-02
-4.544133692979812622e-02 -6.172903254628181458e-02 -2.106188237667083740e-01
1.886817216873168945e-01 -6.919357180595397949e-02 -1.556424647569656372e-01
2.271870970726013184e-01 2.878828905522823334e-03 -7.193204760551452637e-01
3.978643566370010376e-02 4.120475053787231445e-02 -3.230126798152923584e-01
9.085865318775177002e-02 -5.159669369459152222e-02 6.122754812240600586e-01
-1.042063906788825989e-01 3.293800354003906250e-02 7.100221514701843262e-02
6.977893412113189697e-02 -5.893012508749961853e-02 4.894033968448638916e-01
4.354020953178405762e-02 -3.776235133409500122e-02 7.167682051658630371e-01
1.067429929971694946e-01 3.016802482306957245e-03 7.934060692787170410e-01
3.248193562030792236e-01 -3.300026059150695801e-02 -5.116342306137084961e-01
5.368664115667343140e-02 -4.673321172595024109e-02 -6.820783019065856934e-01
-1.353392601013183594e-01 -4.603908583521842957e-02 1.673246920108795166e-01
3.429938256740570068e-01 2.099017426371574402e-02 1.609536707401275635e-01
4.082952439785003662e-01 -2.838863246142864227e-02 1.574333012104034424e-02
-6.180957704782485962e-02 -4.563800618052482605e-02 4.855352938175201416e-01
2.406088113784790039e-01 1.609166711568832397e-02 6.195989847183227539e-01
2.248161435127258301e-01 1.691180840134620667e-02 6.346478462219238281e-01
1.434354037046432495e-01 2.552092820405960083e-02 -6.205318570137023926e-01
3.779414296150207520e-01 1.212497893720865250e-02 6.171144917607307434e-02
2.387450039386749268e-01 3.850769624114036560e-02 -5.132724717259407043e-02
1.238800063729286194e-01 4.482379555702209473e-02 1.286601275205612183e-01
-6.557054072618484497e-02 -3.746498376131057739e-02 -6.306995749473571777e-01
1.076898649334907532e-01 3.452058881521224976e-02 -5.005623698234558105e-01
2.428448796272277832e-01 2.006777375936508179e-02 -5.549851655960083008e-01
1.332350075244903564e-01 -7.030325382947921753e-02 -1.884230673313140869e-01
8.960366249084472656e-02 -7.022790610790252686e-02 1.590995788574218750e-01
3.350386917591094971e-01 -4.395760223269462585e-02 3.980229794979095459e-01
9.166151285171508789e-02 -7.119582593441009521e-02 7.681866735219955444e-02
3.339508473873138428e-01 2.131097763776779175e-02 2.355016171932220459e-01
1.640097796916961670e-02 -6.788814812898635864e-02 1.032723039388656616e-01
2.824999988079071045e-01 2.229530364274978638e-02 -4.219975769519805908e-01
7.613745331764221191e-02 3.955651819705963135e-02 3.677157759666442871e-01
-6.769985705614089966e-02 3.546546027064323425e-02 2.057041674852371216e-01
3.063415884971618652e-01 5.341975949704647064e-03 -5.471066236495971680e-01
5.162238702178001404e-02 4.505192115902900696e-02 -1.378762274980545044e-01
-8.562427014112472534e-02 -5.801856145262718201e-02 -8.115287870168685913e-02
-7.335215061902999878e-02 2.500581741333007812e-02 -4.961429536342620850e-01
-1.206705644726753235e-01 -2.962727099657058716e-02 4.834966659545898438e-01
2.222568988800048828e-01 3.333028778433799744e-02 -3.692527711391448975e-01
1.318851262331008911e-01 4.377556592226028442e-02 1.888013333082199097e-01
3.212899267673492432e-01 2.553034201264381409e-02 1.717378944158554077e-01
-1.787452697753906250e-01 1.620554178953170776e-02 -2.070965990424156189e-02
-1.958442330360412598e-01 6.420145742595195770e-03 -1.723868399858474731e-01
2.389529049396514893e-01 3.493151813745498657e-02 -2.678276598453521729e-01
9.432291239500045776e-02 -6.769221276044845581e-02 -3.114464581012725830e-01
6.768047064542770386e-02 4.546729475259780884e-02 -1.192834824323654175e-01
3.507426083087921143e-01 1.046080794185400009e-02 3.725970387458801270e-01
3.641782402992248535e-01 1.630108803510665894e-02 -4.989404231309890747e-02
2.671659886837005615e-01 1.658375561237335205e-02 5.659287571907043457e-01
2.412852942943572998e-01 -6.054925173521041870e-02 -3.512039184570312500e-01
1.989522576332092285e-02 -6.814855337142944336e-02 -1.450443416833877563e-01
-1.647166013717651367e-01 1.420522388070821762e-02 2.288131564855575562e-01
4.163242876529693604e-03 7.930248975753784180e-04 7.496864795684814453e-01
3.534637987613677979e-01 4.161017946898937225e-03 -3.914012908935546875e-01
2.929863333702087402e-02 -5.980320274829864502e-02 -4.697370231151580811e-01
-7.356936484575271606e-02 -4.521771892905235291e-02 4.603287279605865479e-01
2.884089052677154541e-01 -5.822550132870674133e-02 2.741760909557342529e-01
-1.499597430229187012e-01 -4.113264381885528564e-02 1.947264820337295532e-01
1.177837699651718140e-02 -6.183576956391334534e-02 -3.946403861045837402e-01
5.924825742840766907e-02 -7.633483037352561951e-04 7.941421270370483398e-01
4.955611377954483032e-02 4.249657690525054932e-02 -2.828568220138549805e-01
4.121307730674743652e-01 -2.066277526319026947e-02 -7.241711765527725220e-02
2.204714119434356689e-01 -4.249203205108642578e-02 -6.546738743782043457e-01
6.454440951347351074e-02 4.334971308708190918e-02 -2.558031678199768066e-01
1.887079179286956787e-01 -5.583699420094490051e-02 5.334197878837585449e-01
1.588000506162643433e-01 -6.901099532842636108e-02 2.217527329921722412e-01
2.496241927146911621e-01 1.720774173736572266e-02 5.929244756698608398e-01
3.270785510540008545e-01 1.217741053551435471e-02 -4.132981300354003906e-01
1.573981046676635742e-01 3.096847236156463623e-02 -5.285125374794006348e-01
3.718012869358062744e-01 9.521850384771823883e-03 -2.067045569419860840e-01
8.999625593423843384e-02 2.214761078357696533e-02 6.600165963172912598e-01
3.163001239299774170e-01 2.356380224227905273e-02 2.840445935726165771e-01
7.246177643537521362e-02 2.319497987627983093e-02 -6.700878143310546875e-01
2.789049744606018066e-01 3.349997848272323608e-02 1.017061173915863037e-01
3.291846811771392822e-02 3.135023266077041626e-02 5.129036307334899902e-01
1.622962355613708496e-01 4.423788934946060181e-02 -1.460322551429271698e-02
3.522492349147796631e-01 7.750029675662517548e-03 -3.581764698028564453e-01
-4.183518141508102417e-02 -4.962563514709472656e-02 4.762685000896453857e-01
-9.877649694681167603e-02 -5.138398706912994385e-02 -3.204766511917114258e-01
1.246865838766098022e-01 4.356731474399566650e-02 2.101571112871170044e-01
2.081592977046966553e-01 -6.162652745842933655e-02 3.988387882709503174e-01
3.557448089122772217e-01 -4.935804381966590881e-02 1.090756803750991821e-01
3.277269601821899414e-01 -3.475038707256317139e-02 -4.898982942104339600e-01
1.697339117527008057e-02 4.318866133689880371e-02 1.605660617351531982e-01
-5.274558812379837036e-02 -5.986887961626052856e-02 -2.602036297321319580e-01
1.635072231292724609e-01 -6.221538409590721130e-02 -4.414111971855163574e-01
-1.490717828273773193e-01 -8.276242762804031372e-03 4.579604566097259521e-01
2.735929787158966064e-01 -6.379547715187072754e-02 1.955339685082435608e-03
-1.691159605979919434e-02 4.191384837031364441e-02 1.138711124658584595e-01
3.744570910930633545e-01 -1.110285520553588867e-03 -3.329127132892608643e-01
-4.298733919858932495e-02 -3.722999989986419678e-02 -6.719134449958801270e-01
1.633476465940475464e-01 -6.706434488296508789e-02 -3.069056570529937744e-01
2.628216445446014404e-01 1.193227153271436691e-02 6.204406023025512695e-01
2.422198951244354248e-01 -4.735706746578216553e-02 5.855630040168762207e-01
1.662276685237884521e-02 4.384210705757141113e-02 1.125594452023506165e-01
-4.326208680868148804e-02 -2.941319718956947327e-02 6.646438837051391602e-01
2.284721732139587402e-01 2.765289321541786194e-02 4.875133037567138672e-01
2.148390412330627441e-01 4.075173288583755493e-02 5.642019584774971008e-02
2.279205918312072754e-01 -6.743896007537841797e-02 1.115992367267608643e-01
-1.605850458145141602e-01 1.921322941780090332e-02 1.439121663570404053e-01
3.461933135986328125e-01 -5.194272845983505249e-02 -4.062509164214134216e-02
8.876508474349975586e-02 2.182944864034652710e-02 -6.845159530639648438e-01
-1.271414756774902344e-01 1.766774430871009827e-02 3.679711818695068359e-01
1.723179817199707031e-01 -6.597810238599777222e-02 -3.321868479251861572e-01
3.799683451652526855e-01 -3.290823474526405334e-02 -2.737687826156616211e-01
1.649604737758636475e-01 4.402704909443855286e-02 -4.646902531385421753e-02
1.748811304569244385e-01 -5.425625294446945190e-02 5.676013231277465820e-01
2.183638662099838257e-01 3.820141032338142395e-02 -2.195240557193756104e-01
2.787345647811889648e-02 3.987486660480499268e-02 -3.544858098030090332e-01
-6.175562739372253418e-03 -2.746263146400451660e-02 -7.748832106590270996e-01
1.281082481145858765e-01 -6.347221881151199341e-02 4.164714515209197998e-01
5.189772695302963257e-02 -6.974441558122634888e-02 -1.441998630762100220e-01
2.402762472629547119e-01 3.850688040256500244e-02 -8.714780211448669434e-03
2.949634194374084473e-01 -5.614899843931198120e-02 -2.843281030654907227e-01
2.017927169799804688e-02 3.839681670069694519e-02 3.514589369297027588e-01
6.442551314830780029e-02 4.079312831163406372e-02 -3.521641790866851807e-01
6.060262396931648254e-02 -7.019007951021194458e-02 9.690472483634948730e-02
9.685233235359191895e-02 -5.336623266339302063e-02 -6.161087751388549805e-01
-1.006254032254219055e-01 -7.739265915006399155e-03 5.998841524124145508e-01
3.489005863666534424e-01 -5.156305059790611267e-02 2.866152301430702209e-02
1.562630981206893921e-01 -6.837642192840576172e-02 -2.644197344779968262e-01
-1.409175097942352295e-01 -3.901229426264762878e-02 -3.799099922180175781e-01
6.655474007129669189e-02 4.042012616991996765e-02 3.387433588504791260e-01
-4.365342110395431519e-02 -5.943345651030540466e-02 -3.163496553897857666e-01
3.240499496459960938e-01 -4.745008051395416260e-02 -3.521953225135803223e-01
2.634308636188507080e-01 -6.225395947694778442e-02 2.362623214721679688e-01
-5.787911266088485718e-02 3.265963494777679443e-02 -3.857851624488830566e-01
3.686992228031158447e-01 1.082098204642534256e-02 2.519813776016235352e-01
2.525388598442077637e-01 -5.622964352369308472e-02 4.343066811561584473e-01
3.252165317535400391e-01 2.043296396732330322e-02 3.164381384849548340e-01
3.501519262790679932e-01 1.963376253843307495e-02 -9.292721003293991089e-02
7.305030524730682373e-02 -5.902417749166488647e-02 -5.212238430976867676e-01
3.186692297458648682e-01 -5.299731157720088959e-03 -5.691741108894348145e-01
2.720428407192230225e-01 3.482538089156150818e-02 1.156850811094045639e-02
3.110440075397491455e-01 -2.874937281012535095e-02 -5.742595195770263672e-01
2.669785618782043457e-01 -6.422176957130432129e-02 -6.903055310249328613e-02
2.411533892154693604e-01 -6.527370214462280273e-02 1.924265623092651367e-01
3.089662492275238037e-01 -4.815321043133735657e-02 4.269585907459259033e-01
1.935944706201553345e-01 -6.985183060169219971e-02 -6.349673867225646973e-02
7.384534925222396851e-02 -6.935519725084304810e-02 -2.204296737909317017e-01
-5.585958808660507202e-02 1.491038966923952103e-02 5.888337492942810059e-01
1.025938615202903748e-01 -2.323287725448608398e-02 -8.313149809837341309e-01
2.438005805015563965e-02 3.762267529964447021e-02 3.773554861545562744e-01
-6.255384534597396851e-02 -1.147098839282989502e-02 6.792749762535095215e-01
-1.920133084058761597e-02 3.080639615654945374e-02 -5.031223297119140625e-01
6.228741258382797241e-02 4.227995499968528748e-02 2.731286883354187012e-01
1.662178337574005127e-01 -7.049638777971267700e-02 -1.193827912211418152e-01
-3.526034206151962280e-02 -5.649192258715629578e-02 3.649578690528869629e-01
1.582607626914978027e-02 -5.009454488754272461e-02 -6.150429248809814453e-01
-1.667307317256927490e-01 8.851577527821063995e-03 2.929391562938690186e-01
7.577630877494812012e-02 -3.383171558380126953e-02 -7.887840867042541504e-01
1.278868019580841064e-01 2.989973872900009155e-04 8.022424578666687012e-01
3.212172389030456543e-01 -5.673373118042945862e-02 9.355412423610687256e-02
3.144798427820205688e-02 -1.287855952978134155e-02 7.933447957038879395e-01
1.164042651653289795e-01 1.190586667507886887e-02 7.467126250267028809e-01
3.569736182689666748e-01 -4.912073165178298950e-02 -6.265264004468917847e-02
2.157479524612426758e-02 2.510515972971916199e-02 -6.291414499282836914e-01
1.510465294122695923e-01 -6.389589607715606689e-02 -4.118795990943908691e-01
4.812106490135192871e-04 2.179091423749923706e-02 -6.505413651466369629e-01
3.023482859134674072e-01 2.384059131145477295e-02 -3.150835335254669189e-01
3.505059182643890381e-01 -4.920729994773864746e-02 -1.474109739065170288e-01
7.732708752155303955e-02 -6.341749429702758789e-02 -4.302494525909423828e-01
2.937582433223724365e-01 -3.852690383791923523e-02 -5.542851686477661133e-01
1.208198666572570801e-01 -4.271959140896797180e-02 -7.271630764007568359e-01
-1.894219219684600830e-01 3.092177212238311768e-05 2.290841042995452881e-01
1.956094801425933838e-02 -6.777489185333251953e-02 1.288741081953048706e-01
1.582717448472976685e-01 -4.926418140530586243e-02 -6.484389901161193848e-01
3.538674116134643555e-01 1.672623679041862488e-02 -1.745869070291519165e-01
-1.322561502456665039e-01 -3.131932765245437622e-02 4.297201633453369141e-01
-1.690348386764526367e-01 1.767173036932945251e-02 1.032532528042793274e-01
1.677729338407516479e-01 7.107150740921497345e-03 -7.622035145759582520e-01
3.611508011817932129e-02 -6.970284134149551392e-02 -3.353320807218551636e-02
1.153288781642913818e-01 4.574583098292350769e-02 -2.999614924192428589e-02
3.550688326358795166e-01 -5.006064847111701965e-02 -3.524306695908308029e-03
5.510580539703369141e-02 -7.770018652081489563e-03 -8.378573656082153320e-01
3.873187303543090820e-01 1.003446057438850403e-03 2.763518095016479492e-01
1.209776774048805237e-01 -5.491346493363380432e-02 5.740458369255065918e-01
-7.928843051195144653e-02 3.449539095163345337e-02 1.852074116468429565e-01
3.473654091358184814e-01 -4.644685611128807068e-02 2.920454740524291992e-01
-1.416654288768768311e-01 -3.439670428633689880e-03 -5.566475391387939453e-01
3.032195270061492920e-01 3.013407438993453979e-02 -1.756081357598304749e-02
1.503959149122238159e-01 -7.125397771596908569e-02 6.223681941628456116e-02
9.644450247287750244e-02 -6.158865243196487427e-02 -4.783071279525756836e-01
3.724816143512725830e-01 1.521183177828788757e-03 3.683718442916870117e-01
2.423343360424041748e-01 -5.617422983050346375e-02 4.560584425926208496e-01
-1.743025183677673340e-01 -7.956428453326225281e-03 3.496108949184417725e-01
2.994487285614013672e-01 2.970148622989654541e-02 1.582862585783004761e-01
1.157011091709136963e-01 -7.101150602102279663e-02 1.217409968376159668e-01
3.135551214218139648e-01 2.822503447532653809e-02 7.221081852912902832e-02
-8.411999791860580444e-02 -5.610816180706024170e-02 1.691386997699737549e-01
4.878160357475280762e-02 3.532827273011207581e-02 4.527871906757354736e-01
-4.700269550085067749e-02 3.933146223425865173e-02 -1.765435636043548584e-01
2.947242856025695801e-01 -5.463796108961105347e-02 -3.242043852806091309e-01
1.213565468788146973e-01 -6.117312610149383545e-02 -4.862962663173675537e-01
2.091948390007019043e-01 2.942306175827980042e-02 -4.809766113758087158e-01
3.358459472656250000e-01 -8.296223357319831848e-03 5.654044151306152344e-01
1.907870322465896606e-01 2.866596356034278870e-02 5.292125940322875977e-01
4.207115247845649719e-02 4.539148509502410889e-02 3.093468397855758667e-02
-4.615397006273269653e-02 -6.114295497536659241e-02 1.758423298597335815e-01
-6.792788952589035034e-02 -3.517087176442146301e-02 5.805152058601379395e-01
8.428981155157089233e-02 4.294557869434356689e-02 2.563683390617370605e-01
1.019600853323936462e-01 -5.394387245178222656e-02 5.848914384841918945e-01
1.324255168437957764e-01 -5.731588602066040039e-02 5.367880463600158691e-01
4.011601209640502930e-02 -2.666902542114257812e-02 7.729474902153015137e-01
7.412628829479217529e-02 -5.765622854232788086e-02 -5.459284782409667969e-01
-2.760467678308486938e-02 -4.549866542220115662e-02 5.599374771118164062e-01
-1.088471934199333191e-01 2.126735076308250427e-02 3.837824463844299316e-01
8.068159222602844238e-02 -3.710638731718063354e-02 7.423442006111145020e-01
2.177313119173049927e-01 -6.458826363086700439e-02 2.963936626911163330e-01
1.782220005989074707e-01 -4.063668102025985718e-02 -7.140267491340637207e-01
2.706180512905120850e-01 3.495824337005615234e-02 4.508392885327339172e-02
-6.328574568033218384e-02 -3.973948955535888672e-02 5.501528382301330566e-01
3.131611943244934082e-01 2.063765376806259155e-02 3.700694143772125244e-01
2.650116384029388428e-02 -4.509255662560462952e-02 -6.814842224121093750e-01
1.884847283363342285e-01 2.778985351324081421e-02 -5.417445898056030273e-01
-2.696984261274337769e-02 2.792578190565109253e-02 4.895052909851074219e-01
2.740935683250427246e-01 3.306562453508377075e-02 -1.572664082050323486e-01
2.944137156009674072e-01 2.985202521085739136e-02 1.952090561389923096e-01
-6.653556972742080688e-02 -6.005296856164932251e-02 8.767113834619522095e-02
-3.479429334402084351e-02 -4.697299003601074219e-02 -5.855880975723266602e-01
1.829732954502105713e-01 -6.863401830196380615e-02 2.020046114921569824e-01
-2.039700001478195190e-02 -6.465157866477966309e-02 1.295912116765975952e-01
3.105648607015609741e-02 -3.514709323644638062e-02 -7.639440298080444336e-01
-1.738655269145965576e-01 -2.524645626544952393e-02 -3.797053098678588867e-01
2.943730950355529785e-01 -5.448874086141586304e-02 3.536430001258850098e-01
1.970989555120468140e-01 2.282276749610900879e-02 -5.981261134147644043e-01
4.815816134214401245e-02 1.322897430509328842e-02 -7.534508705139160156e-01
2.632798254489898682e-01 -9.852263145148754120e-03 7.217414975166320801e-01
1.936187446117401123e-01 -3.291650488972663879e-02 7.501437664031982422e-01
-1.338915824890136719e-01 1.669505611062049866e-02 -4.313146770000457764e-01
3.629270493984222412e-01 -4.410532861948013306e-02 -1.994608044624328613e-01
3.470894396305084229e-01 -4.097726941108703613e-02 -3.518007695674896240e-01
2.383151948451995850e-01 -6.571740657091140747e-02 -1.707790791988372803e-01
1.783579736948013306e-01 3.263901919126510620e-02 4.737546145915985107e-01
2.839413881301879883e-01 -2.243674173951148987e-02 -6.576991677284240723e-01
-7.046751677989959717e-03 4.338630288839340210e-02 -3.960293531417846680e-02
2.334531247615814209e-01 2.601644769310951233e-02 -4.903815984725952148e-01
5.523229390382766724e-02 2.037368342280387878e-02 -6.962424516677856445e-01
6.353834271430969238e-02 -6.000435352325439453e-02 4.636697173118591309e-01
-3.748481720685958862e-02 7.916134782135486603e-03 6.677440404891967773e-01
-3.887685388326644897e-02 -4.642991721630096436e-02 5.270271301269531250e-01
7.189252972602844238e-02 -4.412082955241203308e-02 6.838630437850952148e-01
4.487669840455055237e-02 -2.563316002488136292e-02 -8.156943917274475098e-01
-5.172172933816909790e-02 -5.915385484695434570e-02 2.308356612920761108e-01
-2.514097839593887329e-02 4.220525175333023071e-02 -2.370236814022064209e-02
-1.394604146480560303e-01 -3.787713497877120972e-02 -4.052305221557617188e-01
-8.296703547239303589e-02 -3.778626397252082825e-02 -5.908155441284179688e-01
3.502874970436096191e-01 -4.897639900445938110e-02 1.975823342800140381e-01
3.875245749950408936e-01 -3.973993659019470215e-02 -2.464436739683151245e-02
-9.702914208173751831e-02 3.207097202539443970e-02 -2.468619495630264282e-01
9.316426515579223633e-02 7.078791968524456024e-03 7.738503217697143555e-01
1.173932477831840515e-01 3.530365601181983948e-02 4.669960141181945801e-01
-9.576367586851119995e-02 3.476053476333618164e-02 -6.415800005197525024e-02
1.531963646411895752e-01 1.452500838786363602e-02 -7.240741252899169922e-01
3.681731224060058594e-01 -4.658897221088409424e-02 2.061567083001136780e-02
2.953402101993560791e-01 2.393392845988273621e-02 -3.437282741069793701e-01
3.073284327983856201e-01 -6.038276944309473038e-03 -6.014094352722167969e-01
-4.803278297185897827e-02 -6.221339851617813110e-02 9.807728976011276245e-02
-2.278082072734832764e-02 -6.554109603166580200e-02 1.781258732080459595e-03
2.466911077499389648e-01 2.542211860418319702e-02 -4.698421359062194824e-01
-1.081986352801322937e-01 -4.463422298431396484e-02 3.530015349388122559e-01
3.090493381023406982e-03 -3.413608670234680176e-02 -7.491296529769897461e-01
2.052076160907745361e-03 -6.757708638906478882e-02 -5.471879988908767700e-02
5.145040899515151978e-02 -6.485395133495330811e-02 -3.696995973587036133e-01
5.234362557530403137e-02 -7.022981345653533936e-02 5.177388712763786316e-02
1.614831686019897461e-01 -7.062685489654541016e-02 1.104052066802978516e-01
-3.831396251916885376e-02 -6.367089599370956421e-02 -1.211784109473228455e-01
-1.426447927951812744e-02 -6.014823168516159058e-02 -3.844380378723144531e-01
-8.007157593965530396e-02 3.146991133689880371e-02 -3.453308343887329102e-01
3.474680781364440918e-01 -4.315588995814323425e-02 -3.169427812099456787e-01
1.929384768009185791e-01 3.723508119583129883e-02 3.399293720722198486e-01
3.022658079862594604e-02 4.223265126347541809e-02 -2.721792161464691162e-01
1.632536202669143677e-01 8.382247760891914368e-04 -7.941691279411315918e-01
3.492347300052642822e-01 2.077455073595046997e-02 6.550385616719722748e-03
1.119600534439086914e-01 2.322013303637504578e-02 -6.645672917366027832e-01
-1.236273273825645447e-01 2.449587360024452209e-02 -3.349613845348358154e-01
2.604565918445587158e-01 3.015358000993728638e-02 -3.315427005290985107e-01
-1.870681941509246826e-01 -1.714513823390007019e-02 2.615874707698822021e-01
-7.087252289056777954e-02 -5.994109064340591431e-02 -1.075450181961059570e-01
-4.444961994886398315e-02 2.862618118524551392e-02 4.443870782852172852e-01
-1.179305836558341980e-01 -5.237519368529319763e-02 2.396645769476890564e-02
-8.631306141614913940e-02 -5.156143754720687866e-02 -3.726882338523864746e-01
3.702943623065948486e-01 1.367670763283967972e-02 1.420547068119049072e-01
-2.029685676097869873e-02 -3.284712135791778564e-02 -7.329531908035278320e-01
-1.547458767890930176e-02 4.251211136579513550e-02 -1.119608432054519653e-01
-4.225837439298629761e-02 -6.236598268151283264e-02 1.332251727581024170e-01
-4.915965348482131958e-02 -5.567597597837448120e-02 -4.036680757999420166e-01
-1.913235783576965332e-01 8.687044493854045868e-03 8.954145759344100952e-02
5.626816302537918091e-02 3.771336376667022705e-02 -4.335972964763641357e-01
-1.048954501748085022e-01 3.145778924226760864e-02 1.519530713558197021e-01
2.392388880252838135e-01 -2.555311657488346100e-03 7.381663322448730469e-01
1.586436927318572998e-01 -7.113901525735855103e-02 -6.149739399552345276e-02
-6.907541304826736450e-02 -5.870225280523300171e-02 -2.182098180055618286e-01
-1.234153136610984802e-01 -4.924560710787773132e-02 -2.306064069271087646e-01
-2.482146769762039185e-02 -6.166518479585647583e-02 2.510788440704345703e-01
2.287105917930603027e-01 1.949619874358177185e-02 -5.882976651191711426e-01
1.727751195430755615e-01 -7.057537883520126343e-02 -8.515847474336624146e-02
2.872415184974670410e-01 -5.020905658602714539e-02 4.577977359294891357e-01
3.621777892112731934e-01 8.330148644745349884e-03 -2.964918017387390137e-01
-9.236001223325729370e-02 -5.674492195248603821e-02 4.402842745184898376e-02
8.864427357912063599e-02 4.389243945479393005e-02 2.132750898599624634e-01
-1.809994280338287354e-01 2.197783440351486206e-03 -3.613394200801849365e-01
-8.902951329946517944e-02 3.572994470596313477e-02 -1.827428676187992096e-02
1.206083968281745911e-01 -7.105250656604766846e-02 -1.388833373785018921e-01
1.876855492591857910e-01 4.216077923774719238e-02 1.269071400165557861e-01
5.196461826562881470e-02 4.561112076044082642e-02 -6.361474841833114624e-02
2.880439162254333496e-01 -5.319926887750625610e-02 4.023335874080657959e-01
4.145570397377014160e-01 -1.919209025800228119e-02 7.108575105667114258e-02
-1.282423138618469238e-01 -3.013109415769577026e-02 4.542733430862426758e-01
1.096042096614837646e-01 -6.246465072035789490e-02 4.381365776062011719e-01
2.767060995101928711e-01 3.002669289708137512e-02 2.931525111198425293e-01
-1.223459169268608093e-01 -4.972492158412933350e-02 1.405324637889862061e-01
-7.382496446371078491e-02 3.570009768009185791e-02 -2.235838919878005981e-01
-7.463897019624710083e-02 -5.959786102175712585e-02 1.221994776278734207e-02
2.229507863521575928e-01 7.355044595897197723e-03 7.120683789253234863e-01
1.013582050800323486e-01 -3.488892689347267151e-02 7.618925571441650391e-01
2.000153958797454834e-01 -6.835252046585083008e-02 -1.733721792697906494e-01
-6.417382508516311646e-02 -6.049569696187973022e-02 -1.418559849262237549e-01
1.313784569501876831e-01 4.343820363283157349e-02 -2.176521569490432739e-01
8.443433046340942383e-02 -6.066381186246871948e-02 4.658438265323638916e-01
2.079817205667495728e-01 2.923974767327308655e-02 4.954611361026763916e-01
1.264517754316329956e-01 -6.851345300674438477e-02 -2.812778353691101074e-01
-1.115175560116767883e-01 2.312871813774108887e-02 -4.144891202449798584e-01
-3.667660802602767944e-02 2.384971454739570618e-02 5.296239852905273438e-01
1.454420834779739380e-01 -5.700676888227462769e-02 -5.521827936172485352e-01
6.362831592559814453e-02 3.350027650594711304e-02 4.966486394405364990e-01
2.638103067874908447e-01 -5.702194571495056152e-02 -3.739774227142333984e-01
-5.474989861249923706e-02 -5.755694955587387085e-02 -3.342432081699371338e-01
1.776440888643264771e-01 -5.828670784831047058e-02 5.011889338493347168e-01
-1.352350115776062012e-01 2.768355235457420349e-02 3.595154732465744019e-02
2.184692770242691040e-02 -6.369307637214660645e-02 -3.599915504455566406e-01
3.165618777275085449e-01 -4.202936217188835144e-02 4.873445630073547363e-01
-4.675178974866867065e-02 4.029536992311477661e-02 -8.174915611743927002e-02
1.514941453933715820e-03 -3.587797656655311584e-02 6.890957355499267578e-01
8.559931814670562744e-02 4.509638622403144836e-02 1.387728899717330933e-01
-1.369901001453399658e-01 -4.857710376381874084e-02 -5.098140612244606018e-02
1.191402226686477661e-01 1.622096821665763855e-02 7.147727608680725098e-01
1.300545930862426758e-01 9.024730883538722992e-03 7.626447677612304688e-01
4.294645786285400391e-02 3.801506012678146362e-02 3.875065147876739502e-01
3.202322125434875488e-01 1.315076928585767746e-02 4.629937112331390381e-01
-1.074525490403175354e-01 2.477707341313362122e-02 3.282743394374847412e-01
-1.021741107106208801e-01 -5.160691961646080017e-02 2.207509577274322510e-01
2.372815012931823730e-01 3.509720042347908020e-02 2.852504253387451172e-01
-1.870469748973846436e-01 -3.209323808550834656e-02 3.614759445190429688e-02
7.598698139190673828e-03 -5.805399641394615173e-02 4.285781979560852051e-01
9.905030578374862671e-02 -4.554775729775428772e-02 -7.046858072280883789e-01
-1.542738378047943115e-01 -4.407433047890663147e-02 3.374811261892318726e-03
-2.832970768213272095e-02 5.826371721923351288e-03 -7.434490919113159180e-01
-7.423477619886398315e-02 -4.321942105889320374e-02 -5.517528057098388672e-01
1.881050467491149902e-01 4.155378788709640503e-02 1.711230427026748657e-01
1.624268293380737305e-01 4.354761540889739990e-02 1.256507784128189087e-01
1.294027119874954224e-01 -6.629476696252822876e-02 3.404507637023925781e-01
3.306616544723510742e-01 -5.219403654336929321e-02 -2.054822295904159546e-01
1.662571877241134644e-01 2.673068642616271973e-02 5.826763510704040527e-01
4.297436401247978210e-02 -6.541637331247329712e-02 3.014528751373291016e-01
8.289267867803573608e-02 -7.103139162063598633e-02 -1.052011400461196899e-01
-1.448045372962951660e-01 -4.072642698884010315e-02 -3.254107832908630371e-01
-4.632972925901412964e-02 3.197076916694641113e-02 3.761358857154846191e-01
1.553657054901123047e-01 3.623830527067184448e-02 4.222243428230285645e-01
5.300631746649742126e-02 -5.713816732168197632e-02 5.069275498390197754e-01
9.700236469507217407e-02 -7.785964291542768478e-03 8.199012875556945801e-01
2.631440162658691406e-01 -3.877595439553260803e-02 6.355324983596801758e-01
5.886190384626388550e-02 1.001974474638700485e-02 -7.770457863807678223e-01
-1.765529215335845947e-01 -3.260820358991622925e-02 1.670619398355484009e-01
4.208432883024215698e-02 2.745249494910240173e-02 -6.105824708938598633e-01
-5.271185189485549927e-02 3.228709474205970764e-02 3.523117303848266602e-01
8.034206926822662354e-02 -5.366977676749229431e-02 5.802443027496337891e-01
-3.319167345762252808e-02 -1.081451587378978729e-02 7.253923416137695312e-01
1.205354928970336914e-04 -6.623335927724838257e-02 -1.906452775001525879e-01
2.465831935405731201e-01 -6.613816320896148682e-02 9.193320572376251221e-02
-2.084821760654449463e-01 -1.812552288174629211e-02 -7.289154082536697388e-02
-3.088792413473129272e-02 3.447232022881507874e-02 -4.068660140037536621e-01
2.059971839189529419e-01 4.156523570418357849e-02 1.453427691012620926e-02
4.063913524150848389e-01 -2.274475246667861938e-02 -1.461463123559951782e-01
2.760151326656341553e-01 3.427037969231605530e-02 -9.207803755998611450e-03
9.408559650182723999e-02 4.596715793013572693e-02 -4.452629014849662781e-02
2.917405962944030762e-01 -3.468758985400199890e-02 -5.877568125724792480e-01
2.375528216361999512e-01 2.369231358170509338e-02 5.333684086799621582e-01
-6.127870827913284302e-02 1.671031489968299866e-02 -6.216904520988464355e-01
1.868218928575515747e-01 -7.025875151157379150e-02 3.864766284823417664e-02
7.394792139530181885e-02 3.266335651278495789e-02 5.154967308044433594e-01
-1.416894793510437012e-02 3.855955600738525391e-02 -3.275073766708374023e-01
7.047528028488159180e-02 -6.690838187932968140e-02 2.909497618675231934e-01
1.500061005353927612e-01 4.037611186504364014e-02 -3.168102204799652100e-01
1.384471803903579712e-01 4.518806934356689453e-02 -5.022731609642505646e-03
-1.894263923168182373e-02 -4.386479407548904419e-02 5.927309393882751465e-01
-9.230112284421920776e-02 -5.621252208948135376e-02 -1.640637665987014771e-01
-1.050732284784317017e-02 -5.991980805993080139e-02 3.472029268741607666e-01
-2.351035922765731812e-02 3.954927623271942139e-02 2.178915739059448242e-01
1.766294240951538086e-03 3.715176507830619812e-02 -3.977865278720855713e-01
7.291644811630249023e-03 4.106022790074348450e-02 -2.815751731395721436e-01
2.728573381900787354e-01 2.508731186389923096e-02 -4.024913311004638672e-01
-7.324547320604324341e-02 -5.851827934384346008e-02 -1.972275227308273315e-01
-4.021441191434860229e-02 -3.088790923357009888e-02 -7.190487980842590332e-01
3.990097641944885254e-01 -2.436368353664875031e-02 2.637535929679870605e-01
1.060948371887207031e-01 1.868319138884544373e-02 6.946345567703247070e-01
-2.765914052724838257e-02 -6.493778526782989502e-02 -9.215867519378662109e-02
1.438107192516326904e-01 -6.833743304014205933e-03 8.163529634475708008e-01
1.837912201881408691e-02 4.233938828110694885e-02 2.098549306392669678e-01
-2.020348608493804932e-01 -1.782012917101383209e-02 -2.210246026515960693e-01
1.202362626791000366e-01 -3.532668575644493103e-02 -7.788922786712646484e-01
3.301851749420166016e-01 -4.293508827686309814e-02 4.313069581985473633e-01
1.125607788562774658e-01 2.105953544378280640e-02 -6.872492432594299316e-01
-1.983813047409057617e-01 -2.686430513858795166e-02 -4.461915791034698486e-02
-1.519036591053009033e-01 -1.187609694898128510e-02 -5.316632986068725586e-01
-1.415470838546752930e-01 -4.552566260099411011e-02 1.277571469545364380e-01
3.409998118877410889e-01 -4.825053364038467407e-02 -2.503634691238403320e-01
-2.613952010869979858e-02 3.686563670635223389e-02 3.042336702346801758e-01
1.807388365268707275e-01 -4.976517334580421448e-02 -6.255521774291992188e-01
2.517158091068267822e-01 -5.482389405369758606e-02 -4.485604763031005859e-01
-9.118678420782089233e-02 -1.736910827457904816e-02 6.161994934082031250e-01
-5.319513380527496338e-03 -3.984975442290306091e-02 -6.997782588005065918e-01
6.294569373130798340e-02 4.385379329323768616e-02 -2.302036434412002563e-01
1.858113110065460205e-01 -6.250166893005371094e-02 4.068472087383270264e-01
3.810338973999023438e-01 -3.786053508520126343e-02 -1.888071000576019287e-01
1.588220447301864624e-01 -2.848975732922554016e-02 -7.953586578369140625e-01
-5.886516720056533813e-02 3.513908013701438904e-02 2.550482749938964844e-01
-4.685149341821670532e-02 -6.146755069494247437e-02 1.550396233797073364e-01
1.914355456829071045e-01 -4.530782625079154968e-02 -6.624081730842590332e-01
-1.915965974330902100e-01 -2.870326489210128784e-02 -1.730129271745681763e-01
-1.218641027808189392e-01 -3.903082013130187988e-02 3.841161727905273438e-01
8.374770730733871460e-02 3.131063655018806458e-02 5.404568910598754883e-01
2.882210016250610352e-01 3.234532475471496582e-02 7.898305356502532959e-02
-5.774717777967453003e-02 -5.909301713109016418e-02 2.032757103443145752e-01
2.534160614013671875e-01 -6.573703885078430176e-02 -4.649459570646286011e-02
3.447093069553375244e-03 -6.540269404649734497e-02 -2.501198351383209229e-01
-3.042485564947128296e-02 -1.048081181943416595e-02 -7.826775908470153809e-01
-2.091889083385467529e-02 -3.757416084408760071e-02 6.467899680137634277e-01
-1.401895284652709961e-01 8.646381087601184845e-03 4.165129363536834717e-01
-7.357228547334671021e-02 9.306111373007297516e-03 -6.593108773231506348e-01
2.924163639545440674e-01 3.114628791809082031e-02 -1.056298166513442993e-01
3.261676132678985596e-01 -5.073072388768196106e-02 3.071634173393249512e-01
-2.764233201742172241e-02 1.903919503092765808e-02 -6.488057374954223633e-01
1.600513905286788940e-01 -1.406206469982862473e-02 -8.222980499267578125e-01
-4.899410158395767212e-02 2.029677852988243103e-02 5.493813157081604004e-01
1.837759464979171753e-02 4.425251483917236328e-02 7.997810095548629761e-02
1.307027637958526611e-01 1.670074835419654846e-02 -7.199451327323913574e-01
-1.389304697513580322e-01 -4.805310070514678955e-02 -7.622410356998443604e-02
-1.661281585693359375e-01 -3.961516544222831726e-02 -1.607737690210342407e-01
-5.368889123201370239e-02 -4.580579325556755066e-02 -5.647462010383605957e-01
-1.696380078792572021e-01 -3.493343293666839600e-02 -2.703162431716918945e-01
-1.383561193943023682e-01 -4.738984629511833191e-02 -1.563640832901000977e-01
-6.308319419622421265e-02 3.800401091575622559e-02 9.969747811555862427e-02
-2.932140976190567017e-02 -6.408064067363739014e-02 -1.660193353891372681e-01
2.983092665672302246e-01 -2.547770366072654724e-02 -6.182579994201660156e-01
-9.246946126222610474e-02 3.493044525384902954e-02 -1.125346794724464417e-01
-9.704246371984481812e-02 3.375615924596786499e-02 -1.592688113451004028e-01
2.750914096832275391e-01 3.856456838548183441e-03 -6.318266391754150391e-01
3.889165818691253662e-01 3.629556857049465179e-03 -1.663641631603240967e-01
-1.860046088695526123e-01 -2.206711843609809875e-02 2.366625666618347168e-01
2.152658998966217041e-01 3.261911496520042419e-02 -4.036933183670043945e-01
4.446906596422195435e-02 4.517272114753723145e-02 -1.084519773721694946e-01
2.401019930839538574e-01 2.859756723046302795e-02 -4.286270737648010254e-01
5.748045071959495544e-02 -7.017114758491516113e-02 -1.224178001284599304e-01
2.207716852426528931e-01 -5.353914201259613037e-02 5.340517163276672363e-01
7.836865633726119995e-02 -6.245053559541702271e-02 -4.536516666412353516e-01
3.393605351448059082e-01 1.821023970842361450e-02 -2.465515583753585815e-01
-1.390703320503234863e-01 -3.409504517912864685e-02 -4.566519856452941895e-01
7.893823832273483276e-02 -1.984452456235885620e-02 -8.386722207069396973e-01
1.913387328386306763e-02 -5.059119686484336853e-02 5.679097175598144531e-01
2.129426002502441406e-01 2.306426316499710083e-02 5.812225341796875000e-01
2.029174566268920898e-01 4.044229909777641296e-02 -1.690226197242736816e-01
2.334124147891998291e-01 3.812871873378753662e-02 1.591679900884628296e-01
6.196554005146026611e-02 2.872038632631301880e-02 -5.996829271316528320e-01
-1.053822264075279236e-01 -5.283153802156448364e-02 1.528555303812026978e-01
3.144701123237609863e-01 -2.319572493433952332e-02 6.176095604896545410e-01
-1.524827778339385986e-01 1.155201252549886703e-02 -4.184040427207946777e-01
6.712226569652557373e-02 -5.362137034535408020e-02 -6.052249073982238770e-01
5.131318047642707825e-02 -6.932862848043441772e-02 1.387456506490707397e-01
-6.192436069250106812e-02 -3.489675372838973999e-02 -6.584637761116027832e-01
1.723018884658813477e-01 -3.352412953972816467e-02 7.593622207641601562e-01
1.090804189443588257e-01 -1.111637800931930542e-03 -8.255239725112915039e-01
3.763607144355773926e-02 4.354528337717056274e-02 -2.197320908308029175e-01
3.596763312816619873e-01 -1.548958197236061096e-02 -4.526833593845367432e-01
-1.248295530676841736e-01 2.691722288727760315e-02 1.856999397277832031e-01
3.641422092914581299e-01 1.403976511210203171e-02 2.062532156705856323e-01
1.313314735889434814e-01 4.484539106488227844e-02 -1.186615824699401855e-01
1.552255749702453613e-01 4.428732395172119141e-02 7.837571203708648682e-02
1.546708047389984131e-01 -4.657646641135215759e-02 -6.788114309310913086e-01
-9.990596026182174683e-02 1.007549557834863663e-02 5.308104753494262695e-01
1.343562453985214233e-02 -5.516226962208747864e-02 -5.377573370933532715e-01
1.033933088183403015e-01 3.869590535759925842e-02 -4.092117547988891602e-01
2.950048744678497314e-01 -6.091634556651115417e-02 7.612159103155136108e-02
6.563100218772888184e-02 2.933275327086448669e-02 5.649486184120178223e-01
8.232081681489944458e-02 3.091158345341682434e-02 -5.688340067863464355e-01
2.473809719085693359e-01 2.392472326755523682e-02 5.106340050697326660e-01
-5.032075196504592896e-02 -6.275544315576553345e-02 -4.212917760014533997e-02
3.261723220348358154e-01 2.495448663830757141e-02 1.483251154422760010e-01
3.988879024982452393e-01 -2.828769199550151825e-02 2.270462065935134888e-01
-1.611590385437011719e-01 -4.212862253189086914e-02 -8.566983789205551147e-02
1.048082709312438965e-01 4.120438545942306519e-02 -3.353345990180969238e-01
2.519935965538024902e-01 -1.008305326104164124e-02 -7.208513617515563965e-01
-1.803235709667205811e-02 1.387740764766931534e-02 6.559005379676818848e-01
1.214571446180343628e-01 3.520619869232177734e-02 -4.798408150672912598e-01
7.425977289676666260e-02 -4.471147060394287109e-02 -7.094401717185974121e-01
1.350400447845458984e-01 3.304115310311317444e-02 -5.122851133346557617e-01
-2.829333394765853882e-02 -5.963868647813796997e-02 -3.611829280853271484e-01
2.602097690105438232e-01 -4.812210053205490112e-02 -5.303365588188171387e-01
1.526202857494354248e-01 -7.140169292688369751e-02 -2.091839537024497986e-02
-1.402897834777832031e-01 1.984503492712974548e-02 -3.507026135921478271e-01
-4.890792816877365112e-02 -5.048140883445739746e-02 4.456976354122161865e-01
2.831133604049682617e-01 7.902373559772968292e-03 -5.871557593345642090e-01
2.527258098125457764e-01 -4.292979091405868530e-02 -6.011169552803039551e-01
2.165027707815170288e-01 -4.784166067838668823e-02 -6.073530316352844238e-01
3.269612789154052734e-01 1.801242679357528687e-02 -3.219144642353057861e-01
2.414519190788269043e-01 2.043649926781654358e-02 5.699386596679687500e-01
5.971580743789672852e-02 -7.043320685625076294e-02 -9.958171099424362183e-02
2.148502469062805176e-01 -4.016007855534553528e-02 6.864488124847412109e-01
1.312204003334045410e-01 4.225121811032295227e-02 -2.733736932277679443e-01
2.761218249797821045e-01 -6.115495786070823669e-02 -2.027600407600402832e-01
-7.710181921720504761e-02 2.332653850317001343e-02 4.496648609638214111e-01
2.537041306495666504e-01 -3.795856982469558716e-02 -6.406517028808593750e-01
