-2.314932644367218018e-01 -1.111739724874496460e-01 6.557890176773071289e-01
-2.383495718240737915e-01 -1.809909939765930176e-03 1.373951137065887451e-01
-7.917768508195877075e-02 -3.045885562896728516e-01 -1.353379786014556885e-01
-2.392712831497192383e-01 -2.674379646778106689e-01 2.494244277477264404e-01
-2.840443849563598633e-01 -1.343704760074615479e-01 3.867958486080169678e-01
-1.043488532304763794e-01 -3.384021520614624023e-01 -2.047242820262908936e-01
-1.800565570592880249e-01 -3.298652768135070801e-01 -2.864891588687896729e-01
-8.595997095108032227e-02 -1.733588427305221558e-01 7.628555595874786377e-02
-2.204489856958389282e-01 -3.063058853149414062e-01 3.238850086927413940e-02
-1.434819102287292480e-01 -6.950192898511886597e-02 2.354395389556884766e-01
-9.023602306842803955e-02 -2.443993687629699707e-01 -2.891477942466735840e-01
-1.499396562576293945e-01 -2.225200086832046509e-01 -5.774939656257629395e-01
-2.816720008850097656e-01 -1.215730160474777222e-01 4.233407676219940186e-01
-1.650587916374206543e-01 -4.551340639591217041e-02 2.292706966400146484e-01
-2.112883478403091431e-01 -2.081650048494338989e-01 -6.253682374954223633e-01
-3.004272282123565674e-01 -1.145452186465263367e-01 -2.766800522804260254e-01
-1.346262544393539429e-01 -2.966969609260559082e-01 5.420041680335998535e-01
-1.166820377111434937e-01 -3.169307112693786621e-01 4.470515847206115723e-01
-2.875523567199707031e-01 -2.103948593139648438e-02 -6.776970624923706055e-02
-3.079757690429687500e-01 -6.610289216041564941e-02 -3.670336306095123291e-02
-1.827359348535537720e-01 -1.118239164352416992e-01 -5.090023875236511230e-01
-9.120390564203262329e-02 -3.433889746665954590e-01 1.093057096004486084e-01
-1.641504913568496704e-01 -3.508195877075195312e-01 -6.375864148139953613e-03
-2.291320711374282837e-01 -2.635057270526885986e-01 -4.443564414978027344e-01
-2.457562834024429321e-01 -1.069829910993576050e-01 -5.489379763603210449e-01
-2.799332439899444580e-01 -1.724024862051010132e-01 3.305727243423461914e-01
-1.103276982903480530e-01 -3.486656248569488525e-01 -1.532042622566223145e-01
-2.466982305049896240e-01 -1.667441427707672119e-02 -1.983763873577117920e-01
-7.012983411550521851e-02 -2.928846478462219238e-01 6.580717861652374268e-03
-8.592424541711807251e-02 -1.766589879989624023e-01 2.682305574417114258e-01
-2.257523387670516968e-01 -6.321801990270614624e-02 5.884004831314086914e-01
-8.103327453136444092e-02 -1.865389198064804077e-01 1.717779636383056641e-01
-1.296244412660598755e-01 -3.580732941627502441e-01 9.582337737083435059e-02
-2.050098031759262085e-01 -2.187162637710571289e-02 -1.009860262274742126e-01
-1.773231625556945801e-01 -3.142060041427612305e-01 3.821565210819244385e-01
-2.372394204139709473e-01 -2.233745157718658447e-02 -2.354503571987152100e-01
-1.664590388536453247e-01 -6.952069699764251709e-02 5.029275417327880859e-01
-2.959500849246978760e-01 -1.698920130729675293e-01 -1.600108146667480469e-01
-3.078076243400573730e-01 -8.679080754518508911e-02 -1.386131048202514648e-01
-1.422871798276901245e-01 -8.593911677598953247e-02 4.307577908039093018e-01
-1.925849914550781250e-01 -5.832070112228393555e-02 5.469831228256225586e-01
-1.740830987691879272e-01 -3.428105711936950684e-01 -1.546128094196319580e-01
-1.993419826030731201e-01 -1.229676753282546997e-01 7.075734734535217285e-01
-2.786236405372619629e-01 -4.314716160297393799e-02 3.678275644779205322e-01
-9.828239679336547852e-02 -3.244955539703369141e-01 3.536739647388458252e-01
-2.652248144149780273e-01 -4.874959588050842285e-03 1.552232801914215088e-01
-1.424264907836914062e-01 -1.511280089616775513e-01 6.708632707595825195e-01
-2.292491048574447632e-01 -3.531515598297119141e-03 7.867896556854248047e-02
-2.266585081815719604e-01 -1.186133548617362976e-01 -5.816517472267150879e-01
-1.300296038389205933e-01 -8.768555521965026855e-02 6.342224776744842529e-02
-2.408915311098098755e-01 -2.821086645126342773e-01 -1.182108893990516663e-01
-1.887552440166473389e-01 -3.608012199401855469e-02 3.862803280353546143e-01
-2.025531828403472900e-01 -9.255549311637878418e-02 6.639993190765380859e-01
-2.127058357000350952e-01 -2.709826827049255371e-02 -2.018765509128570557e-01
-2.809152007102966309e-01 -2.147261798381805420e-02 -1.450897157192230225e-01
-2.669451832771301270e-01 -2.101284116506576538e-01 3.101302385330200195e-01
-2.116957008838653564e-01 -1.262534111738204956e-01 -5.905742049217224121e-01
-1.243008002638816833e-01 -3.396723568439483643e-01 3.248943388462066650e-01
-1.102098748087882996e-01 -1.632650047540664673e-01 -2.743781805038452148e-01
-1.943000704050064087e-01 -3.316063880920410156e-01 1.671805977821350098e-03
-1.430218517780303955e-01 -3.574066758155822754e-01 5.477171391248703003e-02
-2.731117606163024902e-01 -5.883318930864334106e-02 -3.787961304187774658e-01
-2.395675182342529297e-01 -6.153926253318786621e-03 -6.697839498519897461e-02
-1.754428744316101074e-01 -3.433738946914672852e-01 -1.213180348277091980e-01
-2.354977279901504517e-01 -1.444372236728668213e-01 6.467339396476745605e-01
-1.992643773555755615e-01 -8.966095000505447388e-02 -4.854169785976409912e-01
-1.878820061683654785e-01 -3.929080069065093994e-02 -1.635592579841613770e-01
-2.241350412368774414e-01 -2.952827811241149902e-01 1.636191010475158691e-01
-1.083817481994628906e-01 -3.347815871238708496e-01 3.311374187469482422e-01
-2.820273935794830322e-01 -2.052274942398071289e-01 -2.060045897960662842e-01
-2.853981256484985352e-01 -1.964971572160720825e-01 1.032188683748245239e-01
-2.842649221420288086e-01 -1.828136742115020752e-01 -3.176455795764923096e-01
-1.231449991464614868e-01 -1.274284571409225464e-01 -2.302159070968627930e-01
-1.174388229846954346e-01 -2.162518203258514404e-01 6.398495435714721680e-01
-1.533510088920593262e-01 -3.185465335845947266e-01 4.321416318416595459e-01
-2.933266758918762207e-01 -1.726288944482803345e-01 1.187015697360038757e-01
-1.371851712465286255e-01 -1.348743140697479248e-01 6.177339553833007812e-01
-1.398926824331283569e-01 -1.409902572631835938e-01 6.434850096702575684e-01
-3.096093237400054932e-01 -1.006915867328643799e-01 -5.640807747840881348e-02
-1.982619613409042358e-01 -2.213655710220336914e-01 -6.253182291984558105e-01
-2.957721948623657227e-01 -5.496764183044433594e-02 -2.303615808486938477e-01
-2.488517165184020996e-01 -1.859669983386993408e-01 5.340540409088134766e-01
-1.532141715288162231e-01 -3.478507995605468750e-01 -2.100276947021484375e-01
-7.827693223953247070e-02 -1.981543749570846558e-01 6.296420097351074219e-02
-1.818506568670272827e-01 -1.777040809392929077e-01 -6.201429963111877441e-01
-7.605470716953277588e-02 -2.358407527208328247e-01 3.504480719566345215e-01
-9.902928769588470459e-02 -1.946546733379364014e-01 5.248106718063354492e-01
-2.882198989391326904e-01 -1.645606905221939087e-01 2.584248185157775879e-01
-1.707287132740020752e-01 -3.033086061477661133e-01 -4.707370698451995850e-01
-1.994369626045227051e-01 -3.269086778163909912e-01 -1.085433885455131531e-01
-2.922734022140502930e-01 -1.786357313394546509e-01 -1.924364566802978516e-01
-1.080730184912681580e-01 -2.081161141395568848e-01 5.975577831268310547e-01
-2.357761859893798828e-01 -1.927604973316192627e-01 -5.933741331100463867e-01
-7.639462500810623169e-02 -2.029852569103240967e-01 1.075075715780258179e-01
-1.369126886129379272e-01 -1.650513112545013428e-01 6.728089451789855957e-01
-3.098661005496978760e-01 -8.928083628416061401e-02 -3.961351513862609863e-02
-2.685646116733551025e-01 -2.159018516540527344e-01 2.572663128376007080e-01
-2.370229959487915039e-01 -1.264333277940750122e-01 6.461696028709411621e-01
-1.400045305490493774e-01 -7.704953849315643311e-02 3.031121790409088135e-01
-2.405228018760681152e-01 -2.002010196447372437e-01 -5.702995657920837402e-01
-1.745299398899078369e-01 -1.171867549419403076e-01 6.873857975006103516e-01
-8.664894104003906250e-02 -2.014310061931610107e-01 -1.537843644618988037e-01
-1.428133547306060791e-01 -3.473469913005828857e-01 2.387105226516723633e-01
-1.701696217060089111e-01 -4.085078835487365723e-02 4.467269033193588257e-02
-2.563721239566802979e-01 -1.814312189817428589e-01 -5.340063571929931641e-01
-1.766528636217117310e-01 -7.524067908525466919e-02 -3.446613550186157227e-01
-2.291702330112457275e-01 -2.357158362865447998e-01 4.997470080852508545e-01
-2.081184089183807373e-01 -3.158956170082092285e-01 -1.956946551799774170e-01
-1.188163980841636658e-01 -2.492850422859191895e-01 -4.717846214771270752e-01
-1.473922729492187500e-01 -6.422709673643112183e-02 2.171557843685150146e-01
-1.659322530031204224e-01 -3.457645773887634277e-01 1.358853280544281006e-01
-1.609198153018951416e-01 -3.497514426708221436e-01 -1.371138691902160645e-01
-2.971445918083190918e-01 -1.637370586395263672e-01 -1.783157885074615479e-01
-1.305009871721267700e-01 -1.574519723653793335e-01 6.379206180572509766e-01
-2.130180001258850098e-01 -2.410121709108352661e-01 5.605933666229248047e-01
-2.127597928047180176e-01 -2.910916507244110107e-02 -2.192624211311340332e-01
-1.956193298101425171e-01 -2.965455651283264160e-01 4.017669558525085449e-01
-2.736968994140625000e-01 -8.922211080789566040e-02 -4.505655169486999512e-01
-1.079183816909790039e-01 -1.224405393004417419e-01 1.371523141860961914e-01
-3.049874603748321533e-01 -1.062046736478805542e-01 1.623939424753189087e-01
-7.709653675556182861e-02 -2.574720382690429688e-01 -1.552236080169677734e-01
-1.604112237691879272e-01 -5.015987157821655273e-02 5.806989222764968872e-02
-1.437688171863555908e-01 -1.185897067189216614e-01 6.012175083160400391e-01
-2.974641919136047363e-01 -9.963881224393844604e-02 2.865805625915527344e-01
-2.845103144645690918e-01 -1.395002454519271851e-01 -4.162449836730957031e-01
-8.776032924652099609e-02 -3.282568454742431641e-01 2.570875585079193115e-01
-2.610371112823486328e-01 -2.035947740077972412e-01 -4.642456471920013428e-01
-1.134651526808738708e-01 -1.488261967897415161e-01 -2.431852519512176514e-01
-1.165108829736709595e-01 -1.714025586843490601e-01 -3.550509512424468994e-01
-2.403324842453002930e-01 -7.085591554641723633e-03 -8.371312171220779419e-02
-7.292322814464569092e-02 -2.431464344263076782e-01 -5.956435948610305786e-02
-1.058060601353645325e-01 -3.418484330177307129e-01 2.673770785331726074e-01
-1.180111840367317200e-01 -1.857933849096298218e-01 6.250468492507934570e-01
-1.156772971153259277e-01 -1.214310526847839355e-01 3.874823451042175293e-01
-2.045587152242660522e-01 -1.995316147804260254e-02 -6.990242004394531250e-02
-2.872988581657409668e-01 -7.338001579046249390e-02 3.750837445259094238e-01
-2.471518218517303467e-01 -2.152664810419082642e-01 4.609077274799346924e-01
-1.458993256092071533e-01 -7.215959578752517700e-02 3.393915891647338867e-01
-2.170636653900146484e-01 -7.690906524658203125e-03 9.637346863746643066e-02
-6.933446973562240601e-02 -2.567905187606811523e-01 2.367228269577026367e-01
-1.126584559679031372e-01 -2.273807227611541748e-01 6.212047338485717773e-01
-1.949268281459808350e-01 -3.202675580978393555e-01 2.175109088420867920e-01
-2.073269486427307129e-01 -2.767906785011291504e-01 -4.893191158771514893e-01
-2.376419007778167725e-01 -2.768670320510864258e-01 1.799548268318176270e-01
-3.042367696762084961e-01 -1.355796456336975098e-01 -1.488095819950103760e-01
-2.741475403308868408e-01 -1.822502911090850830e-01 3.556654751300811768e-01
-1.123457849025726318e-01 -3.288941681385040283e-01 3.782431483268737793e-01
-2.602809667587280273e-01 -2.297612577676773071e-01 2.741348445415496826e-01
-2.504404783248901367e-01 -2.387295067310333252e-01 3.278393447399139404e-01
-1.054409146308898926e-01 -1.321812421083450317e-01 2.977535128593444824e-01
-2.312290072441101074e-01 -2.280552685260772705e-01 5.148950219154357910e-01
-1.864829808473587036e-01 -7.800325751304626465e-02 6.102007627487182617e-01
-1.896709054708480835e-01 -9.104167670011520386e-02 6.524682044982910156e-01
-2.209416627883911133e-01 -8.006796240806579590e-03 2.123363614082336426e-01
-2.788332700729370117e-01 -1.761142760515213013e-01 -4.004392623901367188e-01
-2.880750298500061035e-01 -3.066483139991760254e-02 -1.642038524150848389e-01
-3.091583847999572754e-01 -8.164209127426147461e-02 4.763526841998100281e-02
-1.124388948082923889e-01 -1.163438633084297180e-01 5.392457544803619385e-02
-7.324717938899993896e-02 -2.354287803173065186e-01 -4.229123890399932861e-02
-2.808726429939270020e-01 -3.299956023693084717e-02 3.098334670066833496e-01
-9.165426343679428101e-02 -1.602374911308288574e-01 4.270731285214424133e-02
-2.980284392833709717e-01 -3.290563821792602539e-02 1.429283618927001953e-02
-1.650450974702835083e-01 -3.463649153709411621e-01 -1.711449623107910156e-01
-9.833601862192153931e-02 -3.482565879821777344e-01 1.327277570962905884e-01
-1.319980621337890625e-01 -9.995425492525100708e-02 -1.409556567668914795e-01
-3.088922500610351562e-01 -1.127956584095954895e-01 -2.430041134357452393e-02
-2.519936561584472656e-01 -1.793313026428222656e-02 3.575772941112518311e-01
-1.787268370389938354e-01 -3.036062121391296387e-01 -4.575100243091583252e-01
-7.606799900531768799e-02 -2.110588252544403076e-01 2.603980004787445068e-01
-2.375797927379608154e-01 -3.145620226860046387e-02 4.597205519676208496e-01
-1.266757547855377197e-01 -9.124757349491119385e-02 1.849720180034637451e-01
-2.551791667938232422e-01 -1.084834337234497070e-03 8.219675719738006592e-02
-1.563483029603958130e-01 -3.443150818347930908e-01 -2.416617572307586670e-01
-2.659234404563903809e-01 -2.347309887409210205e-01 -2.557858526706695557e-01
-2.894787192344665527e-01 -1.873037070035934448e-01 8.553902804851531982e-02
-6.743437796831130981e-02 -2.633084952831268311e-01 1.500279307365417480e-01
-1.632013022899627686e-01 -5.859581381082534790e-02 -1.266362369060516357e-01
-3.081918954849243164e-01 -1.127937361598014832e-01 4.560469463467597961e-02
-2.337888479232788086e-01 -2.259349226951599121e-01 -5.470869541168212891e-01
-2.674276530742645264e-01 -1.883327960968017578e-01 -4.600714147090911865e-01
-2.695643901824951172e-01 -2.372563481330871582e-01 -7.684540748596191406e-02
-8.166877180337905884e-02 -1.899195909500122070e-01 2.073154784739017487e-02
-2.466235905885696411e-01 -2.748694121837615967e-01 -4.917981475591659546e-02
-1.159501969814300537e-01 -1.809336096048355103e-01 6.088047027587890625e-01
-3.020958900451660156e-01 -5.073526501655578613e-02 -1.189809665083885193e-01
-1.566202789545059204e-01 -1.080150827765464783e-01 6.215882897377014160e-01
-2.626593708992004395e-01 -2.496492862701416016e-01 -3.860507905483245850e-02
-6.855826079845428467e-02 -2.898765206336975098e-01 7.540552318096160889e-02
-2.928173840045928955e-01 -6.783383339643478394e-02 -3.000415563583374023e-01
-7.954221218824386597e-02 -2.937372624874114990e-01 -1.678919196128845215e-01
-2.789728045463562012e-01 -1.431418210268020630e-01 -4.522376954555511475e-01
-9.607784450054168701e-02 -3.273722529411315918e-01 -2.126735150814056396e-01
-1.391362845897674561e-01 -7.515165954828262329e-02 6.153865903615951538e-02
-1.643632054328918457e-01 -5.219045281410217285e-02 -6.403768062591552734e-02
-2.594001889228820801e-01 -2.510335147380828857e-01 -1.978519558906555176e-01
-7.489533722400665283e-02 -2.838189601898193359e-01 -1.194132640957832336e-01
-2.910470366477966309e-01 -1.844989657402038574e-01 6.622055172920227051e-02
-1.842533200979232788e-01 -1.536613553762435913e-01 -5.986005067825317383e-01
-1.535222083330154419e-01 -3.429380655288696289e-01 -2.629379630088806152e-01
-1.927366852760314941e-01 -2.963177561759948730e-01 4.180679917335510254e-01
-1.936525702476501465e-01 -3.317110538482666016e-01 2.505302615463733673e-02
-1.151918545365333557e-01 -1.153356581926345825e-01 -1.343752071261405945e-02
-3.011702299118041992e-01 -1.039982512593269348e-01 2.331318259239196777e-01
-2.609562873840332031e-01 -1.666229814291000366e-01 -5.298627018928527832e-01
-1.610885858535766602e-01 -3.269810080528259277e-01 3.590537309646606445e-01
-1.120505183935165405e-01 -1.725255399942398071e-01 5.716964006423950195e-01
-7.184600830078125000e-02 -2.674705684185028076e-01 2.960859835147857666e-01
-2.812939882278442383e-01 -1.276227831840515137e-02 1.094779372215270996e-01
-7.523410767316818237e-02 -3.183864951133728027e-01 1.007763519883155823e-01
-2.751090526580810547e-01 -2.036113739013671875e-01 2.435804009437561035e-01
-1.588842719793319702e-01 -2.836643457412719727e-01 5.725564360618591309e-01
-2.391129881143569946e-01 -2.851978540420532227e-01 -5.670432746410369873e-02
-1.729729920625686646e-01 -3.682102262973785400e-02 1.603602766990661621e-01
-9.338653832674026489e-02 -1.533326804637908936e-01 1.967534720897674561e-01
-2.582728564739227295e-01 -1.408553421497344971e-01 5.547292828559875488e-01
-7.326833903789520264e-02 -2.737718224525451660e-01 3.134885132312774658e-01
-7.429890334606170654e-02 -3.122697174549102783e-01 1.694138348102569580e-01
-1.790979355573654175e-01 -8.515823632478713989e-02 -4.028995633125305176e-01
-1.479756683111190796e-01 -1.215464398264884949e-01 -3.933322131633758545e-01
-6.971599906682968140e-02 -2.665605247020721436e-01 2.502085566520690918e-01
-1.653239130973815918e-01 -5.802716314792633057e-02 4.134090840816497803e-01
-1.272011995315551758e-01 -2.652962505817413330e-01 -4.971564710140228271e-01
-2.399431467056274414e-01 -4.519145190715789795e-02 -3.733549714088439941e-01
-2.235067784786224365e-01 -2.896470427513122559e-01 2.346686124801635742e-01
-2.259914278984069824e-01 -5.459859967231750488e-03 2.772370353341102600e-02
-1.843766123056411743e-01 -7.271137088537216187e-02 5.866204500198364258e-01
-2.502942085266113281e-01 -2.693219780921936035e-01 -2.618030458688735962e-02
-1.459322720766067505e-01 -7.672296464443206787e-02 -1.043285951018333435e-01
-1.556216925382614136e-01 -2.714496254920959473e-01 6.126539707183837891e-01
-1.200835630297660828e-01 -1.019399389624595642e-01 9.708817303180694580e-02
-2.705669999122619629e-01 -1.204411685466766357e-02 -1.090331152081489563e-01
-2.375397980213165283e-01 -1.615583896636962891e-03 9.315463155508041382e-02
-1.147013381123542786e-01 -1.581741720438003540e-01 -2.953990995883941650e-01
-6.878357380628585815e-02 -2.603890895843505859e-01 1.446976512670516968e-02
-9.328814595937728882e-02 -2.059411555528640747e-01 -2.500217258930206299e-01
-1.537650525569915771e-01 -6.026550382375717163e-02 2.980661094188690186e-01
-1.421853005886077881e-01 -3.529453277587890625e-01 -1.684861183166503906e-01
-2.664324939250946045e-01 -2.391858398914337158e-01 7.402060925960540771e-02
-1.826153397560119629e-01 -2.824455201625823975e-01 -5.276570320129394531e-01
-1.374579966068267822e-01 -9.062572568655014038e-02 -1.291775703430175781e-01
-2.818791866302490234e-01 -1.737316846847534180e-01 -3.778997063636779785e-01
-2.970756292343139648e-01 -1.488892585039138794e-01 1.827639937400817871e-01
-2.033401429653167725e-01 -1.907944083213806152e-01 6.935828924179077148e-01
-2.785820662975311279e-01 -2.191581726074218750e-01 -7.177037745714187622e-02
-1.662718504667282104e-01 -1.723038852214813232e-01 -5.844987034797668457e-01
-1.148542538285255432e-01 -1.101673245429992676e-01 1.227173060178756714e-01
-1.044719293713569641e-01 -2.109849750995635986e-01 -3.591966629028320312e-01
-1.736251562833786011e-01 -2.602587044239044189e-01 6.200817823410034180e-01
-2.834991216659545898e-01 -2.032511532306671143e-01 7.789137214422225952e-02
-3.049833774566650391e-01 -1.084677055478096008e-01 -2.069859802722930908e-01
-1.037748530507087708e-01 -1.785725951194763184e-01 -2.699619233608245850e-01
-2.277292013168334961e-01 -1.984197497367858887e-01 -6.071619987487792969e-01
-2.185345739126205444e-01 -1.336911320686340332e-02 2.961831092834472656e-01
-2.214380204677581787e-01 -6.151005625724792480e-03 1.453719437122344971e-01
-1.536575257778167725e-01 -1.455113738775253296e-01 6.928687095642089844e-01
-2.998711764812469482e-01 -7.705153524875640869e-02 2.501248419284820557e-01
-1.291215866804122925e-01 -1.245045512914657593e-01 -2.713595628738403320e-01
-8.136852830648422241e-02 -2.605680227279663086e-01 -2.110877633094787598e-01
-2.854219079017639160e-01 -2.035696059465408325e-01 -6.232678145170211792e-02
-1.903215944766998291e-01 -4.874190688133239746e-02 -2.576440572738647461e-01
-1.026479229331016541e-01 -1.330998539924621582e-01 1.093598157167434692e-01
-2.568974494934082031e-01 -7.268145680427551270e-03 2.434622645378112793e-01
-2.282656282186508179e-01 -1.842294931411743164e-01 -6.158577799797058105e-01
-2.342297732830047607e-01 -2.047234624624252319e-01 -5.837705135345458984e-01
-2.041443139314651489e-01 -1.534600555896759033e-02 3.242698311805725098e-02
-1.177621781826019287e-01 -3.585509061813354492e-01 2.016810514032840729e-02
-7.608788460493087769e-02 -2.434629499912261963e-01 -1.204935833811759949e-01
-1.698990166187286377e-01 -1.894931048154830933e-01 -6.086009144783020020e-01
-1.914438754320144653e-01 -1.329039931297302246e-01 -5.779204964637756348e-01
-3.053371906280517578e-01 -1.164352819323539734e-01 1.306877285242080688e-01
-6.975211203098297119e-02 -2.529063820838928223e-01 -2.326365560293197632e-03
-2.742709517478942871e-01 -1.719921678304672241e-01 3.883813321590423584e-01
-2.613324224948883057e-01 -2.516653835773468018e-01 -1.931034773588180542e-02
-1.354723870754241943e-01 -3.067010343074798584e-01 -4.447844922542572021e-01
-7.652963697910308838e-02 -3.131741881370544434e-01 -5.197168141603469849e-02
-2.650144100189208984e-01 -2.387690991163253784e-01 1.183752790093421936e-01
-2.376501709222793579e-01 -3.607869148254394531e-03 -8.144784718751907349e-03
-2.910721302032470703e-01 -1.861424744129180908e-01 4.091647639870643616e-02
-2.609367370605468750e-01 -2.495288699865341187e-01 6.312234699726104736e-02
-1.747937649488449097e-01 -1.702123135328292847e-01 7.330647706985473633e-01
-2.802498042583465576e-01 -1.875513195991516113e-01 2.619889676570892334e-01
-2.182978242635726929e-01 -9.790844470262527466e-02 6.650750637054443359e-01
-2.327163219451904297e-01 -1.723560690879821777e-02 -1.833548843860626221e-01
-2.206240445375442505e-01 -1.962693780660629272e-01 -6.216335296630859375e-01
-9.916170686483383179e-02 -1.614521890878677368e-01 4.196659326553344727e-01
-8.143115043640136719e-02 -3.266437053680419922e-01 -4.402671754360198975e-02
-2.228823602199554443e-01 -7.594363391399383545e-02 6.220728754997253418e-01
-1.175657585263252258e-01 -1.062620654702186584e-01 2.189779281616210938e-01
-2.523037493228912354e-01 -2.607847154140472412e-01 -2.230854630470275879e-01
-7.242873311042785645e-02 -2.974353134632110596e-01 -4.125206917524337769e-02
-2.655569911003112793e-01 -2.327653616666793823e-01 -2.800999283790588379e-01
-2.875297963619232178e-01 -1.533199995756149292e-01 -3.708369135856628418e-01
-2.027970999479293823e-01 -3.742252290248870850e-02 -2.396872043609619141e-01
-1.099921315908432007e-01 -3.074172139167785645e-01 -3.634266555309295654e-01
-1.531746983528137207e-01 -1.762094944715499878e-01 -5.515455603599548340e-01
-1.397154629230499268e-01 -1.984616518020629883e-01 6.992443799972534180e-01
-1.735232323408126831e-01 -6.560454517602920532e-02 5.166113972663879395e-01
-2.447210252285003662e-01 -2.762652635574340820e-01 -1.393857300281524658e-01
-2.034998983144760132e-01 -1.466217637062072754e-02 8.005343377590179443e-02
-1.732157766819000244e-01 -3.934554755687713623e-02 9.701721370220184326e-03
-3.043477833271026611e-01 -5.506685376167297363e-02 -9.610142558813095093e-02
-2.883571386337280273e-01 -1.716928184032440186e-01 -3.082332313060760498e-01
-2.704764306545257568e-01 -4.070891439914703369e-02 4.053966403007507324e-01
-8.463383466005325317e-02 -1.773321032524108887e-01 2.230055034160614014e-01
-1.840223371982574463e-01 -3.780125081539154053e-02 3.698225021362304688e-01
-1.361355930566787720e-01 -2.582968771457672119e-01 6.410061120986938477e-01
-2.162486165761947632e-01 -2.966926693916320801e-01 2.469272315502166748e-01
-2.109860628843307495e-01 -3.452566266059875488e-02 -2.540921270847320557e-01
-1.388517916202545166e-01 -1.095225811004638672e-01 -2.756628990173339844e-01
-1.128673106431961060e-01 -1.182736530900001526e-01 4.068795591592788696e-03
-1.321873366832733154e-01 -8.465573936700820923e-02 2.423965632915496826e-01
-6.745214015245437622e-02 -2.702569067478179932e-01 7.360318303108215332e-02
-2.883627712726593018e-01 -1.857882738113403320e-02 2.560729533433914185e-02
-1.231501698493957520e-01 -2.345720380544662476e-01 -4.891931116580963135e-01
-3.095785379409790039e-01 -7.987898588180541992e-02 -1.530515402555465698e-02
-1.517065912485122681e-01 -8.179033547639846802e-02 4.827426075935363770e-01
-2.572546601295471191e-01 -1.682610362768173218e-01 5.220811367034912109e-01
-2.545878887176513672e-01 -2.499163448810577393e-01 1.951899230480194092e-01
-2.666068077087402344e-01 -1.249513030052185059e-02 -1.320996284484863281e-01
-1.851275116205215454e-01 -3.383135795593261719e-01 1.305320486426353455e-02
-2.810652852058410645e-01 -1.884659975767135620e-01 2.457106113433837891e-01
-1.385574042797088623e-01 -3.548987507820129395e-01 1.457165479660034180e-01
-1.027463003993034363e-01 -1.398765891790390015e-01 3.232530951499938965e-01
-3.015475273132324219e-01 -1.547499299049377441e-01 -5.343429744243621826e-02
-2.214079946279525757e-01 -3.055371642112731934e-01 -1.229639276862144470e-01
-1.639117300510406494e-01 -6.700421124696731567e-02 4.718318283557891846e-01
-2.775945663452148438e-01 -2.125788182020187378e-01 -2.368492782115936279e-01
-1.545947641134262085e-01 -3.071180582046508789e-01 4.872951805591583252e-01
-2.412227541208267212e-01 -2.729439735412597656e-02 4.340063035488128662e-01
-2.123411744832992554e-01 -1.070767790079116821e-01 6.825911402702331543e-01
-2.281968295574188232e-01 -2.943144440650939941e-01 -2.073006927967071533e-01
-7.624529302120208740e-02 -3.046049475669860840e-01 -9.040846675634384155e-02
-2.333399504423141479e-01 -2.311323583126068115e-02 4.131354093551635742e-01
-2.911974787712097168e-01 -1.325371861457824707e-01 -3.657296895980834961e-01
-1.439621746540069580e-01 -3.516632318496704102e-01 -1.836858689785003662e-01
-2.567413449287414551e-01 -2.589157223701477051e-01 -2.695735543966293335e-03
-2.425090074539184570e-01 -2.802687287330627441e-01 -1.292093843221664429e-02
-2.962803840637207031e-01 -1.427510082721710205e-01 2.216165959835052490e-01
-9.899189323186874390e-02 -1.595572382211685181e-01 -1.205608621239662170e-01
-2.492257356643676758e-01 -6.980332732200622559e-02 5.608088970184326172e-01
-2.531268298625946045e-01 -3.692214190959930420e-02 -3.304893970489501953e-01
-1.631625890731811523e-01 -5.172802507877349854e-02 3.189360201358795166e-01
-2.443478703498840332e-01 -2.538177371025085449e-01 2.954424619674682617e-01
-1.871353238821029663e-01 -2.533806860446929932e-02 9.637780487537384033e-02
-2.514272034168243408e-01 -2.407797276973724365e-01 3.052607774734497070e-01
-2.444978803396224976e-01 -2.653643190860748291e-01 1.988314390182495117e-01
-1.386727392673492432e-01 -1.786211282014846802e-01 6.904794573783874512e-01
-6.933142989873886108e-02 -2.732425332069396973e-01 2.332860529422760010e-01
-1.132431551814079285e-01 -2.981550693511962891e-01 5.106944441795349121e-01
-2.111448347568511963e-01 -1.907696127891540527e-01 -6.343715786933898926e-01
-7.586878538131713867e-02 -2.579236626625061035e-01 -1.375930011272430420e-01
-2.397665232419967651e-01 -2.598172426223754883e-01 -3.888407647609710693e-01
-1.120929792523384094e-01 -2.514863610267639160e-01 -4.395865499973297119e-01
-1.105822920799255371e-01 -1.390102356672286987e-01 -1.537217795848846436e-01
-2.386213839054107666e-01 -2.847432494163513184e-01 2.093565464019775391e-02
-1.049166694283485413e-01 -1.376671195030212402e-01 3.467420339584350586e-01
-1.446825265884399414e-01 -6.886579096317291260e-02 3.885710239410400391e-02
-1.530321389436721802e-01 -2.034065723419189453e-01 -5.786000490188598633e-01
-2.624075412750244141e-01 -2.225075811147689819e-01 2.936342656612396240e-01
-1.961499154567718506e-01 -3.017971813678741455e-01 3.657122254371643066e-01
-2.139962911605834961e-01 -2.901814281940460205e-01 -3.920754194259643555e-01
-2.713898420333862305e-01 -2.289432883262634277e-01 8.668084442615509033e-02
-9.520147740840911865e-02 -2.742030024528503418e-01 -3.319475948810577393e-01
-1.314221024513244629e-01 -1.668885052204132080e-01 6.564111113548278809e-01
-2.553229629993438721e-01 -3.229692578315734863e-03 -2.282878011465072632e-02
-1.303083300590515137e-01 -2.061060070991516113e-01 -5.008214116096496582e-01
-2.241795212030410767e-01 -3.011359572410583496e-01 6.152909621596336365e-02
-2.110024988651275635e-01 -1.077937334775924683e-01 -5.545713305473327637e-01
-2.140595614910125732e-01 -1.380279362201690674e-01 7.001108527183532715e-01
-2.077554017305374146e-01 -1.284049451351165771e-02 1.871261000633239746e-01
-8.535858988761901855e-02 -1.808799654245376587e-01 -4.014272242784500122e-03
-1.309996843338012695e-01 -3.583541512489318848e-01 -7.138767838478088379e-02
-2.677018642425537109e-01 -5.486086010932922363e-02 4.612087905406951904e-01
-1.424468755722045898e-01 -3.323149085044860840e-01 3.674840629100799561e-01
-2.533432841300964355e-01 -1.551530063152313232e-01 5.641371011734008789e-01
-2.543848156929016113e-01 -1.011660397052764893e-01 5.803838372230529785e-01
-8.014182746410369873e-02 -3.273910284042358398e-01 8.369013667106628418e-04
-1.118243336677551270e-01 -1.910236775875091553e-01 -3.722642958164215088e-01
-1.853089034557342529e-01 -7.000696659088134766e-02 -3.594180941581726074e-01
-2.006048709154129028e-01 -2.022698521614074707e-02 -3.343512117862701416e-02
-2.371389269828796387e-01 -2.670172452926635742e-01 2.771493196487426758e-01
-1.261357218027114868e-01 -2.990317344665527344e-01 5.287746787071228027e-01
-2.277477383613586426e-01 -4.276096820831298828e-03 5.545162409543991089e-02
-2.317250519990921021e-01 -2.065102607011795044e-01 5.737156867980957031e-01
-2.618134915828704834e-01 -7.420405745506286621e-03 -8.322807401418685913e-02
-2.313902378082275391e-01 -1.112051308155059814e-02 3.073717057704925537e-01
-1.263638734817504883e-01 -2.848861813545227051e-01 -4.708111584186553955e-01
-1.332301795482635498e-01 -8.254487067461013794e-02 8.254736661911010742e-02
-1.030144393444061279e-01 -3.479040861129760742e-01 1.861136555671691895e-01
-9.206274151802062988e-02 -1.593070328235626221e-01 2.585379481315612793e-01
-2.152737081050872803e-01 -2.634106278419494629e-01 4.653570950031280518e-01
-2.325101941823959351e-01 -2.187609970569610596e-01 -5.664570927619934082e-01
-1.058762446045875549e-01 -2.315245121717453003e-01 -3.956860899925231934e-01
-3.082360327243804932e-01 -1.148406267166137695e-01 2.999979071319103241e-02
-2.440080046653747559e-01 -2.327253967523574829e-01 4.143181145191192627e-01
-3.080276250839233398e-01 -1.136459633708000183e-01 -1.094052419066429138e-01
-1.194230467081069946e-01 -2.709092497825622559e-01 5.926895141601562500e-01
-2.263061702251434326e-01 -3.008490800857543945e-01 -7.976358383893966675e-02
-2.490785866975784302e-01 -2.624314427375793457e-01 1.556700766086578369e-01
-1.352759301662445068e-01 -2.846244871616363525e-01 -4.955194294452667236e-01
-1.288826912641525269e-01 -9.485653042793273926e-02 -3.790757060050964355e-02
-1.199771463871002197e-01 -1.028609722852706909e-01 7.094650715589523315e-02
-1.524348258972167969e-01 -3.241655826568603516e-01 4.014097452163696289e-01
-1.853305399417877197e-01 -3.188614845275878906e-01 -3.526315093040466309e-01
-7.021006196737289429e-02 -2.443397045135498047e-01 1.110604405403137207e-02
-2.418404519557952881e-01 -1.959754377603530884e-01 5.490329861640930176e-01
-3.021283149719238281e-01 -1.405054479837417603e-01 1.097318977117538452e-01
-1.641761064529418945e-01 -3.210511207580566406e-01 3.887296319007873535e-01
-7.569169998168945312e-02 -2.520923614501953125e-01 3.602120876312255859e-01
-1.817272156476974487e-01 -3.019291162490844727e-02 2.060773968696594238e-01
-1.679092943668365479e-01 -3.213238716125488281e-01 -3.903785347938537598e-01
-2.036237418651580811e-01 -2.867166697978973389e-02 -1.684788167476654053e-01
-2.528690695762634277e-01 -2.563531994819641113e-01 -2.653009593486785889e-01
-2.775574922561645508e-01 -7.472533732652664185e-02 -4.059073030948638916e-01
-2.829848825931549072e-01 -1.747097522020339966e-01 2.857422828674316406e-01
-1.806244105100631714e-01 -2.712067961692810059e-01 5.718865990638732910e-01
-1.978439688682556152e-01 -2.307826280593872070e-02 -5.228365957736968994e-02
-1.618283092975616455e-01 -7.669538259506225586e-02 5.175940990447998047e-01
-1.986321210861206055e-01 -3.086867332458496094e-01 -3.591767251491546631e-01
-2.069139778614044189e-01 -2.240793853998184204e-01 6.282384991645812988e-01
-2.789617180824279785e-01 -1.945767551660537720e-01 -3.332068324089050293e-01
-2.503625750541687012e-01 -4.867619276046752930e-02 -3.869403600692749023e-01
-2.284044176340103149e-01 -2.269162684679031372e-01 5.334972739219665527e-01
-2.846640944480895996e-01 -4.161712527275085449e-02 -2.573046684265136719e-01
-8.182717859745025635e-02 -2.454610317945480347e-01 4.309991002082824707e-01
-2.983122467994689941e-01 -1.495980918407440186e-01 -2.337040007114410400e-01
-2.502477467060089111e-01 -2.686843574047088623e-01 9.764451533555984497e-03
-2.089859098196029663e-01 -3.111150562763214111e-01 1.708259880542755127e-01
-8.901619911193847656e-02 -3.333840370178222656e-01 -1.061592921614646912e-01
-2.540600001811981201e-01 -2.289593219757080078e-01 -4.271483719348907471e-01
-2.922785580158233643e-01 -1.470119357109069824e-01 2.667350769042968750e-01
-9.737993776798248291e-02 -1.612525582313537598e-01 3.933753967285156250e-01
-2.112141698598861694e-01 -3.167585730552673340e-01 -8.289694041013717651e-02
-9.067808091640472412e-02 -1.617234498262405396e-01 2.405265271663665771e-01
-1.907436996698379517e-01 -7.356424629688262939e-02 -3.984092473983764648e-01
-3.091581463813781738e-01 -1.019600108265876770e-01 -8.864168077707290649e-02
-1.802707016468048096e-01 -2.759295701980590820e-01 -5.479362010955810547e-01
-1.910001188516616821e-01 -3.268224298954010010e-01 1.757502257823944092e-01
-1.860167533159255981e-01 -3.286238908767700195e-01 2.025477886199951172e-01
-2.434598207473754883e-01 -1.359561085700988770e-02 -1.673364639282226562e-01
-1.863939017057418823e-01 -3.373238742351531982e-01 -8.726076036691665649e-02
-2.942744493484497070e-01 -8.074425905942916870e-02 -3.176987171173095703e-01
-1.286715716123580933e-01 -9.355546534061431885e-02 -1.466098427772521973e-02
-2.137728929519653320e-01 -1.353392899036407471e-01 -6.047469377517700195e-01
-2.442630082368850708e-01 -2.487174868583679199e-01 -4.127513170242309570e-01
-1.299596130847930908e-01 -3.123282790184020996e-01 -4.160014986991882324e-01
-9.290406107902526855e-02 -2.154021561145782471e-01 -2.694497108459472656e-01
-3.036929368972778320e-01 -1.018065810203552246e-01 1.935735642910003662e-01
-2.609108090400695801e-01 -1.433634459972381592e-01 -5.405300855636596680e-01
-2.494877278804779053e-01 -2.706146538257598877e-01 -8.198032528162002563e-02
-2.510482966899871826e-01 -2.678132057189941406e-02 -2.735781669616699219e-01
-1.915220320224761963e-01 -6.442759186029434204e-02 5.708335638046264648e-01
-2.302965819835662842e-01 -6.457193940877914429e-02 -4.477519989013671875e-01
-2.212903201580047607e-01 -1.770420819520950317e-01 6.641249060630798340e-01
-2.478774785995483398e-01 -2.534435093402862549e-01 2.579078078269958496e-01
-7.863908261060714722e-02 -2.734162211418151855e-01 3.827025890350341797e-01
-2.244923412799835205e-01 -9.965604543685913086e-02 -5.458266139030456543e-01
-7.801260054111480713e-02 -2.621330320835113525e-01 -1.706712841987609863e-01
-1.447205841541290283e-01 -6.763692200183868408e-02 7.413528114557266235e-02
-1.272525638341903687e-01 -1.092575117945671082e-01 -1.562275588512420654e-01
-1.103376820683479309e-01 -2.141949087381362915e-01 6.112494468688964844e-01
-2.086870074272155762e-01 -1.658014953136444092e-02 2.852492332458496094e-01
-1.648325920104980469e-01 -4.482501745223999023e-02 9.298084676265716553e-02
-1.997545510530471802e-01 -7.504568248987197876e-02 -4.338704943656921387e-01
-9.037494659423828125e-02 -1.955313980579376221e-01 -1.819196641445159912e-01
-1.407047808170318604e-01 -3.143042325973510742e-01 -4.280965328216552734e-01
-1.760701835155487061e-01 -2.480897903442382812e-01 6.464166045188903809e-01
-8.333279192447662354e-02 -2.051249444484710693e-01 3.850432932376861572e-01
-2.930393218994140625e-01 -1.277059167623519897e-01 3.056956529617309570e-01
-2.538119554519653320e-01 -2.532051205635070801e-01 -2.815353274345397949e-01
-1.702681183815002441e-01 -3.295004367828369141e-01 3.012650012969970703e-01
-3.038959503173828125e-01 -6.471361219882965088e-02 1.616108119487762451e-01
-2.660208642482757568e-01 -1.353088915348052979e-01 -5.206683874130249023e-01
-1.305890381336212158e-01 -2.221278846263885498e-01 -5.148558616638183594e-01
-1.694715619087219238e-01 -3.996920585632324219e-02 1.292313635349273682e-01
-1.804032027721405029e-01 -3.378984332084655762e-02 -7.090300321578979492e-03
-2.646296024322509766e-01 -3.093430399894714355e-02 3.916521668434143066e-01
-2.753897905349731445e-01 -4.235267639160156250e-02 3.848129212856292725e-01
-2.842625379562377930e-01 -1.656467318534851074e-01 3.053245246410369873e-01
-1.075836196541786194e-01 -2.681343853473663330e-01 5.655475854873657227e-01
-1.084177270531654358e-01 -1.254807710647583008e-01 2.849848568439483643e-01
-1.279601156711578369e-01 -3.576329052448272705e-01 -8.908731490373611450e-02
-2.619910538196563721e-01 -2.506308555603027344e-01 -9.435506910085678101e-02
-2.500191926956176758e-01 -2.643432319164276123e-01 1.110362634062767029e-01
-1.940051317214965820e-01 -1.213546767830848694e-01 -5.594359636306762695e-01
-9.574519097805023193e-02 -2.124912738800048828e-01 5.262964963912963867e-01
-8.414682000875473022e-02 -3.344860672950744629e-01 1.266866177320480347e-01
-2.666112780570983887e-01 -2.258580923080444336e-01 2.152616381645202637e-01
-2.950328886508941650e-01 -8.833381533622741699e-02 3.152155578136444092e-01
-2.769180834293365479e-01 -1.864591687917709351e-01 -3.877868652343750000e-01
-8.252998441457748413e-02 -1.938882768154144287e-01 3.199167549610137939e-01
-2.897370457649230957e-01 -1.216431409120559692e-01 -3.850645124912261963e-01
-1.461966633796691895e-01 -9.478612989187240601e-02 -2.516180872917175293e-01
-2.715643644332885742e-01 -6.388098001480102539e-03 8.588992059230804443e-03
-1.663302779197692871e-01 -1.094136238098144531e-01 -4.420414268970489502e-01
-1.211152821779251099e-01 -2.841853499412536621e-01 5.659005045890808105e-01
-1.465595513582229614e-01 -1.238655298948287964e-01 6.285781264305114746e-01
-2.616485953330993652e-01 -1.147323772311210632e-01 5.515005588531494141e-01
-2.983053326606750488e-01 -3.549900650978088379e-02 -5.054643750190734863e-02
-8.754689246416091919e-02 -2.519192397594451904e-01 4.797687232494354248e-01
-2.630463242530822754e-01 -1.004108041524887085e-01 -5.034855008125305176e-01
-2.548987567424774170e-01 -1.685998439788818359e-01 -5.531569123268127441e-01
-2.178525179624557495e-01 -1.561956107616424561e-02 3.223719298839569092e-01
-2.932401299476623535e-01 -7.956034690141677856e-02 3.285650014877319336e-01
-2.703834772109985352e-01 -2.224026024341583252e-01 1.814025640487670898e-01
-1.970812082290649414e-01 -3.245424032211303711e-01 1.338914334774017334e-01
-2.329876273870468140e-01 -1.363049447536468506e-02 3.365382254123687744e-01
-7.183988392353057861e-02 -2.639576196670532227e-01 -7.160976529121398926e-02
-1.797182410955429077e-01 -1.366642415523529053e-01 -5.604729652404785156e-01
-2.049800157546997070e-01 -2.688902914524078369e-01 -5.245957374572753906e-01
-1.701187342405319214e-01 -6.003621220588684082e-02 -2.056085169315338135e-01
-6.774023920297622681e-02 -2.825914025306701660e-01 1.100900322198867798e-01
-1.347374320030212402e-01 -1.281005740165710449e-01 5.859859585762023926e-01
-1.016850024461746216e-01 -2.512706220149993896e-01 5.632254481315612793e-01
-1.531175374984741211e-01 -1.327138841152191162e-01 6.705908775329589844e-01
-1.941358298063278198e-01 -3.076525330543518066e-01 -3.889257013797760010e-01
-2.638732790946960449e-01 -1.783871203660964966e-01 4.556558728218078613e-01
-2.341964989900588989e-01 -4.268497228622436523e-03 2.033125758171081543e-01
-1.798324584960937500e-01 -3.400788605213165283e-01 8.161236345767974854e-02
-1.394594907760620117e-01 -1.550998091697692871e-01 -4.526470005512237549e-01
-8.268778026103973389e-02 -3.076241314411163330e-01 3.283580541610717773e-01
-2.081743776798248291e-01 -3.171245455741882324e-01 8.190687000751495361e-02
-2.741658985614776611e-01 -2.187398374080657959e-01 -2.500241398811340332e-01
-1.219404861330986023e-01 -3.481382727622985840e-01 -2.072332203388214111e-01
-1.400910019874572754e-01 -7.251972705125808716e-02 1.725339889526367188e-01
-9.461496025323867798e-02 -1.541097015142440796e-01 2.738606929779052734e-01
-7.298444211483001709e-02 -2.966985404491424561e-01 2.459725439548492432e-01
-9.784676134586334229e-02 -3.460110425949096680e-01 1.679187119007110596e-01
-1.857541501522064209e-01 -3.136917054653167725e-01 3.434146046638488770e-01
-2.845348715782165527e-01 -9.677530080080032349e-02 4.118444919586181641e-01
-1.297685354948043823e-01 -3.595730066299438477e-01 8.429523557424545288e-03
-2.485044002532958984e-01 -4.089191555976867676e-03 -4.571378231048583984e-02
-3.077117502689361572e-01 -6.466918438673019409e-02 3.264483064413070679e-02
-1.044742837548255920e-01 -2.858639061450958252e-01 5.191947221755981445e-01
-2.855241298675537109e-01 -1.127410307526588440e-01 3.989780247211456299e-01
-1.875963956117630005e-01 -2.918458282947540283e-01 -4.873326718807220459e-01
-1.704661995172500610e-01 -2.116490602493286133e-01 -6.170032024383544922e-01
-8.197071403264999390e-02 -1.846922785043716431e-01 2.071496844291687012e-01
-9.565863758325576782e-02 -2.644892334938049316e-01 5.199345946311950684e-01
-2.733529508113861084e-01 -8.208832144737243652e-02 4.781421124935150146e-01
-2.714459300041198730e-01 -1.583810150623321533e-02 2.612173855304718018e-01
-2.426810711622238159e-01 -2.723166346549987793e-01 -2.561023533344268799e-01
-2.112936526536941528e-01 -5.896350741386413574e-02 5.771399736404418945e-01
-7.019302994012832642e-02 -2.953672409057617188e-01 1.782473623752593994e-01
-2.741689085960388184e-01 -1.573836803436279297e-01 -4.694251120090484619e-01
-1.744024157524108887e-01 -3.565013408660888672e-02 1.059595644474029541e-01
-2.323133051395416260e-01 -2.846861481666564941e-01 -2.701942026615142822e-01
-6.913960725069046021e-02 -2.912566065788269043e-01 1.603029072284698486e-01
-7.267604023218154907e-02 -3.007889389991760254e-01 2.180781662464141846e-01
-2.492708265781402588e-01 -7.756231725215911865e-02 5.739898681640625000e-01
-1.550831943750381470e-01 -3.363706469535827637e-01 3.066968619823455811e-01
-1.235546618700027466e-01 -1.820494979619979858e-01 6.445789337158203125e-01
-9.929889440536499023e-02 -2.510465681552886963e-01 -3.638197183609008789e-01
-2.177835106849670410e-01 -2.681808769702911377e-01 -4.820915758609771729e-01
-2.367885112762451172e-01 -2.861794233322143555e-01 -1.593658924102783203e-01
-1.074596643447875977e-01 -1.237230896949768066e-01 2.006933987140655518e-01
-2.111627161502838135e-01 -2.960382401943206787e-01 -3.717693388462066650e-01
-1.930047571659088135e-01 -3.301601409912109375e-01 8.947804570198059082e-02
-2.871424555778503418e-01 -1.993462443351745605e-02 1.362780630588531494e-01
-1.763245761394500732e-01 -3.889538347721099854e-02 -3.654354065656661987e-02
-8.773144334554672241e-02 -1.775384843349456787e-01 -3.636173903942108154e-02
-2.564115524291992188e-01 -2.452845573425292969e-01 -3.122764825820922852e-01
-2.654293775558471680e-01 -6.220437586307525635e-02 4.879891872406005859e-01
-2.733696103096008301e-01 -2.289832979440689087e-01 5.523767322301864624e-03
-1.973956823348999023e-01 -2.306742519140243530e-01 6.407517790794372559e-01
-2.364229559898376465e-01 -8.385311812162399292e-02 6.161984205245971680e-01
-3.056276440620422363e-01 -1.231794208288192749e-01 9.692104160785675049e-02
-1.910530924797058105e-01 -7.674273848533630371e-02 -4.134019315242767334e-01
-8.747211098670959473e-02 -2.925440669059753418e-01 -2.517003715038299561e-01
-1.895807534456253052e-01 -2.898624539375305176e-02 3.079279661178588867e-01
-2.383597642183303833e-01 -2.811402976512908936e-01 1.094698980450630188e-01
-2.701458334922790527e-01 -3.085948526859283447e-02 3.658765256404876709e-01
-9.642091393470764160e-02 -1.854278445243835449e-01 4.809978306293487549e-01
-2.731842100620269775e-01 -3.062160313129425049e-02 -2.535031139850616455e-01
-2.846126556396484375e-01 -9.510699659585952759e-02 -4.067356288433074951e-01
-1.416849792003631592e-01 -1.621502637863159180e-01 -4.805102646350860596e-01
-3.084052205085754395e-01 -1.161252632737159729e-01 3.422446548938751221e-03
-2.853376567363739014e-01 -5.670586973428726196e-02 -3.163438737392425537e-01
-1.454369425773620605e-01 -2.891308665275573730e-01 -5.060623288154602051e-01
-2.915993332862854004e-01 -9.142660349607467651e-02 3.505736291408538818e-01
-2.985965907573699951e-01 -5.454289913177490234e-02 -1.967370212078094482e-01
-2.244893461465835571e-01 -3.353439271450042725e-02 -2.894762754440307617e-01
-1.072607040405273438e-01 -1.598565280437469482e-01 5.004992485046386719e-01
-2.831134796142578125e-01 -1.374046504497528076e-02 8.668974041938781738e-02
-1.576730459928512573e-01 -2.308406829833984375e-01 6.930335164070129395e-01
-2.423090934753417969e-01 -2.694253325462341309e-01 -2.918805181980133057e-01
-2.171564847230911255e-01 -1.420983672142028809e-02 -8.288040012121200562e-02
-2.028786242008209229e-01 -1.478132605552673340e-02 1.032081246376037598e-01
-2.574262320995330811e-01 -2.419548034667968750e-01 2.228335440158843994e-01
-8.599911630153656006e-02 -2.116980105638504028e-01 -1.815217733383178711e-01
-1.636264771223068237e-01 -3.283990621566772461e-01 -3.556592166423797607e-01
-1.154845952987670898e-01 -1.435806453227996826e-01 5.105547904968261719e-01
-2.950460910797119141e-01 -1.301784962415695190e-01 2.755470573902130127e-01
-2.262971103191375732e-01 -9.012177586555480957e-03 -5.796402692794799805e-02
-2.688624262809753418e-01 -4.373814165592193604e-02 4.237381219863891602e-01
-2.602177858352661133e-01 -2.320509850978851318e-01 -3.554849624633789062e-01
-9.002676606178283691e-02 -3.430933356285095215e-01 4.772580415010452271e-02
-1.079012155532836914e-01 -2.554060816764831543e-01 -4.171396493911743164e-01
-2.735505700111389160e-01 -1.981834322214126587e-01 2.940621078014373779e-01
-1.158283576369285583e-01 -1.494035124778747559e-01 -2.691010534763336182e-01
-2.472567558288574219e-01 -1.188379526138305664e-01 -5.624821186065673828e-01
-2.654187381267547607e-01 -2.047248929738998413e-01 -4.286265671253204346e-01
-1.394965350627899170e-01 -3.465345501899719238e-01 2.551826536655426025e-01
-8.389587700366973877e-02 -2.111044824123382568e-01 4.102354049682617188e-01
-1.972932666540145874e-01 -3.084628582000732422e-01 3.095853924751281738e-01
-1.449102163314819336e-01 -3.234669566154479980e-01 -3.943045735359191895e-01
-2.375467717647552490e-01 -2.795053422451019287e-01 1.493386477231979370e-01
-2.990940511226654053e-01 -1.301555633544921875e-01 -2.765384316444396973e-01
-2.972413599491119385e-01 -1.516884416341781616e-01 1.657830178737640381e-01
-2.835288047790527344e-01 -7.204648852348327637e-02 -3.711082935333251953e-01
-1.908164769411087036e-01 -1.455316245555877686e-01 7.256878018379211426e-01
-2.969530820846557617e-01 -1.703253239393234253e-01 2.032201737165451050e-03
-1.154281273484230042e-01 -1.386948972940444946e-01 4.892286956310272217e-01
-1.338401585817337036e-01 -3.260556459426879883e-01 4.135675430297851562e-01
-1.169017925858497620e-01 -1.191873699426651001e-01 -9.120970219373703003e-02
-1.314118057489395142e-01 -1.551365554332733154e-01 -4.075097739696502686e-01
-2.842205762863159180e-01 -1.774808466434478760e-01 -3.398697376251220703e-01
-2.481928318738937378e-01 -9.217426925897598267e-02 -5.191926956176757812e-01
-2.114090025424957275e-01 -2.618189156055450439e-01 4.925632774829864502e-01
