-3.705441355705261230e-01 1.533646285533905029e-01 4.434252157807350159e-03
-2.122840881347656250e-01 1.742248237133026123e-02 -4.133546352386474609e-01
1.657813787460327148e-03 -1.577689349651336670e-01 -2.105466574430465698e-01
-1.840747296810150146e-01 -2.341626435518264771e-01 8.597034215927124023e-02
-2.885412573814392090e-01 5.891571193933486938e-02 -3.537559211254119873e-01
-3.474389910697937012e-01 -3.690733574330806732e-03 -2.961278259754180908e-01
-3.103044927120208740e-01 1.542783379554748535e-01 -2.176778912544250488e-01
-1.179993450641632080e-01 1.620684117078781128e-01 -2.340569943189620972e-01
-4.066587090492248535e-01 2.688965946435928345e-02 -1.184292286634445190e-01
-2.687864303588867188e-01 1.370201706886291504e-01 2.901001274585723877e-01
-1.745829284191131592e-01 1.758311837911605835e-01 2.416327595710754395e-01
-3.867317736148834229e-02 9.147572517395019531e-02 -2.610067427158355713e-01
-8.626966178417205811e-02 1.797635853290557861e-01 1.177822574973106384e-01
-3.622705340385437012e-01 4.374561831355094910e-04 -2.672503590583801270e-01
-9.088927507400512695e-02 -1.467026919126510620e-01 2.756988108158111572e-01
-2.856505811214447021e-01 -1.983872652053833008e-01 -1.362199485301971436e-01
-3.016523122787475586e-01 -3.006448969244956970e-04 3.298181891441345215e-01
-1.449461877346038818e-01 2.045209333300590515e-02 3.777661919593811035e-01
-3.276656568050384521e-01 -1.711301952600479126e-01 1.417257077991962433e-02
-1.395087838172912598e-01 -2.323218435049057007e-01 -1.995544135570526123e-01
-1.852032542228698730e-01 -1.700365394353866577e-01 -3.356623053550720215e-01
-1.961750686168670654e-01 9.924583137035369873e-02 3.496588170528411865e-01
1.849615573883056641e-02 -4.289570078253746033e-02 1.993040889501571655e-01
-1.554242670536041260e-01 1.558477580547332764e-01 -2.755258083343505859e-01
-1.719434410333633423e-01 -2.478082776069641113e-01 -1.442327909171581268e-02
-2.365791797637939453e-01 -6.112480908632278442e-02 3.554248511791229248e-01
-1.728777587413787842e-01 -2.483913600444793701e-01 -3.919896110892295837e-02
3.621542453765869141e-02 -1.302304714918136597e-01 5.626673251390457153e-02
-1.834540516138076782e-01 -1.417340338230133057e-01 -3.709997534751892090e-01
-1.107706278562545776e-01 1.495670527219772339e-01 2.472653388977050781e-01
2.162440121173858643e-02 -1.654366254806518555e-01 -1.009061932563781738e-01
-2.958947420120239258e-01 3.875073045492172241e-02 3.350152969360351562e-01
-9.149569272994995117e-02 1.075916811823844910e-01 2.905528247356414795e-01
-4.109083414077758789e-01 5.261363089084625244e-02 5.339849740266799927e-02
-3.962284326553344727e-02 -7.140351831912994385e-02 -3.528514504432678223e-01
-1.923100650310516357e-01 -5.846091359853744507e-02 -4.196812212467193604e-01
-1.016962304711341858e-01 1.853286474943161011e-01 1.324118375778198242e-01
3.483167290687561035e-02 -1.070255339145660400e-01 1.082812473177909851e-01
-2.369128167629241943e-01 1.109849195927381516e-02 -4.063872992992401123e-01
-2.629664540290832520e-02 1.438652127981185913e-01 -6.055466830730438232e-02
5.773261189460754395e-03 -1.397560238838195801e-01 1.512676328420639038e-01
-2.905718088150024414e-01 -1.978924721479415894e-01 -1.168951913714408875e-01
-1.830831468105316162e-01 -3.449093922972679138e-02 -4.245739877223968506e-01
-3.900925815105438232e-02 1.528429090976715088e-01 -8.219861239194869995e-02
-7.184650748968124390e-02 1.106228753924369812e-01 2.629715502262115479e-01
-1.604227572679519653e-01 1.835964322090148926e-01 -2.128465622663497925e-01
-1.732711195945739746e-01 1.953862309455871582e-01 -1.834144890308380127e-01
-2.155948430299758911e-01 -2.390465438365936279e-01 -6.016792356967926025e-02
-2.151610553264617920e-01 -1.390409767627716064e-01 -3.615944981575012207e-01
-3.505080342292785645e-01 -3.024217486381530762e-02 -2.849340736865997314e-01
-1.555001586675643921e-01 7.268547266721725464e-02 -3.837638497352600098e-01
-2.368080168962478638e-01 -2.283200472593307495e-01 -1.101629883050918579e-01
-3.085024058818817139e-01 1.720483899116516113e-01 -1.776758283376693726e-01
-2.352268248796463013e-01 2.073634564876556396e-01 1.532705426216125488e-01
-9.039323031902313232e-02 1.552749872207641602e-01 2.081504464149475098e-01
-3.402396738529205322e-01 -1.587013155221939087e-01 -7.496421784162521362e-02
-3.031033277511596680e-01 -1.923550665378570557e-01 9.045258164405822754e-03
-1.770434379577636719e-01 -7.917923480272293091e-02 -4.152163565158843994e-01
-3.241910934448242188e-01 1.898773014545440674e-01 7.484277337789535522e-02
-1.129597425460815430e-02 -1.726662516593933105e-01 -2.127437144517898560e-01
-2.822243869304656982e-01 -1.654714643955230713e-01 -2.539006173610687256e-01
-1.401016712188720703e-01 -1.802463382482528687e-01 -3.254939019680023193e-01
-4.800140857696533203e-03 -1.528034061193466187e-01 -2.354925721883773804e-01
-1.081535443663597107e-01 -9.997313469648361206e-02 3.312962353229522705e-01
-1.033548414707183838e-01 -1.586687937378883362e-02 3.612004816532135010e-01
-4.165306687355041504e-02 -4.512619227170944214e-02 3.032394945621490479e-01
9.787529706954956055e-03 -1.843946278095245361e-01 -5.956980586051940918e-02
-8.673269301652908325e-02 -2.171026356518268585e-02 3.497381508350372314e-01
-3.505285382270812988e-01 -9.661003202199935913e-02 -2.291051596403121948e-01
-1.173709705471992493e-01 1.853836774826049805e-01 1.630970090627670288e-01
-6.924520432949066162e-02 1.742223948240280151e-01 -9.183324873447418213e-02
7.141709327697753906e-03 -1.155893281102180481e-01 1.813894063234329224e-01
-2.624819874763488770e-01 -2.008566856384277344e-01 1.154040321707725525e-01
3.341546654701232910e-02 2.309619635343551636e-02 1.244640275835990906e-01
-3.410041332244873047e-01 -1.424597203731536865e-01 9.896023571491241455e-02
5.556195974349975586e-02 -1.301055122166872025e-02 -7.956379652023315430e-02
-7.063063234090805054e-02 -1.314671784639358521e-01 -3.506456017494201660e-01
-3.269047439098358154e-01 -1.739155203104019165e-01 -2.692148834466934204e-02
-7.036402821540832520e-03 9.523893147706985474e-02 -1.775303184986114502e-01
-2.676037847995758057e-01 2.109816968441009521e-01 1.037510260939598083e-01
-3.797291517257690430e-01 4.849735647439956665e-02 1.990696489810943604e-01
-2.571360766887664795e-02 1.175810620188713074e-01 -1.771877408027648926e-01
-3.570778369903564453e-01 -1.227869167923927307e-01 9.744997322559356689e-02
-1.110088005661964417e-01 -1.831938475370407104e-01 -3.131687045097351074e-01
-3.356660902500152588e-01 1.718703657388687134e-01 -1.152493730187416077e-01
6.639033555984497070e-03 -5.153108015656471252e-02 -2.841342389583587646e-01
-2.682924866676330566e-01 1.758582442998886108e-01 2.250207662582397461e-01
-1.531739830970764160e-01 1.693796217441558838e-01 -2.452707141637802124e-01
-1.305684298276901245e-01 1.423308551311492920e-01 -2.862776517868041992e-01
-2.342970222234725952e-01 -1.744093298912048340e-01 2.256735712289810181e-01
-3.039059638977050781e-01 4.570769891142845154e-02 -3.457194864749908447e-01
-3.820076584815979004e-03 -1.776506602764129639e-01 -1.791293919086456299e-01
-2.709648907184600830e-01 1.326615512371063232e-01 -2.963851690292358398e-01
-3.252680897712707520e-01 1.145000532269477844e-01 -2.617949247360229492e-01
-2.428838610649108887e-01 1.221737787127494812e-01 -3.269265294075012207e-01
-1.760436743497848511e-01 -2.167690396308898926e-01 1.585060805082321167e-01
-1.611310243606567383e-01 2.644855529069900513e-02 -4.130639731884002686e-01
-9.465995430946350098e-02 -1.391016095876693726e-01 -3.602688312530517578e-01
-3.080765008926391602e-01 1.049376204609870911e-01 2.895702421665191650e-01
-1.587045192718505859e-02 -1.684363037347793579e-01 -2.320165932178497314e-01
-1.479403078556060791e-01 -2.502716779708862305e-01 -4.768301546573638916e-02
-1.958042383193969727e-02 -7.431345432996749878e-02 2.630680203437805176e-01
-1.251798272132873535e-01 1.461666524410247803e-01 2.673721909523010254e-01
-1.323949992656707764e-01 -1.933063119649887085e-01 2.191831916570663452e-01
-3.864682316780090332e-01 2.325168997049331665e-02 1.836059391498565674e-01
-3.957479000091552734e-01 1.568758860230445862e-02 1.509567499160766602e-01
-3.737823963165283203e-01 -1.164346113801002502e-01 -3.139896318316459656e-03
-2.508058249950408936e-01 -4.972453787922859192e-02 3.537526130676269531e-01
-2.216385006904602051e-01 1.129999831318855286e-01 -3.452215194702148438e-01
-1.095585599541664124e-01 1.660190895199775696e-02 -4.001028835773468018e-01
-1.854992061853408813e-01 -1.779751926660537720e-01 2.469294071197509766e-01
-2.724362611770629883e-01 -2.032255232334136963e-01 -1.567304283380508423e-01
-3.758574724197387695e-01 -2.927828207612037659e-02 -2.257111221551895142e-01
-8.169682323932647705e-02 -1.766197383403778076e-01 2.240881621837615967e-01
-2.295103967189788818e-01 4.055565223097801208e-02 -3.993358314037322998e-01
-1.473893523216247559e-01 -2.500790655612945557e-01 -3.058705665171146393e-02
-2.448733448982238770e-01 1.908627301454544067e-01 -1.945210397243499756e-01
-3.153481483459472656e-01 1.931943297386169434e-01 8.990081399679183960e-02
-1.455287486314773560e-01 4.457371681928634644e-02 -4.007217884063720703e-01
-4.010621309280395508e-01 -5.962973088026046753e-02 5.586234852671623230e-03
4.571531713008880615e-02 -1.097825244069099426e-01 4.551997035741806030e-02
-3.747161626815795898e-01 -4.342078417539596558e-02 1.842830479145050049e-01
2.948880195617675781e-03 -1.197650730609893799e-01 -2.603447139263153076e-01
-1.176902651786804199e-02 -1.645609438419342041e-01 1.470956951379776001e-01
-3.351308107376098633e-01 -9.951959550380706787e-02 2.117623090744018555e-01
1.101185381412506104e-02 -2.529344707727432251e-02 -2.714208364486694336e-01
-3.844695985317230225e-01 6.962212175130844116e-02 1.739614158868789673e-01
3.865221142768859863e-02 4.469450563192367554e-02 4.897613078355789185e-02
-3.925107717514038086e-01 1.031201258301734924e-01 9.497331827878952026e-02
-2.421165704727172852e-01 7.522826641798019409e-02 3.566830754280090332e-01
-2.704000771045684814e-01 -2.130206525325775146e-01 1.799095235764980316e-02
-9.526625275611877441e-02 -1.961983889341354370e-01 1.955131888389587402e-01
4.959674179553985596e-02 -8.394950628280639648e-02 6.449680030345916748e-02
-2.991846203804016113e-02 -3.893988206982612610e-02 -3.437538444995880127e-01
-3.104175925254821777e-01 1.763723790645599365e-01 -1.614593416452407837e-01
-3.932391405105590820e-01 1.146290376782417297e-01 -4.702211916446685791e-02
-3.519336581230163574e-01 -6.843493133783340454e-02 2.158891260623931885e-01
-4.203203320503234863e-02 -1.517058014869689941e-01 -3.005124032497406006e-01
-3.537703156471252441e-01 -1.449962556362152100e-01 -3.314254805445671082e-02
-2.104055881500244141e-01 -7.661053538322448730e-02 -4.087796509265899658e-01
-1.628931611776351929e-01 -1.406170893460512161e-02 -4.240714609622955322e-01
-8.770471811294555664e-02 -2.324114888906478882e-01 -1.646284759044647217e-01
-3.442452549934387207e-01 -6.832627207040786743e-02 2.322915792465209961e-01
2.697809040546417236e-02 -1.174261122941970825e-01 1.229076161980628967e-01
-1.456039845943450928e-01 1.383170783519744873e-01 -3.022771775722503662e-01
-2.402590364217758179e-01 -1.340001523494720459e-01 -3.507680892944335938e-01
-8.664340525865554810e-02 6.766411662101745605e-02 3.232660889625549316e-01
-3.760334849357604980e-01 -1.128892078995704651e-01 -4.661972820758819580e-02
-3.110937774181365967e-01 -1.438809335231781006e-01 -2.426431775093078613e-01
-2.721313834190368652e-01 1.910150945186614990e-01 -1.714585274457931519e-01
-3.932523131370544434e-01 5.495687574148178101e-02 -1.658404618501663208e-01
-3.086681365966796875e-01 -1.845230162143707275e-01 -1.130156069993972778e-01
-4.547956585884094238e-02 1.597828418016433716e-01 6.057348102331161499e-02
3.149412572383880615e-02 -5.415967106819152832e-02 1.605590134859085083e-01
-3.068962395191192627e-01 1.115445196628570557e-01 -2.897740602493286133e-01
-2.208515107631683350e-01 1.986088901758193970e-01 -1.797101646661758423e-01
-6.520126760005950928e-02 1.163418069481849670e-01 2.447651028633117676e-01
-2.043746411800384521e-02 -1.864274144172668457e-01 -2.010835260152816772e-01
-1.575224399566650391e-01 2.041014283895492554e-01 1.438035517930984497e-01
-2.443647086620330811e-01 -9.324198216199874878e-02 -3.827041983604431152e-01
5.333378911018371582e-02 -9.585192799568176270e-02 7.812717929482460022e-03
-9.162957966327667236e-02 -5.467175506055355072e-03 3.535687327384948730e-01
-2.722502350807189941e-01 5.433780699968338013e-02 -3.694428205490112305e-01
-1.191205233335494995e-01 -1.539148986339569092e-01 -3.559036254882812500e-01
-9.538174420595169067e-02 1.956162154674530029e-01 2.240796945989131927e-02
-3.385281562805175781e-02 -2.164617627859115601e-01 2.271251566708087921e-02
-3.426696062088012695e-01 2.856308594346046448e-02 2.791111469268798828e-01
-2.146752178668975830e-02 1.325244307518005371e-01 -1.056671068072319031e-01
-1.197104901075363159e-01 2.022576779127120972e-01 -7.713568210601806641e-02
-3.530819416046142578e-01 1.657997816801071167e-01 -7.065858691930770874e-02
-2.782625257968902588e-01 1.465398222208023071e-01 2.700374126434326172e-01
-3.642394244670867920e-01 -4.396400973200798035e-02 -2.479474544525146484e-01
-2.318629622459411621e-02 -2.139363288879394531e-01 -4.967131465673446655e-02
-1.409560143947601318e-01 1.237036362290382385e-01 3.106235265731811523e-01
-2.098122835159301758e-01 -2.111024707555770874e-01 1.548546999692916870e-01
-2.079553604125976562e-01 1.620428115129470825e-01 -2.739071846008300781e-01
-1.962050795555114746e-03 9.855002909898757935e-02 -1.497630327939987183e-01
-5.684509873390197754e-03 -6.852164864540100098e-02 2.428148090839385986e-01
-2.811147570610046387e-01 1.929204463958740234e-01 -1.537632793188095093e-01
-1.712063103914260864e-01 -1.503552645444869995e-01 2.930586040019989014e-01
-3.165743649005889893e-01 1.958692520856857300e-01 -4.910577461123466492e-02
-3.793815672397613525e-01 3.032308816909790039e-02 2.037342339754104614e-01
-3.290918767452239990e-01 1.221424266695976257e-01 -2.452516108751296997e-01
-1.925274878740310669e-01 6.756573915481567383e-02 3.698590099811553955e-01
-3.337377309799194336e-02 -8.418422937393188477e-02 2.771510481834411621e-01
-1.927792429924011230e-01 6.497968733310699463e-02 -3.930329084396362305e-01
-3.070150017738342285e-01 1.771476268768310547e-01 1.749223023653030396e-01
3.820276260375976562e-02 2.937002852559089661e-02 9.109650552272796631e-02
-3.328020572662353516e-01 -1.181017607450485229e-01 1.857756078243255615e-01
-3.784782290458679199e-01 -5.120286718010902405e-02 -2.012766152620315552e-01
5.913627147674560547e-02 -6.049817427992820740e-02 -4.333568736910820007e-03
-3.972721397876739502e-01 8.520681411027908325e-02 1.043026596307754517e-01
-2.688288688659667969e-01 -1.945336163043975830e-01 -2.013665586709976196e-01
5.721206963062286377e-02 -6.091252341866493225e-02 2.565488778054714203e-02
-2.995110154151916504e-01 -9.666934609413146973e-02 -3.257628679275512695e-01
-3.321331739425659180e-01 1.872626841068267822e-01 -3.505250066518783569e-02
-2.813683450222015381e-02 3.692682832479476929e-02 -3.080678582191467285e-01
-1.480301022529602051e-01 1.947108358144760132e-01 1.710376888513565063e-01
-2.432258725166320801e-01 -2.235550731420516968e-01 -1.271916627883911133e-01
-1.031619161367416382e-01 -1.243227943778038025e-01 3.078869581222534180e-01
5.056956410408020020e-02 -6.904785335063934326e-02 7.313755154609680176e-02
-8.835861086845397949e-02 5.992051213979721069e-02 -3.590151965618133545e-01
-2.677580416202545166e-01 -1.483337581157684326e-02 -3.909494578838348389e-01
-3.818014860153198242e-01 -9.245196729898452759e-02 -1.101372465491294861e-01
-1.972525566816329956e-01 5.030952394008636475e-02 3.769724667072296143e-01
-9.999921917915344238e-02 8.144290745258331299e-02 3.245352506637573242e-01
-3.997968137264251709e-02 5.724944174289703369e-02 2.747244238853454590e-01
1.638437807559967041e-02 -1.630588769912719727e-01 -1.448538154363632202e-01
-1.482218801975250244e-01 1.872982084751129150e-01 -1.927366554737091064e-01
-2.907564342021942139e-01 6.731049716472625732e-02 3.307357728481292725e-01
-1.753712296485900879e-01 1.167322322726249695e-01 -3.429186344146728516e-01
-3.528819084167480469e-01 -1.229211241006851196e-01 1.148663535714149475e-01
-1.662662476301193237e-01 2.196432799100875854e-01 -3.149909526109695435e-02
-3.974771201610565186e-01 -6.511793285608291626e-02 -7.225488126277923584e-02
-3.050059676170349121e-01 1.502995043992996216e-01 2.365958988666534424e-01
-6.859173625707626343e-02 8.120517432689666748e-02 2.928697466850280762e-01
-3.302392363548278809e-01 -5.901674926280975342e-02 2.660374939441680908e-01
-1.964505761861801147e-01 1.525293290615081787e-01 -2.917933464050292969e-01
-1.921945214271545410e-01 -1.120607256889343262e-01 -3.944521844387054443e-01
-9.276732802391052246e-03 8.448445051908493042e-02 -2.080284506082534790e-01
-3.262213766574859619e-01 -1.566763073205947876e-01 1.042395755648612976e-01
5.840612947940826416e-02 -2.049012668430805206e-02 -1.388745661824941635e-02
-2.375058233737945557e-01 -2.159439921379089355e-01 1.011189967393875122e-01
-2.813200950622558594e-01 -1.424587517976760864e-01 -2.966479361057281494e-01
-1.497891843318939209e-01 -2.399740368127822876e-01 -1.637795120477676392e-01
-1.120771467685699463e-02 3.760382905602455139e-02 -2.777684330940246582e-01
-1.636871695518493652e-02 8.592891693115234375e-02 -2.236691415309906006e-01
-3.719686269760131836e-01 1.222680732607841492e-01 1.454422920942306519e-01
-6.237908452749252319e-02 1.379293650388717651e-01 -2.118947952985763550e-01
-2.263130843639373779e-01 5.867759138345718384e-02 3.693522810935974121e-01
-1.386076360940933228e-01 2.103653103113174438e-01 -6.318835914134979248e-02
3.646889328956604004e-02 5.075657367706298828e-02 -8.498308807611465454e-02
-1.270762234926223755e-01 -2.166071236133575439e-01 1.602220088243484497e-01
-1.314759254455566406e-03 7.263755798339843750e-02 1.768584251403808594e-01
-3.521042466163635254e-01 -1.363843083381652832e-01 -1.275226324796676636e-01
-3.607717752456665039e-01 2.114750817418098450e-02 2.468913793563842773e-01
-3.486519455909729004e-01 1.692324429750442505e-01 8.512210845947265625e-02
1.662768423557281494e-02 9.412743896245956421e-02 -3.033231571316719055e-02
-4.785741865634918213e-02 -1.610922217369079590e-01 2.148930281400680542e-01
-8.347645401954650879e-03 1.242130473256111145e-01 4.821893572807312012e-02
-3.414474129676818848e-01 -1.443908214569091797e-01 -1.497540920972824097e-01
-4.052453041076660156e-01 -4.243917763233184814e-02 2.951903454959392548e-02
-3.547934293746948242e-01 5.224797129631042480e-02 2.538081109523773193e-01
2.006973326206207275e-02 8.780787885189056396e-02 1.582795195281505585e-02
-2.071620821952819824e-01 2.249702066183090210e-01 -5.471239797770977020e-03
-3.383906483650207520e-01 -1.264106333255767822e-01 1.539979279041290283e-01
-1.682288944721221924e-01 2.129069715738296509e-01 -1.003164574503898621e-01
-3.037491142749786377e-01 1.319657415151596069e-01 -2.659697234630584717e-01
-2.802147865295410156e-01 1.931565254926681519e-01 1.657746881246566772e-01
-1.087987124919891357e-01 -2.471905052661895752e-01 -2.081011421978473663e-02
-1.653043329715728760e-01 -3.515452519059181213e-02 3.792111277580261230e-01
2.795921266078948975e-02 -1.408497542142868042e-01 -1.528555452823638916e-01
-8.458033204078674316e-03 -9.179987013339996338e-03 2.552488148212432861e-01
-1.208351701498031616e-01 4.992175102233886719e-02 -3.878287971019744873e-01
-4.937037825584411621e-02 -1.420364081859588623e-01 -3.202800154685974121e-01
-3.133082687854766846e-01 -1.232426017522811890e-01 2.165452241897583008e-01
-1.749145984649658203e-02 -1.851251870393753052e-01 1.095925644040107727e-01
-1.151727735996246338e-01 -2.886681817471981049e-03 -4.093891978263854980e-01
-3.688882291316986084e-01 -7.938069850206375122e-02 -1.990750581026077271e-01
5.224199593067169189e-02 -4.404768347740173340e-02 7.271590828895568848e-02
-2.457000911235809326e-01 1.959306746721267700e-01 -1.780943274497985840e-01
-1.474946737289428711e-02 1.125335022807121277e-01 -1.559403836727142334e-01
1.262712478637695312e-02 -1.805342882871627808e-01 -1.736902631819248199e-02
-5.924167484045028687e-02 -9.547170251607894897e-02 -3.645334541797637939e-01
-1.949660181999206543e-01 1.960507035255432129e-01 -1.887363791465759277e-01
-3.602393269538879395e-01 1.536067575216293335e-01 1.023846864700317383e-01
-3.042106926441192627e-01 2.050650119781494141e-01 9.959135204553604126e-04
-3.732810914516448975e-01 1.457388848066329956e-01 -5.400270223617553711e-02
-1.199659556150436401e-01 -2.224797308444976807e-01 -2.291164547204971313e-01
-3.822246789932250977e-01 1.227829381823539734e-01 9.989359974861145020e-02
-2.513916790485382080e-02 5.731917917728424072e-05 -3.271467089653015137e-01
-3.738698363304138184e-01 1.422029137611389160e-01 -7.027643173933029175e-02
-6.994097679853439331e-02 1.688073277473449707e-01 1.193948015570640564e-01
-2.602091431617736816e-01 1.904334127902984619e-01 1.947850435972213745e-01
-3.081081509590148926e-01 -1.174975112080574036e-01 2.345439493656158447e-01
-3.990439176559448242e-01 5.784010142087936401e-02 -1.388498693704605103e-01
-2.573738396167755127e-01 6.698887050151824951e-02 3.537053167819976807e-01
-4.149475693702697754e-02 -5.345428362488746643e-03 3.048755824565887451e-01
-1.918994188308715820e-01 -6.877530366182327271e-02 3.650263249874114990e-01
1.483754813671112061e-02 8.183969557285308838e-02 9.375274181365966797e-02
-3.439360857009887695e-02 1.142249777913093567e-01 1.887207329273223877e-01
5.244359374046325684e-02 -9.723789244890213013e-02 -8.753010630607604980e-02
-4.350841045379638672e-03 9.369270503520965576e-02 1.459813565015792847e-01
-1.317644268274307251e-01 3.473796322941780090e-02 3.694943785667419434e-01
-2.289459109306335449e-03 5.282517522573471069e-02 2.057148069143295288e-01
-2.103731036186218262e-03 1.016507763415575027e-02 -2.820293903350830078e-01
-3.155663609504699707e-01 -6.086705997586250305e-02 -3.292140960693359375e-01
-3.004029393196105957e-02 1.298266500234603882e-01 -1.528931558132171631e-01
4.082968831062316895e-02 -4.556029662489891052e-02 -1.892708092927932739e-01
-2.012524902820587158e-01 -1.654370725154876709e-01 2.630420327186584473e-01
4.008975625038146973e-02 -1.387572884559631348e-01 -3.359816968441009521e-02
-2.427001893520355225e-01 2.135420739650726318e-01 -1.051554828882217407e-01
-3.211240768432617188e-01 1.797413378953933716e-01 -1.260146051645278931e-01
-1.167031079530715942e-01 1.429162770509719849e-01 -2.741860151290893555e-01
-3.710135519504547119e-01 1.409506797790527344e-01 9.840090572834014893e-02
-3.396816551685333252e-01 -2.670536376535892487e-02 2.719243764877319336e-01
-4.065933823585510254e-02 -2.236640602350234985e-01 -8.365928381681442261e-02
-3.002331256866455078e-01 -1.220557540655136108e-01 -2.972917854785919189e-01
-4.027847945690155029e-02 -2.621155604720115662e-02 -3.551622927188873291e-01
-3.425888419151306152e-01 -9.608182311058044434e-02 -2.498054951429367065e-01
1.083049178123474121e-02 -9.693160653114318848e-02 -2.609988451004028320e-01
-9.273141622543334961e-04 -1.384521424770355225e-01 -2.477790117263793945e-01
-2.355532646179199219e-01 1.638182103633880615e-01 2.666490674018859863e-01
-6.876908987760543823e-02 -1.701313406229019165e-01 -3.050055801868438721e-01
-1.853135675191879272e-01 2.118009179830551147e-01 1.314462274312973022e-01
-4.038557410240173340e-02 1.025709733366966248e-01 -2.453193068504333496e-01
-2.631030082702636719e-01 1.266163289546966553e-01 -3.101968169212341309e-01
-2.520092427730560303e-01 -2.219627797603607178e-01 2.338719926774501801e-02
3.153353929519653320e-03 -7.203704211860895157e-03 2.320197820663452148e-01
-2.421189546585083008e-01 -1.410200744867324829e-01 2.762272953987121582e-01
-3.656032979488372803e-01 6.234966218471527100e-02 2.278722673654556274e-01
-2.316038906574249268e-01 2.229418903589248657e-01 -3.605788201093673706e-02
-4.114871025085449219e-01 4.065359383821487427e-02 -7.479003071784973145e-02
-3.655572533607482910e-01 1.569488346576690674e-01 4.800838232040405273e-02
-1.092715561389923096e-02 -1.180117353796958923e-01 -2.887756824493408203e-01
-1.959307044744491577e-01 2.244595289230346680e-01 1.871930994093418121e-02
4.015454649925231934e-02 -1.288390308618545532e-01 3.291639685630798340e-02
-3.462341725826263428e-01 9.434536844491958618e-02 -2.511291801929473877e-01
-2.600156962871551514e-01 -2.059501558542251587e-01 9.942631423473358154e-02
-4.495507478713989258e-02 3.707814961671829224e-02 2.953052520751953125e-01
5.186448991298675537e-02 -3.485276550054550171e-02 -1.325934678316116333e-01
-2.191060632467269897e-01 -1.441253870725631714e-01 2.867332696914672852e-01
-1.079204455018043518e-01 1.333403289318084717e-01 2.722113728523254395e-01
-1.576693356037139893e-01 -1.590633094310760498e-01 2.814780175685882568e-01
-1.357919871807098389e-01 -1.380760669708251953e-01 -3.761458098888397217e-01
-2.192537188529968262e-01 -2.372975945472717285e-01 -1.104187872260808945e-02
-2.967072725296020508e-01 1.999619007110595703e-01 -9.310937672853469849e-02
-2.982608973979949951e-01 -1.789602637290954590e-01 -1.814964860677719116e-01
-2.254215180873870850e-01 1.916439831256866455e-01 -2.005870044231414795e-01
-1.303571909666061401e-01 -2.394776344299316406e-01 7.158095389604568481e-02
-7.983791828155517578e-02 -1.667906530201435089e-03 -3.874462544918060303e-01
-1.371074467897415161e-01 1.590441614389419556e-01 -2.579446732997894287e-01
-1.165362969040870667e-01 -1.130921095609664917e-01 3.245467841625213623e-01
1.224926114082336426e-02 -5.779084563255310059e-02 2.107791751623153687e-01
4.821234941482543945e-02 -1.099847927689552307e-01 2.324760891497135162e-02
-2.294940203428268433e-01 -1.911410987377166748e-01 -2.693588137626647949e-01
-1.421851962804794312e-01 -1.497930735349655151e-01 2.927255928516387939e-01
-3.801548480987548828e-01 1.401620060205459595e-01 -1.423245482146739960e-02
4.984600841999053955e-02 -1.137899011373519897e-01 -4.960689693689346313e-02
-6.298861652612686157e-02 -1.432954370975494385e-01 -3.328660130500793457e-01
-3.341693282127380371e-01 -1.108946874737739563e-01 -2.486374229192733765e-01
-4.020640552043914795e-01 6.044413149356842041e-02 -1.208075881004333496e-01
-1.631827354431152344e-01 5.386534333229064941e-02 -3.989242613315582275e-01
-1.412901282310485840e-01 -2.273944318294525146e-01 1.280068904161453247e-01
-1.256999075412750244e-01 -3.500880673527717590e-02 -4.176372587680816650e-01
-2.247810363769531250e-01 -2.006709575653076172e-01 1.718454509973526001e-01
-1.094750836491584778e-01 -7.233400642871856689e-02 -4.063015878200531006e-01
-7.728081196546554565e-02 8.780584484338760376e-02 -3.201224207878112793e-01
-6.163196265697479248e-02 -2.014049589633941650e-01 1.485528498888015747e-01
-1.902513802051544189e-01 9.153387695550918579e-02 -3.714588880538940430e-01
-1.804586499929428101e-01 1.772310137748718262e-01 -2.383507639169692993e-01
-5.149422585964202881e-02 2.071640267968177795e-02 3.108640015125274658e-01
-7.060374319553375244e-02 1.222013458609580994e-01 -2.597766518592834473e-01
-4.036512970924377441e-01 9.339818358421325684e-02 -1.911135390400886536e-02
-2.078753709793090820e-02 -6.253234297037124634e-02 -3.302256762981414795e-01
-2.420264482498168945e-02 -1.381428241729736328e-01 2.143664807081222534e-01
2.510514855384826660e-02 5.206375382840633392e-03 -2.184500843286514282e-01
-2.167610675096511841e-01 5.178676545619964600e-02 -3.975556194782257080e-01
-3.367155790328979492e-01 4.381070658564567566e-02 2.860759198665618896e-01
-3.888543844223022461e-01 3.867474943399429321e-02 -1.912120431661605835e-01
-3.427473902702331543e-01 5.842263996601104736e-02 2.724178135395050049e-01
-4.626655578613281250e-02 -1.818781346082687378e-01 -2.593103349208831787e-01
-3.240697383880615234e-01 -1.637251824140548706e-01 -1.493319720029830933e-01
-1.545041650533676147e-01 2.152949869632720947e-01 -5.695543438196182251e-02
-8.038297295570373535e-02 1.730152666568756104e-01 1.320382803678512573e-01
-2.123696655035018921e-01 -1.837481558322906494e-01 -2.992425560951232910e-01
-7.805334776639938354e-02 -2.259613126516342163e-01 -1.805992424488067627e-01
-3.457654118537902832e-01 -1.474459767341613770e-01 5.203206092119216919e-02
-3.427731096744537354e-01 1.617361903190612793e-01 1.387387961149215698e-01
2.687075734138488770e-02 3.379004448652267456e-02 1.381213366985321045e-01
-4.066721200942993164e-01 7.627169042825698853e-02 5.112574249505996704e-02
-2.754598855972290039e-01 -1.449653506278991699e-01 2.368761301040649414e-01
-3.431686162948608398e-01 3.974862024188041687e-02 -2.958921790122985840e-01
2.173566818237304688e-02 2.709723636507987976e-02 1.642041951417922974e-01
-6.677822023630142212e-02 1.277503073215484619e-01 -2.429398149251937866e-01
-3.871250748634338379e-01 1.187540963292121887e-01 8.324936777353286743e-02
-4.130557179450988770e-01 -7.786419242620468140e-03 -4.262588545680046082e-02
-2.446000427007675171e-01 1.835938245058059692e-01 -2.150181829929351807e-01
-2.512723803520202637e-01 1.811889559030532837e-02 -3.974237442016601562e-01
-3.712354302406311035e-01 -9.037867188453674316e-02 1.252512484788894653e-01
-2.897188365459442139e-01 1.998097300529479980e-01 -1.101596131920814514e-01
-5.501320213079452515e-02 -2.012793160974979401e-02 3.213933706283569336e-01
-3.235734403133392334e-01 -7.889422029256820679e-02 2.583727836608886719e-01
-3.776623606681823730e-01 1.185237690806388855e-01 -1.313338130712509155e-01
-3.483697474002838135e-01 1.428668200969696045e-01 -1.681962013244628906e-01
-3.292980790138244629e-01 1.897956281900405884e-01 4.047829657793045044e-02
-1.400551646947860718e-01 -2.066862732172012329e-01 -2.756004929542541504e-01
-3.860741853713989258e-03 -1.976797878742218018e-01 -1.824219897389411926e-02
-1.014853566884994507e-01 1.955516338348388672e-01 6.810567528009414673e-02
-1.522521674633026123e-02 2.938786149024963379e-02 2.525984048843383789e-01
-2.935377955436706543e-01 -5.989895015954971313e-02 3.134250342845916748e-01
-1.530599743127822876e-01 3.700074739754199982e-03 3.816747665405273438e-01
-1.566489934921264648e-01 -2.059818655252456665e-01 1.926104575395584106e-01
5.678698420524597168e-02 -3.890578448772430420e-02 -9.527754783630371094e-02
-4.102352261543273926e-01 -2.591274119913578033e-02 1.113206706941127777e-02
-8.660870790481567383e-02 -1.693632453680038452e-01 -3.204957544803619385e-01
-1.125955134630203247e-01 -2.069185823202133179e-01 1.806236952543258667e-01
-2.928500771522521973e-01 -1.985822468996047974e-01 -9.737182408571243286e-02
-3.698396086692810059e-01 -1.197313219308853149e-01 -7.927138358354568481e-02
-2.375656813383102417e-01 -2.063110917806625366e-01 1.388723254203796387e-01
-2.940199375152587891e-01 1.822595894336700439e-01 -1.708750724792480469e-01
-7.948562502861022949e-03 8.793731033802032471e-02 1.697782427072525024e-01
3.302623331546783447e-02 6.217202544212341309e-02 -6.365406513214111328e-02
-9.760474413633346558e-02 -1.821216046810150146e-01 2.257698327302932739e-01
-1.257981359958648682e-01 -2.460933923721313477e-01 -1.170495301485061646e-01
-7.527606934309005737e-02 -7.411505281925201416e-02 -3.857316970825195312e-01
-3.204927742481231689e-01 6.793890148401260376e-02 -3.136575222015380859e-01
-2.534148991107940674e-01 1.005890518426895142e-01 -3.459602892398834229e-01
-3.713528811931610107e-01 -1.015241593122482300e-01 9.612883627414703369e-02
-3.663144707679748535e-01 1.290850341320037842e-03 2.321958243846893311e-01
-2.432461082935333252e-01 1.390397548675537109e-01 -3.036143183708190918e-01
-2.428810894489288330e-01 -1.306227147579193115e-01 2.897620797157287598e-01
9.222179651260375977e-03 -9.888105094432830811e-02 1.933668851852416992e-01
-2.445518970489501953e-01 4.063250869512557983e-02 3.685349524021148682e-01
-7.394895702600479126e-02 -7.091999799013137817e-02 3.265613019466400146e-01
4.379487037658691406e-02 -8.179573714733123779e-02 9.862130135297775269e-02
-3.040581941604614258e-01 -1.927080899477005005e-01 -8.208326064050197601e-03
-8.548728376626968384e-02 -1.805827766656875610e-01 -3.027163147926330566e-01
3.994078934192657471e-02 -1.389525979757308960e-01 -5.090600252151489258e-02
-2.299976795911788940e-01 8.635959029197692871e-02 -3.693176507949829102e-01
-4.534515738487243652e-02 -1.988164782524108887e-01 1.300966441631317139e-01
1.450596749782562256e-02 -1.480553299188613892e-01 1.096602156758308411e-01
1.527526974678039551e-02 -3.991734981536865234e-02 -2.647521793842315674e-01
-4.569010436534881592e-02 1.497150212526321411e-01 1.189644411206245422e-01
-2.231921255588531494e-02 1.282780319452285767e-01 -1.292983293533325195e-01
1.979736983776092529e-02 -1.399075388908386230e-01 -1.883666217327117920e-01
-8.176654577255249023e-02 1.050967946648597717e-01 -3.021149635314941406e-01
-1.508547365665435791e-01 1.984765082597732544e-01 -1.545970290899276733e-01
-3.181952536106109619e-01 -1.798983365297317505e-01 -8.122098445892333984e-02
-3.955070376396179199e-01 -5.518013611435890198e-02 8.183285593986511230e-02
-8.297064900398254395e-02 -2.285834699869155884e-01 8.261421322822570801e-02
-3.401986956596374512e-01 -1.603499948978424072e-01 -4.789610952138900757e-02
2.402800321578979492e-02 -6.104813888669013977e-02 -2.426940798759460449e-01
3.617389500141143799e-02 3.802186995744705200e-02 -1.271618753671646118e-01
-1.582520306110382080e-01 4.921157658100128174e-02 3.735419809818267822e-01
-2.788655161857604980e-01 1.809951514005661011e-01 -1.941775530576705933e-01
-1.417323499917984009e-01 1.905228942632675171e-03 -4.175802171230316162e-01
1.282128691673278809e-02 5.147954821586608887e-02 1.646743118762969971e-01
-1.933794915676116943e-01 -1.310062855482101440e-01 3.131534457206726074e-01
-3.761365413665771484e-01 -8.264110982418060303e-02 -1.661208420991897583e-01
-9.194896370172500610e-02 -8.303450793027877808e-02 3.333117067813873291e-01
-3.963950574398040771e-01 -4.073097556829452515e-02 -1.379225701093673706e-01
-1.737632602453231812e-01 -2.327120006084442139e-01 1.001281663775444031e-01
-1.756395846605300903e-01 -1.234709545969963074e-01 3.243202269077301025e-01
-2.421796321868896484e-01 2.200720906257629395e-01 -5.700952559709548950e-02
-8.372717350721359253e-02 1.857176721096038818e-01 7.001697272062301636e-02
-2.489569187164306641e-01 2.166140973567962646e-01 -7.818096876144409180e-02
4.562018811702728271e-02 -1.254847794771194458e-01 -2.299805171787738800e-02
-1.248339116573333740e-01 1.248515918850898743e-01 -3.112699985504150391e-01
-6.122276932001113892e-02 -2.258641868829727173e-01 5.494476854801177979e-02
-9.655892103910446167e-02 -2.434234023094177246e-01 -1.002100706100463867e-01
-2.970161437988281250e-01 -1.931339502334594727e-01 4.392097145318984985e-02
-1.876488476991653442e-01 1.247154250741004944e-01 -3.340000510215759277e-01
-6.693153083324432373e-02 -5.267501622438430786e-02 -3.829808831214904785e-01
-3.628311753273010254e-01 1.042801588773727417e-01 1.999248713254928589e-01
7.642269134521484375e-03 -6.765450537204742432e-02 -2.800848484039306641e-01
-4.386439919471740723e-02 1.386670321226119995e-01 1.522750407457351685e-01
-1.819573342800140381e-02 -2.098182886838912964e-01 -6.958848237991333008e-02
-1.038057506084442139e-01 -1.652204692363739014e-01 2.578302919864654541e-01
4.064157605171203613e-03 -1.328226625919342041e-01 1.663260459899902344e-01
-1.039155051112174988e-01 -2.273046523332595825e-01 1.114506646990776062e-01
-4.639744758605957031e-03 -2.857618778944015503e-02 -3.034934401512145996e-01
-3.894969224929809570e-01 1.065086945891380310e-01 -1.054411903023719788e-01
-1.270910501480102539e-01 1.855218559503555298e-01 1.771884411573410034e-01
3.086325526237487793e-02 4.040787369012832642e-02 1.105297878384590149e-01
-2.096868902444839478e-01 1.523915529251098633e-01 2.900144755840301514e-01
-8.914896845817565918e-02 -1.267451941967010498e-01 2.970967888832092285e-01
-2.873184680938720703e-01 1.805434376001358032e-01 1.945488005876541138e-01
-3.180237412452697754e-01 -2.747107855975627899e-02 3.030823171138763428e-01
-3.661371767520904541e-02 1.491280794143676758e-01 8.105804771184921265e-02
-3.551687300205230713e-01 -4.577635228633880615e-02 2.306807041168212891e-01
-2.262566238641738892e-01 -1.304582655429840088e-01 3.006187677383422852e-01
-1.921565532684326172e-01 1.841683685779571533e-01 2.278338819742202759e-01
-8.683767914772033691e-02 1.379144042730331421e-01 -2.513354420661926270e-01
8.309334516525268555e-03 -1.720294803380966187e-01 6.527439504861831665e-02
1.349242031574249268e-02 2.830838784575462341e-03 -2.522238194942474365e-01
-4.015051722526550293e-01 -5.830076336860656738e-02 -4.353489726781845093e-02
-1.871059536933898926e-01 -2.386201173067092896e-01 -1.467931717634201050e-01
-1.191345155239105225e-01 1.712963879108428955e-01 -2.110880911350250244e-01
-2.669687867164611816e-01 -2.030925303697586060e-01 -1.728393584489822388e-01
-4.103686213493347168e-01 1.855870708823204041e-02 7.433390617370605469e-02
-4.095955193042755127e-02 1.519235819578170776e-01 -9.912040829658508301e-02
-3.191294670104980469e-01 -1.754225939512252808e-01 4.444846510887145996e-02
8.981645107269287109e-03 -1.657365262508392334e-01 8.364874124526977539e-02
1.643872261047363281e-02 -1.524458825588226318e-01 -1.744870990514755249e-01
-1.531045138835906982e-02 -1.592531502246856689e-01 1.652678102254867554e-01
-4.762843251228332520e-02 -2.282957881689071655e-01 -6.249828636646270752e-02
-3.677308559417724609e-02 -2.193922251462936401e-01 -1.069543883204460144e-01
-3.885356187820434570e-01 -7.563491165637969971e-02 7.404737919569015503e-02
-1.088273823261260986e-01 -2.219261080026626587e-01 1.346419155597686768e-01
-1.856980174779891968e-01 -9.809921681880950928e-02 -4.048709571361541748e-01
-2.081141471862792969e-01 -3.644960001111030579e-02 3.761598467826843262e-01
-1.580239236354827881e-01 -1.933839619159698486e-01 2.215140759944915771e-01
-3.355976939201354980e-02 -5.331557616591453552e-02 2.909946441650390625e-01
-7.698676735162734985e-02 -2.186696827411651611e-01 -2.068318128585815430e-01
-2.012889087200164795e-01 1.275371164083480835e-01 3.227696120738983154e-01
5.238509178161621094e-02 -1.039167344570159912e-01 -1.268449611961841583e-02
-1.663212478160858154e-02 4.280931316316127777e-03 -3.118689954280853271e-01
-5.099523067474365234e-02 -2.261434495449066162e-01 -1.155302450060844421e-01
-1.505921483039855957e-01 1.150528267025947571e-01 -3.384064435958862305e-01
-2.719988524913787842e-01 1.614757478237152100e-01 -2.466728240251541138e-01
5.507417023181915283e-02 -8.234573155641555786e-02 2.068080939352512360e-02
-1.884289532899856567e-01 1.664838492870330811e-01 2.647622823715209961e-01
-4.044752120971679688e-01 -3.607782721519470215e-02 5.768226087093353271e-02
-3.780923187732696533e-01 1.040886789560317993e-01 1.566162258386611938e-01
-3.614336252212524414e-02 1.267872750759124756e-01 1.638915985822677612e-01
-2.527760863304138184e-01 -7.629752904176712036e-02 -3.864662945270538330e-01
-2.456514686346054077e-01 -1.077604591846466064e-01 -3.714026212692260742e-01
-2.657576203346252441e-01 -1.799760758876800537e-01 -2.483569383621215820e-01
-2.318770587444305420e-01 1.415924429893493652e-01 3.015900552272796631e-01
-3.988234400749206543e-01 -1.379083655774593353e-02 -1.513850390911102295e-01
-2.294544130563735962e-01 -2.132584899663925171e-01 -2.069547474384307861e-01
1.084373891353607178e-02 4.124330356717109680e-02 1.831894665956497192e-01
1.962944865226745605e-02 -1.517982184886932373e-01 8.085142076015472412e-02
-1.860816627740859985e-01 -1.421453654766082764e-01 3.014654815196990967e-01
-2.767290472984313965e-01 -1.722863167524337769e-01 1.782860159873962402e-01
-3.645930886268615723e-01 -9.640815854072570801e-02 -1.854746788740158081e-01
3.770531713962554932e-02 -7.443782687187194824e-02 1.299446970224380493e-01
-1.873998641967773438e-01 -2.283311933279037476e-01 -1.981062591075897217e-01
-1.880542635917663574e-01 -2.559511922299861908e-03 -4.222178161144256592e-01
-2.197218239307403564e-01 -1.952480673789978027e-01 1.910694837570190430e-01
-9.572634845972061157e-02 1.469268202781677246e-01 2.342308461666107178e-01
-3.322708010673522949e-01 4.049889370799064636e-02 -3.125228583812713623e-01
-1.129065454006195068e-01 1.906208395957946777e-01 -1.318976730108261108e-01
-1.579487621784210205e-01 2.129943817853927612e-01 -8.513049781322479248e-02
-1.424548923969268799e-01 1.456767767667770386e-01 2.810003459453582764e-01
5.919457972049713135e-02 -4.833953082561492920e-02 -6.557535380125045776e-02
-1.004536598920822144e-01 1.895191073417663574e-01 1.078245416283607483e-01
-3.744917511940002441e-01 -8.496101014316082001e-03 -2.371196895837783813e-01
2.319690585136413574e-02 2.087065950036048889e-02 -2.093448936939239502e-01
-2.204561829566955566e-01 1.539120674133300781e-01 -2.870973050594329834e-01
-3.160932660102844238e-01 1.621207296848297119e-01 1.974065154790878296e-01
-3.810970485210418701e-01 1.384715288877487183e-01 2.510624937713146210e-02
1.286555826663970947e-02 -1.403342634439468384e-01 -2.099548280239105225e-01
-3.650428950786590576e-01 -1.292635053396224976e-01 -5.519206076860427856e-02
-2.437855899333953857e-01 -2.057209759950637817e-01 -2.108451128005981445e-01
4.514271020889282227e-02 -1.154368966817855835e-01 -1.107207611203193665e-01
-1.209032163023948669e-01 -9.716646373271942139e-02 -4.010661244392395020e-01
-2.191420346498489380e-01 2.011885195970535278e-01 1.809786409139633179e-01
-3.837328553199768066e-01 2.993955090641975403e-02 -2.104142159223556519e-01
-2.650733292102813721e-01 2.179883718490600586e-01 4.332163929939270020e-02
-2.911721765995025635e-01 2.081336230039596558e-01 6.393229961395263672e-02
-1.163916289806365967e-01 2.039533257484436035e-01 4.986961185932159424e-02
-1.058565825223922729e-01 -4.640127345919609070e-02 3.573842644691467285e-01
-3.898028135299682617e-01 -8.302450180053710938e-02 3.402030467987060547e-02
-2.973688840866088867e-01 -7.968702912330627441e-02 2.936400175094604492e-01
-3.844518959522247314e-01 -9.613267332315444946e-02 -6.522433459758758545e-02
-8.487627655267715454e-02 1.842434704303741455e-01 8.676671236753463745e-02
-2.781396508216857910e-01 9.028616547584533691e-02 -3.393617272377014160e-01
-1.081304252147674561e-02 -8.376460522413253784e-02 -3.092200756072998047e-01
-1.319863200187683105e-01 -8.480009436607360840e-02 -4.097488522529602051e-01
-3.172962665557861328e-01 -1.553793549537658691e-01 1.367929428815841675e-01
-3.269857764244079590e-01 6.908888369798660278e-02 2.908494472503662109e-01
-1.545674949884414673e-01 -2.360726743936538696e-01 -1.824650317430496216e-01
-3.535658121109008789e-02 1.617877185344696045e-02 2.914350926876068115e-01
-2.725137472152709961e-01 -1.128390431404113770e-01 2.861701250076293945e-01
-1.327435523271560669e-01 2.080852538347244263e-02 -4.085424542427062988e-01
-4.027768373489379883e-01 -4.568295553326606750e-02 -8.264650404453277588e-02
-1.379353851079940796e-01 2.124381363391876221e-01 4.088610410690307617e-02
-3.493843078613281250e-01 -1.430003494024276733e-01 -1.124610677361488342e-01
-3.031706809997558594e-01 1.650505959987640381e-01 -2.040638178586959839e-01
-3.657478690147399902e-01 -5.413688346743583679e-02 1.980820298194885254e-01
-6.980793923139572144e-02 1.568853408098220825e-01 -1.725645959377288818e-01
-2.775528728961944580e-01 2.359813824295997620e-02 3.519242107868194580e-01
-2.282630354166030884e-01 -1.537712812423706055e-01 2.670704126358032227e-01
5.602985620498657227e-04 1.154221519827842712e-01 -4.810351505875587463e-02
-2.478922605514526367e-01 1.500922143459320068e-01 2.839407324790954590e-01
-7.126976549625396729e-02 -2.373250722885131836e-01 -1.066109817475080490e-02
-9.362793713808059692e-02 -5.896323546767234802e-02 -4.011507630348205566e-01
-3.183860778808593750e-01 1.482382323592901230e-02 -3.387555480003356934e-01
-6.925618648529052734e-02 -1.592452637851238251e-03 3.348289430141448975e-01
-4.142162799835205078e-01 6.457055918872356415e-03 2.336928807199001312e-02
-8.738785982131958008e-04 -2.181547135114669800e-02 2.425796985626220703e-01
-2.424085140228271484e-01 -1.986522078514099121e-01 -2.348192185163497925e-01
-3.459875285625457764e-01 -1.521859765052795410e-01 1.382851786911487579e-02
-2.650326490402221680e-01 -1.662835776805877686e-01 2.093603461980819702e-01
3.211823105812072754e-02 6.173596531152725220e-02 4.193400591611862183e-02
1.614691317081451416e-02 3.850766643881797791e-02 -2.099834680557250977e-01
-1.096289604902267456e-01 1.207845732569694519e-01 2.916879355907440186e-01
-1.300945878028869629e-02 -3.744583949446678162e-02 -3.190679252147674561e-01
-1.040306016802787781e-01 -1.378041058778762817e-01 2.940984964370727539e-01
-3.007793426513671875e-01 1.711716055870056152e-01 2.002241760492324829e-01
-1.702247709035873413e-01 1.297437995672225952e-01 3.157001733779907227e-01
-3.718864917755126953e-01 1.536302175372838974e-02 2.222185283899307251e-01
-2.086775451898574829e-01 -1.727218180894851685e-01 -3.207803666591644287e-01
-1.234363019466400146e-01 -1.512206643819808960e-01 2.861292362213134766e-01
-4.587374627590179443e-02 5.287994630634784698e-03 -3.520932793617248535e-01
5.307710170745849609e-02 1.136669889092445374e-04 3.040312789380550385e-02
4.213058948516845703e-02 3.369712457060813904e-02 -9.562462568283081055e-02
-8.388668298721313477e-03 -1.020159423351287842e-01 2.262978553771972656e-01
-4.721602797508239746e-02 -2.221650332212448120e-01 3.648351877927780151e-02
2.126780152320861816e-02 -9.962271153926849365e-02 -2.330928742885589600e-01
-1.050942167639732361e-01 -2.419724911451339722e-01 -1.299623399972915649e-01
-1.797033548355102539e-01 -1.640234738588333130e-01 2.720167338848114014e-01
1.345679163932800293e-03 1.157296076416969299e-01 -2.461841329932212830e-02
-4.406839609146118164e-02 1.142703518271446228e-01 -2.298116385936737061e-01
-2.670310735702514648e-01 1.535565257072448730e-01 -2.657233178615570068e-01
-8.514372259378433228e-02 -1.888525336980819702e-01 -2.880946099758148193e-01
-2.130025327205657959e-01 -9.264226257801055908e-02 3.440510332584381104e-01
4.581852257251739502e-02 2.434275299310684204e-02 4.604429006576538086e-02
4.327183961868286133e-02 -3.876582719385623932e-03 1.061246469616889954e-01
-3.607307970523834229e-01 -1.236285567283630371e-01 7.575643807649612427e-02
-3.179417848587036133e-01 -1.808979362249374390e-01 1.368291676044464111e-03
-3.193523585796356201e-01 4.368093982338905334e-02 3.093068897724151611e-01
-3.317335546016693115e-01 -1.425294131040573120e-01 -1.920758187770843506e-01
-2.022737413644790649e-01 -2.104449719190597534e-01 -2.457600831985473633e-01
-1.932775229215621948e-01 1.738123893737792969e-01 -2.489216625690460205e-01
-1.131480112671852112e-01 4.555412009358406067e-02 3.558746874332427979e-01
-2.832249701023101807e-01 -1.288101375102996826e-01 -3.129162788391113281e-01
5.662521719932556152e-02 -7.320670876652002335e-03 -3.539503365755081177e-02
-3.068040609359741211e-01 1.918252557516098022e-01 -1.102393269538879395e-01
-2.437386065721511841e-01 -9.921811521053314209e-03 -4.060361981391906738e-01
-1.510958373546600342e-02 -1.783389225602149963e-02 -3.184837102890014648e-01
-1.299855411052703857e-01 -1.005894541740417480e-01 3.395150899887084961e-01
-1.015802770853042603e-01 1.784717142581939697e-01 -1.616850942373275757e-01
-2.444261312484741211e-01 -2.713766694068908691e-02 -4.055243730545043945e-01
-3.379029035568237305e-01 1.595764309167861938e-01 -1.511126458644866943e-01
-1.527590453624725342e-01 1.180985048413276672e-01 3.228648900985717773e-01
-2.343456745147705078e-01 -9.563533216714859009e-02 3.322354257106781006e-01
-3.743847310543060303e-01 1.293337047100067139e-01 1.193514242768287659e-01
-5.301378667354583740e-02 1.641359776258468628e-01 -8.223333954811096191e-02
-1.452854275703430176e-02 1.300000548362731934e-01 -7.633248716592788696e-02
-1.710881143808364868e-01 -1.855275630950927734e-01 -3.149999678134918213e-01
