-2.299395203590393066e-02 -8.059260249137878418e-02 -8.156663179397583008e-02
2.714353203773498535e-01 3.163869678974151611e-02 4.200808107852935791e-01
6.374762952327728271e-02 7.080707699060440063e-02 3.305562436580657959e-01
3.988592624664306641e-01 -6.789883971214294434e-02 -2.561160326004028320e-01
2.481327950954437256e-01 1.435057669878005981e-01 -3.173934519290924072e-01
5.554551482200622559e-01 1.064889878034591675e-02 1.405009776353836060e-01
4.133951663970947266e-01 -3.661286458373069763e-02 -2.737585008144378662e-01
4.413584768772125244e-01 -1.340487152338027954e-01 -5.947877094149589539e-02
1.252585202455520630e-01 2.634548246860504150e-01 -2.452842891216278076e-03
3.767625093460083008e-01 -1.791113018989562988e-01 9.696257114410400391e-02
1.655915379524230957e-02 1.072466224431991577e-01 -9.812222421169281006e-02
3.409861326217651367e-01 -1.792958378791809082e-01 1.792318969964981079e-01
9.131431579589843750e-02 2.373707294464111328e-01 1.952014677226543427e-02
8.442293107509613037e-02 1.134373992681503296e-01 3.276103138923645020e-01
1.214468479156494141e-01 2.507035136222839355e-01 -5.305859819054603577e-02
5.565255880355834961e-01 2.833480834960937500e-01 1.372524499893188477e-01
5.590987801551818848e-01 -1.311587169766426086e-02 3.282906860113143921e-02
1.561521738767623901e-01 2.607821226119995117e-01 -1.061249971389770508e-01
2.347996830940246582e-01 1.299447864294052124e-01 -3.185625374317169189e-01
-4.155084490776062012e-02 -9.243164956569671631e-02 -3.654368221759796143e-03
2.485696673393249512e-01 -2.280065119266510010e-01 1.148996353149414062e-01
2.923464477062225342e-01 -8.268404006958007812e-02 -2.924244701862335205e-01
6.484386324882507324e-02 6.196938455104827881e-03 3.484627604484558105e-01
3.909452855587005615e-01 3.152204453945159912e-01 2.444951981306076050e-01
4.807968437671661377e-01 1.090684607625007629e-01 3.290037810802459717e-01
2.608457803726196289e-01 2.888540327548980713e-01 2.649977803230285645e-01
4.217247962951660156e-01 2.921361625194549561e-01 2.713847756385803223e-01
2.254030406475067139e-01 -2.333359420299530029e-01 1.106434762477874756e-01
4.766093790531158447e-01 -1.089939922094345093e-01 -2.880485728383064270e-02
3.152942657470703125e-01 -1.654906272888183594e-01 -1.790962368249893188e-01
2.825845181941986084e-01 -1.617965251207351685e-01 2.747878432273864746e-01
2.541338205337524414e-01 -2.327395975589752197e-01 3.701636195182800293e-02
2.358620464801788330e-01 2.697202563285827637e-01 -1.903276145458221436e-01
2.192444801330566406e-01 1.052555292844772339e-01 -3.215981423854827881e-01
8.068776130676269531e-02 2.065094932913780212e-02 -2.489609569311141968e-01
5.199500322341918945e-01 3.066369593143463135e-01 -1.191889792680740356e-01
3.503938317298889160e-01 3.616140484809875488e-01 -6.019119173288345337e-03
1.850009858608245850e-01 -2.427338063716888428e-01 4.565567523241043091e-02
5.574011802673339844e-01 2.156803607940673828e-01 2.132128626108169556e-01
3.104932904243469238e-01 2.894654273986816406e-01 2.848046720027923584e-01
2.549848556518554688e-01 -1.582971662282943726e-01 -2.187724560499191284e-01
3.309466838836669922e-01 3.411900699138641357e-01 1.760722696781158447e-01
1.525704562664031982e-01 1.824794262647628784e-01 -2.287165969610214233e-01
9.161141514778137207e-02 -2.211099267005920410e-01 -4.745500162243843079e-02
-2.057605981826782227e-02 3.193865716457366943e-02 2.068324834108352661e-01
5.505511760711669922e-01 2.942945659160614014e-01 -9.084427356719970703e-02
4.392780661582946777e-01 -3.119947388768196106e-02 3.035434186458587646e-01
1.610671877861022949e-01 2.922026216983795166e-01 5.308401584625244141e-02
6.053034067153930664e-01 8.864056318998336792e-02 -7.961295545101165771e-03
3.520081639289855957e-01 3.630362451076507568e-01 6.306675076484680176e-02
-1.685675978660583496e-02 8.320426940917968750e-02 1.507746428251266479e-01
-4.991540312767028809e-02 -4.299945756793022156e-02 1.202752143144607544e-01
2.527207136154174805e-01 -4.461136087775230408e-02 -3.188482522964477539e-01
1.440912932157516479e-01 -1.452192962169647217e-01 3.189550638198852539e-01
4.944090843200683594e-01 2.100196629762649536e-01 2.962376773357391357e-01
4.082267284393310547e-01 3.030667901039123535e-01 -1.978822052478790283e-01
3.866992592811584473e-01 3.439307510852813721e-01 -1.103310137987136841e-01
5.609692335128784180e-01 1.797365024685859680e-02 -1.081842929124832153e-01
5.043745636940002441e-01 3.440615236759185791e-01 1.040793955326080322e-02
1.712193489074707031e-01 9.015052765607833862e-02 -3.025853037834167480e-01
3.993771970272064209e-02 7.139618694782257080e-02 3.003805875778198242e-01
3.398352861404418945e-01 3.342132568359375000e-01 2.008894234895706177e-01
7.358756661415100098e-02 -4.139878228306770325e-02 -2.397314459085464478e-01
1.571436822414398193e-01 2.483860701322555542e-01 2.427652180194854736e-01
2.455509006977081299e-01 5.503166466951370239e-02 -3.386023342609405518e-01
3.162621855735778809e-01 -8.509449660778045654e-02 3.509700596332550049e-01
3.206062912940979004e-01 -2.095607221126556396e-01 -1.135894283652305603e-02
3.611205220222473145e-01 3.515306487679481506e-02 3.968531489372253418e-01
-4.367849230766296387e-02 1.078199222683906555e-02 3.930386155843734741e-03
7.055440545082092285e-02 1.216202974319458008e-03 -2.405240088701248169e-01
2.162175327539443970e-01 -2.277704775333404541e-01 1.487553417682647705e-01
3.232627213001251221e-01 3.294138312339782715e-01 2.079969644546508789e-01
6.086264252662658691e-01 1.455833017826080322e-01 9.084195643663406372e-02
5.344142913818359375e-01 3.073629736900329590e-01 -9.274488687515258789e-02
1.015382856130599976e-01 -2.321442961692810059e-01 -3.984473645687103271e-03
-1.348149776458740234e-02 1.600540056824684143e-02 2.348496764898300171e-01
2.284414917230606079e-01 3.280539810657501221e-01 6.883779913187026978e-02
6.442517042160034180e-03 1.389084905385971069e-01 9.504726529121398926e-02
-4.299008846282958984e-02 -3.584649041295051575e-02 1.599942296743392944e-01
3.466205596923828125e-01 1.307627707719802856e-01 -3.356135785579681396e-01
4.038863778114318848e-01 -1.612033396959304810e-01 1.037733852863311768e-01
2.636050283908843994e-01 2.599188387393951416e-01 3.119809925556182861e-01
3.406009674072265625e-01 -1.506851911544799805e-01 -1.876219213008880615e-01
3.625686466693878174e-02 -1.777866482734680176e-01 -8.447563648223876953e-02
1.424797475337982178e-01 2.796621620655059814e-01 6.539296358823776245e-02
2.384825795888900757e-01 2.874740064144134521e-01 -1.594869494438171387e-01
4.052633643150329590e-01 9.495526552200317383e-02 3.839738368988037109e-01
1.869627535343170166e-01 -1.663992851972579956e-01 2.972488701343536377e-01
1.522633284330368042e-01 2.065964788198471069e-01 3.052580356597900391e-01
3.834425806999206543e-01 9.071974456310272217e-02 3.948044180870056152e-01
4.882337749004364014e-01 3.328393697738647461e-01 1.426660120487213135e-01
1.036954820156097412e-01 2.356601655483245850e-01 1.668784618377685547e-01
4.681470990180969238e-01 3.490851521492004395e-01 -5.550814047455787659e-02
3.004806339740753174e-01 2.775252461433410645e-01 3.001559376716613770e-01
5.089862942695617676e-01 3.180473446846008301e-01 1.530580371618270874e-01
5.833399295806884766e-01 3.303673863410949707e-02 -2.633722499012947083e-02
4.370885491371154785e-01 -8.861026167869567871e-02 -1.898970454931259155e-01
-2.033898234367370605e-02 6.331720203161239624e-02 -4.158008471131324768e-02
2.861323952674865723e-02 -4.556776210665702820e-02 -1.880882978439331055e-01
6.179791688919067383e-02 1.551137566566467285e-01 -1.331214606761932373e-01
1.294446438550949097e-01 -1.818951815366744995e-01 -1.690899133682250977e-01
7.825426757335662842e-02 1.879138126969337463e-02 3.590721189975738525e-01
5.400197505950927734e-01 -1.108087226748466492e-02 -1.199666261672973633e-01
1.500537991523742676e-02 -1.873199045658111572e-01 -4.504594951868057251e-03
2.524907588958740234e-01 1.824298053979873657e-01 3.829509615898132324e-01
9.419970214366912842e-02 -2.104496061801910400e-01 -8.566495776176452637e-02
1.889787912368774414e-01 -2.419727444648742676e-01 6.551009416580200195e-02
4.605782032012939453e-01 3.366686105728149414e-01 1.630574911832809448e-01
1.919960081577301025e-01 2.806049883365631104e-01 2.168931365013122559e-01
5.658231675624847412e-02 -6.931599974632263184e-02 3.278526961803436279e-01
3.336679041385650635e-01 -8.285231888294219971e-02 -2.797755002975463867e-01
1.938824057579040527e-01 1.158085167407989502e-01 4.005345106124877930e-01
4.138080179691314697e-01 1.712907105684280396e-01 3.681416809558868408e-01
4.203691482543945312e-01 -6.087676808238029480e-02 -2.453375011682510376e-01
5.293269157409667969e-01 -5.515017732977867126e-02 2.755523845553398132e-02
1.510563641786575317e-01 2.712348699569702148e-01 -6.122927740216255188e-02
5.313251018524169922e-01 4.412467032670974731e-02 -2.056508958339691162e-01
2.364467829465866089e-01 -3.303422406315803528e-02 4.048979878425598145e-01
4.846297800540924072e-01 -1.909809932112693787e-02 2.566294968128204346e-01
8.263978362083435059e-02 1.797073781490325928e-01 -1.355800777673721313e-01
1.915052831172943115e-01 2.775482088327407837e-02 -3.222925662994384766e-01
3.707222640514373779e-01 2.039814591407775879e-01 -3.024564087390899658e-01
1.511373668909072876e-01 -5.951291695237159729e-02 -2.870448827743530273e-01
4.837655127048492432e-01 2.361787408590316772e-01 2.893037199974060059e-01
5.616425275802612305e-01 2.933784723281860352e-01 -6.176813319325447083e-02
3.013911843299865723e-02 -2.024071216583251953e-01 1.468097232282161713e-02
2.984255552291870117e-01 8.321087807416915894e-03 -3.377844393253326416e-01
5.554963946342468262e-01 3.038417398929595947e-01 8.193816244602203369e-02
-6.823092699050903320e-03 1.506426930427551270e-02 -1.225051730871200562e-01
3.310984075069427490e-01 3.423133492469787598e-01 -9.471729397773742676e-02
2.516155242919921875e-01 3.310860693454742432e-01 1.296337693929672241e-01
2.225986421108245850e-01 2.918277978897094727e-01 -1.316827535629272461e-01
3.513642251491546631e-01 3.330421745777130127e-01 -1.331320554018020630e-01
4.545099735260009766e-01 -1.360013708472251892e-02 -2.573124468326568604e-01
5.407137870788574219e-01 -3.447959944605827332e-02 -4.808850958943367004e-02
1.764552146196365356e-01 -1.979238092899322510e-01 -1.563027799129486084e-01
9.595787525177001953e-02 3.848014771938323975e-02 -2.604089677333831787e-01
-1.485002040863037109e-02 -5.924246087670326233e-02 2.366410791873931885e-01
3.726733326911926270e-01 2.826576828956604004e-01 2.974188029766082764e-01
4.596129655838012695e-01 3.592613637447357178e-01 2.100312151014804840e-02
5.346980690956115723e-02 -1.927219927310943604e-01 1.894377917051315308e-01
6.619404256343841553e-02 1.767428666353225708e-01 2.250182032585144043e-01
1.042035222053527832e-01 -1.523521840572357178e-01 -1.940089017152786255e-01
2.772164046764373779e-01 2.310344725847244263e-01 3.492958843708038330e-01
1.725735366344451904e-01 2.228733152151107788e-01 -2.008783072233200073e-01
4.387476742267608643e-01 3.350469470024108887e-01 -1.258536279201507568e-01
3.916476368904113770e-01 2.965257167816162109e-01 2.749405205249786377e-01
5.355156660079956055e-01 1.792906075716018677e-01 2.620261907577514648e-01
5.654240846633911133e-01 2.534086406230926514e-01 1.643462330102920532e-01
2.234266996383666992e-01 3.215875029563903809e-01 -2.007834613323211670e-02
5.392527580261230469e-01 3.238913416862487793e-01 8.948381990194320679e-03
4.724773764610290527e-02 5.869450047612190247e-02 3.168649375438690186e-01
3.540794849395751953e-01 1.480146944522857666e-01 -3.300654888153076172e-01
2.281835228204727173e-01 -8.048637211322784424e-02 -2.973074615001678467e-01
3.305887877941131592e-01 -1.880239248275756836e-01 1.671237647533416748e-01
1.540870964527130127e-01 2.361674010753631592e-01 2.623732089996337891e-01
9.822975099086761475e-02 -1.628373712301254272e-01 -1.770537197589874268e-01
-3.795820474624633789e-02 2.191356196999549866e-02 -1.704449951648712158e-02
3.691871762275695801e-01 -1.651314347982406616e-01 1.756429374217987061e-01
1.164337843656539917e-01 2.406075745820999146e-01 1.861415058374404907e-01
5.656181573867797852e-01 2.987481653690338135e-01 -1.705935597419738770e-02
4.681704044342041016e-01 -5.513330176472663879e-02 2.374605834484100342e-01
5.217480659484863281e-01 -1.580346003174781799e-02 1.909116357564926147e-01
5.567087233066558838e-02 2.039079517126083374e-01 6.028796732425689697e-02
-3.747674822807312012e-02 2.504711970686912537e-02 1.486322581768035889e-01
3.070977032184600830e-01 3.358202278614044189e-01 1.798369586467742920e-01
1.674284636974334717e-01 -2.430432736873626709e-01 5.412285029888153076e-02
7.214848697185516357e-02 -1.927887201309204102e-01 -1.043539494276046753e-01
1.703605353832244873e-01 2.976433336734771729e-01 3.391519561409950256e-02
3.599649667739868164e-01 3.000343441963195801e-01 2.736413776874542236e-01
5.282468795776367188e-01 2.505860328674316406e-01 2.302023470401763916e-01
8.713269233703613281e-02 1.585172563791275024e-01 -1.735063344240188599e-01
5.714324712753295898e-01 1.209681630134582520e-01 -1.737595796585083008e-01
5.439507961273193359e-02 1.512113064527511597e-01 2.441778630018234253e-01
1.692413985729217529e-01 2.905618250370025635e-01 1.324033737182617188e-01
4.310409426689147949e-01 2.686093747615814209e-01 2.954792082309722900e-01
1.559915393590927124e-01 2.800553739070892334e-01 -3.752947971224784851e-02
-4.290246963500976562e-02 1.232014596462249756e-02 1.330146044492721558e-01
4.448466897010803223e-01 5.422214418649673462e-02 3.494504392147064209e-01
3.632658720016479492e-01 -6.023043766617774963e-02 3.448331654071807861e-01
2.813842892646789551e-01 -2.010532021522521973e-01 1.887858659029006958e-01
5.236554145812988281e-01 -5.134349688887596130e-02 1.023561209440231323e-01
6.002762317657470703e-01 1.878687888383865356e-01 -9.916029870510101318e-02
1.907697021961212158e-01 -1.654656082391738892e-01 -2.118716090917587280e-01
4.469065368175506592e-01 -1.251995265483856201e-01 -8.051913976669311523e-02
4.776377975940704346e-01 -1.205262914299964905e-02 2.740138471126556396e-01
6.127451062202453613e-01 1.512872576713562012e-01 -4.445401206612586975e-02
-4.835098981857299805e-03 -1.250203996896743774e-01 -8.699080348014831543e-02
4.323304891586303711e-01 -1.155831813812255859e-01 1.897161006927490234e-01
7.554878294467926025e-02 -2.194960415363311768e-01 1.337379664182662964e-01
4.250195324420928955e-01 2.667479515075683594e-01 -2.417788356542587280e-01
1.906408965587615967e-01 2.291204184293746948e-01 3.095829784870147705e-01
3.491089940071105957e-01 3.400662839412689209e-01 -1.122467964887619019e-01
1.659058779478073120e-01 2.840816974639892578e-01 1.549041271209716797e-01
4.795852303504943848e-01 -9.676301479339599609e-02 -8.026425540447235107e-02
2.788586318492889404e-01 -2.242585420608520508e-01 -8.806176483631134033e-03
5.612034201622009277e-01 1.151800900697708130e-01 -1.915059238672256470e-01
4.544965624809265137e-01 3.403223454952239990e-01 -1.021124124526977539e-01
-1.191756129264831543e-02 1.083543151617050171e-01 4.209966212511062622e-02
1.889292597770690918e-01 -1.878245323896408081e-01 -1.768217235803604126e-01
4.169723391532897949e-01 3.366048038005828857e-01 -1.289264112710952759e-01
4.904117584228515625e-01 -9.823419153690338135e-02 3.389020636677742004e-02
5.742968320846557617e-01 1.970673948526382446e-01 -1.609905809164047241e-01
5.133216381072998047e-01 3.395828306674957275e-01 3.907698765397071838e-02
5.968774557113647461e-01 6.255413591861724854e-02 2.896265313029289246e-02
1.964222490787506104e-01 3.111616969108581543e-01 9.332412853837013245e-03
2.561599016189575195e-02 7.301914691925048828e-02 2.771376073360443115e-01
3.597588241100311279e-01 -6.867761909961700439e-02 -2.802864611148834229e-01
5.873435735702514648e-01 3.840015083551406860e-02 1.481404528021812439e-02
1.249989122152328491e-01 -2.363492548465728760e-01 -9.709741920232772827e-03
1.770016700029373169e-01 2.766189873218536377e-01 2.045603543519973755e-01
2.662923932075500488e-01 2.243990451097488403e-01 -2.675552070140838623e-01
-2.813416719436645508e-02 5.617528408765792847e-02 -1.637176424264907837e-02
4.696936905384063721e-01 6.166520714759826660e-02 -2.851316034793853760e-01
2.275918424129486084e-01 -1.975440680980682373e-01 -1.553093940019607544e-01
-1.717975735664367676e-02 -1.076645106077194214e-01 -7.582803070545196533e-02
3.510693609714508057e-01 -1.265970468521118164e-01 2.787277996540069580e-01
9.298326075077056885e-02 -1.872700303792953491e-01 2.389917522668838501e-01
4.100705385208129883e-01 2.719622552394866943e-01 3.007836341857910156e-01
3.796883523464202881e-01 3.300813734531402588e-01 2.154210805892944336e-01
2.401969581842422485e-01 1.523497104644775391e-01 3.976819217205047607e-01
4.109996557235717773e-02 -1.673344671726226807e-01 2.242149412631988525e-01
3.985710740089416504e-01 -1.598362773656845093e-01 -7.862974703311920166e-02
4.958356022834777832e-01 3.025823235511779785e-01 2.022977173328399658e-01
2.614208757877349854e-01 2.763138413429260254e-01 2.869961261749267578e-01
3.695051670074462891e-01 3.610129952430725098e-01 1.014119982719421387e-01
4.511709809303283691e-01 -6.895262002944946289e-02 2.443172484636306763e-01
7.764923572540283203e-02 2.249684482812881470e-01 2.485444396734237671e-02
1.446174085140228271e-01 7.284830510616302490e-02 -2.908103764057159424e-01
1.222592294216156006e-01 -2.101811170578002930e-01 2.065231800079345703e-01
5.601215362548828125e-02 -2.041116654872894287e-01 1.610505878925323486e-01
2.351004183292388916e-01 -1.522082984447479248e-01 3.093524575233459473e-01
-1.463624835014343262e-02 -1.476564556360244751e-01 -2.154607698321342468e-02
3.477419614791870117e-01 2.519806325435638428e-01 3.347203731536865234e-01
4.652334153652191162e-01 2.012391388416290283e-01 3.248947560787200928e-01
3.986482620239257812e-01 -2.528843656182289124e-02 3.459942638874053955e-01
1.228207349777221680e-02 -1.793542951345443726e-01 -2.573688700795173645e-02
2.439187765121459961e-01 2.686740756034851074e-01 2.893438637256622314e-01
3.513510227203369141e-01 3.175258636474609375e-01 2.421692460775375366e-01
5.060620307922363281e-01 2.856067121028900146e-01 2.170974761247634888e-01
4.963565468788146973e-01 -3.221460059285163879e-02 2.202939093112945557e-01
7.592746615409851074e-02 1.637987643480300903e-01 -1.475952267646789551e-01
2.922593057155609131e-01 -2.081647813320159912e-01 1.503781825304031372e-01
3.784695267677307129e-01 -3.755277022719383240e-02 -2.949032783508300781e-01
5.879619717597961426e-01 2.265664190053939819e-01 -1.083538532257080078e-01
4.312057793140411377e-02 -5.411389842629432678e-02 -2.045032232999801636e-01
1.894918680191040039e-01 -3.287493064999580383e-02 -3.117541968822479248e-01
-5.038022994995117188e-02 -3.283355385065078735e-03 7.398112118244171143e-02
5.865166187286376953e-01 1.883792281150817871e-01 -1.384488493204116821e-01
2.606374025344848633e-01 1.580604910850524902e-01 3.985997736454010010e-01
5.290839672088623047e-01 -6.056766957044601440e-03 -1.568030118942260742e-01
7.336494326591491699e-02 2.221924215555191040e-01 5.209640786051750183e-02
5.870581865310668945e-01 4.509736225008964539e-02 6.605942547321319580e-02
4.593880772590637207e-01 1.325945556163787842e-01 -2.995568811893463135e-01
4.912411272525787354e-01 2.848699986934661865e-01 2.338806986808776855e-01
5.916714668273925781e-01 8.327946811914443970e-02 -9.479480981826782227e-02
1.057338863611221313e-01 7.752984017133712769e-02 -2.574008703231811523e-01
6.021587848663330078e-01 9.540098905563354492e-02 8.063645660877227783e-02
1.788192987442016602e-02 1.443283557891845703e-01 -2.535234764218330383e-02
5.841270685195922852e-01 3.314783796668052673e-02 3.898573666810989380e-02
3.134691417217254639e-01 -2.141633927822113037e-01 2.722959406673908234e-02
-4.263517260551452637e-02 -3.209594264626502991e-02 -2.918678894639015198e-02
3.930487632751464844e-01 1.281783580780029297e-01 3.882761299610137939e-01
3.890450596809387207e-01 -4.855429753661155701e-02 -2.806214690208435059e-01
2.927857637405395508e-01 2.320091053843498230e-02 4.156056046485900879e-01
5.610877275466918945e-01 1.643951237201690674e-01 2.253156453371047974e-01
3.607322573661804199e-01 3.646260499954223633e-01 4.345580935478210449e-02
1.499417126178741455e-01 2.232857197523117065e-01 -1.730810552835464478e-01
6.026403307914733887e-01 1.699693948030471802e-01 1.203556358814239502e-01
9.467065334320068359e-02 2.181131839752197266e-01 -8.130541443824768066e-02
1.379755437374114990e-01 1.462893635034561157e-01 3.528248965740203857e-01
5.916748046875000000e-01 4.968042299151420593e-02 -1.135297864675521851e-02
1.693630963563919067e-01 8.096624165773391724e-02 4.023853838443756104e-01
6.164675951004028320e-01 1.643561720848083496e-01 1.913552172482013702e-02
1.555725932121276855e-02 -1.102935522794723511e-01 -1.391643732786178589e-01
6.481832265853881836e-02 -1.980703771114349365e-01 -8.291618525981903076e-02
-4.579502344131469727e-02 -6.103646010160446167e-03 1.340069323778152466e-01
4.426699876785278320e-01 3.538411557674407959e-01 -5.887932702898979187e-02
2.257188260555267334e-01 -1.810271739959716797e-01 2.677852809429168701e-01
4.226309657096862793e-01 1.858181506395339966e-01 3.581716120243072510e-01
2.727140486240386963e-01 3.352200388908386230e-01 -5.837680771946907043e-02
3.245953917503356934e-01 3.262157440185546875e-01 -1.386043727397918701e-01
5.508898496627807617e-01 2.227947115898132324e-04 -1.079195588827133179e-01
5.274520516395568848e-01 -4.944000020623207092e-02 -5.971294268965721130e-02
5.044804215431213379e-01 3.036510348320007324e-01 -1.445865929126739502e-01
9.044542908668518066e-02 -1.000468879938125610e-01 -2.294406145811080933e-01
1.765561103820800781e-02 1.283377707004547119e-01 -6.546157598495483398e-02
3.457415103912353516e-02 1.760314553976058960e-01 1.476340740919113159e-02
5.097845792770385742e-01 -5.327166989445686340e-02 -1.159697622060775757e-01
4.752083718776702881e-01 3.249459862709045410e-01 -1.278530657291412354e-01
2.769466042518615723e-01 2.568802535533905029e-01 -2.363049238920211792e-01
3.160908520221710205e-01 1.379310935735702515e-01 4.073725938796997070e-01
5.613998770713806152e-01 2.786308526992797852e-01 -9.970235824584960938e-02
2.607711851596832275e-01 1.334687918424606323e-01 -3.257085680961608887e-01
1.023979336023330688e-01 -9.824600815773010254e-02 3.436707258224487305e-01
4.505895078182220459e-02 -2.130706608295440674e-01 2.812376245856285095e-02
-4.050365090370178223e-02 3.075215965509414673e-02 1.186202168464660645e-01
4.965692758560180664e-02 1.679944843053817749e-01 -8.045633137226104736e-02
5.554270744323730469e-01 2.545210421085357666e-01 -1.484231948852539062e-01
3.695212602615356445e-01 3.621471524238586426e-01 -2.110488340258598328e-02
5.582738518714904785e-01 2.404006719589233398e-01 1.927566230297088623e-01
8.014181256294250488e-02 -1.567040830850601196e-01 2.766217887401580811e-01
2.065140157938003540e-01 2.898082137107849121e-01 -1.144805699586868286e-01
4.551264047622680664e-01 3.204776644706726074e-01 -1.513759046792984009e-01
4.336180686950683594e-01 2.257816642522811890e-01 -2.750779390335083008e-01
5.813274383544921875e-01 5.691438168287277222e-02 -9.981411695480346680e-02
3.839887380599975586e-01 -1.796694844961166382e-01 5.636952817440032959e-03
1.082233041524887085e-01 2.050468623638153076e-01 2.521688938140869141e-01
2.518149912357330322e-01 -6.894095242023468018e-02 -3.057410717010498047e-01
5.845823287963867188e-01 2.752745151519775391e-01 4.257481172680854797e-02
-1.226514577865600586e-03 -1.678436398506164551e-01 -1.590444520115852356e-02
2.140116095542907715e-01 1.409036293625831604e-02 -3.291320800781250000e-01
5.705243349075317383e-02 2.037222087383270264e-01 9.659606218338012695e-02
6.057395339012145996e-01 2.190190553665161133e-01 7.035683095455169678e-02
1.891244053840637207e-01 2.649933099746704102e-01 -1.489978730678558350e-01
6.117788553237915039e-01 1.377406567335128784e-01 6.546775996685028076e-02
1.469196528196334839e-01 2.666682898998260498e-01 1.750506907701492310e-01
-3.824529051780700684e-02 -8.474764227867126465e-02 1.582108289003372192e-01
1.344954967498779297e-01 -7.373683154582977295e-02 -2.723906934261322021e-01
5.736670494079589844e-01 7.420936971902847290e-02 -1.435627043247222900e-01
5.382913947105407715e-01 3.175966143608093262e-01 -4.794194921851158142e-02
2.750463485717773438e-01 3.461860716342926025e-01 5.879173800349235535e-02
4.001339673995971680e-01 3.486930429935455322e-01 1.604236364364624023e-01
2.932134270668029785e-02 2.266628667712211609e-02 3.068785071372985840e-01
2.177536189556121826e-01 -2.368022501468658447e-01 9.274592995643615723e-02
3.873771429061889648e-01 3.279466927051544189e-01 -1.523308157920837402e-01
5.833619236946105957e-01 7.532426714897155762e-02 1.406096667051315308e-01
5.994876027107238770e-01 1.350051313638687134e-01 1.278862804174423218e-01
-4.870745539665222168e-02 -2.011556550860404968e-02 9.796908125281333923e-03
3.399950563907623291e-01 2.701905965805053711e-01 3.149615526199340820e-01
-3.586769104003906250e-03 -7.182981818914413452e-03 -1.359810233116149902e-01
2.085972130298614502e-01 -1.606710627675056458e-02 4.102077782154083252e-01
1.975391805171966553e-01 3.130915164947509766e-01 3.124595060944557190e-02
1.202063113451004028e-01 -1.049107760190963745e-01 3.473143279552459717e-01
2.169034034013748169e-01 2.677603960037231445e-01 -1.760269403457641602e-01
4.897365570068359375e-01 3.502927720546722412e-01 1.963764242827892303e-02
1.794923692941665649e-01 2.527634799480438232e-01 2.622692883014678955e-01
4.612882137298583984e-01 3.036909699440002441e-01 2.319749295711517334e-01
3.397738039493560791e-01 1.018111407756805420e-01 -3.415212333202362061e-01
5.642884969711303711e-01 3.730294853448867798e-02 -1.286939084529876709e-01
1.054703742265701294e-01 2.428985387086868286e-01 1.426950991153717041e-01
2.049117982387542725e-01 1.960158795118331909e-01 3.548825979232788086e-01
3.276817202568054199e-01 2.838905751705169678e-01 2.962551712989807129e-01
2.130699157714843750e-02 -1.711380109190940857e-02 3.013806641101837158e-01
4.622647464275360107e-01 -1.175295263528823853e-01 9.662941098213195801e-02
1.751649379730224609e-02 -2.996734902262687683e-02 -1.741209775209426880e-01
-1.470810174942016602e-02 -1.614871472120285034e-01 3.445811942219734192e-02
4.720278680324554443e-01 -9.348288178443908691e-02 -1.145239025354385376e-01
-3.604531288146972656e-03 9.104286134243011475e-02 1.902987211942672729e-01
1.528903245925903320e-01 9.918774664402008057e-02 3.887796401977539062e-01
2.817148566246032715e-01 3.269324004650115967e-01 -1.027231663465499878e-01
6.072298288345336914e-01 1.052951812744140625e-01 -3.831202909350395203e-02
-8.944660425186157227e-03 1.143703758716583252e-01 8.223351091146469116e-02
3.102061450481414795e-01 -2.075630724430084229e-01 -5.688648298382759094e-02
2.062934041023254395e-01 -2.322090864181518555e-01 -5.220969393849372864e-02
6.115277111530303955e-02 1.899600923061370850e-01 1.809408366680145264e-01
6.087909936904907227e-01 1.751062273979187012e-01 9.156289696693420410e-02
2.950643897056579590e-01 -1.192711889743804932e-01 -2.573711276054382324e-01
4.498017728328704834e-01 3.314412385225296021e-02 -2.898650169372558594e-01
5.944346785545349121e-01 2.588929831981658936e-01 3.614468127489089966e-02
-2.561950683593750000e-02 7.959643751382827759e-02 4.002435132861137390e-02
1.823198497295379639e-01 3.048141896724700928e-01 6.699883937835693359e-02
-8.685022592544555664e-03 -9.549622237682342529e-02 2.299379408359527588e-01
4.239415526390075684e-01 3.558436334133148193e-01 -6.058331951498985291e-02
-1.618438959121704102e-02 8.472681790590286255e-02 -1.957100629806518555e-02
2.960973978042602539e-01 -1.834402084350585938e-01 2.218251824378967285e-01
3.741222620010375977e-01 1.781655699014663696e-01 3.809399604797363281e-01
3.115822672843933105e-01 -2.029978930950164795e-01 1.408917605876922607e-01
2.261051684617996216e-01 2.386157363653182983e-01 -2.281713336706161499e-01
-1.722562313079833984e-02 -1.579505652189254761e-01 8.960951864719390869e-02
4.720135927200317383e-01 4.201408475637435913e-02 -2.756021916866302490e-01
1.701822429895401001e-01 1.472875773906707764e-01 -2.735246121883392334e-01
2.342380285263061523e-01 -3.029921278357505798e-02 -3.230319321155548096e-01
2.308166325092315674e-01 3.228987455368041992e-01 1.288155019283294678e-01
1.937240064144134521e-01 -1.379116922616958618e-01 -2.453796118497848511e-01
3.131470382213592529e-01 -3.486854210495948792e-02 3.881957530975341797e-01
4.766582846641540527e-01 2.163105458021163940e-01 -2.604316473007202148e-01
-3.157302737236022949e-02 -1.302830725908279419e-01 1.088967770338058472e-01
2.843049168586730957e-01 1.921907216310501099e-01 3.819068670272827148e-01
-5.970895290374755859e-04 -1.467764824628829956e-01 -6.628173589706420898e-02
3.051498532295227051e-01 3.442047536373138428e-01 1.449956297874450684e-01
4.949064254760742188e-01 2.820985913276672363e-01 -1.872995793819427490e-01
6.046736240386962891e-01 1.233784779906272888e-01 9.883708506822586060e-02
2.072232961654663086e-02 1.399126797914505005e-01 -5.029452219605445862e-02
4.345320165157318115e-01 3.625829219818115234e-01 6.347716599702835083e-02
5.401024818420410156e-01 2.297387644648551941e-02 2.007985711097717285e-01
4.883973598480224609e-01 3.001811206340789795e-01 -1.659063845872879028e-01
2.004639804363250732e-01 1.567282378673553467e-01 3.824564516544342041e-01
2.470674216747283936e-01 -2.323954701423645020e-01 8.167444169521331787e-02
1.058186888694763184e-01 -2.216306626796722412e-01 -6.221879646182060242e-02
3.882044553756713867e-02 -2.028803825378417969e-01 -1.653750985860824585e-02
2.663607299327850342e-01 2.917660772800445557e-01 -1.753934323787689209e-01
4.438071548938751221e-01 3.576364815235137939e-01 -3.620041534304618835e-02
-2.019912004470825195e-03 -1.634307950735092163e-01 1.472449749708175659e-01
8.182495832443237305e-02 -2.252160385251045227e-02 -2.504629790782928467e-01
3.418334126472473145e-01 -2.012181282043457031e-01 -3.630742430686950684e-04
5.014301538467407227e-01 3.281761407852172852e-01 -9.008404612541198730e-02
5.957296490669250488e-02 2.053067386150360107e-01 1.453053951263427734e-02
3.472768664360046387e-01 2.876766324043273926e-01 2.922185659408569336e-01
1.187650561332702637e-01 2.615149021148681641e-01 3.111637942492961884e-02
3.418127298355102539e-01 3.555488288402557373e-01 -4.388752207159996033e-02
-4.774808883666992188e-02 9.284168481826782227e-03 8.997989445924758911e-02
2.662461698055267334e-01 -1.803092285990715027e-02 4.079202115535736084e-01
3.430937230587005615e-01 2.486681640148162842e-01 -2.657836377620697021e-01
-4.135063290596008301e-02 -1.109323501586914062e-01 3.912658616900444031e-02
2.867054939270019531e-02 -1.822801828384399414e-01 1.746363043785095215e-01
4.789902269840240479e-01 2.345054447650909424e-01 -2.465906292200088501e-01
6.062227487564086914e-01 2.266166508197784424e-01 -2.365119382739067078e-02
5.554299354553222656e-01 1.482059359550476074e-01 -2.045885175466537476e-01
1.744854748249053955e-01 -1.851926445960998535e-01 2.681443989276885986e-01
2.558574676513671875e-01 -2.312947809696197510e-01 4.054322838783264160e-03
5.437692999839782715e-01 1.060552448034286499e-01 2.495045214891433716e-01
7.781006395816802979e-02 -1.334763467311859131e-01 -1.931547820568084717e-01
4.254603683948516846e-01 -7.385644316673278809e-02 -2.251715809106826782e-01
-1.573172211647033691e-02 -1.433587521314620972e-01 1.514177769422531128e-01
3.212304711341857910e-01 -1.796331107616424561e-01 2.050657719373703003e-01
2.241074591875076294e-01 -4.296671599149703979e-03 -3.286812305450439453e-01
1.698627024888992310e-01 2.865126430988311768e-01 -5.046233907341957092e-02
1.640835553407669067e-01 -2.362991869449615479e-01 -3.570984676480293274e-02
-2.268069982528686523e-02 -1.185952723026275635e-01 1.731106638908386230e-01
3.135145604610443115e-01 3.342232704162597656e-01 -1.088396757841110229e-01
9.840439260005950928e-02 1.170657128095626831e-01 3.394464254379272461e-01
4.354393482208251953e-02 8.752590417861938477e-02 -1.741630434989929199e-01
4.490642845630645752e-01 -1.326847672462463379e-01 6.977577507495880127e-02
-1.648405194282531738e-02 -1.550025343894958496e-01 1.125506609678268433e-01
3.983282446861267090e-01 -1.655620783567428589e-01 -4.972368851304054260e-02
5.259484052658081055e-01 2.768003642559051514e-01 -1.628211736679077148e-01
5.081027150154113770e-01 3.390130102634429932e-01 -2.830416336655616760e-02
1.188145875930786133e-01 2.254695147275924683e-01 2.302196323871612549e-01
1.963196545839309692e-01 2.653674781322479248e-01 2.565111517906188965e-01
1.815937906503677368e-01 3.935039043426513672e-02 4.123758375644683838e-01
6.035519838333129883e-01 2.266831696033477783e-01 -4.516407474875450134e-02
6.103770732879638672e-01 1.240302771329879761e-01 -4.140173271298408508e-02
3.585331141948699951e-01 -1.937002241611480713e-01 1.147066988050937653e-02
6.048721075057983398e-02 1.843519955873489380e-01 -7.341037690639495850e-02
5.792310237884521484e-01 2.534087002277374268e-01 1.289269924163818359e-01
5.084037780761718750e-03 -1.832296699285507202e-01 9.244378656148910522e-02
4.784051775932312012e-01 2.738725543022155762e-01 -2.096997052431106567e-01
2.957868576049804688e-01 2.348110824823379517e-01 3.492168486118316650e-01
1.595631241798400879e-02 -1.115572303533554077e-01 2.580439746379852295e-01
2.672768831253051758e-01 1.709975674748420715e-02 -3.392878770828247070e-01
5.242120623588562012e-01 1.835067570209503174e-01 -2.370805293321609497e-01
2.457227110862731934e-01 1.261000335216522217e-01 4.099090397357940674e-01
5.472882390022277832e-01 7.997540384531021118e-02 2.327399104833602905e-01
5.242205262184143066e-01 1.176149547100067139e-01 -2.446207255125045776e-01
2.525897324085235596e-01 -1.995683908462524414e-01 -1.419623941183090210e-01
-1.089948415756225586e-02 1.077854782342910767e-01 2.352390438318252563e-02
1.939806342124938965e-02 3.683389723300933838e-02 2.877424955368041992e-01
2.812643349170684814e-01 -2.240641117095947266e-01 7.085721194744110107e-02
-5.041259527206420898e-02 -2.324217185378074646e-02 1.110020130872726440e-01
2.026745080947875977e-01 3.080108463764190674e-01 -3.951495513319969177e-02
6.112203001976013184e-02 8.658397942781448364e-02 3.188507854938507080e-01
2.831269800662994385e-01 -2.447973936796188354e-03 -3.353055417537689209e-01
6.305402517318725586e-02 1.980795413255691528e-01 1.616574376821517944e-01
1.450433284044265747e-01 -2.397602200508117676e-01 -2.140481024980545044e-03
-4.474282264709472656e-03 7.327968627214431763e-02 2.123685777187347412e-01
5.340728163719177246e-01 -1.738632842898368835e-02 1.552657783031463623e-01
4.628466963768005371e-01 3.256730139255523682e-01 1.890218704938888550e-01
4.718645811080932617e-01 -7.969062775373458862e-03 -2.438935488462448120e-01
7.867966592311859131e-02 -1.084984242916107178e-01 3.224612176418304443e-01
2.463296651840209961e-01 5.694344639778137207e-02 4.223389625549316406e-01
-4.755517840385437012e-02 -9.204573929309844971e-02 6.036069244146347046e-02
3.176115155220031738e-01 -1.573591828346252441e-01 2.571218907833099365e-01
3.263084292411804199e-01 1.812420040369033813e-01 3.886958658695220947e-01
2.274843156337738037e-01 3.242632746696472168e-01 1.094290614128112793e-01
2.637494206428527832e-01 -6.404930353164672852e-02 3.853222131729125977e-01
3.455137610435485840e-01 -1.580402627587318420e-02 -3.208244144916534424e-01
5.412004888057708740e-02 -1.679615676403045654e-01 2.383561432361602783e-01
4.176712930202484131e-01 -1.410759687423706055e-01 1.497229784727096558e-01
9.418725967407226562e-02 -1.256266534328460693e-01 -2.133724838495254517e-01
2.907981872558593750e-01 -1.755155622959136963e-01 -1.752865910530090332e-01
3.054869174957275391e-01 8.230704069137573242e-02 4.183228611946105957e-01
5.676738619804382324e-01 2.802251577377319336e-01 -7.920041680335998535e-02
1.863506138324737549e-01 1.398081481456756592e-01 3.861837685108184814e-01
4.291391074657440186e-01 3.081410229206085205e-01 2.440398931503295898e-01
5.708347558975219727e-01 2.897202968597412109e-01 6.906132400035858154e-02
4.724687337875366211e-01 3.323627114295959473e-01 -1.111964434385299683e-01
2.993025183677673340e-01 1.815392822027206421e-01 3.894257545471191406e-01
4.214699268341064453e-01 3.460514247417449951e-01 1.618078052997589111e-01
2.587867975234985352e-01 2.723103165626525879e-01 -2.037668824195861816e-01
4.297006130218505859e-02 -7.869351655244827271e-03 3.272870779037475586e-01
3.407173454761505127e-01 3.128067851066589355e-01 -1.752978563308715820e-01
2.175921499729156494e-01 2.972101271152496338e-01 2.066768407821655273e-01
5.554069280624389648e-01 -8.549932390451431274e-03 9.236664324998855591e-02
7.660157978534698486e-02 1.330567747354507446e-01 -1.856507062911987305e-01
1.438403874635696411e-01 1.422984004020690918e-01 -2.555537521839141846e-01
5.230359435081481934e-01 3.335462808609008789e-01 -6.100095808506011963e-03
3.157777786254882812e-01 2.716833725571632385e-02 -3.408069908618927002e-01
4.488708078861236572e-01 2.509965896606445312e-01 3.026902973651885986e-01
5.390362441539764404e-02 -1.734857261180877686e-01 -1.185039132833480835e-01
9.480449557304382324e-02 2.402613759040832520e-01 9.948323667049407959e-02
1.255681961774826050e-01 -2.219732403755187988e-01 1.740065366029739380e-01
2.290346473455429077e-01 1.601447314023971558e-01 -3.006560206413269043e-01
4.924535155296325684e-01 4.965290427207946777e-04 2.645351588726043701e-01
3.231601417064666748e-01 -2.085347473621368408e-01 7.296303659677505493e-02
1.487617790699005127e-01 1.679947227239608765e-01 -2.390752583742141724e-01
1.142636537551879883e-01 2.422646805644035339e-02 3.840045332908630371e-01
2.247455716133117676e-02 -3.569654002785682678e-02 3.014803230762481689e-01
2.963232994079589844e-01 -2.174750268459320068e-01 -2.206845954060554504e-02
3.648270368576049805e-01 -1.743011623620986938e-01 1.532084792852401733e-01
6.103305816650390625e-01 1.888180375099182129e-01 -5.296603217720985413e-02
5.729843378067016602e-01 2.047878131270408630e-02 -6.020296737551689148e-02
4.199984669685363770e-01 -1.542215943336486816e-01 7.495332509279251099e-02
5.094864368438720703e-01 7.901908457279205322e-02 -2.527872025966644287e-01
-2.524447441101074219e-02 5.450079590082168579e-02 1.656198352575302124e-01
4.673485755920410156e-01 1.998293399810791016e-01 -2.750985026359558105e-01
2.390396147966384888e-01 3.312021493911743164e-01 3.361996263265609741e-03
1.371550709009170532e-01 8.818906545639038086e-02 3.840475082397460938e-01
5.063732862472534180e-01 3.368383646011352539e-01 -4.660857096314430237e-02
9.351961314678192139e-02 -2.270781993865966797e-01 -2.230104058980941772e-02
3.864403069019317627e-02 1.492388248443603516e-01 2.116425931453704834e-01
3.135116696357727051e-01 -1.439797729253768921e-01 2.828864455223083496e-01
4.930258989334106445e-01 -5.109234526753425598e-02 -1.605256348848342896e-01
1.209464371204376221e-01 -1.951822042465209961e-01 -1.411873698234558105e-01
5.874764323234558105e-01 5.214082822203636169e-02 -6.122990325093269348e-02
7.566952705383300781e-02 1.066368222236633301e-01 -2.071971446275711060e-01
4.128038883209228516e-02 5.361677333712577820e-02 -1.916415244340896606e-01
3.795063793659210205e-01 -1.600683331489562988e-01 -1.188871711492538452e-01
1.484048664569854736e-01 1.990233957767486572e-01 -2.054958343505859375e-01
3.862583339214324951e-01 3.452309370040893555e-01 1.740255355834960938e-01
3.655214309692382812e-01 1.846003830432891846e-01 -3.138597607612609863e-01
1.916570663452148438e-01 1.838417202234268188e-01 3.583857417106628418e-01
5.402930378913879395e-01 1.538030952215194702e-01 2.597975432872772217e-01
6.123090982437133789e-01 1.850583553314208984e-01 6.460811197757720947e-02
8.345358073711395264e-02 -5.571686103940010071e-02 3.536985814571380615e-01
4.524335265159606934e-01 -7.662317156791687012e-02 -1.874968111515045166e-01
-1.681411266326904297e-02 -1.831596717238426208e-02 -1.088992208242416382e-01
7.411567866802215576e-02 -1.682044863700866699e-01 2.564292848110198975e-01
3.281642794609069824e-01 -2.048010230064392090e-01 -2.786639705300331116e-02
4.165990352630615234e-01 -1.504820883274078369e-01 -6.742814183235168457e-02
2.635947465896606445e-01 -2.260486185550689697e-01 1.021118909120559692e-01
5.552724599838256836e-01 3.023908287286758423e-02 -1.440641582012176514e-01
6.108194589614868164e-03 1.385347098112106323e-01 3.517561033368110657e-02
3.273153007030487061e-01 -1.822393089532852173e-01 -1.284367740154266357e-01
3.399775624275207520e-01 -1.344777792692184448e-01 -2.154885977506637573e-01
1.972467005252838135e-01 -4.599015787243843079e-02 3.985588252544403076e-01
5.521501302719116211e-01 2.065608203411102295e-01 -1.930130124092102051e-01
5.140672326087951660e-01 2.648597061634063721e-01 2.334482520818710327e-01
1.099818795919418335e-01 2.027073651552200317e-01 -1.465782076120376587e-01
5.005909204483032227e-01 3.225346505641937256e-01 -1.074633598327636719e-01
4.857283532619476318e-01 -8.561342954635620117e-02 1.351605355739593506e-01
-1.479378342628479004e-02 -2.015338465571403503e-02 2.414248883724212646e-01
7.219871878623962402e-02 1.700466126203536987e-01 2.489185333251953125e-01
4.986214339733123779e-01 -7.617309689521789551e-02 1.202903091907501221e-01
2.454427182674407959e-01 1.754457205533981323e-01 -2.982762753963470459e-01
5.726076662540435791e-02 1.069270893931388855e-01 -1.803893148899078369e-01
1.999393701553344727e-01 1.000202149152755737e-01 4.079869091510772705e-01
2.215053886175155640e-01 2.888088822364807129e-01 2.329500168561935425e-01
2.675280570983886719e-01 1.373687982559204102e-01 4.083680808544158936e-01
4.955040812492370605e-01 -8.853857219219207764e-02 -4.434730485081672668e-02
3.033141493797302246e-01 2.175440043210983276e-01 -2.866272330284118652e-01
1.669417917728424072e-01 1.277653500437736511e-02 -3.109556436538696289e-01
5.074661374092102051e-01 9.540948271751403809e-02 2.978789508342742920e-01
-3.116697072982788086e-02 -5.781723931431770325e-02 -6.843166053295135498e-02
2.414168417453765869e-01 -1.336094290018081665e-01 -2.520198822021484375e-01
4.160968065261840820e-01 2.159432768821716309e-01 3.457024693489074707e-01
4.780965149402618408e-01 -1.096228063106536865e-01 4.337639734148979187e-02
-5.218833684921264648e-02 -6.338329613208770752e-02 6.105906888842582703e-02
4.901648163795471191e-01 3.155804872512817383e-01 -1.354899257421493530e-01
4.870750904083251953e-01 5.099590867757797241e-02 -2.654614448547363281e-01
5.095919966697692871e-01 5.795164778828620911e-02 -2.441294640302658081e-01
1.876761317253112793e-01 1.226098090410232544e-02 4.126727879047393799e-01
4.991605877876281738e-02 -4.069824144244194031e-02 -2.154548317193984985e-01
3.245120048522949219e-01 8.531458675861358643e-03 4.032832384109497070e-01
3.954244256019592285e-01 -8.586786687374114990e-02 2.915630936622619629e-01
2.314874231815338135e-01 3.212046027183532715e-01 -4.540281370282173157e-02
3.440053761005401611e-01 -1.970122158527374268e-01 9.284961223602294922e-02
1.433013081550598145e-01 2.447894364595413208e-01 2.294992804527282715e-01
6.156960725784301758e-01 1.437841206789016724e-01 9.678261354565620422e-03
4.185277819633483887e-01 -1.240520775318145752e-01 -1.486644893884658813e-01
3.704696893692016602e-01 -1.876402199268341064e-01 3.430188074707984924e-02
5.476345419883728027e-01 1.974872648715972900e-01 2.383420020341873169e-01
2.863109111785888672e-03 -1.777567118406295776e-01 5.787327885627746582e-03
-4.058253765106201172e-02 3.209072723984718323e-02 1.916362158954143524e-02
2.569549381732940674e-01 -4.207294434309005737e-03 -3.337856829166412354e-01
1.952788829803466797e-01 -1.851833164691925049e-01 2.670275568962097168e-01
1.207629293203353882e-01 2.499847412109375000e-01 1.656461209058761597e-01
-3.632667660713195801e-02 -1.244439631700515747e-01 8.705256879329681396e-02
4.208347201347351074e-02 1.884257793426513672e-01 5.617968738079071045e-02
5.545817613601684570e-01 5.164702236652374268e-02 -1.687200814485549927e-01
3.863237500190734863e-01 -1.615142449736595154e-02 -3.044177889823913574e-01
4.834395647048950195e-01 -9.874811768531799316e-02 9.109713137149810791e-02
3.330793678760528564e-01 -4.564432427287101746e-02 3.732196688652038574e-01
1.775435805320739746e-01 -2.295464277267456055e-01 -6.953203678131103516e-02
3.974895179271697998e-02 1.796168535947799683e-01 1.270577013492584229e-01
1.364777535200119019e-01 2.595255076885223389e-01 -6.474591791629791260e-02
4.497698247432708740e-01 2.186115831136703491e-02 3.309542834758758545e-01
2.358249127864837646e-01 -2.366364598274230957e-01 3.832314163446426392e-02
5.049913525581359863e-01 1.832208335399627686e-01 -2.554580271244049072e-01
2.978523373603820801e-01 -2.174397110939025879e-01 8.336592465639114380e-02
-1.155671477317810059e-02 -4.297875985503196716e-02 2.470648735761642456e-01
2.606484293937683105e-02 -9.692834317684173584e-02 2.820529639720916748e-01
3.570656478404998779e-02 -1.584502309560775757e-01 -1.169696599245071411e-01
5.813145637512207031e-01 2.812534272670745850e-01 2.591535449028015137e-04
2.416780143976211548e-01 1.118416339159011841e-01 -3.276471495628356934e-01
2.899810671806335449e-02 4.190136119723320007e-02 -1.781812310218811035e-01
2.794436812400817871e-01 -1.419244110584259033e-01 3.063771724700927734e-01
1.543494015932083130e-01 2.597331404685974121e-01 2.117465734481811523e-01
1.937057673931121826e-01 -2.235034406185150146e-01 1.755497604608535767e-01
3.470806181430816650e-01 2.144925147294998169e-01 3.662856817245483398e-01
4.985445737838745117e-01 -8.880922198295593262e-02 5.147026106715202332e-02
2.389892935752868652e-01 3.145627677440643311e-01 1.811023950576782227e-01
5.679427385330200195e-01 3.941272199153900146e-02 1.465522199869155884e-01
3.388464450836181641e-02 1.706086099147796631e-01 -1.043906807899475098e-02
5.635731220245361328e-01 -2.834867686033248901e-03 5.808253586292266846e-02
2.331877797842025757e-01 -4.991422966122627258e-02 3.974016010761260986e-01
2.923103868961334229e-01 3.513062596321105957e-01 2.443925291299819946e-02
1.368130147457122803e-01 2.687357962131500244e-01 1.348218470811843872e-01
4.834882616996765137e-01 -7.071304321289062500e-02 -1.426295340061187744e-01
2.277968525886535645e-01 8.247600495815277100e-02 4.183156490325927734e-01
5.056829452514648438e-01 2.192639708518981934e-01 2.799878418445587158e-01
1.095421165227890015e-01 -8.486147224903106689e-02 -2.519137859344482422e-01
2.433677315711975098e-01 -8.789818733930587769e-03 4.131498038768768311e-01
4.174036383628845215e-01 2.575252950191497803e-01 3.127928674221038818e-01
3.543542623519897461e-01 -9.561254084110260010e-02 3.165351152420043945e-01
1.685051321983337402e-01 -1.198111474514007568e-01 -2.564946413040161133e-01
7.516863942146301270e-02 2.075575739145278931e-01 1.723680496215820312e-01
2.925564348697662354e-01 -3.752640262246131897e-02 3.935014903545379639e-01
-2.896779775619506836e-02 7.887307554483413696e-03 -6.632839143276214600e-02
-1.866176724433898926e-02 -8.190074563026428223e-02 2.181429415941238403e-01
3.325481712818145752e-01 3.124949634075164795e-01 2.493686378002166748e-01
1.511128693819046021e-01 1.422703862190246582e-01 3.650989830493927002e-01
5.852988958358764648e-01 1.301845610141754150e-01 1.709241271018981934e-01
-1.901829242706298828e-02 -5.744831636548042297e-02 -1.011822968721389771e-01
3.036807179450988770e-01 2.704325616359710693e-01 -2.304621487855911255e-01
5.310431718826293945e-01 6.855016946792602539e-02 2.546647787094116211e-01
-1.705184578895568848e-02 -2.294406294822692871e-04 -1.041030138731002808e-01
3.640947043895721436e-01 2.522361874580383301e-01 -2.638687789440155029e-01
9.008887410163879395e-02 1.973814070224761963e-01 2.343519628047943115e-01
3.217459917068481445e-01 1.118040382862091064e-01 -3.406263291835784912e-01
4.593639075756072998e-02 -1.301911100745201111e-02 -2.133568972349166870e-01
4.352759718894958496e-01 3.561780452728271484e-01 1.118927747011184692e-01
