-4.000464677810668945e-01 -7.590463757514953613e-02 -5.849251523613929749e-02
-5.315704345703125000e-01 -8.565346896648406982e-02 -2.704672142863273621e-02
-3.129307627677917480e-01 -6.092432886362075806e-02 -2.243032678961753845e-02
-2.659560739994049072e-01 -2.795837819576263428e-02 5.832252092659473419e-03
-2.834047079086303711e-01 9.111434221267700195e-02 7.947671227157115936e-03
-3.907809853553771973e-01 -8.655022084712982178e-02 -1.439235638827085495e-02
-2.590978145599365234e-01 -1.481371652334928513e-02 1.614366099238395691e-02
-4.271967113018035889e-01 9.941606223583221436e-02 -6.356119364500045776e-02
-2.843827009201049805e-01 8.303137868642807007e-02 2.270011603832244873e-02
-4.798987209796905518e-01 -8.138498663902282715e-02 4.591504484415054321e-02
-5.214557647705078125e-01 8.719012141227722168e-02 6.580260582268238068e-03
-4.331387579441070557e-01 1.519399695098400116e-03 9.262286126613616943e-02
-3.207623958587646484e-01 1.084144860506057739e-01 -1.609601452946662903e-02
-4.248135089874267578e-01 1.037710905075073242e-01 2.552224323153495789e-02
-4.563250243663787842e-01 -3.104639053344726562e-02 8.715533465147018433e-02
-4.472943544387817383e-01 2.815616875886917114e-02 8.988361060619354248e-02
-3.653491437435150146e-01 -7.940619438886642456e-02 -2.551278099417686462e-02
-4.219381511211395264e-01 -1.626070588827133179e-04 -1.135943531990051270e-01
-3.059899806976318359e-01 1.037908270955085754e-01 -3.589339926838874817e-02
-3.087199628353118896e-01 -2.284890785813331604e-02 5.317171290516853333e-02
-4.054778814315795898e-01 4.385711252689361572e-02 8.401466161012649536e-02
-4.737543761730194092e-01 8.750320225954055786e-02 -6.600433588027954102e-02
-3.283227086067199707e-01 -6.696917116641998291e-02 2.731708809733390808e-04
-5.452984571456909180e-01 7.670498639345169067e-02 -2.224090695381164551e-02
-3.393792510032653809e-01 1.003827154636383057e-01 -6.390835344791412354e-02
-2.580266594886779785e-01 8.356335014104843140e-02 -3.179922699928283691e-02
-3.554157316684722900e-01 9.882281720638275146e-02 3.264981508255004883e-02
-3.987780809402465820e-01 -5.414416640996932983e-02 -8.658455312252044678e-02
-4.856548905372619629e-01 9.927700459957122803e-02 2.945618703961372375e-03
-5.695933699607849121e-01 4.818096011877059937e-02 -5.070684105157852173e-02
-6.038532853126525879e-01 2.451411448419094086e-02 2.978194877505302429e-02
-4.594226181507110596e-01 -8.142283558845520020e-02 -5.644451826810836792e-02
-2.779114246368408203e-01 3.489835932850837708e-02 4.863344132900238037e-02
-3.672946691513061523e-01 1.139912381768226624e-01 -1.823371089994907379e-02
-3.716237545013427734e-01 -2.737947180867195129e-02 7.660274952650070190e-02
-3.602255582809448242e-01 -7.115053385496139526e-02 2.723775804042816162e-02
-4.685613811016082764e-01 -1.378261018544435501e-02 -1.070103496313095093e-01
-5.688740611076354980e-01 6.186729297041893005e-02 1.555858273059129715e-02
-3.510481715202331543e-01 -9.420448914170265198e-04 -1.083340942859649658e-01
-6.098037958145141602e-01 2.368498593568801880e-02 -2.281484752893447876e-02
-2.883414626121520996e-01 -3.928071632981300354e-02 -5.227892473340034485e-02
-3.381673395633697510e-01 -6.779281049966812134e-02 1.428914349526166916e-02
-3.391955196857452393e-01 8.327111601829528809e-02 -8.581085503101348877e-02
-3.500540256500244141e-01 -4.952935874462127686e-02 -7.896482199430465698e-02
-3.394656777381896973e-01 5.332691967487335205e-02 -1.040425226092338562e-01
-2.563095688819885254e-01 8.257174864411354065e-03 2.983492985367774963e-02
-4.529437422752380371e-01 -4.975149035453796387e-02 7.784180343151092529e-02
-5.182003974914550781e-01 -7.190463133156299591e-03 8.621484041213989258e-02
-4.605573713779449463e-01 -2.563829347491264343e-02 -1.044675037264823914e-01
-5.166357159614562988e-01 9.033957123756408691e-02 -1.098111458122730255e-02
-6.176906824111938477e-01 1.133873313665390015e-02 1.808133348822593689e-02
-4.739674031734466553e-01 -9.016434848308563232e-02 2.658659592270851135e-02
-4.779331684112548828e-01 1.023145765066146851e-01 -9.772208519279956818e-03
-4.127372205257415771e-01 2.813517302274703979e-02 8.910099416971206665e-02
-4.752052426338195801e-01 -4.268792271614074707e-02 8.205754309892654419e-02
-4.894372224807739258e-01 2.165066078305244446e-03 -1.053426787257194519e-01
-6.015807390213012695e-01 -2.905261889100074768e-02 4.646676406264305115e-02
-4.371311068534851074e-01 -4.860082641243934631e-02 -9.361153841018676758e-02
-3.364450335502624512e-01 -6.110803037881851196e-02 2.897294983267784119e-02
-4.093084335327148438e-01 -4.527349770069122314e-02 -9.504546970129013062e-02
-3.806833624839782715e-01 -7.364917546510696411e-02 -5.574624985456466675e-02
-5.566945075988769531e-01 1.532532088458538055e-02 -7.976387441158294678e-02
-4.483131766319274902e-01 1.076688095927238464e-01 -2.750255167484283447e-02
-3.068712055683135986e-01 -4.446312412619590759e-02 -6.154312565922737122e-02
-2.673243582248687744e-01 8.741867542266845703e-02 -4.042411223053932190e-02
-5.734060406684875488e-01 -2.606960386037826538e-02 6.591918319463729858e-02
-4.596683084964752197e-01 -8.626059442758560181e-02 3.584528341889381409e-02
-5.887570381164550781e-01 5.059217289090156555e-02 -1.431496813893318176e-03
-3.340657651424407959e-01 -5.652657151222229004e-02 -6.184144690632820129e-02
-4.551063776016235352e-01 9.999881684780120850e-02 2.521429955959320068e-02
-3.451543748378753662e-01 -7.372254878282546997e-02 -2.202827669680118561e-02
-3.226391375064849854e-01 9.307416528463363647e-02 -7.069946080446243286e-02
-5.302782654762268066e-01 7.572189718484878540e-02 -4.749083146452903748e-02
-5.391580462455749512e-01 5.451347306370735168e-02 5.538323149085044861e-02
-4.029921889305114746e-01 8.663336187601089478e-02 5.442115291953086853e-02
-4.208306670188903809e-01 -6.084565073251724243e-02 -8.252473920583724976e-02
-2.610079050064086914e-01 6.599646806716918945e-02 2.198993414640426636e-02
-4.411902129650115967e-01 1.053249910473823547e-01 -4.404821246862411499e-02
-4.461327195167541504e-01 6.639330089092254639e-02 -9.586921334266662598e-02
-4.752838015556335449e-01 5.729151517152786255e-02 -9.468517452478408813e-02
-2.859363555908203125e-01 -4.512087255716323853e-02 -3.216569125652313232e-02
-5.570236444473266602e-01 6.986732035875320435e-02 1.160476822406053543e-02
-5.188018679618835449e-01 -8.769308030605316162e-02 2.457496151328086853e-02
-4.161706268787384033e-01 -3.985868394374847412e-02 7.989676296710968018e-02
-4.232727289199829102e-01 -9.184964001178741455e-02 -3.921920433640480042e-04
-2.729200124740600586e-01 9.276141226291656494e-02 -1.906800270080566406e-02
-6.194103956222534180e-01 -3.987618535757064819e-02 2.048170194029808044e-03
-4.739677309989929199e-01 -2.615084871649742126e-02 8.852616697549819946e-02
-3.904759883880615234e-01 9.151358157396316528e-02 4.808601364493370056e-02
-5.328634977340698242e-01 -4.325561970472335815e-02 -8.038274198770523071e-02
-2.737925052642822266e-01 -7.679897360503673553e-03 3.803066536784172058e-02
-6.156744360923767090e-01 -5.807329900562763214e-03 -3.323786705732345581e-02
-3.980419635772705078e-01 1.733069121837615967e-02 8.926556259393692017e-02
-5.388317108154296875e-01 -6.661793589591979980e-02 5.478641018271446228e-02
-3.224937617778778076e-01 1.005690544843673706e-01 1.729201152920722961e-02
-4.968731403350830078e-01 -9.403096139430999756e-02 -5.821337457746267319e-03
-5.059069395065307617e-01 3.720832243561744690e-02 7.938986271619796753e-02
-5.264758467674255371e-01 4.667211323976516724e-02 -8.182449638843536377e-02
-2.896621823310852051e-01 1.829197071492671967e-02 5.624778941273689270e-02
-5.587281584739685059e-01 -5.893865227699279785e-02 5.462284013628959656e-02
-6.093973517417907715e-01 -5.250959098339080811e-02 7.681048475205898285e-03
-3.029733598232269287e-01 -5.633705854415893555e-02 -1.142391189932823181e-02
-4.202918410301208496e-01 -8.825375139713287354e-02 1.911636441946029663e-02
-4.126538634300231934e-01 3.345670923590660095e-02 -1.132682785391807556e-01
-5.239854454994201660e-01 -6.695663183927536011e-02 -6.405816972255706787e-02
-5.332233905792236328e-01 1.231574360281229019e-02 -9.137372672557830811e-02
-2.465428113937377930e-01 7.506728917360305786e-02 -2.082083001732826233e-02
-3.808157444000244141e-01 6.135152652859687805e-03 8.680765330791473389e-02
-4.956623017787933350e-01 -5.201315879821777344e-02 7.549384981393814087e-02
-4.559666812419891357e-01 -8.889837563037872314e-02 -3.973766043782234192e-02
-4.830922782421112061e-01 -7.490461319684982300e-02 -6.446016579866409302e-02
-2.525707483291625977e-01 7.249972224235534668e-02 4.272801801562309265e-03
-3.644987642765045166e-01 5.889846757054328918e-02 -1.048324406147003174e-01
-5.250633358955383301e-01 6.686463952064514160e-02 4.912337288260459900e-02
-5.781251788139343262e-01 3.183369711041450500e-02 5.043954774737358093e-02
-3.999933004379272461e-01 1.001642420887947083e-01 3.538561239838600159e-02
-4.108936488628387451e-01 -5.228914692997932434e-02 7.089895009994506836e-02
-5.045382380485534668e-01 8.489988744258880615e-02 3.230177611112594604e-02
-5.439093112945556641e-01 -8.487643301486968994e-02 1.620723307132720947e-02
-3.576501905918121338e-01 -1.493593584746122360e-02 -1.049918979406356812e-01
-5.937467813491821289e-01 3.083557635545730591e-02 3.640311956405639648e-02
-4.917654991149902344e-01 6.388621032238006592e-02 -8.463207632303237915e-02
-3.311440944671630859e-01 3.293825685977935791e-02 -1.070742085576057434e-01
-4.281345009803771973e-01 9.652926772832870483e-02 3.947205841541290283e-02
-4.449135661125183105e-01 1.087745279073715210e-01 -5.143827758729457855e-03
-4.255727529525756836e-01 2.054116129875183105e-02 -1.142004877328872681e-01
-4.689530432224273682e-01 -9.122337400913238525e-02 -3.232051059603691101e-02
-5.165440440177917480e-01 6.344924867153167725e-02 -7.374484091997146606e-02
-4.241776764392852783e-01 -6.344893574714660645e-02 6.360533088445663452e-02
-3.693236708641052246e-01 7.762853987514972687e-03 -1.126468181610107422e-01
-5.843394994735717773e-01 -2.813814580440521240e-02 -6.130171939730644226e-02
-4.881362318992614746e-01 8.011079579591751099e-02 4.858311265707015991e-02
-2.646701931953430176e-01 -8.956552483141422272e-03 2.860970050096511841e-02
-5.630540251731872559e-01 4.446309804916381836e-02 5.048089846968650818e-02
-5.465388894081115723e-01 -8.592136949300765991e-02 -2.082002349197864532e-03
-4.264008998870849609e-01 1.117230802774429321e-01 -1.563069783151149750e-02
-4.343258440494537354e-01 1.065009534358978271e-01 1.493934821337461472e-02
-3.970848321914672852e-01 5.517736822366714478e-02 7.839994877576828003e-02
-3.153088092803955078e-01 -7.619096897542476654e-03 -9.665498137474060059e-02
-5.656593441963195801e-01 -7.921622693538665771e-02 9.663038887083530426e-03
-3.814134895801544189e-01 2.604654058814048767e-02 -1.141032651066780090e-01
-3.340004682540893555e-01 5.544143915176391602e-02 6.655457615852355957e-02
-4.952785372734069824e-01 4.230242222547531128e-02 -9.644287079572677612e-02
-3.174201846122741699e-01 -4.771988838911056519e-02 3.525889292359352112e-02
-4.122200906276702881e-01 -8.880610764026641846e-02 -2.679642289876937866e-02
-4.889287948608398438e-01 9.290391206741333008e-02 2.434943616390228271e-02
-2.343043833971023560e-01 1.626518368721008301e-02 -4.588170722126960754e-02
-3.883171081542968750e-01 -4.698306322097778320e-02 6.959331780672073364e-02
-5.104433894157409668e-01 -5.049075186252593994e-02 7.460897415876388550e-02
-4.959707856178283691e-01 -9.276985377073287964e-02 1.316220965236425400e-02
-5.934696197509765625e-01 8.958550170063972473e-03 -5.567472800612449646e-02
-3.867412209510803223e-01 6.383509188890457153e-02 7.256136834621429443e-02
-2.943592071533203125e-01 9.894251823425292969e-02 -1.557066105306148529e-03
-4.923461377620697021e-01 -8.817173540592193604e-02 -3.797207772731781006e-02
-5.876685976982116699e-01 5.019884929060935974e-02 -1.665778458118438721e-02
-5.063831806182861328e-01 -6.528731435537338257e-02 -7.115026563405990601e-02
-4.029009640216827393e-01 4.583508707582950592e-03 9.016326069831848145e-02
-4.788302481174468994e-01 -6.344810873270034790e-02 6.781194359064102173e-02
-5.192907452583312988e-01 -7.189010828733444214e-02 5.423558130860328674e-02
-3.433636426925659180e-01 4.836856573820114136e-02 7.213542610406875610e-02
-3.385154902935028076e-01 -4.080501198768615723e-02 -8.338457345962524414e-02
-2.373346239328384399e-01 -1.699334010481834412e-03 -1.726295612752437592e-02
-2.381552308797836304e-01 1.144264638423919678e-02 7.252166979014873505e-03
-3.202222585678100586e-01 4.294987767934799194e-02 -1.030078977346420288e-01
-3.656318187713623047e-01 9.440027922391891479e-02 4.141439869999885559e-02
-5.172728896141052246e-01 7.667319476604461670e-02 3.937622904777526855e-02
-3.474078476428985596e-01 9.332723170518875122e-02 -7.620690017938613892e-02
-5.283061265945434570e-01 3.180652111768722534e-02 7.563687115907669067e-02
-3.686024546623229980e-01 -6.382289528846740723e-02 -6.778169423341751099e-02
-4.110166728496551514e-01 8.499366044998168945e-02 -8.601984381675720215e-02
-6.015174388885498047e-01 -1.205811556428670883e-02 4.942825809121131897e-02
-2.708840370178222656e-01 8.041093498468399048e-02 -5.926967039704322815e-02
-5.134440064430236816e-01 1.360316015779972076e-02 -9.839566797018051147e-02
-5.005749464035034180e-01 1.093978621065616608e-02 8.837172389030456543e-02
-2.934223711490631104e-01 7.321413606405258179e-02 3.900910541415214539e-02
-5.487892031669616699e-01 -2.821574732661247253e-02 7.529184967279434204e-02
-6.178097128868103027e-01 -3.407832980155944824e-02 -1.997395604848861694e-02
-3.560712933540344238e-01 4.413564503192901611e-02 -1.091403290629386902e-01
-3.765364885330200195e-01 -3.974604979157447815e-02 7.124873995780944824e-02
-5.413641929626464844e-01 3.271358087658882141e-02 7.044666260480880737e-02
-4.229290485382080078e-01 -9.172337502241134644e-02 -1.507945172488689423e-02
-2.507669627666473389e-01 7.032652199268341064e-02 -5.084332451224327087e-02
-3.840304315090179443e-01 1.056523472070693970e-01 -5.826407298445701599e-02
-2.660048604011535645e-01 -3.226307407021522522e-02 -2.638283744454383850e-02
-4.388380646705627441e-01 -9.213688224554061890e-02 1.162908878177404404e-02
-2.496559321880340576e-01 3.094179555773735046e-02 2.692006900906562805e-02
-4.587937295436859131e-01 5.649886652827262878e-02 7.699480652809143066e-02
-3.717836439609527588e-01 1.129354611039161682e-01 -2.527974545955657959e-03
-3.072601556777954102e-01 2.741563692688941956e-02 -1.010521203279495239e-01
-4.615535140037536621e-01 9.668148308992385864e-02 -5.553604662418365479e-02
-5.514244437217712402e-01 4.181851819157600403e-02 5.993331596255302429e-02
-5.796828269958496094e-01 2.626034989953041077e-02 -6.004472449421882629e-02
-4.826527833938598633e-01 1.002738252282142639e-01 -2.460019662976264954e-02
-2.484926581382751465e-01 -1.619539782404899597e-02 -1.440921891480684280e-02
-2.842464148998260498e-01 9.536179900169372559e-02 -4.129460453987121582e-02
-2.920364141464233398e-01 -4.819658771157264709e-02 2.536011859774589539e-03
-5.103809833526611328e-01 -8.856002241373062134e-02 -3.042103722691535950e-02
-4.525242149829864502e-01 -9.234940260648727417e-02 1.592673361301422119e-02
-5.109180808067321777e-01 5.135008692741394043e-02 -8.592863380908966064e-02
-3.346255719661712646e-01 -3.966640681028366089e-02 5.485827103257179260e-02
-3.761807680130004883e-01 -5.178808420896530151e-02 -8.453727513551712036e-02
-6.173307299613952637e-01 -3.513432294130325317e-02 2.216748148202896118e-02
-5.973923802375793457e-01 3.198254108428955078e-02 -3.543788567185401917e-02
-3.844051957130432129e-01 7.334800064563751221e-02 -9.739513695240020752e-02
-2.470627427101135254e-01 2.702358365058898926e-02 -6.709278374910354614e-02
-4.418149888515472412e-01 -3.842122107744216919e-02 8.345251530408859253e-02
-3.203957676887512207e-01 -3.868034482002258301e-02 4.772322624921798706e-02
-4.637815058231353760e-01 -9.490498155355453491e-02 -8.636758662760257721e-03
-4.718627333641052246e-01 -3.771955892443656921e-02 -9.778649359941482544e-02
-2.685327231884002686e-01 5.986820533871650696e-02 3.297174721956253052e-02
-5.451309680938720703e-01 6.683582067489624023e-02 -4.895276576280593872e-02
-4.701426923274993896e-01 1.032388135790824890e-01 -2.643598243594169617e-02
-5.748697519302368164e-01 -5.270220711827278137e-02 5.163820460438728333e-02
-5.440488457679748535e-01 5.903379991650581360e-02 -6.070542708039283752e-02
-5.537588596343994141e-01 -4.491983726620674133e-02 6.684269756078720093e-02
-3.774925768375396729e-01 9.539734572172164917e-02 -7.592634111642837524e-02
-4.294488430023193359e-01 1.098176613450050354e-01 3.024204634130001068e-03
-2.318395227193832397e-01 4.879472032189369202e-02 -5.959476809948682785e-03
-4.692915081977844238e-01 9.913886897265911102e-03 9.204453974962234497e-02
-6.159815192222595215e-01 -2.559958770871162415e-02 3.108788654208183289e-02
-3.145656585693359375e-01 9.793725609779357910e-02 -5.957399308681488037e-02
-3.498863577842712402e-01 -6.118585914373397827e-02 -6.339476257562637329e-02
-6.015323996543884277e-01 3.650325536727905273e-02 1.281858887523412704e-02
-4.227735102176666260e-01 -4.497925192117691040e-02 -9.599301218986511230e-02
-5.393961668014526367e-01 8.087036013603210449e-02 -7.875932380557060242e-03
-4.617314338684082031e-01 -6.628918461501598358e-03 9.246065467596054077e-02
-5.351262688636779785e-01 2.595806960016489029e-03 8.172032982110977173e-02
-3.349307775497436523e-01 7.047682255506515503e-02 5.806199833750724792e-02
-3.726692199707031250e-01 8.118455857038497925e-02 -9.113937616348266602e-02
-4.343807101249694824e-01 -8.187723159790039062e-02 4.049619287252426147e-02
-3.260428309440612793e-01 -6.705162674188613892e-02 -1.263588666915893555e-02
-5.885217189788818359e-01 -4.071575030684471130e-02 5.130074545741081238e-02
-5.646663904190063477e-01 -1.186332572251558304e-02 -7.717631012201309204e-02
-6.105376482009887695e-01 1.210128888487815857e-03 3.776138275861740112e-02
-5.419533252716064453e-01 -8.559257537126541138e-02 -1.693709194660186768e-02
-5.063647627830505371e-01 -7.514183223247528076e-02 -5.921638011932373047e-02
-2.912110388278961182e-01 -3.077848814427852631e-03 -8.835525810718536377e-02
-5.198959708213806152e-01 -2.474667131900787354e-02 8.359893411397933960e-02
-3.441559970378875732e-01 -5.138191580772399902e-02 4.835890233516693115e-02
-2.447830736637115479e-01 4.485869407653808594e-02 1.857542246580123901e-02
-6.022233366966247559e-01 1.391993183642625809e-02 4.106259718537330627e-02
-5.234765410423278809e-01 5.020147934556007385e-02 6.622403860092163086e-02
-4.718247056007385254e-01 9.829185158014297485e-02 2.096988260746002197e-02
-7.610604166984558105e-03 -4.438091814517974854e-02 -1.177796944975852966e-01
1.537160873413085938e-01 -2.466004155576229095e-02 -6.119534373283386230e-03
1.280772387981414795e-01 -2.505613490939140320e-02 3.254583775997161865e-01
1.227595210075378418e-01 -3.090227022767066956e-02 -1.126368418335914612e-01
9.508715569972991943e-02 -3.868526965379714966e-02 3.916908800601959229e-02
1.462815403938293457e-01 -7.634703069925308228e-03 2.538195848464965820e-01
2.935314550995826721e-02 -4.321590811014175415e-02 -1.342115104198455811e-01
2.730636298656463623e-02 -4.308720305562019348e-02 2.416609525680541992e-01
1.959687471389770508e-02 -3.726303949952125549e-02 3.750834763050079346e-01
2.330337464809417725e-02 -1.957413181662559509e-02 4.257920086383819580e-01
-1.140568032860755920e-02 -4.535029456019401550e-02 1.884981095790863037e-01
4.208688437938690186e-02 -3.761304169893264771e-02 -2.303436100482940674e-01
5.104033648967742920e-02 -9.817268699407577515e-03 -6.107879430055618286e-02
1.098080128431320190e-01 -3.621013462543487549e-02 3.463062644004821777e-02
9.387639909982681274e-02 -4.641164094209671021e-03 5.726660043001174927e-02
3.824214637279510498e-02 -4.455871134996414185e-02 -4.605565220117568970e-02
1.446623653173446655e-01 -5.164911970496177673e-03 1.403917074203491211e-01
5.631177127361297607e-02 -8.396286517381668091e-03 2.941550016403198242e-01
3.294460475444793701e-04 -4.561055451631546021e-02 -7.723075896501541138e-02
1.296613067388534546e-01 -2.918046154081821442e-02 2.373172640800476074e-01
1.136811748147010803e-01 -3.207939490675926208e-02 2.564454972743988037e-01
1.016953140497207642e-01 -1.603580079972743988e-02 -2.176726460456848145e-01
-5.475365743041038513e-02 -2.822230383753776550e-02 1.291068941354751587e-01
-2.615736797451972961e-02 -4.186808690428733826e-02 -1.396996378898620605e-01
1.488667428493499756e-01 -2.674673125147819519e-02 1.189642101526260376e-01
1.895521581172943115e-02 -3.602520748972892761e-02 3.910929858684539795e-01
7.430251687765121460e-02 -5.214609205722808838e-03 1.604631096124649048e-01
-9.607050567865371704e-03 -1.793036609888076782e-02 2.873097360134124756e-01
1.271461397409439087e-01 -4.328303039073944092e-03 1.883759498596191406e-01
1.046899110078811646e-01 -5.109624937176704407e-03 2.573618590831756592e-01
-3.890544176101684570e-04 -1.394075807183980942e-02 1.315249055624008179e-01
1.638876050710678101e-01 -2.018053457140922546e-02 1.394730806350708008e-02
1.651691645383834839e-01 -9.203204885125160217e-03 1.134402900934219360e-01
-1.808175072073936462e-02 -4.657579958438873291e-02 1.036190092563629150e-01
9.266842901706695557e-02 -3.706774488091468811e-02 2.127656638622283936e-01
1.244508028030395508e-01 -3.334552422165870667e-02 5.874573811888694763e-02
9.493201971054077148e-03 -4.516694322228431702e-02 -9.124725311994552612e-02
9.043361246585845947e-02 -3.192161023616790771e-02 3.519619107246398926e-01
9.494043886661529541e-03 -1.496996916830539703e-02 3.113477528095245361e-01
-4.109501838684082031e-03 -1.481036096811294556e-02 1.828951984643936157e-01
-5.071264132857322693e-02 -2.845141105353832245e-02 -4.909574985504150391e-03
-3.965431824326515198e-02 -4.471180588006973267e-02 1.438809633255004883e-01
9.174398332834243774e-02 -5.812700837850570679e-03 2.772288322448730469e-01
4.708443954586982727e-02 -3.658197820186614990e-02 3.640899360179901123e-01
9.879972040653228760e-02 -4.457935690879821777e-03 2.119009643793106079e-01
-6.696518510580062866e-03 -1.511469390243291855e-02 1.521802544593811035e-01
1.609970033168792725e-01 -2.219506166875362396e-02 1.209972053766250610e-01
1.452194899320602417e-01 -7.608428597450256348e-03 -2.358404546976089478e-02
7.494435459375381470e-02 -3.971968218684196472e-02 2.043512314558029175e-01
1.220025271177291870e-01 -3.339103609323501587e-02 -1.995323598384857178e-02
1.316126734018325806e-01 -6.241735070943832397e-03 2.676184773445129395e-01
8.762444555759429932e-02 -3.074965626001358032e-02 3.770054876804351807e-01
5.282411724328994751e-02 -7.213642820715904236e-03 2.058950662612915039e-01
1.402836889028549194e-01 -2.943592891097068787e-02 9.662756323814392090e-02
1.638827174901962280e-01 -2.023225463926792145e-02 1.442764401435852051e-01
1.120699271559715271e-01 -4.486333578824996948e-03 4.106236994266510010e-02
1.387432664632797241e-01 -2.910025045275688171e-02 -3.010263293981552124e-02
8.824026584625244141e-02 -1.051356364041566849e-02 -1.441575586795806885e-01
6.943585723638534546e-02 -1.518202573060989380e-02 -2.080131471157073975e-01
6.198862567543983459e-02 -3.328831493854522705e-02 3.920640945434570312e-01
3.177479282021522522e-02 -3.960512951016426086e-02 -2.104676365852355957e-01
1.575455069541931152e-02 -4.347204789519309998e-02 -1.428657770156860352e-01
3.417342156171798706e-02 -1.491899508982896805e-02 3.928627073764801025e-01
1.600082963705062866e-01 -2.088882401585578918e-02 1.847523897886276245e-01
7.535845041275024414e-02 -8.119916543364524841e-03 3.309449255466461182e-01
3.050111234188079834e-03 -4.393920674920082092e-02 -1.343399584293365479e-01
5.029561743140220642e-02 -3.880420699715614319e-02 3.153148889541625977e-01
1.057684794068336487e-01 -3.564376756548881531e-02 -7.590284198522567749e-02
2.492783218622207642e-02 -4.597182571887969971e-02 2.848318591713905334e-02
2.071167528629302979e-02 -1.378236897289752960e-02 -7.265878468751907349e-02
6.124813854694366455e-02 -4.131425917148590088e-02 -1.087982729077339172e-01
8.591517060995101929e-02 -5.453974008560180664e-03 2.257870882749557495e-02
7.178699225187301636e-02 -2.985776588320732117e-02 4.173637330532073975e-01
6.109459698200225830e-02 -4.287783801555633545e-02 9.633623808622360229e-02
-5.570629611611366272e-02 -2.952494472265243530e-02 3.408911824226379395e-02
1.415119022130966187e-01 -5.335249006748199463e-03 1.923763453960418701e-01
-2.032524719834327698e-02 -4.434185102581977844e-02 -1.019177362322807312e-01
7.560488581657409668e-02 -3.552997857332229614e-02 3.260372281074523926e-01
2.207495272159576416e-03 -4.643596336245536804e-02 -2.655252069234848022e-02
1.433561369776725769e-02 -4.533015936613082886e-02 1.721028983592987061e-01
1.025987192988395691e-01 -6.682988256216049194e-03 3.127235472202301025e-01
3.059574030339717865e-02 -3.838417679071426392e-02 3.516203761100769043e-01
8.340592682361602783e-02 -3.928425163030624390e-02 -7.551189512014389038e-02
-5.857089534401893616e-02 -4.015242680907249451e-02 -2.748601138591766357e-03
1.017783507704734802e-01 -3.755379840731620789e-02 7.761050015687942505e-02
1.115637719631195068e-01 -3.506392240524291992e-02 1.549656838178634644e-01
-5.436409264802932739e-03 -4.589869827032089233e-02 -6.324165314435958862e-02
1.338136345148086548e-01 -2.475557476282119751e-02 3.039016127586364746e-01
9.259338676929473877e-02 -3.620465099811553955e-02 2.446969747543334961e-01
4.957931116223335266e-02 -4.272287338972091675e-02 -9.789725393056869507e-02
1.169751584529876709e-01 -4.013882949948310852e-03 8.445235341787338257e-02
-1.658055931329727173e-03 -1.481445506215095520e-02 3.965648263692855835e-02
1.407819390296936035e-01 -2.560155279934406281e-02 -1.073096022009849548e-01
7.201658934354782104e-02 -3.810014203190803528e-02 2.742827832698822021e-01
9.853841364383697510e-02 -3.814353793859481812e-02 5.379577726125717163e-02
4.010989144444465637e-02 -8.467955514788627625e-03 1.988030970096588135e-01
9.723386168479919434e-02 -4.177486523985862732e-03 1.749589443206787109e-01
1.334774345159530640e-01 -8.173251524567604065e-03 3.071913123130798340e-01
6.718358397483825684e-02 -8.020833134651184082e-03 3.122338652610778809e-01
5.853269621729850769e-02 -6.937475875020027161e-03 4.877482354640960693e-02
-2.879418432712554932e-03 -1.556709315627813339e-02 7.472351193428039551e-03
8.074764907360076904e-02 -5.988501012325286865e-03 2.644211053848266602e-01
5.661715567111968994e-02 -1.018585544079542160e-02 3.495794534683227539e-01
3.588613122701644897e-02 -1.061566825956106186e-02 -2.911372482776641846e-02
1.654913723468780518e-01 -1.080445945262908936e-02 1.786153912544250488e-01
1.240516901016235352e-01 -3.948727622628211975e-03 1.189300864934921265e-01
1.131733730435371399e-01 -6.523212417960166931e-03 -5.011942237615585327e-02
5.631372705101966858e-02 -2.366980537772178650e-02 -2.731079161167144775e-01
1.484745889902114868e-01 -5.745226517319679260e-03 1.609850525856018066e-01
-5.274387821555137634e-02 -2.726836688816547394e-02 1.070351451635360718e-01
2.329385839402675629e-02 -4.405322298407554626e-02 -1.163450554013252258e-01
8.843474835157394409e-02 -3.448668494820594788e-02 -1.902500987052917480e-01
1.329813003540039062e-01 -1.383855938911437988e-02 -1.552797853946685791e-01
-5.408758297562599182e-02 -2.858950756490230560e-02 1.719873100519180298e-01
-1.385280862450599670e-02 -3.837095573544502258e-02 3.443229794502258301e-01
1.577367261052131653e-02 -1.154764089733362198e-02 8.332096040248870850e-02
1.911734789609909058e-02 -1.151401177048683167e-02 4.040310531854629517e-02
-2.040794864296913147e-02 -2.267805859446525574e-02 -1.005188748240470886e-01
8.874818682670593262e-02 -4.432667046785354614e-03 1.132149547338485718e-01
7.531477510929107666e-02 -9.640641510486602783e-03 -1.119604036211967468e-01
-1.781713217496871948e-03 -2.784316800534725189e-02 -2.253037095069885254e-01
4.539049789309501648e-02 -1.579369604587554932e-02 4.232889115810394287e-01
1.606657505035400391e-01 -8.049953728914260864e-03 7.097029685974121094e-02
4.280767217278480530e-02 -7.919367402791976929e-03 1.373083144426345825e-01
-3.958697244524955750e-02 -4.544882476329803467e-02 3.570425137877464294e-02
7.441821694374084473e-02 -6.259474903345108032e-03 1.300696283578872681e-02
2.802965790033340454e-02 -9.774560108780860901e-03 9.794927388429641724e-02
3.224723041057586670e-04 -1.501688268035650253e-02 2.532543540000915527e-01
-4.735042527318000793e-02 -2.595009841024875641e-02 1.857751309871673584e-01
6.260067224502563477e-02 -4.278961941599845886e-02 9.383633732795715332e-04
2.949587441980838776e-02 -1.269223261624574661e-02 3.350508213043212891e-01
8.962679654359817505e-02 -4.485568031668663025e-03 9.428600966930389404e-02
1.260728836059570312e-01 -4.688605666160583496e-03 4.036312922835350037e-02
1.097190827131271362e-01 -8.045071735978126526e-03 3.415001630783081055e-01
1.548474282026290894e-01 -6.980884820222854614e-03 5.813881009817123413e-02
5.993562564253807068e-02 -1.118122972548007965e-02 -1.235915645956993103e-01
-2.623025700449943542e-02 -3.967945277690887451e-02 3.071384131908416748e-01
-4.241187497973442078e-02 -2.518368698656558990e-02 2.259511053562164307e-01
1.198659688234329224e-01 -7.943289354443550110e-03 -8.526384085416793823e-02
6.643924862146377563e-02 -3.821685165166854858e-02 2.893247306346893311e-01
1.156487613916397095e-01 -1.059277821332216263e-02 -1.414802372455596924e-01
2.940278314054012299e-02 -4.571276903152465820e-02 5.541375279426574707e-02
3.107580542564392090e-02 -3.625805675983428955e-02 -2.497907876968383789e-01
9.618765860795974731e-02 -3.396283090114593506e-02 2.915362417697906494e-01
5.154480785131454468e-02 -4.401177167892456055e-02 4.622609540820121765e-02
6.115167587995529175e-02 -6.967023015022277832e-03 3.000317141413688660e-02
8.854027837514877319e-03 -4.649114236235618591e-02 9.640121459960937500e-02
7.600434124469757080e-02 -5.408916622400283813e-03 6.905348598957061768e-02
5.383993312716484070e-02 -3.796822950243949890e-02 -2.111906409263610840e-01
9.910474717617034912e-02 -3.769554197788238525e-02 -2.111229300498962402e-02
7.548684626817703247e-02 -3.548135608434677124e-02 -2.085028886795043945e-01
1.006628423929214478e-01 -3.775463625788688660e-02 2.250212430953979492e-02
2.561796270310878754e-02 -4.566022008657455444e-02 -2.015772461891174316e-02
1.099754869937896729e-02 -1.379023957997560501e-02 2.806341946125030518e-01
-6.067984178662300110e-02 -4.055773466825485229e-02 4.535157606005668640e-02
7.527157664299011230e-02 -3.632882982492446899e-02 3.093849718570709229e-01
-2.120533213019371033e-02 -1.850393600761890411e-02 1.980639696121215820e-01
2.568083629012107849e-02 -4.430793225765228271e-02 -1.022434905171394348e-01
2.095063775777816772e-02 -1.441365573555231094e-02 3.462071716785430908e-01
1.330039948225021362e-01 -8.650116622447967529e-03 -8.210077136754989624e-02
5.892400443553924561e-02 -1.667325198650360107e-02 -2.182385027408599854e-01
-3.546963259577751160e-02 -4.370694607496261597e-02 2.016673833131790161e-01
9.276542067527770996e-02 -8.148869499564170837e-03 -9.235916286706924438e-02
1.139361038804054260e-01 -3.530683740973472595e-02 9.579727798700332642e-02
1.202952563762664795e-01 -5.961023271083831787e-03 2.806935012340545654e-01
-2.233219519257545471e-02 -2.028108015656471252e-02 2.658411860466003418e-01
9.768590331077575684e-02 -6.290374323725700378e-03 -3.751529008150100708e-02
3.671828657388687134e-02 -9.990791790187358856e-03 -4.591926932334899902e-03
-2.000369131565093994e-03 -2.187610045075416565e-02 -1.637766659259796143e-01
1.852041110396385193e-02 -2.448503673076629639e-02 4.438787698745727539e-01
8.514118194580078125e-02 -3.598411753773689270e-02 2.841703295707702637e-01
4.067383706569671631e-02 -1.324053294956684113e-02 -1.278040111064910889e-01
1.110372394323348999e-01 -2.799710445106029510e-02 3.488213121891021729e-01
-4.724914953112602234e-02 -2.542127668857574463e-02 6.962876021862030029e-02
1.459809392690658569e-01 -6.155444309115409851e-03 2.083310782909393311e-01
1.498403400182723999e-02 -4.644010215997695923e-02 6.284523010253906250e-02
6.930628418922424316e-02 -3.352990373969078064e-02 3.761633336544036865e-01
1.624575704336166382e-01 -9.746385738253593445e-03 2.292010933160781860e-02
1.278021931648254395e-01 -1.532574556767940521e-02 -1.778847873210906982e-01
5.764866620302200317e-02 -3.975121676921844482e-02 2.728368043899536133e-01
1.416067332029342651e-01 -1.080340240150690079e-02 -9.930305927991867065e-02
9.512841701507568359e-02 -3.774499893188476562e-02 -6.289676576852798462e-02
1.007638499140739441e-02 -1.348665077239274979e-02 2.091720700263977051e-03
1.208875477313995361e-01 -5.795663222670555115e-03 -1.999221742153167725e-02
2.970632351934909821e-02 -4.456239193677902222e-02 1.721414476633071899e-01
6.483800709247589111e-02 -1.321515534073114395e-02 4.138528704643249512e-01
9.812709689140319824e-02 -2.548618428409099579e-02 4.102522432804107666e-01
-3.873530402779579163e-02 -2.249738946557044983e-02 1.016675084829330444e-01
7.029212266206741333e-02 -4.178537428379058838e-02 1.056230813264846802e-01
2.225048094987869263e-02 -4.589231312274932861e-02 1.018979847431182861e-01
1.174364238977432251e-01 -9.814782068133354187e-03 3.614994883537292480e-01
2.467559278011322021e-02 -3.441674634814262390e-02 4.083738029003143311e-01
5.526958033442497253e-02 -1.261251699179410934e-02 -1.468808352947235107e-01
8.700396120548248291e-02 -7.218670099973678589e-03 3.202143013477325439e-01
1.403229087591171265e-01 -2.890143357217311859e-02 -1.698961108922958374e-02
1.124439463019371033e-01 -3.864219412207603455e-03 1.085327342152595520e-01
1.619553118944168091e-01 -8.150527253746986389e-03 1.271870434284210205e-01
-4.075614735484123230e-02 -4.536867141723632812e-02 4.959341138601303101e-02
7.749003916978836060e-02 -3.845566138625144958e-02 -1.388462483882904053e-01
1.160212606191635132e-01 -2.865516208112239838e-02 -1.834064424037933350e-01
4.846193641424179077e-02 -7.384713739156723022e-03 1.108161211013793945e-01
7.811156660318374634e-02 -3.009442239999771118e-02 4.047410190105438232e-01
-4.104780778288841248e-02 -4.386115446686744690e-02 -4.730357974767684937e-02
1.676119714975357056e-01 -1.867994293570518494e-02 6.356421113014221191e-02
8.906519412994384766e-02 -4.393992945551872253e-03 1.544298529624938965e-01
-2.689567580819129944e-02 -4.057002812623977661e-02 2.922928929328918457e-01
-5.904354527592658997e-02 -3.082891926169395447e-02 5.585801973938941956e-02
1.365337222814559937e-01 -3.053892217576503754e-02 5.431303009390830994e-02
-7.527768611907958984e-04 -2.397186681628227234e-02 -1.950062215328216553e-01
1.577503979206085205e-02 -4.643114656209945679e-02 3.917483240365982056e-02
-1.766010001301765442e-02 -4.174196347594261169e-02 -1.588164269924163818e-01
-1.937583088874816895e-03 -1.749561168253421783e-02 -7.218898087739944458e-02
5.024398490786552429e-02 -3.939606249332427979e-02 -1.917829513549804688e-01
-1.103549823164939880e-02 -4.325394332408905029e-02 -1.417097449302673340e-01
1.252701282501220703e-01 -4.415998235344886780e-03 5.828145146369934082e-02
-1.079307869076728821e-02 -3.698094561696052551e-02 3.638785183429718018e-01
3.921774774789810181e-02 -4.250504821538925171e-02 2.350986599922180176e-01
1.690845564007759094e-02 -1.593843661248683929e-02 -1.162472441792488098e-01
6.749552488327026367e-02 -5.852103233337402344e-03 1.917428672313690186e-01
3.795429691672325134e-02 -1.342168264091014862e-02 3.760329782962799072e-01
3.757699951529502869e-02 -4.205079376697540283e-02 -1.534977555274963379e-01
8.703003078699111938e-02 -1.143511664122343063e-02 -1.609039902687072754e-01
6.237897649407386780e-02 -3.953557834029197693e-02 -1.611344814300537109e-01
-5.592743679881095886e-02 -3.886421769857406616e-02 -4.344581812620162964e-02
5.034653469920158386e-02 -4.359348863363265991e-02 1.313313990831375122e-01
-5.105899646878242493e-02 -4.025107994675636292e-02 2.140101343393325806e-01
-2.613869681954383850e-02 -4.482300579547882080e-02 1.890887916088104248e-01
4.398259893059730530e-02 -8.675221353769302368e-03 2.439402788877487183e-02
9.243011474609375000e-03 -1.256296504288911819e-02 1.888510882854461670e-01
2.237982489168643951e-02 -1.936971209943294525e-02 -1.952895522117614746e-01
-4.553368315100669861e-02 -4.450294002890586853e-02 1.746816188097000122e-02
4.660747572779655457e-02 -4.353238642215728760e-02 -7.010348886251449585e-02
2.685032598674297333e-02 -1.063916739076375961e-02 2.815599739551544189e-02
1.249731034040451050e-01 -3.296534344553947449e-02 1.108509153127670288e-01
6.246853247284889221e-02 -7.251927629113197327e-03 6.035760045051574707e-03
1.559404730796813965e-01 -1.868729107081890106e-02 -8.300047367811203003e-02
6.503337621688842773e-02 -3.316476568579673767e-02 -2.532699704170227051e-01
3.088398091495037079e-02 -3.621914237737655640e-02 3.849723935127258301e-01
-2.229492738842964172e-02 -1.939097791910171509e-02 2.333293557167053223e-01
1.427443623542785645e-01 -1.461666449904441833e-02 -1.351087689399719238e-01
3.401345014572143555e-02 -1.295175775885581970e-02 3.560549318790435791e-01
1.275675743818283081e-01 -3.096488490700721741e-02 1.947662681341171265e-01
4.173279181122779846e-02 -4.063924774527549744e-02 2.872742712497711182e-01
7.084067165851593018e-02 -1.055781822651624680e-02 3.794901371002197266e-01
9.885185211896896362e-02 -1.076646149158477783e-02 -1.517309844493865967e-01
-6.220981478691101074e-03 -4.632207006216049194e-02 1.369255185127258301e-01
1.446288377046585083e-01 -2.620856091380119324e-02 2.026838809251785278e-01
3.782311081886291504e-02 -3.362298011779785156e-02 4.124377369880676270e-01
-4.645869508385658264e-02 -4.021016880869865417e-02 2.380983531475067139e-01
1.439124643802642822e-01 -1.947068236768245697e-02 3.146538138389587402e-01
1.530288606882095337e-01 -1.019003242254257202e-02 -4.836773127317428589e-02
2.001716196537017822e-02 -1.077077351510524750e-02 1.165269762277603149e-01
-4.402712360024452209e-02 -4.396023601293563843e-02 -2.578478306531906128e-02
-2.570393308997154236e-02 -1.928150653839111328e-02 1.728951483964920044e-01
1.314321756362915039e-01 -3.138257190585136414e-02 1.235512942075729370e-01
1.299093961715698242e-01 -2.096260525286197662e-02 3.591206669807434082e-01
1.172220855951309204e-01 -3.316641226410865784e-02 -8.318374305963516235e-02
1.319736093282699585e-01 -3.163199126720428467e-02 4.118897393345832825e-02
1.201105564832687378e-01 -3.292662650346755981e-02 -6.767315417528152466e-02
6.401541829109191895e-02 -4.170145094394683838e-02 -7.703217118978500366e-02
2.471249550580978394e-03 -4.261218011379241943e-02 2.785767018795013428e-01
-1.174593344330787659e-02 -4.574821144342422485e-02 1.696385443210601807e-01
8.760839700698852539e-02 -1.132836937904357910e-02 3.995820879936218262e-01
4.077593237161636353e-02 -8.409012109041213989e-03 7.586743682622909546e-02
1.251820102334022522e-02 -4.647152870893478394e-02 7.956571131944656372e-02
2.552882768213748932e-02 -9.993752464652061462e-03 1.317850947380065918e-01
8.200676739215850830e-02 -4.057409614324569702e-02 4.343177378177642822e-02
2.779904380440711975e-02 -1.139736454933881760e-02 2.860062420368194580e-01
1.202115267515182495e-01 -3.355170786380767822e-02 -3.515131026506423950e-02
5.742852389812469482e-02 -4.265294224023818970e-02 -6.230490654706954956e-02
5.049170553684234619e-02 -3.585380688309669495e-02 -2.432428598403930664e-01
3.736806660890579224e-02 -4.321540892124176025e-02 2.125471532344818115e-01
-3.817322477698326111e-02 -2.490689419209957123e-02 -3.419447690248489380e-02
7.260970771312713623e-02 -5.516460165381431580e-03 8.235274255275726318e-02
3.329468518495559692e-02 -4.048783332109451294e-02 -1.942512989044189453e-01
-2.384969219565391541e-02 -2.138754911720752716e-02 -4.781743139028549194e-02
-2.254724130034446716e-02 -4.615528136491775513e-02 -2.254517376422882080e-02
1.456321775913238525e-01 -2.806173637509346008e-02 6.795230507850646973e-02
3.418287262320518494e-02 -1.173205021768808365e-02 -6.383267790079116821e-02
1.166460812091827393e-01 -3.821766003966331482e-03 1.364738941192626953e-01
1.170692294836044312e-01 -9.672425687313079834e-03 -1.242084130644798279e-01
2.908566035330295563e-02 -4.198227822780609131e-02 2.731167376041412354e-01
6.501035392284393311e-02 -3.746849671006202698e-02 -1.988193094730377197e-01
6.864240020513534546e-02 -7.117750123143196106e-03 2.822634279727935791e-01
-2.005611732602119446e-02 -1.808604039251804352e-02 6.741639971733093262e-02
8.277448266744613647e-02 -4.025482758879661560e-02 -1.001616567373275757e-02
6.988765299320220947e-02 -5.486847832798957825e-03 1.434828042984008789e-01
7.545586675405502319e-02 -5.410129204392433167e-03 2.041346430778503418e-01
7.052585482597351074e-02 -4.089941084384918213e-02 1.720934212207794189e-01
-1.739205047488212585e-02 -4.500361531972885132e-02 -8.706571906805038452e-02
1.522395610809326172e-01 -1.802627369761466980e-02 -1.062506660819053650e-01
4.296619817614555359e-02 -8.554777130484580994e-03 4.037785530090332031e-02
1.039317399263381958e-01 -3.509701788425445557e-02 -1.096738353371620178e-01
4.926259815692901611e-02 -9.076833724975585938e-03 -2.528265118598937988e-02
4.232834279537200928e-02 -3.865514695644378662e-02 3.325878381729125977e-01
1.987586542963981628e-02 -1.479909941554069519e-02 -9.872334450483322144e-02
5.883144959807395935e-02 -8.532293140888214111e-03 -3.950352221727371216e-02
-4.170281067490577698e-02 -2.421149984002113342e-02 3.020664304494857788e-02
1.024357229471206665e-02 -4.594871401786804199e-02 1.427957564592361450e-01
2.207408659160137177e-02 -1.602408848702907562e-02 -1.359597444534301758e-01
4.417634010314941406e-02 -1.405587326735258102e-02 -1.540153920650482178e-01
1.310622096061706543e-01 -3.170718997716903687e-02 1.488069444894790649e-02
2.862027660012245178e-02 -2.092886716127395630e-02 -2.268168330192565918e-01
1.793496310710906982e-02 -4.583270475268363953e-02 1.287985444068908691e-01
-2.036245539784431458e-02 -1.870181038975715637e-02 2.721839398145675659e-02
1.681180447340011597e-01 -1.839007437229156494e-02 8.599005639553070068e-02
1.840858533978462219e-02 -3.971309214830398560e-02 -2.138959765434265137e-01
4.429515451192855835e-03 -1.322825904935598373e-02 1.714539229869842529e-01
3.734240308403968811e-02 -4.458977654576301575e-02 1.366204321384429932e-01
-4.626542329788208008e-03 -1.839884743094444275e-02 3.271604776382446289e-01
-7.127784192562103271e-04 -4.678815975785255432e-02 9.272679686546325684e-03
9.776520729064941406e-02 -3.717167302966117859e-02 1.703815758228302002e-01
6.634645164012908936e-02 -2.786779031157493591e-02 4.404346942901611328e-01
2.806276082992553711e-03 -1.404721476137638092e-02 2.243098616600036621e-01
3.712369501590728760e-02 -9.245781227946281433e-03 2.362812757492065430e-01
-1.451997086405754089e-02 -2.569313719868659973e-02 -1.716869771480560303e-01
9.933260083198547363e-02 -3.639835864305496216e-02 1.962830722332000732e-01
-2.314740791916847229e-02 -4.653746634721755981e-02 8.782690018415451050e-02
9.831897914409637451e-04 -4.363138601183891296e-02 2.510320842266082764e-01
-2.700171247124671936e-02 -4.540361464023590088e-02 1.615327894687652588e-01
8.953319489955902100e-02 -3.813629224896430969e-02 -8.717191964387893677e-02
5.639465898275375366e-02 -3.032397292554378510e-02 4.308426082134246826e-01
-1.707948371767997742e-02 -2.419214509427547455e-02 3.617654740810394287e-01
6.946696341037750244e-02 -1.191207300871610641e-02 4.001198410987854004e-01
1.432121694087982178e-01 -2.458555623888969421e-02 2.534630000591278076e-01
-1.139007508754730225e-04 -4.688622057437896729e-02 4.945180192589759827e-02
4.168095439672470093e-02 -1.569554582238197327e-02 -1.791888177394866943e-01
3.226730227470397949e-02 -4.400803893804550171e-02 1.925161331892013550e-01
1.049898415803909302e-01 -2.617522142827510834e-02 3.883495330810546875e-01
-1.053838804364204407e-02 -4.170116409659385681e-02 -1.699366867542266846e-01
-3.910616412758827209e-02 -2.758613601326942444e-02 -8.375064283609390259e-02
1.049662530422210693e-01 -3.892801702022552490e-03 1.260733306407928467e-01
1.215336918830871582e-01 -3.916127607226371765e-03 1.524471938610076904e-01
9.431776404380798340e-02 -3.814074397087097168e-02 1.432457566261291504e-01
1.607739031314849854e-01 -2.238959819078445435e-02 3.508369997143745422e-02
-4.104010760784149170e-03 -3.537260740995407104e-02 3.865571320056915283e-01
8.472800999879837036e-02 -1.276572607457637787e-02 4.160730838775634766e-01
-2.937464043498039246e-02 -4.614325985312461853e-02 9.193040430545806885e-03
2.570206113159656525e-02 -4.577571153640747070e-02 -5.417004227638244629e-03
7.435642182826995850e-03 -1.855326816439628601e-02 3.767292797565460205e-01
1.174114495515823364e-01 -6.190171465277671814e-03 -3.702142089605331421e-02
-5.482463166117668152e-02 -4.289724305272102356e-02 8.071541041135787964e-02
5.017567798495292664e-02 -3.339727222919464111e-02 4.054865539073944092e-01
1.244891062378883362e-02 -3.558779507875442505e-02 -2.488963305950164795e-01
8.409908413887023926e-02 -3.895406424999237061e-02 1.835674643516540527e-01
8.059845864772796631e-02 -3.991006314754486084e-02 1.557799875736236572e-01
1.058376282453536987e-01 -1.274631079286336899e-02 4.047036468982696533e-01
-5.086250230669975281e-02 -3.061136417090892792e-02 2.473208606243133545e-01
-2.425651997327804565e-03 -3.430409729480743408e-02 -2.370728850364685059e-01
2.219993621110916138e-03 -3.884618729352951050e-02 3.510864078998565674e-01
3.669811040163040161e-02 -4.038744047284126282e-02 3.028195500373840332e-01
3.386235982179641724e-02 -2.850680798292160034e-02 4.501204788684844971e-01
1.440603882074356079e-01 -2.840686962008476257e-02 3.028948977589607239e-02
-2.715553715825080872e-02 -2.102051675319671631e-02 2.478982806205749512e-01
6.523627787828445435e-03 -4.431155323982238770e-02 2.265369296073913574e-01
2.518428117036819458e-02 -1.017589773982763290e-02 1.815373301506042480e-01
-7.399622350931167603e-03 -1.569685712456703186e-02 2.074793130159378052e-01
3.613145276904106140e-02 -8.685216307640075684e-03 1.240215823054313660e-01
7.635831832885742188e-03 -4.667596518993377686e-02 2.090656757354736328e-02
1.101705208420753479e-01 -4.832869395613670349e-03 2.444437444210052490e-01
1.371739208698272705e-01 -5.471248179674148560e-03 2.716691792011260986e-02
-4.012458398938179016e-02 -3.146900236606597900e-02 -1.230526044964790344e-01
-4.896131530404090881e-02 -3.367556631565093994e-02 2.736668586730957031e-01
2.786155045032501221e-02 -1.090189442038536072e-02 2.645031213760375977e-01
1.408845186233520508e-01 -2.688874304294586182e-02 -8.129165321588516235e-02
1.893751323223114014e-04 -1.636729203164577484e-02 -4.885920137166976929e-02
5.444570258259773254e-02 -8.219188079237937927e-03 2.797002494335174561e-01
1.392401158809661865e-01 -8.711477741599082947e-03 -6.903327256441116333e-02
1.138143166899681091e-01 -4.877464845776557922e-03 1.726723462343215942e-02
-4.722246900200843811e-02 -2.926207706332206726e-02 2.607395350933074951e-01
1.177559792995452881e-01 -1.147602312266826630e-02 3.791039586067199707e-01
1.143598556518554688e-02 -4.138728231191635132e-02 3.050841689109802246e-01
3.914185985922813416e-02 -4.468885064125061035e-02 1.160097941756248474e-01
1.553793549537658691e-01 -8.400490507483482361e-03 2.213740646839141846e-01
1.266202330589294434e-02 -1.385764684528112411e-02 -3.285577148199081421e-02
-1.776790246367454529e-02 -3.115247562527656555e-02 -2.025494277477264404e-01
-3.303502872586250305e-02 -3.134785965085029602e-02 3.422053456306457520e-01
4.143985360860824585e-02 -4.457733035087585449e-02 -2.281315624713897705e-02
-7.011998444795608521e-03 -1.936083100736141205e-02 -9.520297497510910034e-02
6.655638664960861206e-02 -4.178053513169288635e-02 1.448688954114913940e-01
-3.413917496800422668e-02 -4.221227765083312988e-02 2.444733679294586182e-01
1.529667973518371582e-01 -1.834507286548614502e-02 2.761914134025573730e-01
