-2.290467768907546997e-01 -6.758341789245605469e-01 2.983863055706024170e-01
4.015951603651046753e-02 -7.148422002792358398e-01 2.099521607160568237e-01
2.276377528905868530e-01 -7.897796034812927246e-01 5.267716646194458008e-01
-2.371164709329605103e-01 -7.069676518440246582e-01 6.111903190612792969e-01
-2.582603693008422852e-01 -5.887916088104248047e-01 1.910937875509262085e-01
1.229368299245834351e-01 -7.454971075057983398e-01 2.905653417110443115e-01
5.541610717773437500e-01 -5.546991825103759766e-01 3.771535754203796387e-01
-3.902480006217956543e-03 -4.108928442001342773e-01 -5.524393916130065918e-02
-1.516091078519821167e-01 -7.621140480041503906e-01 5.186975002288818359e-01
2.879708409309387207e-01 -7.827694416046142578e-01 5.704481601715087891e-01
-1.968874037265777588e-02 -4.049884080886840820e-01 2.020129710435867310e-01
1.783710420131683350e-01 -6.993857026100158691e-01 1.658668071031570435e-01
1.526902616024017334e-01 -3.815913200378417969e-01 1.632681041955947876e-01
2.412375360727310181e-01 -5.112199187278747559e-01 -1.189288794994354248e-01
6.592985242605209351e-02 -7.402798533439636230e-01 8.234372138977050781e-01
8.721264451742172241e-02 -8.018234968185424805e-01 7.130800485610961914e-01
3.621557354927062988e-01 -5.118908882141113281e-01 5.304548740386962891e-01
3.098341524600982666e-01 -6.375569105148315430e-01 7.358919978141784668e-01
4.860210418701171875e-02 -7.221199274063110352e-01 8.242445588111877441e-01
1.701120585203170776e-01 -8.023681640625000000e-01 6.100038290023803711e-01
-6.966051459312438965e-02 -7.561088204383850098e-01 3.829730153083801270e-01
1.392649561166763306e-01 -4.902105033397674561e-01 5.436635017395019531e-01
-2.897441387176513672e-01 -5.899067521095275879e-01 4.334324896335601807e-01
3.824874162673950195e-01 -5.122349262237548828e-01 -6.733533740043640137e-02
1.086690276861190796e-01 -5.696248412132263184e-01 -6.626212596893310547e-02
-7.861515879631042480e-02 -7.584868669509887695e-01 7.613712549209594727e-01
1.966670155525207520e-01 -5.299019813537597656e-01 6.215771436691284180e-01
-1.674608737230300903e-01 -4.513819813728332520e-01 2.082875370979309082e-01
-1.740737408399581909e-01 -7.414556741714477539e-01 6.809225082397460938e-01
4.747569561004638672e-03 -7.232295274734497070e-01 2.416076362133026123e-01
6.298219412565231323e-02 -6.415796279907226562e-01 4.706752300262451172e-02
-7.942529022693634033e-02 -5.518776774406433105e-01 6.178449392318725586e-01
3.272013068199157715e-01 -6.043270826339721680e-01 6.945637464523315430e-01
-1.870025545358657837e-01 -5.190079212188720703e-01 4.615396857261657715e-01
2.938501834869384766e-01 -7.327309250831604004e-01 7.661330699920654297e-01
4.758190512657165527e-01 -5.099347829818725586e-01 8.825957775115966797e-03
-9.088116884231567383e-02 -4.241980910301208496e-01 2.171449810266494751e-01
-1.478463262319564819e-01 -7.662104368209838867e-01 5.473833084106445312e-01
-2.194082885980606079e-01 -4.817216992378234863e-01 1.881025135517120361e-01
3.869041800498962402e-01 -7.307755947113037109e-01 3.773017525672912598e-01
3.998799622058868408e-02 -4.023419022560119629e-01 -6.986188888549804688e-02
-1.671901792287826538e-01 -6.768916249275207520e-01 7.155143022537231445e-01
1.949103921651840210e-02 -6.316829919815063477e-01 7.656996250152587891e-01
-7.528272271156311035e-02 -7.848837971687316895e-01 6.891585588455200195e-01
1.636241972446441650e-01 -3.731915354728698730e-01 5.003720521926879883e-03
3.751558661460876465e-01 -4.374247789382934570e-01 -7.855752110481262207e-02
3.275417685508728027e-01 -3.877409100532531738e-01 7.068961858749389648e-03
5.566148757934570312e-01 -5.434263944625854492e-01 1.801393032073974609e-01
8.971349149942398071e-02 -7.656568884849548340e-01 3.614853322505950928e-01
-7.559154927730560303e-02 -7.306224107742309570e-01 2.992059588432312012e-01
2.524694800376892090e-01 -3.870478868484497070e-01 1.796805858612060547e-01
-5.579127371311187744e-02 -7.878032922744750977e-01 5.381727218627929688e-01
1.916458904743194580e-01 -7.447835803031921387e-01 2.972940802574157715e-01
4.729006290435791016e-01 -5.496208667755126953e-01 5.114632844924926758e-01
3.534691929817199707e-01 -4.285405278205871582e-01 -8.667922019958496094e-02
1.308239549398422241e-01 -3.965791463851928711e-01 -9.767392277717590332e-02
-1.363825798034667969e-02 -6.679795384407043457e-01 7.905353307723999023e-01
2.374888211488723755e-01 -6.763898730278015137e-01 1.229406893253326416e-01
1.789150238037109375e-01 -6.574320793151855469e-01 7.295292615890502930e-02
-2.407473474740982056e-01 -5.094376802444458008e-01 1.589398831129074097e-01
4.285885691642761230e-01 -5.824950933456420898e-01 6.025540232658386230e-01
5.673468112945556641e-01 -5.453553199768066406e-01 2.756464183330535889e-01
-9.802620112895965576e-02 -5.287006497383117676e-01 5.614177584648132324e-01
4.637676477432250977e-01 -5.157431960105895996e-01 -1.355260610580444336e-03
-2.160575538873672485e-01 -7.287563681602478027e-01 6.165285110473632812e-01
5.571638345718383789e-01 -5.797334909439086914e-01 4.015027880668640137e-01
7.322872430086135864e-02 -5.682508349418640137e-01 6.895657777786254883e-01
4.102531075477600098e-01 -7.395526170730590820e-01 4.850606620311737061e-01
1.357140690088272095e-01 -5.232883691787719727e-01 6.134994029998779297e-01
5.298067331314086914e-01 -5.225183963775634766e-01 9.771153330802917480e-02
-1.648808866739273071e-01 -5.901930332183837891e-01 7.453542947769165039e-02
1.764414608478546143e-01 -5.713387131690979004e-01 6.937654614448547363e-01
2.148362398147583008e-01 -3.756693005561828613e-01 1.044713258743286133e-01
2.027857750654220581e-01 -7.933839559555053711e-01 7.060048580169677734e-01
-2.683967947959899902e-01 -6.479746699333190918e-01 5.632838010787963867e-01
6.801314651966094971e-02 -3.803123831748962402e-01 1.479095220565795898e-02
-2.083849757909774780e-01 -6.633599996566772461e-01 6.673135161399841309e-01
-8.802899718284606934e-02 -5.654098987579345703e-01 -8.362114429473876953e-03
-8.529932796955108643e-02 -5.197021365165710449e-01 -4.620835185050964355e-02
2.013050019741058350e-01 -4.047697782516479492e-01 2.839030623435974121e-01
7.076248526573181152e-03 -7.650991082191467285e-01 7.962951660156250000e-01
5.238984823226928711e-01 -6.532977223396301270e-01 4.993565976619720459e-01
4.672581553459167480e-01 -5.826456546783447266e-01 5.657281875610351562e-01
-1.265311092138290405e-01 -7.336737513542175293e-01 7.477210760116577148e-01
3.961039185523986816e-01 -5.182192325592041016e-01 -5.471518635749816895e-02
4.938235282897949219e-01 -4.500817656517028809e-01 1.654288619756698608e-01
-2.998634576797485352e-01 -6.229885816574096680e-01 3.807112872600555420e-01
1.872899234294891357e-01 -4.964294731616973877e-01 5.550047755241394043e-01
-1.916647106409072876e-01 -6.720696091651916504e-01 2.400169968605041504e-01
-2.573926746845245361e-02 -7.628965377807617188e-01 3.827163875102996826e-01
-1.865416020154953003e-01 -5.582555532455444336e-01 5.526545643806457520e-01
2.988792061805725098e-01 -4.935209155082702637e-01 -1.160161197185516357e-01
5.687453150749206543e-01 -5.623729825019836426e-01 3.127558231353759766e-01
-2.555841207504272461e-01 -6.953756213188171387e-01 5.749988555908203125e-01
4.069185256958007812e-01 -7.259710431098937988e-01 6.527732610702514648e-01
1.462662070989608765e-01 -3.903597593307495117e-01 -8.588644862174987793e-02
4.977322816848754883e-01 -4.551799595355987549e-01 9.233257174491882324e-02
5.171399116516113281e-01 -6.531926393508911133e-01 5.218458175659179688e-01
2.143632620573043823e-02 -4.672743082046508789e-01 4.679003655910491943e-01
1.524475961923599243e-01 -3.894296884536743164e-01 2.126296907663345337e-01
-2.376829087734222412e-02 -7.799566984176635742e-01 4.579925835132598877e-01
2.855014204978942871e-01 -6.635330915451049805e-01 1.092818826436996460e-01
-6.832629442214965820e-02 -6.635629534721374512e-01 1.300324499607086182e-01
2.233473062515258789e-01 -5.111276507377624512e-01 -1.216708421707153320e-01
3.858361840248107910e-01 -6.426733136177062988e-01 6.946862936019897461e-01
1.286404877901077271e-01 -4.494455754756927490e-01 4.388197362422943115e-01
5.520681142807006836e-01 -6.210246086120605469e-01 3.173598945140838623e-01
2.393853515386581421e-01 -7.181289196014404297e-01 7.993302345275878906e-01
2.216912209987640381e-01 -5.510867238044738770e-01 -8.547556400299072266e-02
2.008581161499023438e-01 -4.560561180114746094e-01 4.545404613018035889e-01
-2.892206311225891113e-01 -5.806196928024291992e-01 4.128903746604919434e-01
-1.707895547151565552e-01 -7.525979876518249512e-01 6.533215641975402832e-01
3.118874132633209229e-01 -3.845401406288146973e-01 9.695476293563842773e-02
3.309764713048934937e-02 -5.611206889152526855e-01 6.720911264419555664e-01
-1.007580459117889404e-01 -5.164214968681335449e-01 -3.726360201835632324e-02
4.009102582931518555e-01 -6.028712391853332520e-01 5.132251977920532227e-02
4.627343416213989258e-01 -4.609367847442626953e-01 3.075937032699584961e-01
1.015917062759399414e-01 -5.471448302268981934e-01 6.566959619522094727e-01
1.920880973339080811e-01 -6.939016580581665039e-01 1.544506847858428955e-01
2.430686652660369873e-01 -4.578285813331604004e-01 4.512846469879150391e-01
-3.083407878875732422e-03 -6.102371215820312500e-01 1.133495569229125977e-02
1.342488080263137817e-01 -3.921580910682678223e-01 2.251381278038024902e-01
4.189441800117492676e-01 -4.956565201282501221e-01 4.550857841968536377e-01
2.188386768102645874e-01 -5.880019664764404297e-01 -3.976598381996154785e-02
2.872706353664398193e-01 -4.160980582237243652e-01 3.027754426002502441e-01
-1.192979961633682251e-01 -7.246239185333251953e-01 3.119536042213439941e-01
3.923667073249816895e-01 -4.482803940773010254e-01 -7.198736071586608887e-02
2.510841190814971924e-01 -5.258218050003051758e-01 6.030430197715759277e-01
-7.209065556526184082e-02 -4.111513495445251465e-01 1.442739963531494141e-01
-1.370425969362258911e-01 -5.104789733886718750e-01 4.907380938529968262e-01
2.903444766998291016e-01 -3.796823620796203613e-01 3.448241949081420898e-02
3.596661090850830078e-01 -6.111351251602172852e-01 6.846854090690612793e-01
4.970052838325500488e-01 -6.884160041809082031e-01 4.280508756637573242e-01
1.298337876796722412e-01 -4.681436121463775635e-01 4.898707866668701172e-01
-1.774819940328598022e-01 -5.373061299324035645e-01 4.045873880386352539e-02
1.691837012767791748e-01 -3.967853784561157227e-01 -1.034824550151824951e-01
4.734283685684204102e-02 -4.027541279792785645e-01 2.477723062038421631e-01
4.886153936386108398e-01 -5.478436946868896484e-01 4.897405505180358887e-01
4.379842877388000488e-01 -4.234518408775329590e-01 3.536286950111389160e-02
2.644284814596176147e-02 -4.634197950363159180e-01 -1.182883381843566895e-01
-2.000698000192642212e-01 -5.360045433044433594e-01 4.888086318969726562e-01
-4.727238416671752930e-02 -6.590583920478820801e-01 7.731294035911560059e-01
3.761133551597595215e-01 -7.405267953872680664e-01 4.091172516345977783e-01
3.586323261260986328e-01 -4.886298775672912598e-01 4.813710749149322510e-01
-2.084388881921768188e-01 -4.901828467845916748e-01 1.009678244590759277e-01
3.999462127685546875e-01 -6.683109998703002930e-01 6.950439810752868652e-01
5.489736199378967285e-01 -5.096319913864135742e-01 2.706269919872283936e-01
2.561051249504089355e-01 -5.717687606811523438e-01 -5.487778782844543457e-02
4.771515130996704102e-01 -6.654006242752075195e-01 2.659569382667541504e-01
2.657960653305053711e-01 -3.784990906715393066e-01 9.510229527950286865e-02
3.725899755954742432e-01 -7.197284102439880371e-01 7.086319923400878906e-01
2.307541072368621826e-01 -6.265404224395751953e-01 2.268874645233154297e-02
3.351342082023620605e-01 -4.709069132804870605e-01 4.507036805152893066e-01
3.301674425601959229e-01 -3.947965502738952637e-01 1.660312414169311523e-01
4.844896793365478516e-01 -5.716307759284973145e-01 7.673832774162292480e-02
-1.363166421651840210e-01 -4.624708294868469238e-01 3.410698771476745605e-01
-2.653622031211853027e-01 -6.901510953903198242e-01 5.449675321578979492e-01
5.220269560813903809e-01 -5.186135172843933105e-01 3.788909614086151123e-01
-1.003359854221343994e-01 -7.831516861915588379e-01 6.031777858734130859e-01
1.819643229246139526e-01 -8.000379204750061035e-01 6.742432713508605957e-01
1.018714606761932373e-01 -6.952375769615173340e-01 1.533291190862655640e-01
3.056309819221496582e-01 -4.250865876674652100e-01 3.272189795970916748e-01
1.923701167106628418e-01 -7.879400849342346191e-01 4.843913018703460693e-01
2.406520396471023560e-02 -7.894781231880187988e-01 4.844181537628173828e-01
1.113774850964546204e-01 -3.886280655860900879e-01 -7.066705822944641113e-02
5.500102639198303223e-01 -6.157842874526977539e-01 2.867410182952880859e-01
-1.810879856348037720e-01 -5.294613242149353027e-01 4.950727224349975586e-01
-8.644299209117889404e-02 -4.271470010280609131e-01 2.441633939743041992e-01
-4.927268624305725098e-02 -6.804543733596801758e-01 1.565833091735839844e-01
1.865760684013366699e-01 -7.971855401992797852e-01 5.528585910797119141e-01
-1.388566642999649048e-01 -5.611038804054260254e-01 5.988143682479858398e-01
2.898109555244445801e-01 -3.945593237876892090e-01 2.020911276340484619e-01
4.791051149368286133e-01 -6.192057132720947266e-01 1.519412100315093994e-01
4.229716062545776367e-01 -4.261794090270996094e-01 2.201051563024520874e-01
-1.719915866851806641e-02 -6.505072712898254395e-01 8.354291319847106934e-02
-1.934910863637924194e-01 -7.482499480247497559e-01 5.722984075546264648e-01
2.762104868888854980e-01 -4.975297749042510986e-01 5.382992029190063477e-01
-5.021397769451141357e-02 -4.142557382583618164e-01 2.207467705011367798e-01
3.228725194931030273e-01 -5.548685789108276367e-01 -5.566924810409545898e-02
1.803943216800689697e-01 -5.587738156318664551e-01 -8.064949512481689453e-02
1.731137782335281372e-01 -7.961907982826232910e-01 5.325648784637451172e-01
9.875355660915374756e-02 -6.382332444190979004e-01 3.665754199028015137e-02
-1.596486419439315796e-01 -4.576979875564575195e-01 2.791863679885864258e-01
3.437961935997009277e-01 -7.358623147010803223e-01 3.483523428440093994e-01
1.805577427148818970e-01 -5.858836770057678223e-01 7.143205404281616211e-01
3.810145258903503418e-01 -4.473018050193786621e-01 3.529157042503356934e-01
4.177724123001098633e-01 -4.381025135517120361e-01 2.829498946666717529e-01
-2.019142955541610718e-01 -7.370306849479675293e-01 4.797004461288452148e-01
3.658623099327087402e-01 -6.709526777267456055e-01 1.664572656154632568e-01
4.777361750602722168e-01 -6.471723914146423340e-01 6.019106507301330566e-01
-1.133366078138351440e-01 -7.752543687820434570e-01 6.741470098495483398e-01
9.295610338449478149e-02 -4.278948903083801270e-01 -1.283402144908905029e-01
4.012173414230346680e-01 -6.658716201782226562e-01 1.801905781030654907e-01
-6.243942677974700928e-02 -4.141131043434143066e-01 1.995608210563659668e-01
4.916257858276367188e-01 -6.840319037437438965e-01 3.709932863712310791e-01
-3.426368534564971924e-02 -7.428648471832275391e-01 3.153828084468841553e-01
-2.127317041158676147e-01 -5.657783150672912598e-01 5.384771227836608887e-01
4.118899106979370117e-01 -6.664473414421081543e-01 6.835249662399291992e-01
3.789719939231872559e-02 -7.626665234565734863e-01 3.581451475620269775e-01
1.764297783374786377e-01 -7.362465858459472656e-01 8.155238628387451172e-01
-2.880413532257080078e-01 -6.555250883102416992e-01 4.944448471069335938e-01
2.717949748039245605e-01 -6.487956047058105469e-01 7.416644692420959473e-02
4.041646122932434082e-01 -4.390968680381774902e-01 3.026704192161560059e-01
1.318778991699218750e-01 -7.021934986114501953e-01 8.220621943473815918e-01
-2.010027617216110229e-01 -5.915640592575073242e-01 5.970584154129028320e-01
3.221613764762878418e-01 -5.404039025306701660e-01 -7.160159945487976074e-02
3.693877160549163818e-02 -7.972282171249389648e-01 7.291346788406372070e-01
1.047860831022262573e-01 -4.131434559822082520e-01 3.146213293075561523e-01
-2.004010826349258423e-01 -6.366995573043823242e-01 6.553416848182678223e-01
-8.408144116401672363e-03 -4.011643826961517334e-01 1.900393664836883545e-01
1.043618395924568176e-01 -6.637732982635498047e-01 8.457854390144348145e-02
-8.412292599678039551e-02 -6.154765486717224121e-01 7.133793830871582031e-01
-1.731267124414443970e-01 -6.244746446609497070e-01 1.301079839468002319e-01
1.471418589353561401e-01 -6.542695760726928711e-01 7.935519218444824219e-01
-6.537720561027526855e-03 -6.238669753074645996e-01 7.512217760086059570e-01
-1.611670702695846558e-01 -4.457657933235168457e-01 1.584598273038864136e-01
4.910301566123962402e-01 -5.581856966018676758e-01 5.035845041275024414e-01
-1.378903537988662720e-01 -6.383741497993469238e-01 1.247580647468566895e-01
1.943816989660263062e-01 -3.853878378868103027e-01 1.881075203418731689e-01
4.288265109062194824e-01 -5.493169426918029785e-01 -3.113746643066406250e-03
2.390642762184143066e-01 -7.167305946350097656e-01 2.248527109622955322e-01
3.070434331893920898e-01 -4.057580828666687012e-01 2.478479146957397461e-01
1.050005778670310974e-01 -4.637089371681213379e-01 4.764357209205627441e-01
7.700233906507492065e-02 -4.444423317909240723e-01 -1.320967376232147217e-01
1.380559056997299194e-02 -5.348302125930786133e-01 -8.254888653755187988e-02
3.697651624679565430e-01 -7.297678589820861816e-01 3.509597182273864746e-01
-5.946707725524902344e-02 -7.922468185424804688e-01 6.037555932998657227e-01
1.840222328901290894e-01 -3.773850798606872559e-01 1.304259002208709717e-01
5.374769568443298340e-01 -6.306084394454956055e-01 4.775255918502807617e-01
4.043001681566238403e-02 -4.400757551193237305e-01 3.929989635944366455e-01
-5.128525197505950928e-02 -7.516463994979858398e-01 3.543696403503417969e-01
1.254235059022903442e-01 -5.125294923782348633e-01 5.919170975685119629e-01
2.978432923555374146e-02 -5.790855884552001953e-01 -4.085984826087951660e-02
-1.910741776227951050e-01 -6.526848673820495605e-01 1.979313641786575317e-01
-1.437508314847946167e-01 -5.795264840126037598e-01 4.458761215209960938e-02
-8.344587683677673340e-02 -5.191360712051391602e-01 5.491231083869934082e-01
3.332669138908386230e-01 -5.211119651794433594e-01 5.640299916267395020e-01
2.064348459243774414e-01 -7.986290454864501953e-01 6.264931559562683105e-01
-1.513178795576095581e-01 -7.261869907379150391e-01 3.472273945808410645e-01
-9.635658562183380127e-02 -4.377813935279846191e-01 -8.128076791763305664e-03
-1.707649379968643188e-01 -5.445815920829772949e-01 5.398976802825927734e-01
4.407908320426940918e-01 -7.267701625823974609e-01 5.038639903068542480e-01
-2.961810231208801270e-01 -6.393272280693054199e-01 4.521161317825317383e-01
5.443729162216186523e-01 -6.062902212142944336e-01 2.402891367673873901e-01
3.984809517860412598e-01 -4.042199850082397461e-01 6.066936254501342773e-02
-2.517987489700317383e-01 -6.586228013038635254e-01 6.020101308822631836e-01
3.442679643630981445e-01 -6.558228731155395508e-01 1.188444793224334717e-01
4.745842814445495605e-01 -4.716291725635528564e-01 3.263248205184936523e-01
-7.548619806766510010e-02 -5.346121191978454590e-01 -4.284802079200744629e-02
8.843794465065002441e-03 -5.192024707794189453e-01 5.881430506706237793e-01
4.047696590423583984e-01 -7.435929179191589355e-01 5.092136263847351074e-01
2.841478586196899414e-01 -7.692331075668334961e-01 7.195037603378295898e-01
5.081141591072082520e-01 -6.771660447120666504e-01 3.982505798339843750e-01
-6.902374327182769775e-02 -7.835825681686401367e-01 7.062184810638427734e-01
1.898207664489746094e-01 -4.711916148662567139e-01 4.954944849014282227e-01
-1.357761770486831665e-01 -5.522486567497253418e-01 5.843444466590881348e-01
-5.887039005756378174e-02 -5.911673307418823242e-01 6.917331814765930176e-01
3.596847653388977051e-01 -5.745730400085449219e-01 6.396453380584716797e-01
5.879194289445877075e-02 -8.057332634925842285e-01 6.257408857345581055e-01
5.457324385643005371e-01 -6.388419866561889648e-01 3.997446894645690918e-01
3.336347341537475586e-01 -5.385192632675170898e-01 5.960230827331542969e-01
3.432421684265136719e-01 -4.082736372947692871e-01 -6.368488073348999023e-02
2.938097119331359863e-01 -7.707372903823852539e-01 7.028938531875610352e-01
-1.950876861810684204e-01 -6.106026172637939453e-01 1.303743422031402588e-01
4.759780168533325195e-01 -7.047687768936157227e-01 5.154068470001220703e-01
5.247896313667297363e-01 -4.827494919300079346e-01 1.083308756351470947e-01
-2.958130836486816406e-01 -5.811790227890014648e-01 3.171597421169281006e-01
-2.114865332841873169e-01 -7.042849659919738770e-01 3.540016710758209229e-01
-2.386852353811264038e-01 -5.662362575531005859e-01 1.380598247051239014e-01
-1.452940255403518677e-01 -6.614041328430175781e-01 1.739513128995895386e-01
-2.471566647291183472e-01 -5.054861903190612793e-01 2.605319023132324219e-01
8.430123329162597656e-03 -6.727511882781982422e-01 1.193918883800506592e-01
5.428054928779602051e-01 -5.433236956596374512e-01 1.383687704801559448e-01
3.396856039762496948e-02 -6.737540364265441895e-01 1.150625646114349365e-01
1.635224223136901855e-01 -4.838428497314453125e-01 5.283037424087524414e-01
-8.448983728885650635e-02 -7.401246428489685059e-01 3.355519771575927734e-01
-2.265363484621047974e-01 -7.141047120094299316e-01 6.259377002716064453e-01
1.589978039264678955e-01 -7.165430188179016113e-01 2.078726738691329956e-01
3.047407269477844238e-01 -7.788122892379760742e-01 6.211579442024230957e-01
-2.374505847692489624e-01 -7.162579298019409180e-01 4.715569317340850830e-01
-9.834688901901245117e-02 -6.556173563003540039e-01 7.479588985443115234e-01
8.240409940481185913e-02 -4.074859917163848877e-01 2.853023409843444824e-01
2.131320536136627197e-02 -4.812353253364562988e-01 5.046744942665100098e-01
3.076113462448120117e-01 -4.680977761745452881e-01 4.565894603729248047e-01
-2.591280937194824219e-01 -6.675458550453186035e-01 3.335186541080474854e-01
2.242805063724517822e-02 -4.007858335971832275e-01 -5.161479115486145020e-02
5.252335667610168457e-01 -4.747884869575500488e-01 1.491295397281646729e-01
6.209623813629150391e-02 -7.049554586410522461e-01 8.228648304939270020e-01
3.139241337776184082e-01 -7.024163603782653809e-01 7.629896998405456543e-01
5.471529811620712280e-02 -4.592585563659667969e-01 4.553418159484863281e-01
-7.835927605628967285e-02 -6.086903214454650879e-01 4.041197896003723145e-02
7.209393382072448730e-02 -4.352997541427612305e-01 3.868069350719451904e-01
-7.076795399188995361e-02 -4.096274971961975098e-01 7.670533657073974609e-02
4.860805273056030273e-01 -6.605034470558166504e-01 5.872860550880432129e-01
4.737876057624816895e-01 -6.251400113105773926e-01 5.984247922897338867e-01
-1.460720598697662354e-02 -5.222797989845275879e-01 -8.161824941635131836e-02
-1.406392604112625122e-01 -7.555226683616638184e-01 7.023708820343017578e-01
-2.009272128343582153e-01 -6.815326213836669922e-01 2.736295759677886963e-01
1.319747418165206909e-01 -6.578639745712280273e-01 7.180139422416687012e-02
-1.500457078218460083e-01 -6.522678136825561523e-01 1.596067845821380615e-01
-4.418894648551940918e-03 -3.978483378887176514e-01 1.699371337890625000e-01
-1.712982505559921265e-01 -6.578966379165649414e-01 1.889589577913284302e-01
3.759081363677978516e-01 -5.790981650352478027e-01 -2.582371234893798828e-04
4.606816172599792480e-01 -6.450564861297607422e-01 1.877950429916381836e-01
-2.698475122451782227e-02 -6.232817173004150391e-01 3.987655043601989746e-02
5.989064276218414307e-02 -7.320241928100585938e-01 2.536647617816925049e-01
4.286155104637145996e-01 -4.199578762054443359e-01 1.670388579368591309e-01
-2.983534336090087891e-01 -6.004266738891601562e-01 3.317212760448455811e-01
-2.515259385108947754e-01 -5.442797541618347168e-01 4.261627793312072754e-01
-4.982228577136993408e-02 -4.363754987716674805e-01 -5.825683474540710449e-02
-7.527355849742889404e-02 -7.362483739852905273e-01 3.166601359844207764e-01
4.088361561298370361e-02 -4.271924495697021484e-01 3.486350178718566895e-01
-1.360561102628707886e-01 -5.918214321136474609e-01 5.337586998939514160e-02
5.632531046867370605e-01 -5.898355841636657715e-01 3.787264823913574219e-01
4.683011174201965332e-01 -4.455984234809875488e-01 2.311162501573562622e-01
-1.356482505798339844e-03 -7.839350700378417969e-01 4.656560420989990234e-01
2.418308258056640625e-01 -6.977046728134155273e-01 1.748783141374588013e-01
2.299731969833374023e-01 -5.890822410583496094e-01 7.098072767257690430e-01
3.762640357017517090e-01 -7.494023442268371582e-01 4.642194211483001709e-01
1.295128464698791504e-01 -4.223297834396362305e-01 3.525388836860656738e-01
1.004538238048553467e-01 -4.239827394485473633e-01 3.543449938297271729e-01
2.679931521415710449e-01 -7.875272035598754883e-01 6.341093778610229492e-01
5.318963527679443359e-01 -4.818615317344665527e-01 2.027518600225448608e-01
-1.029267311096191406e-01 -7.825248241424560547e-01 6.220974326133728027e-01
-2.292482554912567139e-02 -7.165567874908447266e-01 8.082957863807678223e-01
4.544922709465026855e-01 -6.336514949798583984e-01 6.264435648918151855e-01
2.210012376308441162e-01 -5.117278695106506348e-01 5.822533369064331055e-01
1.161139756441116333e-01 -6.366529464721679688e-01 3.266286849975585938e-02
-3.964126110076904297e-02 -7.298946380615234375e-01 2.777031660079956055e-01
1.556817889213562012e-01 -8.032263517379760742e-01 6.028125286102294922e-01
-2.636140584945678711e-01 -6.568477749824523926e-01 5.773455500602722168e-01
2.137292921543121338e-01 -3.804376125335693359e-01 1.498291194438934326e-01
1.845320165157318115e-01 -7.957729101181030273e-01 7.085908055305480957e-01
-2.931689620018005371e-01 -5.738757848739624023e-01 3.028361499309539795e-01
4.964069724082946777e-01 -4.688780307769775391e-01 2.744911611080169678e-01
2.720969915390014648e-01 -5.330979824066162109e-01 6.104737520217895508e-01
-5.158226191997528076e-02 -7.919035553932189941e-01 6.778391599655151367e-01
-2.399918884038925171e-01 -5.921899080276489258e-01 5.499072670936584473e-01
-2.476394921541213989e-01 -5.482907891273498535e-01 1.472244709730148315e-01
9.446811676025390625e-02 -3.821741342544555664e-01 1.454608291387557983e-01
9.907536208629608154e-03 -8.011985421180725098e-01 5.924836397171020508e-01
-2.223391681909561157e-01 -5.491162538528442383e-01 1.030993908643722534e-01
-1.796133965253829956e-01 -6.050013303756713867e-01 1.071004271507263184e-01
1.538462191820144653e-01 -4.811186492443084717e-01 -1.413711309432983398e-01
-2.539703249931335449e-02 -7.673416137695312500e-01 4.005833864212036133e-01
2.473067045211791992e-01 -7.768134474754333496e-01 4.558171927928924561e-01
3.678456544876098633e-01 -4.830565154552459717e-01 -9.047794342041015625e-02
4.702317714691162109e-02 -4.526423215866088867e-01 4.341530799865722656e-01
3.753788471221923828e-01 -4.843521714210510254e-01 4.607087075710296631e-01
3.279927968978881836e-01 -4.025531411170959473e-01 -6.290844082832336426e-02
5.188508629798889160e-01 -4.825260341167449951e-01 8.828842639923095703e-02
-2.199681252241134644e-01 -6.376281976699829102e-01 2.026372402906417847e-01
1.140238866209983826e-01 -5.069699883460998535e-01 5.799174308776855469e-01
3.133285343647003174e-01 -5.488780140876770020e-01 6.228345036506652832e-01
-5.964355170726776123e-02 -6.050902605056762695e-01 7.107388377189636230e-01
2.853758633136749268e-01 -6.897191405296325684e-01 1.700506657361984253e-01
1.409797817468643188e-01 -5.057690143585205078e-01 5.778997540473937988e-01
1.467294991016387939e-01 -6.143664121627807617e-01 7.539787292480468750e-01
2.152282297611236572e-01 -4.534028768539428711e-01 4.450137913227081299e-01
-1.610942631959915161e-01 -6.937151551246643066e-01 7.261862158775329590e-01
1.085134968161582947e-01 -4.484387338161468506e-01 4.341381788253784180e-01
2.914074659347534180e-01 -6.032388806343078613e-01 -5.995035171508789062e-04
1.333144009113311768e-01 -7.516168355941772461e-01 8.163363933563232422e-01
-4.269371926784515381e-02 -4.134341180324554443e-01 -1.862809062004089355e-02
3.578175902366638184e-01 -7.450180649757385254e-01 4.053509235382080078e-01
6.310261785984039307e-02 -5.809627771377563477e-01 7.078771591186523438e-01
-7.275165617465972900e-02 -7.881517410278320312e-01 5.751402974128723145e-01
-4.980593919754028320e-02 -5.761534571647644043e-01 -1.625862717628479004e-02
4.339215159416198730e-01 -7.086951136589050293e-01 3.528820872306823730e-01
4.574165940284729004e-01 -6.133055090904235840e-01 1.162525862455368042e-01
3.921473771333694458e-02 -7.831218838691711426e-01 7.758519649505615234e-01
2.360409647226333618e-01 -7.455506324768066406e-01 3.141219615936279297e-01
5.938758701086044312e-02 -5.304715037345886230e-01 6.217797994613647461e-01
3.207585811614990234e-01 -7.654073238372802734e-01 4.698069691658020020e-01
4.319010376930236816e-01 -5.454407930374145508e-01 5.444535017013549805e-01
-3.921510279178619385e-02 -4.590935409069061279e-01 4.164792895317077637e-01
1.129270717501640320e-01 -7.824771404266357422e-01 7.810083627700805664e-01
-6.676900386810302734e-02 -5.232787728309631348e-01 -5.544292926788330078e-02
4.276803135871887207e-02 -3.838639855384826660e-01 9.863656759262084961e-02
2.046083807945251465e-01 -6.863155364990234375e-01 1.385903656482696533e-01
1.730447262525558472e-01 -7.642700076103210449e-01 3.631566762924194336e-01
2.221399843692779541e-01 -7.216445803642272949e-01 8.053278923034667969e-01
-2.688655257225036621e-01 -5.680926442146301270e-01 4.483596980571746826e-01
-1.045620590448379517e-01 -7.581153512001037598e-01 7.400683164596557617e-01
2.168240398168563843e-02 -6.152987480163574219e-01 7.475427389144897461e-01
4.522927403450012207e-01 -6.789815425872802734e-01 2.712573409080505371e-01
-1.199952214956283569e-01 -4.388949275016784668e-01 2.541077136993408203e-01
-5.020588636398315430e-02 -4.600195288658142090e-01 -7.630831003189086914e-02
3.739755749702453613e-01 -7.527774572372436523e-01 6.288907527923583984e-01
4.256811738014221191e-01 -5.934292674064636230e-01 6.184040307998657227e-01
4.711933434009552002e-02 -7.268059849739074707e-01 2.409808039665222168e-01
1.639789193868637085e-01 -5.932466983795166016e-01 7.261728048324584961e-01
-8.928003907203674316e-02 -4.371389448642730713e-01 2.923875451087951660e-01
6.936162710189819336e-03 -5.680274963378906250e-01 6.776140928268432617e-01
2.329700887203216553e-01 -7.657362222671508789e-01 3.914570212364196777e-01
-6.523728370666503906e-05 -6.279097795486450195e-01 3.824573755264282227e-02
4.763728976249694824e-01 -5.709274411201477051e-01 5.401384234428405762e-01
5.030489563941955566e-01 -4.795199632644653320e-01 3.011263906955718994e-01
3.893679380416870117e-01 -7.218738198280334473e-01 3.422559797763824463e-01
1.443386971950531006e-01 -8.002518415451049805e-01 5.528902411460876465e-01
-2.140309661626815796e-01 -6.035758852958679199e-01 1.419496685266494751e-01
-1.540522128343582153e-01 -5.669447779655456543e-01 3.989842534065246582e-02
2.221732437610626221e-01 -7.382307648658752441e-01 2.844075858592987061e-01
4.519576430320739746e-01 -7.021329998970031738e-01 3.578526675701141357e-01
3.653178811073303223e-01 -4.323584437370300293e-01 3.141268491744995117e-01
-1.240500956773757935e-01 -7.159260511398315430e-01 2.897594571113586426e-01
8.033364266157150269e-02 -6.692826747894287109e-01 9.797900915145874023e-02
2.718777358531951904e-01 -7.855958938598632812e-01 6.512426137924194336e-01
-1.208138465881347656e-02 -6.729238629341125488e-01 1.260850578546524048e-01
-1.550556570291519165e-01 -6.241524219512939453e-01 6.814616918563842773e-01
3.685722947120666504e-01 -4.266114830970764160e-01 2.893651127815246582e-01
3.161683678627014160e-01 -5.082445144653320312e-01 5.460050702095031738e-01
1.192326545715332031e-01 -5.413649082183837891e-01 -9.795022010803222656e-02
2.324425280094146729e-01 -7.866899967193603516e-01 5.068296790122985840e-01
-3.295749425888061523e-03 -3.947366774082183838e-01 1.089477539062500000e-02
2.056564092636108398e-01 -4.172295928001403809e-01 3.320516943931579590e-01
1.468765735626220703e-02 -5.067752599716186523e-01 -1.023160219192504883e-01
3.695970773696899414e-01 -6.416863799095153809e-01 1.034639030694961548e-01
-1.824270188808441162e-02 -4.496726095676422119e-01 -9.265902638435363770e-02
-5.062848329544067383e-02 -6.211290955543518066e-01 7.342476844787597656e-01
7.388962805271148682e-02 -4.275490641593933105e-01 3.608921766281127930e-01
8.297830075025558472e-02 -7.104251980781555176e-01 1.920400261878967285e-01
3.663555085659027100e-01 -7.384788393974304199e-01 3.849351108074188232e-01
1.187146455049514771e-01 -3.818438053131103516e-01 1.559146046638488770e-01
1.376148313283920288e-02 -4.133127629756927490e-01 2.781064510345458984e-01
1.442712545394897461e-01 -3.797520995140075684e-01 1.475641727447509766e-01
6.460949033498764038e-02 -6.279421448707580566e-01 2.317190170288085938e-02
3.776842355728149414e-01 -7.559177279472351074e-01 5.663670301437377930e-01
2.142997682094573975e-01 -7.750923633575439453e-01 7.617213129997253418e-01
9.344467520713806152e-02 -6.186529397964477539e-01 7.597733736038208008e-01
3.095523118972778320e-01 -4.719765782356262207e-01 -1.204192936420440674e-01
1.502001732587814331e-01 -4.274130761623382568e-01 3.712219893932342529e-01
-3.224694728851318359e-02 -7.528558969497680664e-01 3.484036326408386230e-01
4.912440180778503418e-01 -4.782016277313232422e-01 3.018739819526672363e-02
-5.900549888610839844e-02 -5.566919445991516113e-01 -3.282889723777770996e-02
9.586887061595916748e-02 -7.155826687812805176e-01 8.264547586441040039e-01
-2.040971368551254272e-01 -7.299780845642089844e-01 4.441399574279785156e-01
-6.361281871795654297e-02 -7.013735175132751465e-01 2.121250033378601074e-01
-2.263385206460952759e-01 -7.220084667205810547e-01 6.057269573211669922e-01
1.590579599142074585e-01 -5.387138724327087402e-01 -1.022787094116210938e-01
2.061254382133483887e-01 -4.009690880775451660e-01 2.666909694671630859e-01
-1.071465611457824707e-01 -5.981575250625610352e-01 4.205420613288879395e-02
3.432312309741973877e-01 -4.160245358943939209e-01 -7.828658819198608398e-02
4.024255871772766113e-01 -7.007950544357299805e-01 6.889340877532958984e-01
3.743002414703369141e-01 -6.120737791061401367e-01 5.037978291511535645e-02
2.067651450634002686e-01 -7.916812300682067871e-01 5.212929844856262207e-01
-2.974843382835388184e-01 -5.842872858047485352e-01 3.370246887207031250e-01
1.400805115699768066e-01 -7.515703439712524414e-01 3.116388618946075439e-01
4.012728929519653320e-01 -4.322148263454437256e-01 2.787755727767944336e-01
4.687010645866394043e-01 -4.717571437358856201e-01 -1.631259918212890625e-03
2.984633743762969971e-01 -4.121405482292175293e-01 2.811131179332733154e-01
4.790279269218444824e-01 -5.156974792480468750e-01 4.389607012271881104e-01
4.002761840820312500e-01 -7.421948909759521484e-01 6.109215617179870605e-01
-1.980899274349212646e-02 -5.732024312019348145e-01 6.783967018127441406e-01
1.009175330400466919e-01 -4.780578613281250000e-01 5.128358602523803711e-01
-2.683032155036926270e-01 -6.903041601181030273e-01 4.620494842529296875e-01
-9.134706854820251465e-02 -4.171491563320159912e-01 7.505902647972106934e-02
-8.722758293151855469e-02 -4.839194118976593018e-01 4.587885737419128418e-01
5.217655897140502930e-01 -5.379776358604431152e-01 9.106777608394622803e-02
-1.516063958406448364e-01 -6.358915567398071289e-01 6.967931985855102539e-01
-2.969059944152832031e-01 -5.918833017349243164e-01 3.982019424438476562e-01
4.143382906913757324e-01 -4.832653701305389404e-01 4.286143779754638672e-01
3.618366122245788574e-01 -4.028136730194091797e-01 -2.730929851531982422e-02
5.011747479438781738e-01 -6.212474107742309570e-01 5.573259592056274414e-01
3.859642744064331055e-01 -4.870612919330596924e-01 -7.832801342010498047e-02
-2.493543177843093872e-01 -5.124916434288024902e-01 1.874461621046066284e-01
5.071322917938232422e-01 -4.690338373184204102e-01 7.842850685119628906e-02
3.056141734123229980e-01 -6.775825023651123047e-01 7.629161477088928223e-01
-4.203982651233673096e-02 -5.609347224235534668e-01 -3.658002614974975586e-02
3.423075079917907715e-01 -7.531823515892028809e-01 4.270945787429809570e-01
-1.168106347322463989e-01 -4.853776693344116211e-01 -2.907797694206237793e-02
3.195840120315551758e-01 -3.903769850730895996e-01 -2.603554725646972656e-02
1.998651623725891113e-01 -3.757821321487426758e-01 -2.402046322822570801e-02
8.613531291484832764e-02 -5.220177173614501953e-01 -1.106246709823608398e-01
-1.063186079263687134e-01 -4.382876455783843994e-01 2.743635177612304688e-01
3.504201769828796387e-03 -6.382930278778076172e-01 7.691433429718017578e-01
1.448267549276351929e-01 -6.060280203819274902e-01 -1.844072341918945312e-02
2.473183274269104004e-01 -6.501810550689697266e-01 7.014304399490356445e-02
-2.388416230678558350e-02 -7.813780307769775391e-01 7.545206546783447266e-01
-7.589270174503326416e-02 -5.798019170761108398e-01 6.671907901763916016e-01
-1.246650516986846924e-02 -5.186029672622680664e-01 5.801506042480468750e-01
4.276741743087768555e-01 -4.250411987304687500e-01 3.417134284973144531e-03
-2.272232621908187866e-01 -7.281620502471923828e-01 5.396609902381896973e-01
3.762721270322799683e-02 -3.918315768241882324e-01 -3.217697143554687500e-02
5.455816537141799927e-02 -5.952609777450561523e-01 -2.511984109878540039e-02
-2.636909484863281250e-01 -6.869271397590637207e-01 5.610102415084838867e-01
5.279463529586791992e-01 -5.060985684394836426e-01 9.281882643699645996e-02
-2.221155315637588501e-01 -5.290047526359558105e-01 4.390796422958374023e-01
4.676806330680847168e-01 -4.956001043319702148e-01 4.052924215793609619e-01
4.982779026031494141e-01 -4.944867193698883057e-01 3.583626449108123779e-01
-6.669655442237854004e-03 -7.914233803749084473e-01 5.144017338752746582e-01
4.214194416999816895e-01 -4.448365867137908936e-01 3.046177923679351807e-01
4.114525914192199707e-01 -7.150862216949462891e-01 3.442396521568298340e-01
3.907614946365356445e-01 -6.924592852592468262e-01 2.431553304195404053e-01
3.823611140251159668e-01 -6.587364673614501953e-01 1.487941592931747437e-01
1.892358660697937012e-01 -4.893837869167327881e-01 5.390242338180541992e-01
4.352167248725891113e-01 -6.857820153236389160e-01 6.558469533920288086e-01
2.578058093786239624e-02 -7.922593951225280762e-01 5.007504820823669434e-01
-8.523021638393402100e-02 -7.845284342765808105e-01 5.619301795959472656e-01
4.498396813869476318e-02 -3.823950290679931641e-01 5.873295664787292480e-02
-1.433451622724533081e-01 -5.991489291191101074e-01 6.833431124687194824e-02
3.103468418121337891e-01 -7.778071165084838867e-01 6.008136272430419922e-01
-1.891326904296875000e-02 -3.963783383369445801e-01 1.227505058050155640e-01
4.348209500312805176e-01 -7.167626619338989258e-01 6.180516481399536133e-01
5.345084071159362793e-01 -6.101232767105102539e-01 4.872114062309265137e-01
-2.971801757812500000e-01 -5.871006846427917480e-01 3.792387545108795166e-01
5.038015842437744141e-01 -5.068069100379943848e-01 4.589530825614929199e-02
5.560089945793151855e-01 -5.998286008834838867e-01 2.642493844032287598e-01
2.380990535020828247e-01 -6.423693299293518066e-01 5.290558934211730957e-02
-6.120112538337707520e-02 -4.560210108757019043e-01 3.921404480934143066e-01
3.152631521224975586e-01 -3.844434916973114014e-01 1.761287450790405273e-02
6.009136885404586792e-02 -7.118133902549743652e-01 1.984943747520446777e-01
-1.497712284326553345e-01 -4.422174096107482910e-01 1.004509776830673218e-01
-9.360170364379882812e-02 -7.132825255393981934e-01 2.602901458740234375e-01
2.803844213485717773e-01 -7.853031158447265625e-01 6.061748266220092773e-01
-1.298246234655380249e-01 -4.686682224273681641e-01 -7.244527339935302734e-03
-2.597231268882751465e-01 -5.199734568595886230e-01 2.205514907836914062e-01
-2.738476395606994629e-01 -6.774793267250061035e-01 5.347368717193603516e-01
3.151222765445709229e-01 -5.801743268966674805e-01 -2.652773261070251465e-02
-2.124257832765579224e-01 -5.167180895805358887e-01 4.189172685146331787e-01
4.873982667922973633e-01 -6.932804584503173828e-01 4.136861264705657959e-01
-2.295673936605453491e-01 -5.802186131477355957e-01 1.354386955499649048e-01
1.265748590230941772e-02 -3.986064493656158447e-01 1.970908492803573608e-01
3.755965828895568848e-01 -4.207484722137451172e-01 -5.812314152717590332e-02
1.409236490726470947e-01 -7.398788928985595703e-01 2.737203836441040039e-01
1.895065009593963623e-01 -6.178018450736999512e-01 2.125173807144165039e-03
4.006141424179077148e-01 -6.321617364883422852e-01 1.046508252620697021e-01
-5.009306967258453369e-02 -4.057146608829498291e-01 1.508130580186843872e-01
1.996821910142898560e-01 -6.512549519538879395e-01 7.834512591361999512e-01
3.585472702980041504e-03 -4.847744107246398926e-01 5.077426433563232422e-01
-1.095450520515441895e-01 -4.302218556404113770e-01 2.195214927196502686e-01
-2.140005081892013550e-01 -7.218345403671264648e-01 4.274392426013946533e-01
-7.389065623283386230e-02 -4.205711781978607178e-01 2.242084443569183350e-01
3.311485052108764648e-02 -3.858783841133117676e-01 1.803725957870483398e-02
5.162297487258911133e-01 -6.445312500000000000e-01 2.762497365474700928e-01
-1.168518811464309692e-01 -7.093751430511474609e-01 2.657307088375091553e-01
1.011434495449066162e-01 -6.922909021377563477e-01 8.197945356369018555e-01
3.340981304645538330e-01 -6.635577678680419922e-01 1.305672228336334229e-01
2.016493678092956543e-01 -6.950885057449340820e-01 8.083533048629760742e-01
7.862202823162078857e-02 -6.769067645072937012e-01 1.141978651285171509e-01
3.140350580215454102e-01 -7.494159340858459473e-01 3.773004114627838135e-01
1.868910789489746094e-01 -3.752446770668029785e-01 1.081645339727401733e-01
2.158270180225372314e-01 -4.722324013710021973e-01 4.944107532501220703e-01
4.877994060516357422e-01 -5.939878225326538086e-01 1.151118874549865723e-01
-1.909833103418350220e-01 -7.442567348480224609e-01 4.961336851119995117e-01
2.391847819089889526e-01 -7.881951332092285156e-01 6.942530870437622070e-01
-9.609706699848175049e-02 -7.833440899848937988e-01 5.805917978286743164e-01
1.178394630551338196e-01 -7.902355790138244629e-01 4.741167426109313965e-01
-4.093724489212036133e-02 -6.257306933403015137e-01 4.931476712226867676e-02
5.687634944915771484e-01 -5.755345821380615234e-01 3.270003497600555420e-01
4.423565268516540527e-01 -7.258843183517456055e-01 5.344301462173461914e-01
3.607911169528961182e-01 -6.868019700050354004e-01 2.034412473440170288e-01
1.802598685026168823e-02 -6.661607027053833008e-01 7.965516448020935059e-01
-2.177598029375076294e-01 -6.341483592987060547e-01 6.336829662322998047e-01
-1.100822538137435913e-01 -5.249110460281372070e-01 5.454431772232055664e-01
-1.839027553796768188e-01 -4.760047197341918945e-01 3.193139731884002686e-01
2.583325207233428955e-01 -7.028803825378417969e-01 1.935384869575500488e-01
4.399851560592651367e-01 -4.509843587875366211e-01 -2.520072460174560547e-02
2.574998140335083008e-01 -6.828223466873168945e-01 1.433378010988235474e-01
5.120825767517089844e-01 -6.653090119361877441e-01 3.448288440704345703e-01
-2.331750094890594482e-02 -5.270365476608276367e-01 5.938088893890380859e-01
-2.459522634744644165e-01 -5.196325182914733887e-01 3.559122383594512939e-01
-2.694720029830932617e-01 -5.317114591598510742e-01 2.383346259593963623e-01
-1.540723592042922974e-01 -7.124171257019042969e-01 3.064557909965515137e-01
1.482377350330352783e-01 -7.878339290618896484e-01 4.659515917301177979e-01
3.195145726203918457e-01 -5.898270606994628906e-01 -1.112887263298034668e-02
1.361206471920013428e-01 -6.327001452445983887e-01 7.746248245239257812e-01
-2.697124481201171875e-01 -5.305924415588378906e-01 2.967828512191772461e-01
2.991009056568145752e-01 -6.260101199150085449e-01 4.023084044456481934e-02
1.625579744577407837e-01 -7.527280449867248535e-01 3.184362351894378662e-01
1.463700383901596069e-01 -4.001871943473815918e-01 2.659319639205932617e-01
1.086755841970443726e-01 -6.440397500991821289e-01 7.864280939102172852e-01
4.196978807449340820e-01 -5.414010286331176758e-01 -1.827764511108398438e-02
2.291070818901062012e-01 -7.564312219619750977e-01 3.512842357158660889e-01
3.273021876811981201e-01 -6.959962248802185059e-01 2.068914473056793213e-01
4.026826620101928711e-01 -5.384103059768676758e-01 5.551046133041381836e-01
-1.627483963966369629e-02 -7.501479387283325195e-01 8.019246459007263184e-01
2.346317768096923828e-01 -5.253895521163940430e-01 -1.087587475776672363e-01
-2.402038723230361938e-01 -6.479847431182861328e-01 6.156181097030639648e-01
2.561883032321929932e-01 -6.929349899291992188e-01 1.673636734485626221e-01
-1.916997134685516357e-02 -6.122148633003234863e-01 1.976525783538818359e-02
-2.114510983228683472e-01 -7.353985905647277832e-01 5.044516921043395996e-01
-3.660358488559722900e-02 -5.464885830879211426e-01 6.266940236091613770e-01
-2.438016384840011597e-01 -6.454431414604187012e-01 2.519223093986511230e-01
-1.604926437139511108e-01 -5.799675583839416504e-01 6.153213977813720703e-01
7.784596830606460571e-02 -5.949565172195434570e-01 7.291487455368041992e-01
2.032280415296554565e-01 -6.060557365417480469e-01 7.369857430458068848e-01
3.438939750194549561e-01 -7.067682743072509766e-01 2.482338100671768188e-01
5.063283443450927734e-02 -5.714661478996276855e-01 6.917781829833984375e-01
5.144042968750000000e-01 -5.627079606056213379e-01 1.046138554811477661e-01
1.040008217096328735e-01 -5.083101987838745117e-01 -1.230520009994506836e-01
4.468451142311096191e-01 -4.712606072425842285e-01 3.628846704959869385e-01
4.800395369529724121e-01 -6.896786689758300781e-01 5.685292482376098633e-01
-1.770337373018264771e-01 -4.543609619140625000e-01 1.520007401704788208e-01
-1.336994618177413940e-01 -7.690025568008422852e-01 5.296256542205810547e-01
2.586522102355957031e-01 -7.896441221237182617e-01 5.923838615417480469e-01
3.291497826576232910e-01 -4.109978377819061279e-01 2.560638189315795898e-01
3.043716251850128174e-01 -7.752910256385803223e-01 6.622484922409057617e-01
1.691673696041107178e-01 -8.026763796806335449e-01 6.473586559295654297e-01
-4.172341525554656982e-02 -6.783385872840881348e-01 7.886120676994323730e-01
-2.480242699384689331e-01 -5.131955146789550781e-01 3.173569738864898682e-01
2.850928902626037598e-01 -4.706768095493316650e-01 4.721406698226928711e-01
3.533966541290283203e-01 -7.623343467712402344e-01 5.183151960372924805e-01
-2.139477580785751343e-01 -7.075946331024169922e-01 3.695788979530334473e-01
-1.474538594484329224e-01 -7.596545219421386719e-01 4.903999269008636475e-01
2.667874097824096680e-01 -6.039336919784545898e-01 7.183595299720764160e-01
-2.063512951135635376e-01 -4.721823930740356445e-01 1.878567934036254883e-01
5.556805729866027832e-01 -6.110332012176513672e-01 4.142594933509826660e-01
2.041163444519042969e-01 -5.902374386787414551e-01 7.166677713394165039e-01
-8.839884400367736816e-02 -4.151569008827209473e-01 1.195213347673416138e-01
-1.533123105764389038e-01 -7.503479719161987305e-01 4.477632641792297363e-01
5.004873275756835938e-01 -4.893367588520050049e-01 3.391580879688262939e-01
2.750422358512878418e-01 -3.814724087715148926e-01 1.191688030958175659e-01
1.217008531093597412e-01 -3.992137610912322998e-01 2.581187486648559570e-01
2.155728340148925781e-01 -6.794434189796447754e-01 7.983344793319702148e-01
-2.097087949514389038e-01 -7.188402414321899414e-01 4.047939181327819824e-01
-2.363277822732925415e-01 -6.837061643600463867e-01 6.324095726013183594e-01
3.020895272493362427e-02 -7.269985675811767578e-01 2.451507747173309326e-01
4.976101517677307129e-01 -5.083506703376770020e-01 3.962100148200988770e-01
-7.251080870628356934e-02 -4.251469671726226807e-01 2.535829842090606689e-01
1.024183258414268494e-01 -7.857595682144165039e-01 4.490416049957275391e-01
-2.434893697500228882e-01 -6.716122627258300781e-01 6.201686263084411621e-01
3.609603047370910645e-01 -5.597924590110778809e-01 6.170699596405029297e-01
1.953686028718948364e-02 -8.033449053764343262e-01 6.551995277404785156e-01
2.562900483608245850e-01 -7.129579782485961914e-01 7.926976084709167480e-01
1.842185109853744507e-01 -5.119650363922119141e-01 5.882054567337036133e-01
5.107855051755905151e-02 -3.889888525009155273e-01 1.660221368074417114e-01
