7.819475233554840088e-02 -2.404590137302875519e-02 -3.551049157977104187e-02
3.690705895423889160e-01 8.714061975479125977e-02 -1.398638635873794556e-02
3.108204901218414307e-01 -6.979174911975860596e-02 -1.065073311328887939e-01
4.298878312110900879e-01 -5.861964076757431030e-02 -1.092663183808326721e-01
1.272330433130264282e-01 5.474663525819778442e-02 -6.520426273345947266e-02
1.938085705041885376e-01 -3.094170242547988892e-02 1.057697013020515442e-01
5.654704570770263672e-01 -4.260952025651931763e-02 -1.497059874236583710e-02
5.091996788978576660e-01 4.342730715870857239e-02 4.118579626083374023e-02
9.197430312633514404e-02 1.046213600784540176e-02 -7.229892909526824951e-02
4.359820485115051270e-01 -9.239321947097778320e-02 1.259780023247003555e-02
1.129860579967498779e-01 -1.122273504734039307e-02 -8.455714583396911621e-02
2.427403330802917480e-01 1.110280863940715790e-03 -1.325750201940536499e-01
1.869910806417465210e-01 -6.282041221857070923e-02 -7.830610126256942749e-02
2.287829816341400146e-01 9.223310649394989014e-02 -1.553654391318559647e-02
2.648464441299438477e-01 9.501372277736663818e-02 1.295146066695451736e-04
1.585390716791152954e-01 8.425199985504150391e-02 -3.932006657123565674e-03
4.598139524459838867e-01 6.518595665693283081e-02 -2.853684127330780029e-02
2.354356199502944946e-01 6.380610913038253784e-02 1.030934751033782959e-01
2.545642852783203125e-01 -7.002615183591842651e-02 7.670721411705017090e-02
9.701663255691528320e-02 -3.195161744952201843e-02 4.397363215684890747e-02
3.685456216335296631e-01 8.049725741147994995e-02 -4.674601927399635315e-02
4.838535189628601074e-01 5.751065537333488464e-02 3.284897282719612122e-02
4.609876275062561035e-01 6.691189855337142944e-02 -1.634339429438114166e-02
3.323991000652313232e-01 7.512386143207550049e-02 -7.156983762979507446e-02
4.242638945579528809e-01 -2.504870854318141937e-02 1.158055886626243591e-01
3.114206492900848389e-01 -9.700659662485122681e-02 8.152202703058719635e-03
3.238203525543212891e-01 -9.880697727203369141e-02 -1.583720184862613678e-02
2.587404847145080566e-01 6.888301670551300049e-02 9.901648759841918945e-02
2.131022512912750244e-01 1.078796572983264923e-02 -1.255659312009811401e-01
1.123387962579727173e-01 -3.286245837807655334e-02 -6.751472502946853638e-02
4.044850468635559082e-01 7.409934699535369873e-02 -4.775268584489822388e-02
3.102010488510131836e-01 7.793225347995758057e-02 -6.867600232362747192e-02
4.012231826782226562e-01 -9.096607565879821777e-02 -6.231307238340377808e-02
2.875743508338928223e-01 -2.051259204745292664e-02 -1.367703527212142944e-01
4.736513495445251465e-01 4.800661280751228333e-02 6.896733492612838745e-02
3.728984296321868896e-01 8.783942461013793945e-02 1.000646315515041351e-02
4.775163829326629639e-01 2.446421794593334198e-02 9.247648715972900391e-02
8.782047033309936523e-02 6.049835681915283203e-02 1.033784914761781693e-02
2.158451974391937256e-01 -9.038549847900867462e-03 1.232580021023750305e-01
2.518094778060913086e-01 -5.710420385003089905e-02 -1.112038642168045044e-01
3.786641955375671387e-01 3.049750439822673798e-02 -1.202251017093658447e-01
2.571262121200561523e-01 3.435623645782470703e-02 -1.221572309732437134e-01
2.511200904846191406e-01 8.159346133470535278e-02 -6.038102880120277405e-02
5.728907585144042969e-01 -6.653754040598869324e-03 3.110400168225169182e-03
2.369845211505889893e-01 3.122318722307682037e-02 -1.216525956988334656e-01
3.940115869045257568e-01 1.301607023924589157e-02 1.256467252969741821e-01
4.129666388034820557e-01 4.863270372152328491e-02 1.000245735049247742e-01
5.277810692787170410e-01 -5.010409653186798096e-02 5.105616897344589233e-02
5.727874040603637695e-01 -2.317675575613975525e-02 -2.247132174670696259e-02
5.423959493637084961e-01 -4.002917557954788208e-02 -6.442902237176895142e-02
5.114494562149047852e-01 -7.058306597173213959e-03 8.442626148462295532e-02
4.452438354492187500e-01 -9.174382686614990234e-02 -3.407004848122596741e-02
1.276751160621643066e-01 7.119751721620559692e-02 4.656375944614410400e-02
1.563316136598587036e-01 -5.919144675135612488e-02 -6.284533441066741943e-02
4.393548369407653809e-01 8.969693444669246674e-03 -1.182351112365722656e-01
5.698305368423461914e-01 4.460059572011232376e-04 -1.271858718246221542e-02
9.349805116653442383e-02 5.257118120789527893e-02 5.146150290966033936e-02
1.198399513959884644e-01 7.433981448411941528e-02 3.487461013719439507e-03
4.580259919166564941e-01 -6.905250996351242065e-02 -8.877544850111007690e-02
3.844780623912811279e-01 -8.964671939611434937e-02 4.457208514213562012e-02
4.600847661495208740e-01 -3.353485465049743652e-02 -1.149865314364433289e-01
3.791004121303558350e-01 -5.482678115367889404e-02 1.038269475102424622e-01
3.590034246444702148e-01 -7.629441469907760620e-02 -9.902833402156829834e-02
1.795392781496047974e-01 1.316767465323209763e-02 1.176203861832618713e-01
2.217721641063690186e-01 9.327204525470733643e-02 1.510400790721178055e-03
4.714154005050659180e-01 -6.807164847850799561e-02 6.261774897575378418e-02
4.025173783302307129e-01 7.818801701068878174e-02 -3.410713747143745422e-02
1.796825975179672241e-01 -3.593128174543380737e-02 -1.063283905386924744e-01
2.301157414913177490e-01 -4.791813902556896210e-03 1.271970272064208984e-01
1.990414857864379883e-01 -7.726565003395080566e-02 2.969241142272949219e-02
2.707349658012390137e-01 5.232200399041175842e-02 1.171616464853286743e-01
1.787027120590209961e-01 1.801621168851852417e-02 -1.146331131458282471e-01
4.986152350902557373e-01 -5.254412069916725159e-02 -8.771128207445144653e-02
3.491178154945373535e-01 -6.789832562208175659e-02 -1.104032322764396667e-01
4.327215850353240967e-01 7.443676143884658813e-02 3.028915822505950928e-02
3.851996660232543945e-01 -6.647290661931037903e-03 1.280032545328140259e-01
3.973771035671234131e-01 -6.770171225070953369e-02 8.624175935983657837e-02
3.751663267612457275e-01 -9.741920232772827148e-02 -3.947727382183074951e-02
1.742981821298599243e-01 3.637797012925148010e-02 1.108981147408485413e-01
4.036818742752075195e-01 -3.158978372812271118e-02 -1.294558048248291016e-01
3.379485905170440674e-01 -9.756543487310409546e-02 1.266049873083829880e-02
3.919832706451416016e-01 -5.655700340867042542e-02 -1.181691363453865051e-01
1.588496863842010498e-01 1.176835224032402039e-02 -1.094519793987274170e-01
3.021081387996673584e-01 7.788450270891189575e-02 8.394195884466171265e-02
5.220333933830261230e-01 4.290676862001419067e-02 1.112174894660711288e-02
2.752594649791717529e-01 9.348551183938980103e-02 -1.670366711914539337e-02
4.774199128150939941e-01 -8.664448559284210205e-02 -5.438575521111488342e-03
7.057245075702667236e-02 3.257720544934272766e-02 4.694927111268043518e-02
4.133076667785644531e-01 -9.641350060701370239e-02 -2.740020863711833954e-02
9.952259063720703125e-02 -4.356272891163825989e-02 -2.378155849874019623e-02
2.966070771217346191e-01 8.955744653940200806e-02 -3.574530780315399170e-02
1.909607052803039551e-01 -2.091748639941215515e-02 1.115822419524192810e-01
4.513113498687744141e-01 7.079567015171051025e-02 1.701050624251365662e-02
3.307418227195739746e-01 1.781662739813327789e-02 1.328741312026977539e-01
5.079551935195922852e-01 -7.787169516086578369e-02 -1.890076138079166412e-02
9.461706876754760742e-02 6.064543873071670532e-02 -2.005650848150253296e-02
2.965912222862243652e-01 8.677316457033157349e-02 -4.620444402098655701e-02
4.625915288925170898e-01 -8.389247208833694458e-02 3.071453794836997986e-02
5.041855573654174805e-01 4.503899253904819489e-04 8.794356137514114380e-02
3.465404510498046875e-01 -7.829984277486801147e-02 -9.605916589498519897e-02
2.243911325931549072e-01 6.118336319923400879e-02 1.043680906295776367e-01
1.685552000999450684e-01 -7.309272140264511108e-02 4.739321768283843994e-03
2.796126902103424072e-01 -1.167972385883331299e-02 -1.372049897909164429e-01
4.454911947250366211e-01 -8.850225806236267090e-02 -5.119379237294197083e-02
3.380036652088165283e-01 8.621555566787719727e-02 -3.880300745368003845e-02
2.018263339996337891e-01 -7.066860049962997437e-02 -7.133527845144271851e-02
2.008382081985473633e-01 6.997308880090713501e-02 -7.414633780717849731e-02
3.599865436553955078e-01 -8.661097288131713867e-02 5.556736141443252563e-02
3.669888973236083984e-01 -8.512434363365173340e-02 -8.273945003747940063e-02
3.565956354141235352e-01 1.591392420232295990e-02 -1.315753906965255737e-01
4.136562049388885498e-01 6.325459480285644531e-02 -7.005180418491363525e-02
5.728963613510131836e-01 -2.412484772503376007e-02 8.346933871507644653e-03
1.249731034040451050e-01 5.166777968406677246e-02 7.891073822975158691e-02
4.381364583969116211e-01 5.168468505144119263e-02 8.558718860149383545e-02
4.094905555248260498e-01 -6.831269711256027222e-02 -1.038363724946975708e-01
3.533298075199127197e-01 -5.905875563621520996e-02 -1.192586719989776611e-01
3.705330193042755127e-01 -9.546005725860595703e-02 -5.116538330912590027e-02
5.986577272415161133e-02 1.981372013688087463e-02 3.638642653822898865e-02
5.605776309967041016e-01 -3.797594830393791199e-02 -4.130160436034202576e-02
6.472161412239074707e-02 -1.475008949637413025e-02 -2.141143940389156342e-02
2.381716072559356689e-01 9.283762425184249878e-02 3.393803536891937256e-02
3.102206289768218994e-01 -9.793928265571594238e-02 -2.057960629463195801e-02
4.467803537845611572e-01 3.640961274504661560e-02 9.826779365539550781e-02
5.073918104171752930e-01 -3.797007724642753601e-02 -9.238906949758529663e-02
1.454209983348846436e-01 7.298408076167106628e-03 -1.046237051486968994e-01
7.217808067798614502e-02 1.632461883127689362e-02 -5.171054229140281677e-02
2.308491170406341553e-01 -8.818779140710830688e-02 -7.272362709045410156e-04
2.337045073509216309e-01 -2.217178978025913239e-02 1.213880404829978943e-01
4.053663909435272217e-01 -1.191177964210510254e-02 -1.313647180795669556e-01
4.777549505233764648e-01 6.226934492588043213e-02 -7.704920135438442230e-03
1.422231197357177734e-01 -5.918302386999130249e-02 -4.724567756056785583e-02
5.117340683937072754e-01 -6.677245348691940308e-02 3.706630691885948181e-02
4.406529068946838379e-01 -5.949669517576694489e-03 1.155484840273857117e-01
1.548098772764205933e-01 -6.891302764415740967e-02 2.364899730309844017e-03
2.265118062496185303e-01 -3.144554048776626587e-02 1.143125593662261963e-01
1.650822609663009644e-01 8.445478230714797974e-02 3.170744329690933228e-02
4.215451776981353760e-01 7.478192448616027832e-02 4.335572570562362671e-02
4.548303484916687012e-01 -8.282502740621566772e-02 -6.394215673208236694e-02
3.415726125240325928e-01 3.875276818871498108e-02 -1.189462095499038696e-01
4.088787436485290527e-01 1.370073016732931137e-02 -1.241410672664642334e-01
5.196833610534667969e-01 -1.327463425695896149e-02 7.895794510841369629e-02
2.846096456050872803e-01 -8.664393424987792969e-02 -7.004105299711227417e-02
2.349525541067123413e-01 -4.818367213010787964e-02 -1.152799576520919800e-01
4.175418019294738770e-01 -3.443758189678192139e-02 1.129486337304115295e-01
4.130736589431762695e-01 5.370371043682098389e-02 -8.689960837364196777e-02
4.814004302024841309e-01 -8.251661062240600586e-02 1.865248195827007294e-02
4.119748175144195557e-01 -8.936418592929840088e-02 3.859550878405570984e-02
2.632293105125427246e-01 8.850699663162231445e-02 5.832986533641815186e-02
7.629606127738952637e-02 3.033637441694736481e-02 -4.911672323942184448e-02
5.578762888908386230e-01 -5.035144835710525513e-02 2.071862109005451202e-04
1.472472250461578369e-01 4.702373594045639038e-02 -8.502069860696792603e-02
3.163532614707946777e-01 -3.364501893520355225e-02 -1.346506029367446899e-01
3.634676039218902588e-01 -2.810868248343467712e-02 1.244069263339042664e-01
3.150169253349304199e-01 6.045664846897125244e-02 -9.826422482728958130e-02
3.471389114856719971e-01 -2.496923552826046944e-03 1.328584551811218262e-01
2.185134291648864746e-01 -4.229173436760902405e-02 -1.153357401490211487e-01
3.744000494480133057e-01 8.460113406181335449e-02 -2.605765685439109802e-02
1.132772713899612427e-01 2.346438914537429810e-02 -8.384452015161514282e-02
3.933747410774230957e-01 -8.060865849256515503e-02 -8.866029977798461914e-02
4.846911430358886719e-01 -1.632417179644107819e-02 -1.078474670648574829e-01
1.615959703922271729e-01 7.805182039737701416e-02 5.533139035105705261e-02
4.024195373058319092e-01 -9.781175106763839722e-02 -1.019869092851877213e-02
4.670626521110534668e-01 2.411827631294727325e-02 9.797951579093933105e-02
1.604320257902145386e-01 -1.762079447507858276e-02 -1.079769060015678406e-01
2.853777110576629639e-01 7.235051691532135010e-02 -8.116890490055084229e-02
2.139766663312911987e-01 -8.514070510864257812e-02 -6.147213280200958252e-03
3.815134465694427490e-01 7.009300589561462402e-02 -6.911124289035797119e-02
3.367236554622650146e-01 -2.122926712036132812e-02 1.290756016969680786e-01
5.587182044982910156e-01 1.296374481171369553e-02 -2.345708757638931274e-02
3.287482261657714844e-01 9.282284975051879883e-02 1.303788553923368454e-02
5.537257194519042969e-01 4.709187895059585571e-03 4.157915338873863220e-02
2.869589924812316895e-01 9.414812177419662476e-02 -9.684097021818161011e-03
4.792465269565582275e-01 -7.055661827325820923e-02 5.393353849649429321e-02
4.665685594081878662e-01 -3.529180539771914482e-03 -1.133157238364219666e-01
9.692329168319702148e-02 -1.009359024465084076e-02 6.990537047386169434e-02
2.204429358243942261e-01 -8.599196374416351318e-02 2.825186355039477348e-03
3.921279907226562500e-01 -8.894909918308258057e-02 -7.043740898370742798e-02
1.794586032629013062e-01 -7.510621845722198486e-02 1.450283918529748917e-02
2.569987773895263672e-01 7.559169828891754150e-02 8.863053470849990845e-02
1.805153042078018188e-01 2.789543941617012024e-05 -1.182470470666885376e-01
6.791554391384124756e-02 4.104935005307197571e-02 -2.183005958795547485e-02
3.517775833606719971e-01 -1.219698321074247360e-02 -1.379507184028625488e-01
3.583742678165435791e-01 -7.634446769952774048e-02 7.715437561273574829e-02
4.143202900886535645e-01 4.008464515209197998e-02 1.075144335627555847e-01
3.086657822132110596e-01 -8.630112558603286743e-02 -7.685867697000503540e-02
1.912713348865509033e-01 8.772815763950347900e-02 -2.029084786772727966e-02
3.502178788185119629e-01 6.678828597068786621e-02 9.520631283521652222e-02
3.663835525512695312e-01 -6.417565047740936279e-02 9.463989734649658203e-02
2.275226265192031860e-01 -7.591888308525085449e-02 5.405877903103828430e-02
2.972397208213806152e-01 -7.235842943191528320e-02 8.131854236125946045e-02
3.483074307441711426e-01 -2.657688409090042114e-02 1.262616813182830811e-01
2.380854785442352295e-01 8.948971331119537354e-02 -3.340701013803482056e-02
1.944517195224761963e-01 -3.333007916808128357e-02 -1.136056706309318542e-01
5.505977272987365723e-01 -5.133282765746116638e-02 -3.858476504683494568e-02
3.951675295829772949e-01 -7.585004717111587524e-02 7.399893552064895630e-02
1.068752557039260864e-01 4.708645492792129517e-02 7.116177678108215332e-02
5.117786526679992676e-01 1.902155578136444092e-02 -7.657469809055328369e-02
5.365533828735351562e-01 -5.630553513765335083e-02 3.149924427270889282e-02
2.879253029823303223e-01 8.077064901590347290e-02 -6.372874230146408081e-02
4.477434158325195312e-01 5.395780503749847412e-02 7.681691646575927734e-02
5.494288802146911621e-01 2.081381157040596008e-02 2.498583309352397919e-02
9.567210078239440918e-02 -2.264075912535190582e-02 -6.239741295576095581e-02
8.324222266674041748e-02 4.810616001486778259e-02 4.579508677124977112e-02
4.359723031520843506e-01 2.868537977337837219e-02 1.081269234418869019e-01
3.821622729301452637e-01 6.562789529561996460e-02 8.824473619461059570e-02
3.521290421485900879e-01 9.044288843870162964e-02 1.436216989532113075e-03
4.442876577377319336e-01 -2.498551458120346069e-02 -1.217632442712783813e-01
2.374238222837448120e-01 -7.457631081342697144e-02 6.180657446384429932e-02
2.386661916971206665e-01 5.263028293848037720e-02 -1.048350036144256592e-01
5.155148506164550781e-01 -7.318502664566040039e-02 -3.414864465594291687e-02
7.497403025627136230e-02 5.068346858024597168e-02 -1.067171432077884674e-02
3.163519203662872314e-01 -7.820369303226470947e-02 -9.454909712076187134e-02
3.251022994518280029e-01 -4.298172518610954285e-02 1.169516220688819885e-01
4.631910622119903564e-01 5.857260897755622864e-02 5.582322180271148682e-02
1.608880162239074707e-01 -1.947439834475517273e-02 1.016224473714828491e-01
2.526603639125823975e-01 -8.821300417184829712e-02 2.619550563395023346e-02
4.105371236801147461e-01 -1.164636109024286270e-03 -1.288953870534896851e-01
2.568482756614685059e-01 -7.836513966321945190e-02 -8.106568455696105957e-02
2.633028626441955566e-01 -6.653279997408390045e-03 1.312919855117797852e-01
1.452928632497787476e-01 8.084270358085632324e-02 -8.073154836893081665e-03
4.902995228767395020e-01 5.150198936462402344e-02 4.486392438411712646e-02
1.267920583486557007e-01 6.194074451923370361e-02 -5.315496027469635010e-02
3.967160284519195557e-01 8.228871971368789673e-02 3.144045546650886536e-02
3.853814005851745605e-01 1.924703456461429596e-02 -1.260501891374588013e-01
3.068066835403442383e-01 8.530939370393753052e-02 -4.967883229255676270e-02
1.238019466400146484e-01 6.479270011186599731e-02 5.888272449374198914e-02
1.993808448314666748e-01 6.032728031277656555e-02 -8.825896680355072021e-02
1.733641326427459717e-01 3.490375354886054993e-02 -1.048134639859199524e-01
1.563391834497451782e-01 6.655602902173995972e-02 7.682532817125320435e-02
4.145561158657073975e-01 8.038008213043212891e-02 5.115156993269920349e-03
3.218968510627746582e-01 5.296728014945983887e-02 1.153277158737182617e-01
1.451730877161026001e-01 -4.028693959116935730e-02 7.416254281997680664e-02
2.315565645694732666e-01 8.467876166105270386e-02 -4.888702183961868286e-02
3.891033828258514404e-01 -4.354643821716308594e-02 1.122092604637145996e-01
3.887744545936584473e-01 -9.668584167957305908e-02 1.364136580377817154e-02
1.785528361797332764e-01 6.000873818993568420e-02 -8.237651735544204712e-02
3.051180541515350342e-01 9.425926953554153442e-02 1.197374192997813225e-03
3.225033581256866455e-01 -7.327852398157119751e-02 8.217947185039520264e-02
1.450311988592147827e-01 2.024151012301445007e-02 -1.015039384365081787e-01
2.900142967700958252e-01 -9.631922096014022827e-02 -2.130007743835449219e-02
4.296481013298034668e-01 2.899817004799842834e-02 -1.088526323437690735e-01
1.466193199157714844e-01 -6.541609764099121094e-02 9.350331500172615051e-03
3.129786550998687744e-01 5.230203270912170410e-02 -1.082374155521392822e-01
4.709978401660919189e-01 -8.400784432888031006e-02 2.321845293045043945e-02
1.449455767869949341e-01 -1.582672819495201111e-02 -1.014896258711814880e-01
5.495072603225708008e-01 2.390741929411888123e-02 1.303208433091640472e-02
6.414499878883361816e-02 3.317841142416000366e-02 3.539748489856719971e-02
3.825733661651611328e-01 7.849004119634628296e-02 5.972702801227569580e-02
3.939039409160614014e-01 4.064275324344635010e-02 1.129863858222961426e-01
3.528077602386474609e-01 4.866952449083328247e-02 1.151779517531394958e-01
4.279698431491851807e-01 -7.106582075357437134e-02 -9.609563648700714111e-02
2.010227739810943604e-01 5.725396797060966492e-02 1.036760658025741577e-01
4.292712211608886719e-01 2.794339554384350777e-03 -1.234162151813507080e-01
3.072336912155151367e-01 -8.448348939418792725e-02 5.800691619515419006e-02
4.291268289089202881e-01 -8.375970274209976196e-02 4.874638840556144714e-02
1.568981111049652100e-01 4.937604814767837524e-02 9.681057929992675781e-02
1.117665022611618042e-01 -5.150351673364639282e-02 -1.262469217181205750e-02
4.685530066490173340e-01 -7.519693672657012939e-02 5.059543251991271973e-02
5.249792337417602539e-01 -4.693870618939399719e-02 -7.475602626800537109e-02
5.248417258262634277e-01 3.096630237996578217e-02 4.730224981904029846e-02
4.192094504833221436e-01 6.663265824317932129e-02 -5.961709469556808472e-02
2.791695296764373779e-01 4.272473230957984924e-02 1.241710856556892395e-01
1.165383160114288330e-01 -2.328747138381004333e-02 7.422935962677001953e-02
3.426318466663360596e-01 4.911358654499053955e-02 -1.091195344924926758e-01
3.067622482776641846e-01 -9.469920396804809570e-02 2.203844115138053894e-02
3.016046881675720215e-01 -5.015398934483528137e-02 1.099611669778823853e-01
3.930833339691162109e-01 6.641920655965805054e-02 8.287470042705535889e-02
3.979502618312835693e-01 4.779421910643577576e-02 1.057658195495605469e-01
5.515899658203125000e-01 -4.028080776333808899e-02 -5.332056060433387756e-02
9.684312343597412109e-02 4.618947207927703857e-02 -5.351956561207771301e-02
7.560867071151733398e-02 1.750167459249496460e-02 5.926106125116348267e-02
5.222563147544860840e-01 2.941380254924297333e-02 -5.314357951283454895e-02
4.850949645042419434e-01 1.667689345777034760e-02 9.301070868968963623e-02
5.174612998962402344e-02 1.703483052551746368e-02 1.189231406897306442e-02
3.074789643287658691e-01 -6.946719437837600708e-02 8.709454536437988281e-02
1.812861412763595581e-01 8.485945314168930054e-02 -2.730126306414604187e-02
3.010376393795013428e-01 5.507877469062805176e-02 -1.055894047021865845e-01
3.788771033287048340e-01 -2.740012109279632568e-02 1.230564936995506287e-01
1.720040440559387207e-01 -3.061196021735668182e-02 9.806796908378601074e-02
3.319019675254821777e-01 3.178325667977333069e-02 -1.249361038208007812e-01
5.341334342956542969e-01 3.015873022377490997e-02 -3.430714458227157593e-02
1.749562174081802368e-01 -4.379101097583770752e-02 -9.761168062686920166e-02
2.086708545684814453e-01 -8.093073219060897827e-02 -4.339797422289848328e-02
2.131392508745193481e-01 -7.038949429988861084e-02 -7.848967611789703369e-02
2.945209443569183350e-01 -5.693101556971669197e-04 -1.378057003021240234e-01
2.610771059989929199e-01 -1.271046046167612076e-02 -1.351725459098815918e-01
3.389741778373718262e-01 -6.154027953743934631e-02 9.902076423168182373e-02
1.564326584339141846e-01 -6.568328291177749634e-02 -4.364949464797973633e-02
4.232541024684906006e-01 -8.776663988828659058e-02 -6.500605493783950806e-02
3.146252036094665527e-01 -9.344881772994995117e-02 3.046604245901107788e-02
3.290852904319763184e-01 8.026142418384552002e-02 7.466983050107955933e-02
5.073940753936767578e-01 9.590487927198410034e-03 8.308050036430358887e-02
4.300289452075958252e-01 -1.407237071543931961e-02 1.175402179360389709e-01
1.506109684705734253e-01 -6.082215346395969391e-03 -1.066140383481979370e-01
6.558164954185485840e-02 1.134404074400663376e-02 4.629861935973167419e-02
5.443664789199829102e-01 -3.130076453089714050e-02 5.312559381127357483e-02
3.050813972949981689e-01 -9.694047272205352783e-02 -3.043436072766780853e-02
2.787106931209564209e-01 -8.879590034484863281e-02 3.763668611645698547e-02
3.126514256000518799e-01 -7.693546265363693237e-02 7.498901337385177612e-02
1.800693571567535400e-01 8.865932375192642212e-02 1.207657065242528915e-02
3.698195219039916992e-01 6.617783010005950928e-02 -8.050951361656188965e-02
1.283818930387496948e-01 -5.791168287396430969e-02 1.237616036087274551e-02
4.292729496955871582e-01 -9.006822109222412109e-02 -5.473708361387252808e-02
2.012570500373840332e-01 -5.779508873820304871e-02 7.837151736021041870e-02
3.774478435516357422e-01 -3.956826776266098022e-02 1.164938434958457947e-01
1.154646575450897217e-01 -5.091205984354019165e-02 1.910036802291870117e-02
1.959433853626251221e-01 -4.525992646813392639e-02 9.301701188087463379e-02
2.602620720863342285e-01 9.244417399168014526e-02 4.119105637073516846e-02
1.225327998399734497e-01 2.626463398337364197e-02 9.316161274909973145e-02
2.455238103866577148e-01 6.008162721991539001e-02 1.083311960101127625e-01
1.864373236894607544e-01 4.006926342844963074e-02 1.125965192914009094e-01
1.619985550642013550e-01 -7.082451879978179932e-02 -2.501350082457065582e-02
9.925808012485504150e-02 -4.413162544369697571e-02 8.297882974147796631e-03
3.424262106418609619e-01 7.867901027202606201e-02 -6.112171709537506104e-02
3.805319666862487793e-01 -7.763823866844177246e-02 -9.540749341249465942e-02
1.849388331174850464e-01 -1.847276650369167328e-02 -1.170240268111228943e-01
3.127515316009521484e-01 5.573661066591739655e-03 1.347863823175430298e-01
2.037263512611389160e-01 -3.021313808858394623e-02 -1.183083876967430115e-01
2.439146339893341064e-01 -5.802241712808609009e-02 9.232464432716369629e-02
1.303108185529708862e-01 7.405666261911392212e-02 -2.355030924081802368e-02
4.989596605300903320e-01 -3.982096537947654724e-02 8.064876496791839600e-02
1.170477420091629028e-01 -5.043385922908782959e-02 -3.694355860352516174e-02
5.326533913612365723e-01 3.156848996877670288e-02 3.347589820623397827e-02
2.725799977779388428e-01 -4.801842942833900452e-02 -1.230628788471221924e-01
3.319631516933441162e-01 -9.862969070672988892e-02 -2.731958217918872833e-02
5.936685204505920410e-02 -1.024153735488653183e-02 8.370118215680122375e-03
5.392804145812988281e-01 -6.409260630607604980e-02 -6.955666467547416687e-03
4.496184587478637695e-01 7.037501782178878784e-02 -1.558308862149715424e-02
3.951885700225830078e-01 4.036365449428558350e-02 -1.084509119391441345e-01
7.046580314636230469e-02 -2.201447077095508575e-02 1.449079532176256180e-02
3.742255866527557373e-01 8.522966504096984863e-02 3.753611817955970764e-02
2.450614869594573975e-01 -8.774390816688537598e-02 -4.545783996582031250e-02
3.467338979244232178e-01 -4.858022928237915039e-02 -1.273149549961090088e-01
2.855128943920135498e-01 -8.031970262527465820e-02 6.378983706235885620e-02
3.179104328155517578e-01 8.248925209045410156e-02 7.147186249494552612e-02
5.071891546249389648e-01 2.408970147371292114e-02 7.367330789566040039e-02
5.622288584709167480e-02 -3.586773294955492020e-03 -1.368066109716892242e-02
3.503415882587432861e-01 -9.918056428432464600e-02 -2.476556226611137390e-02
2.011027038097381592e-01 4.708496853709220886e-02 -1.031816452741622925e-01
5.119210481643676758e-02 1.416758913546800613e-02 -4.745590034872293472e-03
2.149684131145477295e-01 8.825841546058654785e-02 4.928706213831901550e-02
1.697501540184020996e-01 4.605513066053390503e-02 -9.492835402488708496e-02
4.191346466541290283e-01 -9.237589687108993530e-02 -5.040813237428665161e-02
2.198816835880279541e-01 9.304695576429367065e-02 1.917366497218608856e-02
2.665010988712310791e-01 8.110259473323822021e-02 -6.279533356428146362e-02
5.572230815887451172e-01 -2.247853577136993408e-02 4.256857559084892273e-02
1.994039118289947510e-01 9.065110236406326294e-02 -5.658332258462905884e-03
1.001892685890197754e-01 6.210948526859283447e-02 3.855336830019950867e-02
3.455114960670471191e-01 -8.848497271537780762e-02 -7.524808496236801147e-02
4.261645376682281494e-01 4.142988845705986023e-02 1.022486165165901184e-01
3.106370270252227783e-01 -4.643803834915161133e-02 -1.280642002820968628e-01
1.009298861026763916e-01 5.576040595769882202e-02 -4.197482764720916748e-02
1.909316033124923706e-01 4.504748620092868805e-03 -1.211044266819953918e-01
6.942155957221984863e-02 -5.418166518211364746e-03 -4.416023939847946167e-02
4.311486184597015381e-01 6.551448255777359009e-03 1.177316308021545410e-01
3.439351022243499756e-01 7.783277332782745361e-02 7.663168758153915405e-02
5.551180839538574219e-01 1.267932448536157608e-02 2.930609509348869324e-02
3.461872041225433350e-01 7.379232347011566162e-02 -7.158338278532028198e-02
2.533852458000183105e-01 -2.284582937136292458e-03 1.310843676328659058e-01
3.714467883110046387e-01 -9.931994229555130005e-02 -1.625009253621101379e-02
2.566169500350952148e-01 3.717061504721641541e-02 1.259327679872512817e-01
7.347552478313446045e-02 -2.072278410196304321e-02 2.729122526943683624e-02
4.045616388320922852e-01 8.215644210577011108e-02 1.705599389970302582e-02
1.309617310762405396e-01 6.291936337947845459e-02 6.781414151191711426e-02
2.878026962280273438e-01 -3.243601322174072266e-02 1.226937919855117798e-01
2.584171891212463379e-01 9.488377720117568970e-02 1.961635239422321320e-02
2.235581278800964355e-01 4.323887079954147339e-02 -1.111564859747886658e-01
3.995732963085174561e-01 7.975276559591293335e-02 4.282741993665695190e-02
5.696697235107421875e-01 -1.739651337265968323e-02 2.176644280552864075e-02
4.848398566246032715e-01 5.981773138046264648e-02 1.334200147539377213e-02
6.220886111259460449e-02 -1.460211351513862610e-02 -8.681851439177989960e-03
2.654546499252319336e-01 7.357520610094070435e-02 -7.849120348691940308e-02
6.813377141952514648e-02 3.150133788585662842e-02 -3.694030642509460449e-02
2.189531326293945312e-01 5.253795161843299866e-02 -1.017219722270965576e-01
3.794546425342559814e-01 5.490149557590484619e-02 -9.556027501821517944e-02
4.672618508338928223e-01 -3.166750445961952209e-02 9.984063357114791870e-02
1.703327447175979614e-01 -1.125469221733510494e-03 1.130357086658477783e-01
2.139804065227508545e-01 5.666449666023254395e-02 1.070207580924034119e-01
3.918654918670654297e-01 -9.846351295709609985e-02 -1.849835552275180817e-02
5.512416362762451172e-01 -9.947573766112327576e-03 -6.076765060424804688e-02
4.499863982200622559e-01 5.092568323016166687e-02 -7.418900728225708008e-02
1.698718518018722534e-01 8.227674663066864014e-02 4.714229330420494080e-02
2.580901980400085449e-01 -9.208527952432632446e-02 4.852653481066226959e-03
5.492095351219177246e-01 -2.078914828598499298e-02 -6.465150415897369385e-02
2.345595061779022217e-01 6.325310468673706055e-02 -9.157329797744750977e-02
3.648180365562438965e-01 -9.754999727010726929e-02 1.342324446886777878e-02
5.157550573348999023e-01 4.382045939564704895e-02 2.753187716007232666e-02
2.402244508266448975e-01 -1.095012016594409943e-02 1.271638870239257812e-01
2.230528295040130615e-01 6.984100490808486938e-02 9.339286386966705322e-02
1.596414297819137573e-01 -6.821507960557937622e-02 2.026898227632045746e-02
2.407520860433578491e-01 -8.601862937211990356e-02 2.787696197628974915e-02
5.312017202377319336e-01 9.769893251359462738e-03 -6.899466365575790405e-02
1.234904378652572632e-01 1.057490799576044083e-02 -9.341866523027420044e-02
3.930512070655822754e-01 5.567757412791252136e-02 9.871181845664978027e-02
2.186945825815200806e-01 -8.565100282430648804e-02 -2.463978715240955353e-02
4.830680191516876221e-01 -8.523625135421752930e-02 -2.084510587155818939e-02
1.476415395736694336e-01 -2.942109107971191406e-02 -9.570401161909103394e-02
4.142938256263732910e-01 -7.860788702964782715e-02 6.486082077026367188e-02
2.995386123657226562e-01 -1.787239126861095428e-02 -1.379500180482864380e-01
3.781276941299438477e-01 -9.752196818590164185e-02 1.106467563658952713e-02
3.965617418289184570e-01 5.942004919052124023e-02 -8.388229459524154663e-02
5.657863616943359375e-01 -3.929756209254264832e-02 -2.595007792115211487e-02
2.327069342136383057e-01 -5.402220785617828369e-02 9.449352324008941650e-02
2.906732261180877686e-01 -9.029584378004074097e-02 3.637686371803283691e-02
4.420756697654724121e-01 -4.735985398292541504e-02 9.790816158056259155e-02
2.096293568611145020e-01 2.364633046090602875e-02 -1.205700039863586426e-01
3.116363584995269775e-01 -9.534789621829986572e-02 -4.558450728654861450e-02
1.663618385791778564e-01 -4.071045294404029846e-02 8.551164716482162476e-02
3.394962251186370850e-01 6.812954321503639221e-03 1.336418241262435913e-01
2.995367646217346191e-01 7.429579645395278931e-02 -7.710401713848114014e-02
4.170873761177062988e-01 -5.929383262991905212e-02 -1.115998998284339905e-01
3.672568500041961670e-01 1.689671166241168976e-02 1.293609738349914551e-01
3.505715131759643555e-01 -5.522818490862846375e-02 1.056620553135871887e-01
1.078166067600250244e-01 5.474996566772460938e-02 6.256505846977233887e-02
4.559675157070159912e-01 2.151156961917877197e-02 1.043602451682090759e-01
6.273850798606872559e-02 2.111628092825412750e-02 -3.636786714196205139e-02
3.636321425437927246e-01 8.377195149660110474e-02 5.192991346120834351e-02
2.250698208808898926e-01 -8.086093515157699585e-02 3.757280856370925903e-02
2.121516466140747070e-01 -7.203593850135803223e-02 5.576412379741668701e-02
7.164278626441955566e-02 -2.514620684087276459e-02 -4.142532590776681900e-03
3.087092339992523193e-01 3.612998500466346741e-02 1.276243031024932861e-01
2.622452080249786377e-01 8.299601823091506958e-02 7.395559549331665039e-02
4.975094199180603027e-01 -1.426810957491397858e-02 -1.016542986035346985e-01
3.041651546955108643e-01 6.429398804903030396e-02 -9.357164055109024048e-02
1.560931652784347534e-01 2.445651590824127197e-02 1.086565181612968445e-01
2.282550334930419922e-01 8.077754080295562744e-02 7.488278299570083618e-02
3.538628220558166504e-01 -3.493768721818923950e-02 -1.337849646806716919e-01
2.383566498756408691e-01 9.431981481611728668e-03 1.301842182874679565e-01
5.483434200286865234e-01 -5.470912531018257141e-02 1.502566132694482803e-02
4.573582708835601807e-01 6.792826205492019653e-02 2.684340626001358032e-02
8.259895443916320801e-02 5.703946575522422791e-02 -2.847552532330155373e-03
3.791413903236389160e-01 -8.508691936731338501e-02 5.761774256825447083e-02
1.409788727760314941e-01 -6.423515081405639648e-02 -1.379030104726552963e-02
1.886185407638549805e-01 6.583347916603088379e-02 9.057857096195220947e-02
1.434523165225982666e-01 3.762324154376983643e-02 -9.142003208398818970e-02
3.545256853103637695e-01 -4.583558440208435059e-02 1.139323264360427856e-01
2.121524810791015625e-01 -5.355428159236907959e-02 -1.031463742256164551e-01
4.477808773517608643e-01 -9.264238178730010986e-02 -1.280679646879434586e-02
5.425963997840881348e-01 1.465863455086946487e-02 4.758110642433166504e-02
3.330072462558746338e-01 -3.887642174959182739e-02 -1.327272802591323853e-01
3.272970318794250488e-01 6.849186494946479797e-03 1.343410313129425049e-01
1.786861866712570190e-01 7.689549028873443604e-02 -5.180567130446434021e-02
2.655865848064422607e-01 2.546095289289951324e-02 -1.280181258916854858e-01
4.524899125099182129e-01 -8.840167522430419922e-02 2.033818140625953674e-02
5.161904096603393555e-01 -2.434807363897562027e-03 -8.805742114782333374e-02
1.812570244073867798e-01 8.669304847717285156e-02 3.588776290416717529e-02
2.270854115486145020e-01 -8.634472638368606567e-02 1.189983543008565903e-02
9.814487397670745850e-02 6.522788852453231812e-02 1.852852664887905121e-02
2.157483100891113281e-01 6.757824122905731201e-02 -8.181793242692947388e-02
2.844151556491851807e-01 8.938778191804885864e-02 -3.764973580837249756e-02
4.119374155998229980e-01 -4.355775937438011169e-02 1.082782521843910217e-01
3.840373754501342773e-01 7.412356138229370117e-02 7.083866745233535767e-02
5.497381687164306641e-01 -4.954883828759193420e-02 2.534033358097076416e-02
2.107341885566711426e-01 -8.315055817365646362e-02 1.135724131017923355e-02
3.193501830101013184e-01 4.242486506700515747e-02 1.235320493578910828e-01
8.424493670463562012e-02 9.265298955142498016e-03 6.744620949029922485e-02
3.754671514034271240e-01 2.955813519656658173e-02 1.236609444022178650e-01
4.130324721336364746e-01 -9.645716845989227295e-02 -7.521780207753181458e-05
4.696373939514160156e-01 6.506619602441787720e-02 1.651463285088539124e-02
3.130095601081848145e-01 -4.506862908601760864e-02 1.150510311126708984e-01
9.922970831394195557e-02 3.666457906365394592e-02 -6.582176685333251953e-02
3.782824277877807617e-01 4.142038151621818542e-02 -1.111802384257316589e-01
2.073430120944976807e-01 4.650012403726577759e-02 1.137502491474151611e-01
2.723413407802581787e-01 -3.103152103722095490e-02 -1.322804540395736694e-01
4.980637133121490479e-01 2.673160471022129059e-02 -7.827965170145034790e-02
1.879793703556060791e-01 -7.834623008966445923e-02 6.403132341802120209e-03
5.230650901794433594e-01 3.738488256931304932e-02 3.527246043086051941e-02
9.253963828086853027e-02 4.305549710988998413e-02 6.292989104986190796e-02
2.680277526378631592e-01 -6.807100772857666016e-02 -1.018854677677154541e-01
2.101435065269470215e-01 7.668615877628326416e-02 7.923732697963714600e-02
1.099257320165634155e-01 -1.040959823876619339e-02 7.970505207777023315e-02
2.912123501300811768e-01 3.324105590581893921e-02 1.291985958814620972e-01
3.265256881713867188e-01 7.149273902177810669e-02 9.229595214128494263e-02
4.684496521949768066e-01 -8.882693201303482056e-02 -1.194863021373748779e-02
1.532935351133346558e-01 -4.437849670648574829e-02 -8.505287766456604004e-02
2.015837728977203369e-01 7.761602848768234253e-02 -5.911924690008163452e-02
5.471395850181579590e-01 -1.353290583938360214e-02 5.602941289544105530e-02
5.734424591064453125e-01 -2.786312438547611237e-02 -1.143778860569000244e-02
1.349109560251235962e-01 -7.991213351488113403e-03 -9.871558099985122681e-02
2.752247154712677002e-01 9.434800595045089722e-02 2.784853242337703705e-02
3.367516696453094482e-01 -8.262523263692855835e-02 6.510379165410995483e-02
1.444799154996871948e-01 5.659291148185729980e-02 -7.252886146306991577e-02
4.176177680492401123e-01 -9.490061551332473755e-02 1.047970261424779892e-02
1.369534730911254883e-01 7.137761265039443970e-02 -3.956549614667892456e-02
2.250293791294097900e-01 2.747447229921817780e-02 1.257494837045669556e-01
4.932224154472351074e-01 -8.242405951023101807e-02 -3.602114738896489143e-03
2.213776707649230957e-01 6.078138202428817749e-02 -9.262017905712127686e-02
4.287858307361602783e-01 7.347702234983444214e-02 -2.959030866622924805e-02
2.558438181877136230e-01 -8.688543736934661865e-02 -5.680754035711288452e-02
4.375323653221130371e-01 -6.615790724754333496e-02 7.889534533023834229e-02
3.566961288452148438e-01 8.233468234539031982e-02 -4.575493186712265015e-02
4.625810980796813965e-01 5.727019160985946655e-02 -5.228991433978080750e-02
2.465890794992446899e-01 9.102104604244232178e-02 4.652296751737594604e-02
3.641287088394165039e-01 2.735285088419914246e-02 1.264907419681549072e-01
4.314030110836029053e-01 1.781874895095825195e-02 1.148160025477409363e-01
1.955001801252365112e-01 8.859894424676895142e-02 3.685752302408218384e-02
1.778241246938705444e-01 8.784881979227066040e-02 -3.307721111923456192e-03
4.578084647655487061e-01 -4.081118851900100708e-02 9.783645719289779663e-02
4.157264828681945801e-01 -4.686531610786914825e-04 1.223553493618965149e-01
2.536155879497528076e-01 -2.110939659178256989e-02 -1.327503621578216553e-01
4.665942192077636719e-01 2.817249111831188202e-02 -9.494592994451522827e-02
1.750118136405944824e-01 -2.077559754252433777e-02 1.063243597745895386e-01
4.507401883602142334e-01 -8.087217062711715698e-02 4.671401157975196838e-02
1.746270209550857544e-01 7.254073768854141235e-02 7.496771216392517090e-02
1.215009242296218872e-01 3.459836915135383606e-02 -8.240182697772979736e-02
5.273377895355224609e-01 3.872228786349296570e-02 1.973156444728374481e-02
2.981426715850830078e-01 -9.714287519454956055e-02 -7.607836276292800903e-03
2.894215583801269531e-01 -9.505966305732727051e-02 -3.566893190145492554e-02
2.235118448734283447e-01 -8.440283685922622681e-02 -4.205361753702163696e-02
2.736204266548156738e-01 -7.391030341386795044e-02 -9.437698870897293091e-02
3.236176371574401855e-01 9.268750995397567749e-02 -6.298211403191089630e-03
4.022905230522155762e-01 -9.412150084972381592e-02 -4.975106194615364075e-02
4.676328599452972412e-01 6.605869531631469727e-02 -1.942842849530279636e-03
4.636950194835662842e-01 -8.851519227027893066e-02 7.019498385488986969e-03
2.748871147632598877e-01 1.746100932359695435e-02 -1.322301775217056274e-01
3.923710584640502930e-01 -9.753847122192382812e-02 -3.235353529453277588e-02
2.475045621395111084e-01 -2.244704589247703552e-02 1.236111447215080261e-01
1.404818445444107056e-01 7.889433205127716064e-02 3.052418306469917297e-02
2.640624940395355225e-01 -5.355929583311080933e-02 1.019787937402725220e-01
1.424610614776611328e-01 -6.479081511497497559e-02 -2.034500939771533012e-03
4.255425930023193359e-01 7.774410396814346313e-02 -1.648837584070861340e-03
4.387641549110412598e-01 -9.382501244544982910e-02 -2.118846774101257324e-02
2.671056985855102539e-01 7.683533243834972382e-03 -1.345167011022567749e-01
3.557297289371490479e-01 3.997736610472202301e-03 -1.356790959835052490e-01
1.636388599872589111e-01 -4.658230766654014587e-02 -8.865763247013092041e-02
3.944664895534515381e-01 8.315388113260269165e-02 -1.370514649897813797e-02
3.011080324649810791e-01 4.336764290928840637e-02 1.237756684422492981e-01
4.243261218070983887e-01 7.774047553539276123e-02 1.905312016606330872e-02
4.036632776260375977e-01 3.091139532625675201e-02 -1.146782115101814270e-01
5.525772571563720703e-01 -4.175496101379394531e-02 3.367080911993980408e-02
3.141102194786071777e-01 9.212406724691390991e-02 -1.751600950956344604e-02
1.851821094751358032e-01 -6.146716699004173279e-02 6.380177289247512817e-02
3.007492721080780029e-01 -6.415780633687973022e-02 -1.122077554464340210e-01
2.764776945114135742e-01 -9.296992421150207520e-02 -4.084433615207672119e-02
2.342584431171417236e-01 4.276841506361961365e-02 -1.132717058062553406e-01
1.704440116882324219e-01 -5.540291219949722290e-02 6.642764061689376831e-02
4.870677292346954346e-01 4.059683158993721008e-02 -6.702379882335662842e-02
4.248984158039093018e-01 -4.679705575108528137e-02 1.029398664832115173e-01
3.376908600330352783e-01 -7.293038815259933472e-02 -1.039858981966972351e-01
1.634503453969955444e-01 -6.179767102003097534e-02 4.757240414619445801e-02
3.047117888927459717e-01 -8.859781920909881592e-02 4.604445770382881165e-02
3.270578086376190186e-01 -9.541124105453491211e-02 -4.956925660371780396e-02
4.871115684509277344e-01 5.922663956880569458e-02 4.438131581991910934e-04
5.694882869720458984e-01 -5.050290841609239578e-03 1.733372919261455536e-02
2.583830356597900391e-01 5.823926255106925964e-02 -1.007177233695983887e-01
3.664596974849700928e-01 -1.605408638715744019e-02 -1.367131471633911133e-01
4.275804758071899414e-01 -8.829950541257858276e-02 3.604556247591972351e-02
8.445648849010467529e-02 3.182060271501541138e-02 -5.676408112049102783e-02
4.262903630733489990e-01 -9.472227841615676880e-02 -3.095660172402858734e-02
3.016128242015838623e-01 -3.640233725309371948e-02 1.210177764296531677e-01
2.302883267402648926e-01 -8.283165097236633301e-02 -5.520870164036750793e-02
3.696637153625488281e-01 -8.858159929513931274e-02 4.961691424250602722e-02
4.803634285926818848e-01 3.376661567017436028e-03 9.993969649076461792e-02
4.864877462387084961e-01 3.958718851208686829e-03 -1.021492108702659607e-01
5.058242082595825195e-01 -6.017212197184562683e-02 5.450658500194549561e-02
7.980215549468994141e-02 5.377879738807678223e-02 2.444657310843467712e-02
1.944146752357482910e-01 3.125134110450744629e-02 1.184346675872802734e-01
4.151629507541656494e-01 7.785777747631072998e-02 -2.268213778734207153e-02
5.428757667541503906e-01 3.421055385842919350e-03 5.632480606436729431e-02
3.175137639045715332e-01 5.137238651514053345e-03 -1.372196227312088013e-01
3.009378910064697266e-01 -9.395422041416168213e-02 -4.885539412498474121e-02
3.912770450115203857e-01 -9.815852344036102295e-02 -1.511328038759529591e-03
2.253882884979248047e-01 -6.863299757242202759e-02 6.945169717073440552e-02
3.225838840007781982e-01 -4.529168829321861267e-02 -1.292663365602493286e-01
1.343167424201965332e-01 -6.031824275851249695e-03 9.643304347991943359e-02
1.242382973432540894e-01 -5.669358000159263611e-02 -2.173533104360103607e-02
1.298393905162811279e-01 7.553654164075851440e-02 3.196812793612480164e-02
1.231271922588348389e-01 -5.224490538239479065e-02 2.865223400294780731e-02
5.110894441604614258e-01 -5.177067965269088745e-02 -8.063890784978866577e-02
2.902459204196929932e-01 -6.033082678914070129e-02 -1.149752512574195862e-01
5.023033618927001953e-01 -7.479590922594070435e-02 -4.818718507885932922e-02
1.933438479900360107e-01 -4.319147393107414246e-02 -1.061131805181503296e-01
3.271136879920959473e-01 -1.681850850582122803e-02 -1.386284977197647095e-01
5.039002895355224609e-01 -2.057324349880218506e-02 8.731700479984283447e-02
3.323986232280731201e-01 6.410655379295349121e-02 -9.132498502731323242e-02
4.490809142589569092e-01 -9.129693359136581421e-02 6.028167903423309326e-03
3.366127610206604004e-01 -6.942384690046310425e-02 8.861341327428817749e-02
3.143895566463470459e-01 -5.659081041812896729e-02 -1.207975223660469055e-01
4.656199812889099121e-01 3.695802530273795128e-03 1.062949895858764648e-01
5.660490989685058594e-01 -4.140008613467216492e-02 8.156527765095233917e-04
2.253309637308120728e-01 1.422706525772809982e-02 -1.271153688430786133e-01
3.550841510295867920e-01 -8.260257542133331299e-02 -8.835633844137191772e-02
4.834248423576354980e-01 -5.674300342798233032e-02 7.266994565725326538e-02
4.792825579643249512e-01 -1.780380867421627045e-02 1.000149920582771301e-01
4.339921772480010986e-01 5.710097029805183411e-02 -7.189789414405822754e-02
5.472108721733093262e-02 1.255365647375583649e-02 2.474074438214302063e-02
5.390508174896240234e-01 -5.759733542799949646e-02 -4.504926502704620361e-02
3.477396965026855469e-01 -2.225473709404468536e-02 -1.373751759529113770e-01
3.385593593120574951e-01 -9.932575374841690063e-02 -1.482118573039770126e-02
3.596062958240509033e-01 -7.655661553144454956e-03 1.311270147562026978e-01
1.663026958703994751e-01 6.367284804582595825e-02 -7.237796485424041748e-02
5.302132368087768555e-01 -6.885685026645660400e-02 -1.497719623148441315e-02
4.354598820209503174e-01 -7.271551340818405151e-02 6.948105245828628540e-02
3.832560181617736816e-01 -6.444808840751647949e-02 9.258887916803359985e-02
1.505777835845947266e-01 -1.395589578896760941e-02 1.003791317343711853e-01
5.367176532745361328e-01 -6.186232715845108032e-02 1.633293926715850830e-02
1.322659254074096680e-01 -5.910416319966316223e-02 -2.969642914831638336e-02
5.253650546073913574e-01 4.098773375153541565e-02 -8.868127129971981049e-03
1.261018365621566772e-01 -3.491016477346420288e-02 6.802934408187866211e-02
8.699266612529754639e-02 2.205757796764373779e-02 6.979695707559585571e-02
3.550344705581665039e-01 8.896844834089279175e-02 2.990521490573883057e-02
2.129637748003005981e-01 1.952469116076827049e-03 1.251962482929229736e-01
4.530031681060791016e-01 -4.333752673119306564e-03 1.116108745336532593e-01
4.057136476039886475e-01 -3.058609552681446075e-02 1.173560395836830139e-01
1.441369652748107910e-01 -5.994557589292526245e-02 3.245077654719352722e-02
1.434280723333358765e-01 -5.201276019215583801e-02 -6.619657576084136963e-02
1.671759337186813354e-01 3.898483701050281525e-04 -1.136977747082710266e-01
2.671742439270019531e-01 -9.302669018507003784e-02 -3.168237954378128052e-02
3.770586848258972168e-01 8.134490996599197388e-02 -3.921481966972351074e-02
4.731058180332183838e-01 3.685052320361137390e-02 8.432964235544204712e-02
2.838118076324462891e-01 9.199871122837066650e-02 -2.553701959550380707e-02
3.071863651275634766e-01 4.364155977964401245e-02 -1.169365420937538147e-01
2.421943247318267822e-01 -8.267831057310104370e-02 -6.343518197536468506e-02
1.852332353591918945e-01 -5.260727554559707642e-02 7.900539785623550415e-02
1.891166865825653076e-01 3.836925327777862549e-02 -1.071655675768852234e-01
9.915553033351898193e-02 -3.151952847838401794e-02 -5.518956109881401062e-02
9.582094848155975342e-02 -1.858948357403278351e-02 6.155680865049362183e-02
1.134456694126129150e-01 -4.641669988632202148e-02 3.244010731577873230e-02
4.366110265254974365e-01 7.476965337991714478e-02 1.809043623507022858e-02
1.279119551181793213e-01 2.432386763393878937e-02 -9.175156056880950928e-02
3.824202418327331543e-01 1.489688176661729813e-02 1.274176537990570068e-01
2.236013561487197876e-01 8.984868973493576050e-02 -2.735011838376522064e-02
1.720520108938217163e-01 5.521480366587638855e-02 9.727051109075546265e-02
3.345352113246917725e-01 9.028831869363784790e-02 3.658391535282135010e-02
1.544782519340515137e-01 6.486506760120391846e-02 -6.492704898118972778e-02
8.294023573398590088e-02 3.222846984863281250e-02 6.206051260232925415e-02
3.268135786056518555e-01 9.198943525552749634e-02 2.860983461141586304e-02
1.990023255348205566e-01 -3.115207888185977936e-03 1.209947541356086731e-01
1.588394939899444580e-01 8.270218223333358765e-02 -1.694209314882755280e-02
3.437847197055816650e-01 6.167497485876083374e-02 -9.329605102539062500e-02
2.572930455207824707e-01 -6.275855749845504761e-02 8.900302648544311523e-02
