4.675666987895965576e-01 -6.972925662994384766e-01 -5.508979409933090210e-02
5.983614176511764526e-02 -8.029871582984924316e-01 3.249467611312866211e-01
2.731457352638244629e-04 -8.516496419906616211e-01 -1.982499063014984131e-01
3.960255682468414307e-01 -8.239008784294128418e-01 -7.045301049947738647e-02
1.846584975719451904e-01 -8.520985841751098633e-01 -2.365278750658035278e-01
-1.788194477558135986e-01 -8.045133352279663086e-01 1.583781540393829346e-01
2.695917189121246338e-01 -6.385442614555358887e-01 2.689141035079956055e-01
-6.128101795911788940e-02 -4.603458046913146973e-01 -1.541005074977874756e-01
-5.286005139350891113e-02 -7.564557194709777832e-01 3.427059054374694824e-01
-7.149755209684371948e-02 -8.194695711135864258e-01 -2.452177554368972778e-01
-4.461780190467834473e-03 -8.688139915466308594e-01 -1.087197437882423401e-01
2.380475103855133057e-01 -4.972654581069946289e-01 -8.725151419639587402e-02
1.520417034626007080e-01 -7.963632941246032715e-01 -3.673845529556274414e-01
-2.607078850269317627e-01 -5.676697492599487305e-01 1.372233927249908447e-01
-6.303593516349792480e-03 -4.720190465450286865e-01 4.066234081983566284e-02
3.345438241958618164e-01 -7.924301624298095703e-01 -2.901253700256347656e-01
2.096062004566192627e-01 -4.873620271682739258e-01 -1.224452108144760132e-01
4.290483593940734863e-01 -7.726195454597473145e-01 7.801385223865509033e-02
4.103526473045349121e-01 -7.041206359863281250e-01 -2.902622818946838379e-01
-1.740629673004150391e-01 -4.825566112995147705e-01 -3.600443154573440552e-02
1.784839034080505371e-01 -8.138722181320190430e-01 -3.326013088226318359e-01
3.233100473880767822e-01 -7.693719267845153809e-01 2.496704608201980591e-01
5.136252567172050476e-02 -4.848681092262268066e-01 -3.170549869537353516e-01
-2.267799675464630127e-01 -7.959113121032714844e-01 2.062856405973434448e-02
3.401479125022888184e-01 -6.063315272331237793e-01 1.541233211755752563e-01
-3.153639733791351318e-01 -7.100304961204528809e-01 -6.107456982135772705e-02
-2.121109366416931152e-01 -5.402708053588867188e-01 -2.998844981193542480e-01
3.361409604549407959e-01 -7.759247422218322754e-01 -3.152942657470703125e-01
-1.254830360412597656e-01 -8.453466296195983887e-01 2.090980112552642822e-02
2.693322300910949707e-01 -5.190616250038146973e-01 5.645960569381713867e-03
2.538869380950927734e-01 -5.242227315902709961e-01 -2.936344742774963379e-01
-3.160123527050018311e-01 -5.997052192687988281e-01 -1.721712052822113037e-01
4.608548879623413086e-01 -7.508105039596557617e-01 -4.702479019761085510e-02
-4.931304603815078735e-02 -5.821742415428161621e-01 -4.498757123947143555e-01
2.103039920330047607e-01 -8.499287366867065430e-01 2.185883969068527222e-01
-7.348824292421340942e-02 -5.643140077590942383e-01 2.700510621070861816e-01
1.303433477878570557e-01 -4.690004587173461914e-01 -1.408490389585494995e-01
2.783831655979156494e-01 -5.130856633186340332e-01 -1.679835319519042969e-01
-1.924713850021362305e-01 -7.888730168342590332e-01 1.816075295209884644e-01
3.111265301704406738e-01 -5.453989505767822266e-01 3.989359736442565918e-02
1.494482755661010742e-01 -8.190070390701293945e-01 -3.259128928184509277e-01
-6.346819549798965454e-02 -8.181406259536743164e-01 2.591879367828369141e-01
-1.457377672195434570e-01 -8.303907513618469238e-01 -8.849082887172698975e-02
1.457369476556777954e-01 -5.141654014587402344e-01 -3.632403016090393066e-01
3.204149603843688965e-01 -8.217597007751464844e-01 1.889320164918899536e-01
-6.935507804155349731e-02 -5.113298892974853516e-01 -3.641620278358459473e-01
-2.096946537494659424e-01 -5.301145315170288086e-01 1.237845569849014282e-01
4.131735563278198242e-01 -7.975040078163146973e-01 -1.511811465024948120e-01
1.922821402549743652e-01 -6.363909244537353516e-01 3.148967623710632324e-01
1.106347441673278809e-01 -8.895583152770996094e-01 3.867766261100769043e-02
3.932983279228210449e-01 -5.791937112808227539e-01 -9.184139966964721680e-02
2.618030607700347900e-01 -5.380803942680358887e-01 -3.239044547080993652e-01
-9.991109371185302734e-03 -6.091624498367309570e-01 3.314720988273620605e-01
-3.006308376789093018e-01 -6.043514013290405273e-01 -2.186132967472076416e-01
-2.723104357719421387e-01 -5.990560054779052734e-01 1.651311069726943970e-01
-8.492194861173629761e-02 -8.588701486587524414e-01 1.194331794977188110e-02
-2.873558402061462402e-01 -5.418402552604675293e-01 -1.378426104784011841e-01
3.975258767604827881e-01 -6.115251779556274414e-01 5.711849778890609741e-02
-4.065373539924621582e-02 -8.404042124748229980e-01 2.207404524087905884e-01
5.578003078699111938e-02 -4.595592617988586426e-01 -1.045134663581848145e-01
-1.427694857120513916e-01 -7.783570885658264160e-01 -2.758144140243530273e-01
-2.478104233741760254e-01 -5.212653875350952148e-01 -1.898313313722610474e-01
1.286607235670089722e-01 -8.391134738922119141e-01 -2.796366810798645020e-01
1.003176122903823853e-01 -8.133021593093872070e-01 -3.366577029228210449e-01
-3.282331228256225586e-01 -6.868736147880554199e-01 1.825463026762008667e-02
1.099439412355422974e-01 -5.128144025802612305e-01 -3.754413127899169922e-01
1.093059107661247253e-01 -8.856384754180908203e-01 9.526166319847106934e-02
1.172414422035217285e-01 -8.238343000411987305e-01 -3.159390091896057129e-01
4.581786990165710449e-01 -6.954493522644042969e-01 -1.696168482303619385e-01
1.303852200508117676e-01 -8.738437294960021973e-01 -1.570187509059906006e-01
-2.720793783664703369e-01 -7.614023089408874512e-01 -3.197246789932250977e-02
4.129027724266052246e-01 -7.830674052238464355e-01 1.039046496152877808e-01
2.312173843383789062e-01 -8.016451597213745117e-01 -3.403715491294860840e-01
2.777098417282104492e-01 -5.466986894607543945e-01 1.024959534406661987e-01
4.519170224666595459e-01 -6.503179073333740234e-01 -1.284641325473785400e-01
-1.106472685933113098e-01 -4.671816825866699219e-01 -1.607467532157897949e-01
-1.075322180986404419e-02 -8.768100738525390625e-01 8.524544537067413330e-03
3.330564796924591064e-01 -7.260984778404235840e-01 2.547024488449096680e-01
1.092523336410522461e-02 -6.915865540504455566e-01 -4.633464217185974121e-01
4.429229497909545898e-01 -7.814869284629821777e-01 -7.451293617486953735e-02
-2.846006453037261963e-01 -6.163487434387207031e-01 1.619480401277542114e-01
-1.277850568294525146e-01 -5.060998201370239258e-01 -3.189053535461425781e-01
-6.515262275934219360e-02 -6.834311485290527344e-01 3.584172725677490234e-01
-2.596773803234100342e-01 -7.562927603721618652e-01 1.211792528629302979e-01
3.456331491470336914e-01 -6.209675669670104980e-01 -3.553577065467834473e-01
2.409475445747375488e-01 -4.976638257503509521e-01 -1.463667750358581543e-01
1.013881415128707886e-01 -8.352648615837097168e-01 2.773975133895874023e-01
-1.524988561868667603e-02 -8.289459943771362305e-01 2.645258903503417969e-01
-2.387988269329071045e-01 -6.018555760383605957e-01 2.119651585817337036e-01
2.949840724468231201e-01 -6.511464715003967285e-01 2.591025829315185547e-01
1.760633885860443115e-01 -7.989057898521423340e-01 -3.600932955741882324e-01
2.967070639133453369e-01 -8.245255947113037109e-01 -2.552372813224792480e-01
9.193868935108184814e-02 -4.816890656948089600e-01 -2.919327616691589355e-01
-7.458068430423736572e-03 -4.577431082725524902e-01 -1.536684185266494751e-01
2.217304110527038574e-01 -6.046462059020996094e-01 -4.430848360061645508e-01
-1.029754653573036194e-01 -6.379609704017639160e-01 -4.382162690162658691e-01
9.238288551568984985e-02 -4.788202941417694092e-01 4.007397592067718506e-02
6.658127903938293457e-02 -8.695840835571289062e-01 -1.614475846290588379e-01
1.805787235498428345e-01 -8.744054436683654785e-01 1.507144123315811157e-01
3.678408563137054443e-01 -6.353860497474670410e-01 1.591757833957672119e-01
-2.051501870155334473e-01 -5.018497705459594727e-01 2.931620180606842041e-02
3.905301094055175781e-01 -5.790004730224609375e-01 -6.075697019696235657e-02
-1.262832283973693848e-01 -6.927253603935241699e-01 -4.019870758056640625e-01
3.784967213869094849e-02 -4.729731678962707520e-01 -2.726911008358001709e-01
-2.390761375427246094e-01 -7.800208330154418945e-01 -9.048987925052642822e-02
-7.816524058580398560e-02 -8.592337965965270996e-01 -3.463089466094970703e-02
2.589020133018493652e-01 -7.780537009239196777e-01 2.943827509880065918e-01
-3.255763649940490723e-01 -6.889973878860473633e-01 3.509230911731719971e-02
-1.033081635832786560e-01 -6.757546663284301758e-01 -4.265242218971252441e-01
-3.322969079017639160e-01 -5.957748889923095703e-01 -6.251282989978790283e-02
2.565084993839263916e-01 -5.447715520858764648e-01 1.244897693395614624e-01
2.638202905654907227e-01 -8.205831050872802734e-01 2.437952905893325806e-01
2.547264993190765381e-01 -8.401768207550048828e-01 2.132130116224288940e-01
-7.894765585660934448e-02 -6.384245157241821289e-01 -4.500175714492797852e-01
2.537958025932312012e-01 -5.646338462829589844e-01 -3.831209540367126465e-01
4.027519375085830688e-02 -7.825213074684143066e-01 3.443871140480041504e-01
3.311995416879653931e-02 -4.671261310577392578e-01 4.245627671480178833e-03
3.864924311637878418e-01 -7.961597442626953125e-01 -2.156024277210235596e-01
-1.611883342266082764e-01 -5.341547727584838867e-01 -3.439090251922607422e-01
1.656534075736999512e-01 -4.890914559364318848e-01 -2.658287286758422852e-01
-3.045991063117980957e-01 -6.980796456336975098e-01 -1.517318189144134521e-01
1.175575479865074158e-01 -7.038121223449707031e-01 -4.666836261749267578e-01
-1.787844300270080566e-01 -5.191709995269775391e-01 1.273903399705886841e-01
1.488014683127403259e-02 -5.269165039062500000e-01 -4.107125401496887207e-01
3.690152168273925781e-01 -5.692371726036071777e-01 -1.396085694432258606e-02
2.197711765766143799e-01 -5.834883451461791992e-01 2.376843839883804321e-01
-2.917912304401397705e-01 -6.144843697547912598e-01 -2.418031394481658936e-01
2.535907030105590820e-01 -5.204213857650756836e-01 4.410099983215332031e-02
-7.898593693971633911e-02 -4.640518128871917725e-01 -1.802049726247787476e-01
-9.703321009874343872e-02 -5.708251595497131348e-01 -4.234213829040527344e-01
-2.392634749412536621e-03 -7.536494135856628418e-01 -4.061850905418395996e-01
-1.124484837055206299e-02 -4.690382480621337891e-01 -2.540745735168457031e-01
2.437319159507751465e-01 -7.578053474426269531e-01 3.149892687797546387e-01
1.827575564384460449e-01 -8.842769861221313477e-01 -7.718992233276367188e-02
2.129190862178802490e-01 -8.591573238372802734e-01 1.912391334772109985e-01
1.040847450494766235e-01 -8.853303790092468262e-01 -7.505489885807037354e-02
-3.126102983951568604e-01 -6.572978496551513672e-01 -1.828975975513458252e-01
-2.773359417915344238e-01 -6.546710729598999023e-01 -2.619824707508087158e-01
1.090640574693679810e-01 -7.482932209968566895e-01 3.642653226852416992e-01
-7.989115267992019653e-02 -8.583168387413024902e-01 7.256714999675750732e-02
3.435868024826049805e-02 -6.537055373191833496e-01 3.633693456649780273e-01
1.708345413208007812e-01 -8.863683938980102539e-01 -6.179221719503402710e-02
2.281725406646728516e-01 -7.162014245986938477e-01 -4.372222423553466797e-01
-1.830853521823883057e-02 -8.243522644042968750e-01 -2.718660235404968262e-01
1.104084774851799011e-02 -7.827565670013427734e-01 3.396442532539367676e-01
-3.184615969657897949e-01 -6.238300204277038574e-01 -1.769773364067077637e-01
-1.770564019680023193e-01 -8.172015547752380371e-01 -8.224720507860183716e-02
3.422629535198211670e-01 -5.434461236000061035e-01 -1.096513569355010986e-01
8.141068369150161743e-02 -5.079637765884399414e-01 1.541980206966400146e-01
-9.950833767652511597e-02 -7.690743207931518555e-01 3.093543052673339844e-01
2.611392438411712646e-01 -5.810187458992004395e-01 -3.983569741249084473e-01
-3.052586913108825684e-01 -7.209885120391845703e-01 -7.890820503234863281e-02
2.661300301551818848e-01 -8.706046342849731445e-01 8.857411146163940430e-02
3.455935418605804443e-01 -8.510278463363647461e-01 -5.737172439694404602e-02
3.690884113311767578e-01 -7.627719640731811523e-01 -2.990251183509826660e-01
2.763306498527526855e-01 -7.825258970260620117e-01 2.792401909828186035e-01
-3.348517119884490967e-01 -6.475419998168945312e-01 -1.015186309814453125e-01
-1.995596587657928467e-01 -5.924869775772094727e-01 -3.622714877128601074e-01
3.587556779384613037e-01 -5.723693370819091797e-01 -2.517666220664978027e-01
8.849458396434783936e-02 -8.836071491241455078e-01 -8.353105932474136353e-02
2.407857775688171387e-01 -8.643124699592590332e-01 1.524526178836822510e-01
1.474543511867523193e-01 -7.124526500701904297e-01 3.626961112022399902e-01
-4.905926436185836792e-02 -7.831721901893615723e-01 -3.418418765068054199e-01
1.420500874519348145e-02 -8.787764310836791992e-01 -4.730290919542312622e-02
2.837206721305847168e-01 -7.081148028373718262e-01 -4.152158498764038086e-01
-1.321316063404083252e-01 -7.331389784812927246e-01 -3.590231537818908691e-01
-1.593996584415435791e-02 -8.083066940307617188e-01 -3.112857341766357422e-01
2.674322724342346191e-01 -8.646567463874816895e-01 -1.374256759881973267e-01
2.132225632667541504e-01 -5.136530399322509766e-01 -3.099182844161987305e-01
1.375041455030441284e-01 -6.440189480781555176e-01 -4.809585213661193848e-01
-8.662459999322891235e-02 -8.437010645866394043e-01 1.604376286268234253e-01
-5.558145046234130859e-02 -7.604317665100097656e-01 -3.739398717880249023e-01
2.505320012569427490e-01 -5.536410212516784668e-01 -3.683717250823974609e-01
1.519515216350555420e-01 -8.638291358947753906e-01 2.015359252691268921e-01
4.384734034538269043e-01 -7.820883989334106445e-01 -1.090730130672454834e-01
3.752312809228897095e-02 -6.511638760566711426e-01 -4.816938638687133789e-01
3.973898887634277344e-01 -6.037662029266357422e-01 -2.387439608573913574e-01
1.033729165792465210e-01 -4.645836651325225830e-01 -1.288287043571472168e-01
-2.532047778367996216e-02 -7.975308299064636230e-01 -3.284292817115783691e-01
2.386870086193084717e-01 -7.153576612472534180e-01 3.255829811096191406e-01
4.285429716110229492e-01 -6.558696627616882324e-01 -2.424598038196563721e-01
-2.846799790859222412e-02 -4.608789384365081787e-01 -4.150278866291046143e-02
-1.661768853664398193e-01 -5.523948669433593750e-01 2.095629721879959106e-01
2.830886840820312500e-01 -6.544863581657409668e-01 2.717242836952209473e-01
-2.960090637207031250e-01 -7.344556450843811035e-01 -6.532226502895355225e-02
-3.046303987503051758e-03 -6.634408831596374512e-01 3.658671379089355469e-01
1.883929669857025146e-01 -4.989223778247833252e-01 -2.839655280113220215e-01
3.410860896110534668e-01 -5.486902594566345215e-01 -2.005088925361633301e-01
-2.052520215511322021e-01 -5.414980649948120117e-01 1.557610780000686646e-01
-2.255995273590087891e-01 -5.299186706542968750e-01 -2.612048089504241943e-01
-7.224502414464950562e-02 -5.047607421875000000e-01 1.516565233469009399e-01
-8.857031911611557007e-02 -8.544398546218872070e-01 8.724913001060485840e-02
7.907177507877349854e-02 -5.981601476669311523e-01 3.159066438674926758e-01
3.257686793804168701e-01 -7.962312698364257812e-01 2.227045744657516479e-01
-1.856868714094161987e-02 -8.621004819869995117e-01 1.580619066953659058e-01
2.824768424034118652e-01 -5.496564507484436035e-01 -3.262473344802856445e-01
1.880469769239425659e-01 -5.780544281005859375e-01 2.495201081037521362e-01
1.139408797025680542e-01 -4.677272737026214600e-01 -1.762968301773071289e-01
-2.277175188064575195e-01 -7.793219685554504395e-01 1.350015401840209961e-01
-4.341644048690795898e-02 -7.156592011451721191e-01 -4.292830228805541992e-01
2.742449641227722168e-01 -6.896012425422668457e-01 2.979047298431396484e-01
-1.400848329067230225e-01 -8.366557359695434570e-01 8.041264116764068604e-02
-7.986553758382797241e-02 -5.936627388000488281e-01 -4.434654712677001953e-01
-4.610367119312286377e-02 -4.587715566158294678e-01 -1.443496346473693848e-01
-2.600935697555541992e-01 -5.422776937484741211e-01 -2.250486910343170166e-01
-4.662307351827621460e-02 -5.545716285705566406e-01 2.612379193305969238e-01
-3.190792500972747803e-01 -5.729861259460449219e-01 -9.314051270484924316e-02
-2.005496025085449219e-01 -7.421716451644897461e-01 -2.764790952205657959e-01
1.863298714160919189e-01 -4.809658229351043701e-01 -1.244932264089584351e-01
1.334445774555206299e-01 -5.292309522628784180e-01 1.858289837837219238e-01
-1.249834671616554260e-01 -4.892473220825195312e-01 -2.735081315040588379e-01
3.895693719387054443e-01 -5.860629081726074219e-01 -7.771659642457962036e-03
2.288890480995178223e-01 -8.815864324569702148e-01 5.438777804374694824e-02
2.747610211372375488e-03 -7.660484910011291504e-01 3.518089056015014648e-01
3.386526554822921753e-02 -6.723713874816894531e-01 3.707866668701171875e-01
1.283323913812637329e-01 -4.686385989189147949e-01 -1.107876151800155640e-01
2.461406588554382324e-01 -7.039048075675964355e-01 -4.365671873092651367e-01
6.727815419435501099e-02 -6.459487080574035645e-01 -4.847273826599121094e-01
-1.408697664737701416e-01 -8.238035440444946289e-01 1.569572240114212036e-01
2.723382711410522461e-01 -5.253175497055053711e-01 -2.676241993904113770e-01
-1.695101708173751831e-02 -8.407059311866760254e-01 -2.247101813554763794e-01
3.749121129512786865e-01 -7.327749729156494141e-01 2.062369138002395630e-01
-3.063303232192993164e-01 -7.239735126495361328e-01 -5.120193585753440857e-02
4.768300056457519531e-02 -8.690408468246459961e-01 -1.540083140134811401e-01
7.045533508062362671e-03 -4.600013494491577148e-01 -4.973706603050231934e-02
4.454084038734436035e-01 -6.425929665565490723e-01 -1.516081988811492920e-01
-1.898689270019531250e-01 -5.078588128089904785e-01 -2.577210366725921631e-01
3.173516392707824707e-01 -7.517992258071899414e-01 2.642486691474914551e-01
3.672120273113250732e-01 -7.832374572753906250e-01 -2.703378200531005859e-01
2.047053575515747070e-01 -5.902153253555297852e-01 2.575424313545227051e-01
8.014833927154541016e-02 -4.934487938880920410e-01 -3.367904424667358398e-01
7.396517693996429443e-02 -7.065049409866333008e-01 3.751246333122253418e-01
2.608953118324279785e-01 -5.069165229797363281e-01 -6.498228013515472412e-02
1.421183496713638306e-01 -5.884152054786682129e-01 -4.620978236198425293e-01
-1.735358685255050659e-02 -8.049621582031250000e-01 3.055639266967773438e-01
3.510181605815887451e-02 -6.943300366401672363e-01 3.753605484962463379e-01
-1.737893521785736084e-01 -5.281265974044799805e-01 1.548593789339065552e-01
1.646614968776702881e-01 -4.758397340774536133e-01 -1.380625367164611816e-01
-3.527031093835830688e-02 -7.586600780487060547e-01 -3.865558505058288574e-01
8.872836828231811523e-02 -4.923740625381469727e-01 1.009368449449539185e-01
1.370636224746704102e-01 -5.606952905654907227e-01 2.471366971731185913e-01
-2.308940887451171875e-02 -8.519883751869201660e-01 1.966608911752700806e-01
7.467864453792572021e-02 -5.477774143218994141e-01 -4.375469088554382324e-01
2.041068971157073975e-01 -5.233559012413024902e-01 1.188019961118698120e-01
2.519079446792602539e-01 -7.081214785575866699e-01 3.171961307525634766e-01
2.568296492099761963e-01 -5.033271312713623047e-01 -1.045783907175064087e-01
1.815291345119476318e-01 -5.839807987213134766e-01 -4.465068578720092773e-01
3.520120680332183838e-01 -8.475247025489807129e-01 2.880071103572845459e-02
3.276751339435577393e-01 -5.815675258636474609e-01 1.218651831150054932e-01
3.793124258518218994e-01 -5.680493116378784180e-01 -9.946265071630477905e-02
7.024618238210678101e-02 -5.662093758583068848e-01 2.766389846801757812e-01
3.219174146652221680e-01 -5.334267616271972656e-01 -7.720316946506500244e-02
6.795144081115722656e-02 -6.278687119483947754e-01 3.450295329093933105e-01
2.791568636894226074e-03 -4.838656187057495117e-01 -3.161075711250305176e-01
-1.956043243408203125e-01 -7.933700680732727051e-01 -1.554092317819595337e-01
-9.826361387968063354e-02 -7.084801793098449707e-01 -4.075941443443298340e-01
-6.587443500757217407e-02 -4.633230865001678467e-01 -3.753294050693511963e-02
7.308974117040634155e-02 -8.743792176246643066e-01 -1.394854933023452759e-01
3.473059535026550293e-01 -8.223751187324523926e-01 1.509667187929153442e-01
8.870499581098556519e-02 -8.535015583038330078e-01 2.361276894807815552e-01
2.599482238292694092e-01 -8.314281105995178223e-01 2.275859266519546509e-01
-2.224969565868377686e-01 -6.258557438850402832e-01 2.478523701429367065e-01
1.314264833927154541e-01 -7.229607701301574707e-01 -4.534252285957336426e-01
-2.163166999816894531e-01 -8.024580478668212891e-01 -9.165517985820770264e-04
3.565277755260467529e-01 -8.422655463218688965e-01 5.552494525909423828e-02
3.130996227264404297e-01 -5.277962684631347656e-01 -1.382676362991333008e-01
-1.750250756740570068e-01 -4.894104003906250000e-01 1.566349714994430542e-02
3.376047313213348389e-02 -5.510915517807006836e-01 2.582046389579772949e-01
-1.244093105196952820e-01 -4.852026104927062988e-01 5.614800006151199341e-02
4.545116722583770752e-01 -7.563418149948120117e-01 2.238869667053222656e-03
3.911434412002563477e-01 -7.175934910774230957e-01 -3.130810260772705078e-01
-1.745163500308990479e-01 -7.033123373985290527e-01 3.004125356674194336e-01
2.671897113323211670e-01 -5.095899105072021484e-01 -1.831346452236175537e-01
6.887711584568023682e-02 -7.647973299026489258e-01 -4.098616242408752441e-01
-1.704880893230438232e-01 -5.079833865165710449e-01 -2.829548418521881104e-01
-9.232453256845474243e-02 -7.216170430183410645e-01 3.443689346313476562e-01
2.689937949180603027e-01 -5.541262626647949219e-01 -3.512917160987854004e-01
3.918145298957824707e-01 -6.238934397697448730e-01 9.832434356212615967e-02
-3.229368925094604492e-01 -6.451504826545715332e-01 8.825632929801940918e-02
-1.809963583946228027e-01 -8.199722766876220703e-01 5.836784839630126953e-02
1.509770750999450684e-02 -4.635089635848999023e-01 -1.706927269697189331e-02
1.846208870410919189e-01 -8.658556342124938965e-01 -1.864299774169921875e-01
-3.340048789978027344e-01 -6.205711364746093750e-01 -1.095993816852569580e-01
2.964840456843376160e-02 -8.189970254898071289e-01 2.982320189476013184e-01
-2.920021414756774902e-01 -6.863797903060913086e-01 1.571411639451980591e-01
1.144718751311302185e-01 -7.473163604736328125e-01 -4.327786564826965332e-01
5.851465091109275818e-02 -4.647614359855651855e-01 -2.860918268561363220e-02
8.284212648868560791e-02 -7.798084020614624023e-01 -3.914916515350341797e-01
3.349338173866271973e-01 -6.507055759429931641e-01 -3.833854198455810547e-01
2.046617120504379272e-02 -8.371733427047729492e-01 -2.581074833869934082e-01
-1.628196537494659424e-01 -8.292196393013000488e-01 4.907502979040145874e-02
-1.207778677344322205e-01 -7.725014090538024902e-01 2.912412285804748535e-01
3.271475136280059814e-01 -6.790682673454284668e-01 2.483892291784286499e-01
5.329349264502525330e-02 -5.014829039573669434e-01 1.443254053592681885e-01
2.422646880149841309e-01 -5.014938712120056152e-01 -1.978216171264648438e-01
4.347471892833709717e-01 -6.396586298942565918e-01 1.293587684631347656e-02
-2.763333320617675781e-01 -6.885818839073181152e-01 -2.354097217321395874e-01
-2.609212100505828857e-01 -7.692314386367797852e-01 -4.974097386002540588e-02
-1.586377620697021484e-02 -7.927894592285156250e-01 3.219534158706665039e-01
-3.165687620639801025e-02 -7.326303124427795410e-01 3.617889285087585449e-01
-1.686123013496398926e-01 -8.215211033821105957e-01 1.009904891252517700e-01
3.771233558654785156e-01 -5.833005905151367188e-01 2.366124838590621948e-02
1.022452116012573242e-01 -4.831129908561706543e-01 5.440320819616317749e-02
5.135449022054672241e-02 -4.926065802574157715e-01 1.164481490850448608e-01
-1.683352887630462646e-02 -6.321073174476623535e-01 3.485278487205505371e-01
4.625635147094726562e-01 -7.125424146652221680e-01 -1.455209553241729736e-01
-1.364752054214477539e-01 -8.074031472206115723e-01 2.158442586660385132e-01
1.146310269832611084e-01 -4.733552336692810059e-01 -1.479881629347801208e-02
-5.208802223205566406e-02 -8.675981760025024414e-01 3.660250455141067505e-02
4.165512025356292725e-01 -7.612497806549072266e-01 1.240370422601699829e-01
9.684370458126068115e-02 -4.884560704231262207e-01 8.135296404361724854e-02
3.480717837810516357e-01 -5.536929368972778320e-01 -2.488105744123458862e-02
-2.706784009933471680e-01 -5.403125286102294922e-01 4.826744645833969116e-02
3.778347074985504150e-01 -8.364755511283874512e-01 -3.885180503129959106e-02
2.891416251659393311e-01 -5.357957482337951660e-01 -2.767891287803649902e-01
-1.015191748738288879e-01 -4.772151112556457520e-01 -2.462265640497207642e-01
4.019916057586669922e-01 -5.976581573486328125e-01 -2.043011039495468140e-01
-8.215243369340896606e-02 -4.821558594703674316e-01 -2.815171480178833008e-01
-1.686313748359680176e-01 -7.757530212402343750e-01 -2.510696947574615479e-01
-1.156370565295219421e-01 -8.476276397705078125e-01 5.915888398885726929e-02
4.040138423442840576e-01 -6.357243061065673828e-01 -2.782156169414520264e-01
1.459162384271621704e-01 -6.516121625900268555e-01 3.440662622451782227e-01
9.899800270795822144e-02 -8.327012658119201660e-01 -2.936309874057769775e-01
2.807328402996063232e-01 -5.951797366142272949e-01 -3.973714709281921387e-01
2.328898608684539795e-01 -8.814306259155273438e-01 -4.710318893194198608e-02
4.254893958568572998e-01 -6.319442987442016602e-01 2.701453119516372681e-02
-2.942013442516326904e-01 -6.394690871238708496e-01 1.583116501569747925e-01
3.364054560661315918e-01 -8.191484212875366211e-01 -2.294919937849044800e-01
2.042630612850189209e-01 -7.944511175155639648e-01 -3.611587285995483398e-01
7.435545325279235840e-02 -8.800351619720458984e-01 -1.040880829095840454e-01
2.243115901947021484e-01 -5.367312431335449219e-01 1.376068741083145142e-01
-1.247001215815544128e-01 -4.931274056434631348e-01 8.889223635196685791e-02
2.036148607730865479e-01 -5.562914013862609863e-01 -4.066082835197448730e-01
-1.184261217713356018e-01 -6.198590993881225586e-01 -4.299637079238891602e-01
-1.049292907118797302e-01 -4.652852714061737061e-01 -1.448475867509841919e-01
-7.671511918306350708e-02 -7.910507321357727051e-01 -3.089119791984558105e-01
-6.694263964891433716e-02 -5.907543301582336426e-01 3.044652342796325684e-01
2.349244356155395508e-01 -5.590712428092956543e-01 -3.898435831069946289e-01
2.967689037322998047e-01 -6.684594750404357910e-01 2.701103687286376953e-01
4.133813381195068359e-01 -8.124002814292907715e-01 -5.387317389249801636e-02
7.965546101331710815e-02 -8.113132715225219727e-01 -3.378023505210876465e-01
-1.972971558570861816e-01 -4.893179535865783691e-01 -4.282068833708763123e-02
2.264135777950286865e-01 -8.601852059364318848e-01 1.791145801544189453e-01
1.683795452117919922e-01 -7.157793641090393066e-01 3.564662933349609375e-01
-1.086379811167716980e-01 -8.307918310165405273e-01 -1.632291227579116821e-01
-3.367625772953033447e-01 -6.646507382392883301e-01 -5.795888602733612061e-03
1.597110927104949951e-01 -5.363725423812866211e-01 -3.996405005455017090e-01
4.115889966487884521e-02 -6.235834956169128418e-01 3.441048860549926758e-01
3.846387267112731934e-01 -6.053759455680847168e-01 -2.737709283828735352e-01
1.168268546462059021e-02 -4.942111968994140625e-01 1.293000578880310059e-01
-2.469512522220611572e-01 -6.691923737525939941e-01 2.347403913736343384e-01
3.565176129341125488e-01 -5.998626947402954102e-01 -3.162172436714172363e-01
4.231259226799011230e-01 -6.173453927040100098e-01 -1.286745443940162659e-02
2.836070954799652100e-01 -8.662077188491821289e-01 -1.040116697549819946e-01
2.160226404666900635e-01 -6.914477944374084473e-01 -4.536132812500000000e-01
-2.439965605735778809e-01 -5.088208913803100586e-01 -4.871268570423126221e-02
-1.224462911486625671e-01 -5.039482116699218750e-01 1.269018501043319702e-01
4.232664704322814941e-01 -6.601181626319885254e-01 -2.589562535285949707e-01
3.705200552940368652e-01 -8.403172492980957031e-01 -5.805972963571548462e-03
4.100192189216613770e-01 -7.008613348007202148e-01 1.488393843173980713e-01
4.109165668487548828e-01 -7.900050282478332520e-01 -1.809952706098556519e-01
-3.002519309520721436e-01 -6.660597920417785645e-01 1.479633450508117676e-01
-1.426526010036468506e-01 -5.895920395851135254e-01 -4.073100686073303223e-01
-1.616018265485763550e-02 -7.543900609016418457e-01 3.552764058113098145e-01
2.335904538631439209e-01 -8.827647566795349121e-01 5.135510116815567017e-03
5.120343714952468872e-02 -8.409039974212646484e-01 -2.603695392608642578e-01
3.486685156822204590e-01 -5.737577676773071289e-01 -2.784414887428283691e-01
-3.277148902416229248e-01 -6.685360670089721680e-01 -1.147214919328689575e-01
3.273775279521942139e-01 -8.470335602760314941e-01 -1.417212337255477905e-01
-2.461218833923339844e-01 -7.694157361984252930e-01 -1.188419014215469360e-01
3.699831664562225342e-01 -7.937653660774230957e-01 -2.465872019529342651e-01
5.548426508903503418e-02 -6.323280334472656250e-01 -4.841046929359436035e-01
3.333339393138885498e-01 -7.227348089218139648e-01 -3.718380331993103027e-01
6.536135822534561157e-02 -8.528001308441162109e-01 2.348598390817642212e-01
-8.917211741209030151e-02 -5.123873949050903320e-01 1.663006544113159180e-01
1.261373162269592285e-01 -4.865887165069580078e-01 5.203758180141448975e-02
1.017426550388336182e-01 -8.568300008773803711e-01 -2.239007800817489624e-01
1.911871880292892456e-02 -8.562707304954528809e-01 -1.931539624929428101e-01
-2.773877680301666260e-01 -5.543684959411621094e-01 -2.118233293294906616e-01
3.252617716789245605e-01 -8.338931202888488770e-01 -1.987650096416473389e-01
3.151973709464073181e-02 -7.625411748886108398e-01 3.585391640663146973e-01
-2.393594980239868164e-01 -5.074903964996337891e-01 -1.359420120716094971e-01
2.773281931877136230e-01 -7.404649257659912109e-01 -3.970476388931274414e-01
2.172189950942993164e-02 -7.043490409851074219e-01 -4.581924676895141602e-01
-7.801172882318496704e-02 -6.929888129234313965e-01 -4.301867485046386719e-01
-2.524391412734985352e-01 -5.804306864738464355e-01 -2.920508384704589844e-01
-6.290151923894882202e-02 -7.183933258056640625e-01 3.568416237831115723e-01
3.950042724609375000e-01 -8.107799291610717773e-01 -1.534578800201416016e-01
4.055688679218292236e-01 -7.594305872917175293e-01 -2.519363164901733398e-01
2.501454055309295654e-01 -8.189713954925537109e-01 2.557214498519897461e-01
2.610430121421813965e-01 -8.364516496658325195e-01 -2.496356517076492310e-01
2.444728612899780273e-01 -5.469514131546020508e-01 1.438476145267486572e-01
3.628247380256652832e-01 -8.431591391563415527e-01 -6.072353199124336243e-02
-2.335930615663528442e-02 -5.319606065750122070e-01 2.241212278604507446e-01
4.651203453540802002e-01 -7.382197380065917969e-01 -6.128503382205963135e-02
-3.003965616226196289e-01 -7.333999872207641602e-01 -2.417868562042713165e-02
4.302919507026672363e-01 -6.158118844032287598e-01 -8.533011376857757568e-02
-4.021720588207244873e-02 -7.320905327796936035e-01 -4.154395461082458496e-01
2.560078501701354980e-01 -8.564627170562744141e-01 1.673254519701004028e-01
3.231220319867134094e-02 -8.419942855834960938e-01 2.540008425712585449e-01
1.555074900388717651e-01 -5.170531272888183594e-01 1.406980156898498535e-01
4.497981965541839600e-01 -6.436903476715087891e-01 -1.027712970972061157e-01
-1.273045837879180908e-01 -4.968825578689575195e-01 -2.955458760261535645e-01
3.888027369976043701e-01 -8.184655308723449707e-01 7.434992492198944092e-02
-2.924682497978210449e-01 -5.411572456359863281e-01 -8.820187300443649292e-02
4.288528263568878174e-01 -7.210207581520080566e-01 -2.479576915502548218e-01
2.068778574466705322e-01 -5.872798562049865723e-01 -4.381000995635986328e-01
-2.229841053485870361e-01 -6.888382434844970703e-01 2.597276568412780762e-01
5.663142353296279907e-02 -7.789160013198852539e-01 -3.886322379112243652e-01
-2.049989998340606689e-02 -4.870964884757995605e-01 1.055434048175811768e-01
1.496372371912002563e-02 -5.978178977966308594e-01 3.215019106864929199e-01
2.978233397006988525e-01 -6.147952675819396973e-01 -3.992298841476440430e-01
-2.644344568252563477e-01 -7.573517560958862305e-01 1.012046784162521362e-01
4.303987324237823486e-01 -6.187319755554199219e-01 -5.267235264182090759e-02
-3.402850776910781860e-02 -4.709670841693878174e-01 -2.580543756484985352e-01
4.142939150333404541e-01 -6.545525789260864258e-01 -2.744887769222259521e-01
4.581706821918487549e-01 -7.277327179908752441e-01 -1.554691493511199951e-01
3.422270417213439941e-01 -6.854891777038574219e-01 2.360305935144424438e-01
-2.148874104022979736e-01 -6.999694705009460449e-01 -3.154588341712951660e-01
6.179504469037055969e-02 -4.909030795097351074e-01 -3.339397311210632324e-01
5.308059602975845337e-02 -7.549894452095031738e-01 3.642732501029968262e-01
2.180828750133514404e-01 -7.498059868812561035e-01 -4.140141010284423828e-01
2.322090268135070801e-01 -6.245549917221069336e-01 -4.475574493408203125e-01
-1.279509067535400391e-02 -7.222542166709899902e-01 -4.351767301559448242e-01
2.645247876644134521e-01 -5.144872069358825684e-01 -1.070274040102958679e-02
5.231050774455070496e-02 -6.686169505119323730e-01 3.691463470458984375e-01
4.399657249450683594e-02 -6.145375967025756836e-01 -4.807034134864807129e-01
4.447659850120544434e-01 -7.686409354209899902e-01 -1.302720010280609131e-01
3.905187547206878662e-01 -7.490558028221130371e-01 -2.880656719207763672e-01
-9.534362703561782837e-02 -4.772435724735260010e-01 3.945855796337127686e-02
3.189147114753723145e-01 -5.503064990043640137e-01 -2.696136832237243652e-01
-3.225451409816741943e-01 -6.963506340980529785e-01 -7.024293392896652222e-02
-4.212394356727600098e-03 -8.357124328613281250e-01 -2.488515377044677734e-01
-5.534449964761734009e-02 -7.725530862808227539e-01 3.285837769508361816e-01
-2.789736688137054443e-01 -6.719692945480346680e-01 1.880543231964111328e-01
-3.476250171661376953e-02 -6.023744940757751465e-01 -4.628699421882629395e-01
3.930855989456176758e-01 -6.462631225585937500e-01 1.321680396795272827e-01
-1.502706408500671387e-01 -8.045367002487182617e-01 2.054118961095809937e-01
-2.291545569896697998e-01 -6.897547841072082520e-01 -3.077335357666015625e-01
-1.151484772562980652e-01 -8.246132135391235352e-01 -1.786538362503051758e-01
-1.827775835990905762e-01 -6.283279657363891602e-01 2.824520468711853027e-01
3.529293090105056763e-02 -5.103936791419982910e-01 -3.833267688751220703e-01
4.871911555528640747e-02 -4.636073708534240723e-01 -2.105405330657958984e-01
2.213768661022186279e-01 -8.181536793708801270e-01 2.735157012939453125e-01
1.148366704583168030e-01 -4.804300665855407715e-01 3.064012527465820312e-02
-3.025224208831787109e-01 -7.288273572921752930e-01 3.143610060214996338e-02
2.170285284519195557e-01 -4.923694729804992676e-01 -5.861300230026245117e-02
4.487471878528594971e-01 -6.478466391563415527e-01 -3.592710196971893311e-02
2.571607828140258789e-01 -7.774569988250732422e-01 -3.665655255317687988e-01
4.280002713203430176e-01 -7.064619064331054688e-01 1.148361563682556152e-01
1.882399320602416992e-01 -8.044471144676208496e-01 -3.482216000556945801e-01
1.163238435983657837e-01 -4.973014891147613525e-01 -3.340764045715332031e-01
-1.649065911769866943e-01 -8.277849555015563965e-01 -3.251670300960540771e-02
6.443685293197631836e-02 -6.896762251853942871e-01 -4.728627800941467285e-01
4.164657890796661377e-01 -6.772120594978332520e-01 1.217532455921173096e-01
1.137042641639709473e-01 -4.664010405540466309e-01 -1.475889682769775391e-01
-1.936915516853332520e-02 -8.742429614067077637e-01 5.563645064830780029e-02
1.952661871910095215e-01 -4.900109171867370605e-01 -2.261735051870346069e-01
2.595617771148681641e-01 -5.104174017906188965e-01 -2.175942361354827881e-01
3.817442059516906738e-01 -7.873953580856323242e-01 1.597905457019805908e-01
1.754309684038162231e-01 -4.804548919200897217e-01 -1.848471760749816895e-01
-2.214964926242828369e-01 -5.987660288810729980e-01 2.268907874822616577e-01
-6.535815447568893433e-02 -4.598762989044189453e-01 -1.308554112911224365e-01
1.628930568695068359e-01 -5.086188316345214844e-01 1.086218655109405518e-01
1.513025760650634766e-01 -7.107612490653991699e-01 -4.596143364906311035e-01
3.278740867972373962e-02 -7.718589305877685547e-01 -3.931965827941894531e-01
3.468722701072692871e-01 -8.336386680603027344e-01 -1.673550009727478027e-01
-2.086986303329467773e-01 -7.837625145912170410e-01 -1.624163687229156494e-01
-3.216985762119293213e-01 -5.861204862594604492e-01 1.855502277612686157e-02
-3.179701417684555054e-02 -5.229685902595520020e-01 2.045610696077346802e-01
1.039158627390861511e-01 -5.269906520843505859e-01 1.941115111112594604e-01
-2.457759976387023926e-01 -5.415720343589782715e-01 1.033853590488433838e-01
2.464806139469146729e-01 -8.491649627685546875e-01 -2.200352102518081665e-01
-1.818094253540039062e-01 -8.205859661102294922e-01 -1.859128475189208984e-02
1.013643071055412292e-01 -7.775963544845581055e-01 3.488655090332031250e-01
-3.122576773166656494e-01 -6.005711555480957031e-01 8.466219902038574219e-02
-2.538361847400665283e-01 -7.237506508827209473e-01 1.964769512414932251e-01
8.037467300891876221e-02 -6.151486635208129883e-01 3.326033353805541992e-01
4.325171113014221191e-01 -7.887635231018066406e-01 2.017473429441452026e-02
2.024306654930114746e-01 -7.249076962471008301e-01 3.433043956756591797e-01
2.551803290843963623e-01 -5.024639368057250977e-01 -1.213353648781776428e-01
8.165727555751800537e-02 -5.749319195747375488e-01 2.867675423622131348e-01
3.444976210594177246e-01 -5.654139518737792969e-01 -2.636686563491821289e-01
3.839094638824462891e-01 -5.957046747207641602e-01 4.760789126157760620e-02
8.810444921255111694e-02 -5.226580500602722168e-01 -4.000986218452453613e-01
5.559044331312179565e-02 -8.864105343818664551e-01 9.096577763557434082e-03
3.075898587703704834e-01 -7.957907319068908691e-01 -3.074941635131835938e-01
5.187097564339637756e-02 -5.654907226562500000e-01 -4.558334350585937500e-01
3.967843949794769287e-01 -5.892807245254516602e-01 -1.900260150432586670e-01
-2.882483899593353271e-01 -5.541692376136779785e-01 -1.810225546360015869e-01
-2.501130402088165283e-01 -5.150855779647827148e-01 -1.481856107711791992e-01
3.328166604042053223e-01 -8.546000719070434570e-01 -7.535180449485778809e-02
2.294402718544006348e-01 -7.740719914436340332e-01 3.138759732246398926e-01
1.600357890129089355e-01 -8.885471820831298828e-01 5.198785662651062012e-02
7.385911047458648682e-02 -8.786903619766235352e-01 1.353438943624496460e-01
3.124367892742156982e-01 -5.291033983230590820e-01 -1.697041094303131104e-01
-2.926832139492034912e-01 -7.095808982849121094e-01 -1.644197702407836914e-01
-1.989836096763610840e-01 -7.677325010299682617e-01 2.176950722932815552e-01
-2.862696051597595215e-01 -5.910901427268981934e-01 -2.415914684534072876e-01
-1.339378952980041504e-01 -6.577162742614746094e-01 -4.152655601501464844e-01
3.718558549880981445e-01 -8.150927424430847168e-01 1.256919354200363159e-01
4.555743187665939331e-03 -6.127950549125671387e-01 -4.750588536262512207e-01
2.258158624172210693e-01 -8.733865022659301758e-01 -1.279855668544769287e-01
2.713226079940795898e-01 -5.205017328262329102e-01 -2.480437159538269043e-01
5.136214196681976318e-03 -7.117943763732910156e-01 -4.489927887916564941e-01
3.177234828472137451e-01 -7.244140505790710449e-01 2.692276239395141602e-01
3.483154475688934326e-01 -8.209002614021301270e-01 -2.090157568454742432e-01
2.892656922340393066e-01 -6.516517996788024902e-01 -4.211732149124145508e-01
3.066948354244232178e-01 -6.411126255989074707e-01 -4.054458141326904297e-01
1.506205052137374878e-01 -7.321950793266296387e-01 -4.444227218627929688e-01
-3.264078795909881592e-01 -6.946015954017639160e-01 -1.667137071490287781e-02
1.912966966629028320e-01 -5.154270529747009277e-01 1.058437675237655640e-01
-1.691102385520935059e-01 -6.694608926773071289e-01 -3.839895129203796387e-01
-6.611021608114242554e-02 -8.641616106033325195e-01 2.630426734685897827e-02
4.740179330110549927e-02 -4.766988456249237061e-01 -2.873111665248870850e-01
4.032121598720550537e-01 -7.506327629089355469e-01 1.575595140457153320e-01
2.259513139724731445e-01 -8.132370710372924805e-01 -3.208485245704650879e-01
3.929874002933502197e-01 -8.218276500701904297e-01 4.307140409946441650e-02
3.036119639873504639e-01 -8.618878126144409180e-01 7.332551479339599609e-02
1.093301922082901001e-02 -8.185490965843200684e-01 -3.015530705451965332e-01
3.200601935386657715e-01 -5.349907875061035156e-01 -1.892377287149429321e-01
3.625063598155975342e-01 -7.776210308074951172e-01 -2.853875756263732910e-01
1.884829401969909668e-01 -8.777973651885986328e-01 1.288613080978393555e-01
4.175869524478912354e-01 -6.499426960945129395e-01 8.659103512763977051e-02
-1.119859740138053894e-01 -4.697213768959045410e-01 -1.862229406833648682e-01
-7.263765484094619751e-02 -7.748171687126159668e-01 -3.416730165481567383e-01
2.736009955406188965e-01 -5.657184720039367676e-01 1.569038331508636475e-01
2.421110570430755615e-01 -5.737297534942626953e-01 -4.040488600730895996e-01
4.360414445400238037e-01 -6.948451995849609375e-01 9.029783308506011963e-02
-2.985397726297378540e-02 -4.583419561386108398e-01 -1.545944809913635254e-01
1.416176259517669678e-01 -5.069411396980285645e-01 1.193712949752807617e-01
-2.435903549194335938e-01 -7.799292206764221191e-01 -6.982186436653137207e-02
2.693428993225097656e-01 -8.602714538574218750e-01 -1.579889059066772461e-01
5.962969735264778137e-02 -5.975367426872253418e-01 3.182814121246337891e-01
-2.631781101226806641e-01 -7.626405358314514160e-01 -8.534979075193405151e-02
-3.080256581306457520e-01 -5.598776936531066895e-01 -1.106271296739578247e-01
-5.287141352891921997e-02 -6.772686839103698730e-01 -4.502371549606323242e-01
7.129002362489700317e-02 -5.814753770828247070e-01 -4.672724604606628418e-01
3.973765671253204346e-01 -6.693856716156005859e-01 1.504995226860046387e-01
5.483958870172500610e-02 -4.828236103057861328e-01 7.827614247798919678e-02
1.170203089714050293e-01 -8.072832822799682617e-01 3.187777996063232422e-01
-1.815412044525146484e-01 -4.937405884265899658e-01 -2.180532068014144897e-01
8.420538902282714844e-02 -7.148528695106506348e-01 -4.595662951469421387e-01
-2.611879259347915649e-02 -8.581461310386657715e-01 -1.455981433391571045e-01
4.077184498310089111e-01 -6.554928421974182129e-01 1.162305772304534912e-01
-2.767673730850219727e-01 -5.768983960151672363e-01 -2.475589811801910400e-01
1.135510876774787903e-01 -8.447237014770507812e-01 -2.634377479553222656e-01
1.148057430982589722e-01 -6.312909722328186035e-01 3.389024734497070312e-01
-2.353771030902862549e-01 -7.848843932151794434e-01 8.253431320190429688e-02
-1.935015916824340820e-01 -7.529065012931823730e-01 2.468715161085128784e-01
1.214581429958343506e-01 -7.209888696670532227e-01 3.684431314468383789e-01
-1.761921644210815430e-01 -8.010262846946716309e-01 1.751115769147872925e-01
4.242402315139770508e-01 -6.394564509391784668e-01 -2.340745925903320312e-01
3.043719828128814697e-01 -5.837742686271667480e-01 -3.617252111434936523e-01
-2.837149798870086670e-02 -8.671464323997497559e-01 -8.500508219003677368e-02
3.529438078403472900e-01 -5.507311224937438965e-01 -8.424337208271026611e-02
1.943018436431884766e-01 -7.391580343246459961e-01 -4.306257367134094238e-01
-4.523430019617080688e-02 -8.239025473594665527e-01 -2.545939087867736816e-01
1.693270504474639893e-01 -8.026779890060424805e-01 3.134252429008483887e-01
1.696105301380157471e-01 -8.827610015869140625e-01 -9.721387922763824463e-02
-2.448578476905822754e-01 -7.027150392532348633e-01 2.277842015027999878e-01
2.523177862167358398e-01 -5.032787322998046875e-01 -1.764371693134307861e-01
-1.973098516464233398e-02 -8.632045984268188477e-01 -1.252014338970184326e-01
3.050606250762939453e-01 -8.389369249343872070e-01 -2.054667621850967407e-01
-2.253992557525634766e-01 -6.519049406051635742e-01 -3.366023302078247070e-01
-1.497572958469390869e-01 -5.368671417236328125e-01 -3.571673035621643066e-01
4.555689990520477295e-01 -6.684508919715881348e-01 -1.573836803436279297e-01
2.063296437263488770e-01 -4.926706552505493164e-01 -2.484944835305213928e-02
-1.137951985001564026e-01 -7.551738619804382324e-01 -3.435002565383911133e-01
-1.211966797709465027e-01 -8.441724777221679688e-01 7.853682339191436768e-02
1.871885061264038086e-01 -8.378005027770996094e-01 2.557740807533264160e-01
3.800750672817230225e-01 -8.225865364074707031e-01 -1.432764828205108643e-01
1.574550271034240723e-01 -8.372705578804016113e-01 -2.832799255847930908e-01
4.247387647628784180e-01 -7.441109418869018555e-01 1.185349673032760620e-01
3.204056024551391602e-01 -7.179615497589111328e-01 -3.851655125617980957e-01
-1.525261998176574707e-02 -4.686007499694824219e-01 2.117833495140075684e-02
1.645942479372024536e-01 -8.285517692565917969e-01 -3.036105036735534668e-01
-3.090320825576782227e-01 -6.344641447067260742e-01 1.243871003389358521e-01
2.203200459480285645e-01 -4.995260238647460938e-01 -2.390882521867752075e-01
-2.734555900096893311e-01 -7.577647566795349121e-01 -5.839693918824195862e-02
3.508789539337158203e-01 -8.498727679252624512e-01 -5.443029105663299561e-03
-1.565370857715606689e-01 -4.748615622520446777e-01 -1.017993092536926270e-01
1.329457461833953857e-01 -6.285361647605895996e-01 3.316604495048522949e-01
-2.260825037956237793e-02 -6.714342236518859863e-01 3.658629059791564941e-01
-1.102265715599060059e-02 -7.717599272727966309e-01 -3.787357807159423828e-01
-4.736058413982391357e-03 -5.409106016159057617e-01 -4.266710877418518066e-01
1.025091856718063354e-01 -8.725568652153015137e-01 -1.594727635383605957e-01
1.909060478210449219e-01 -5.303822159767150879e-01 1.507919877767562866e-01
4.408287405967712402e-01 -6.716359257698059082e-01 -2.210928201675415039e-01
4.094345569610595703e-01 -5.945740938186645508e-01 -7.095000147819519043e-02
2.097754478454589844e-01 -8.423869013786315918e-01 2.364685386419296265e-01
3.861994147300720215e-01 -5.823091268539428711e-01 -2.029944062232971191e-01
4.569417536258697510e-01 -6.629518270492553711e-01 -4.142318293452262878e-02
6.613484770059585571e-02 -4.678555428981781006e-01 -8.793637156486511230e-03
-1.333117485046386719e-02 -4.659079611301422119e-01 3.809485584497451782e-03
-2.482177317142486572e-02 -8.355035781860351562e-01 2.444717735052108765e-01
1.361871063709259033e-01 -5.227839946746826172e-01 1.684814542531967163e-01
-3.358801603317260742e-01 -6.601061224937438965e-01 1.723703742027282715e-02
2.960903644561767578e-01 -5.221884250640869141e-01 -5.876604840159416199e-02
-3.906075656414031982e-02 -7.476196885108947754e-01 3.528870940208435059e-01
3.623567521572113037e-03 -8.774109482765197754e-01 7.367791235446929932e-02
3.031595349311828613e-01 -5.838487148284912109e-01 1.604897677898406982e-01
3.551255762577056885e-01 -7.055502533912658691e-01 2.290249615907669067e-01
1.422492861747741699e-01 -5.000148415565490723e-01 -3.277801871299743652e-01
1.138685345649719238e-01 -6.683405041694641113e-01 -4.809603691101074219e-01
4.600321650505065918e-01 -6.648974418640136719e-01 -8.889703452587127686e-02
-5.028791725635528564e-03 -5.571855902671813965e-01 2.693558931350708008e-01
-5.556747317314147949e-03 -6.946721673011779785e-01 3.722530603408813477e-01
3.108615875244140625e-01 -8.491505384445190430e-01 -1.584832221269607544e-01
4.187342524528503418e-01 -6.026796102523803711e-01 -9.125460684299468994e-02
-8.101498335599899292e-02 -5.290244221687316895e-01 -3.882250785827636719e-01
-2.868649661540985107e-01 -6.058568358421325684e-01 1.482109278440475464e-01
2.583741843700408936e-01 -8.636907339096069336e-01 1.371983736753463745e-01
2.335577011108398438e-01 -8.702999949455261230e-01 1.325546950101852417e-01
2.511787414550781250e-01 -5.111907720565795898e-01 1.004327088594436646e-03
4.021227657794952393e-01 -7.973309159278869629e-01 1.018176227807998657e-01
9.389794617891311646e-02 -8.605931997299194336e-01 -2.087630778551101685e-01
1.513806581497192383e-01 -5.364575386047363281e-01 1.927210539579391479e-01
1.376066207885742188e-01 -8.813668489456176758e-01 1.274306327104568481e-01
-3.301448822021484375e-01 -6.139733791351318359e-01 3.782556205987930298e-02
-3.267202377319335938e-01 -6.582831740379333496e-01 7.237119972705841064e-02
-2.235227823257446289e-01 -6.693068146705627441e-01 2.610907554626464844e-01
-3.249320685863494873e-01 -5.981287360191345215e-01 3.412348777055740356e-02
