-2.134496271610260010e-01 -6.401723027229309082e-01 -1.242630034685134888e-01
-2.399965673685073853e-01 -7.313588857650756836e-01 2.044767439365386963e-01
-2.293738275766372681e-01 -7.336145639419555664e-01 3.079349994659423828e-01
-2.843602001667022705e-01 -6.208639144897460938e-01 8.531264960765838623e-02
-2.170911431312561035e-01 -5.662357807159423828e-01 1.857942640781402588e-01
-2.672233879566192627e-01 -6.394870877265930176e-01 -7.524698972702026367e-02
-2.054214179515838623e-01 -6.688284277915954590e-01 1.287853866815567017e-01
-2.540649771690368652e-01 -5.052322745323181152e-01 -1.783792227506637573e-01
-2.460785359144210815e-01 -7.414690852165222168e-01 3.034595847129821777e-01
-2.162474095821380615e-01 -6.762449741363525391e-01 -1.147261261940002441e-02
-2.829527258872985840e-01 -5.965654253959655762e-01 2.484920471906661987e-01
-2.459117323160171509e-01 -6.270846724510192871e-01 -1.966741234064102173e-01
-2.815238237380981445e-01 -5.874127745628356934e-01 2.348343282938003540e-01
-2.017415612936019897e-01 -6.266616582870483398e-01 -1.754994690418243408e-02
-2.479535043239593506e-01 -7.445679903030395508e-01 3.866342902183532715e-01
-2.056397199630737305e-01 -5.723028182983398438e-01 6.765440106391906738e-02
-2.527551949024200439e-01 -6.095573902130126953e-01 -2.124201804399490356e-01
-2.815625369548797607e-01 -5.696284770965576172e-01 6.909598410129547119e-02
-2.266876399517059326e-01 -7.260514497756958008e-01 2.259919345378875732e-01
-2.825022041797637939e-01 -6.338858008384704590e-01 7.309027016162872314e-02
-2.823556065559387207e-01 -5.793305039405822754e-01 1.675845086574554443e-01
-2.274442315101623535e-01 -5.317232608795166016e-01 1.120642647147178650e-01
-2.625621855258941650e-01 -7.030458450317382812e-01 1.138493046164512634e-01
-2.792896628379821777e-01 -6.223666667938232422e-01 3.768333196640014648e-01
-2.680241465568542480e-01 -5.490911006927490234e-01 -1.692709773778915405e-01
-2.463628202676773071e-01 -5.084189772605895996e-01 2.861905843019485474e-02
-2.099897265434265137e-01 -6.857182979583740234e-01 1.228341907262802124e-01
-2.511136531829833984e-01 -5.184577107429504395e-01 9.341494739055633545e-02
-2.334912866353988647e-01 -5.581886768341064453e-01 2.511932849884033203e-01
-2.578661739826202393e-01 -5.062775015830993652e-01 -8.562958240509033203e-02
-2.118395119905471802e-01 -6.660398840904235840e-01 3.302672505378723145e-01
-2.223731726408004761e-01 -7.201655507087707520e-01 3.566778004169464111e-01
-2.126033306121826172e-01 -6.457412838935852051e-01 -1.014760583639144897e-01
-2.687736451625823975e-01 -7.031995654106140137e-01 5.141752362251281738e-01
-2.003797590732574463e-01 -6.120026707649230957e-01 1.161020249128341675e-02
-2.194643318653106689e-01 -7.169715762138366699e-01 2.531523704528808594e-01
-2.857018113136291504e-01 -6.196026802062988281e-01 2.665432691574096680e-01
-2.269170582294464111e-01 -5.134505629539489746e-01 -1.289345324039459229e-03
-2.618545293807983398e-01 -6.247054934501647949e-01 -1.418126374483108521e-01
-2.671551704406738281e-01 -7.264644503593444824e-01 4.546098113059997559e-01
-2.137050032615661621e-01 -6.480344533920288086e-01 3.429219722747802734e-01
-2.632612884044647217e-01 -5.647410154342651367e-01 -2.124873846769332886e-01
-2.462585717439651489e-01 -4.968500733375549316e-01 -1.474127918481826782e-01
-2.347592413425445557e-01 -7.220306992530822754e-01 1.467067748308181763e-01
-2.791040539741516113e-01 -6.299825310707092285e-01 3.952468037605285645e-01
-2.647067904472351074e-01 -5.575258731842041016e-01 2.533611655235290527e-01
-2.777988612651824951e-01 -5.725615024566650391e-01 -5.869540572166442871e-02
-2.149900943040847778e-01 -6.072567105293273926e-01 2.873293757438659668e-01
-2.175647169351577759e-01 -5.211220979690551758e-01 -4.542133212089538574e-02
-2.123604118824005127e-01 -5.825265049934387207e-01 -2.357951849699020386e-01
-2.643982172012329102e-01 -7.043883204460144043e-01 5.337837338447570801e-01
-2.094174474477767944e-01 -5.833830237388610840e-01 1.663483083248138428e-01
-2.309412956237792969e-01 -4.985900521278381348e-01 -1.430039256811141968e-01
-2.790488302707672119e-01 -5.699090361595153809e-01 -3.131254017353057861e-02
-2.723487615585327148e-01 -7.188932895660400391e-01 3.480721116065979004e-01
-2.482433021068572998e-01 -5.081764459609985352e-01 -2.429572194814682007e-01
-2.709790766239166260e-01 -7.164278626441955566e-01 2.796195745468139648e-01
-2.724916040897369385e-01 -6.952509284019470215e-01 4.965493083000183105e-01
-2.630566954612731934e-01 -7.349689602851867676e-01 4.246506094932556152e-01
-2.173610031604766846e-01 -7.086478471755981445e-01 1.814264655113220215e-01
-2.831094264984130859e-01 -6.617999076843261719e-01 3.832073211669921875e-01
-2.654707133769989014e-01 -6.566335558891296387e-01 5.106459856033325195e-01
-2.663713693618774414e-01 -5.249937772750854492e-01 -1.276690065860748291e-01
-2.592286467552185059e-01 -5.091942548751831055e-01 -1.316494792699813843e-01
-2.642668187618255615e-01 -5.223703384399414062e-01 -1.494908779859542847e-01
-2.698478698730468750e-01 -5.276774168014526367e-01 -1.457844674587249756e-02
-2.768330574035644531e-01 -5.774910449981689453e-01 -7.581391930580139160e-02
-2.450024932622909546e-01 -5.028948783874511719e-01 -1.909476518630981445e-02
-2.641038596630096436e-01 -5.867454409599304199e-01 3.612582087516784668e-01
-2.022006660699844360e-01 -6.375304460525512695e-01 1.459026336669921875e-02
-2.026319950819015503e-01 -6.129631400108337402e-01 1.330520510673522949e-01
-2.488258481025695801e-01 -6.160888075828552246e-01 4.502063989639282227e-01
-2.458183914422988892e-01 -6.464384198188781738e-01 -1.492937952280044556e-01
-2.304187119007110596e-01 -5.949620008468627930e-01 3.528214097023010254e-01
-2.012351006269454956e-01 -5.857683420181274414e-01 -4.750767350196838379e-02
-2.755739688873291016e-01 -6.664306521415710449e-01 7.501736283302307129e-02
-2.199501991271972656e-01 -6.972395181655883789e-01 6.673698127269744873e-02
-2.509869635105133057e-01 -7.279779911041259766e-01 5.214904546737670898e-01
-2.796816825866699219e-01 -6.455570459365844727e-01 4.167804718017578125e-01
-2.475662678480148315e-01 -5.322911739349365234e-01 1.719762980937957764e-01
-2.785456180572509766e-01 -6.377554535865783691e-01 2.422523498535156250e-02
-2.057389467954635620e-01 -6.684982776641845703e-01 1.957630962133407593e-01
-2.688048183917999268e-01 -7.229136228561401367e-01 3.051446676254272461e-01
-2.762697637081146240e-01 -5.984251499176025391e-01 -7.172019779682159424e-02
-2.702069282531738281e-01 -5.337345600128173828e-01 -1.002259105443954468e-01
-2.056712955236434937e-01 -5.517277717590332031e-01 -8.311556279659271240e-02
-2.769961655139923096e-01 -6.683767437934875488e-01 9.870173037052154541e-02
-2.011619657278060913e-01 -6.093217134475708008e-01 -4.804895818233489990e-02
-2.090743184089660645e-01 -6.589358448982238770e-01 -2.125713229179382324e-02
-2.190536111593246460e-01 -6.762053966522216797e-01 -2.881778776645660400e-02
-2.678520083427429199e-01 -6.803366541862487793e-01 5.238112211227416992e-01
-2.328044474124908447e-01 -6.394028067588806152e-01 4.561768770217895508e-01
-2.749575972557067871e-01 -5.641143918037414551e-01 -9.671235084533691406e-02
-2.237383872270584106e-01 -5.322688817977905273e-01 9.091725200414657593e-02
-2.422521859407424927e-01 -6.467956304550170898e-01 4.970893859863281250e-01
-2.182330936193466187e-01 -6.983048915863037109e-01 3.824600577354431152e-01
-2.783218026161193848e-01 -7.021745443344116211e-01 3.430893719196319580e-01
-2.816211581230163574e-01 -6.122056841850280762e-01 1.864367723464965820e-02
-2.005170732736587524e-01 -5.995159149169921875e-01 -2.734363079071044922e-05
-2.356963306665420532e-01 -5.311849713325500488e-01 1.461747288703918457e-01
-2.740983366966247559e-01 -6.976068019866943359e-01 1.947408020496368408e-01
-2.809313237667083740e-01 -6.915630102157592773e-01 3.311623930931091309e-01
-2.293370217084884644e-01 -7.186259627342224121e-01 4.537209272384643555e-01
-2.805976271629333496e-01 -6.335800290107727051e-01 4.186635464429855347e-02
-2.070225477218627930e-01 -5.547241568565368652e-01 3.980450332164764404e-03
-2.327640801668167114e-01 -7.331560254096984863e-01 4.227700233459472656e-01
-2.638920843601226807e-01 -5.160723924636840820e-01 -2.630285918712615967e-02
-2.512536942958831787e-01 -6.578991413116455078e-01 -1.029746681451797485e-01
-2.238497436046600342e-01 -6.755013465881347656e-01 4.466465711593627930e-01
-2.131389677524566650e-01 -6.087726950645446777e-01 -1.997565180063247681e-01
-2.576792240142822266e-01 -5.666047930717468262e-01 -2.453672736883163452e-01
-2.318000048398971558e-01 -6.754630208015441895e-01 4.927000999450683594e-01
-2.216655611991882324e-01 -6.941965222358703613e-01 3.945849090814590454e-02
-2.470992803573608398e-01 -7.065329551696777344e-01 5.461113452911376953e-01
-2.230771631002426147e-01 -5.974674820899963379e-01 3.219569921493530273e-01
-2.705928981304168701e-01 -5.399374365806579590e-01 -1.192936450242996216e-01
-2.266266494989395142e-01 -6.537979841232299805e-01 4.468535184860229492e-01
-2.090576887130737305e-01 -5.737372636795043945e-01 1.285484433174133301e-01
-2.316192090511322021e-01 -6.129369735717773438e-01 -2.406096309423446655e-01
-2.629081308841705322e-01 -6.974726915359497070e-01 9.043955802917480469e-02
-2.137640714645385742e-01 -6.808519363403320312e-01 3.483741283416748047e-01
-2.847366034984588623e-01 -6.314271688461303711e-01 1.143264919519424438e-01
-2.612208425998687744e-01 -5.195329785346984863e-01 5.604338273406028748e-02
-2.075676918029785156e-01 -6.462391018867492676e-01 2.648982405662536621e-01
-2.529989480972290039e-01 -6.332342624664306641e-01 -1.621993035078048706e-01
-2.209594994783401489e-01 -6.481340527534484863e-01 4.044598340988159180e-01
-2.786551117897033691e-01 -6.861157417297363281e-01 4.404890537261962891e-01
-2.365983277559280396e-01 -5.599351525306701660e-01 2.677057087421417236e-01
-2.290240079164505005e-01 -5.767619609832763672e-01 2.949891686439514160e-01
-2.827098369598388672e-01 -6.132748723030090332e-01 3.956478089094161987e-02
-2.822836935520172119e-01 -6.071676015853881836e-01 2.997081279754638672e-01
-2.850583791732788086e-01 -6.039608120918273926e-01 9.508321434259414673e-02
-2.077750265598297119e-01 -6.657653450965881348e-01 2.976705133914947510e-02
-2.607555687427520752e-01 -5.649586915969848633e-01 2.956814169883728027e-01
-2.799536287784576416e-01 -6.919600963592529297e-01 3.975477218627929688e-01
-2.671357393264770508e-01 -5.478705167770385742e-01 1.960384845733642578e-01
-2.055714726448059082e-01 -5.558766722679138184e-01 -3.165653347969055176e-02
-2.221638858318328857e-01 -6.297502517700195312e-01 -1.894241422414779663e-01
-2.013098895549774170e-01 -6.165388226509094238e-01 9.892173111438751221e-02
-2.492774575948715210e-01 -7.177609205245971680e-01 1.275198012590408325e-01
-2.617097496986389160e-01 -5.121687054634094238e-01 -4.484957456588745117e-02
-2.006726413965225220e-01 -6.246336102485656738e-01 5.409446358680725098e-02
-2.342153340578079224e-01 -6.481463909149169922e-01 4.748511910438537598e-01
-2.795443534851074219e-01 -5.872352123260498047e-01 -3.395074605941772461e-02
-2.154411971569061279e-01 -7.073254585266113281e-01 2.678221762180328369e-01
-2.055676877498626709e-01 -6.071723699569702148e-01 -1.389427930116653442e-01
-2.539531588554382324e-01 -6.855841875076293945e-01 -1.929126679897308350e-03
-2.375005334615707397e-01 -7.240265607833862305e-01 4.947172999382019043e-01
-2.434285134077072144e-01 -5.853609442710876465e-01 3.649970889091491699e-01
-2.403368502855300903e-01 -5.063571929931640625e-01 -2.641090750694274902e-01
-2.151255309581756592e-01 -5.201396942138671875e-01 -1.291185915470123291e-01
-2.184189260005950928e-01 -6.870255470275878906e-01 2.376887202262878418e-02
-2.202554494142532349e-01 -5.714764595031738281e-01 -2.843152284622192383e-01
-2.115201354026794434e-01 -6.353203654289245605e-01 3.053402304649353027e-01
-2.625780999660491943e-01 -5.380276441574096680e-01 -2.094495743513107300e-01
-2.045665830373764038e-01 -5.588398575782775879e-01 -1.164256334304809570e-01
-2.647993564605712891e-01 -6.743870377540588379e-01 1.184863597154617310e-02
-2.571375072002410889e-01 -6.576490998268127441e-01 -8.189074695110321045e-02
-2.340944111347198486e-01 -6.854849457740783691e-01 -3.288187086582183838e-02
-2.181777656078338623e-01 -5.359034538269042969e-01 -2.764118313789367676e-01
-2.770558297634124756e-01 -5.573182702064514160e-01 1.413145065307617188e-01
-2.095135152339935303e-01 -5.364642739295959473e-01 -1.515852957963943481e-01
-2.855716347694396973e-01 -6.366441249847412109e-01 1.511899232864379883e-01
-2.049372494220733643e-01 -5.616640448570251465e-01 -1.464188247919082642e-01
-2.492877691984176636e-01 -5.385571122169494629e-01 2.015591561794281006e-01
-2.316252291202545166e-01 -7.349393963813781738e-01 2.852974236011505127e-01
-2.841382026672363281e-01 -6.012409329414367676e-01 6.480697542428970337e-02
-2.170327305793762207e-01 -5.729117989540100098e-01 2.084480822086334229e-01
-2.082071006298065186e-01 -5.992317795753479004e-01 -1.810950189828872681e-01
-2.036215960979461670e-01 -6.295556426048278809e-01 1.797843277454376221e-01
-2.160290777683258057e-01 -6.907717585563659668e-01 3.666650056838989258e-01
-2.097220867872238159e-01 -5.349438786506652832e-01 -1.260961294174194336e-01
-2.314451485872268677e-01 -7.342305779457092285e-01 3.943608403205871582e-01
-2.028040289878845215e-01 -6.382994651794433594e-01 1.614629179239273071e-01
-2.036517411470413208e-01 -5.863589048385620117e-01 -1.375752538442611694e-01
-2.122664600610733032e-01 -6.524474620819091797e-01 -7.646904885768890381e-02
-2.676507532596588135e-01 -5.235764384269714355e-01 -8.028222620487213135e-02
-2.619512379169464111e-01 -5.182653665542602539e-01 3.739680349826812744e-02
-2.299278378486633301e-01 -5.078989863395690918e-01 -2.349799871444702148e-02
-2.134497016668319702e-01 -5.247170329093933105e-01 -1.083729863166809082e-01
-2.808901965618133545e-01 -5.716004371643066406e-01 1.424490660429000854e-02
-2.023416310548782349e-01 -6.465478539466857910e-01 7.432758808135986328e-02
-2.806644439697265625e-01 -6.671234369277954102e-01 1.472098380327224731e-01
-2.250179201364517212e-01 -7.233179211616516113e-01 3.839288353919982910e-01
-2.128849029541015625e-01 -5.458043813705444336e-01 5.507399886846542358e-02
-2.602921426296234131e-01 -5.792235732078552246e-01 3.463536798954010010e-01
-2.215318530797958374e-01 -5.126224160194396973e-01 -2.320930510759353638e-01
-2.731074094772338867e-01 -6.274943351745605469e-01 4.323198795318603516e-01
-2.285002470016479492e-01 -5.420194864273071289e-01 1.657257974147796631e-01
-2.609186172485351562e-01 -6.929972767829895020e-01 5.930731818079948425e-02
-2.861838340759277344e-01 -6.162722110748291016e-01 2.346484065055847168e-01
-2.743582427501678467e-01 -6.445206403732299805e-01 -4.348017275333404541e-03
-2.649517357349395752e-01 -6.526446342468261719e-01 -5.534482002258300781e-02
-2.077112048864364624e-01 -6.049966812133789062e-01 2.045784592628479004e-01
-2.114398628473281860e-01 -6.765953302383422852e-01 3.182635903358459473e-01
-2.246569246053695679e-01 -6.507502198219299316e-01 -1.382264941930770874e-01
-2.041385769844055176e-01 -6.159878373146057129e-01 1.714134067296981812e-01
-2.514615654945373535e-01 -5.335776209831237793e-01 -2.766106128692626953e-01
-2.179525792598724365e-01 -5.909433364868164062e-01 -2.531625032424926758e-01
-2.347046136856079102e-01 -7.009614109992980957e-01 3.237893432378768921e-02
-2.826308608055114746e-01 -6.259504556655883789e-01 5.843156948685646057e-02
-2.060673236846923828e-01 -6.325794458389282227e-01 2.296262085437774658e-01
-2.835407853126525879e-01 -6.461554169654846191e-01 3.669431805610656738e-01
-2.564690113067626953e-01 -6.384220719337463379e-01 4.963263869285583496e-01
-2.850193977355957031e-01 -6.508646607398986816e-01 1.809574961662292480e-01
-2.758932411670684814e-01 -5.459435582160949707e-01 5.436743795871734619e-02
-2.074705660343170166e-01 -5.536591410636901855e-01 -1.863998621702194214e-01
-2.136720865964889526e-01 -5.265177488327026367e-01 -7.200886309146881104e-02
-2.654256522655487061e-01 -5.319630503654479980e-01 1.150893345475196838e-01
-2.179162502288818359e-01 -7.130551338195800781e-01 2.317294776439666748e-01
-2.368990182876586914e-01 -7.051675915718078613e-01 5.173969864845275879e-01
-2.187941074371337891e-01 -5.516512989997863770e-01 1.431896686553955078e-01
-2.068255245685577393e-01 -5.531947612762451172e-01 -1.182453334331512451e-02
-2.068983465433120728e-01 -6.381018757820129395e-01 2.485475242137908936e-01
-2.681883573532104492e-01 -7.174205780029296875e-01 2.461281269788742065e-01
-2.355879843235015869e-01 -6.275720000267028809e-01 4.457045197486877441e-01
-2.110363245010375977e-01 -6.523445248603820801e-01 3.164979219436645508e-01
-2.535968124866485596e-01 -5.273430347442626953e-01 1.415541172027587891e-01
-2.071005702018737793e-01 -6.775990724563598633e-01 1.512661427259445190e-01
-2.407874464988708496e-01 -5.750495195388793945e-01 3.288800418376922607e-01
-2.742046713829040527e-01 -6.566147208213806152e-01 2.859876304864883423e-02
-2.827069163322448730e-01 -6.224213242530822754e-01 3.368836343288421631e-01
-2.843517065048217773e-01 -6.640064716339111328e-01 2.219182848930358887e-01
-2.861585617065429688e-01 -6.516364812850952148e-01 2.467786073684692383e-01
-2.025061547756195068e-01 -5.822994709014892578e-01 -1.097547262907028198e-01
-2.458185404539108276e-01 -4.992359876632690430e-01 -6.423591077327728271e-02
-2.453057765960693359e-01 -5.208082795143127441e-01 1.106834262609481812e-01
-2.056248188018798828e-01 -6.614133715629577637e-01 2.185932397842407227e-01
-2.778168022632598877e-01 -6.800895929336547852e-01 1.581092774868011475e-01
-2.748202383518218994e-01 -6.671118140220642090e-01 4.796166419982910156e-01
-2.153057754039764404e-01 -5.315454602241516113e-01 2.389036118984222412e-03
-2.816504836082458496e-01 -5.721169710159301758e-01 4.437843710184097290e-02
-2.760517597198486328e-01 -7.076465487480163574e-01 3.116582632064819336e-01
-2.007571905851364136e-01 -5.931549668312072754e-01 -1.756845414638519287e-02
-2.821851074695587158e-01 -6.813812851905822754e-01 3.736817836761474609e-01
-2.729860246181488037e-01 -7.177608013153076172e-01 3.982799053192138672e-01
-2.286884188652038574e-01 -6.014654040336608887e-01 -2.603374719619750977e-01
-2.342072725296020508e-01 -7.388665080070495605e-01 3.354570567607879639e-01
-2.811187803745269775e-01 -5.689881443977355957e-01 1.209956333041191101e-01
-2.097059786319732666e-01 -6.385565400123596191e-01 2.881651520729064941e-01
-2.863315939903259277e-01 -6.426100730895996094e-01 2.040608525276184082e-01
-2.766313850879669189e-01 -5.476751923561096191e-01 3.164905309677124023e-02
-2.776978015899658203e-01 -6.974748969078063965e-01 2.574663460254669189e-01
-2.564768791198730469e-01 -6.654505133628845215e-01 -6.108039617538452148e-02
-2.808776199817657471e-01 -6.841554641723632812e-01 2.402820289134979248e-01
-2.196715772151947021e-01 -5.522286295890808105e-01 -2.919768691062927246e-01
-2.218642085790634155e-01 -7.136967182159423828e-01 1.612102389335632324e-01
-2.336977422237396240e-01 -5.146501064300537109e-01 4.706100374460220337e-02
-2.678646147251129150e-01 -7.011924982070922852e-01 1.452394723892211914e-01
-2.426449358463287354e-01 -6.905523538589477539e-01 5.383954644203186035e-01
-2.061390727758407593e-01 -5.753533840179443359e-01 8.990366756916046143e-02
-2.792480289936065674e-01 -6.868609189987182617e-01 2.186272442340850830e-01
-2.859643399715423584e-01 -6.072172522544860840e-01 1.401708871126174927e-01
-2.644359469413757324e-01 -5.284989476203918457e-01 9.904132038354873657e-02
-2.044203132390975952e-01 -6.337878108024597168e-01 -5.359333753585815430e-02
-2.100123912096023560e-01 -6.835849285125732422e-01 1.033508405089378357e-01
-2.716666460037231445e-01 -6.786071062088012695e-01 5.051712393760681152e-01
-2.063968628644943237e-01 -5.733742117881774902e-01 -1.861804276704788208e-01
-2.080779820680618286e-01 -5.568693876266479492e-01 3.905112296342849731e-02
-2.803716063499450684e-01 -6.839060783386230469e-01 4.146150350570678711e-01
-2.821205258369445801e-01 -6.705615520477294922e-01 3.987755775451660156e-01
-2.259517610073089600e-01 -5.603207349777221680e-01 2.248172014951705933e-01
-2.624052762985229492e-01 -5.825374126434326172e-01 -2.054761201143264771e-01
-2.325275540351867676e-01 -5.014050006866455078e-01 -2.347714453935623169e-01
-2.248835712671279907e-01 -6.292638778686523438e-01 4.009586572647094727e-01
-2.053352743387222290e-01 -5.897535681724548340e-01 1.272716522216796875e-01
-2.504058778285980225e-01 -7.441186308860778809e-01 4.052374958992004395e-01
-2.427368909120559692e-01 -7.438639402389526367e-01 3.645449578762054443e-01
-2.646232843399047852e-01 -5.351734161376953125e-01 -1.857871860265731812e-01
-2.024787068367004395e-01 -5.731609463691711426e-01 -8.305555582046508789e-02
-2.533149719238281250e-01 -5.466393232345581055e-01 2.350593805313110352e-01
-2.700088620185852051e-01 -6.926646828651428223e-01 1.239740699529647827e-01
-2.099536210298538208e-01 -6.676622629165649414e-01 7.801890373229980469e-03
-2.278549671173095703e-01 -6.668982505798339844e-01 -9.311920404434204102e-02
-2.181987315416336060e-01 -7.007536888122558594e-01 1.034370288252830505e-01
-2.030886709690093994e-01 -6.315316557884216309e-01 -3.588750958442687988e-02
-2.254688739776611328e-01 -5.148360133171081543e-01 -2.723088860511779785e-01
-2.670425772666931152e-01 -7.119966745376586914e-01 1.970170736312866211e-01
-2.217429727315902710e-01 -5.230290293693542480e-01 2.088636159896850586e-02
-2.028563171625137329e-01 -6.482641696929931641e-01 5.463507026433944702e-02
-2.229816317558288574e-01 -5.080521702766418457e-01 -1.010921448469161987e-01
-2.140523344278335571e-01 -5.493371486663818359e-01 8.714724332094192505e-02
-2.556647062301635742e-01 -5.531782507896423340e-01 -2.610856890678405762e-01
-2.263742685317993164e-01 -5.063275098800659180e-01 -7.151390612125396729e-02
-2.655085623264312744e-01 -6.579035520553588867e-01 -3.663201630115509033e-02
-2.664341926574707031e-01 -5.628343820571899414e-01 -1.888728290796279907e-01
-2.183044850826263428e-01 -6.757650375366210938e-01 4.017229676246643066e-01
-2.326226979494094849e-01 -5.489825010299682617e-01 -3.178581595420837402e-01
-2.510814964771270752e-01 -5.920339822769165039e-01 -2.467828243970870972e-01
-2.006660401821136475e-01 -6.058732867240905762e-01 4.603166878223419189e-02
-2.610321640968322754e-01 -6.182328462600708008e-01 -1.594132930040359497e-01
-2.818429172039031982e-01 -5.746358036994934082e-01 1.474415957927703857e-01
-2.863569557666778564e-01 -6.151358485221862793e-01 2.180421352386474609e-01
-2.469597160816192627e-01 -4.971493780612945557e-01 -1.246102005243301392e-01
-2.011736035346984863e-01 -5.979454517364501953e-01 -6.361243128776550293e-02
-2.405113279819488525e-01 -7.266238927841186523e-01 1.696093082427978516e-01
-2.691306769847869873e-01 -5.580811500549316406e-01 2.327740490436553955e-01
-2.105472385883331299e-01 -6.189441084861755371e-01 2.683269381523132324e-01
-2.198148518800735474e-01 -5.326722264289855957e-01 6.090133637189865112e-02
-2.300818860530853271e-01 -5.930246710777282715e-01 -2.753288149833679199e-01
-2.438337504863739014e-01 -5.830495953559875488e-01 -2.788360118865966797e-01
-2.745251655578613281e-01 -7.112379074096679688e-01 4.267629384994506836e-01
-2.585694193840026855e-01 -5.847474932670593262e-01 -2.245740443468093872e-01
-2.839293479919433594e-01 -6.377316713333129883e-01 3.485888838768005371e-01
-2.766310274600982666e-01 -6.198446750640869141e-01 -3.638541698455810547e-02
-2.741656899452209473e-01 -6.483398675918579102e-01 4.633324742317199707e-01
-2.778362035751342773e-01 -5.992471575736999512e-01 -5.167363584041595459e-02
-2.202678024768829346e-01 -6.273282170295715332e-01 3.685443401336669922e-01
-2.450434565544128418e-01 -7.289828658103942871e-01 1.877770572900772095e-01
-2.226247787475585938e-01 -5.531924962997436523e-01 1.777926981449127197e-01
-2.829495370388031006e-01 -6.151381134986877441e-01 3.138326406478881836e-01
-2.093925178050994873e-01 -5.365655422210693359e-01 -9.844823181629180908e-02
-2.181465029716491699e-01 -6.516709327697753906e-01 3.869948983192443848e-01
-2.755275070667266846e-01 -5.450136661529541016e-01 -1.939706504344940186e-02
-2.147473394870758057e-01 -5.386023521423339844e-01 3.928821533918380737e-02
-2.819024920463562012e-01 -5.841186642646789551e-01 2.105747461318969727e-01
-2.227509021759033203e-01 -6.084121465682983398e-01 3.463401794433593750e-01
-2.659059762954711914e-01 -6.322266459465026855e-01 -1.012314856052398682e-01
-2.639209032058715820e-01 -6.801193356513977051e-01 2.680101990699768066e-02
-2.421308904886245728e-01 7.531229257583618164e-01 2.810942828655242920e-01
-1.661247462034225464e-01 2.655281424522399902e-01 3.074629604816436768e-02
-2.532064318656921387e-01 4.818104803562164307e-01 2.934080362319946289e-02
-1.111312136054039001e-01 3.677065074443817139e-01 3.733898401260375977e-01
-2.207069993019104004e-01 7.219828963279724121e-01 4.337853789329528809e-01
-1.984911412000656128e-01 5.843097567558288574e-01 2.319713234901428223e-01
-1.353113204240798950e-01 3.568801879882812500e-01 2.305101156234741211e-01
-2.392204850912094116e-01 6.948674917221069336e-01 3.603124618530273438e-01
-1.923801451921463013e-01 3.266564309597015381e-01 1.920253038406372070e-03
-2.500268518924713135e-01 6.219855546951293945e-01 2.487330138683319092e-01
-1.699854284524917603e-01 6.038956642150878906e-01 4.036014676094055176e-01
-2.653245925903320312e-01 5.990516543388366699e-01 1.441820710897445679e-01
-1.562959700822830200e-01 2.259780168533325195e-01 1.757852435111999512e-01
-2.777737975120544434e-01 6.891310214996337891e-01 1.847922503948211670e-01
-1.936534494161605835e-01 5.855939984321594238e-01 2.541021108627319336e-01
-2.509858906269073486e-01 5.610232353210449219e-01 1.732912063598632812e-01
-1.516076028347015381e-01 1.579346656799316406e-01 1.755268871784210205e-02
-1.107404381036758423e-01 3.272221386432647705e-01 3.157500624656677246e-01
-1.026027575135231018e-01 2.951528728008270264e-01 3.193365335464477539e-01
-2.496876418590545654e-01 4.629393815994262695e-01 1.280573010444641113e-02
-2.435303032398223877e-01 4.359584450721740723e-01 6.772309541702270508e-03
-2.165950238704681396e-01 3.681935369968414307e-01 8.454865217208862305e-02
-1.390965878963470459e-01 5.162107348442077637e-01 4.656277894973754883e-01
-2.357877790927886963e-01 5.054354667663574219e-01 1.793027818202972412e-01
-2.890970408916473389e-01 7.820225954055786133e-01 1.863408684730529785e-01
-1.844692528247833252e-01 3.491867184638977051e-01 3.986911475658416748e-02
-2.140219509601593018e-01 4.750843048095703125e-01 2.423676401376724243e-01
-1.276811808347702026e-01 3.771827518939971924e-01 4.379003643989562988e-01
-2.334084510803222656e-01 7.324185371398925781e-01 2.866069078445434570e-01
-2.628524899482727051e-01 6.950433254241943359e-01 2.657659053802490234e-01
-1.515079140663146973e-01 4.397115111351013184e-01 2.562480866909027100e-01
-1.269852817058563232e-01 1.388776898384094238e-01 1.742331683635711670e-01
-8.576135337352752686e-02 2.134107053279876709e-01 3.168514072895050049e-01
-8.521278947591781616e-02 1.812117397785186768e-01 2.807083427906036377e-01
-1.425496339797973633e-01 4.279710054397583008e-01 2.835406064987182617e-01
-2.055761218070983887e-01 5.288598537445068359e-01 3.338888883590698242e-01
-9.949725121259689331e-02 2.253450006246566772e-01 2.509105801582336426e-01
-2.743913829326629639e-01 7.427619695663452148e-01 2.568489611148834229e-01
-8.754409104585647583e-02 1.264782845973968506e-01 2.901788949966430664e-01
-1.751626878976821899e-01 5.595967769622802734e-01 3.032718598842620850e-01
-2.405844628810882568e-01 6.682884097099304199e-01 1.734979748725891113e-01
-1.212276294827461243e-01 3.666909337043762207e-01 3.113068640232086182e-01
-2.208469510078430176e-01 5.156108736991882324e-01 7.597047090530395508e-02
-1.436921209096908569e-01 1.299187839031219482e-01 6.488411128520965576e-02
-1.895261257886886597e-01 3.011242151260375977e-01 1.275920569896697998e-01
-2.146619409322738647e-01 7.438954114913940430e-01 4.187473654747009277e-01
-2.245736122131347656e-01 3.607231080532073975e-01 -5.689561367034912109e-04
-1.646719723939895630e-01 2.163162678480148315e-01 6.296560168266296387e-03
-1.862863302230834961e-01 3.006086945533752441e-01 4.298239946365356445e-04
-1.461533755064010620e-01 4.498699009418487549e-01 2.946381866931915283e-01
-1.322101205587387085e-01 2.617366313934326172e-01 1.436542570590972900e-01
-2.035897076129913330e-01 3.211212158203125000e-01 8.232827484607696533e-02
-1.225248351693153381e-01 1.468884646892547607e-01 2.048622816801071167e-01
-2.356496304273605347e-01 4.388562440872192383e-01 8.487617969512939453e-02
-2.639785110950469971e-01 7.955533862113952637e-01 2.619419991970062256e-01
-1.702654212713241577e-01 5.375258326530456543e-01 2.961237728595733643e-01
-9.540868550539016724e-02 1.792953014373779297e-01 3.332540988922119141e-01
-2.275168001651763916e-01 4.149199724197387695e-01 9.578441083431243896e-02
-1.267316341400146484e-01 3.944515287876129150e-01 4.524928927421569824e-01
-1.771484166383743286e-01 3.760083913803100586e-01 8.656677603721618652e-02
-1.853194236755371094e-01 3.608721792697906494e-01 2.282179594039916992e-01
-2.050105035305023193e-01 5.732443928718566895e-01 1.923632472753524780e-01
-2.719910442829132080e-01 7.767023444175720215e-01 2.067978233098983765e-01
-1.873064041137695312e-01 6.316856145858764648e-01 3.506390750408172607e-01
-2.067409753799438477e-01 4.516434073448181152e-01 5.997011065483093262e-02
-1.184686124324798584e-01 3.688662648200988770e-01 3.295222222805023193e-01
-2.651188671588897705e-01 6.629014015197753906e-01 2.222090661525726318e-01
-2.007410079240798950e-01 6.049774289131164551e-01 2.489462196826934814e-01
-2.352250367403030396e-01 4.647792875766754150e-01 1.273202449083328247e-01
-1.055381894111633301e-01 3.439472317695617676e-01 3.734450936317443848e-01
-1.070367172360420227e-01 1.553220748901367188e-01 1.498548686504364014e-01
-1.986345797777175903e-01 7.050313949584960938e-01 4.371064901351928711e-01
-2.554090023040771484e-01 7.739695310592651367e-01 3.570029139518737793e-01
-1.002935245633125305e-01 3.415301442146301270e-01 4.317825436592102051e-01
-1.378569155931472778e-01 1.678107380867004395e-01 5.099634826183319092e-02
-9.071819484233856201e-02 2.742905914783477783e-01 3.724462985992431641e-01
-2.825424075126647949e-01 7.763468027114868164e-01 2.432895749807357788e-01
-2.883675694465637207e-01 7.706116437911987305e-01 2.017948031425476074e-01
-2.273096591234207153e-01 7.276474237442016602e-01 3.065072894096374512e-01
-1.705080866813659668e-01 2.330490201711654663e-01 8.774846792221069336e-04
-1.346415132284164429e-01 3.436959981918334961e-01 3.909972310066223145e-01
-2.294476628303527832e-01 6.597255468368530273e-01 3.667460381984710693e-01
-1.505132019519805908e-01 3.856478035449981689e-01 1.971979588270187378e-01
-2.625337243080139160e-01 6.291485428810119629e-01 6.848737597465515137e-02
-2.351783812046051025e-01 6.764249801635742188e-01 2.027966827154159546e-01
-9.863185882568359375e-02 2.470458447933197021e-01 2.804878652095794678e-01
-2.443693727254867554e-01 6.913548707962036133e-01 3.384934663772583008e-01
-2.437369823455810547e-01 7.861330509185791016e-01 3.322450220584869385e-01
-9.700564295053482056e-02 2.818827033042907715e-01 3.357065320014953613e-01
-1.203757748007774353e-01 9.441834688186645508e-02 1.215009242296218872e-01
-1.804857850074768066e-01 3.373804986476898193e-01 2.194811850786209106e-01
-2.465448379516601562e-01 5.911906957626342773e-01 2.307783663272857666e-01
-2.337414622306823730e-01 5.569992661476135254e-01 7.673995196819305420e-02
-2.744574546813964844e-01 6.029960513114929199e-01 8.608742058277130127e-02
-1.981122940778732300e-01 4.980379045009613037e-01 3.307961225509643555e-01
-2.236200273036956787e-01 5.460858941078186035e-01 9.703686833381652832e-02
-1.217048019170761108e-01 4.004673659801483154e-01 3.570089340209960938e-01
-2.336414158344268799e-01 5.358002185821533203e-01 2.263252735137939453e-01
-1.284397989511489868e-01 3.019934296607971191e-01 3.688313961029052734e-01
-1.644690483808517456e-01 3.079744577407836914e-01 2.492460757493972778e-01
-2.066106349229812622e-01 4.221619367599487305e-01 2.113478332757949829e-01
-9.488292038440704346e-02 3.085052371025085449e-01 4.026839733123779297e-01
-2.783038318157196045e-01 7.174062728881835938e-01 1.199898868799209595e-01
-9.838215261697769165e-02 2.034636437892913818e-01 2.329614013433456421e-01
-1.407360881567001343e-01 2.864354252815246582e-01 3.127241134643554688e-01
-1.789327114820480347e-01 6.369775533676147461e-01 4.112202823162078857e-01
-2.674400210380554199e-01 5.776756405830383301e-01 9.916275739669799805e-02
-1.793625056743621826e-01 3.683711290359497070e-01 2.618087232112884521e-01
-2.261430174112319946e-01 6.091032028198242188e-01 1.556087583303451538e-01
-1.362407058477401733e-01 4.536861777305603027e-01 4.724767804145812988e-01
-2.408913969993591309e-01 5.859214067459106445e-01 2.504017651081085205e-01
-1.641435474157333374e-01 3.600883185863494873e-01 3.106859922409057617e-01
-1.024252101778984070e-01 3.501038551330566406e-01 4.153743684291839600e-01
-2.626498341560363770e-01 5.756629705429077148e-01 1.278307437896728516e-01
-1.963008344173431396e-01 5.211458206176757812e-01 3.599799275398254395e-01
-1.849408149719238281e-01 4.658939540386199951e-01 3.463810682296752930e-01
-1.991180926561355591e-01 5.557321310043334961e-01 1.947071105241775513e-01
-2.264558970928192139e-01 6.866049766540527344e-01 2.500370442867279053e-01
-1.483972370624542236e-01 4.165773391723632812e-01 2.420985847711563110e-01
-2.872955203056335449e-01 7.106053829193115234e-01 1.462442874908447266e-01
-2.400429099798202515e-01 5.826579332351684570e-01 8.311186730861663818e-02
-2.143350243568420410e-01 3.383069038391113281e-01 4.343667626380920410e-02
-1.076629757881164551e-01 3.023140430450439453e-01 4.209045171737670898e-01
-2.460372745990753174e-01 6.513168215751647949e-01 1.359902024269104004e-01
-1.874186992645263672e-01 6.562014818191528320e-01 3.942386507987976074e-01
-2.228792607784271240e-01 4.457139670848846436e-01 1.652352511882781982e-01
-1.820752471685409546e-01 3.934808373451232910e-01 2.799948155879974365e-01
-2.829762697219848633e-01 6.574642658233642578e-01 1.034718453884124756e-01
-2.450720369815826416e-01 4.451861381530761719e-01 2.099213004112243652e-02
-1.330292522907257080e-01 3.925842642784118652e-01 4.375995993614196777e-01
-1.618599444627761841e-01 3.134000897407531738e-01 2.660630345344543457e-01
-2.335280328989028931e-01 5.147361159324645996e-01 3.919522464275360107e-02
-1.089169830083847046e-01 3.856667280197143555e-01 4.351142644882202148e-01
-2.297678589820861816e-01 6.336164474487304688e-01 1.708714365959167480e-01
-1.842833906412124634e-01 5.201256275177001953e-01 3.994211256504058838e-01
-1.612370163202285767e-01 5.366346240043640137e-01 3.402374386787414551e-01
-1.957617402076721191e-01 6.738228797912597656e-01 3.772867321968078613e-01
-1.950978338718414307e-01 3.810763061046600342e-01 3.431382775306701660e-02
-1.247505694627761841e-01 2.312503606081008911e-01 1.446393430233001709e-01
-1.819167733192443848e-01 2.736678719520568848e-01 -4.510045051574707031e-03
-2.407380193471908569e-01 4.793620407581329346e-01 1.175739765167236328e-01
-1.538254320621490479e-01 5.624986290931701660e-01 4.858055710792541504e-01
-9.887678176164627075e-02 1.421478390693664551e-01 1.736411750316619873e-01
-1.072026938199996948e-01 3.737746477127075195e-01 4.199628233909606934e-01
-9.114304929971694946e-02 2.623596489429473877e-01 4.109219908714294434e-01
-2.461532056331634521e-01 7.569417953491210938e-01 3.787561655044555664e-01
-1.065967082977294922e-01 2.456633150577545166e-01 3.735270500183105469e-01
-1.503468155860900879e-01 5.127177834510803223e-01 3.633895218372344971e-01
-1.988710016012191772e-01 4.609590172767639160e-01 2.889364957809448242e-01
-1.356487274169921875e-01 5.022502541542053223e-01 4.577143192291259766e-01
-1.389281451702117920e-01 1.538794636726379395e-01 4.158991575241088867e-02
-9.208587557077407837e-02 2.692797183990478516e-01 3.516810238361358643e-01
-2.488399147987365723e-01 7.061989903450012207e-01 3.337939679622650146e-01
-1.311461031436920166e-01 4.232714772224426270e-01 3.360731601715087891e-01
-1.538973450660705566e-01 2.450452148914337158e-01 2.124321609735488892e-01
-8.015167713165283203e-02 1.699094176292419434e-01 3.447640240192413330e-01
-1.907811015844345093e-01 2.893319129943847656e-01 -1.475302875041961670e-02
-2.847028970718383789e-01 7.316380739212036133e-01 1.250787377357482910e-01
-2.192725092172622681e-01 7.399859428405761719e-01 3.704059123992919922e-01
-1.561293751001358032e-01 4.410668313503265381e-01 2.371599823236465454e-01
-1.611390560865402222e-01 3.438496589660644531e-01 1.126247942447662354e-01
-1.034293323755264282e-01 3.284740149974822998e-01 3.630147576332092285e-01
-2.598866224288940430e-01 5.717779994010925293e-01 2.752505242824554443e-02
-1.933453530073165894e-01 4.668669104576110840e-01 1.188003495335578918e-01
-2.150887548923492432e-01 4.047893583774566650e-01 1.484112739562988281e-01
-2.855039536952972412e-01 7.646614313125610352e-01 2.168787419795989990e-01
-2.547058463096618652e-01 6.115148067474365234e-01 2.154319584369659424e-01
-2.750144004821777344e-01 6.434908509254455566e-01 1.447269916534423828e-01
-1.731490790843963623e-01 6.301092505455017090e-01 4.430883228778839111e-01
-1.225468814373016357e-01 1.218176782131195068e-01 1.656049191951751709e-01
-2.291545271873474121e-01 4.601011872291564941e-01 1.530020236968994141e-01
-1.431238949298858643e-01 5.092552304267883301e-01 4.029778540134429932e-01
-2.703575491905212402e-01 7.138034105300903320e-01 2.492518424987792969e-01
-1.258189976215362549e-01 4.244363307952880859e-01 3.692755401134490967e-01
-1.847678571939468384e-01 4.959825575351715088e-01 1.820830255746841431e-01
-2.192122787237167358e-01 3.494671285152435303e-01 2.895495295524597168e-02
-1.855897009372711182e-01 4.097631275653839111e-01 2.845645248889923096e-01
-2.057188600301742554e-01 7.153659462928771973e-01 4.026809334754943848e-01
-1.220200508832931519e-01 3.870078027248382568e-01 3.351421952247619629e-01
-9.393149614334106445e-02 2.057703882455825806e-01 2.582286000251770020e-01
-2.649909257888793945e-01 7.952048182487487793e-01 3.328646421432495117e-01
-1.551131904125213623e-01 5.193885564804077148e-01 3.470400571823120117e-01
-2.210560142993927002e-01 6.796839237213134766e-01 4.096250832080841064e-01
-2.599015235900878906e-01 7.036091089248657227e-01 1.517816781997680664e-01
-2.441791594028472900e-01 7.441259622573852539e-01 2.590682506561279297e-01
-2.655989825725555420e-01 8.128339052200317383e-01 2.884538471698760986e-01
-1.797429919242858887e-01 4.986273944377899170e-01 2.052722871303558350e-01
-2.126553356647491455e-01 5.282356739044189453e-01 1.149338483810424805e-01
-2.506598830223083496e-01 5.712862014770507812e-01 1.877237558364868164e-01
-2.727884054183959961e-01 6.684461832046508789e-01 1.888352036476135254e-01
-1.317725181579589844e-01 3.729466199874877930e-01 2.660451233386993408e-01
-2.248799204826354980e-01 4.770971536636352539e-01 1.960301101207733154e-01
-1.882759779691696167e-01 4.158134460449218750e-01 8.616119623184204102e-02
-1.874296665191650391e-01 4.886300265789031982e-01 1.635707020759582520e-01
-1.713054478168487549e-01 3.017109632492065430e-01 2.131476402282714844e-01
-1.382868736982345581e-01 3.200840353965759277e-01 3.567777872085571289e-01
-1.356649994850158691e-01 4.956526458263397217e-01 4.339491128921508789e-01
-2.607835233211517334e-01 8.182620406150817871e-01 3.265734910964965820e-01
-1.376333534717559814e-01 4.726203083992004395e-01 3.741817176342010498e-01
-1.699077337980270386e-01 6.139680147171020508e-01 4.267034232616424561e-01
-1.561463028192520142e-01 5.755930542945861816e-01 4.513486623764038086e-01
-2.171270847320556641e-01 5.664423108100891113e-01 1.399969905614852905e-01
-1.283803880214691162e-01 2.392871677875518799e-01 3.018012940883636475e-01
-2.627061605453491211e-01 6.690206527709960938e-01 1.063297837972640991e-01
-2.730178236961364746e-01 6.923164129257202148e-01 2.142347246408462524e-01
-1.379301846027374268e-01 4.496498107910156250e-01 3.369397521018981934e-01
-1.898550689220428467e-01 5.989028811454772949e-01 4.445883035659790039e-01
-1.288418024778366089e-01 2.905932068824768066e-01 3.560940921306610107e-01
-1.829163879156112671e-01 6.594308614730834961e-01 4.380121529102325439e-01
-1.933047175407409668e-01 5.613608360290527344e-01 4.059203565120697021e-01
-1.230993494391441345e-01 3.241682052612304688e-01 2.487014681100845337e-01
-2.340603023767471313e-01 6.046230792999267578e-01 1.239089369773864746e-01
-2.411656379699707031e-01 5.246412754058837891e-01 1.770376116037368774e-01
-1.657267361879348755e-01 4.483283162117004395e-01 2.046341001987457275e-01
-2.388456761837005615e-01 4.293530583381652832e-01 4.428385198116302490e-02
-1.717868149280548096e-01 5.717737078666687012e-01 3.379714190959930420e-01
-1.626697033643722534e-01 3.346473574638366699e-01 9.851235151290893555e-02
-2.042843550443649292e-01 6.265572309494018555e-01 2.622876167297363281e-01
-9.320513904094696045e-02 2.194001823663711548e-01 3.774912655353546143e-01
-1.522549837827682495e-01 1.487724781036376953e-01 5.487966537475585938e-02
-1.652067452669143677e-01 2.359436154365539551e-01 1.492633223533630371e-01
-1.755149662494659424e-01 2.518566846847534180e-01 -1.346468925476074219e-03
-2.409466356039047241e-01 6.103531122207641602e-01 1.081806868314743042e-01
-9.342961758375167847e-02 2.304022312164306641e-01 2.895800471305847168e-01
-1.370581239461898804e-01 2.617407739162445068e-01 2.976027131080627441e-01
-9.228032082319259644e-02 1.304042041301727295e-01 1.941698789596557617e-01
-2.384100258350372314e-01 4.144019782543182373e-01 9.592026472091674805e-04
-1.749691218137741089e-01 3.193352520465850830e-01 2.201323211193084717e-01
-2.338573932647705078e-01 5.770972967147827148e-01 2.712727785110473633e-01
-1.081633418798446655e-01 2.015147656202316284e-01 1.857229918241500854e-01
-1.780471205711364746e-01 6.183888316154479980e-01 3.800216019153594971e-01
-2.719393968582153320e-01 5.777798295021057129e-01 5.668242275714874268e-02
-1.298728883266448975e-01 3.813039064407348633e-01 2.858071625232696533e-01
-2.248568534851074219e-01 6.128991842269897461e-01 3.424885272979736328e-01
-1.161051541566848755e-01 3.034704327583312988e-01 4.037390351295471191e-01
-1.937408298254013062e-01 6.310532689094543457e-01 3.168918192386627197e-01
-2.249846756458282471e-01 7.132867574691772461e-01 2.946630716323852539e-01
-1.948644965887069702e-01 3.481286168098449707e-01 1.007188856601715088e-02
-1.828424185514450073e-01 6.149271130561828613e-01 3.472369909286499023e-01
-2.765284180641174316e-01 6.643576025962829590e-01 1.623690128326416016e-01
-2.668057382106781006e-01 5.520082116127014160e-01 5.522336065769195557e-02
-1.635875999927520752e-01 3.885490596294403076e-01 1.479243040084838867e-01
-1.887776851654052734e-01 5.176802873611450195e-01 1.910921037197113037e-01
-1.632802933454513550e-01 3.820772767066955566e-01 3.372663855552673340e-01
-2.334803044795989990e-01 7.639846205711364746e-01 3.402184247970581055e-01
-2.177044600248336792e-01 6.182532310485839844e-01 3.730049133300781250e-01
-1.538858711719512939e-01 4.280693829059600830e-01 4.117670059204101562e-01
-1.793195009231567383e-01 6.127921342849731445e-01 3.629145622253417969e-01
-1.024022847414016724e-01 1.147547066211700439e-01 1.394727677106857300e-01
-2.286958992481231689e-01 5.953141450881958008e-01 3.110096454620361328e-01
-2.711319923400878906e-01 6.590133905410766602e-01 7.761579751968383789e-02
-2.386257201433181763e-01 7.582631111145019531e-01 3.048115968704223633e-01
-1.393387168645858765e-01 3.140901923179626465e-01 1.668238341808319092e-01
-1.654119044542312622e-01 5.521847605705261230e-01 3.416619896888732910e-01
-2.598292827606201172e-01 8.107247352600097656e-01 3.082039952278137207e-01
-1.433915793895721436e-01 5.320062041282653809e-01 4.613320529460906982e-01
-8.664885163307189941e-02 2.301736325025558472e-01 3.338848948478698730e-01
-2.442587614059448242e-01 7.350454330444335938e-01 2.457233220338821411e-01
-2.048311978578567505e-01 5.321575403213500977e-01 1.464996933937072754e-01
-1.495660990476608276e-01 2.323037683963775635e-01 5.704012513160705566e-02
-8.557889610528945923e-02 1.393840909004211426e-01 2.359743565320968628e-01
-2.077857851982116699e-01 6.880133152008056641e-01 3.366550505161285400e-01
-1.244666725397109985e-01 4.566953778266906738e-01 4.521461725234985352e-01
-1.488645523786544800e-01 3.192751407623291016e-01 1.345737278461456299e-01
-1.399071365594863892e-01 5.075563192367553711e-01 4.241223037242889404e-01
-1.225108280777931213e-01 4.344097375869750977e-01 4.107264876365661621e-01
-9.637332707643508911e-02 2.621571421623229980e-01 3.124673962593078613e-01
-2.045829743146896362e-01 6.761909723281860352e-01 4.521597325801849365e-01
-1.887153834104537964e-01 3.453146815299987793e-01 2.455237507820129395e-02
-1.214274168014526367e-01 1.758312582969665527e-01 2.488013803958892822e-01
-2.538052201271057129e-01 4.814517498016357422e-01 1.064462959766387939e-02
-2.252244055271148682e-01 5.174745321273803711e-01 2.426416724920272827e-01
-2.004985511302947998e-01 5.728526711463928223e-01 2.096658051013946533e-01
-1.831953972578048706e-01 5.508815050125122070e-01 4.282190203666687012e-01
-1.788354367017745972e-01 2.306462675333023071e-01 -1.265622675418853760e-02
-1.604874581098556519e-01 5.922333002090454102e-01 4.608832597732543945e-01
-1.608904302120208740e-01 3.190471529960632324e-01 9.054096043109893799e-02
-2.743627130985260010e-01 7.524037361145019531e-01 1.684740334749221802e-01
-1.158125102519989014e-01 2.475183755159378052e-01 1.977281123399734497e-01
-1.326207816600799561e-01 2.266148924827575684e-01 2.719125449657440186e-01
-2.163434028625488281e-01 6.742667555809020996e-01 2.756569385528564453e-01
-1.409610211849212646e-01 2.383034974336624146e-01 9.039071202278137207e-02
-1.750223189592361450e-01 3.223876655101776123e-01 4.697905480861663818e-02
-1.986146122217178345e-01 3.229328989982604980e-01 -1.382268965244293213e-02
-1.409956216812133789e-01 1.844015717506408691e-01 1.828791052103042603e-01
-2.595201134681701660e-01 6.959404945373535156e-01 2.812971770763397217e-01
-2.478570938110351562e-01 4.958430230617523193e-01 9.997293353080749512e-02
-1.552439928054809570e-01 3.097207546234130859e-01 2.869348824024200439e-01
-2.769676148891448975e-01 8.173278570175170898e-01 2.616918981075286865e-01
-2.780196666717529297e-01 7.836717963218688965e-01 2.715363204479217529e-01
-1.063421890139579773e-01 3.227291703224182129e-01 3.352723717689514160e-01
-1.304035782814025879e-01 1.207391619682312012e-01 1.264691203832626343e-01
-2.889857292175292969e-01 7.371267080307006836e-01 1.644393801689147949e-01
-1.669891774654388428e-01 5.077880024909973145e-01 2.717481851577758789e-01
-2.316806018352508545e-01 7.185299396514892578e-01 4.020525813102722168e-01
-1.682042926549911499e-01 5.838183760643005371e-01 3.773804008960723877e-01
-2.671700119972229004e-01 7.828676104545593262e-01 2.307858765125274658e-01
-2.864987850189208984e-01 6.978069543838500977e-01 1.353728175163269043e-01
-1.023637503385543823e-01 2.018634229898452759e-01 2.122407406568527222e-01
-1.254435628652572632e-01 4.046360254287719727e-01 3.411395549774169922e-01
-1.016350761055946350e-01 2.237096577882766724e-01 3.641369342803955078e-01
-9.986595809459686279e-02 1.405455470085144043e-01 2.756654918193817139e-01
-1.463123261928558350e-01 4.914662837982177734e-01 3.530258834362030029e-01
-2.249106168746948242e-01 3.981629014015197754e-01 8.411477506160736084e-02
-8.809175342321395874e-02 1.087929904460906982e-01 1.987104713916778564e-01
-2.107528299093246460e-01 6.039229631423950195e-01 2.067532986402511597e-01
