-5.144964903593063354e-02 -6.402214169502258301e-01 -1.302150450646877289e-02
1.716125290840864182e-03 -3.106921017169952393e-01 3.273839876055717468e-02
6.818340159952640533e-03 -6.374422907829284668e-01 -3.635216504335403442e-02
-2.278720214962959290e-02 -4.276666939258575439e-01 4.134199395775794983e-02
-2.214313670992851257e-02 -3.198252320289611816e-01 3.529275208711624146e-02
-1.220521517097949982e-02 -5.866300463676452637e-01 4.090448096394538879e-02
3.146103397011756897e-02 -4.524440169334411621e-01 -8.285084739327430725e-03
-4.880803078413009644e-02 -3.424704968929290771e-01 3.264762926846742630e-04
1.717459410429000854e-02 -3.781778216361999512e-01 -8.888082578778266907e-03
4.611109197139739990e-02 -6.290068626403808594e-01 1.865941099822521210e-02
-5.381208658218383789e-02 -5.206362009048461914e-01 1.713658683001995087e-02
8.065282367169857025e-03 -4.648874998092651367e-01 -2.615710161626338959e-02
1.257593464106321335e-02 -3.784333467483520508e-01 -1.241500489413738251e-02
-3.797242790460586548e-02 -4.857328236103057861e-01 3.440712764859199524e-02
1.069067418575286865e-02 -3.969397544860839844e-01 -1.663092896342277527e-02
-3.801395371556282043e-02 -5.789701938629150391e-01 -3.013699315488338470e-02
-4.528213292360305786e-03 -4.958768188953399658e-01 4.448541998863220215e-02
4.169698804616928101e-02 -6.855344772338867188e-01 -1.652037166059017181e-02
-5.830958858132362366e-02 -4.653279483318328857e-01 4.015318118035793304e-04
6.560270674526691437e-03 -8.626616001129150391e-01 8.975785225629806519e-03
-2.478877082467079163e-02 -5.555893778800964355e-01 3.868593648076057434e-02
-1.444579940289258957e-02 -8.492015600204467773e-01 2.682766877114772797e-03
-2.014615759253501892e-02 -6.433454751968383789e-01 3.489134460687637329e-02
1.391415018588304520e-02 -3.106636106967926025e-01 1.071654446423053741e-02
-5.826757848262786865e-02 -4.683917462825775146e-01 6.003085058182477951e-03
-5.858685076236724854e-02 -5.013817548751831055e-01 -4.779007285833358765e-04
3.241875022649765015e-02 -5.738252997398376465e-01 -2.144392021000385284e-02
3.315360844135284424e-02 -4.838470220565795898e-01 -1.137145422399044037e-02
-5.247751250863075256e-02 -6.412761211395263672e-01 -8.842194452881813049e-03
1.357432361692190170e-02 -3.798097372055053711e-01 3.700612485408782959e-02
-5.156509578227996826e-02 -3.727092742919921875e-01 1.704481244087219238e-02
-2.424483001232147217e-02 -8.109275698661804199e-01 5.936545319855213165e-03
-3.260517120361328125e-02 -5.710935592651367188e-01 3.420088440179824829e-02
-3.229914233088493347e-02 -5.791887044906616211e-01 3.388112410902976990e-02
-3.752130642533302307e-02 -5.607636570930480957e-01 3.176694735884666443e-02
-4.682161659002304077e-02 -5.545622706413269043e-01 -2.374175377190113068e-02
-5.262337625026702881e-02 -5.802212357521057129e-01 -1.647727005183696747e-02
-5.332205444574356079e-02 -5.451634526252746582e-01 -1.611037366092205048e-02
-3.184998780488967896e-02 -3.485503792762756348e-01 -1.486726291477680206e-02
-3.666316345334053040e-02 -7.390179038047790527e-01 -2.270526252686977386e-02
-2.424922585487365723e-02 -6.975108385086059570e-01 -3.454778715968132019e-02
-2.113220468163490295e-02 -8.381748199462890625e-01 -1.871043816208839417e-03
-5.350529402494430542e-02 -6.011236310005187988e-01 8.889130316674709320e-03
-3.684301301836967468e-02 -7.011120915412902832e-01 -2.713813260197639465e-02
-4.118676856160163879e-02 -5.303493738174438477e-01 3.071447461843490601e-02
4.793886095285415649e-02 -7.053343653678894043e-01 7.601941470056772232e-03
3.029620274901390076e-02 -5.287469625473022461e-01 -1.951239444315433502e-02
-1.581986993551254272e-02 -4.270745813846588135e-01 -2.682756446301937103e-02
4.019774496555328369e-02 -6.941636204719543457e-01 2.299213223159313202e-02
-1.463904045522212982e-03 -6.497187018394470215e-01 -3.778975456953048706e-02
-5.418240651488304138e-02 -5.729670524597167969e-01 -1.386228203773498535e-02
-8.194704540073871613e-03 -4.509044289588928223e-01 -2.866240777075290680e-02
3.434833139181137085e-02 -8.152654170989990234e-01 1.025431510061025620e-02
-4.857623204588890076e-02 -5.272474884986877441e-01 2.401088736951351166e-02
2.890528738498687744e-02 -6.115339994430541992e-01 3.546163812279701233e-02
1.162171829491853714e-02 -7.245652675628662109e-01 -3.519718721508979797e-02
-2.084024250507354736e-02 -8.247475624084472656e-01 5.186145659536123276e-03
-5.107783153653144836e-02 -6.156871914863586426e-01 1.187853142619132996e-02
-3.356911987066268921e-02 -3.978570103645324707e-01 3.634278848767280579e-02
5.908995866775512695e-03 -8.908940553665161133e-01 -9.226543828845024109e-03
-3.374735638499259949e-02 -7.844253778457641602e-01 -3.090074751526117325e-04
-1.725219935178756714e-02 -6.075437068939208984e-01 3.845369815826416016e-02
5.731604062020778656e-03 -5.448863506317138672e-01 -3.304900601506233215e-02
-3.445917740464210510e-02 -3.909845352172851562e-01 3.561007604002952576e-02
2.492561191320419312e-02 -8.626113533973693848e-01 -1.528746262192726135e-02
-5.157282948493957520e-02 -6.272386908531188965e-01 8.659927174448966980e-03
-2.865690737962722778e-02 -5.789867043495178223e-01 3.578995540738105774e-02
-1.804126054048538208e-02 -2.908441126346588135e-01 3.182618319988250732e-02
4.459684342145919800e-02 -6.395975947380065918e-01 2.099576219916343689e-02
2.771064639091491699e-02 -7.082895636558532715e-01 3.007067926228046417e-02
-4.744997248053550720e-02 -3.218003511428833008e-01 9.781107306480407715e-03
2.282954007387161255e-02 -3.750663995742797852e-01 2.903320267796516418e-02
-4.889470338821411133e-02 -6.205244064331054688e-01 1.498527079820632935e-02
3.209023922681808472e-02 -8.414499759674072266e-01 4.396991804242134094e-03
2.062247693538665771e-02 -3.354020118713378906e-01 1.607194915413856506e-02
-1.811476796865463257e-02 -6.179585456848144531e-01 3.750476986169815063e-02
-4.770531132817268372e-02 -6.028059720993041992e-01 1.893122494220733643e-02
-1.400389894843101501e-02 -5.943352580070495605e-01 -3.700128570199012756e-02
2.967387437820434570e-02 -4.575901925563812256e-01 3.290837258100509644e-02
-3.248248621821403503e-02 -7.327411174774169922e-01 1.651668921113014221e-02
-3.042386472225189209e-02 -6.946793198585510254e-01 2.416389994323253632e-02
-3.652577847242355347e-02 -2.777916193008422852e-01 8.901877328753471375e-03
-2.720029279589653015e-02 -6.519978642463684082e-01 3.093491494655609131e-02
3.278105333447456360e-02 -7.427042126655578613e-01 -2.447331883013248444e-02
-1.818137243390083313e-02 -4.986292719841003418e-01 -3.253120929002761841e-02
-4.163010045886039734e-02 -7.316558361053466797e-01 3.226589178666472435e-03
-3.164344280958175659e-02 -7.658356428146362305e-01 -2.382010966539382935e-02
-4.454800114035606384e-02 -3.098696470260620117e-01 5.204821471124887466e-03
-1.967357471585273743e-02 -5.421599149703979492e-01 -3.470971062779426575e-02
4.500057548284530640e-02 -7.648582458496093750e-01 -1.204556785523891449e-03
1.240637153387069702e-03 -8.659700155258178711e-01 6.731960456818342209e-03
-1.694406382739543915e-04 -8.195818066596984863e-01 1.831139810383319855e-02
-2.270010113716125488e-02 -5.908383131027221680e-01 -3.578156232833862305e-02
-4.918366670608520508e-02 -6.660177707672119141e-01 5.242781713604927063e-03
2.037253603339195251e-02 -3.618665337562561035e-01 2.911959215998649597e-02
-4.273796454071998596e-02 -4.498965740203857422e-01 -2.180190011858940125e-02
-5.107228830456733704e-02 -6.248439550399780273e-01 -1.610656641423702240e-02
-5.438794940710067749e-02 -5.679766535758972168e-01 -1.367181725800037384e-02
-5.191306397318840027e-02 -5.557453036308288574e-01 1.767638698220252991e-02
-5.297998711466789246e-02 -3.937563300132751465e-01 -4.706359934061765671e-03
1.389586273580789566e-02 -7.594989538192749023e-01 -3.343880176544189453e-02
-5.285029858350753784e-02 -5.321758985519409180e-01 1.801011152565479279e-02
-5.366071313619613647e-02 -6.243348717689514160e-01 -8.589288219809532166e-03
-8.416405878961086273e-03 -2.732263803482055664e-01 2.698649093508720398e-02
3.231140971183776855e-02 -4.224653840065002441e-01 2.493755519390106201e-02
3.436484560370445251e-02 -8.370026946067810059e-01 2.143410965800285339e-03
-2.300136536359786987e-02 -5.017963051795959473e-01 -3.219322860240936279e-02
4.309475794434547424e-02 -5.904794335365295410e-01 2.391185238957405090e-02
1.265710499137639999e-02 -3.969571590423583984e-01 3.900296241044998169e-02
3.763720393180847168e-02 -5.119705200195312500e-01 2.835762314498424530e-02
-1.804593950510025024e-02 -2.797666788101196289e-01 -2.008510287851095200e-03
-5.370890721678733826e-02 -5.680471658706665039e-01 1.326444372534751892e-02
-1.068830676376819611e-02 -6.664240956306457520e-01 -3.793967887759208679e-02
-7.203034590929746628e-03 -4.874719381332397461e-01 -3.158629313111305237e-02
1.136342342942953110e-02 -3.576005101203918457e-01 3.555379807949066162e-02
-3.803378343582153320e-02 -3.646706938743591309e-01 3.199615702033042908e-02
-3.572305664420127869e-02 -7.733535766601562500e-01 1.832924317568540573e-04
4.129106551408767700e-02 -5.377950072288513184e-01 -7.594894152134656906e-03
-9.181998670101165771e-03 -3.053430020809173584e-01 3.452724590897560120e-02
-5.635304376482963562e-02 -5.615763664245605469e-01 7.130591664463281631e-03
3.539464250206947327e-02 -4.974075555801391602e-01 3.005778603255748749e-02
1.748769357800483704e-02 -3.227340877056121826e-01 1.241859607398509979e-02
-2.231448888778686523e-02 -7.439387440681457520e-01 -3.264820948243141174e-02
-1.841406896710395813e-02 -3.728481531143188477e-01 4.047510772943496704e-02
-4.053010605275630951e-03 -6.127671003341674805e-01 4.076797515153884888e-02
-1.148644275963306427e-02 -7.762628793716430664e-01 -3.352364897727966309e-02
-1.418825145810842514e-02 -3.990406394004821777e-01 4.236523061990737915e-02
-5.851221829652786255e-02 -5.012707114219665527e-01 4.134729504585266113e-03
-4.467906057834625244e-02 -4.077594876289367676e-01 2.899570949375629425e-02
3.125269711017608643e-02 -5.344113111495971680e-01 -1.922688633203506470e-02
5.575049668550491333e-03 -6.939373612403869629e-01 3.551270812749862671e-02
-2.232510596513748169e-02 -3.374338150024414062e-01 3.706112131476402283e-02
3.013947233557701111e-02 -5.313214659690856934e-01 3.572786971926689148e-02
-2.421500533819198608e-02 -3.812317252159118652e-01 3.947030007839202881e-02
1.788282394409179688e-02 -8.623183965682983398e-01 -2.069487050175666809e-02
-2.851694822311401367e-02 -3.955402076244354248e-01 3.855713084340095520e-02
3.879350423812866211e-02 -4.838870167732238770e-01 -2.744491677731275558e-03
-4.647752642631530762e-02 -3.753430843353271484e-01 2.529403567314147949e-02
1.983311772346496582e-02 -8.404985666275024414e-01 -2.409077808260917664e-02
-3.998104855418205261e-02 -3.748755455017089844e-01 3.127556666731834412e-02
3.497055917978286743e-02 -4.239951372146606445e-01 6.943447515368461609e-03
4.644775018095970154e-02 -6.015192270278930664e-01 1.792022958397865295e-02
1.470027025789022446e-02 -8.453742265701293945e-01 -2.538201957941055298e-02
-5.328694824129343033e-03 -7.201347351074218750e-01 3.184457123279571533e-02
-4.812811687588691711e-02 -4.451998472213745117e-01 2.640300430357456207e-02
-4.474952816963195801e-02 -4.575691223144531250e-01 2.969791181385517120e-02
-3.312478959560394287e-02 -5.446619391441345215e-01 -3.159153088927268982e-02
3.652818128466606140e-02 -4.343284368515014648e-01 1.657975278794765472e-02
-7.942607626318931580e-03 -3.009008169174194336e-01 3.363737836480140686e-02
1.528586726635694504e-02 -3.275713324546813965e-01 3.389616031199693680e-03
-3.174728155136108398e-02 -6.260299682617187500e-01 3.071335889399051666e-02
-4.707939922809600830e-02 -3.459450006484985352e-01 2.089632116258144379e-02
-1.118912175297737122e-02 -7.493529915809631348e-01 -3.546349704265594482e-02
-2.158109471201896667e-02 -7.940682172775268555e-01 -2.750347182154655457e-02
-2.469500526785850525e-02 -5.869788527488708496e-01 -3.526659309864044189e-02
4.545937478542327881e-02 -5.329543352127075195e-01 5.614992231130599976e-03
2.395394444465637207e-02 -4.026945233345031738e-01 3.240966424345970154e-02
4.404222965240478516e-02 -7.559188008308410645e-01 -8.766874670982360840e-03
4.048060625791549683e-02 -7.648077011108398438e-01 1.379135996103286743e-02
8.583524264395236969e-03 -3.617652058601379395e-01 -1.180792041122913361e-02
2.888480201363563538e-02 -8.080694079399108887e-01 -2.279203012585639954e-02
-2.337221428751945496e-02 -5.221884846687316895e-01 4.045578464865684509e-02
6.032104603946208954e-03 -5.667163729667663574e-01 -3.413400053977966309e-02
3.215939551591873169e-02 -4.092696607112884521e-01 4.369484260678291321e-03
2.063746377825737000e-02 -7.657035589218139648e-01 2.625318989157676697e-02
1.691621728241443634e-03 -3.514375984668731689e-01 3.856140375137329102e-02
-3.845306113362312317e-02 -5.124090313911437988e-01 3.338132426142692566e-02
-1.299830153584480286e-02 -7.319345474243164062e-01 -3.606101870536804199e-02
4.688865691423416138e-02 -6.539877653121948242e-01 1.616887748241424561e-02
-2.210129518061876297e-03 -3.636504709720611572e-01 4.041085019707679749e-02
1.029423903673887253e-03 -6.927192211151123047e-01 3.543363511562347412e-02
-3.016981109976768494e-02 -6.440129876136779785e-01 3.002366609871387482e-02
-4.881911352276802063e-02 -5.368850231170654297e-01 -2.160198800265789032e-02
-4.055793583393096924e-02 -2.994032502174377441e-01 1.958283223211765289e-02
2.619790285825729370e-02 -6.351786255836486816e-01 -2.881100960075855255e-02
3.772734105587005615e-02 -4.961257874965667725e-01 2.702675946056842804e-02
3.539140895009040833e-02 -4.698663651943206787e-01 -5.982167553156614304e-03
1.320489402860403061e-02 -8.034386634826660156e-01 2.202787809073925018e-02
3.626499325037002563e-03 -3.928161263465881348e-01 4.149420559406280518e-02
2.157224342226982117e-02 -6.128374338150024414e-01 -3.051685355603694916e-02
-2.435747534036636353e-02 -2.585499584674835205e-01 1.917856745421886444e-02
4.328558221459388733e-02 -7.520946860313415527e-01 -1.108736544847488403e-02
5.672589875757694244e-03 -3.393484950065612793e-01 -8.945595473051071167e-03
-4.656540602445602417e-02 -7.058185338973999023e-01 -2.984250895678997040e-03
1.298023294657468796e-02 -6.497008204460144043e-01 -3.494658321142196655e-02
4.832339659333229065e-02 -6.078895330429077148e-01 9.593013674020767212e-04
-2.492378652095794678e-02 -5.270510911941528320e-01 3.974841535091400146e-02
2.582323551177978516e-02 -8.049485087394714355e-01 -2.526342123746871948e-02
2.153312414884567261e-02 -3.952752351760864258e-01 3.355965018272399902e-02
-2.564774081110954285e-02 -7.602871656417846680e-01 -2.944119460880756378e-02
-5.782941356301307678e-02 -4.421291351318359375e-01 2.799391513690352440e-03
-2.177567407488822937e-02 -5.068917870521545410e-01 -3.266527131199836731e-02
-3.629252314567565918e-03 -7.337623834609985352e-01 -3.681912273168563843e-02
-4.753911495208740234e-02 -6.957438588142395020e-01 -9.541023522615432739e-03
1.536445040255784988e-02 -4.023765027523040771e-01 -1.467323675751686096e-02
2.341794967651367188e-02 -8.768315315246582031e-01 -5.178843159228563309e-03
4.487438127398490906e-02 -5.579330921173095703e-01 1.939591579139232635e-02
4.376753792166709900e-02 -7.784098982810974121e-01 -2.038451377302408218e-03
4.235037416219711304e-02 -7.300326228141784668e-01 -1.454397663474082947e-02
1.581835374236106873e-02 -7.232909202575683594e-01 3.203663975000381470e-02
4.509698599576950073e-03 -3.790892958641052246e-01 4.033830389380455017e-02
-2.482708171010017395e-02 -6.734670400619506836e-01 -3.512628749012947083e-02
2.514013648033142090e-02 -7.032831311225891113e-01 -3.025204129517078400e-02
-5.217371881008148193e-02 -4.643419682979583740e-01 -1.465254649519920349e-02
-1.925143226981163025e-02 -6.355076432228088379e-01 -3.694384545087814331e-02
-3.025829046964645386e-02 -7.724832296371459961e-01 -2.406264282763004303e-02
-4.552577063441276550e-02 -5.119748115539550781e-01 -2.368821389973163605e-02
1.403321977704763412e-02 -4.730008542537689209e-01 -2.446123398840427399e-02
1.239311788231134415e-02 -4.542170763015747070e-01 4.212556779384613037e-02
-4.000873491168022156e-02 -3.053469657897949219e-01 -6.791539490222930908e-04
4.232073947787284851e-02 -6.042174696922302246e-01 -1.278981566429138184e-02
2.768156304955482483e-02 -7.433613538742065430e-01 -2.802078612148761749e-02
-4.648004844784736633e-02 -3.986735343933105469e-01 2.683726139366626740e-02
-3.222554456442594528e-03 -4.547858834266662598e-01 -2.828538976609706879e-02
4.047942906618118286e-02 -5.126488208770751953e-01 -5.104384850710630417e-03
3.251751884818077087e-02 -7.743697762489318848e-01 1.986313983798027039e-02
-2.597238495945930481e-02 -3.152793645858764648e-01 -1.031885109841823578e-02
-2.438063919544219971e-02 -6.166502833366394043e-01 -3.574396669864654541e-02
-3.830114379525184631e-02 -4.424661397933959961e-01 -2.356531098484992981e-02
-4.783427342772483826e-02 -5.193958878517150879e-01 -2.206546254456043243e-02
2.600203454494476318e-02 -3.623418807983398438e-01 1.654745452105998993e-02
-3.722220286726951599e-02 -7.254962921142578125e-01 -2.410507388412952423e-02
-7.810160517692565918e-03 -6.620694398880004883e-01 -3.806916624307632446e-02
-4.491166025400161743e-02 -5.181782841682434082e-01 2.814600802958011627e-02
-7.723513059318065643e-03 -8.357670903205871582e-01 1.207344233989715576e-02
-4.922214522957801819e-02 -5.481500625610351562e-01 -2.135522849857807159e-02
3.147359937429428101e-02 -7.048576474189758301e-01 -2.629879303276538849e-02
2.985047176480293274e-02 -3.848025202751159668e-01 1.622002199292182922e-02
-4.293415695428848267e-03 -4.003216624259948730e-01 4.285091906785964966e-02
-4.167161509394645691e-02 -4.616036117076873779e-01 -2.333836629986763000e-02
2.649332955479621887e-02 -7.201637625694274902e-01 -2.930912561714649200e-02
-3.115804120898246765e-02 -8.019684553146362305e-01 -4.335308913141489029e-03
1.710511371493339539e-02 -4.260596632957458496e-01 -1.712265424430370331e-02
-2.783249691128730774e-02 -5.727193355560302734e-01 -3.413447365164756775e-02
1.082967035472393036e-02 -6.591269373893737793e-01 -3.570457175374031067e-02
-3.296189382672309875e-02 -4.209300279617309570e-01 3.726988285779953003e-02
1.878771558403968811e-02 -6.982311606407165527e-01 -3.321976959705352783e-02
4.286327585577964783e-02 -6.436039805412292480e-01 2.325452305376529694e-02
1.732926443219184875e-02 -5.098125934600830078e-01 4.159450903534889221e-02
-3.343579825013875961e-03 -6.128871440887451172e-01 -3.734459728002548218e-02
-3.905914351344108582e-02 -3.990922272205352783e-01 3.312205150723457336e-02
2.719480916857719421e-02 -6.203415989875793457e-01 3.593287244439125061e-02
2.803887799382209778e-02 -8.164790868759155273e-01 -2.241411060094833374e-02
1.610466837882995605e-02 -3.509077429771423340e-01 3.118707984685897827e-02
2.294056862592697144e-02 -4.542328417301177979e-01 -1.690264977514743805e-02
-3.715055808424949646e-02 -5.872484445571899414e-01 3.028482571244239807e-02
-2.110466733574867249e-02 -4.240467548370361328e-01 -2.631567418575286865e-02
2.569773048162460327e-02 -6.169205904006958008e-01 -2.846422232687473297e-02
3.275838121771812439e-02 -4.694875776767730713e-01 -9.606530889868736267e-03
-2.755819261074066162e-02 -6.528543829917907715e-01 -3.459503874182701111e-02
4.017015174031257629e-02 -6.116527915000915527e-01 -1.612228341400623322e-02
-1.871226122602820396e-03 -7.085310220718383789e-01 3.363175690174102783e-02
1.790108159184455872e-02 -7.066515684127807617e-01 -3.350132331252098083e-02
3.511323034763336182e-02 -5.920211672782897949e-01 -2.027648873627185822e-02
-1.222092285752296448e-02 -6.486913561820983887e-01 -3.786266595125198364e-02
-1.060419343411922455e-02 -8.493940234184265137e-01 -2.281844243407249451e-02
-5.279457196593284607e-02 -4.191986918449401855e-01 1.946907490491867065e-02
2.230146527290344238e-02 -4.719668030738830566e-01 3.878497704863548279e-02
-2.231156826019287109e-02 -7.617757916450500488e-01 -3.110072202980518341e-02
-5.448394268751144409e-02 -5.241414308547973633e-01 -1.408708281815052032e-02
-1.605018042027950287e-04 -5.829615592956542969e-01 4.248207807540893555e-02
3.998706117272377014e-02 -7.376672029495239258e-01 1.859398745000362396e-02
-3.849583119153976440e-02 -4.128364622592926025e-01 -2.065638452768325806e-02
-3.699181228876113892e-02 -4.301477670669555664e-01 3.520858660340309143e-02
-3.750925138592720032e-02 -6.491615772247314453e-01 -2.967207692563533783e-02
3.951218724250793457e-02 -4.775253534317016602e-01 5.617910064756870270e-04
6.083240732550621033e-04 -8.059831261634826660e-01 2.102154307067394257e-02
-2.937450632452964783e-02 -6.695284843444824219e-01 -3.347224742174148560e-02
2.464056387543678284e-02 -4.559602439403533936e-01 3.667397797107696533e-02
5.814526230096817017e-05 -3.032343685626983643e-01 -3.166086971759796143e-03
4.382201284170150757e-02 -5.712752342224121094e-01 -7.277177181094884872e-03
4.396204650402069092e-02 -6.365014314651489258e-01 -1.216867007315158844e-02
4.819435253739356995e-02 -6.483767032623291016e-01 -3.189011011272668839e-03
4.386086761951446533e-02 -7.344959974288940430e-01 -1.163140498101711273e-02
-1.316333189606666565e-02 -7.266824245452880859e-01 -3.626785799860954285e-02
-6.174668669700622559e-03 -7.388330698013305664e-01 -3.653588518500328064e-02
-4.801867902278900146e-02 -6.720107197761535645e-01 6.651171017438173294e-03
3.245953842997550964e-02 -8.300817012786865234e-01 -1.567683182656764984e-02
-5.832226201891899109e-02 -4.606596827507019043e-01 3.523103194311261177e-03
-3.308658674359321594e-02 -3.001667857170104980e-01 2.762085571885108948e-02
2.556689456105232239e-02 -5.033142566680908203e-01 3.797894716262817383e-02
2.275709807872772217e-02 -8.592620491981506348e-01 6.820919923484325409e-03
-3.874554997310042381e-03 -5.760424137115478516e-01 -3.623982891440391541e-02
-2.882973477244377136e-02 -8.141262531280517578e-01 -8.948689326643943787e-03
-2.727152034640312195e-02 -7.290335893630981445e-01 -3.141937032341957092e-02
2.292803674936294556e-02 -4.793522655963897705e-01 3.872246667742729187e-02
2.615075930953025818e-02 -4.023323953151702881e-01 -4.678002092987298965e-03
4.879055917263031006e-02 -6.357195377349853516e-01 1.329414080828428268e-04
-1.196812093257904053e-02 -3.600352406501770020e-01 -1.835363917052745819e-02
3.485139086842536926e-02 -6.105600595474243164e-01 3.192581608891487122e-02
-2.563406899571418762e-02 -4.112250804901123047e-01 -2.444670535624027252e-02
-4.546558856964111328e-02 -6.866717338562011719e-01 8.517459966242313385e-03
-6.360082421451807022e-03 -3.708586692810058594e-01 -1.904417760670185089e-02
-4.178873728960752487e-03 -8.028939962387084961e-01 2.047125436365604401e-02
3.573733940720558167e-02 -4.347283244132995605e-01 4.375770688056945801e-03
2.781767398118972778e-02 -4.909469187259674072e-01 -1.759670302271842957e-02
4.697472974658012390e-02 -5.639947652816772461e-01 1.273241825401782990e-02
2.591117471456527710e-02 -4.403717517852783203e-01 -1.234397478401660919e-02
-2.010216191411018372e-02 -6.761319637298583984e-01 3.193506225943565369e-02
1.908967271447181702e-02 -8.025453090667724609e-01 2.122960425913333893e-02
-2.290053293108940125e-02 -4.326457381248474121e-01 -2.696140855550765991e-02
-4.180070012807846069e-02 -5.374516844749450684e-01 2.989242039620876312e-02
-1.038410607725381851e-02 -5.001237988471984863e-01 4.395398870110511780e-02
3.178889676928520203e-02 -4.069453477859497070e-01 2.171812392771244049e-02
2.531703189015388489e-02 -3.782207965850830078e-01 8.853715844452381134e-04
5.355639383196830750e-03 -5.816059112548828125e-01 4.246959090232849121e-02
5.095052532851696014e-03 -5.086715221405029297e-01 4.411127790808677673e-02
1.523569133132696152e-02 -4.808949828147888184e-01 -2.466850727796554565e-02
4.327818006277084351e-02 -5.955721139907836914e-01 2.367239631712436676e-02
-5.471099168062210083e-02 -5.929705500602722168e-01 -1.084087230265140533e-02
2.823836356401443481e-02 -3.838924169540405273e-01 2.228412032127380371e-02
-1.814450323581695557e-02 -5.381050705909729004e-01 -3.468903526663780212e-02
-1.627000980079174042e-03 -3.409982919692993164e-01 -1.273230649530887604e-02
-4.177843220531940460e-03 -8.183353543281555176e-01 1.749354787170886993e-02
2.294914424419403076e-02 -4.960481524467468262e-01 -2.177737839519977570e-02
4.724025726318359375e-02 -6.005464196205139160e-01 -2.430764026939868927e-03
3.250422887504100800e-03 -7.990865707397460938e-01 -3.279141709208488464e-02
-5.274954810738563538e-02 -4.496623873710632324e-01 -1.267047412693500519e-02
-1.157170161604881287e-02 -4.895845353603363037e-01 4.390909522771835327e-02
-1.315631531178951263e-02 -8.002817630767822266e-01 -3.062907792627811432e-02
-4.558268561959266663e-02 -3.601513803005218506e-01 2.488017827272415161e-02
-3.200185671448707581e-02 -2.742704451084136963e-01 2.114504203200340271e-02
1.408930402249097824e-02 -5.566644668579101562e-01 4.206296801567077637e-02
5.816040560603141785e-03 -7.455626726150512695e-01 3.025278262794017792e-02
9.420095011591911316e-04 -2.782737612724304199e-01 2.299692481756210327e-02
9.227730333805084229e-05 -7.278811335563659668e-01 3.184326738119125366e-02
-1.272471994161605835e-02 -2.706028521060943604e-01 2.121979836374521255e-03
-4.016651213169097900e-02 -6.361571550369262695e-01 2.341831475496292114e-02
4.599227383732795715e-02 -5.412043333053588867e-01 5.694800522178411484e-03
1.806265860795974731e-02 -7.138748764991760254e-01 3.254139423370361328e-02
-1.110731158405542374e-02 -3.388602733612060547e-01 -1.479257270693778992e-02
1.800287887454032898e-02 -5.479398369789123535e-01 -2.882730029523372650e-02
-3.773282095789909363e-02 -5.347782969474792480e-01 3.297321870923042297e-02
4.652128368616104126e-02 -7.376093864440917969e-01 -3.454351797699928284e-03
-5.452668666839599609e-02 -4.822112917900085449e-01 -1.247118227183818817e-02
-2.552705258131027222e-02 -4.230847358703613281e-01 -2.567249909043312073e-02
-8.628319017589092255e-03 -2.794924378395080566e-01 2.901114150881767273e-02
1.503368187695741653e-02 -6.247705817222595215e-01 -3.368651494383811951e-02
-3.945906832814216614e-02 -3.240546286106109619e-01 2.658945880830287933e-02
-3.269356675446033478e-03 -4.708814918994903564e-01 -2.972674556076526642e-02
3.523313626646995544e-02 -5.547250509262084961e-01 3.220823779702186584e-02
-6.767309270799160004e-03 -7.685223221778869629e-01 -3.486378863453865051e-02
-2.940912172198295593e-02 -3.834430575370788574e-01 -2.049626596271991730e-02
-3.636237978935241699e-02 -5.461367368698120117e-01 3.331993892788887024e-02
-5.516767501831054688e-02 -4.170799255371093750e-01 -4.174336325377225876e-03
-4.034106060862541199e-02 -3.865973353385925293e-01 3.166523203253746033e-02
-1.181946322321891785e-02 -8.638948202133178711e-01 -2.139378339052200317e-03
-2.751455828547477722e-02 -3.680434823036193848e-01 3.765551745891571045e-02
-3.120827302336692810e-02 -4.451642632484436035e-01 3.838875517249107361e-02
-1.231294823810458183e-03 -3.207996487617492676e-01 3.549310192465782166e-02
-3.604311868548393250e-02 -6.273541450500488281e-01 -3.110963664948940277e-02
2.489676326513290405e-02 -4.361254572868347168e-01 -1.261159777641296387e-02
-2.990149892866611481e-03 -4.737037122249603271e-01 4.455272108316421509e-02
-3.787067532539367676e-02 -6.694167256355285645e-01 -2.851988561451435089e-02
1.785962283611297607e-02 -8.845717906951904297e-01 -3.692141734063625336e-03
-9.849749505519866943e-03 -3.996439576148986816e-01 4.278501868247985840e-02
-3.870909288525581360e-02 -3.244305849075317383e-01 -7.042600307613611221e-03
3.230619058012962341e-02 -4.736001491546630859e-01 3.163748607039451599e-02
-2.024707151576876640e-03 -8.558375239372253418e-01 -2.454602718353271484e-02
-9.328201413154602051e-03 -8.190910816192626953e-01 1.533752121031284332e-02
-9.067311882972717285e-03 -6.111814379692077637e-01 -3.754245489835739136e-02
-4.995205998420715332e-02 -4.241356253623962402e-01 -1.350433006882667542e-02
-1.479532476514577866e-02 -3.707957267761230469e-01 4.092012718319892883e-02
3.046276420354843140e-02 -4.964904785156250000e-01 -1.589624024927616119e-02
-2.726882696151733398e-02 -4.658479690551757812e-01 -2.902709878981113434e-02
3.532373160123825073e-02 -6.660187840461730957e-01 -2.306615188717842102e-02
-5.822781845927238464e-02 -4.779419302940368652e-01 6.782735697925090790e-03
-2.998011931777000427e-02 -2.702658772468566895e-01 4.764993675053119659e-03
-2.018043026328086853e-02 -6.299991607666015625e-01 -3.675373271107673645e-02
-1.994203776121139526e-03 -4.135044813156127930e-01 -2.367394603788852692e-02
-1.905207335948944092e-02 -4.130033254623413086e-01 4.197403416037559509e-02
-2.234467491507530212e-02 -6.050419211387634277e-01 3.688314929604530334e-02
2.904747799038887024e-02 -6.586620807647705078e-01 -2.764991857111454010e-02
4.266770184040069580e-02 -7.845356464385986328e-01 -5.840163212269544601e-03
-3.634232329204678535e-03 -7.695021033287048340e-01 2.598979696631431580e-02
4.439308494329452515e-02 -6.117612123489379883e-01 -1.000750996172428131e-02
-2.759471908211708069e-02 -4.274008870124816895e-01 -2.570708282291889191e-02
2.722369041293859482e-03 -6.060600876808166504e-01 -3.638162091374397278e-02
-3.484943509101867676e-02 -3.648236393928527832e-01 -1.627380028367042542e-02
3.922818601131439209e-02 -7.765679359436035156e-01 -1.533079892396926880e-02
7.891108281910419464e-03 -6.141424179077148438e-01 -3.553309664130210876e-02
4.693259671330451965e-02 -6.472623944282531738e-01 1.637530885636806488e-02
3.871903195977210999e-02 -4.619642794132232666e-01 3.303072880953550339e-03
-4.286370426416397095e-02 -7.357904314994812012e-01 -5.765743087977170944e-03
-2.121347188949584961e-02 -7.775481939315795898e-01 -2.994929067790508270e-02
-4.246651008725166321e-02 -5.855174064636230469e-01 2.619471587240695953e-02
-3.164163604378700256e-02 -6.150273680686950684e-01 -3.333301842212677002e-02
-2.900413051247596741e-02 -5.477086305618286133e-01 3.724763914942741394e-02
-1.351717300713062286e-02 -5.491289496421813965e-01 4.224709048867225647e-02
-4.406691715121269226e-02 -7.144767045974731445e-01 -1.500851102173328400e-02
-5.735380947589874268e-02 -4.408861994743347168e-01 -1.067380886524915695e-03
3.115515783429145813e-02 -7.287231683731079102e-01 -2.614294737577438354e-02
-4.116385057568550110e-02 -6.530416607856750488e-01 2.038823813199996948e-02
1.598861813545227051e-02 -7.182244062423706055e-01 -3.402983769774436951e-02
-4.989377409219741821e-02 -5.103259682655334473e-01 2.327701076865196228e-02
-5.546064674854278564e-02 -5.119652748107910156e-01 -1.205514743924140930e-02
-1.350750122219324112e-02 -8.438459038734436035e-01 5.801167339086532593e-03
1.142936665564775467e-02 -8.308403491973876953e-01 1.707664504647254944e-02
3.347149491310119629e-02 -7.299965620040893555e-01 2.493236213922500610e-02
-2.819731459021568298e-02 -6.871576309204101562e-01 -3.337016701698303223e-02
-3.797587379813194275e-02 -7.599596977233886719e-01 6.489427760243415833e-04
2.276401966810226440e-02 -3.545655608177185059e-01 5.398278590291738510e-03
9.299465455114841461e-03 -6.523071527481079102e-01 3.857384249567985535e-02
-3.578205034136772156e-02 -4.085638523101806641e-01 -2.138740755617618561e-02
-1.457897573709487915e-02 -2.562393248081207275e-01 9.997697547078132629e-03
3.045237809419631958e-02 -7.182523012161254883e-01 2.785957232117652893e-02
7.110036909580230713e-03 -5.501555204391479492e-01 4.329455643892288208e-02
4.902889207005500793e-02 -6.752002239227294922e-01 1.305298414081335068e-03
-1.831979677081108093e-02 -3.273689746856689453e-01 3.693672642111778259e-02
-3.709089756011962891e-02 -4.823861718177795410e-01 -2.704068459570407867e-02
-1.511864457279443741e-02 -7.263385653495788574e-01 2.829934656620025635e-02
-3.192630410194396973e-02 -4.468256831169128418e-01 -2.634447067975997925e-02
-2.602719515562057495e-02 -5.687302947044372559e-01 3.754465281963348389e-02
1.307364646345376968e-02 -3.184725642204284668e-01 2.587196044623851776e-02
-3.659202530980110168e-02 -7.347056865692138672e-01 1.145035400986671448e-02
1.531206909567117691e-02 -8.471066355705261230e-01 1.297670044004917145e-02
-3.143700957298278809e-02 -7.622320055961608887e-01 1.133382320404052734e-02
-1.887717843055725098e-02 -7.536032199859619141e-01 -3.323435038328170776e-02
-3.626492619514465332e-02 -7.218322753906250000e-01 -2.556569315493106842e-02
1.635785773396492004e-02 -3.211032152175903320e-01 2.085859514772891998e-02
-3.317251801490783691e-02 -4.049930572509765625e-01 3.677700459957122803e-02
3.856222704052925110e-02 -8.047654032707214355e-01 -1.159215345978736877e-02
2.593392878770828247e-02 -6.913700103759765625e-01 -2.985336817800998688e-02
-7.757222279906272888e-03 -8.680783510208129883e-01 4.395032301545143127e-04
3.758883848786354065e-02 -7.524542808532714844e-01 -1.949597895145416260e-02
-3.336387872695922852e-02 -7.107012867927551270e-01 1.950795389711856842e-02
-1.607903465628623962e-02 -7.029183506965637207e-01 -3.661189228296279907e-02
2.703947201371192932e-02 -5.370564460754394531e-01 -2.276978641748428345e-02
-1.858283951878547668e-02 -7.239055633544921875e-01 2.715877071022987366e-02
-5.546176061034202576e-02 -4.450758993625640869e-01 -7.589540909975767136e-03
-4.560387507081031799e-02 -4.414938390254974365e-01 -1.914357766509056091e-02
-2.995863556861877441e-02 -4.145221710205078125e-01 3.852380812168121338e-02
-5.016535893082618713e-02 -4.944911897182464600e-01 2.352440916001796722e-02
-2.136670053005218506e-02 -5.448576211929321289e-01 4.035101458430290222e-02
-3.114252164959907532e-02 -7.591184973716735840e-01 -2.544235251843929291e-02
-1.578496396541595459e-02 -7.492609024047851562e-01 -3.448998928070068359e-02
4.185551032423973083e-02 -7.169867753982543945e-01 -1.583160832524299622e-02
-3.693027794361114502e-02 -4.325308203697204590e-01 -2.329700626432895660e-02
-5.153588205575942993e-02 -4.853536486625671387e-01 -1.680110953748226166e-02
4.304335266351699829e-02 -7.856887578964233398e-01 -1.485024113208055496e-04
2.996805682778358459e-02 -6.168249249458312988e-01 -2.572548948228359222e-02
-8.968800306320190430e-03 -3.561255335807800293e-01 4.026767984032630920e-02
-1.471475325524806976e-02 -2.882956564426422119e-01 3.162165731191635132e-02
-2.547407895326614380e-02 -6.901409626007080078e-01 2.783744595944881439e-02
-3.555942792445421219e-03 -7.596505284309387207e-01 2.738200314342975616e-02
2.929595112800598145e-02 -8.269202709197998047e-01 1.195099018514156342e-02
4.653601720929145813e-02 -5.493568778038024902e-01 6.437177769839763641e-03
-5.859407782554626465e-02 -4.922122955322265625e-01 -1.844645012170076370e-04
1.703976653516292572e-03 -4.152864813804626465e-01 4.297989606857299805e-02
1.200807746499776840e-02 -4.124679863452911377e-01 -1.820892468094825745e-02
1.537110749632120132e-02 -3.233864903450012207e-01 2.431794442236423492e-02
-4.954858869314193726e-02 -5.150367021560668945e-01 2.348436973989009857e-02
4.134499281644821167e-02 -7.239765524864196777e-01 -1.629018411040306091e-02
-2.087807655334472656e-02 -7.367073297500610352e-01 -3.372075781226158142e-02
4.855589941143989563e-02 -6.998871564865112305e-01 1.442649634554982185e-03
-2.824977412819862366e-02 -3.335540294647216797e-01 -1.333831995725631714e-02
-4.573391005396842957e-02 -5.752092003822326660e-01 -2.479299716651439667e-02
-4.295935109257698059e-02 -3.222900629043579102e-01 2.237756736576557159e-02
-9.568570181727409363e-03 -7.294187545776367188e-01 2.976456843316555023e-02
1.145518291741609573e-02 -4.136682748794555664e-01 4.061656072735786438e-02
4.864928312599658966e-03 -7.680195569992065430e-01 2.738172560930252075e-02
-1.938865520060062408e-02 -8.445475101470947266e-01 -2.540383953601121902e-03
-1.756270229816436768e-02 -7.810089588165283203e-01 1.882501132786273956e-02
-5.484647676348686218e-02 -3.973270654678344727e-01 1.222282834351062775e-02
4.877850413322448730e-02 -6.082096099853515625e-01 8.495140820741653442e-03
2.699867356568574905e-03 -4.392142891883850098e-01 -2.530210651457309723e-02
-1.017631590366363525e-02 -3.805921077728271484e-01 4.185899719595909119e-02
-4.130211099982261658e-02 -4.578264355659484863e-01 3.246516361832618713e-02
2.956295013427734375e-02 -4.368404150009155273e-01 -7.745655719190835953e-03
-3.007039800286293030e-02 -2.848011851310729980e-01 -1.279842574149370193e-03
-3.186995908617973328e-02 -2.658411562442779541e-01 1.195308938622474670e-02
3.788322955369949341e-02 -6.737187504768371582e-01 -2.078870125114917755e-02
-5.458603799343109131e-02 -4.353373050689697266e-01 1.686559431254863739e-02
-2.354579791426658630e-02 -8.197716474533081055e-01 3.524195402860641479e-03
-3.846019133925437927e-02 -3.332691788673400879e-01 -9.104033932089805603e-03
-3.677302040159702301e-03 -6.984760761260986328e-01 -3.775005787611007690e-02
-3.499508649110794067e-02 -4.981004297733306885e-01 -2.882714755833148956e-02
2.649583294987678528e-02 -3.958934247493743896e-01 2.855237387120723724e-02
-7.794148288667201996e-03 -6.202037930488586426e-01 3.983385488390922546e-02
-4.108377546072006226e-02 -2.912611365318298340e-01 1.131016761064529419e-02
-5.359907448291778564e-02 -4.752885699272155762e-01 -1.348543539643287659e-02
4.587984085083007812e-02 -6.772968769073486328e-01 1.671597361564636230e-02
-1.556711643934249878e-02 -3.153525292873382568e-01 -1.085528545081615448e-02
-4.346188530325889587e-02 -6.986067891120910645e-01 -1.975234411656856537e-02
-5.356133729219436646e-02 -6.222993731498718262e-01 3.589433617889881134e-03
-1.328012719750404358e-02 -7.557042241096496582e-01 -3.466961905360221863e-02
3.403681516647338867e-02 -4.122307002544403076e-01 1.318209432065486908e-02
-5.314676091074943542e-02 -6.330546736717224121e-01 -8.302742615342140198e-03
1.794853061437606812e-02 -5.238248109817504883e-01 -2.711433917284011841e-02
4.414035938680171967e-03 -6.706516146659851074e-01 3.741803020238876343e-02
-5.661892518401145935e-02 -4.806320071220397949e-01 1.286695711314678192e-02
-2.973764762282371521e-02 -8.028675913810729980e-01 -1.284789759665727615e-04
-1.907249540090560913e-02 -3.803077042102813721e-01 -2.147313393652439117e-02
3.098649904131889343e-02 -5.186946392059326172e-01 3.490668162703514099e-02
1.940031722187995911e-02 -4.521850943565368652e-01 3.939685970544815063e-02
3.788794577121734619e-02 -6.306428313255310059e-01 2.889567241072654724e-02
-1.947207190096378326e-02 -2.603508830070495605e-01 6.160944234579801559e-03
1.732921972870826721e-02 -8.304520845413208008e-01 1.640760712325572968e-02
2.294367924332618713e-02 -6.286716461181640625e-01 -3.038703091442584991e-02
2.661319077014923096e-02 -5.038582086563110352e-01 -1.998380757868289948e-02
2.403394132852554321e-02 -7.458493113517761230e-01 2.766179479658603668e-02
3.399854898452758789e-02 -7.483721971511840820e-01 -2.322346530854701996e-02
-1.928656734526157379e-02 -6.954300403594970703e-01 3.025181964039802551e-02
-1.516318321228027344e-02 -2.935941815376281738e-01 3.262265771627426147e-02
1.728965714573860168e-02 -4.986660778522491455e-01 4.151666164398193359e-02
-2.299662679433822632e-02 -7.037350535392761230e-01 -3.473410010337829590e-02
-3.143681911751627922e-03 -6.628673076629638672e-01 -3.798000887036323547e-02
-4.812334850430488586e-02 -6.912069320678710938e-01 -8.767846971750259399e-03
-5.273470189422369003e-03 -7.425696849822998047e-01 2.923390269279479980e-02
-1.182705257087945938e-02 -6.418184638023376465e-01 3.756106272339820862e-02
-5.787874385714530945e-02 -4.588746726512908936e-01 -1.661601476371288300e-03
-1.557711511850357056e-04 -7.700791358947753906e-01 -3.503739461302757263e-02
7.501862011849880219e-03 -3.077422082424163818e-01 2.842768840491771698e-02
7.359450682997703552e-03 -8.319536447525024414e-01 -2.892166934907436371e-02
-5.749704688787460327e-02 -5.432842373847961426e-01 5.252181552350521088e-03
1.078817248344421387e-02 -6.868758797645568848e-01 3.591363877058029175e-02
-5.193341150879859924e-02 -4.619341492652893066e-01 2.178044803440570831e-02
1.249364484101533890e-02 -3.723891079425811768e-01 3.675888851284980774e-02
2.438934147357940674e-02 -6.485637426376342773e-01 -3.017764352262020111e-02
-3.628312051296234131e-02 -5.020229220390319824e-01 -2.851396985352039337e-02
-4.029365256428718567e-02 -6.470168828964233398e-01 -2.772520668804645538e-02
-1.445746328681707382e-02 -8.421120643615722656e-01 -2.229142934083938599e-02
-2.172106504440307617e-02 -6.366995573043823242e-01 3.481751680374145508e-02
1.463904697448015213e-02 -8.400851488113403320e-01 1.476464234292507172e-02
-5.492367595434188843e-02 -5.930625796318054199e-01 6.166177801787853241e-03
-3.094565123319625854e-02 -7.032740712165832520e-01 -3.115013800561428070e-02
3.642127662897109985e-02 -7.109324336051940918e-01 -2.216258086264133453e-02
-3.392805904150009155e-02 -5.983067154884338379e-01 -3.231076151132583618e-02
-2.767471969127655029e-02 -8.045332431793212891e-01 -1.934264041483402252e-02
-3.496937826275825500e-02 -2.969975769519805908e-01 2.550254762172698975e-02
-3.258641809225082397e-02 -5.836254954338073730e-01 3.343463689088821411e-02
-5.236175283789634705e-02 -3.589795231819152832e-01 5.984706804156303406e-03
-5.169934034347534180e-02 -3.531799614429473877e-01 5.974858067929744720e-03
-4.425486549735069275e-02 -7.144228816032409668e-01 2.737608039751648903e-03
-5.416432768106460571e-02 -4.105984568595886230e-01 1.610704511404037476e-02
4.769592359662055969e-02 -6.392915248870849609e-01 1.470727287232875824e-02
3.360942378640174866e-02 -4.667868614196777344e-01 2.961853705346584320e-02
3.268800675868988037e-03 -3.642797172069549561e-01 -1.496183685958385468e-02
3.184292092919349670e-02 -3.969455957412719727e-01 1.257600262761116028e-02
3.758102282881736755e-02 -6.865558028221130371e-01 -2.118914760649204254e-02
4.674479737877845764e-02 -6.933665275573730469e-01 1.336229033768177032e-02
-3.544816747307777405e-02 -3.052988648414611816e-01 2.684074267745018005e-02
6.628881208598613739e-03 -8.472118973731994629e-01 -2.671314030885696411e-02
-2.374437823891639709e-02 -3.975746631622314453e-01 -2.321466244757175446e-02
1.944150775671005249e-02 -3.300956785678863525e-01 1.444046944379806519e-02
4.608098417520523071e-02 -7.399569749832153320e-01 7.003695704042911530e-03
1.800166815519332886e-02 -7.782158851623535156e-01 -3.112194128334522247e-02
3.494988381862640381e-02 -5.142446160316467285e-01 -1.338799297809600830e-02
-3.748394176363945007e-02 -4.518458843231201172e-01 3.504979237914085388e-02
3.597652167081832886e-02 -8.299089670181274414e-01 -8.956477046012878418e-03
4.559700377285480499e-03 -3.979812264442443848e-01 -1.962223462760448456e-02
3.854096308350563049e-02 -4.887920320034027100e-01 2.498662844300270081e-02
-2.830786257982254028e-02 -3.099737763404846191e-01 -8.648250252008438110e-03
-2.594648860394954681e-03 -3.936068415641784668e-01 4.241834580898284912e-02
-3.163620084524154663e-02 -4.362329542636871338e-01 -2.551703341305255890e-02
3.869318589568138123e-02 -4.839440584182739258e-01 2.407849952578544617e-02
-4.060605075210332870e-03 -4.543201029300689697e-01 4.438546299934387207e-02
9.208314120769500732e-03 -4.588913023471832275e-01 -2.511696144938468933e-02
2.286849170923233032e-02 -5.236250162124633789e-01 3.957295790314674377e-02
3.443517908453941345e-02 -7.898101806640625000e-01 -1.980446279048919678e-02
1.082743238657712936e-02 -6.356551051139831543e-01 -3.531203418970108032e-02
3.887133300304412842e-02 -8.180016279220581055e-01 -2.699021250009536743e-03
-5.211782455444335938e-02 -6.042690873146057129e-01 1.160059310495853424e-02
1.781638711690902710e-02 -5.593086481094360352e-01 4.109100252389907837e-02
3.180623054504394531e-03 -8.841925859451293945e-01 -1.586933061480522156e-02
-1.917701400816440582e-02 -5.141661763191223145e-01 -3.337354585528373718e-02
-1.035680808126926422e-02 -7.955840826034545898e-01 1.966515369713306427e-02
-6.865723989903926849e-03 -4.424977898597717285e-01 4.415008425712585449e-02
3.189645335078239441e-02 -4.342939853668212891e-01 -3.922055941075086594e-03
3.470607846975326538e-02 -6.655213832855224609e-01 2.953742817044258118e-02
4.687698185443878174e-02 -7.182414531707763672e-01 9.306386113166809082e-03
-3.018446639180183411e-02 -3.283360302448272705e-01 -1.186623983085155487e-02
1.353250909596681595e-02 -4.390408992767333984e-01 -2.091317996382713318e-02
-3.688283264636993408e-02 -6.449500918388366699e-01 2.527882531285285950e-02
-5.200803652405738831e-02 -4.129031300544738770e-01 2.043509110808372498e-02
2.173222228884696960e-02 -7.041987776756286621e-01 3.252942487597465515e-02
-2.476929873228073120e-02 -5.490987300872802734e-01 3.897823765873908997e-02
-1.600765390321612358e-03 -2.924727797508239746e-01 3.010470233857631683e-02
2.914378419518470764e-02 -3.951468765735626221e-01 2.431280910968780518e-03
4.357821494340896606e-02 -5.777950286865234375e-01 2.295327000319957733e-02
3.435138985514640808e-02 -5.449190139770507812e-01 -1.732932031154632568e-02
1.949515193700790405e-02 -8.501021862030029297e-01 1.114688254892826080e-02
-4.981953278183937073e-02 -6.765672564506530762e-01 -6.048021372407674789e-03
7.668573409318923950e-03 -8.205507993698120117e-01 -3.026617132127285004e-02
-1.240762416273355484e-03 -2.814897000789642334e-01 3.762441687285900116e-03
-1.442306861281394958e-02 -7.785422801971435547e-01 2.091087959706783295e-02
-2.437806501984596252e-02 -5.989134311676025391e-01 3.647180646657943726e-02
-5.384914577007293701e-02 -5.082340240478515625e-01 1.772912219166755676e-02
1.914257183670997620e-02 -4.408782124519348145e-01 -1.782952994108200073e-02
4.244307801127433777e-02 -6.920199394226074219e-01 -1.548902131617069244e-02
-2.692664414644241333e-02 -5.175127983093261719e-01 3.926768153905868530e-02
2.609233837574720383e-03 -8.761994838714599609e-01 3.092372324317693710e-03
4.276805371046066284e-02 -5.311685800552368164e-01 2.168948017060756683e-02
4.716740921139717102e-02 -5.964990854263305664e-01 -2.155759371817111969e-03
-1.850151456892490387e-02 -7.044212222099304199e-01 2.957018278539180756e-02
1.998519897460937500e-02 -6.551253199577331543e-01 -3.243826329708099365e-02
-4.233230836689472198e-03 -4.290740489959716797e-01 -2.590991556644439697e-02
-3.336149081587791443e-02 -5.170756578445434570e-01 3.627049550414085388e-02
-8.117696270346641541e-03 -4.862158596515655518e-01 4.432240501046180725e-02
-1.144090481102466583e-02 -3.039008080959320068e-01 -7.741079200059175491e-03
2.701105922460556030e-02 -4.824618101119995117e-01 -1.726010814309120178e-02
2.891370560973882675e-03 -8.164538145065307617e-01 1.947301067411899567e-02
-1.855497015640139580e-03 -4.439495205879211426e-01 4.416893422603607178e-02
2.644553408026695251e-02 -5.949103832244873047e-01 3.715041652321815491e-02
-5.090432986617088318e-02 -4.132510423660278320e-01 -1.107305847108364105e-02
-3.917426988482475281e-02 -7.498659491539001465e-01 -1.580790802836418152e-02
-4.274429380893707275e-02 -4.551622271537780762e-01 -2.221511118113994598e-02
1.243744883686304092e-02 -8.667116165161132812e-01 7.726851850748062134e-03
4.675538465380668640e-02 -6.982948780059814453e-01 1.275329105556011200e-02
-4.447909072041511536e-02 -7.184867262840270996e-01 -5.180318839848041534e-05
4.334121197462081909e-02 -7.349134683609008789e-01 1.451140083372592926e-02
-3.505470231175422668e-03 -5.022322535514831543e-01 4.446581378579139709e-02
-5.598067119717597961e-02 -4.042184948921203613e-01 8.057735860347747803e-03
1.598773524165153503e-04 -4.230828285217285156e-01 -2.423616498708724976e-02
-4.665434360504150391e-02 -5.320777297019958496e-01 -2.346644178032875061e-02
-5.625803023576736450e-02 -4.761106967926025391e-01 -8.722566068172454834e-03
-5.290492251515388489e-02 -4.444978237152099609e-01 2.019111812114715576e-02
-8.000659756362438202e-03 -8.018790483474731445e-01 -3.180023655295372009e-02
-4.204279184341430664e-02 -7.377361059188842773e-01 -1.194001175463199615e-02
-4.482584819197654724e-02 -3.324093222618103027e-01 2.182040922343730927e-02
1.790018007159233093e-02 -4.784486293792724609e-01 4.094301536679267883e-02
-2.491007000207901001e-02 -7.475557327270507812e-01 -3.113118372857570648e-02
-4.938094317913055420e-02 -3.346404433250427246e-01 1.012783125042915344e-02
