2.934493720531463623e-01 -1.092756763100624084e-01 2.744286060333251953e-01
3.161471784114837646e-01 -3.030818700790405273e-01 3.815178275108337402e-01
-4.231467247009277344e-01 -3.090455532073974609e-01 1.421515047550201416e-01
-4.122707992792129517e-02 -3.633775115013122559e-01 1.615068018436431885e-01
6.281313300132751465e-02 -1.679515838623046875e-01 -5.537877082824707031e-01
-1.809023767709732056e-01 -1.516437679529190063e-01 6.697250604629516602e-01
-7.975810766220092773e-02 -8.028826117515563965e-02 -2.753111422061920166e-01
3.046990334987640381e-01 -2.008761763572692871e-01 5.961546897888183594e-01
2.402299493551254272e-01 -3.103350996971130371e-01 -2.940500080585479736e-01
-3.159234225749969482e-01 -1.350371241569519043e-01 -4.523271322250366211e-01
-1.085631325840950012e-01 -2.650222182273864746e-01 -5.924245119094848633e-01
-3.987753391265869141e-01 -9.455236047506332397e-02 1.391750872135162354e-01
-1.364346295595169067e-01 -2.325572967529296875e-01 -6.226806640625000000e-01
-3.426288068294525146e-01 -1.074861511588096619e-01 3.964327871799468994e-01
1.863097250461578369e-01 -3.471992909908294678e-01 2.242650687694549561e-01
3.924312293529510498e-01 -2.306432127952575684e-01 4.537027180194854736e-01
-4.919889271259307861e-01 -2.219266593456268311e-01 -3.488668799400329590e-01
2.657433152198791504e-01 -2.587745189666748047e-01 -4.112267792224884033e-01
-5.454795360565185547e-01 -2.446278929710388184e-01 1.054935455322265625e-01
-3.234062194824218750e-01 -1.011976599693298340e-01 -2.943165898323059082e-01
3.333392441272735596e-01 -1.313502937555313110e-01 -1.122166737914085388e-01
3.289917409420013428e-01 -1.558787226676940918e-01 -2.484110295772552490e-01
6.455403566360473633e-02 -3.491032719612121582e-01 -2.290952205657958984e-01
-3.149823844432830811e-01 -3.393775224685668945e-01 8.899980038404464722e-02
1.610393449664115906e-02 -3.406584262847900391e-01 4.225852191448211670e-01
1.039863526821136475e-01 -8.320102095603942871e-02 -1.862490773200988770e-01
3.280692398548126221e-01 -3.126628994941711426e-01 -8.784734457731246948e-02
-3.363336920738220215e-01 -3.136206865310668945e-01 3.385168313980102539e-01
3.642767965793609619e-01 -2.735920846462249756e-01 4.210515618324279785e-01
-2.467171847820281982e-02 -6.471896171569824219e-02 -9.498151391744613647e-02
-1.707906275987625122e-02 -9.917852282524108887e-02 5.458525419235229492e-01
2.566238343715667725e-01 -1.584561467170715332e-01 -3.734577596187591553e-01
4.085966050624847412e-01 -1.520182788372039795e-01 1.656652390956878662e-01
3.530703186988830566e-01 -1.786886304616928101e-01 5.000225305557250977e-01
-3.768573701381683350e-01 -9.255870431661605835e-02 2.013130784034729004e-01
1.257110089063644409e-01 -3.455434441566467285e-01 -2.057229280471801758e-01
2.006422430276870728e-01 -2.113303840160369873e-01 -5.035710334777832031e-01
-5.102764368057250977e-01 -2.762966454029083252e-01 -4.054680466651916504e-02
3.730981424450874329e-02 -1.569643318653106689e-01 -5.455194711685180664e-01
-4.931614100933074951e-01 -2.851237654685974121e-01 -5.412581562995910645e-02
8.945497870445251465e-02 -3.006420135498046875e-01 -4.689621329307556152e-01
4.577546715736389160e-01 -2.379343658685684204e-01 1.270340681076049805e-01
2.020986825227737427e-01 -2.430023849010467529e-01 6.733458042144775391e-01
-3.895473480224609375e-01 -3.086752593517303467e-01 2.619218230247497559e-01
4.062013626098632812e-01 -2.170791774988174438e-01 -1.911190450191497803e-01
4.640965536236763000e-02 -1.736532747745513916e-01 7.311915159225463867e-01
2.260554879903793335e-01 -3.451354503631591797e-01 5.069753527641296387e-02
-4.787689447402954102e-02 -3.646270632743835449e-01 -4.186394810676574707e-02
-2.231906354427337646e-02 -7.398992776870727539e-02 -2.063780426979064941e-01
2.617227733135223389e-01 -3.345066308975219727e-01 2.164256572723388672e-01
3.402472436428070068e-01 -2.357689440250396729e-01 -3.285028636455535889e-01
6.009287759661674500e-02 -1.233931630849838257e-01 6.250327825546264648e-01
-5.261718630790710449e-01 -2.637921571731567383e-01 -8.827493339776992798e-02
-1.270888447761535645e-01 -2.012708783149719238e-01 7.347912192344665527e-01
1.520080566406250000e-01 -3.522215485572814941e-01 2.105136215686798096e-01
9.903302788734436035e-02 -2.926697432994842529e-01 -4.864891171455383301e-01
1.270951032638549805e-01 -3.361068069934844971e-01 4.111400842666625977e-01
-3.749010562896728516e-01 -9.006162732839584351e-02 -8.437385410070419312e-02
7.798428833484649658e-02 -2.842085957527160645e-01 6.532934904098510742e-01
-5.579440593719482422e-01 -2.358589768409729004e-01 4.205486923456192017e-02
3.593413233757019043e-01 -1.267214119434356689e-01 1.188356131315231323e-01
-2.191276550292968750e-01 -7.729880511760711670e-02 3.365167975425720215e-01
-4.785093292593955994e-02 -3.543679714202880859e-01 -2.181773483753204346e-01
2.116256505250930786e-01 -1.128901839256286621e-01 4.759040474891662598e-01
3.084001541137695312e-01 -1.815234422683715820e-01 -3.496347367763519287e-01
-8.641125261783599854e-02 -3.528100848197937012e-01 -2.297266721725463867e-01
1.498576253652572632e-03 -6.139835715293884277e-02 1.795820593833923340e-01
-6.030235439538955688e-02 -6.003907322883605957e-02 -1.746453344821929932e-02
-2.281557321548461914e-01 -6.481054425239562988e-02 3.683578968048095703e-02
3.186275362968444824e-01 -1.141386702656745911e-01 2.229053899645805359e-02
-6.998930871486663818e-02 -2.332435101270675659e-01 -6.233970522880554199e-01
3.974771127104759216e-02 -7.755303382873535156e-02 -1.999765634536743164e-01
2.791001275181770325e-02 -3.522082567214965820e-01 -2.213782072067260742e-01
-4.656471312046051025e-01 -1.230686008930206299e-01 2.146071195602416992e-01
-1.610784679651260376e-01 -1.414980739355087280e-01 6.585069894790649414e-01
-4.590864479541778564e-02 -1.139267310500144958e-01 6.075074076652526855e-01
2.683757543563842773e-01 -9.898800402879714966e-02 2.716019004583358765e-02
-3.546691834926605225e-01 -8.916313201189041138e-02 2.255172431468963623e-01
-1.030838489532470703e-01 -1.376735419034957886e-01 -5.321290493011474609e-01
1.769850999116897583e-01 -1.696830242872238159e-01 6.766849160194396973e-01
-2.113576382398605347e-01 -3.101724982261657715e-01 -4.477559924125671387e-01
-5.274156332015991211e-01 -1.526746153831481934e-01 1.583581417798995972e-01
3.571084514260292053e-02 -7.984557747840881348e-02 -2.237460911273956299e-01
-8.153381198644638062e-02 -7.343724370002746582e-02 3.792916834354400635e-01
1.923086047172546387e-01 -9.498053789138793945e-02 3.793125450611114502e-01
-1.111177727580070496e-01 -9.921490401029586792e-02 5.381057858467102051e-01
2.112676948308944702e-01 -9.784213453531265259e-02 -1.461840569972991943e-01
3.014246821403503418e-01 -1.135657131671905518e-01 2.981567382812500000e-01
-2.573705911636352539e-01 -6.830048561096191406e-02 -8.231624960899353027e-04
-4.786179661750793457e-01 -2.316250056028366089e-01 -3.656478524208068848e-01
2.376774400472640991e-01 -9.197443723678588867e-02 2.185431718826293945e-01
-3.864416778087615967e-01 -2.940649390220642090e-01 3.619401454925537109e-01
5.814604833722114563e-02 -3.608233928680419922e-01 1.830353438854217529e-01
2.530135214328765869e-01 -3.400924205780029297e-01 7.256477326154708862e-02
7.042132318019866943e-02 -3.192177414894104004e-01 -4.112502038478851318e-01
-1.624878197908401489e-01 -6.941083073616027832e-02 -1.612813770771026611e-01
-1.321598589420318604e-01 -7.949839532375335693e-02 4.151520133018493652e-01
-5.474127456545829773e-02 -2.179457247257232666e-01 7.487670183181762695e-01
-1.779308319091796875e-01 -1.197234168648719788e-01 5.929188728332519531e-01
4.260911345481872559e-01 -1.636449545621871948e-01 1.252488642930984497e-01
-2.193824499845504761e-01 -7.891578972339630127e-02 -2.251800596714019775e-01
-1.361306905746459961e-01 -6.815442442893981934e-02 -1.566469967365264893e-01
-1.769453883171081543e-01 -6.322759389877319336e-02 1.883243918418884277e-01
7.195565104484558105e-02 -3.131942152976989746e-01 5.594428777694702148e-01
6.532116234302520752e-02 -2.958244383335113525e-01 -4.952055215835571289e-01
-3.511227071285247803e-01 -1.536583453416824341e-01 5.436782240867614746e-01
4.186916649341583252e-01 -1.656962335109710693e-01 2.592169940471649170e-01
-3.708362579345703125e-01 -3.097727298736572266e-01 -2.807036936283111572e-01
2.775110900402069092e-01 -1.887260973453521729e-01 6.175496578216552734e-01
-3.103439509868621826e-01 -7.768557965755462646e-02 -7.400054484605789185e-02
-2.414410263299942017e-01 -2.603517770767211914e-01 6.305301189422607422e-01
-2.790766358375549316e-01 -7.617850601673126221e-02 -1.231287494301795959e-01
-2.873439341783523560e-02 -8.063241839408874512e-02 -2.657498717308044434e-01
3.654493018984794617e-02 -3.435460925102233887e-01 3.979002535343170166e-01
-1.882659047842025757e-01 -3.017642796039581299e-01 -4.894935488700866699e-01
-4.986259043216705322e-01 -2.491448223590850830e-01 2.908244132995605469e-01
3.144718110561370850e-01 -1.733341813087463379e-01 5.513415932655334473e-01
2.927003800868988037e-01 -3.153299093246459961e-01 3.466606736183166504e-01
1.909716576337814331e-01 -8.651345968246459961e-02 -6.358820945024490356e-02
-3.641763031482696533e-01 -2.722882032394409180e-01 -4.511483311653137207e-01
-9.658875316381454468e-02 -3.492520153522491455e-01 3.337255120277404785e-01
-1.824709624052047729e-01 -3.234591484069824219e-01 4.606314599514007568e-01
-2.340550571680068970e-01 -3.528575003147125244e-01 6.404149532318115234e-02
-2.881583757698535919e-02 -3.294215798377990723e-01 4.916000366210937500e-01
-2.486059963703155518e-01 -2.453634440898895264e-01 6.494973897933959961e-01
2.740969955921173096e-01 -1.160563677549362183e-01 3.941985964775085449e-01
3.472704887390136719e-01 -2.853453159332275391e-01 4.097469449043273926e-01
2.247665077447891235e-01 -3.442578911781311035e-01 1.557516753673553467e-01
1.768395155668258667e-01 -3.010866641998291016e-01 -4.040516316890716553e-01
-5.629282072186470032e-02 -5.919000506401062012e-02 1.572809219360351562e-01
1.497469544410705566e-01 -3.109312653541564941e-01 5.358446836471557617e-01
2.773478329181671143e-01 -1.011282801628112793e-01 2.069330513477325439e-01
-3.478274047374725342e-01 -3.224883377552032471e-01 -2.244634032249450684e-01
-2.518140375614166260e-01 -3.026881217956542969e-01 5.012460947036743164e-01
-1.446232646703720093e-01 -3.005150556564331055e-01 -5.068437457084655762e-01
2.814790606498718262e-01 -3.296354413032531738e-01 -5.248572677373886108e-02
3.190772235393524170e-01 -1.118816286325454712e-01 1.346758306026458740e-01
-2.342311292886734009e-01 -8.111351728439331055e-02 3.549881577491760254e-01
3.807312622666358948e-02 -1.902644187211990356e-01 7.458080649375915527e-01
-1.673014312982559204e-01 -3.504433929920196533e-01 -2.103767395019531250e-01
-2.839616537094116211e-01 -3.458263278007507324e-01 4.522018879652023315e-02
-1.356060504913330078e-01 -1.885485500097274780e-01 -6.156635284423828125e-01
-2.472060173749923706e-01 -2.785714864730834961e-01 5.852419734001159668e-01
-5.097182989120483398e-01 -2.646790146827697754e-01 -1.826678514480590820e-01
-2.529340088367462158e-01 -3.454654812812805176e-01 -1.535864472389221191e-01
-1.587209403514862061e-01 -1.260010898113250732e-01 6.206846833229064941e-01
-1.364585906267166138e-01 -3.426790833473205566e-01 3.668700158596038818e-01
-3.790515065193176270e-01 -2.469933927059173584e-01 5.207573175430297852e-01
3.723859190940856934e-01 -3.016689121723175049e-01 2.047323286533355713e-01
-4.227093458175659180e-01 -3.116296231746673584e-01 -9.506484121084213257e-02
1.099796965718269348e-02 -3.127228617668151855e-01 -4.610393643379211426e-01
-1.711959838867187500e-01 -3.179414868354797363e-01 4.965178072452545166e-01
4.540205001831054688e-01 -1.984136700630187988e-01 6.306284666061401367e-02
-4.336124956607818604e-01 -2.689109444618225098e-01 -3.646660149097442627e-01
3.638047277927398682e-01 -2.934739589691162109e-01 3.229305446147918701e-01
-2.961838245391845703e-01 -9.075535833835601807e-02 -2.520098984241485596e-01
2.460657805204391479e-01 -9.310409426689147949e-02 1.981406211853027344e-01
2.148820608854293823e-01 -2.757902741432189941e-01 -4.367550313472747803e-01
2.106569558382034302e-01 -9.392879158258438110e-02 -1.076459065079689026e-01
-2.414007484912872314e-01 -1.696539521217346191e-01 -5.699460506439208984e-01
-8.706647902727127075e-02 -8.801987022161483765e-02 4.845714867115020752e-01
4.102251827716827393e-01 -2.681981325149536133e-01 -9.173782914876937866e-02
7.257488369941711426e-02 -1.171410679817199707e-01 5.991522669792175293e-01
-4.203342795372009277e-01 -1.365652382373809814e-01 3.999353945255279541e-01
-1.825710237026214600e-01 -6.950347125530242920e-02 -1.501192152500152588e-01
-1.659425497055053711e-01 -1.566590517759323120e-01 6.845418214797973633e-01
3.375414013862609863e-01 -1.421950012445449829e-01 -1.691591739654541016e-01
-3.609309196472167969e-01 -3.196905255317687988e-01 2.373920083045959473e-01
3.837606310844421387e-01 -2.290269732475280762e-01 4.733418226242065430e-01
-5.419525504112243652e-01 -1.544206738471984863e-01 1.822795718908309937e-03
3.796434700489044189e-01 -3.016202449798583984e-01 8.674672245979309082e-02
2.953892052173614502e-01 -3.203382790088653564e-01 -1.191097572445869446e-01
-3.443989753723144531e-01 -3.343823552131652832e-01 -2.071765810251235962e-02
-6.951292604207992554e-02 -2.119696587324142456e-01 -6.268071532249450684e-01
2.408647984266281128e-01 -9.334737807512283325e-02 6.379559636116027832e-04
1.222297698259353638e-01 -1.066275835037231445e-01 -3.275295495986938477e-01
-1.670682877302169800e-01 -3.566077649593353271e-01 1.715209037065505981e-01
-1.570107042789459229e-01 -3.479205071926116943e-01 -2.455951273441314697e-01
1.883381307125091553e-01 -1.034093871712684631e-01 -2.302616834640502930e-01
3.785761818289756775e-02 -2.794932723045349121e-01 -5.453033447265625000e-01
-3.950772807002067566e-02 -6.285081803798675537e-02 2.465428709983825684e-01
2.219793349504470825e-01 -1.348669230937957764e-01 5.603250861167907715e-01
-1.257375329732894897e-01 -1.284573376178741455e-01 -5.057033300399780273e-01
-8.513983339071273804e-03 -3.363252282142639160e-01 -3.549389243125915527e-01
-1.561090648174285889e-01 -3.458840847015380859e-01 -2.654583454132080078e-01
-2.797287106513977051e-01 -2.386125773191452026e-01 6.345468163490295410e-01
-4.725735187530517578e-01 -2.173623144626617432e-01 4.094782173633575439e-01
-3.268386125564575195e-01 -2.397886812686920166e-01 5.909217596054077148e-01
1.342492401599884033e-01 -1.506606340408325195e-01 6.669179797172546387e-01
-3.785412013530731201e-01 -1.940649598836898804e-01 5.573917627334594727e-01
-1.680689603090286255e-01 -7.919779419898986816e-02 -2.560104727745056152e-01
2.112221270799636841e-01 -3.470774888992309570e-01 1.352078616619110107e-01
-3.885022103786468506e-01 -9.187795221805572510e-02 -5.778950452804565430e-02
-2.049285173416137695e-01 -3.541614115238189697e-01 1.412862539291381836e-01
-2.261948287487030029e-01 -2.442571222782135010e-01 6.657946705818176270e-01
4.249881803989410400e-01 -2.737043201923370361e-01 1.840913891792297363e-01
2.421462386846542358e-01 -3.371521830558776855e-01 2.383474707603454590e-01
-1.093786209821701050e-02 -6.002844870090484619e-02 1.420206278562545776e-01
2.830181717872619629e-01 -2.681580483913421631e-01 -3.723973631858825684e-01
7.979574799537658691e-02 -3.385078310966491699e-01 4.207014143466949463e-01
8.516253530979156494e-02 -2.697462737560272217e-01 -5.429428219795227051e-01
-2.436176687479019165e-01 -1.908794939517974854e-01 6.771940588951110840e-01
-3.339602649211883545e-01 -1.504356563091278076e-01 5.558552145957946777e-01
2.879540026187896729e-01 -3.306372761726379395e-01 1.702511161565780640e-01
-1.206371337175369263e-01 -2.376761883497238159e-01 7.218928933143615723e-01
-4.782923460006713867e-01 -1.742719262838363647e-01 -3.495985567569732666e-01
-2.359212338924407959e-01 -3.511036634445190430e-01 -8.501673489809036255e-02
2.040605098009109497e-01 -2.682066857814788818e-01 -4.619354009628295898e-01
-3.883897364139556885e-01 -1.010728701949119568e-01 -1.856982409954071045e-01
-4.334938526153564453e-01 -1.307021677494049072e-01 3.502390384674072266e-01
-4.025510549545288086e-01 -1.200157403945922852e-01 -2.931390404701232910e-01
-7.587817311286926270e-02 -7.565002143383026123e-02 3.993670642375946045e-01
2.963128089904785156e-01 -1.212116330862045288e-01 -1.424680352210998535e-01
-1.773736029863357544e-01 -3.490697741508483887e-01 2.690062224864959717e-01
3.938458263874053955e-01 -1.542221605777740479e-01 3.044635057449340820e-01
-3.943029791116714478e-02 -6.944441795349121094e-02 3.392780423164367676e-01
-2.817341387271881104e-01 -3.042304217815399170e-01 4.645423889160156250e-01
-2.462527714669704437e-02 -3.246963620185852051e-01 -4.193082749843597412e-01
2.305722385644912720e-01 -3.439198136329650879e-01 2.482086047530174255e-02
-1.190056204795837402e-01 -2.859691381454467773e-01 6.371610164642333984e-01
-2.982806563377380371e-01 -2.626931369304656982e-01 -5.300350189208984375e-01
-1.221938803791999817e-02 -3.513364791870117188e-01 3.363979458808898926e-01
-1.366148740053176880e-01 -3.383737802505493164e-01 -3.338462114334106445e-01
1.410566270351409912e-01 -1.361707448959350586e-01 -4.312981963157653809e-01
-2.663739919662475586e-01 -2.425609380006790161e-01 -5.766188502311706543e-01
-4.379668235778808594e-01 -1.110800281167030334e-01 -1.434679925441741943e-01
2.216175049543380737e-01 -2.447348237037658691e-01 -4.756097197532653809e-01
-1.293493956327438354e-01 -2.531373798847198486e-01 -6.066592931747436523e-01
2.710923254489898682e-01 -1.866782903671264648e-01 -4.095555245876312256e-01
3.372492492198944092e-01 -2.779642343521118164e-01 4.583987295627593994e-01
8.963456749916076660e-02 -2.963903844356536865e-01 6.154728531837463379e-01
6.120830401778221130e-02 -3.577869534492492676e-01 2.373490631580352783e-01
-7.435795664787292480e-02 -7.974901795387268066e-02 4.317834079265594482e-01
-1.887049227952957153e-01 -3.314695358276367188e-01 -3.530734479427337646e-01
-5.233525112271308899e-02 -3.517796397209167480e-01 3.265856206417083740e-01
-2.038476765155792236e-01 -6.461973488330841064e-02 -3.975790739059448242e-02
-3.362267017364501953e-01 -3.321140408515930176e-01 -1.362985968589782715e-01
-4.079190194606781006e-01 -3.177505433559417725e-01 -5.026729404926300049e-02
-1.253122091293334961e-01 -1.131025254726409912e-01 5.910370945930480957e-01
-2.674839496612548828e-01 -3.340912759304046631e-01 2.951194941997528076e-01
1.404066681861877441e-01 -1.105374842882156372e-01 5.342102646827697754e-01
-3.043735325336456299e-01 -7.506734132766723633e-02 1.365279853343963623e-01
3.306214809417724609e-01 -2.586028873920440674e-01 5.222462415695190430e-01
4.322354197502136230e-01 -1.745048165321350098e-01 2.208463475108146667e-02
1.056101918220520020e-01 -1.449620425701141357e-01 6.674928069114685059e-01
3.345242440700531006e-01 -3.028375506401062012e-01 3.405733406543731689e-01
-3.186392039060592651e-02 -2.719625830650329590e-01 6.890761852264404297e-01
-1.760151535272598267e-01 -2.709334492683410645e-01 6.488242745399475098e-01
5.542151629924774170e-03 -6.571657955646514893e-02 -8.679770678281784058e-02
-2.463036030530929565e-01 -2.510826885700225830e-01 -5.770664215087890625e-01
-9.240214526653289795e-02 -3.632499873638153076e-01 1.255906820297241211e-01
-1.391799896955490112e-01 -3.502047955989837646e-01 -2.341030836105346680e-01
-4.778319299221038818e-01 -2.617057561874389648e-01 3.041087388992309570e-01
-3.219452500343322754e-01 -8.680307865142822266e-02 2.771155536174774170e-01
3.147539198398590088e-01 -3.229251205921173096e-01 1.842265129089355469e-01
7.644690573215484619e-02 -3.453006744384765625e-01 3.694619834423065186e-01
1.862736791372299194e-01 -2.616035044193267822e-01 -4.882926940917968750e-01
1.847051829099655151e-01 -2.047854065895080566e-01 -5.145001411437988281e-01
-2.196969836950302124e-01 -3.312099277973175049e-01 3.803847730159759521e-01
1.374331116676330566e-01 -9.574373066425323486e-02 -2.460572421550750732e-01
4.488281011581420898e-01 -2.433997690677642822e-01 1.209849119186401367e-02
-1.360668241977691650e-01 -6.526495516300201416e-02 2.674863636493682861e-01
-3.408441245555877686e-01 -1.078548803925514221e-01 -3.138491809368133545e-01
1.163274422287940979e-02 -1.529757976531982422e-01 7.066335678100585938e-01
-2.442177385091781616e-01 -2.960814535617828369e-01 -4.809405803680419922e-01
-4.559960067272186279e-01 -1.360822618007659912e-01 3.231207728385925293e-01
-1.762524694204330444e-01 -1.925909519195556641e-01 7.142509818077087402e-01
1.065671741962432861e-01 -3.064684271812438965e-01 -4.398018121719360352e-01
-2.020239830017089844e-01 -8.312505483627319336e-02 -2.716957032680511475e-01
2.053306251764297485e-01 -8.923613280057907104e-02 2.888844013214111328e-01
3.512476682662963867e-01 -2.946463227272033691e-01 -1.526458859443664551e-01
-3.469697535037994385e-01 -3.170751929283142090e-01 -2.725343406200408936e-01
6.710474193096160889e-02 -6.674395501613616943e-02 -1.295994222164154053e-02
1.328649669885635376e-01 -3.510024547576904297e-01 2.621725797653198242e-01
-3.429303318262100220e-02 -2.994689345359802246e-01 6.170640587806701660e-01
-7.905508577823638916e-02 -5.846008658409118652e-02 4.230279102921485901e-02
-2.745037674903869629e-01 -3.286586105823516846e-01 -2.955186367034912109e-01
2.473600953817367554e-01 -2.862593233585357666e-01 -3.747130930423736572e-01
1.435606926679611206e-01 -2.367452234029769897e-01 7.104999423027038574e-01
-7.069829106330871582e-02 -1.468983590602874756e-01 6.937020421028137207e-01
-5.468619465827941895e-01 -1.609640121459960938e-01 7.290995121002197266e-02
-2.260246276855468750e-01 -7.216581702232360840e-02 -1.450893878936767578e-01
-7.964105904102325439e-02 -1.165690720081329346e-01 6.135035753250122070e-01
-1.216724812984466553e-01 -6.415997445583343506e-02 -1.042894199490547180e-01
4.044383764266967773e-01 -1.764028668403625488e-01 -1.248411908745765686e-01
4.306148365139961243e-02 -7.542783021926879883e-02 3.675169348716735840e-01
-3.024500906467437744e-01 -9.953370690345764160e-02 -3.068147301673889160e-01
-4.051534533500671387e-01 -2.730153203010559082e-01 4.171539843082427979e-01
1.660472303628921509e-01 -3.463133275508880615e-01 -1.390904784202575684e-01
-3.405736386775970459e-02 -8.576579391956329346e-02 4.735052585601806641e-01
-2.039170414209365845e-01 -1.556043475866317749e-01 -5.590980052947998047e-01
1.508751511573791504e-01 -8.316752314567565918e-02 3.283985257148742676e-01
-5.263257622718811035e-01 -2.563141286373138428e-01 -1.556396484375000000e-01
1.761310994625091553e-01 -1.238596588373184204e-01 5.625696778297424316e-01
1.853690892457962036e-01 -3.516857028007507324e-01 5.660627409815788269e-02
-1.729014068841934204e-01 -3.596699237823486328e-01 3.005248308181762695e-02
-6.435330212116241455e-02 -3.447056412696838379e-01 -3.043709397315979004e-01
-1.076801717281341553e-01 -6.186901032924652100e-02 -6.584372371435165405e-02
4.057145714759826660e-01 -2.189887762069702148e-01 4.284192025661468506e-01
3.798645436763763428e-01 -2.877839505672454834e-01 -1.011360064148902893e-01
-2.758791446685791016e-01 -7.135532796382904053e-02 1.485423743724822998e-01
-5.110511183738708496e-01 -1.817503422498703003e-01 3.135924041271209717e-01
-2.319007217884063721e-01 -1.247304677963256836e-01 -4.688864946365356445e-01
3.885174393653869629e-01 -1.595561206340789795e-01 -1.066660210490226746e-01
1.372321099042892456e-01 -7.419982552528381348e-02 5.103621631860733032e-03
-1.505414247512817383e-01 -1.872447878122329712e-01 7.221896648406982422e-01
9.413782507181167603e-03 -2.570310831069946289e-01 7.166720628738403320e-01
3.003737628459930420e-01 -3.289874494075775146e-01 8.499357104301452637e-02
-1.832552403211593628e-01 -3.579668998718261719e-01 -4.432924091815948486e-02
-1.421971023082733154e-01 -3.612219691276550293e-01 9.790584444999694824e-02
-5.111399888992309570e-01 -2.690482735633850098e-01 1.377846151590347290e-01
2.427053004503250122e-01 -3.137358427047729492e-01 -2.731853127479553223e-01
-3.884859979152679443e-01 -2.962243556976318359e-01 -3.296729028224945068e-01
1.098487079143524170e-01 -2.208447903394699097e-01 7.325664758682250977e-01
-2.507052421569824219e-01 -1.180136650800704956e-01 -4.354496896266937256e-01
-2.698456346988677979e-01 -3.373473286628723145e-01 2.585954666137695312e-01
9.604409337043762207e-02 -1.170802637934684753e-01 -3.974214196205139160e-01
3.660401403903961182e-01 -2.702012062072753906e-01 -2.192365527153015137e-01
-2.170443832874298096e-01 -3.551492989063262939e-01 -5.359977483749389648e-03
2.958378791809082031e-01 -2.466296255588531494e-01 5.876098275184631348e-01
1.451470404863357544e-01 -3.556585609912872314e-01 -1.373184472322463989e-02
4.299420118331909180e-01 -1.696329414844512939e-01 2.056257128715515137e-01
-3.917440176010131836e-01 -3.226713240146636963e-01 -3.374271839857101440e-02
-4.019717276096343994e-01 -3.150709867477416992e-01 1.536577939987182617e-01
-3.656028509140014648e-01 -2.730026245117187500e-01 4.774411618709564209e-01
3.284791409969329834e-01 -2.714205384254455566e-01 -2.934923470020294189e-01
5.189738795161247253e-02 -3.625877499580383301e-01 -3.882751613855361938e-02
-4.728544503450393677e-02 -8.148756623268127441e-02 -2.780909240245819092e-01
-3.059769570827484131e-01 -2.977862060070037842e-01 4.647205173969268799e-01
3.202624320983886719e-01 -1.218695491552352905e-01 -7.476838678121566772e-02
-5.650975108146667480e-01 -2.253863960504531860e-01 8.479919284582138062e-03
-1.513683050870895386e-01 -3.140688538551330566e-01 5.259506106376647949e-01
2.055326551198959351e-01 -1.174287050962448120e-01 -2.884038686752319336e-01
3.011669516563415527e-01 -1.097266152501106262e-01 -1.721024513244628906e-03
3.770091831684112549e-01 -3.008741140365600586e-01 1.828227341175079346e-01
1.707789897918701172e-01 -3.530400395393371582e-01 8.274275809526443481e-03
1.384913921356201172e-04 -3.310762047767639160e-01 -3.824008107185363770e-01
-1.601413637399673462e-01 -9.810315072536468506e-02 -3.804901242256164551e-01
-1.587844640016555786e-01 -3.605843186378479004e-01 6.455094367265701294e-02
4.106049612164497375e-02 -6.526988744735717773e-02 2.253280580043792725e-01
-3.511001169681549072e-02 -5.891911685466766357e-02 1.159626096487045288e-01
-2.147385776042938232e-01 -2.907643020153045654e-01 -5.125221610069274902e-01
2.233861833810806274e-01 -1.024063006043434143e-01 3.887514173984527588e-01
-1.241448223590850830e-01 -1.794370859861373901e-01 7.257138490676879883e-01
-4.791435301303863525e-01 -1.222803667187690735e-01 -9.216969460248947144e-02
-1.843776702880859375e-01 -3.568308353424072266e-01 1.277922391891479492e-01
-5.650327205657958984e-01 -1.911871433258056641e-01 -7.408290356397628784e-02
-5.197830796241760254e-01 -1.387462466955184937e-01 3.674758225679397583e-02
2.536093890666961670e-01 -3.399279713630676270e-01 9.657859802246093750e-02
-3.090330064296722412e-01 -1.453117430210113525e-01 -4.863023757934570312e-01
2.624677419662475586e-01 -1.235215738415718079e-01 4.609286785125732422e-01
-3.044308125972747803e-01 -3.424259424209594727e-01 -6.748631596565246582e-03
1.383368298411369324e-02 -6.214384734630584717e-02 3.758255392313003540e-03
-4.494374096393585205e-01 -1.107097789645195007e-01 1.477688401937484741e-01
-4.741275608539581299e-01 -2.686766684055328369e-01 -2.800886929035186768e-01
-7.319532334804534912e-03 -2.960527837276458740e-01 6.295624971389770508e-01
3.061884641647338867e-01 -3.253285586833953857e-01 -6.286472082138061523e-03
3.562953174114227295e-01 -3.072691559791564941e-01 2.188069820404052734e-01
-4.318086802959442139e-01 -1.118046864867210388e-01 2.349343895912170410e-01
1.304801106452941895e-01 -3.238525986671447754e-01 -3.495463430881500244e-01
3.039704859256744385e-01 -1.070877239108085632e-01 1.213768497109413147e-01
1.916850954294204712e-01 -3.469814360141754150e-01 -7.133091241121292114e-02
-1.589247882366180420e-01 -1.114525943994522095e-01 5.726597309112548828e-01
-2.392328679561614990e-01 -3.330309092998504639e-01 3.444492518901824951e-01
-1.428566575050354004e-01 -3.528727293014526367e-01 -2.016670703887939453e-01
-3.227483928203582764e-01 -2.644348442554473877e-01 5.513487458229064941e-01
5.985413119196891785e-02 -3.320339620113372803e-01 -3.538277447223663330e-01
5.478394404053688049e-02 -7.076430320739746094e-02 -1.078155413269996643e-01
9.943498671054840088e-02 -8.125644922256469727e-02 3.767121136188507080e-01
1.325409263372421265e-01 -3.543549180030822754e-01 -8.173871785402297974e-02
3.774168491363525391e-01 -1.354481577873229980e-01 1.772567778825759888e-01
-3.079993128776550293e-01 -1.125145182013511658e-01 4.659315347671508789e-01
1.142774373292922974e-01 -3.497035801410675049e-01 2.996633946895599365e-01
9.529504925012588501e-03 -7.288609445095062256e-02 -1.768072247505187988e-01
8.377501368522644043e-02 -3.578433990478515625e-01 -1.017975583672523499e-01
1.362925916910171509e-01 -3.421366214752197266e-01 -2.244196534156799316e-01
-2.546781897544860840e-01 -1.496954411268234253e-01 6.233370900154113770e-01
3.313757181167602539e-01 -3.046696186065673828e-01 -1.448603272438049316e-01
2.849176824092864990e-01 -1.023960784077644348e-01 5.959839001297950745e-02
1.044758260250091553e-01 -3.604185581207275391e-01 9.208834171295166016e-02
-1.929037719964981079e-01 -6.202727556228637695e-02 9.735095500946044922e-02
-4.108682572841644287e-01 -9.865633398294448853e-02 1.546450257301330566e-01
1.098612695932388306e-01 -1.240818127989768982e-01 6.071403622627258301e-01
-2.558535635471343994e-01 -3.182461857795715332e-01 4.226732850074768066e-01
-2.864882051944732666e-01 -7.188466191291809082e-02 1.157265156507492065e-01
2.723703384399414062e-01 -2.272167652845382690e-01 -4.299842119216918945e-01
-2.139945328235626221e-02 -7.090087234973907471e-02 3.512939214706420898e-01
1.484042033553123474e-02 -3.436884284019470215e-01 4.005208015441894531e-01
-1.962049752473831177e-01 -6.257283687591552734e-02 1.202902048826217651e-01
1.709636449813842773e-01 -3.339353501796722412e-01 3.896893858909606934e-01
-2.516074478626251221e-01 -3.203784823417663574e-01 -3.721793591976165771e-01
6.908841431140899658e-02 -9.597753733396530151e-02 5.044032335281372070e-01
2.055621519684791565e-02 -3.601049184799194336e-01 -1.251919269561767578e-01
-2.303051501512527466e-01 -7.487395405769348145e-02 2.986263036727905273e-01
-2.325404621660709381e-02 -3.628106117248535156e-01 1.781962215900421143e-01
1.631281152367591858e-02 -6.355191767215728760e-02 -3.148836642503738403e-02
-5.497235655784606934e-01 -2.133975625038146973e-01 -1.856155097484588623e-01
6.003399565815925598e-02 -1.034275144338607788e-01 5.468633770942687988e-01
3.946360945701599121e-01 -2.901628017425537109e-01 -7.750891149044036865e-03
-2.583887875080108643e-01 -3.480141162872314453e-01 1.202074587345123291e-01
-2.842509448528289795e-01 -2.901576459407806396e-01 5.173835754394531250e-01
-2.577965259552001953e-01 -8.751951903104782104e-02 3.799404501914978027e-01
2.966275811195373535e-01 -1.297906041145324707e-01 4.343082904815673828e-01
-5.468919873237609863e-03 -3.576670289039611816e-01 -1.729301512241363525e-01
-5.635240674018859863e-02 -8.701471984386444092e-02 -3.182884752750396729e-01
-1.787796914577484131e-01 -3.155995607376098633e-01 -4.403454065322875977e-01
4.343460500240325928e-01 -1.914437711238861084e-01 -5.426897108554840088e-02
-4.655894339084625244e-01 -2.876650691032409668e-01 1.939223706722259521e-01
2.167020291090011597e-01 -2.680085301399230957e-01 6.241061687469482422e-01
-4.885043203830718994e-02 -9.428419172763824463e-02 5.228000879287719727e-01
7.756531238555908203e-02 -2.489209473133087158e-01 -5.733482241630554199e-01
-5.630262941122055054e-02 -3.650910258293151855e-01 9.372599422931671143e-02
-5.660680532455444336e-01 -1.888538300991058350e-01 5.618130043148994446e-02
-1.822512149810791016e-01 -1.127980425953865051e-01 5.666987299919128418e-01
9.732857346534729004e-02 -7.267886400222778320e-02 -6.963627785444259644e-02
-1.129888743162155151e-02 -5.961553752422332764e-02 1.022382974624633789e-01
3.184089362621307373e-01 -1.924333423376083374e-01 5.726707577705383301e-01
2.018768340349197388e-01 -3.464872539043426514e-01 1.944254338741302490e-01
-2.359617650508880615e-01 -1.060672774910926819e-01 -3.918142020702362061e-01
-8.463901281356811523e-02 -7.646216452121734619e-02 -2.451619207859039307e-01
-1.814361065626144409e-01 -1.172511801123619080e-01 -4.595980048179626465e-01
2.747787535190582275e-01 -1.062736511230468750e-01 -6.537080556154251099e-02
-5.861728638410568237e-02 -2.846708893775939941e-01 -5.550806522369384766e-01
-3.095447719097137451e-01 -3.389795422554016113e-01 1.282960921525955200e-01
-3.707967698574066162e-01 -2.810758650302886963e-01 -4.174756109714508057e-01
2.509187906980514526e-03 -2.727646827697753906e-01 -5.687749981880187988e-01
-1.877775490283966064e-01 -3.569939732551574707e-01 -6.527941673994064331e-02
-4.433124363422393799e-01 -2.857204079627990723e-01 -2.733446955680847168e-01
-1.572151184082031250e-01 -3.507184386253356934e-01 2.724747955799102783e-01
-1.605109274387359619e-01 -3.225929439067840576e-01 -4.154788553714752197e-01
-5.040603503584861755e-02 -7.402431964874267578e-02 -2.172128260135650635e-01
-1.861576735973358154e-01 -3.433060944080352783e-01 -2.668791413307189941e-01
2.565172612667083740e-01 -1.175979971885681152e-01 -2.068360149860382080e-01
-5.236085653305053711e-01 -2.627986967563629150e-01 1.151505857706069946e-01
1.099213361740112305e-01 -1.803756058216094971e-01 -5.461571812629699707e-01
4.325712025165557861e-01 -2.514422237873077393e-01 2.917279303073883057e-01
1.964613944292068481e-01 -3.097026348114013672e-01 -3.517117798328399658e-01
-1.242416203022003174e-01 -7.558241486549377441e-02 3.868696987628936768e-01
-5.811186879873275757e-02 -3.364655077457427979e-01 -3.600477576255798340e-01
1.177747696638107300e-01 -8.677576482295989990e-02 4.070452451705932617e-01
-3.388694226741790771e-01 -1.806455254554748535e-01 5.933683514595031738e-01
-3.744592070579528809e-01 -3.232237398624420166e-01 1.484864354133605957e-01
-3.250051438808441162e-01 -1.611859053373336792e-01 -5.097317695617675781e-01
-1.556243896484375000e-01 -6.307467818260192871e-02 2.128623127937316895e-01
-3.072050213813781738e-01 -7.453125715255737305e-02 1.069054007530212402e-02
2.547661364078521729e-01 -3.359642028808593750e-01 -5.433437228202819824e-02
-4.225416183471679688e-01 -1.135660186409950256e-01 -2.113926708698272705e-01
3.021057248115539551e-01 -1.602887809276580811e-01 5.400084853172302246e-01
-1.747967600822448730e-01 -3.405992090702056885e-01 3.534365296363830566e-01
-3.706894814968109131e-03 -7.360093295574188232e-02 -1.927620470523834229e-01
-2.750144898891448975e-01 -3.438977897167205811e-01 -1.245549246668815613e-01
-5.077537149190902710e-02 -7.402455806732177734e-02 3.861336112022399902e-01
4.088000580668449402e-02 -8.439335227012634277e-02 4.445017874240875244e-01
-1.621265411376953125e-01 -8.503821492195129395e-02 -3.019744455814361572e-01
1.138862594962120056e-02 -2.148212790489196777e-01 -6.119712591171264648e-01
-9.215649217367172241e-02 -3.533425927162170410e-01 2.941950857639312744e-01
-2.932685315608978271e-01 -3.441534638404846191e-01 -2.759638428688049316e-02
1.101080030202865601e-01 -3.565149307250976562e-01 2.047188878059387207e-01
-3.888171315193176270e-01 -9.311711788177490234e-02 1.622751653194427490e-01
-1.313023418188095093e-01 -1.147348731756210327e-01 -4.585212469100952148e-01
-6.703416258096694946e-02 -3.647364974021911621e-01 -2.553648501634597778e-02
-8.626851439476013184e-02 -5.921944975852966309e-02 3.026228398084640503e-03
-1.199330687522888184e-01 -2.898894846439361572e-01 -5.412458777427673340e-01
2.558832466602325439e-01 -2.892662882804870605e-01 -3.548615276813507080e-01
-2.992546856403350830e-01 -8.050757646560668945e-02 -1.457139849662780762e-01
2.265917807817459106e-01 -1.667167246341705322e-01 6.361170411109924316e-01
-3.957772552967071533e-01 -9.988199919462203979e-02 -1.541236937046051025e-01
1.166084781289100647e-02 -6.801928579807281494e-02 3.021395504474639893e-01
-2.391142845153808594e-01 -3.358644545078277588e-01 3.213580548763275146e-01
-3.277532458305358887e-01 -2.050796598196029663e-01 -5.529842972755432129e-01
-1.615517586469650269e-01 -3.048871159553527832e-01 -4.879794716835021973e-01
-3.399239182472229004e-01 -2.449596673250198364e-01 -5.253502726554870605e-01
2.281974107027053833e-01 -2.972595691680908203e-01 -3.632079660892486572e-01
-2.504832446575164795e-01 -2.350361049175262451e-01 -5.904121398925781250e-01
3.060718178749084473e-01 -1.637353897094726562e-01 -3.145543634891510010e-01
2.729597985744476318e-01 -1.008539944887161255e-01 2.279319465160369873e-01
2.394962161779403687e-01 -9.458761662244796753e-02 -2.884953469038009644e-02
8.299980312585830688e-03 -6.062649190425872803e-02 1.212795227766036987e-01
1.970901638269424438e-01 -1.330651789903640747e-01 -3.666369915008544922e-01
-2.342211604118347168e-01 -8.489462733268737793e-02 3.853083550930023193e-01
-1.890152692794799805e-01 -3.576795756816864014e-01 7.942957431077957153e-02
4.409136995673179626e-02 -2.913498282432556152e-01 6.404528021812438965e-01
4.398496150970458984e-01 -2.592403292655944824e-01 3.101900592446327209e-02
1.827946677803993225e-02 -2.431876063346862793e-01 7.340032458305358887e-01
2.513010427355766296e-02 -2.848229706287384033e-01 6.600991487503051758e-01
-3.245266377925872803e-01 -3.384415209293365479e-01 -2.565713226795196533e-02
1.567358076572418213e-01 -2.769078016281127930e-01 -4.852848052978515625e-01
2.369634062051773071e-01 -1.297677904367446899e-01 -3.027719557285308838e-01
-1.831697374582290649e-01 -1.031398698687553406e-01 -3.995576500892639160e-01
-2.948901057243347168e-01 -3.433976173400878906e-01 -5.227610468864440918e-02
-4.806112647056579590e-01 -2.544314861297607422e-01 3.227336406707763672e-01
9.664817154407501221e-02 -1.170874387025833130e-01 5.885355472564697266e-01
-3.422594964504241943e-01 -8.910842984914779663e-02 2.572050392627716064e-01
-4.255503118038177490e-01 -3.127508461475372314e-01 2.813594415783882141e-02
-3.961333036422729492e-01 -1.031792089343070984e-01 2.621982693672180176e-01
1.102457940578460693e-01 -3.228096365928649902e-01 5.011745095252990723e-01
1.172202974557876587e-01 -2.977440357208251953e-01 6.014565825462341309e-01
-8.095172047615051270e-02 -3.555750846862792969e-01 -2.001722157001495361e-01
-5.573830008506774902e-01 -2.138094007968902588e-01 -1.451917290687561035e-01
-1.424372643232345581e-01 -8.610005676746368408e-02 -3.138069212436676025e-01
2.902401611208915710e-02 -3.581507205963134766e-01 -1.500928401947021484e-01
4.134405255317687988e-01 -2.571203410625457764e-01 -1.217649653553962708e-01
-5.835038051009178162e-02 -3.483846187591552734e-01 3.567325770854949951e-01
-5.202153325080871582e-02 -6.680861115455627441e-02 3.094049990177154541e-01
1.324678584933280945e-02 -3.103106915950775146e-01 5.801346302032470703e-01
-5.345037579536437988e-01 -2.605094313621520996e-01 1.568700745701789856e-02
-3.119214624166488647e-02 -6.844098865985870361e-02 -1.507236063480377197e-01
2.793345153331756592e-01 -1.054629832506179810e-01 -3.749480843544006348e-02
1.103049069643020630e-01 -3.435107469558715820e-01 -2.401469945907592773e-01
4.679859802126884460e-02 -3.565505743026733398e-01 -1.597570776939392090e-01
-4.802809953689575195e-01 -2.670465409755706787e-01 2.743805646896362305e-01
-1.924546360969543457e-01 -3.069607913494110107e-01 -4.693327546119689941e-01
1.356302052736282349e-01 -7.757729291915893555e-02 2.813881635665893555e-01
2.578801214694976807e-01 -1.349836289882659912e-01 5.192523002624511719e-01
-9.736162424087524414e-02 -8.832959830760955811e-02 -3.314577639102935791e-01
-2.778847515583038330e-02 -3.637145757675170898e-01 -7.140532881021499634e-02
-1.314078420400619507e-01 -6.087794899940490723e-02 1.853712499141693115e-01
-3.192305564880371094e-01 -9.566420316696166992e-02 3.576043248176574707e-01
-7.812321186065673828e-02 -3.621871173381805420e-01 1.691963970661163330e-01
-4.174457490444183350e-01 -1.015848070383071899e-01 -1.006722971796989441e-01
3.786605596542358398e-01 -2.814229726791381836e-01 -1.415293216705322266e-01
1.412035822868347168e-01 -7.434958219528198242e-02 1.985799372196197510e-01
3.335566222667694092e-01 -1.172235757112503052e-01 8.334292471408843994e-02
-4.579893350601196289e-01 -2.988824844360351562e-01 -9.795073419809341431e-02
1.484860479831695557e-01 -8.139343559741973877e-02 -9.530518203973770142e-02
9.788104891777038574e-02 -3.481177687644958496e-01 -2.104904353618621826e-01
-1.644676923751831055e-01 -3.054534196853637695e-01 5.540673136711120605e-01
3.264938592910766602e-01 -1.628438830375671387e-01 -2.759266495704650879e-01
1.942691951990127563e-01 -1.424592435359954834e-01 -4.012553989887237549e-01
1.720208376646041870e-01 -8.254395425319671631e-02 -5.525634437799453735e-02
-7.779495418071746826e-02 -3.290104866027832031e-01 4.840418100357055664e-01
1.916255950927734375e-01 -9.769660979509353638e-02 -1.823261976242065430e-01
-1.680874451994895935e-02 -3.031017482280731201e-01 6.063379049301147461e-01
-3.949773311614990234e-01 -2.636121511459350586e-01 4.620672166347503662e-01
2.513053715229034424e-01 -3.401359319686889648e-01 4.031637683510780334e-02
-9.933608770370483398e-02 -3.355635702610015869e-01 4.376902878284454346e-01
-3.503629863262176514e-01 -2.365326136350631714e-01 5.703831315040588379e-01
-3.675878942012786865e-01 -1.824597716331481934e-01 -5.063821673393249512e-01
-1.495174318552017212e-01 -7.240062952041625977e-02 -2.002856731414794922e-01
1.802003979682922363e-01 -2.599451839923858643e-01 6.632277965545654297e-01
3.210869431495666504e-01 -2.241437435150146484e-01 5.771946907043457031e-01
6.855930387973785400e-02 -6.795173883438110352e-02 -3.818525373935699463e-02
-1.137040257453918457e-01 -7.690091431140899658e-02 -2.490496635437011719e-01
8.968900144100189209e-02 -1.275420784950256348e-01 6.275350451469421387e-01
-5.284157395362854004e-01 -1.614682674407958984e-01 2.021082639694213867e-01
5.287292227149009705e-02 -8.273336291313171387e-02 -2.342523634433746338e-01
-1.403172314167022705e-01 -3.618025779724121094e-01 7.403889298439025879e-02
-2.938983738422393799e-01 -8.445075154304504395e-02 3.051035702228546143e-01
-1.812307164072990417e-02 -2.996943593025207520e-01 -5.110596418380737305e-01
3.332897648215293884e-02 -6.235027313232421875e-02 1.433093249797821045e-01
-2.288370728492736816e-01 -3.516526222229003906e-01 1.322003901004791260e-01
-4.911288619041442871e-01 -1.801649034023284912e-01 3.621204495429992676e-01
-5.067130327224731445e-01 -1.315194368362426758e-01 5.035388469696044922e-02
-9.913027286529541016e-03 -1.066308170557022095e-01 -4.096147418022155762e-01
-7.730364799499511719e-02 -3.247529268264770508e-01 5.065336227416992188e-01
9.331382811069488525e-02 -6.976288557052612305e-02 2.271516919136047363e-01
3.148944377899169922e-01 -1.332001686096191406e-01 4.153932631015777588e-01
3.478929400444030762e-01 -1.503643989562988281e-01 4.260809719562530518e-01
2.784723937511444092e-01 -1.639893203973770142e-01 5.790101289749145508e-01
-2.627869881689548492e-02 -6.175944209098815918e-02 -3.905338048934936523e-02
1.832512617111206055e-01 -3.373798727989196777e-01 -2.030394673347473145e-01
-1.322645321488380432e-02 -2.831683754920959473e-01 6.649789214134216309e-01
2.088664621114730835e-01 -3.162564039230346680e-01 4.639921784400939941e-01
4.751551523804664612e-02 -1.338501125574111938e-01 6.590613722801208496e-01
-3.019807338714599609e-01 -2.409867346286773682e-01 -5.574998259544372559e-01
2.019732445478439331e-01 -3.354923129081726074e-01 -1.894747912883758545e-01
1.056316643953323364e-01 -1.010841801762580872e-01 -3.125864267349243164e-01
1.978894695639610291e-02 -8.413203060626983643e-02 4.513824284076690674e-01
-2.399521172046661377e-01 -8.941066265106201172e-02 -2.939553558826446533e-01
3.308998942375183105e-01 -1.863040477037429810e-01 5.482978224754333496e-01
-1.484322696924209595e-01 -8.856701105833053589e-02 4.689527153968811035e-01
4.008116945624351501e-02 -6.823316216468811035e-02 2.816766202449798584e-01
1.922871321439743042e-01 -2.925959527492523193e-01 5.767947435379028320e-01
3.209843039512634277e-01 -3.231376707553863525e-01 9.857413172721862793e-02
3.760443925857543945e-01 -1.781711876392364502e-01 4.530781805515289307e-01
2.202554792165756226e-01 -3.419354557991027832e-01 2.250406444072723389e-01
-3.152337074279785156e-01 -2.777565717697143555e-01 -4.840484261512756348e-01
1.369501203298568726e-01 -1.906195282936096191e-01 -5.400301218032836914e-01
-1.804815083742141724e-01 -2.411531805992126465e-01 -6.096686124801635742e-01
2.055829614400863647e-01 -3.130132853984832764e-01 -3.266692459583282471e-01
-4.257740974426269531e-01 -1.045214533805847168e-01 1.761371493339538574e-01
-2.053515613079071045e-01 -1.689587533473968506e-01 6.825790405273437500e-01
-1.722381711006164551e-01 -7.656143605709075928e-02 -2.315714955329895020e-01
-2.192435264587402344e-01 -2.780056893825531006e-01 -5.428375005722045898e-01
-2.396586351096630096e-02 -3.409051895141601562e-01 4.213145375251770020e-01
-2.968054711818695068e-01 -3.405604660511016846e-01 1.455235630273818970e-01
-1.500676572322845459e-01 -2.483244240283966064e-01 6.994127035140991211e-01
2.898532450199127197e-01 -3.252478539943695068e-01 -8.271440118551254272e-02
2.649943232536315918e-01 -1.119671612977981567e-01 -1.486417651176452637e-01
4.392196536064147949e-01 -2.509638071060180664e-01 -2.461212873458862305e-02
-4.136545062065124512e-01 -1.281947046518325806e-01 3.790355920791625977e-01
4.472771286964416504e-01 -1.964181065559387207e-01 2.467228770256042480e-01
-9.519110620021820068e-02 -3.371393382549285889e-01 -3.531119227409362793e-01
-4.863432645797729492e-01 -1.475144028663635254e-01 2.920963764190673828e-01
3.302704691886901855e-01 -1.158187463879585266e-01 1.514561474323272705e-01
-1.376924216747283936e-01 -3.576964437961578369e-01 -1.365883946418762207e-01
-3.109854459762573242e-01 -3.301422894001007080e-01 -2.261438071727752686e-01
-3.394795954227447510e-01 -3.209099173545837402e-01 2.772499620914459229e-01
-3.374431133270263672e-01 -1.344355940818786621e-01 -4.325092136859893799e-01
2.082995027303695679e-01 -3.255567550659179688e-01 4.086605310440063477e-01
1.395756155252456665e-01 -2.985368371009826660e-01 5.887675285339355469e-01
-3.359074890613555908e-02 -9.485757350921630859e-02 -3.590298295021057129e-01
7.961335778236389160e-02 -3.132282793521881104e-01 -4.308160841464996338e-01
-3.353530168533325195e-01 -3.346353471279144287e-01 1.061218678951263428e-01
-1.129105687141418457e-01 -9.251426160335540771e-02 -3.562371134757995605e-01
-3.566255271434783936e-01 -3.182813823223114014e-01 2.615295350551605225e-01
-1.157181784510612488e-01 -6.808196008205413818e-02 3.152150213718414307e-01
-2.993087172508239746e-01 -3.227798044681549072e-01 3.365799784660339355e-01
-3.184354305267333984e-01 -7.605150341987609863e-02 2.951510250568389893e-02
-1.396360993385314941e-01 -3.331618309020996094e-01 -3.660435974597930908e-01
1.627882421016693115e-01 -7.653217017650604248e-02 1.625155508518218994e-01
-5.487555861473083496e-01 -2.240847051143646240e-01 1.749974340200424194e-01
1.740082055330276489e-01 -2.275455594062805176e-01 7.023273706436157227e-01
-4.309487342834472656e-01 -1.012085676193237305e-01 3.235533460974693298e-02
-3.264367282390594482e-01 -9.463141858577728271e-02 3.384939730167388916e-01
-3.772452473640441895e-01 -8.900616317987442017e-02 1.345154196023941040e-01
2.133098393678665161e-01 -1.082185804843902588e-01 -2.232932150363922119e-01
-3.089644312858581543e-01 -3.372225463390350342e-01 -1.410543322563171387e-01
3.198878765106201172e-01 -2.776272296905517578e-01 4.881497025489807129e-01
2.248200625181198120e-01 -9.999758005142211914e-02 3.652893900871276855e-01
-2.690548896789550781e-01 -1.680875122547149658e-01 6.413986086845397949e-01
-3.684990108013153076e-02 -5.978485941886901855e-02 8.753988891839981079e-03
-6.456864625215530396e-02 -2.681766450405120850e-01 -5.871908664703369141e-01
