7.587119936943054199e-03 -1.472302675247192383e-01 3.225761651992797852e-02
-1.131714358925819397e-01 -8.584352582693099976e-02 -7.926255464553833008e-01
-8.532936125993728638e-02 8.463378995656967163e-03 -8.643920421600341797e-01
1.827022433280944824e-01 6.994478404521942139e-02 1.052888631820678711e-01
-1.157407686114311218e-01 -1.121890097856521606e-01 2.790820896625518799e-01
1.521401107311248779e-01 -1.513722538948059082e-01 1.605333387851715088e-02
4.804113507270812988e-01 -3.016107529401779175e-02 -3.553289175033569336e-01
2.969582676887512207e-01 5.568342655897140503e-02 -4.204131662845611572e-01
1.001611351966857910e-03 -1.200455948710441589e-01 3.907273709774017334e-01
-7.639727741479873657e-02 -1.198712214827537537e-01 -6.274106502532958984e-01
2.050454467535018921e-01 4.137498885393142700e-02 -7.491750717163085938e-01
1.205327510833740234e-01 -1.502700746059417725e-01 -3.908083140850067139e-01
1.815783977508544922e-02 -1.309625506401062012e-01 -6.398906707763671875e-01
-4.731871932744979858e-02 -1.326087415218353271e-01 -5.334405899047851562e-01
3.807190358638763428e-01 -1.222370043396949768e-01 -1.410468667745590210e-01
-2.027638852596282959e-01 2.207360416650772095e-02 -5.697420835494995117e-01
1.314736902713775635e-01 -1.517245769500732422e-01 1.995658874511718750e-02
-2.810335457324981689e-01 -1.444554328918457031e-02 5.439187586307525635e-02
3.298767209053039551e-01 5.043981969356536865e-02 4.503281414508819580e-02
1.129965707659721375e-01 -1.274063587188720703e-01 3.800744712352752686e-01
1.758988350629806519e-01 -1.333926171064376831e-01 3.036773800849914551e-01
3.377156555652618408e-01 4.793248325586318970e-02 -3.916355669498443604e-01
6.258988380432128906e-02 2.228240668773651123e-02 5.595660209655761719e-01
1.130209714174270630e-01 -1.541660726070404053e-01 -8.876019716262817383e-02
3.752636313438415527e-01 -1.238235235214233398e-01 -1.662633717060089111e-01
1.411670297384262085e-01 -1.534913182258605957e-01 -2.604061365127563477e-01
-5.777452141046524048e-02 7.078234851360321045e-02 -3.383015096187591553e-01
2.983183562755584717e-01 6.035555154085159302e-02 -2.830090522766113281e-01
-6.242830306291580200e-02 -1.338893771171569824e-01 1.445665955543518066e-01
-2.232977151870727539e-01 -1.029602587223052979e-01 -1.302876025438308716e-01
3.526608049869537354e-01 3.924142569303512573e-03 -7.295283079147338867e-01
4.615064561367034912e-01 -7.235191762447357178e-02 -4.026787281036376953e-01
-2.499895393848419189e-01 1.879583299160003662e-02 -3.658567667007446289e-01
4.791610240936279297e-01 -5.649891495704650879e-02 -3.530138731002807617e-01
-7.842764258384704590e-03 -1.479825079441070557e-01 -2.871699333190917969e-01
9.375867247581481934e-02 -1.223722621798515320e-01 -7.491844892501831055e-01
2.747515738010406494e-01 -1.363356709480285645e-01 -4.450819492340087891e-01
-1.388415694236755371e-01 5.720140039920806885e-02 -3.580530881881713867e-01
4.646378755569458008e-01 -8.501586318016052246e-02 -1.525508314371109009e-01
7.374763488769531250e-02 2.645191550254821777e-02 5.425578355789184570e-01
1.425165981054306030e-01 -1.540254950523376465e-01 -2.148670554161071777e-01
-2.040300369262695312e-01 -1.776411756873130798e-02 3.684443533420562744e-01
1.228974387049674988e-01 6.390605866909027100e-02 -5.999416708946228027e-01
-1.344928741455078125e-01 -1.440689526498317719e-02 5.018444061279296875e-01
2.882950007915496826e-01 -1.273488104343414307e-01 2.243434786796569824e-01
4.807314574718475342e-01 -6.816907227039337158e-02 -2.417348027229309082e-01
2.930909693241119385e-01 -4.422770440578460693e-02 5.739452838897705078e-01
3.835294544696807861e-01 -1.185191795229911804e-01 -1.525208353996276855e-03
9.004420042037963867e-02 -1.345537304878234863e-01 -6.377167701721191406e-01
4.111963808536529541e-01 -1.108951643109321594e-01 -5.920969694852828979e-02
2.143509089946746826e-01 6.966982036828994751e-02 4.320938885211944580e-02
-2.093612253665924072e-01 3.109809756278991699e-02 -4.587757885456085205e-01
3.290872871875762939e-01 -8.665482699871063232e-02 -7.595920562744140625e-01
1.195457950234413147e-01 -5.929986387491226196e-02 6.668518781661987305e-01
-1.158451810479164124e-01 6.475635617971420288e-02 -2.045162618160247803e-01
-2.232909500598907471e-01 3.450945019721984863e-02 -3.041319251060485840e-01
-2.310367524623870850e-01 2.782499790191650391e-02 1.477141678333282471e-02
3.365771174430847168e-01 5.116094648838043213e-02 -3.182863593101501465e-01
2.380655705928802490e-01 5.478637665510177612e-02 2.449650764465332031e-01
3.109970390796661377e-01 -1.383237391710281372e-01 -1.662930995225906372e-01
-6.973447650671005249e-02 6.506823748350143433e-02 -4.454790353775024414e-01
3.167751431465148926e-01 -3.800496459007263184e-03 -8.222919702529907227e-01
4.581311047077178955e-01 -1.019687764346599579e-02 1.049465835094451904e-01
2.222726047039031982e-01 8.064746856689453125e-03 5.643805265426635742e-01
2.779260873794555664e-01 6.422848254442214966e-02 -2.709923982620239258e-01
-1.860201656818389893e-01 -8.594128489494323730e-02 -6.386575698852539062e-01
3.783031702041625977e-01 -1.138393729925155640e-01 1.154122948646545410e-01
-1.799584180116653442e-02 4.129008203744888306e-02 -7.698315382003784180e-01
3.470893800258636475e-01 -1.259519606828689575e-01 -3.743951916694641113e-01
3.715105354785919189e-01 -1.186942756175994873e-01 -3.875924944877624512e-01
4.725277125835418701e-01 -9.507356211543083191e-03 -2.987519800662994385e-01
8.802101016044616699e-02 -3.815170377492904663e-03 -9.865447282791137695e-01
-7.645239681005477905e-02 -2.677743695676326752e-02 -9.378371238708496094e-01
2.571060508489608765e-02 -7.821571081876754761e-02 6.114163398742675781e-01
-9.338282048702239990e-03 -1.275314390659332275e-01 -6.484377384185791016e-01
-2.154954671859741211e-01 -1.051916480064392090e-01 -2.661067247390747070e-01
3.185311704874038696e-02 3.594633936882019043e-02 -8.305714130401611328e-01
-1.210535243153572083e-01 1.171139627695083618e-02 -8.058887720108032227e-01
-4.296947270631790161e-02 -1.231560930609703064e-01 3.129399418830871582e-01
4.282374680042266846e-01 -4.220155254006385803e-02 -6.256765127182006836e-01
-2.767201960086822510e-01 -6.923562288284301758e-02 -4.725281894207000732e-02
2.413183152675628662e-01 4.255038499832153320e-02 3.596468865871429443e-01
-2.823337018489837646e-01 -6.159204244613647461e-02 -2.400852739810943604e-02
1.000079214572906494e-01 1.949864253401756287e-02 -9.167875051498413086e-01
-7.536412030458450317e-02 6.651107221841812134e-02 4.120163619518280029e-02
-1.904830932617187500e-01 2.033036947250366211e-02 -6.200261116027832031e-01
1.137709170579910278e-01 -1.311335265636444092e-01 -6.737071275711059570e-01
1.134219765663146973e-01 -4.703761264681816101e-02 -1.014743566513061523e+00
3.431286215782165527e-01 -1.318266093730926514e-01 -1.831436008214950562e-01
3.965736329555511475e-01 1.881664618849754333e-02 -5.154581069946289062e-01
9.136134386062622070e-02 -7.638542354106903076e-02 -9.683632850646972656e-01
-2.675358057022094727e-01 -4.260033369064331055e-02 -5.138092041015625000e-01
1.092577129602432251e-01 2.857726812362670898e-02 5.322240591049194336e-01
2.454463243484497070e-01 -1.256891340017318726e-01 -6.352119445800781250e-01
-1.719862818717956543e-01 -1.087314933538436890e-01 1.454168856143951416e-01
4.505602717399597168e-01 -5.214399844408035278e-02 -5.335488915443420410e-01
-1.579316258430480957e-01 -6.336563825607299805e-02 -7.930300235748291016e-01
-2.742657810449600220e-02 4.614546895027160645e-02 3.745816051959991455e-01
-1.852913498878479004e-01 -1.139527410268783569e-01 -3.260596096515655518e-01
4.799807965755462646e-01 -7.010819017887115479e-02 -2.215664684772491455e-01
1.873847544193267822e-01 -1.190941035747528076e-02 6.377936601638793945e-01
1.838943660259246826e-01 7.365442812442779541e-02 9.517908096313476562e-03
3.931317850947380066e-02 6.821528077125549316e-02 1.918207705020904541e-01
3.973968327045440674e-01 1.306560635566711426e-02 2.304472625255584717e-01
1.094684749841690063e-01 7.769006490707397461e-02 -3.478316366672515869e-01
-1.299358159303665161e-02 7.702801376581192017e-02 -1.346092820167541504e-01
-1.414784193038940430e-01 -9.840356558561325073e-02 -6.713585853576660156e-01
-1.328505873680114746e-01 -1.300307512283325195e-01 -1.094631329178810120e-01
1.615425795316696167e-01 -1.051241084933280945e-01 5.189710855484008789e-01
2.172009199857711792e-01 7.117398828268051147e-02 -1.225352287292480469e-02
-1.152026653289794922e-02 -1.403369158506393433e-01 -4.787745177745819092e-01
2.871872186660766602e-01 1.512991636991500854e-02 -7.991238832473754883e-01
4.380233883857727051e-01 1.441481709480285645e-02 -4.842385649681091309e-03
1.781915724277496338e-01 6.324493139982223511e-02 2.213128507137298584e-01
-5.400396883487701416e-03 -1.316903829574584961e-01 -6.083469986915588379e-01
-1.930539309978485107e-01 4.470840096473693848e-02 -4.363794624805450439e-02
1.848379969596862793e-01 -8.371786773204803467e-02 -9.246371984481811523e-01
-2.536996901035308838e-01 -8.845729380846023560e-02 -2.141398489475250244e-01
4.035860896110534668e-01 -1.061478331685066223e-01 9.626621007919311523e-02
3.058448731899261475e-01 5.039083957672119141e-02 -4.795050621032714844e-01
-3.322824090719223022e-02 -1.292439848184585571e-01 2.643559277057647705e-01
-1.238639876246452332e-01 -1.114864349365234375e-01 -6.079204082489013672e-01
-6.791748851537704468e-02 -1.032802015542984009e-01 -7.672430276870727539e-01
5.569678172469139099e-02 -1.525317579507827759e-01 -2.697040438652038574e-01
8.957593888044357300e-02 -1.543864905834197998e-01 -1.402128934860229492e-01
-5.973655730485916138e-02 -1.406753361225128174e-01 3.600135445594787598e-03
2.558248341083526611e-01 -1.298829615116119385e-01 2.550557553768157959e-01
-1.818872392177581787e-01 4.942040890455245972e-02 -2.617961168289184570e-01
2.983933091163635254e-01 -1.329925656318664551e-01 -4.355063736438751221e-01
3.562895357608795166e-01 -1.285215914249420166e-01 -1.057976707816123962e-01
1.107022464275360107e-01 -1.403774321079254150e-02 -1.002859473228454590e+00
-2.883233129978179932e-01 -5.794620513916015625e-02 -6.467386335134506226e-02
3.104380965232849121e-01 -9.858344495296478271e-02 -7.346596717834472656e-01
2.398006021976470947e-01 -1.040330082178115845e-01 -7.983165979385375977e-01
9.481683373451232910e-04 6.674186140298843384e-02 -5.359149575233459473e-01
2.582304775714874268e-01 -1.457996666431427002e-02 5.900173187255859375e-01
4.403795897960662842e-01 -2.698617801070213318e-02 -5.712188482284545898e-01
3.626334667205810547e-02 -1.490273624658584595e-01 -3.686155080795288086e-01
4.094969332218170166e-01 3.127202391624450684e-02 -1.495577543973922729e-01
1.259462982416152954e-01 7.750743627548217773e-02 -1.035544276237487793e-02
-1.495037674903869629e-01 -1.026416048407554626e-01 -6.208511590957641602e-01
4.054604172706604004e-01 -9.208194911479949951e-02 2.231269180774688721e-01
1.707519143819808960e-01 6.088467687368392944e-02 2.589361667633056641e-01
-2.534564733505249023e-01 -8.441385626792907715e-02 -3.335558772087097168e-01
4.909654706716537476e-02 5.262129753828048706e-02 -7.193324565887451172e-01
1.341637969017028809e-01 7.354808598756790161e-02 -4.377493262290954590e-01
-1.277908682823181152e-02 -1.431530714035034180e-01 8.809876441955566406e-02
-1.747556775808334351e-02 5.909299105405807495e-02 2.629227042198181152e-01
3.554521203041076660e-01 4.855068027973175049e-02 -2.118002772331237793e-01
1.498079895973205566e-01 -8.512350171804428101e-02 -9.346737861633300781e-01
4.887790679931640625e-01 -5.882907286286354065e-02 -1.602576673030853271e-01
-1.216114088892936707e-01 5.222591012716293335e-02 -5.138072967529296875e-01
2.025569230318069458e-02 -1.333248764276504517e-01 2.836901247501373291e-01
-6.305686384439468384e-02 6.380217522382736206e-02 -4.841901659965515137e-01
4.245624244213104248e-01 1.443189010024070740e-02 9.610843658447265625e-02
4.799902439117431641e-01 -6.926926970481872559e-02 -7.657192647457122803e-02
1.409191489219665527e-01 -1.449823379516601562e-01 1.683221757411956787e-01
-2.854205965995788574e-01 -6.513146311044692993e-02 -1.424016058444976807e-01
3.884654343128204346e-01 2.703573554754257202e-02 -4.670990705490112305e-01
1.462334394454956055e-02 -1.461540758609771729e-01 7.547685503959655762e-02
3.086311817169189453e-01 -1.376908421516418457e-01 -2.631442546844482422e-01
3.871659636497497559e-01 3.621125966310501099e-02 -4.756316542625427246e-03
8.754613995552062988e-02 7.286293059587478638e-02 1.265138685703277588e-01
-2.639441490173339844e-01 7.098846137523651123e-03 3.481465578079223633e-02
-1.699998974800109863e-03 7.070156931877136230e-02 1.127496659755706787e-01
-1.484970748424530029e-01 -1.232684031128883362e-01 -3.538186550140380859e-01
-2.664298117160797119e-01 2.909719944000244141e-03 5.388072133064270020e-02
4.321998655796051025e-01 -1.914983615279197693e-02 2.625281512737274170e-01
-7.197915762662887573e-02 -1.413809955120086670e-01 -2.100277245044708252e-01
2.344481647014617920e-01 -1.438550800085067749e-01 -3.955872356891632080e-01
-1.791018843650817871e-01 3.620921820402145386e-02 1.663338840007781982e-01
3.411557376384735107e-01 -4.186074435710906982e-02 5.064228773117065430e-01
1.406181901693344116e-01 7.848246395587921143e-02 -2.615281343460083008e-01
1.149948686361312866e-02 -1.444559693336486816e-01 -4.391834437847137451e-01
-5.645055323839187622e-02 7.241829484701156616e-02 -8.328276872634887695e-02
-1.759244799613952637e-01 3.439246863126754761e-02 -5.541546344757080078e-01
9.770942479372024536e-02 5.835068970918655396e-02 -6.693716049194335938e-01
-1.247004494071006775e-01 6.218194216489791870e-02 -7.639782130718231201e-02
-8.962532132863998413e-02 -1.228660047054290771e-01 2.302325665950775146e-01
2.906109094619750977e-01 -1.121297627687454224e-01 -6.815638542175292969e-01
-2.362609803676605225e-01 -2.888463437557220459e-02 -6.432818174362182617e-01
-1.000220701098442078e-01 6.549686938524246216e-02 -3.221483230590820312e-01
-2.132594585418701172e-03 4.750948399305343628e-03 5.964659452438354492e-01
-1.722545623779296875e-01 5.123257637023925781e-02 -6.276149302721023560e-02
-2.116003632545471191e-01 3.700122237205505371e-02 -7.758393883705139160e-03
2.761748433113098145e-01 -1.105150133371353149e-01 -7.152386903762817383e-01
-1.847346127033233643e-02 -1.057826504111289978e-01 -8.056609630584716797e-01
-8.202465623617172241e-02 -1.370284259319305420e-01 1.067613065242767334e-02
2.206347286701202393e-01 -1.444632411003112793e-01 -4.126218855381011963e-01
2.365476638078689575e-02 6.946770846843719482e-02 -5.135037899017333984e-01
1.687797158956527710e-02 7.033457607030868530e-02 1.407682001590728760e-01
5.636051297187805176e-03 -1.502938866615295410e-01 -1.986559331417083740e-01
1.366165280342102051e-02 5.612365156412124634e-02 3.209603130817413330e-01
3.313196599483489990e-01 -2.292818762362003326e-02 5.103644132614135742e-01
2.092790007591247559e-01 5.862753093242645264e-02 2.425420880317687988e-01
3.475639224052429199e-01 4.667079448699951172e-02 3.011845052242279053e-02
2.776389718055725098e-01 -9.778556227684020996e-02 -7.873207330703735352e-01
-4.939927905797958374e-02 7.295594364404678345e-02 -2.856950163841247559e-01
4.216568768024444580e-01 -7.000989466905593872e-02 2.794847190380096436e-01
3.021556437015533447e-01 5.809517204761505127e-02 -3.381480276584625244e-01
3.214531242847442627e-01 -1.164216622710227966e-01 -5.853061676025390625e-01
-2.831821143627166748e-01 -6.342899799346923828e-02 -2.987762987613677979e-01
1.249450445175170898e-01 -1.227664500474929810e-01 4.170096814632415771e-01
3.029924035072326660e-01 5.272583663463592529e-02 1.158839464187622070e-01
-2.865849137306213379e-01 -2.146315574645996094e-02 -3.945884704589843750e-01
2.457078397274017334e-01 -1.398202218115329742e-02 -9.330859184265136719e-01
3.962688744068145752e-01 -9.913318604230880737e-02 -5.186075568199157715e-01
1.099507212638854980e-01 -1.123628616333007812e-01 4.882738888263702393e-01
-1.269896924495697021e-01 -1.016920804977416992e-01 3.370730578899383545e-01
3.498821705579757690e-02 6.030196696519851685e-02 -6.407183408737182617e-01
-2.726805210113525391e-02 6.256239861249923706e-02 2.084774374961853027e-01
-1.541089117527008057e-01 -8.699122816324234009e-03 4.582215249538421631e-01
2.913429737091064453e-01 5.137525498867034912e-02 -5.094284415245056152e-01
3.000723719596862793e-01 -8.729054033756256104e-02 -8.032903671264648438e-01
2.491631805896759033e-01 6.736771017313003540e-02 -3.244228363037109375e-01
3.535861968994140625e-01 -1.037123873829841614e-01 2.955347299575805664e-01
-5.976926535367965698e-02 -1.421671211719512939e-01 -5.500798672437667847e-02
2.038055062294006348e-01 6.896965205669403076e-02 8.594653010368347168e-02
4.204497933387756348e-01 -9.317930042743682861e-02 1.533924937248229980e-01
2.443961203098297119e-01 5.559888482093811035e-02 2.238240242004394531e-01
-2.245121300220489502e-01 3.489562124013900757e-02 -8.554539084434509277e-02
3.676365315914154053e-01 4.525721818208694458e-02 -1.323437392711639404e-01
4.521205723285675049e-01 -9.262217581272125244e-02 -1.020290181040763855e-01
1.968903988599777222e-01 -1.333804726600646973e-01 2.879996299743652344e-01
2.098344117403030396e-01 -1.500817686319351196e-01 -2.597490251064300537e-01
1.500973701477050781e-01 5.725993961095809937e-02 3.147597014904022217e-01
2.793214619159698486e-01 4.975914955139160156e-02 2.237590253353118896e-01
-1.124257966876029968e-01 4.533218592405319214e-02 -6.135150194168090820e-01
1.413892507553100586e-01 -1.539148539304733276e-01 -9.512794762849807739e-02
1.045174002647399902e-01 -1.373767107725143433e-01 -6.069940328598022461e-01
-1.764847934246063232e-01 3.889758884906768799e-02 1.457191407680511475e-01
-7.892260700464248657e-02 -1.217475831508636475e-01 2.653219997882843018e-01
1.187762543559074402e-01 -1.449636518955230713e-01 -4.999721944332122803e-01
7.424543052911758423e-02 -2.143838070333003998e-02 6.717861890792846680e-01
-1.309015154838562012e-01 -1.307662278413772583e-01 -1.460310965776443481e-01
8.065244555473327637e-02 3.740765154361724854e-02 -8.309730291366577148e-01
3.913918137550354004e-01 2.057196572422981262e-02 1.921873986721038818e-01
3.060243427753448486e-01 4.198895394802093506e-02 -5.825309753417968750e-01
4.132030531764030457e-02 -1.511994302272796631e-01 -3.023273348808288574e-01
2.761635780334472656e-01 6.416376680135726929e-02 -5.006879568099975586e-02
-2.048305869102478027e-01 4.139529913663864136e-02 -3.011698722839355469e-01
2.489285916090011597e-02 7.931890338659286499e-02 -1.931093037128448486e-01
1.648097038269042969e-01 -1.396685242652893066e-01 -5.599095821380615234e-01
2.962901294231414795e-01 -1.388391405344009399e-01 -1.406356692314147949e-02
4.037179946899414062e-01 -4.447025433182716370e-02 3.760240972042083740e-01
2.372910678386688232e-01 4.733740538358688354e-02 3.237822949886322021e-01
-1.455596387386322021e-01 -3.155300021171569824e-02 -8.504850864410400391e-01
3.723999857902526855e-01 -5.089459940791130066e-02 4.445442259311676025e-01
-5.388304591178894043e-03 -1.477181464433670044e-01 -2.312371134757995605e-02
-1.288332641124725342e-01 4.878497868776321411e-02 1.802851557731628418e-01
1.670688092708587646e-01 -8.850967511534690857e-03 -9.783767461776733398e-01
-8.774890750646591187e-02 -5.502032861113548279e-02 5.673550367355346680e-01
-2.466139197349548340e-02 5.251882225275039673e-02 -6.756801605224609375e-01
3.934564590454101562e-01 3.646807372570037842e-02 -2.426436245441436768e-01
1.991524100303649902e-01 6.110123544931411743e-02 -5.668132305145263672e-01
-2.187885940074920654e-01 1.783701777458190918e-02 1.837882995605468750e-01
1.862973570823669434e-01 -1.440669149160385132e-01 -4.734128713607788086e-01
1.523793637752532959e-01 2.183695137500762939e-02 -8.933726549148559570e-01
6.130075454711914062e-02 -9.780366718769073486e-02 5.556652545928955078e-01
4.859777390956878662e-01 -2.066475339233875275e-02 -2.081398665904998779e-01
2.714095413684844971e-01 1.169132441282272339e-02 -8.351470232009887695e-01
-1.691045165061950684e-01 -1.212389543652534485e-01 -2.146464288234710693e-01
5.937641859054565430e-02 7.871368527412414551e-02 -3.527170419692993164e-02
-1.311163306236267090e-01 -1.167462691664695740e-01 1.919058859348297119e-01
1.153684407472610474e-02 6.416778266429901123e-02 2.289352416992187500e-01
3.305887579917907715e-01 5.119534581899642944e-02 -3.576774001121520996e-01
3.002147078514099121e-01 -1.394692659378051758e-01 -2.454828768968582153e-01
1.259235739707946777e-01 1.874696090817451477e-02 5.733834505081176758e-01
4.286713600158691406e-01 -6.717242300510406494e-03 2.303845882415771484e-01
-9.277685731649398804e-02 -1.242999285459518433e-01 2.055688798427581787e-01
1.206228807568550110e-01 -1.328976452350616455e-01 -6.554160714149475098e-01
2.826275825500488281e-01 3.901427239179611206e-02 3.242142200469970703e-01
-2.667337954044342041e-01 -1.710268855094909668e-02 1.490132212638854980e-01
-8.262034505605697632e-02 -1.375963985919952393e-01 -3.264649510383605957e-01
5.601227283477783203e-02 7.260052114725112915e-02 -4.768815338611602783e-01
2.747930586338043213e-02 -9.918977320194244385e-02 -8.706653118133544922e-01
-2.187853455543518066e-01 6.250292062759399414e-05 2.805331647396087646e-01
2.791498899459838867e-01 5.510962754487991333e-02 1.517578363418579102e-01
3.632003068923950195e-01 -8.600103110074996948e-02 -6.941949129104614258e-01
-7.154311984777450562e-02 7.098861038684844971e-02 -2.484723925590515137e-01
-2.914201617240905762e-01 -5.815730243921279907e-02 -2.115924507379531860e-01
1.632703840732574463e-02 -1.213738396763801575e-01 -7.265514135360717773e-01
4.155242070555686951e-02 7.555284351110458374e-02 -4.048191905021667480e-01
-4.562180489301681519e-02 -7.653037458658218384e-02 -9.074095487594604492e-01
-4.194770008325576782e-02 -1.323369443416595459e-01 2.117700874805450439e-01
-2.535641491413116455e-01 -5.565572530031204224e-02 1.926005184650421143e-01
-8.550248295068740845e-02 6.116930395364761353e-03 5.202941894531250000e-01
4.803143143653869629e-01 -5.924662947654724121e-02 -3.289858102798461914e-01
2.892732322216033936e-01 -1.390503942966461182e-01 1.583516597747802734e-02
-2.732280194759368896e-01 2.727773040533065796e-03 -3.617182970046997070e-01
3.734946250915527344e-01 -7.179892063140869141e-02 4.038503468036651611e-01
-8.216536790132522583e-02 6.787549704313278198e-02 -2.514158189296722412e-02
2.022721469402313232e-01 6.225603073835372925e-02 2.045631408691406250e-01
2.933193743228912354e-01 6.092277914285659790e-02 -3.852066397666931152e-02
-1.754275262355804443e-01 -7.778672128915786743e-02 3.598836958408355713e-01
4.105975031852722168e-01 -8.126205205917358398e-02 -5.866639614105224609e-01
3.056580126285552979e-01 -1.104665994644165039e-01 -6.676099896430969238e-01
4.396912455558776855e-01 -5.209620296955108643e-02 -5.776382684707641602e-01
1.419319808483123779e-01 4.605367779731750488e-02 4.170148074626922607e-01
-1.373478472232818604e-01 5.914018303155899048e-02 -5.268445611000061035e-02
2.263713628053665161e-02 -1.399391293525695801e-01 -5.324589610099792480e-01
-1.073443815112113953e-01 6.360561400651931763e-02 -3.454552888870239258e-01
7.403556257486343384e-02 7.956620305776596069e-02 -2.806926667690277100e-01
-1.033811047673225403e-01 -1.358539909124374390e-01 -2.398199886083602905e-01
2.040861546993255615e-01 -1.370697468519210815e-01 2.369937002658843994e-01
1.688072979450225830e-01 -1.511182188987731934e-01 -3.260766267776489258e-01
-2.532654255628585815e-02 3.813039511442184448e-02 4.332541525363922119e-01
3.772377967834472656e-01 -1.150710061192512512e-01 -4.182214736938476562e-01
1.933098733425140381e-01 -1.510039865970611572e-01 -2.736725211143493652e-01
4.654993414878845215e-01 -6.813506036996841431e-02 8.578094840049743652e-02
-9.589005261659622192e-02 6.701349467039108276e-02 -7.277127355337142944e-02
2.037354558706283569e-01 7.151856273412704468e-02 -3.645145297050476074e-01
-1.464401185512542725e-02 -6.420792639255523682e-02 -9.609723091125488281e-01
-1.281408071517944336e-01 6.232976913452148438e-02 -1.294083148241043091e-01
1.895807087421417236e-01 -7.210103422403335571e-02 -9.539468288421630859e-01
-2.719985693693161011e-02 7.605384290218353271e-02 -1.652229875326156616e-01
7.636912167072296143e-03 7.678085565567016602e-02 -3.199699521064758301e-01
-1.662637889385223389e-01 4.934366047382354736e-02 3.086133301258087158e-02
-2.401614487171173096e-01 -8.962459862232208252e-02 -3.702021539211273193e-01
3.529149591922760010e-01 2.890313416719436646e-02 -5.788208246231079102e-01
-2.611710727214813232e-01 -7.062635570764541626e-02 7.684481143951416016e-02
2.190358638763427734e-01 6.622751057147979736e-02 1.094438731670379639e-01
1.871111094951629639e-01 -1.229552626609802246e-01 -7.173207998275756836e-01
2.837509512901306152e-01 5.951474606990814209e-02 -3.918629288673400879e-01
8.112522959709167480e-02 7.460682839155197144e-02 9.090223908424377441e-02
3.597319424152374268e-01 2.589755505323410034e-02 2.533093690872192383e-01
3.598711192607879639e-01 4.163277149200439453e-02 -3.958656191825866699e-01
4.064579606056213379e-01 -5.725469440221786499e-02 3.564480245113372803e-01
-2.502316534519195557e-01 4.298593848943710327e-03 -4.980705976486206055e-01
4.211015701293945312e-01 -9.703031182289123535e-02 1.126818954944610596e-01
7.373365759849548340e-02 -1.475338339805603027e-01 1.156661510467529297e-01
2.103427946567535400e-01 7.153386622667312622e-02 -3.429189026355743408e-01
-2.136582881212234497e-02 -7.081283628940582275e-02 -9.420614242553710938e-01
2.210732102394104004e-01 7.243117690086364746e-02 -2.471670210361480713e-01
3.346387743949890137e-01 -1.687731221318244934e-02 -8.227531909942626953e-01
-1.242213919758796692e-01 5.368534475564956665e-02 1.273961365222930908e-01
2.860474884510040283e-01 5.865219235420227051e-02 6.442072987556457520e-02
-1.779204010963439941e-01 -1.150470897555351257e-01 -3.560966849327087402e-01
-2.891877591609954834e-01 -8.188225328922271729e-03 -6.817673146724700928e-02
3.082317709922790527e-01 -1.271007359027862549e-01 1.797752976417541504e-01
-9.051429480314254761e-02 -1.077278554439544678e-01 3.644348680973052979e-01
4.584274291992187500e-01 5.330145359039306641e-05 1.382452249526977539e-02
-1.689019203186035156e-01 -1.199855878949165344e-01 -5.421185493469238281e-02
3.645676374435424805e-01 -5.977806821465492249e-02 -7.710547447204589844e-01
3.563981056213378906e-01 3.407558798789978027e-02 -5.169528722763061523e-01
4.316066205501556396e-01 2.038134634494781494e-02 -2.566963732242584229e-01
1.783652007579803467e-01 -1.526682674884796143e-01 -2.170195281505584717e-01
-1.324053406715393066e-01 -1.251300424337387085e-01 -3.996681571006774902e-01
1.372338086366653442e-01 7.890186458826065063e-02 -2.403984069824218750e-01
2.388665378093719482e-01 -1.478592753410339355e-01 -2.328898012638092041e-01
-7.243976742029190063e-02 6.358114629983901978e-02 -4.665230810642242432e-01
-8.506958931684494019e-02 -1.131444275379180908e-01 3.327961862087249756e-01
-1.751071214675903320e-01 5.121852457523345947e-02 -9.566897898912429810e-02
4.735411703586578369e-01 -2.365249022841453552e-02 6.926758587360382080e-02
-1.064341291785240173e-01 -2.898979559540748596e-02 -9.052940607070922852e-01
-2.376382052898406982e-01 2.129881456494331360e-02 6.075884401798248291e-02
1.757730394601821899e-01 -1.262562572956085205e-01 3.721031248569488525e-01
2.216524481773376465e-01 6.130245327949523926e-02 -5.284099578857421875e-01
-2.832454741001129150e-01 -9.764358401298522949e-04 -2.898550033569335938e-01
1.016288399696350098e-01 -1.492573469877243042e-01 8.978605270385742188e-02
-2.030483186244964600e-01 -1.004665344953536987e-01 -4.542081654071807861e-01
1.755634695291519165e-02 2.151139080524444580e-03 -9.592598676681518555e-01
3.980895876884460449e-01 -8.519238233566284180e-02 2.888297140598297119e-01
9.055668115615844727e-02 6.915832310914993286e-02 -5.380830764770507812e-01
-2.493816614151000977e-01 -9.105116873979568481e-02 -1.639469712972640991e-01
1.195750385522842407e-01 4.400842636823654175e-02 4.391550123691558838e-01
-2.470172047615051270e-01 2.560842037200927734e-02 -2.448370754718780518e-01
6.968050450086593628e-02 -7.180941104888916016e-02 6.420315504074096680e-01
4.207985997200012207e-01 -2.525217831134796143e-03 -5.648117065429687500e-01
2.587765455245971680e-01 -1.458652019500732422e-01 -1.078395247459411621e-01
2.390146255493164062e-04 -1.181065961718559265e-01 -7.395780086517333984e-01
-2.144525945186614990e-01 3.960520774126052856e-02 -2.294076532125473022e-01
1.198699697852134705e-01 -1.337198615074157715e-01 3.199714124202728271e-01
-2.226412296295166016e-01 1.058943569660186768e-02 2.171802222728729248e-01
-1.363840997219085693e-01 4.874174296855926514e-02 1.590560078620910645e-01
-2.038979530334472656e-02 -1.171371638774871826e-01 3.921423852443695068e-01
2.366800010204315186e-01 -1.162681952118873596e-01 4.017897546291351318e-01
4.282560348510742188e-01 -9.198354929685592651e-02 -4.411062896251678467e-01
2.201361358165740967e-01 -1.405662149190902710e-01 -4.871388375759124756e-01
-1.313490867614746094e-01 -8.359676599502563477e-02 -7.721797227859497070e-01
2.449893653392791748e-01 -1.442721784114837646e-01 -3.555418252944946289e-01
2.366629540920257568e-01 -1.483902186155319214e-01 -1.170948743820190430e-01
4.737560153007507324e-01 -7.456702739000320435e-02 -5.141763389110565186e-02
-1.495552361011505127e-01 1.119159162044525146e-02 -7.601094245910644531e-01
-1.904279887676239014e-01 3.090104460716247559e-02 -5.385376214981079102e-01
-1.417841017246246338e-01 -7.869322597980499268e-02 4.279156625270843506e-01
3.283442556858062744e-01 -6.951113045215606689e-02 -8.165624141693115234e-01
1.963154226541519165e-01 -1.264925897121429443e-01 3.565511405467987061e-01
-1.155461892485618591e-01 -1.066171526908874512e-01 -6.671668887138366699e-01
2.659630179405212402e-01 -4.545980691909790039e-02 6.030813455581665039e-01
2.199291288852691650e-01 -1.092498824000358582e-01 -7.871099710464477539e-01
-2.126638591289520264e-01 2.157605439424514771e-02 -5.379072427749633789e-01
-4.914344102144241333e-02 4.184444248676300049e-02 3.843766748905181885e-01
2.015003412961959839e-01 7.485383003950119019e-02 -1.990889012813568115e-01
1.269640028476715088e-01 7.966657727956771851e-02 -1.728714853525161743e-01
2.684136927127838135e-01 -1.422857642173767090e-01 -3.281514644622802734e-01
1.925749778747558594e-01 -1.395821869373321533e-01 -5.376445055007934570e-01
-2.678284049034118652e-01 -6.258615106344223022e-02 -4.420876801013946533e-01
4.415609240531921387e-01 -7.649224996566772461e-02 1.732486486434936523e-01
-1.567738354206085205e-01 -1.243831440806388855e-01 -1.144571900367736816e-01
4.309831559658050537e-01 -8.937747776508331299e-02 1.350190341472625732e-01
3.958498835563659668e-01 2.650290727615356445e-03 -6.243088245391845703e-01
-8.687949925661087036e-02 5.862967669963836670e-02 -5.122442245483398438e-01
3.709411323070526123e-01 3.936827182769775391e-02 4.298813641071319580e-02
4.466198086738586426e-01 -8.685813844203948975e-02 -3.807812929153442383e-01
1.528728008270263672e-01 3.588821738958358765e-02 4.803706109523773193e-01
3.505590558052062988e-01 -8.850572258234024048e-02 -7.102049589157104492e-01
2.417260408401489258e-01 -1.388921439647674561e-01 -4.768684208393096924e-01
-9.350571781396865845e-02 4.526636004447937012e-02 2.940524220466613770e-01
-9.630344063043594360e-02 1.888283342123031616e-02 -8.114120960235595703e-01
-1.860774159431457520e-01 -9.072370827198028564e-02 2.609331309795379639e-01
4.590317606925964355e-02 -1.125102341175079346e-01 -8.058527708053588867e-01
1.895024627447128296e-01 -1.178081408143043518e-01 4.296196997165679932e-01
2.558305859565734863e-01 -1.431091129779815674e-01 3.312987089157104492e-02
-3.152713924646377563e-02 6.457073986530303955e-02 -5.282784104347229004e-01
1.133778169751167297e-01 2.719029784202575684e-02 -8.816670179367065430e-01
2.756243944168090820e-01 6.267391145229339600e-04 -8.676966428756713867e-01
3.418435156345367432e-01 -9.570512175559997559e-02 -6.917028427124023438e-01
-1.634486317634582520e-01 -1.131592690944671631e-01 -4.659827351570129395e-01
9.012270718812942505e-02 7.869512587785720825e-02 -2.827116847038269043e-02
3.268806934356689453e-01 2.848808467388153076e-02 -6.502108573913574219e-01
4.896251261234283447e-01 -2.643708884716033936e-02 -1.705695837736129761e-01
2.946690022945404053e-01 6.221268326044082642e-02 -1.430071443319320679e-01
4.130138829350471497e-02 -1.446174681186676025e-01 1.447118818759918213e-01
-2.311263978481292725e-01 -6.584076583385467529e-02 -5.969157218933105469e-01
4.264195263385772705e-01 -1.023841127753257751e-01 -8.495301008224487305e-04
1.354201138019561768e-01 7.919098436832427979e-02 -1.303845494985580444e-01
3.551599681377410889e-01 -4.921488463878631592e-02 4.792303740978240967e-01
-3.036458045244216919e-02 -1.444320231676101685e-01 3.454282879829406738e-03
-1.766588687896728516e-01 1.408631727099418640e-02 -6.906375885009765625e-01
-2.114719450473785400e-01 3.542977571487426758e-02 -3.843400478363037109e-01
1.245785355567932129e-01 7.953812181949615479e-02 -2.246721982955932617e-01
2.960756719112396240e-01 -1.344735622406005859e-01 9.758627414703369141e-02
-2.301713824272155762e-01 3.071372956037521362e-02 -3.278450965881347656e-01
1.007812917232513428e-01 -1.109638139605522156e-01 -8.264909982681274414e-01
3.203953504562377930e-01 -9.810341149568557739e-02 3.996911942958831787e-01
-3.883350640535354614e-02 -1.459520012140274048e-01 -1.820239424705505371e-01
-1.725212633609771729e-01 5.027841776609420776e-02 -3.304599225521087646e-02
-2.219723463058471680e-01 -6.510417163372039795e-02 2.796325087547302246e-01
6.082729622721672058e-02 -1.482144594192504883e-01 -4.195010662078857422e-01
-2.498418092727661133e-03 5.402487516403198242e-02 -6.809031963348388672e-01
9.640917181968688965e-02 -1.537627875804901123e-01 -2.598470747470855713e-01
-1.378006339073181152e-01 -1.248166933655738831e-01 3.809671103954315186e-02
-7.382682710886001587e-02 3.549056500196456909e-02 -7.516199350357055664e-01
-2.955649793148040771e-01 -1.264638267457485199e-02 -1.622230410575866699e-01
-1.275393068790435791e-01 -7.880938053131103516e-02 4.530394971370697021e-01
-1.423252522945404053e-01 -6.047938764095306396e-02 -8.274660110473632812e-01
-9.133427590131759644e-02 -1.314846575260162354e-01 1.014326512813568115e-01
-5.663690716028213501e-02 -2.540947124361991882e-02 6.087967157363891602e-01
-2.519975304603576660e-01 -4.113262146711349487e-02 -5.838681459426879883e-01
-2.999211251735687256e-01 -4.189181700348854065e-02 -1.993324458599090576e-01
2.859215736389160156e-01 6.086195260286331177e-02 9.028390049934387207e-03
1.996572166681289673e-01 -3.136001899838447571e-02 -9.859987497329711914e-01
2.397246658802032471e-01 -3.897893801331520081e-02 -9.579298496246337891e-01
-3.595953434705734253e-02 -1.376684010028839111e-01 1.433346867561340332e-01
1.280156522989273071e-01 4.673615097999572754e-03 6.209022998809814453e-01
-1.795077621936798096e-01 -9.842789173126220703e-02 -5.689100027084350586e-01
3.823979496955871582e-01 -5.909984558820724487e-02 -7.337690591812133789e-01
8.150965720415115356e-02 -1.561731100082397461e-03 6.395998001098632812e-01
3.957214951515197754e-01 -4.315320402383804321e-02 -7.183699607849121094e-01
6.564624607563018799e-02 -1.536294817924499512e-01 -1.152905374765396118e-01
-2.051524817943572998e-02 -1.379665732383728027e-01 1.690066754817962646e-01
4.714581966400146484e-01 -2.528536692261695862e-02 9.047588706016540527e-02
1.539091318845748901e-01 -9.283664077520370483e-02 5.761975049972534180e-01
-2.521291077136993408e-01 -1.437414437532424927e-03 1.611519753932952881e-01
3.527238965034484863e-01 4.777815937995910645e-02 -4.016155004501342773e-02
2.235344946384429932e-01 -1.474799215793609619e-01 -3.234371542930603027e-01
-1.591228842735290527e-01 4.877234995365142822e-02 -4.356949925422668457e-01
-1.777776777744293213e-01 -6.243912875652313232e-02 -7.553218603134155273e-01
-1.808504462242126465e-01 3.620940446853637695e-02 -5.191764235496520996e-01
-1.146792098879814148e-01 3.092799335718154907e-02 3.656962811946868896e-01
1.335620284080505371e-01 -5.589064955711364746e-02 -1.003201007843017578e+00
-7.544716447591781616e-02 7.092974334955215454e-02 -1.778627187013626099e-01
-5.573704838752746582e-04 7.766098529100418091e-02 -1.116457656025886536e-01
3.259139060974121094e-01 -3.933582082390785217e-02 -8.562483787536621094e-01
4.071887433528900146e-01 -8.340443670749664307e-02 2.696407437324523926e-01
1.865681111812591553e-01 -1.147945895791053772e-01 4.516904652118682861e-01
3.161040246486663818e-01 5.657372623682022095e-02 -2.917751073837280273e-01
9.643753618001937866e-02 -1.543963700532913208e-01 -2.028905749320983887e-01
1.309007853269577026e-01 4.100836068391799927e-02 4.565089046955108643e-01
3.343728929758071899e-02 -1.505874693393707275e-01 -2.010440826416015625e-02
-1.303697824478149414e-01 -4.074484854936599731e-02 -8.721041679382324219e-01
2.348229587078094482e-01 -1.456354856491088867e-01 2.770687639713287354e-02
2.122840881347656250e-01 4.228197038173675537e-02 3.955376446247100830e-01
-5.618578940629959106e-02 -8.678702265024185181e-02 5.212745666503906250e-01
4.291160106658935547e-01 -7.558988034725189209e-02 2.305285334587097168e-01
1.727156192064285278e-01 -1.317162811756134033e-01 3.230134546756744385e-01
-2.310204207897186279e-01 -7.107926905155181885e-02 -5.733974575996398926e-01
3.696159124374389648e-01 4.413843154907226562e-02 -8.880756050348281860e-02
1.247802972793579102e-01 7.480621337890625000e-02 -4.173007607460021973e-01
1.266551166772842407e-01 -1.535960286855697632e-01 -5.560705810785293579e-02
9.635172039270401001e-02 -1.448304057121276855e-01 -5.019261837005615234e-01
2.500039637088775635e-01 6.664877384901046753e-02 -3.446996212005615234e-01
1.439830064773559570e-01 4.430136829614639282e-02 -7.723671197891235352e-01
2.871617376804351807e-01 -1.362412273883819580e-01 -4.100697338581085205e-01
-1.691381633281707764e-01 -1.212907955050468445e-01 -1.354212164878845215e-01
6.409009546041488647e-02 7.949882745742797852e-02 -7.085844129323959351e-02
5.285785719752311707e-02 -1.455313116312026978e-01 -4.683165848255157471e-01
3.307606279850006104e-02 5.802968889474868774e-02 -6.636144518852233887e-01
2.206895053386688232e-01 7.176695019006729126e-02 -5.279926955699920654e-02
-1.784924864768981934e-01 5.110718309879302979e-02 -1.757119297981262207e-01
3.904055953025817871e-01 -1.183345839381217957e-01 -6.709584593772888184e-02
1.605109274387359619e-01 -1.504333913326263428e-01 -3.599032759666442871e-01
2.511674165725708008e-01 -1.417568922042846680e-01 8.099161088466644287e-02
-1.101532801985740662e-01 6.229525804519653320e-02 -3.692450523376464844e-01
1.625855118036270142e-01 5.577834695577621460e-02 -6.650701761245727539e-01
-1.001993939280509949e-01 -9.961751103401184082e-02 4.006482660770416260e-01
1.496017277240753174e-01 2.948219329118728638e-02 -8.589615821838378906e-01
3.232840299606323242e-01 -1.152808070182800293e-01 2.732365727424621582e-01
2.019272148609161377e-01 -1.211625859141349792e-01 3.964532315731048584e-01
7.038672268390655518e-02 7.009163498878479004e-02 -5.237530469894409180e-01
-1.493946313858032227e-01 1.763177290558815002e-02 -7.318613529205322266e-01
2.410051971673965454e-02 -1.361403018236160278e-01 -5.856606364250183105e-01
7.614195346832275391e-04 7.547900825738906860e-02 -8.147805929183959961e-04
2.165586948394775391e-01 2.904287725687026978e-02 4.770918190479278564e-01
2.014394849538803101e-02 -1.505922973155975342e-01 -6.224921345710754395e-02
2.914540469646453857e-01 1.409576460719108582e-02 4.645389616489410400e-01
2.267667353153228760e-01 6.383903324604034424e-02 1.369007825851440430e-01
3.626579642295837402e-01 3.818729519844055176e-02 1.075400710105895996e-01
3.263888955116271973e-01 5.585893243551254272e-02 -1.751806885004043579e-01
1.196679025888442993e-01 3.885979205369949341e-02 4.732381403446197510e-01
1.050900593400001526e-01 -1.524249315261840820e-01 -3.257030844688415527e-01
-8.512731641530990601e-02 2.540942281484603882e-02 4.417693912982940674e-01
-1.478830873966217041e-01 -1.258408129215240479e-01 -6.811425089836120605e-02
3.393162190914154053e-01 -7.870276272296905518e-02 4.499517381191253662e-01
4.431394860148429871e-02 8.117418736219406128e-03 6.067503690719604492e-01
1.266905814409255981e-01 -1.036849692463874817e-01 5.343865156173706055e-01
3.455855846405029297e-01 -1.150231733918190002e-01 -5.359416007995605469e-01
3.581804037094116211e-01 4.450359940528869629e-02 1.271812617778778076e-02
2.676917314529418945e-01 -1.051848530769348145e-01 4.379746019840240479e-01
-6.590744107961654663e-02 -1.324791312217712402e-01 -4.950565993785858154e-01
1.094983145594596863e-01 -9.212081879377365112e-02 5.855602025985717773e-01
3.180834352970123291e-01 1.555793732404708862e-02 -7.462890148162841797e-01
-1.852436065673828125e-01 1.759321987628936768e-02 2.933667004108428955e-01
4.804893136024475098e-01 -2.312148176133632660e-02 -3.242702484130859375e-01
3.825351893901824951e-01 2.181906253099441528e-02 2.140203416347503662e-01
-2.254966795444488525e-01 -9.826219081878662109e-02 -3.426648974418640137e-01
-4.670695215463638306e-02 -1.258117407560348511e-01 2.806654870510101318e-01
-2.650080025196075439e-01 -2.927184663712978363e-02 1.759833991527557373e-01
-1.031393036246299744e-01 6.114805489778518677e-02 6.607262790203094482e-02
1.431582272052764893e-01 7.799716293811798096e-02 -6.281435489654541016e-02
3.413106799125671387e-01 4.171194136142730713e-02 1.455635726451873779e-01
-2.803243398666381836e-01 4.622597247362136841e-03 -2.225775718688964844e-01
3.171717375516891479e-02 -1.291796565055847168e-01 -6.682629585266113281e-01
2.517621219158172607e-01 -6.249919533729553223e-05 -8.967304229736328125e-01
2.496917247772216797e-01 -4.063908010721206665e-02 6.192883253097534180e-01
3.146529793739318848e-01 -5.297849699854850769e-02 -8.657901287078857422e-01
4.299510419368743896e-01 1.181531697511672974e-03 1.816091835498809814e-01
2.614221572875976562e-01 6.617028266191482544e-02 -3.022403717041015625e-01
-2.277670502662658691e-01 -1.012947633862495422e-01 -1.930704414844512939e-01
3.400060832500457764e-01 -1.289990246295928955e-01 -3.429252207279205322e-01
-2.960980236530303955e-01 -3.351586312055587769e-02 -3.165530562400817871e-01
3.955930471420288086e-01 -1.061616018414497375e-01 -4.510738849639892578e-01
1.647868454456329346e-01 2.724450826644897461e-02 5.220206975936889648e-01
1.126734912395477295e-01 5.732737481594085693e-02 3.298789858818054199e-01
-1.609423458576202393e-01 5.214474350214004517e-02 -2.069368958473205566e-03
2.863138318061828613e-01 -1.422185003757476807e-01 -1.174040287733078003e-01
-1.896361112594604492e-01 -9.612579643726348877e-02 2.079528570175170898e-01
4.096473753452301025e-01 -1.130429841578006744e-02 -6.379413604736328125e-01
-5.242086201906204224e-02 7.049177587032318115e-02 -3.666414320468902588e-01
1.572622060775756836e-01 5.269084125757217407e-02 -6.979552507400512695e-01
-1.422530114650726318e-01 -1.185433566570281982e-01 -4.724668562412261963e-01
2.533143460750579834e-01 6.128556281328201294e-02 -4.581757187843322754e-01
-1.518787443637847900e-02 -1.483477950096130371e-01 -2.121405005455017090e-01
3.293446898460388184e-01 4.890660196542739868e-02 7.909625768661499023e-02
4.701533019542694092e-01 -3.464635461568832397e-03 -2.329146564006805420e-01
-2.988146841526031494e-01 -3.815971687436103821e-02 -9.271156042814254761e-02
2.155771553516387939e-01 -1.449833512306213379e-01 9.013447165489196777e-02
4.347161352634429932e-01 -9.246817976236343384e-02 -3.988357782363891602e-01
-2.134269475936889648e-01 -9.078774601221084595e-03 -6.819088459014892578e-01
-8.933825045824050903e-02 -7.782718539237976074e-02 -8.567879199981689453e-01
4.551415443420410156e-01 -6.483276933431625366e-02 1.616472303867340088e-01
2.904013395309448242e-01 2.374925091862678528e-02 -7.509218454360961914e-01
-3.001935034990310669e-02 -1.435477137565612793e-01 -3.655772805213928223e-01
1.807450950145721436e-01 -1.103622317314147949e-01 -8.083251714706420898e-01
2.971903383731842041e-01 -1.724839396774768829e-02 5.506378412246704102e-01
3.265646696090698242e-01 5.246920883655548096e-02 1.442281901836395264e-02
1.344845294952392578e-01 7.793522626161575317e-02 -4.080222547054290771e-02
9.841208904981613159e-02 -1.481942236423492432e-01 1.125750243663787842e-01
1.290009766817092896e-01 -1.491999775171279907e-01 -4.146671295166015625e-01
1.598882079124450684e-01 -5.046863108873367310e-02 -1.001027226448059082e+00
1.844784468412399292e-01 2.431712672114372253e-02 5.254043340682983398e-01
4.815659224987030029e-01 -5.917889624834060669e-02 7.179379463195800781e-05
4.284119904041290283e-01 5.351442843675613403e-03 1.594869196414947510e-01
4.116938114166259766e-01 -9.778017550706863403e-02 -4.670666754245758057e-01
-7.588469237089157104e-02 1.599936932325363159e-02 -8.479261398315429688e-01
-2.370866239070892334e-01 3.054951876401901245e-02 -1.312904655933380127e-01
3.761663138866424561e-01 -1.125756949186325073e-01 -4.574669003486633301e-01
2.186417877674102783e-01 -1.045322865247726440e-01 -8.149149417877197266e-01
3.888623118400573730e-01 -1.142388582229614258e-01 5.383478105068206787e-02
1.550100594758987427e-01 -1.494116485118865967e-01 6.985469162464141846e-02
4.007751345634460449e-01 -1.154248863458633423e-01 -9.481260925531387329e-02
4.265510737895965576e-01 -1.248965226113796234e-02 -5.852272510528564453e-01
2.063651233911514282e-01 -1.009451039135456085e-02 -9.583177566528320312e-01
-2.576636373996734619e-01 -8.035956323146820068e-02 -3.552445471286773682e-01
2.260776162147521973e-01 -1.276425719261169434e-01 -6.405677795410156250e-01
5.693331360816955566e-03 7.839178293943405151e-02 -1.781003326177597046e-01
1.972758769989013672e-01 5.685508251190185547e-02 2.783931195735931396e-01
4.119567573070526123e-01 2.505842223763465881e-02 3.061437606811523438e-02
2.223390340805053711e-01 -1.310597509145736694e-01 -6.097327470779418945e-01
3.951215744018554688e-01 -1.168245822191238403e-01 -2.464924007654190063e-01
4.564993083477020264e-03 5.310333520174026489e-02 3.430393636226654053e-01
-2.312251925468444824e-01 2.601259946823120117e-02 4.097282886505126953e-02
1.057272553443908691e-01 7.452975958585739136e-02 -4.361190497875213623e-01
-2.027631998062133789e-01 3.002125769853591919e-02 1.406212449073791504e-01
-7.229163497686386108e-02 2.386143431067466736e-02 -8.177821636199951172e-01
2.687373161315917969e-01 3.242702037096023560e-02 3.960992991924285889e-01
2.314422279596328735e-02 -1.403994411230087280e-01 1.947795450687408447e-01
-1.687691807746887207e-01 2.236378565430641174e-02 3.073333501815795898e-01
1.890156567096710205e-01 -1.521944999694824219e-01 -1.191886439919471741e-01
2.322057783603668213e-01 7.134102284908294678e-02 -2.302868664264678955e-01
1.632482707500457764e-01 6.916627287864685059e-02 1.469523310661315918e-01
-2.760798335075378418e-01 -4.622898995876312256e-04 6.016179919242858887e-03
2.857597172260284424e-01 -8.348818868398666382e-02 5.132884979248046875e-01
-2.566297352313995361e-01 1.445583254098892212e-02 9.513065218925476074e-03
1.599516421556472778e-01 7.214479893445968628e-02 -4.382065832614898682e-01
-7.886581122875213623e-03 -1.041000410914421082e-01 4.873443543910980225e-01
-1.595748662948608398e-01 5.548634380102157593e-02 -1.177314370870590210e-01
3.466543853282928467e-01 -1.180298328399658203e-01 1.818719208240509033e-01
3.373705148696899414e-01 4.201543331146240234e-02 -4.890897870063781738e-01
6.042955815792083740e-02 -7.253754138946533203e-02 -9.743738174438476562e-01
1.346823871135711670e-01 2.126191928982734680e-02 -9.024602174758911133e-01
2.351414859294891357e-01 -1.399062871932983398e-01 1.518241465091705322e-01
-1.972150802612304688e-01 4.409304261207580566e-02 -6.632346659898757935e-02
-4.773155599832534790e-02 1.512674614787101746e-02 5.285987854003906250e-01
1.371991932392120361e-01 7.048446685075759888e-02 -4.949730038642883301e-01
