6.863805651664733887e-02 7.130166888236999512e-02 1.009568125009536743e-01
4.523345828056335449e-02 -6.824792921543121338e-02 2.605834305286407471e-01
1.359667927026748657e-01 -8.120228350162506104e-02 3.622576892375946045e-01
5.403032898902893066e-01 5.198298394680023193e-02 3.457144200801849365e-01
5.940793752670288086e-01 -1.280729174613952637e-01 1.337317973375320435e-01
5.796566009521484375e-01 -1.087494418025016785e-01 -3.041363358497619629e-01
2.091834545135498047e-01 8.390419185161590576e-02 2.355444580316543579e-01
1.484949588775634766e-01 8.867823332548141479e-02 4.231065884232521057e-02
1.547751128673553467e-01 -1.210817322134971619e-01 -7.046898361295461655e-03
2.807272076606750488e-01 1.832152530550956726e-02 -5.073149800300598145e-01
4.628745615482330322e-01 9.097377955913543701e-02 -4.641343280673027039e-02
5.110820531845092773e-01 5.278914421796798706e-02 3.707809448242187500e-01
4.678177535533905029e-01 -8.397102355957031250e-03 5.369181036949157715e-01
4.899886250495910645e-02 -4.192412644624710083e-02 3.478823006153106689e-01
3.663235902786254883e-02 -5.534321814775466919e-02 -2.759533524513244629e-01
3.976922631263732910e-01 -1.233146637678146362e-01 3.235050141811370850e-01
1.689594238996505737e-01 -3.474456071853637695e-02 4.915819466114044189e-01
2.208355665206909180e-01 3.490214422345161438e-02 -4.548661112785339355e-01
1.665809750556945801e-02 -5.626462027430534363e-02 2.398393601179122925e-01
6.462367773056030273e-01 -1.028134226799011230e-01 2.571969628334045410e-01
1.151466965675354004e-01 5.718974024057388306e-02 -2.975783646106719971e-01
3.750167191028594971e-01 -1.111009940505027771e-01 -3.762947320938110352e-01
5.893232226371765137e-01 6.645911186933517456e-02 -1.331414133310317993e-01
5.308001041412353516e-01 7.258258014917373657e-02 2.158950269222259521e-01
3.720024228096008301e-01 -1.441333889961242676e-01 6.111044809222221375e-02
2.446009814739227295e-01 8.314265310764312744e-02 -2.505348026752471924e-01
6.136387586593627930e-01 -6.793379783630371094e-02 -4.040250778198242188e-01
7.123776674270629883e-01 -9.132428467273712158e-02 -1.528367400169372559e-01
1.151870638132095337e-01 -1.122505962848663330e-01 3.106615971773862839e-03
3.955682218074798584e-01 -7.288540154695510864e-02 -4.988440275192260742e-01
3.847929835319519043e-02 5.841825902462005615e-02 1.511018127202987671e-01
4.951224923133850098e-01 -7.677320390939712524e-02 -4.684393405914306641e-01
2.274825870990753174e-01 7.418655604124069214e-02 3.204589188098907471e-01
4.294148981571197510e-01 -1.159851029515266418e-01 3.643720746040344238e-01
7.141032814979553223e-02 -9.863775968551635742e-02 7.637645304203033447e-02
1.882416754961013794e-01 -1.158007234334945679e-01 -2.167172431945800781e-01
-3.753906488418579102e-02 -2.221957594156265259e-02 1.558622568845748901e-01
7.372812628746032715e-01 -8.915704488754272461e-02 -1.193126104772090912e-02
3.268735408782958984e-01 3.794188052415847778e-02 -4.734379351139068604e-01
1.256107687950134277e-01 -1.003245189785957336e-01 -2.289869785308837891e-01
2.918750047683715820e-02 -8.452424407005310059e-02 1.988926343619823456e-02
3.437706828117370605e-01 -1.233702152967453003e-01 3.133005499839782715e-01
4.212076961994171143e-01 -7.974319905042648315e-02 4.953946173191070557e-01
5.395444631576538086e-01 -5.039791017770767212e-02 4.990289807319641113e-01
5.463769435882568359e-01 -5.917447060346603394e-02 4.851174056529998779e-01
2.700856328010559082e-01 -1.092768311500549316e-01 3.610427677631378174e-01
1.390201002359390259e-01 -4.498856514692306519e-02 -4.406858384609222412e-01
3.004492223262786865e-01 -1.264461576938629150e-01 -2.540157139301300049e-01
2.324849069118499756e-01 6.924303621053695679e-02 -3.356468379497528076e-01
6.676760911941528320e-01 -7.740519940853118896e-02 -3.142401874065399170e-01
6.539064049720764160e-01 -1.118857860565185547e-01 1.732499152421951294e-01
2.295161038637161255e-01 -1.293935775756835938e-01 1.459948420524597168e-01
5.177745819091796875e-01 6.519734859466552734e-02 -2.806286811828613281e-01
1.171979457139968872e-01 2.084216102957725525e-02 4.270154237747192383e-01
2.951234579086303711e-01 -1.285152435302734375e-01 -2.315103709697723389e-01
-4.346579313278198242e-02 -3.383780643343925476e-02 7.128003239631652832e-02
2.590898275375366211e-01 -1.368630826473236084e-01 3.787250071763992310e-02
4.848312735557556152e-01 -1.412242054939270020e-01 1.066490188241004944e-01
6.303804516792297363e-01 4.685611277818679810e-02 -2.178095281124114990e-01
1.166039854288101196e-01 8.188518136739730835e-02 9.910982847213745117e-02
2.053465098142623901e-01 9.510120004415512085e-02 -1.351966336369514465e-02
7.501950263977050781e-01 8.390221744775772095e-03 2.034174837172031403e-02
5.593413114547729492e-02 6.859625130891799927e-02 8.540372550487518311e-02
4.154635667800903320e-01 -1.441959887742996216e-01 -6.680337339639663696e-02
3.521029353141784668e-01 -1.128411665558815002e-01 3.775861859321594238e-01
3.676819503307342529e-01 9.416086226701736450e-02 1.535610258579254150e-01
4.376481175422668457e-01 9.319137036800384521e-02 7.177226245403289795e-02
5.580966472625732422e-01 5.498123914003372192e-02 -2.938166558742523193e-01
5.298946499824523926e-01 -1.343885660171508789e-01 1.657402515411376953e-01
4.175018072128295898e-01 -1.416173577308654785e-01 -1.276661753654479980e-01
1.697143018245697021e-01 3.792120143771171570e-03 4.911026358604431152e-01
4.777621626853942871e-01 7.402733713388442993e-02 -2.607798874378204346e-01
-8.929759263992309570e-03 4.415033757686614990e-02 6.695051491260528564e-02
6.033933162689208984e-01 -2.660591155290603638e-03 -4.266250729560852051e-01
5.269444584846496582e-01 8.009997755289077759e-02 -1.093464493751525879e-01
4.034411907196044922e-02 6.454540789127349854e-02 6.905139982700347900e-02
6.512876749038696289e-01 -1.081578657031059265e-01 2.117587029933929443e-01
2.699011564254760742e-02 -7.680729776620864868e-02 -1.324188709259033203e-01
2.719078958034515381e-01 8.608265966176986694e-02 2.525848448276519775e-01
6.718122959136962891e-02 -8.917170017957687378e-02 -1.709688007831573486e-01
4.991155266761779785e-01 8.710128068923950195e-02 -1.072166673839092255e-02
2.530758976936340332e-01 9.675835072994232178e-02 -7.635609060525894165e-02
5.478641986846923828e-01 7.853852212429046631e-02 -5.926864966750144958e-02
1.088135540485382080e-01 -6.223720684647560120e-02 3.894235193729400635e-01
2.009187340736389160e-01 -1.131462752819061279e-01 -2.577494978904724121e-01
6.872057318687438965e-01 -8.168564736843109131e-02 2.785243391990661621e-01
4.851689934730529785e-01 8.888309448957443237e-02 2.935940772294998169e-02
4.324485659599304199e-01 8.794565498828887939e-02 -1.705605238676071167e-01
3.178834915161132812e-02 2.583556994795799255e-02 3.012503385543823242e-01
7.500124573707580566e-01 -9.851561859250068665e-03 -1.595482230186462402e-01
1.130192130804061890e-01 6.615838408470153809e-02 -2.437731474637985229e-01
1.197468936443328857e-01 3.869790583848953247e-02 -3.727261126041412354e-01
3.452919125556945801e-01 5.644122511148452759e-02 4.292202293872833252e-01
3.784894943237304688e-01 -6.174473091959953308e-03 5.555333495140075684e-01
1.403118371963500977e-01 2.483844384551048279e-02 -4.248597025871276855e-01
3.812328279018402100e-01 -1.360942125320434570e-01 -2.009558677673339844e-01
4.615752995014190674e-01 -1.257706433534622192e-01 2.967408299446105957e-01
-1.946628093719482422e-02 -5.762165784835815430e-02 5.712998658418655396e-02
4.061722159385681152e-01 -9.474734216928482056e-02 4.551246166229248047e-01
4.249975681304931641e-01 -7.566632330417633057e-02 -4.903202652931213379e-01
8.557215332984924316e-02 -1.015939861536026001e-01 -9.245454519987106323e-02
3.284562826156616211e-01 -1.054061800241470337e-01 -3.925490677356719971e-01
4.606655240058898926e-01 5.308863520622253418e-02 4.060906767845153809e-01
3.122391700744628906e-01 9.814990311861038208e-02 -7.483793050050735474e-02
7.260295152664184570e-01 -7.776620239019393921e-02 -1.857958585023880005e-01
7.677493095397949219e-01 -5.732760950922966003e-02 -8.731754869222640991e-02
6.070465445518493652e-01 6.470303982496261597e-02 1.042314171791076660e-01
-4.722124338150024414e-02 -1.525746658444404602e-02 1.118727996945381165e-01
6.931564807891845703e-01 -1.031037196516990662e-01 -1.203008368611335754e-01
2.227161228656768799e-01 6.115180253982543945e-02 -3.698088228702545166e-01
6.061310172080993652e-01 5.859879404306411743e-02 1.913461834192276001e-01
1.973847448825836182e-01 1.994758471846580505e-02 -4.727469384670257568e-01
4.520429372787475586e-01 -1.322239339351654053e-01 2.481139898300170898e-01
6.552039384841918945e-01 4.863358289003372192e-02 1.373483687639236450e-01
6.019822359085083008e-01 -6.553699076175689697e-02 -4.195604920387268066e-01
9.798192977905273438e-02 -1.077652201056480408e-01 1.392419915646314621e-03
9.694376587867736816e-02 1.354258507490158081e-02 -4.018226861953735352e-01
1.993548870086669922e-02 5.105355381965637207e-02 -1.355365663766860962e-01
6.714484691619873047e-01 -1.152003407478332520e-01 2.339529059827327728e-02
4.721147716045379639e-01 4.588386416435241699e-02 4.271898567676544189e-01
3.131999969482421875e-01 7.587227970361709595e-02 -3.196771442890167236e-01
6.829431056976318359e-01 1.356775686144828796e-02 2.872789502143859863e-01
4.678933322429656982e-01 -7.549706101417541504e-02 4.944028854370117188e-01
1.996644735336303711e-01 -3.365603834390640259e-02 5.125879645347595215e-01
5.573755502700805664e-02 -7.978670299053192139e-02 2.236846983432769775e-01
2.957538962364196777e-01 -1.120493039488792419e-01 3.611141741275787354e-01
6.646806001663208008e-02 -9.822351485490798950e-02 -1.469802670180797577e-02
-2.956569194793701172e-03 4.534085839986801147e-02 -8.130750805139541626e-02
4.924570918083190918e-01 6.193173676729202271e-02 3.408595919609069824e-01
1.590985804796218872e-01 -5.125747621059417725e-02 -4.490725100040435791e-01
3.648568689823150635e-01 8.767686039209365845e-02 2.368338406085968018e-01
5.953474044799804688e-01 6.297020614147186279e-02 1.736625880002975464e-01
5.047854185104370117e-01 -1.100993379950523376e-01 3.680539429187774658e-01
6.544156074523925781e-01 -1.176876500248908997e-01 -8.168270438909530640e-02
6.783804893493652344e-01 4.498713463544845581e-02 4.724448919296264648e-02
6.018450856208801270e-02 -9.593312442302703857e-02 4.165525734424591064e-02
2.777900397777557373e-01 -1.380776166915893555e-01 7.306077331304550171e-02
1.756638139486312866e-01 7.447523623704910278e-02 -2.643814682960510254e-01
1.461295485496520996e-01 -7.093694806098937988e-02 4.083700478076934814e-01
3.675723969936370850e-01 -1.368626356124877930e-01 2.012385278940200806e-01
7.029840946197509766e-01 2.776596322655677795e-02 1.524722278118133545e-01
5.102955102920532227e-01 6.968074291944503784e-02 2.717559933662414551e-01
5.744735002517700195e-01 6.187973916530609131e-02 2.333225011825561523e-01
3.018938899040222168e-01 -1.079581007361412048e-01 3.848550021648406982e-01
6.943075656890869141e-01 -8.203204721212387085e-02 -2.501965761184692383e-01
3.321630060672760010e-01 -5.162377282977104187e-02 5.431227684020996094e-01
3.363489508628845215e-01 -1.298149824142456055e-01 -2.465831488370895386e-01
2.289474159479141235e-01 9.651575237512588501e-02 -3.642938286066055298e-02
5.258086919784545898e-01 3.394563496112823486e-02 4.298925995826721191e-01
3.212722539901733398e-01 -1.878388412296772003e-02 5.588570833206176758e-01
6.893135905265808105e-01 3.699038177728652954e-02 -1.075245812535285950e-01
6.486434340476989746e-01 -2.325202152132987976e-02 -3.944584727287292480e-01
5.546619296073913574e-01 6.717448681592941284e-02 -2.103355824947357178e-01
2.926183044910430908e-01 9.935288876295089722e-02 1.707321777939796448e-02
-1.209354400634765625e-02 -5.981065332889556885e-02 9.904544055461883545e-02
9.055113792419433594e-02 7.883503288030624390e-02 1.394734717905521393e-02
7.207207679748535156e-01 -9.273210167884826660e-02 1.165141165256500244e-01
4.760772287845611572e-01 -1.325314342975616455e-01 -2.216770946979522705e-01
3.374326229095458984e-01 -5.647872760891914368e-02 -5.235585570335388184e-01
5.057647228240966797e-01 7.712323963642120361e-02 2.111807167530059814e-01
1.570723950862884521e-01 -7.471397519111633301e-02 -3.935504555702209473e-01
4.623599052429199219e-01 -1.293558180332183838e-01 2.691134810447692871e-01
1.691120713949203491e-01 -1.640301942825317383e-02 -4.839163124561309814e-01
4.489070475101470947e-01 2.474300935864448547e-02 -4.835316836833953857e-01
4.906364679336547852e-01 -1.429712176322937012e-01 1.579512655735015869e-02
3.743486702442169189e-01 -1.447634398937225342e-01 -3.670692909508943558e-03
5.457642078399658203e-01 -3.231324627995491028e-02 5.044680833816528320e-01
3.515885770320892334e-01 9.354263544082641602e-02 -1.563514620065689087e-01
1.141701638698577881e-01 -5.995346233248710632e-02 -3.866167664527893066e-01
6.430093050003051758e-01 3.907870128750801086e-02 2.542562484741210938e-01
2.681906819343566895e-01 -1.350897848606109619e-01 1.263397186994552612e-01
2.703938484191894531e-01 9.161210060119628906e-02 -1.785125583410263062e-01
6.443028450012207031e-01 -1.163816750049591064e-01 1.521064937114715576e-01
3.764723539352416992e-01 -1.442303210496902466e-01 -4.873691126704216003e-02
2.910590171813964844e-01 9.873203188180923462e-02 6.305110454559326172e-02
8.879753947257995605e-02 -3.387296199798583984e-02 -4.006413221359252930e-01
3.537144660949707031e-01 -9.237623959779739380e-02 4.606492519378662109e-01
3.877741992473602295e-01 6.832546740770339966e-02 3.675915896892547607e-01
4.314729273319244385e-01 9.117450565099716187e-02 1.364139765501022339e-01
6.534168124198913574e-01 4.207888618111610413e-03 -3.525618016719818115e-01
-3.565827012062072754e-02 2.285908907651901245e-02 -7.528919726610183716e-02
7.282878160476684570e-01 -9.383271634578704834e-02 2.864603139460086823e-02
5.902022123336791992e-03 -6.291412562131881714e-02 1.697482913732528687e-01
2.838708758354187012e-01 5.401518940925598145e-02 4.342930316925048828e-01
3.876051306724548340e-01 -1.284299492835998535e-01 2.864493727684020996e-01
7.234506607055664062e-01 1.500917971134185791e-02 -1.492696255445480347e-01
6.013524532318115234e-01 -1.230119392275810242e-01 1.826123446226119995e-01
1.399121433496475220e-01 -9.298227727413177490e-02 3.141789734363555908e-01
4.072860777378082275e-01 2.341987192630767822e-02 5.132904052734375000e-01
1.784524321556091309e-01 -9.134335070848464966e-02 3.695128560066223145e-01
4.844349622726440430e-02 5.295085161924362183e-02 -2.063725441694259644e-01
7.631760239601135254e-01 -7.067851722240447998e-02 6.614833138883113861e-03
1.764602512121200562e-01 8.859550207853317261e-02 1.383845806121826172e-01
1.032276749610900879e-01 -1.023510321974754333e-01 1.691059768199920654e-01
1.062405407428741455e-01 -4.521103948354721069e-02 4.217502176761627197e-01
2.648165225982666016e-01 8.204545080661773682e-02 -2.680604159832000732e-01
6.698273420333862305e-01 -1.153575479984283447e-01 -3.043871745467185974e-02
3.973728418350219727e-01 3.427048400044441223e-02 4.913089573383331299e-01
2.956009507179260254e-01 -1.209201142191886902e-01 -2.929911017417907715e-01
4.617955386638641357e-01 8.184740692377090454e-02 2.224608212709426880e-01
3.348233997821807861e-01 9.092133492231369019e-02 -1.949048340320587158e-01
2.613035440444946289e-01 1.311698183417320251e-02 -5.096373558044433594e-01
2.962403595447540283e-01 -1.374046653509140015e-01 -1.184359863400459290e-01
6.203019618988037109e-01 -1.239085569977760315e-01 -1.103485152125358582e-01
3.311383128166198730e-01 -1.422371566295623779e-01 6.850060075521469116e-02
4.128322303295135498e-01 9.307197481393814087e-02 1.278544217348098755e-01
2.628478407859802246e-01 3.825355321168899536e-02 4.774086475372314453e-01
2.054398059844970703e-01 -1.299032270908355713e-01 -2.018588781356811523e-02
7.339504361152648926e-01 -7.358449697494506836e-02 1.904696077108383179e-01
6.885588169097900391e-03 -7.427880167961120605e-02 -4.889550618827342987e-04
2.796203792095184326e-01 -1.387331634759902954e-01 5.160316824913024902e-02
4.338783919811248779e-01 8.530436456203460693e-02 2.157064378261566162e-01
1.926293224096298218e-01 1.297489181160926819e-02 4.954770207405090332e-01
2.191064059734344482e-01 4.809331148862838745e-02 4.327086508274078369e-01
3.823578357696533203e-01 9.640242159366607666e-02 -7.649064809083938599e-02
6.147822737693786621e-02 -8.842087537050247192e-02 1.738050282001495361e-01
3.312623500823974609e-01 -8.285079151391983032e-02 4.846195876598358154e-01
4.107513725757598877e-01 -1.425096690654754639e-01 -1.106743589043617249e-01
3.207134604454040527e-01 -1.413829624652862549e-01 -6.344890594482421875e-02
3.247777819633483887e-01 9.386117756366729736e-02 1.737075597047805786e-01
2.038371264934539795e-01 -8.577661216259002686e-02 4.143844246864318848e-01
4.624947309494018555e-01 8.652823418378829956e-02 1.635110825300216675e-01
4.866614937782287598e-01 -8.842341601848602295e-02 4.561671912670135498e-01
3.633974194526672363e-01 9.692589938640594482e-02 -8.435314148664474487e-02
5.627036094665527344e-02 6.637319922447204590e-02 1.250607222318649292e-01
2.145941555500030518e-01 8.964611589908599854e-02 -1.621595472097396851e-01
6.356611251831054688e-01 2.193807810544967651e-02 -3.310438990592956543e-01
5.097501873970031738e-01 2.193077281117439270e-02 4.729050695896148682e-01
5.117924213409423828e-01 -7.741791754961013794e-02 4.727361202239990234e-01
2.892736494541168213e-01 8.701188862323760986e-02 2.488423436880111694e-01
-4.225930571556091309e-02 -1.102317124605178833e-03 -1.244163438677787781e-01
6.156114339828491211e-01 4.211232811212539673e-02 -2.773668766021728516e-01
7.690091133117675781e-01 -6.404167413711547852e-02 2.486756816506385803e-02
7.059577107429504395e-02 -6.297108530998229980e-02 -3.161558210849761963e-01
2.919209301471710205e-01 -9.138756245374679565e-02 -4.332810044288635254e-01
8.057597279548645020e-02 -8.328343927860260010e-02 -2.472086101770401001e-01
9.907391667366027832e-02 -1.042043566703796387e-01 1.293895989656448364e-01
-2.282217144966125488e-02 3.244978934526443481e-02 -8.808804303407669067e-02
3.968582153320312500e-01 8.344327658414840698e-02 2.616995573043823242e-01
3.693860769271850586e-01 9.810864925384521484e-02 -2.966213971376419067e-02
7.328102588653564453e-01 -6.780077517032623291e-02 2.154795974493026733e-01
6.744295358657836914e-02 4.853690415620803833e-02 -2.680646777153015137e-01
2.576794624328613281e-01 -1.336704194545745850e-02 5.434901118278503418e-01
7.089883089065551758e-01 -4.050303623080253601e-02 3.139761984348297119e-01
2.250884324312210083e-01 5.549965053796768188e-02 4.095423519611358643e-01
4.826554059982299805e-01 8.526321500539779663e-02 -1.312237530946731567e-01
2.106846421957015991e-01 -1.302056610584259033e-01 6.217169016599655151e-02
5.764372348785400391e-01 -1.040317118167877197e-03 4.634664654731750488e-01
2.747781276702880859e-01 -1.294829249382019043e-01 2.160054445266723633e-01
7.131257653236389160e-01 1.865798607468605042e-02 -1.669528484344482422e-01
8.783042430877685547e-03 1.906511187553405762e-02 2.702827751636505127e-01
1.461334377527236938e-01 8.140027523040771484e-02 1.816705465316772461e-01
9.825575351715087891e-02 3.392198681831359863e-02 -3.625595271587371826e-01
6.767930388450622559e-01 -1.103358194231987000e-01 -9.891615808010101318e-02
5.126796960830688477e-01 8.522886037826538086e-02 1.707660034298896790e-02
2.671340107917785645e-01 -1.305605322122573853e-01 -1.803315579891204834e-01
1.048663556575775146e-01 7.655520737171173096e-02 1.501089781522750854e-01
1.773790121078491211e-01 -1.253350377082824707e-01 2.674108743667602539e-02
2.765772342681884766e-01 -1.373825520277023315e-01 -7.802531123161315918e-02
2.154028713703155518e-01 -3.860475495457649231e-02 -5.027962327003479004e-01
1.875785291194915771e-01 5.256245285272598267e-02 -3.838821351528167725e-01
4.335061907768249512e-01 -1.227620989084243774e-01 -3.111682534217834473e-01
5.310332775115966797e-01 -1.394709497690200806e-01 -3.859965875744819641e-02
6.938320398330688477e-01 -1.076999828219413757e-01 -3.487649559974670410e-02
5.742363929748535156e-01 -3.363917022943496704e-02 4.839839041233062744e-01
5.272811055183410645e-01 -1.085737273097038269e-01 -3.489362597465515137e-01
2.735056579113006592e-01 -1.263231933116912842e-01 -2.324714511632919312e-01
3.924256563186645508e-01 -1.639008522033691406e-02 -5.447809100151062012e-01
4.829588532447814941e-02 -3.938264399766921997e-02 -3.355770111083984375e-01
4.752762913703918457e-01 -1.429224759340286255e-01 -5.903161689639091492e-02
4.706741869449615479e-01 -1.354346573352813721e-01 2.074293047189712524e-01
4.372343420982360840e-01 -1.446346342563629150e-01 5.172559991478919983e-02
4.353129863739013672e-01 6.851487606763839722e-02 3.454235792160034180e-01
1.217695474624633789e-01 5.788941681385040283e-02 3.182936310768127441e-01
3.769819736480712891e-01 -7.949766516685485840e-02 -4.845098257064819336e-01
2.334377914667129517e-01 -1.288978457450866699e-01 -1.479825228452682495e-01
6.043655276298522949e-01 3.458077833056449890e-02 -3.302621543407440186e-01
3.737809062004089355e-01 8.875602483749389648e-02 2.217951864004135132e-01
2.220207452774047852e-02 5.935706198215484619e-02 -8.596384897828102112e-03
7.716007232666015625e-01 -1.331420708447694778e-02 4.083247855305671692e-03
5.866228342056274414e-01 6.137734651565551758e-02 -1.983976215124130249e-01
4.807223081588745117e-01 5.933974683284759521e-02 3.642103672027587891e-01
6.141353845596313477e-01 -1.189089789986610413e-01 1.985396742820739746e-01
2.449971735477447510e-01 5.440510064363479614e-02 -4.065421521663665771e-01
-1.181364059448242188e-02 -5.311997979879379272e-02 -1.393807828426361084e-01
7.199295163154602051e-01 1.643361523747444153e-02 1.676045209169387817e-01
1.348006129264831543e-01 5.485077947378158569e-02 -3.307170867919921875e-01
4.847787916660308838e-01 -4.411546885967254639e-02 -5.175043940544128418e-01
2.202130705118179321e-01 -6.804376095533370972e-02 4.758679568767547607e-01
4.092791974544525146e-01 6.285987049341201782e-02 -3.728689253330230713e-01
2.434608340263366699e-01 -1.351635754108428955e-01 2.860208787024021149e-02
4.475264847278594971e-01 -5.818758159875869751e-02 -5.154544711112976074e-01
4.648521542549133301e-01 -1.420552879571914673e-01 -9.689711779356002808e-02
2.171827554702758789e-01 2.262163907289505005e-03 -5.041538476943969727e-01
7.268965244293212891e-01 1.450252905488014221e-02 1.502024978399276733e-01
4.396744966506958008e-01 3.173564001917839050e-02 4.851340949535369873e-01
6.418887376785278320e-01 5.761802196502685547e-02 3.624350298196077347e-03
3.917154669761657715e-01 -1.449813842773437500e-01 3.458793833851814270e-02
4.304412603378295898e-01 8.752305060625076294e-02 1.930992156267166138e-01
9.119212627410888672e-03 -6.828077137470245361e-02 1.427247375249862671e-01
4.433836340904235840e-01 9.058441966772079468e-02 -1.123150661587715149e-01
4.600161910057067871e-01 -1.443911194801330566e-01 2.116247452795505524e-02
5.562447905540466309e-01 -8.813042193651199341e-02 -4.055570960044860840e-01
3.333453834056854248e-01 8.740515261888504028e-02 2.471454739570617676e-01
3.591466844081878662e-01 -1.173378229141235352e-01 -3.414288461208343506e-01
6.690956354141235352e-01 4.085919260978698730e-02 1.680875420570373535e-01
5.660728216171264648e-01 5.612437427043914795e-02 -2.755363583564758301e-01
6.646236181259155273e-01 2.952097728848457336e-02 -2.457177788019180298e-01
6.244069337844848633e-01 -1.119917109608650208e-01 2.364277392625808716e-01
-3.270426392555236816e-02 -7.510683499276638031e-03 1.875942647457122803e-01
6.010547280311584473e-01 -1.181474030017852783e-01 2.285579591989517212e-01
3.864021897315979004e-01 -1.401479542255401611e-01 -1.491021215915679932e-01
5.525832176208496094e-01 3.403350338339805603e-02 4.062534570693969727e-01
5.316640734672546387e-01 -1.244161725044250488e-01 2.640477120876312256e-01
3.481684625148773193e-01 -1.045552641153335571e-01 -4.012174904346466064e-01
4.948394894599914551e-01 -1.425612270832061768e-01 3.509978950023651123e-02
4.363707304000854492e-01 -9.994574636220932007e-02 4.335690140724182129e-01
6.091835498809814453e-01 -1.291776895523071289e-01 -2.772928029298782349e-02
5.557519197463989258e-01 7.768134027719497681e-02 -3.464024513959884644e-02
3.554730713367462158e-01 -1.343827247619628906e-01 -2.111425399780273438e-01
3.235373497009277344e-01 9.947138279676437378e-02 1.058073434978723526e-02
2.413903474807739258e-01 -1.248519644141197205e-01 -2.098126560449600220e-01
5.565221905708312988e-01 3.378923982381820679e-02 -3.893837034702301025e-01
6.877495050430297852e-01 -1.292362902313470840e-02 -3.267930448055267334e-01
3.286128044128417969e-01 -1.410657465457916260e-01 1.012757346034049988e-01
2.747505903244018555e-02 -2.082066796720027924e-02 -3.204483985900878906e-01
4.550531208515167236e-01 -9.825838357210159302e-02 -4.221216738224029541e-01
6.515001058578491211e-01 5.433279275894165039e-02 4.238209128379821777e-02
3.395287096500396729e-01 9.911722689867019653e-02 3.450763598084449768e-02
7.272864580154418945e-01 3.777388483285903931e-04 -2.066957801580429077e-01
6.718528270721435547e-01 4.707582294940948486e-02 -4.490751028060913086e-02
3.604867160320281982e-01 5.861970782279968262e-02 -4.040473103523254395e-01
-1.634410023689270020e-02 1.285438239574432373e-02 -2.016339898109436035e-01
3.610236346721649170e-01 -4.715281724929809570e-02 5.502619147300720215e-01
-2.334257960319519043e-02 -1.652454771101474762e-02 -2.020359039306640625e-01
1.440469473600387573e-01 -1.073977872729301453e-01 -2.091642320156097412e-01
5.561549067497253418e-01 -1.372102349996566772e-01 2.000229619443416595e-02
3.981255888938903809e-01 9.694080054759979248e-02 1.478447578847408295e-02
8.312344551086425781e-02 3.335151448845863342e-02 3.614416420459747314e-01
2.363050431013107300e-01 8.173228055238723755e-02 2.730141878128051758e-01
-4.669225215911865234e-02 -3.258905559778213501e-02 -1.491129025816917419e-02
2.109859138727188110e-01 -1.290362924337387085e-01 1.003388911485671997e-01
9.962469339370727539e-02 7.990577071905136108e-02 -4.862398281693458557e-02
5.945155024528503418e-01 -8.649687469005584717e-02 -3.783532083034515381e-01
2.902145683765411377e-01 -1.348476111888885498e-01 1.666783392429351807e-01
4.935483932495117188e-01 4.235013574361801147e-02 4.261080026626586914e-01
4.382914006710052490e-01 8.555439859628677368e-02 -1.935638040304183960e-01
2.658314406871795654e-01 -9.678144007921218872e-02 -4.013054370880126953e-01
5.917639732360839844e-01 -1.240504607558250427e-01 -1.774562001228332520e-01
-3.862360119819641113e-02 -3.357081860303878784e-02 1.144983693957328796e-01
5.587622523307800293e-01 -8.740139752626419067e-02 4.187883436679840088e-01
2.230938673019409180e-01 7.235576212406158447e-02 -3.133851587772369385e-01
3.919717371463775635e-01 -1.154963299632072449e-01 -3.555880188941955566e-01
5.766087770462036133e-01 -1.193592101335525513e-01 -2.414913326501846313e-01
3.739670515060424805e-01 -1.422921270132064819e-01 -1.047849878668785095e-01
3.308936655521392822e-01 9.706994146108627319e-02 -1.001583561301231384e-01
2.217014282941818237e-01 7.627393305301666260e-02 -2.881599068641662598e-01
1.273412853479385376e-01 8.561664819717407227e-02 3.244549781084060669e-02
6.090589165687561035e-01 -5.790380761027336121e-02 4.370209872722625732e-01
7.404714822769165039e-02 -8.593357354402542114e-02 -2.155178040266036987e-01
2.033556103706359863e-01 -1.245716437697410583e-01 1.608353257179260254e-01
-2.595105767250061035e-02 -4.536187648773193359e-02 1.290033459663391113e-01
6.938969492912292480e-01 -9.292674809694290161e-02 2.113903909921646118e-01
7.579404115676879883e-02 6.655244529247283936e-02 1.848690956830978394e-01
3.416819274425506592e-01 -1.428696811199188232e-01 -5.188642069697380066e-02
6.037706136703491211e-01 -1.911624707281589508e-02 -4.421430826187133789e-01
2.662825584411621094e-01 9.471511840820312500e-02 -1.316609084606170654e-01
4.028410315513610840e-01 -4.333654791116714478e-02 -5.379192829132080078e-01
6.588137149810791016e-01 5.131221562623977661e-02 6.675441563129425049e-02
5.893424153327941895e-01 -1.264404207468032837e-01 -1.549222022294998169e-01
7.472938299179077148e-01 -4.874692857265472412e-02 -2.002633363008499146e-01
5.248131752014160156e-01 -1.394399255514144897e-01 -6.293088197708129883e-02
7.112159729003906250e-01 -1.013567373156547546e-01 3.767542913556098938e-02
3.113252520561218262e-01 -1.274980604648590088e-01 2.662238180637359619e-01
4.843886494636535645e-01 1.633894816040992737e-02 4.986812770366668701e-01
3.769633173942565918e-01 8.140999078750610352e-02 2.875204384326934814e-01
6.232592463493347168e-02 -3.786513209342956543e-02 -3.600613474845886230e-01
3.745371997356414795e-01 1.119560003280639648e-02 -5.240940451622009277e-01
3.820079565048217773e-01 -1.047911420464515686e-01 4.183773100376129150e-01
6.585793495178222656e-01 -7.108691334724426270e-02 -3.438262343406677246e-01
3.975785672664642334e-01 -6.695340573787689209e-02 5.235981941223144531e-01
-2.696663141250610352e-02 3.458746895194053650e-02 9.723268449306488037e-04
2.997553050518035889e-01 6.050945073366165161e-02 -3.963955342769622803e-01
7.670576572418212891e-01 -3.123648464679718018e-02 1.390417814254760742e-01
3.889617025852203369e-01 9.729273617267608643e-02 -2.242435701191425323e-02
7.206732630729675293e-01 -8.872710168361663818e-03 2.636509835720062256e-01
4.450376927852630615e-01 6.869215518236160278e-02 -3.237689733505249023e-01
6.701172590255737305e-01 4.841829091310501099e-02 2.134906314313411713e-02
-3.857791423797607422e-02 2.301551401615142822e-02 6.099945306777954102e-02
5.997927188873291016e-01 -1.265338063240051270e-01 -1.297377496957778931e-01
6.869173645973205566e-01 -1.090144813060760498e-01 -6.381809711456298828e-02
2.096031308174133301e-01 4.183137416839599609e-02 4.468790590763092041e-01
1.568238288164138794e-01 7.904366403818130493e-02 -2.065139412879943848e-01
5.193405747413635254e-01 -1.138767898082733154e-01 -3.276153504848480225e-01
3.499796092510223389e-01 9.674698859453201294e-02 -9.916668385267257690e-02
1.166397631168365479e-01 -9.007708728313446045e-02 2.931298613548278809e-01
3.379074633121490479e-01 -7.685673981904983521e-02 -4.867459535598754883e-01
4.656123220920562744e-01 9.103547781705856323e-02 -2.639451995491981506e-02
3.638723790645599365e-01 -1.433781832456588745e-01 8.085289597511291504e-02
3.248122334480285645e-01 -1.400290429592132568e-01 1.204999163746833801e-01
5.604768395423889160e-01 6.025515496730804443e-02 2.703881263732910156e-01
1.203944236040115356e-01 -5.539935082197189331e-02 -4.039631187915802002e-01
5.485507249832153320e-01 -1.184267550706863403e-01 -2.783568203449249268e-01
3.900129795074462891e-01 -1.388385295867919922e-01 1.822653859853744507e-01
3.499205708503723145e-01 8.045765012502670288e-02 3.020233213901519775e-01
4.075922667980194092e-01 -1.361012458801269531e-01 -2.040111720561981201e-01
6.699359416961669922e-01 -9.973172843456268311e-02 -2.159301936626434326e-01
4.361748695373535156e-02 4.019708931446075439e-02 2.765524387359619141e-01
2.311163097620010376e-01 -1.083725392818450928e-01 3.361986279487609863e-01
5.082967877388000488e-02 -6.117885559797286987e-02 3.011464178562164307e-01
5.885576009750366211e-01 -1.037179604172706604e-01 -3.196095824241638184e-01
3.682971894741058350e-01 3.505946323275566101e-02 -4.794026017189025879e-01
3.866962194442749023e-01 -1.450493037700653076e-01 1.264978386461734772e-02
-5.159646272659301758e-03 1.515690237283706665e-02 -2.286083847284317017e-01
7.200241088867187500e-05 -6.709381937980651855e-03 2.832962572574615479e-01
2.626985311508178711e-01 -7.151443511247634888e-03 -5.280756950378417969e-01
1.684438139200210571e-01 7.598333805799484253e-02 -2.460633069276809692e-01
7.293576002120971680e-02 -9.469853341579437256e-02 1.497924774885177612e-01
1.386742889881134033e-01 7.261159271001815796e-02 2.511250078678131104e-01
7.679739594459533691e-02 -9.298595041036605835e-02 1.818145513534545898e-01
6.345211267471313477e-01 -2.872441709041595459e-02 -4.133992493152618408e-01
3.281454741954803467e-01 -1.336202304810285568e-02 -5.439891219139099121e-01
4.078105092048645020e-01 9.194620698690414429e-02 1.547205895185470581e-01
1.143276542425155640e-01 -8.366023749113082886e-02 3.217069506645202637e-01
7.688276767730712891e-01 -4.554914310574531555e-02 -1.133487075567245483e-01
1.985619366168975830e-01 -5.820055305957794189e-02 -4.670888483524322510e-01
-2.701550722122192383e-03 4.352125525474548340e-02 -1.034092605113983154e-01
6.437012553215026855e-02 3.531423211097717285e-02 -3.133343756198883057e-01
2.508245408535003662e-01 -1.199143901467323303e-01 -2.642237246036529541e-01
6.117846965789794922e-01 -7.953187078237533569e-02 3.932249546051025391e-01
4.928750991821289062e-01 7.977642118930816650e-02 -1.879562139511108398e-01
1.971468329429626465e-01 2.607752755284309387e-02 4.772100448608398438e-01
-1.073208451271057129e-02 3.695520386099815369e-02 -1.196025833487510681e-01
1.795357018709182739e-01 -9.858211129903793335e-02 -3.219430446624755859e-01
9.698808193206787109e-02 2.195885404944419861e-03 4.298054575920104980e-01
7.027974128723144531e-01 -9.832322597503662109e-02 1.426610201597213745e-01
2.324264943599700928e-01 -1.007117703557014465e-01 3.766637444496154785e-01
4.758884906768798828e-01 -8.426143229007720947e-02 4.713820219039916992e-01
2.812258601188659668e-01 -1.391402930021286011e-01 -2.000427059829235077e-02
9.781846404075622559e-02 7.671227306127548218e-02 1.264906525611877441e-01
1.525553464889526367e-01 6.442221999168395996e-02 3.187697231769561768e-01
5.761576890945434570e-01 3.562923520803451538e-04 -4.482865631580352783e-01
4.704791605472564697e-01 4.335141181945800781e-02 -4.226522147655487061e-01
6.960721015930175781e-01 -1.074462085962295532e-01 1.374465506523847580e-02
2.736192941665649414e-01 4.510532319545745850e-02 -4.461115300655364990e-01
4.533796310424804688e-01 7.403671741485595703e-02 2.975517809391021729e-01
3.516111969947814941e-01 -1.294383108615875244e-01 -2.563711702823638916e-01
2.837165296077728271e-01 -1.102827340364456177e-01 -3.499902784824371338e-01
6.167696714401245117e-01 5.389186739921569824e-02 -1.944043189287185669e-01
1.229549944400787354e-01 -9.895492345094680786e-02 2.485680878162384033e-01
5.031158924102783203e-01 -4.079431295394897461e-03 -5.036542415618896484e-01
2.017036229372024536e-01 -1.158766373991966248e-01 2.514718174934387207e-01
7.538090944290161133e-01 -7.307183742523193359e-02 1.015262976288795471e-01
1.542177051305770874e-01 6.276233494281768799e-02 -3.131853044033050537e-01
6.167793273925781250e-02 3.701455891132354736e-03 -3.697555661201477051e-01
6.147695183753967285e-01 -1.209166273474693298e-01 -1.644473671913146973e-01
6.435973644256591797e-01 -1.063620671629905701e-01 -2.277446538209915161e-01
1.984478086233139038e-01 9.058229625225067139e-02 1.434971392154693604e-01
6.481237411499023438e-01 -1.180079877376556396e-01 1.167085319757461548e-01
-8.115559816360473633e-03 3.320178389549255371e-02 -1.549989581108093262e-01
1.550604999065399170e-01 -9.524580836296081543e-02 3.234265446662902832e-01
2.416503429412841797e-01 7.457941770553588867e-02 -3.095556199550628662e-01
3.289460837841033936e-01 6.971904635429382324e-02 3.700677752494812012e-01
1.344198733568191528e-01 -1.118211448192596436e-01 1.507797092199325562e-01
2.213558554649353027e-01 -5.872010812163352966e-02 -4.803500473499298096e-01
7.145515084266662598e-02 7.424072921276092529e-02 3.478920832276344299e-02
7.052458524703979492e-01 -1.005751416087150574e-01 -9.321850538253784180e-02
2.602968215942382812e-01 -1.324380338191986084e-01 -1.441514194011688232e-01
2.666478753089904785e-01 -6.445246934890747070e-02 5.065175890922546387e-01
1.709316968917846680e-01 -1.097970753908157349e-01 -2.389707565307617188e-01
8.359774947166442871e-02 -4.521824792027473450e-02 -3.784393668174743652e-01
-9.010612964630126953e-03 -2.956414967775344849e-02 -2.293310165405273438e-01
4.014292359352111816e-01 -1.446635425090789795e-01 -4.725599661469459534e-02
5.092362761497497559e-01 8.107736706733703613e-02 1.544320881366729736e-01
5.460819005966186523e-01 -1.253655254840850830e-01 2.421875149011611938e-01
3.842619359493255615e-01 -9.628040343523025513e-02 -4.367206096649169922e-01
1.775983422994613647e-01 6.559459865093231201e-02 -3.194226920604705811e-01
3.406391739845275879e-01 -1.416320055723190308e-01 -9.002433717250823975e-02
2.983464598655700684e-01 -1.369285583496093750e-01 1.441509723663330078e-01
4.660461544990539551e-01 -1.142298653721809387e-01 -3.514364063739776611e-01
4.433054924011230469e-01 8.841844648122787476e-02 1.647127717733383179e-01
5.383777618408203125e-02 3.147897496819496155e-02 3.242886960506439209e-01
7.948064804077148438e-02 -1.022702828049659729e-01 3.380305692553520203e-02
5.319027304649353027e-01 8.216431736946105957e-02 -1.348678581416606903e-02
7.715777158737182617e-01 -4.357685893774032593e-02 1.108893454074859619e-01
5.037961006164550781e-01 1.617448031902313232e-02 4.884055256843566895e-01
9.701755642890930176e-02 -7.437145337462425232e-03 -4.194132387638092041e-01
4.041710197925567627e-01 -8.345867693424224854e-02 4.880129992961883545e-01
3.507484197616577148e-01 -8.763854950666427612e-02 -4.608209133148193359e-01
7.343969345092773438e-01 -1.568490080535411835e-02 2.400961965322494507e-01
1.185229867696762085e-01 7.791253924369812012e-02 -1.508800983428955078e-01
1.866286993026733398e-02 -7.790989428758621216e-02 8.400458097457885742e-02
7.357966303825378418e-01 1.297367364168167114e-02 1.140566021203994751e-01
5.345031619071960449e-01 7.023900002241134644e-02 -2.178170680999755859e-01
6.775138974189758301e-01 -1.070605367422103882e-01 -1.370997875928878784e-01
4.748219251632690430e-01 -1.071244627237319946e-01 3.948349058628082275e-01
1.168043613433837891e-01 -1.116483584046363831e-01 -5.665881559252738953e-02
9.987023472785949707e-02 7.668295502662658691e-02 -1.174352169036865234e-01
2.010890841484069824e-02 -5.275473371148109436e-02 2.619966566562652588e-01
-3.109970688819885254e-02 -1.731227710843086243e-02 -1.739929020404815674e-01
6.721011400222778320e-01 2.969980612397193909e-02 2.400481253862380981e-01
5.912958383560180664e-01 -4.077356308698654175e-02 4.678511321544647217e-01
1.348542124032974243e-01 -7.295292615890502930e-02 -3.749271333217620850e-01
3.641146123409271240e-01 8.122686296701431274e-02 -2.779873907566070557e-01
7.212495803833007812e-01 3.535736352205276489e-03 2.267558425664901733e-01
3.680259585380554199e-01 -8.501944690942764282e-02 -4.700484573841094971e-01
4.582065939903259277e-01 -9.513472765684127808e-02 4.451774656772613525e-01
6.443771719932556152e-02 -8.657171577215194702e-02 1.995449662208557129e-01
2.710968255996704102e-02 -7.275322079658508301e-02 1.823766380548477173e-01
6.623983383178710938e-01 -6.034552678465843201e-02 3.713948428630828857e-01
3.130544722080230713e-01 8.549813926219940186e-02 2.651880979537963867e-01
7.677665948867797852e-01 -5.768077820539474487e-02 9.778682142496109009e-02
7.472447156906127930e-01 -1.723512448370456696e-02 2.022228837013244629e-01
4.293816685676574707e-01 -9.179283678531646729e-02 4.619138240814208984e-01
4.698478579521179199e-01 -1.170999258756637573e-01 3.480235040187835693e-01
2.027697563171386719e-01 9.035979956388473511e-02 -1.375446319580078125e-01
1.405234634876251221e-01 8.417189866304397583e-02 -1.156755089759826660e-01
-1.551544666290283203e-02 -1.052699051797389984e-02 -2.279486507177352905e-01
1.292694807052612305e-01 8.464812487363815308e-02 -6.894651800394058228e-02
4.687001407146453857e-01 1.576085016131401062e-02 -4.930031299591064453e-01
3.467577695846557617e-01 -9.686937928199768066e-02 -4.305489361286163330e-01
5.387751460075378418e-01 7.583165168762207031e-02 1.607369184494018555e-01
1.486371010541915894e-01 5.497485399246215820e-02 -3.437777459621429443e-01
5.688174962997436523e-01 6.564347445964813232e-02 -1.965907365083694458e-01
1.800020933151245117e-01 4.766522347927093506e-02 4.115649163722991943e-01
1.506831347942352295e-01 -1.199528947472572327e-01 -3.132052719593048096e-02
1.513797044754028320e-01 7.674258947372436523e-02 2.353934198617935181e-01
3.469435870647430420e-01 7.402916997671127319e-02 3.446696400642395020e-01
2.571921944618225098e-01 9.780715405941009521e-02 6.138651072978973389e-02
5.749601125717163086e-01 -1.331648826599121094e-01 9.160639345645904541e-02
2.305406779050827026e-01 -1.332758069038391113e-01 -3.402543440461158752e-02
6.812568902969360352e-01 -9.287198632955551147e-02 2.421634197235107422e-01
2.048668563365936279e-01 -1.299110203981399536e-01 2.433534152805805206e-02
-4.694172739982604980e-02 -3.216944634914398193e-02 3.194137662649154663e-02
6.372783184051513672e-01 -1.183365657925605774e-01 -1.367886364459991455e-01
4.779222905635833740e-01 5.692613869905471802e-02 -3.636322319507598877e-01
-3.807562589645385742e-02 1.412355154752731323e-02 1.250547319650650024e-01
7.536478042602539062e-01 2.448469400405883789e-03 -6.839730590581893921e-02
2.489669024944305420e-01 -1.285579502582550049e-01 -1.792551130056381226e-01
4.266010522842407227e-01 -1.100547835230827332e-01 3.939039111137390137e-01
4.753889441490173340e-01 -1.230786293745040894e-01 3.097674548625946045e-01
7.221446037292480469e-01 -9.697185456752777100e-02 1.028655283153057098e-02
1.064271926879882812e-01 8.175589889287948608e-02 4.297093302011489868e-02
3.661476373672485352e-01 -4.493528977036476135e-02 -5.382385253906250000e-01
1.505543440580368042e-01 8.443409949541091919e-02 1.509916782379150391e-01
4.959800243377685547e-01 5.080766230821609497e-02 -3.777032196521759033e-01
1.744565069675445557e-01 -1.048133075237274170e-01 -2.796631455421447754e-01
5.035083293914794922e-01 -8.659689873456954956e-02 -4.408629238605499268e-01
1.213819831609725952e-01 8.419456332921981812e-02 5.648387223482131958e-02
2.965679168701171875e-01 7.909466326236724854e-02 -2.971834242343902588e-01
5.028218626976013184e-01 5.063084512948989868e-02 3.873549699783325195e-01
3.065491318702697754e-01 9.053742140531539917e-02 2.157005518674850464e-01
5.598698258399963379e-01 6.622580438852310181e-02 2.232737094163894653e-01
6.927828788757324219e-01 -1.081297099590301514e-01 4.452287033200263977e-02
3.461205661296844482e-01 -1.437561213970184326e-01 7.424219511449337006e-04
1.414967030286788940e-01 7.776252925395965576e-02 -1.958947926759719849e-01
6.551942825317382812e-01 -8.846419304609298706e-02 -2.973104417324066162e-01
3.872832655906677246e-01 3.595197573304176331e-02 -4.744327664375305176e-01
2.768689990043640137e-01 -1.068595126271247864e-01 3.774251639842987061e-01
5.311967134475708008e-01 7.814147323369979858e-02 -1.314026266336441040e-01
7.381101846694946289e-01 1.646203547716140747e-02 -2.515574544668197632e-02
3.754523992538452148e-01 2.623933181166648865e-02 -4.985658526420593262e-01
3.070598840713500977e-01 4.136534780263900757e-02 -4.627615213394165039e-01
4.226264059543609619e-01 9.524054825305938721e-02 1.968494616448879242e-02
5.586608648300170898e-01 6.955814361572265625e-02 -1.779447048902511597e-01
3.546534776687622070e-01 4.399693757295608521e-02 4.710137248039245605e-01
1.953926384449005127e-01 9.431113302707672119e-02 1.647846028208732605e-02
1.714095473289489746e-01 8.219454437494277954e-02 -1.957343071699142456e-01
8.537459373474121094e-02 -8.511849492788314819e-02 2.618896365165710449e-01
5.856123566627502441e-02 -6.891354918479919434e-02 -2.717600166797637939e-01
2.766913175582885742e-01 -1.274793446063995361e-01 2.385679930448532104e-01
1.395422369241714478e-01 -6.836545467376708984e-02 -3.937007784843444824e-01
2.995132207870483398e-01 -1.398074328899383545e-01 7.900080084800720215e-02
2.858183383941650391e-01 9.249809384346008301e-02 1.884504854679107666e-01
2.878684699535369873e-01 9.754522889852523804e-02 -8.517252653837203979e-02
5.450745820999145508e-01 5.731655284762382507e-03 4.790263175964355469e-01
5.275872945785522461e-01 6.678798049688339233e-02 2.710449397563934326e-01
6.173256635665893555e-01 6.021932512521743774e-02 -1.217680945992469788e-01
9.800627827644348145e-02 7.944923639297485352e-02 6.903065741062164307e-02
6.659631729125976562e-01 -8.854947984218597412e-02 -2.792230844497680664e-01
7.409107685089111328e-01 1.310127973556518555e-02 -5.814170464873313904e-02
7.639677524566650391e-01 -1.042751781642436981e-02 9.676424413919448853e-02
-2.990376949310302734e-02 -3.797456622123718262e-02 1.457455009222030640e-01
1.326538622379302979e-01 -5.457084998488426208e-02 4.337519705295562744e-01
-4.492032527923583984e-02 -1.659685745835304260e-02 -1.089855134487152100e-01
3.694054186344146729e-01 -1.369975656270980835e-01 -1.868520528078079224e-01
5.980801582336425781e-01 1.187308505177497864e-02 -4.065960049629211426e-01
5.362470149993896484e-01 -1.007951274514198303e-01 3.892263174057006836e-01
2.154336124658584595e-01 9.441636502742767334e-02 -7.825028896331787109e-02
2.723054885864257812e-01 -1.204489469528198242e-01 -2.795487642288208008e-01
7.135576009750366211e-02 -4.719641804695129395e-02 3.730445802211761475e-01
3.922985196113586426e-01 -1.088102608919143677e-01 4.015226364135742188e-01
1.419377326965332031e-01 -9.265292435884475708e-02 -3.040662705898284912e-01
1.361447721719741821e-01 -1.980018801987171173e-02 4.732216000556945801e-01
4.926024675369262695e-01 -1.278212368488311768e-01 2.664763033390045166e-01
1.302276253700256348e-01 -3.225451335310935974e-02 4.616206586360931396e-01
2.346285134553909302e-01 1.626542210578918457e-02 -4.959905743598937988e-01
5.801634788513183594e-01 -1.335144340991973877e-01 -4.483608528971672058e-02
3.826799988746643066e-01 9.286945313215255737e-02 1.636451184749603271e-01
2.942068576812744141e-01 9.922444075345993042e-02 -2.117400430142879486e-02
7.125620841979980469e-01 4.959313198924064636e-03 -2.334495782852172852e-01
2.032728791236877441e-01 -1.081314459443092346e-01 3.093583583831787109e-01
6.318570375442504883e-01 5.798532813787460327e-02 -9.143336117267608643e-02
4.889963269233703613e-01 -6.314338743686676025e-02 -4.955611824989318848e-01
1.571740955114364624e-01 8.980252593755722046e-02 -2.886888757348060608e-02
1.972834318876266479e-01 -1.224291622638702393e-01 -1.622688323259353638e-01
1.373563557863235474e-01 4.558070749044418335e-02 -3.684687912464141846e-01
4.547133445739746094e-01 -1.121436953544616699e-01 3.783790171146392822e-01
3.623673617839813232e-01 5.227252840995788574e-02 -4.282461106777191162e-01
4.949069619178771973e-01 4.713608324527740479e-02 4.076242148876190186e-01
1.573998034000396729e-01 8.643917739391326904e-02 1.346322894096374512e-01
5.776854157447814941e-01 -1.256487667560577393e-01 1.976218521595001221e-01
5.549677014350891113e-01 -1.333350241184234619e-01 1.399407386779785156e-01
-3.526729345321655273e-02 -4.118769988417625427e-02 -7.692552357912063599e-02
4.132622480392456055e-01 -1.365436166524887085e-01 2.121866494417190552e-01
6.002323627471923828e-01 -1.018498241901397705e-01 3.280070126056671143e-01
6.334078311920166016e-02 7.123523205518722534e-02 -5.468856915831565857e-02
4.793676733970642090e-01 3.143735602498054504e-02 4.677542448043823242e-01
9.224918484687805176e-02 -1.043919846415519714e-01 -7.533326745033264160e-02
6.780623197555541992e-01 -1.073479279875755310e-01 1.442766487598419189e-01
3.925406336784362793e-01 4.466728121042251587e-02 4.631941914558410645e-01
7.647048830986022949e-01 -4.794746637344360352e-03 2.204696275293827057e-02
3.263876736164093018e-01 -1.267403066158294678e-01 2.810842990875244141e-01
8.891263604164123535e-02 -8.950088918209075928e-02 -2.270388454198837280e-01
5.326510667800903320e-01 -1.389916837215423584e-01 6.560357660055160522e-02
6.519383788108825684e-01 2.418261021375656128e-03 3.716932833194732666e-01
3.751499950885772705e-01 7.427446544170379639e-02 -3.223896622657775879e-01
7.523947954177856445e-01 -6.186784431338310242e-02 -1.533862650394439697e-01
4.986135363578796387e-01 6.512808054685592651e-02 -3.018947541713714600e-01
3.219965994358062744e-01 9.882452338933944702e-02 -4.984915256500244141e-02
