1.092161685228347778e-01 -6.363469958305358887e-01 -5.414208769798278809e-01
2.477995157241821289e-01 -4.199957549571990967e-01 -4.823333323001861572e-01
5.634361505508422852e-01 -6.140891313552856445e-01 -3.504488468170166016e-01
4.174431860446929932e-01 -6.491789221763610840e-01 -3.729581236839294434e-01
1.882168501615524292e-01 -4.134001433849334717e-01 -4.400317668914794922e-01
9.156253933906555176e-02 -6.493271589279174805e-01 -4.900589585304260254e-01
5.609792470932006836e-01 -4.865982234477996826e-01 -3.159683942794799805e-01
3.426943719387054443e-01 -5.510551333427429199e-01 -3.066783547401428223e-01
1.413460373878479004e-01 -6.560572385787963867e-01 -4.465944170951843262e-01
2.517796754837036133e-01 -4.086287021636962891e-01 -4.452272355556488037e-01
3.251627981662750244e-01 -6.588469147682189941e-01 -3.918948471546173096e-01
5.659360289573669434e-01 -6.305754184722900391e-01 -3.717175126075744629e-01
4.584088325500488281e-01 -5.938941836357116699e-01 -3.212840855121612549e-01
6.077637672424316406e-01 -4.605504274368286133e-01 -3.558796048164367676e-01
5.229451656341552734e-01 -5.679206848144531250e-01 -5.402756333351135254e-01
5.174469947814941406e-01 -5.964398384094238281e-01 -3.274772763252258301e-01
7.075607776641845703e-01 -5.582890510559082031e-01 -4.114578962326049805e-01
4.249155521392822266e-03 -5.890519022941589355e-01 -4.285088181495666504e-01
5.240372419357299805e-01 -4.837903082370758057e-01 4.790593981742858887e-01
4.749655127525329590e-01 -5.379168391227722168e-01 4.144179821014404297e-01
4.029175341129302979e-01 -6.809385418891906738e-01 4.506925940513610840e-01
4.088526368141174316e-01 -6.712222695350646973e-01 4.067811965942382812e-01
4.154704213142395020e-01 -4.509499371051788330e-01 5.354111194610595703e-01
3.728456795215606689e-01 -4.532539844512939453e-01 5.147155523300170898e-01
3.276837766170501709e-01 -4.861570596694946289e-01 4.840222299098968506e-01
4.264096617698669434e-01 -4.512981772422790527e-01 5.351467728614807129e-01
3.410108983516693115e-01 -5.495090484619140625e-01 4.313539564609527588e-01
4.995589852333068848e-01 -4.822112619876861572e-01 5.403324961662292480e-01
4.341861307621002197e-01 -6.793816685676574707e-01 4.702665805816650391e-01
5.527793169021606445e-01 -6.130315065383911133e-01 5.080969929695129395e-01
4.867736995220184326e-01 -6.156898140907287598e-01 5.258934497833251953e-01
3.218162059783935547e-01 -6.202512979507446289e-01 4.439619183540344238e-01
4.451153576374053955e-01 -5.484141707420349121e-01 4.084159135818481445e-01
5.374337434768676758e-01 -5.239064097404479980e-01 4.384289681911468506e-01
4.557690918445587158e-01 -4.957082867622375488e-01 5.583118200302124023e-01
4.705479145050048828e-01 -5.151226520538330078e-01 4.284190237522125244e-01
5.399922728538513184e-01 -6.659814119338989258e-01 4.009790122509002686e-01
4.877466261386871338e-01 -5.560883879661560059e-01 5.490839481353759766e-01
5.036460757255554199e-01 -6.128184199333190918e-01 3.895900845527648926e-01
4.811126589775085449e-01 -6.017824411392211914e-01 3.899618685245513916e-01
4.252858161926269531e-01 -4.702499210834503174e-01 5.540453791618347168e-01
5.364512205123901367e-01 -5.562939047813415527e-01 5.344254374504089355e-01
5.668926835060119629e-01 -5.710157752037048340e-01 5.157491564750671387e-01
3.783617019653320312e-01 -4.545137584209442139e-01 5.031169056892395020e-01
3.808735013008117676e-01 -6.710595488548278809e-01 4.295507967472076416e-01
4.072337746620178223e-01 -6.405587792396545410e-01 5.084258913993835449e-01
4.150844216346740723e-01 -4.970382153987884521e-01 5.615326762199401855e-01
3.827317953109741211e-01 -6.481482386589050293e-01 4.062889218330383301e-01
4.205661416053771973e-01 -5.054620504379272461e-01 4.351274967193603516e-01
3.125568330287933350e-01 -6.093333959579467773e-01 4.511615633964538574e-01
5.924924015998840332e-01 -5.845274329185485840e-01 4.353316724300384521e-01
3.383745849132537842e-01 -4.797062873840332031e-01 5.393810272216796875e-01
5.570020675659179688e-01 -5.073264837265014648e-01 4.728092849254608154e-01
4.578030109405517578e-01 -4.961658418178558350e-01 4.421364068984985352e-01
4.369729161262512207e-01 -6.121804118156433105e-01 3.896510004997253418e-01
4.878049492835998535e-01 -4.608515501022338867e-01 5.044651627540588379e-01
3.587480783462524414e-01 -4.675580263137817383e-01 4.876727759838104248e-01
5.932421684265136719e-01 -6.129537224769592285e-01 4.774551987648010254e-01
3.755317032337188721e-01 -4.814552962779998779e-01 4.634334146976470947e-01
4.599079787731170654e-01 -5.887862443923950195e-01 5.420164465904235840e-01
3.803678452968597412e-01 -5.387518405914306641e-01 4.220478236675262451e-01
3.729096651077270508e-01 -4.907732903957366943e-01 5.564765930175781250e-01
3.740516901016235352e-01 -6.631788611412048340e-01 4.675930738449096680e-01
4.614126384258270264e-01 -5.603248476982116699e-01 5.519160628318786621e-01
4.488653540611267090e-01 -4.818792939186096191e-01 4.549256563186645508e-01
4.340500831604003906e-01 -5.071887969970703125e-01 5.616108179092407227e-01
6.026295423507690430e-01 -5.809801220893859863e-01 4.625982642173767090e-01
4.182700514793395996e-01 -6.148406863212585449e-01 3.921236395835876465e-01
4.464059174060821533e-01 -4.634231626987457275e-01 4.775678515434265137e-01
4.052838683128356934e-01 -4.611313939094543457e-01 4.814024269580841064e-01
3.834842145442962646e-01 -5.406713485717773438e-01 5.555557608604431152e-01
5.107105970382690430e-01 -6.223747730255126953e-01 5.174592733383178711e-01
5.093757510185241699e-01 -4.894675612449645996e-01 5.393504500389099121e-01
3.283711075782775879e-01 -5.809924602508544922e-01 5.229194164276123047e-01
3.258369266986846924e-01 -6.127704977989196777e-01 4.341197013854980469e-01
4.900752007961273193e-01 -6.445800065994262695e-01 3.864862322807312012e-01
4.301485717296600342e-01 -6.449773907661437988e-01 5.079255104064941406e-01
5.333084464073181152e-01 -4.842297434806823730e-01 4.922563135623931885e-01
5.038184523582458496e-01 -6.547732949256896973e-01 4.956836104393005371e-01
5.577631592750549316e-01 -6.510054469108581543e-01 4.782990217208862305e-01
5.601221919059753418e-01 -5.534070134162902832e-01 4.280142784118652344e-01
3.790073096752166748e-01 -5.566840767860412598e-01 4.146802425384521484e-01
5.351966619491577148e-01 -6.244663000106811523e-01 5.089285373687744141e-01
5.714350938796997070e-01 -5.366079807281494141e-01 4.494278728961944580e-01
5.399614572525024414e-01 -6.328512430191040039e-01 3.948021531105041504e-01
4.005684852600097656e-01 -5.089045763015747070e-01 4.351819753646850586e-01
5.592895746231079102e-01 -5.665107369422912598e-01 4.199905693531036377e-01
4.204646050930023193e-01 -5.159432291984558105e-01 4.279532134532928467e-01
5.104869008064270020e-01 -6.891596317291259766e-01 4.105802774429321289e-01
4.069357514381408691e-01 -4.681224822998046875e-01 4.714773297309875488e-01
5.865219831466674805e-01 -5.465771555900573730e-01 4.577410221099853516e-01
4.588323235511779785e-01 -5.769439935684204102e-01 5.467870235443115234e-01
3.235762715339660645e-01 -5.273644328117370605e-01 4.516271650791168213e-01
5.303459763526916504e-01 -6.719505786895751953e-01 4.004525840282440186e-01
3.754286170005798340e-01 -4.733773469924926758e-01 5.515730977058410645e-01
3.497771918773651123e-01 -4.652744829654693604e-01 5.329763293266296387e-01
3.376040458679199219e-01 -5.450248718261718750e-01 5.422816872596740723e-01
4.719662070274353027e-01 -5.518134236335754395e-01 5.527585148811340332e-01
5.498291850090026855e-01 -5.427002906799316406e-01 5.290307998657226562e-01
3.050565719604492188e-01 -4.997746944427490234e-01 5.141744017601013184e-01
4.517669677734375000e-01 -5.933619141578674316e-01 3.920225799083709717e-01
3.880075514316558838e-01 -5.726251006126403809e-01 5.461223721504211426e-01
4.382107257843017578e-01 -6.906210780143737793e-01 4.182559251785278320e-01
5.028139352798461914e-01 -6.009106636047363281e-01 3.919421434402465820e-01
3.552915155887603760e-01 -6.558136940002441406e-01 4.599808752536773682e-01
3.541045188903808594e-01 -6.292393207550048828e-01 4.162195622920989990e-01
3.286455571651458740e-01 -5.044241547584533691e-01 5.422318577766418457e-01
5.511705875396728516e-01 -6.116133928298950195e-01 4.008020758628845215e-01
4.245255887508392334e-01 -4.771652221679687500e-01 4.595609009265899658e-01
5.739216804504394531e-01 -5.921742320060729980e-01 4.167251884937286377e-01
4.900875389575958252e-01 -4.892900288105010986e-01 4.540153741836547852e-01
3.150371909141540527e-01 -4.871250391006469727e-01 5.185700058937072754e-01
3.748732507228851318e-01 -5.621606707572937012e-01 5.477577447891235352e-01
5.500221252441406250e-01 -5.338872671127319336e-01 4.365303516387939453e-01
4.710353016853332520e-01 -5.815048217773437500e-01 5.438753366470336914e-01
3.588273823261260986e-01 -5.878806114196777344e-01 5.322626233100891113e-01
5.577846765518188477e-01 -5.257283449172973633e-01 4.487428367137908936e-01
3.428707122802734375e-01 -6.155585646629333496e-01 5.065775513648986816e-01
3.005494475364685059e-01 -5.360293984413146973e-01 5.193954110145568848e-01
5.542320013046264648e-01 -6.643904447555541992e-01 4.654416441917419434e-01
4.862954318523406982e-01 -5.799114108085632324e-01 3.964505791664123535e-01
5.865657329559326172e-01 -6.235847473144531250e-01 4.204339087009429932e-01
4.573981165885925293e-01 -5.463498234748840332e-01 5.557435750961303711e-01
5.000118613243103027e-01 -5.508915781974792480e-01 4.103700518608093262e-01
3.690774738788604736e-01 -6.156510114669799805e-01 5.181427597999572754e-01
4.808247089385986328e-01 -6.279428005218505859e-01 5.193755626678466797e-01
3.832334876060485840e-01 -6.162361502647399902e-01 4.010762572288513184e-01
5.101024508476257324e-01 -5.258929133415222168e-01 5.469371676445007324e-01
2.975837290287017822e-01 -5.737157464027404785e-01 4.981761276721954346e-01
3.018909692764282227e-01 -5.575822591781616211e-01 5.143423676490783691e-01
5.577247738838195801e-01 -5.179232954978942871e-01 4.574122726917266846e-01
3.611777126789093018e-01 -5.596689581871032715e-01 4.192080795764923096e-01
5.746114850044250488e-01 -6.082563400268554688e-01 4.978364109992980957e-01
3.222222328186035156e-01 -5.446373224258422852e-01 5.349254608154296875e-01
3.568624854087829590e-01 -5.800399780273437500e-01 4.151151180267333984e-01
3.648309409618377686e-01 -4.981963038444519043e-01 5.556347966194152832e-01
5.750231742858886719e-01 -6.473823189735412598e-01 4.147757887840270996e-01
4.894015789031982422e-01 -5.031132102012634277e-01 5.517892837524414062e-01
4.751208424568176270e-01 -4.666729271411895752e-01 4.793744087219238281e-01
5.303044319152832031e-01 -6.464962363243103027e-01 3.926383852958679199e-01
4.681000411510467529e-01 -6.075697541236877441e-01 5.324702858924865723e-01
3.540146946907043457e-01 -5.925884246826171875e-01 4.142354726791381836e-01
4.990524649620056152e-01 -6.913262009620666504e-01 4.484492242336273193e-01
3.344649076461791992e-01 -5.147292613983154297e-01 4.529810845851898193e-01
5.106301903724670410e-01 -4.778678715229034424e-01 4.789173603057861328e-01
5.999668240547180176e-01 -5.859057307243347168e-01 4.464385509490966797e-01
5.471352934837341309e-01 -6.802647113800048828e-01 4.407615363597869873e-01
3.686456680297851562e-01 -6.471171975135803223e-01 4.138903915882110596e-01
5.714575648307800293e-01 -5.484687685966491699e-01 4.389041662216186523e-01
5.674214363098144531e-01 -6.023570299148559570e-01 4.099943935871124268e-01
5.369923114776611328e-01 -5.366238355636596680e-01 4.284999668598175049e-01
3.964832127094268799e-01 -5.572892427444458008e-01 5.527263879776000977e-01
5.263372659683227539e-01 -5.774280428886413574e-01 4.035315811634063721e-01
5.476441383361816406e-01 -6.743007302284240723e-01 4.552218616008758545e-01
3.099788129329681396e-01 -5.866090059280395508e-01 5.050106644630432129e-01
4.350551664829254150e-01 -6.922427415847778320e-01 4.308009743690490723e-01
6.001373529434204102e-01 -6.162397265434265137e-01 4.412340521812438965e-01
4.029798209667205811e-01 -5.813526511192321777e-01 5.444266796112060547e-01
3.298652172088623047e-01 -6.336902976036071777e-01 4.691354334354400635e-01
5.490481853485107422e-01 -4.969196319580078125e-01 5.072858333587646484e-01
3.842010200023651123e-01 -5.214008688926696777e-01 5.589305162429809570e-01
4.214266538619995117e-01 -6.773326992988586426e-01 4.699916243553161621e-01
4.611853361129760742e-01 -4.583262205123901367e-01 5.360068082809448242e-01
5.422608256340026855e-01 -6.217916607856750488e-01 3.962565064430236816e-01
6.021056175231933594e-01 -5.895223617553710938e-01 4.709635972976684570e-01
3.478706181049346924e-01 -4.701289236545562744e-01 4.908932149410247803e-01
5.183916091918945312e-01 -6.634691357612609863e-01 4.837308526039123535e-01
5.259546041488647461e-01 -5.221190452575683594e-01 4.351598918437957764e-01
4.718891382217407227e-01 -6.198400259017944336e-01 5.253101587295532227e-01
4.838391542434692383e-01 -6.567263603210449219e-01 4.972463846206665039e-01
4.542790353298187256e-01 -6.114723682403564453e-01 5.312640070915222168e-01
5.556678771972656250e-01 -5.118532180786132812e-01 5.165070295333862305e-01
3.529159724712371826e-01 -6.552615165710449219e-01 4.431445002555847168e-01
3.435234129428863525e-01 -5.958139896392822266e-01 5.217023491859436035e-01
4.371863007545471191e-01 -5.587610006332397461e-01 4.042524397373199463e-01
4.613680541515350342e-01 -6.522832512855529785e-01 5.027662515640258789e-01
5.787882208824157715e-01 -5.724578499794006348e-01 5.065901279449462891e-01
5.730644464492797852e-01 -5.291040539741516113e-01 4.600677490234375000e-01
3.912985622882843018e-01 -5.731029510498046875e-01 4.059843420982360840e-01
5.982061624526977539e-01 -5.731961727142333984e-01 4.518518745899200439e-01
3.650334775447845459e-01 -5.349113345146179199e-01 5.532970428466796875e-01
3.459774255752563477e-01 -5.247337818145751953e-01 5.495478510856628418e-01
3.258239924907684326e-01 -5.597054362297058105e-01 4.361506700515747070e-01
5.820209980010986328e-01 -5.834008455276489258e-01 4.257914125919342041e-01
4.573280215263366699e-01 -6.343154311180114746e-01 3.863734602928161621e-01
3.301519453525543213e-01 -5.287996530532836914e-01 5.424793362617492676e-01
3.887855112552642822e-01 -4.704003036022186279e-01 5.526710748672485352e-01
5.444261431694030762e-01 -6.518782377243041992e-01 3.979379236698150635e-01
3.416331410408020020e-01 -4.890791773796081543e-01 4.703257381916046143e-01
4.318844377994537354e-01 -5.852447152137756348e-01 5.444322228431701660e-01
3.419247269630432129e-01 -6.239813566207885742e-01 4.979477822780609131e-01
3.858187496662139893e-01 -4.753201603889465332e-01 4.670712649822235107e-01
3.995141685009002686e-01 -5.367431044578552246e-01 5.582807064056396484e-01
4.957735538482666016e-01 -5.247105360031127930e-01 5.513826608657836914e-01
5.663350820541381836e-01 -6.651778817176818848e-01 4.519382119178771973e-01
5.937421917915344238e-01 -5.611470341682434082e-01 4.541504383087158203e-01
3.241337239742279053e-01 -5.599638819694519043e-01 5.307543277740478516e-01
5.243799686431884766e-01 -4.975387454032897949e-01 4.583593010902404785e-01
4.182375967502593994e-01 -6.072934269905090332e-01 5.328978300094604492e-01
4.728590548038482666e-01 -4.746802449226379395e-01 5.471011996269226074e-01
5.695401430130004883e-01 -5.830932259559631348e-01 5.110953450202941895e-01
5.506432056427001953e-01 -5.992002487182617188e-01 5.156739950180053711e-01
4.729869961738586426e-01 -5.083535313606262207e-01 5.565386414527893066e-01
3.001139760017395020e-01 -5.664652585983276367e-01 4.581367671489715576e-01
4.694954156875610352e-01 -6.378709077835083008e-01 5.137258172035217285e-01
3.856090605258941650e-01 -5.097330212593078613e-01 4.375348687171936035e-01
4.394859075546264648e-01 -4.905118644237518311e-01 4.463445544242858887e-01
5.867475271224975586e-01 -5.388674736022949219e-01 4.848898053169250488e-01
3.840822875499725342e-01 -4.816071689128875732e-01 5.564079284667968750e-01
4.793174862861633301e-01 -4.795997738838195801e-01 4.621943533420562744e-01
3.722406923770904541e-01 -5.880498290061950684e-01 5.359590649604797363e-01
3.096393346786499023e-01 -5.667529106140136719e-01 5.175552964210510254e-01
3.607069253921508789e-01 -4.843534529209136963e-01 4.657617211341857910e-01
5.131919384002685547e-01 -6.728020906448364258e-01 3.961142897605895996e-01
3.839690983295440674e-01 -6.338368654251098633e-01 5.084705948829650879e-01
6.001160144805908203e-01 -5.706369280815124512e-01 4.726770818233489990e-01
5.708569288253784180e-01 -5.586800575256347656e-01 4.312019348144531250e-01
4.605813622474670410e-01 -4.527780413627624512e-01 5.095881223678588867e-01
3.450902104377746582e-01 -6.367899179458618164e-01 4.268831014633178711e-01
4.153753817081451416e-01 -4.832242429256439209e-01 4.540736377239227295e-01
2.900506854057312012e-01 -5.430203676223754883e-01 4.905411601066589355e-01
5.289748311042785645e-01 -5.616787672042846680e-01 4.111436009407043457e-01
4.370489716529846191e-01 -6.703228354454040527e-01 3.965559005737304688e-01
5.068974494934082031e-01 -6.087391972541809082e-01 5.258060097694396973e-01
4.534623920917510986e-01 -6.477489471435546875e-01 3.874809443950653076e-01
4.548552036285400391e-01 -5.704374313354492188e-01 3.989437818527221680e-01
4.234516322612762451e-01 -6.578230261802673340e-01 3.947075605392456055e-01
3.758093118667602539e-01 -6.702524423599243164e-01 4.404516220092773438e-01
5.691633224487304688e-01 -5.335701107978820801e-01 5.131343007087707520e-01
5.314971804618835449e-01 -6.835287213325500488e-01 4.122885763645172119e-01
4.704605937004089355e-01 -4.728796482086181641e-01 4.685600697994232178e-01
2.963246703147888184e-01 -5.233645439147949219e-01 4.838676452636718750e-01
4.637907445430755615e-01 -4.805023670196533203e-01 4.579948782920837402e-01
4.024128019809722900e-01 -4.510518610477447510e-01 5.023843050003051758e-01
5.506953001022338867e-01 -6.741142868995666504e-01 4.138639569282531738e-01
4.720768630504608154e-01 -6.191356182098388672e-01 3.868154287338256836e-01
3.654749393463134766e-01 -5.175482630729675293e-01 4.379649162292480469e-01
5.327951312065124512e-01 -6.782950162887573242e-01 4.589069485664367676e-01
3.180654942989349365e-01 -5.538008809089660645e-01 4.433548152446746826e-01
2.942738533020019531e-01 -5.588000416755676270e-01 5.023344159126281738e-01
5.127358436584472656e-01 -5.394212603569030762e-01 4.192424416542053223e-01
4.176478683948516846e-01 -4.478007853031158447e-01 5.237524509429931641e-01
3.369009494781494141e-01 -6.411266326904296875e-01 4.647266268730163574e-01
2.918436527252197266e-01 -5.554301142692565918e-01 4.760434925556182861e-01
4.113226532936096191e-01 -4.762787818908691406e-01 4.615051448345184326e-01
4.386535882949829102e-01 -5.111868977546691895e-01 4.300909042358398438e-01
3.972410261631011963e-01 -6.320717930793762207e-01 3.971010446548461914e-01
5.330306887626647949e-01 -5.798270106315612793e-01 5.300819277763366699e-01
5.086576342582702637e-01 -4.770111739635467529e-01 5.298178791999816895e-01
4.117240309715270996e-01 -6.854653954505920410e-01 4.292053580284118652e-01
4.621645808219909668e-01 -6.782055497169494629e-01 4.752030670642852783e-01
3.367751538753509521e-01 -4.702844917774200439e-01 5.265994071960449219e-01
3.308380246162414551e-01 -6.242780685424804688e-01 4.341990947723388672e-01
5.964029431343078613e-01 -5.881710648536682129e-01 4.838041365146636963e-01
3.161389827728271484e-01 -5.927537679672241211e-01 4.394479393959045410e-01
3.112707138061523438e-01 -5.059373378753662109e-01 4.779419004917144775e-01
4.462937414646148682e-01 -6.774080395698547363e-01 3.987751603126525879e-01
3.423091471195220947e-01 -4.650317430496215820e-01 5.183961987495422363e-01
4.799898564815521240e-01 -6.866139173507690430e-01 4.025642871856689453e-01
5.745334029197692871e-01 -6.149532198905944824e-01 4.115263819694519043e-01
4.738886058330535889e-01 -6.779424548149108887e-01 4.753260612487792969e-01
5.473982691764831543e-01 -4.991706013679504395e-01 4.752221703529357910e-01
4.594390690326690674e-01 -6.014428138732910156e-01 5.362399220466613770e-01
4.571890532970428467e-01 -6.671817898750305176e-01 4.884183406829833984e-01
3.772029876708984375e-01 -4.715343713760375977e-01 4.739809930324554443e-01
3.044710159301757812e-01 -5.905669927597045898e-01 4.939499497413635254e-01
3.122409582138061523e-01 -5.423904061317443848e-01 5.290118455886840820e-01
3.984633386135101318e-01 -5.616687536239624023e-01 4.082394242286682129e-01
3.086086511611938477e-01 -5.526960492134094238e-01 5.228976011276245117e-01
5.835452079772949219e-01 -5.954319834709167480e-01 4.963658452033996582e-01
3.781425952911376953e-01 -4.559462070465087891e-01 5.365484356880187988e-01
3.100725114345550537e-01 -5.265190005302429199e-01 5.300205945968627930e-01
5.853092670440673828e-01 -5.547463893890380859e-01 4.471819102764129639e-01
6.023967862129211426e-01 -6.104493737220764160e-01 4.579186141490936279e-01
4.072793424129486084e-01 -5.367182493209838867e-01 4.176066219806671143e-01
5.568554997444152832e-01 -5.262885689735412598e-01 5.222683548927307129e-01
4.287511408329010010e-01 -6.553974747657775879e-01 4.983947873115539551e-01
4.946448802947998047e-01 -5.921937823295593262e-01 3.933311700820922852e-01
5.245480537414550781e-01 -5.992109179496765137e-01 5.255860090255737305e-01
2.908825278282165527e-01 -5.617024898529052734e-01 4.866530299186706543e-01
4.717169404029846191e-01 -5.377485156059265137e-01 5.554117560386657715e-01
3.766236305236816406e-01 -5.731268525123596191e-01 5.438690185546875000e-01
5.267555713653564453e-01 -6.689502000808715820e-01 4.747893214225769043e-01
4.934894740581512451e-01 -6.060748696327209473e-01 5.298570394515991211e-01
4.378080666065216064e-01 -5.993976593017578125e-01 3.916815817356109619e-01
4.155184030532836914e-01 -5.823447704315185547e-01 5.450652241706848145e-01
4.346204400062561035e-01 -4.692251384258270264e-01 4.686282873153686523e-01
3.947387933731079102e-01 -5.190837383270263672e-01 4.295991659164428711e-01
4.305858016014099121e-01 -6.487305760383605957e-01 3.908858895301818848e-01
3.531195819377899170e-01 -4.599165916442871094e-01 5.211917757987976074e-01
5.132278203964233398e-01 -6.304719448089599609e-01 3.888778686523437500e-01
3.531613647937774658e-01 -4.979096055030822754e-01 5.522369742393493652e-01
5.484280586242675781e-01 -5.169313549995422363e-01 4.511431753635406494e-01
4.592371881008148193e-01 -6.866434216499328613e-01 4.044182896614074707e-01
3.046839237213134766e-01 -5.755374431610107422e-01 5.073282718658447266e-01
4.836902022361755371e-01 -6.954196095466613770e-01 4.393641948699951172e-01
5.062993764877319336e-01 -5.174368023872375488e-01 4.327614903450012207e-01
5.837813615798950195e-01 -5.811709165573120117e-01 5.004528760910034180e-01
4.987027347087860107e-01 -5.625191330909729004e-01 4.046043455600738525e-01
3.878939449787139893e-01 -6.603673696517944336e-01 4.098731875419616699e-01
5.881609916687011719e-01 -6.381624937057495117e-01 4.622147977352142334e-01
3.023523390293121338e-01 -5.950415730476379395e-01 4.628055691719055176e-01
3.590191900730133057e-01 -6.411183476448059082e-01 4.901891350746154785e-01
3.449175953865051270e-01 -5.700128674507141113e-01 4.227764010429382324e-01
5.671761631965637207e-01 -5.967489480972290039e-01 5.078939199447631836e-01
3.917660117149353027e-01 -5.367122292518615723e-01 4.204029440879821777e-01
5.228798389434814453e-01 -4.831399917602539062e-01 5.239989757537841797e-01
3.239519000053405762e-01 -5.149022936820983887e-01 5.402075648307800293e-01
5.436322093009948730e-01 -4.924333691596984863e-01 4.860502481460571289e-01
5.347482562065124512e-01 -6.867672204971313477e-01 4.266816377639770508e-01
5.396279692649841309e-01 -5.413067936897277832e-01 5.344899296760559082e-01
5.815415382385253906e-01 -6.550449132919311523e-01 4.432362914085388184e-01
4.021312892436981201e-01 -4.507827162742614746e-01 5.339622497558593750e-01
4.845070540904998779e-01 -6.769391894340515137e-01 3.950765132904052734e-01
5.049220323562622070e-01 -5.507154464721679688e-01 5.461965203285217285e-01
5.149378180503845215e-01 -5.097821950912475586e-01 5.436088442802429199e-01
4.875585436820983887e-01 -5.169562101364135742e-01 5.535519123077392578e-01
5.439577102661132812e-01 -6.092628836631774902e-01 5.139372944831848145e-01
4.564475715160369873e-01 -6.431353688240051270e-01 5.103713870048522949e-01
5.711832642555236816e-01 -5.553070306777954102e-01 5.143668651580810547e-01
3.075867593288421631e-01 -5.112567543983459473e-01 5.265601277351379395e-01
5.228997468948364258e-01 -6.211121082305908203e-01 5.149446725845336914e-01
4.312871992588043213e-01 -4.980081319808959961e-01 4.401497840881347656e-01
2.989375591278076172e-01 -5.191814303398132324e-01 5.163334608078002930e-01
4.575896263122558594e-01 -6.226021051406860352e-01 3.868432939052581787e-01
3.570002317428588867e-01 -5.421550273895263672e-01 5.496245622634887695e-01
5.405567884445190430e-01 -5.809425115585327148e-01 4.061135053634643555e-01
4.248726963996887207e-01 -4.628973603248596191e-01 4.771524071693420410e-01
4.094411730766296387e-01 -5.318281650543212891e-01 5.598313808441162109e-01
3.203887343406677246e-01 -6.025352478027343750e-01 4.367453753948211670e-01
2.958701252937316895e-01 -5.824249982833862305e-01 4.786945879459381104e-01
5.259625911712646484e-01 -6.349250078201293945e-01 5.052781105041503906e-01
5.448047518730163574e-01 -5.001584887504577637e-01 5.190217494964599609e-01
3.382017910480499268e-01 -4.929434955120086670e-01 5.451402664184570312e-01
5.487533807754516602e-01 -5.698041915893554688e-01 5.262184143066406250e-01
4.989002346992492676e-01 -4.650522172451019287e-01 5.038554668426513672e-01
5.704674124717712402e-01 -6.404595375061035156e-01 4.792127609252929688e-01
5.760376453399658203e-01 -6.557748913764953613e-01 4.217544794082641602e-01
5.721242427825927734e-01 -6.285571455955505371e-01 4.091104269027709961e-01
4.290928840637207031e-01 -5.507059693336486816e-01 5.562529563903808594e-01
3.408918678760528564e-01 -6.337113976478576660e-01 4.854645431041717529e-01
3.895843923091888428e-01 -6.772186756134033203e-01 4.410265386104583740e-01
4.744165241718292236e-01 -5.480931997299194336e-01 4.089943170547485352e-01
3.856121003627777100e-01 -4.645774066448211670e-01 4.806561470031738281e-01
4.033784568309783936e-01 -4.594878554344177246e-01 5.467147827148437500e-01
4.240006208419799805e-01 -6.361477375030517578e-01 5.143963694572448730e-01
4.029536247253417969e-01 -5.483430027961730957e-01 5.559070110321044922e-01
3.124784827232360840e-01 -4.886896014213562012e-01 5.060333609580993652e-01
4.012485444545745850e-01 -5.835353732109069824e-01 4.008816480636596680e-01
3.240354657173156738e-01 -6.291050314903259277e-01 4.548297226428985596e-01
4.063849449157714844e-01 -6.611380577087402344e-01 4.014738202095031738e-01
5.964217782020568848e-01 -6.038483381271362305e-01 4.336054325103759766e-01
3.548193275928497314e-01 -4.781221747398376465e-01 5.472599267959594727e-01
4.633026123046875000e-01 -5.051113367080688477e-01 4.352364540100097656e-01
5.791441798210144043e-01 -6.467711925506591797e-01 4.643506407737731934e-01
4.834532141685485840e-01 -6.124231815338134766e-01 3.880102932453155518e-01
4.100828170776367188e-01 -4.950242638587951660e-01 4.442219734191894531e-01
4.003514647483825684e-01 -4.485421478748321533e-01 5.145046114921569824e-01
3.349166512489318848e-01 -5.020841360092163086e-01 4.622514545917510986e-01
3.769206404685974121e-01 -5.994457006454467773e-01 5.308849215507507324e-01
3.834282159805297852e-01 -5.524184107780456543e-01 5.524658560752868652e-01
5.273971557617187500e-01 -6.312803626060485840e-01 3.915385603904724121e-01
3.960996568202972412e-01 -5.008080601692199707e-01 5.609136819839477539e-01
4.164274930953979492e-01 -6.810234189033508301e-01 4.610102176666259766e-01
3.722161948680877686e-01 -6.012861728668212891e-01 4.058191776275634766e-01
3.254244029521942139e-01 -6.238150596618652344e-01 4.816551506519317627e-01
3.854148983955383301e-01 -6.698036193847656250e-01 4.638896584510803223e-01
4.453652501106262207e-01 -6.645569205284118652e-01 4.907338321208953857e-01
4.214816093444824219e-01 -5.126504302024841309e-01 5.619856715202331543e-01
3.724869489669799805e-01 -6.452695131301879883e-01 4.928847551345825195e-01
4.749961495399475098e-01 -4.863243699073791504e-01 4.536493420600891113e-01
3.730368614196777344e-01 -5.714649558067321777e-01 4.114700555801391602e-01
4.666377604007720947e-01 -4.590532481670379639e-01 4.910913109779357910e-01
3.697688281536102295e-01 -5.482096672058105469e-01 4.207537770271301270e-01
3.859428167343139648e-01 -5.860479474067687988e-01 5.398542881011962891e-01
4.693567454814910889e-01 -6.601513624191284180e-01 4.953209161758422852e-01
4.036737978458404541e-01 -5.694300532341003418e-01 5.493030548095703125e-01
4.259879589080810547e-01 -6.380742788314819336e-01 3.904393911361694336e-01
5.816336870193481445e-01 -5.337254405021667480e-01 4.680955111980438232e-01
4.949126243591308594e-01 -6.936321258544921875e-01 4.149957895278930664e-01
3.698157072067260742e-01 -6.360270977020263672e-01 4.089094400405883789e-01
3.889742195606231689e-01 -4.990999996662139893e-01 4.445044398307800293e-01
5.205420255661010742e-01 -4.756625890731811523e-01 5.086364746093750000e-01
3.267678022384643555e-01 -5.103420019149780273e-01 4.608050882816314697e-01
4.040955901145935059e-01 -6.698623895645141602e-01 4.752352237701416016e-01
4.703022241592407227e-01 -6.950400471687316895e-01 4.417312741279602051e-01
3.959847986698150635e-01 -4.857105612754821777e-01 4.544071555137634277e-01
5.440316796302795410e-01 -5.054126977920532227e-01 4.615982174873352051e-01
5.415951013565063477e-01 -5.625399351119995117e-01 4.146633744239807129e-01
5.632768869400024414e-01 -6.632860898971557617e-01 4.138982295989990234e-01
4.996393620967864990e-01 -6.854058504104614258e-01 4.605647027492523193e-01
2.972863018512725830e-01 -5.500587821006774902e-01 4.658578038215637207e-01
3.453209996223449707e-01 -5.639615654945373535e-01 5.388386249542236328e-01
4.201200902462005615e-01 -4.832872748374938965e-01 5.591304302215576172e-01
4.631093740463256836e-01 -5.225605368614196777e-01 5.582978129386901855e-01
4.249672889709472656e-01 -5.753026604652404785e-01 5.483472943305969238e-01
3.142987489700317383e-01 -5.808242559432983398e-01 5.132919549942016602e-01
3.893593549728393555e-01 -6.728073358535766602e-01 4.221475422382354736e-01
4.991413950920104980e-01 -5.078207850456237793e-01 4.387402236461639404e-01
5.781675577163696289e-01 -6.547129154205322266e-01 4.536433815956115723e-01
4.337078332901000977e-01 -4.638915359973907471e-01 5.493001341819763184e-01
5.433942079544067383e-01 -6.348433494567871094e-01 4.989428222179412842e-01
3.584334254264831543e-01 -5.698478817939758301e-01 5.407456159591674805e-01
5.737965106964111328e-01 -6.634526848793029785e-01 4.355359375476837158e-01
4.756069779396057129e-01 -5.920736789703369141e-01 5.390367507934570312e-01
4.651820361614227295e-01 -6.940811872482299805e-01 4.157872498035430908e-01
5.559090375900268555e-01 -6.448141932487487793e-01 4.015464186668395996e-01
5.560936927795410156e-01 -5.932875871658325195e-01 4.073679447174072266e-01
4.102928042411804199e-01 -6.076710820198059082e-01 3.944334983825683594e-01
3.984011709690093994e-01 -6.061992645263671875e-01 5.312036275863647461e-01
5.668162107467651367e-01 -5.168350934982299805e-01 5.051199197769165039e-01
3.153639435768127441e-01 -6.120706796646118164e-01 4.841141402721405029e-01
4.333245754241943359e-01 -5.665699243545532227e-01 5.515533089637756348e-01
5.558573007583618164e-01 -6.560479402542114258e-01 4.044280648231506348e-01
3.312097489833831787e-01 -5.958259105682373047e-01 5.151504278182983398e-01
5.439900159835815430e-01 -6.596289873123168945e-01 4.773927927017211914e-01
4.785544276237487793e-01 -4.672285020351409912e-01 5.387884974479675293e-01
4.715737104415893555e-01 -6.846128702163696289e-01 4.657055735588073730e-01
4.641814827919006348e-01 -6.293010115623474121e-01 5.199853777885437012e-01
3.849178254604339600e-01 -5.824322700500488281e-01 4.050821959972381592e-01
3.417106568813323975e-01 -5.912820100784301758e-01 4.205861091613769531e-01
3.315250575542449951e-01 -6.369390487670898438e-01 4.508524835109710693e-01
4.782849848270416260e-01 -6.621673703193664551e-01 3.889911770820617676e-01
4.114601910114288330e-01 -6.474679708480834961e-01 3.951852917671203613e-01
4.032840728759765625e-01 -4.825113713741302490e-01 5.586684942245483398e-01
3.602781891822814941e-01 -6.516885161399841309e-01 4.761807620525360107e-01
4.225250780582427979e-01 -5.399823188781738281e-01 5.586993098258972168e-01
3.608526587486267090e-01 -4.924727678298950195e-01 4.580670297145843506e-01
3.961451649665832520e-01 -6.396875381469726562e-01 5.067459940910339355e-01
3.140097260475158691e-01 -6.167287826538085938e-01 4.610439836978912354e-01
5.786474347114562988e-01 -5.674589276313781738e-01 4.314511716365814209e-01
4.649617075920104980e-01 -5.332090854644775391e-01 4.164703488349914551e-01
3.943326473236083984e-01 -4.888920485973358154e-01 5.593926906585693359e-01
4.216844141483306885e-01 -4.486889839172363281e-01 5.085341930389404297e-01
4.943004846572875977e-01 -5.163098573684692383e-01 4.309267997741699219e-01
3.122354745864868164e-01 -5.733675360679626465e-01 4.434773027896881104e-01
5.407548546791076660e-01 -5.120427012443542480e-01 5.298860073089599609e-01
3.715647757053375244e-01 -4.630364775657653809e-01 4.883252978324890137e-01
5.921576023101806641e-01 -5.782241821289062500e-01 4.917092025279998779e-01
4.915147125720977783e-01 -5.684725642204284668e-01 5.450681447982788086e-01
3.065237402915954590e-01 -5.548336505889892578e-01 4.529377520084381104e-01
4.459450840950012207e-01 -4.502097070217132568e-01 5.234040021896362305e-01
5.983128547668457031e-01 -5.944423675537109375e-01 4.392396211624145508e-01
5.798223018646240234e-01 -6.388487815856933594e-01 4.723268747329711914e-01
4.310953617095947266e-01 -5.397839546203613281e-01 4.133854508399963379e-01
3.256111145019531250e-01 -5.838009715080261230e-01 4.314425289630889893e-01
5.514569282531738281e-01 -5.801194906234741211e-01 5.221928954124450684e-01
4.785462617874145508e-01 -5.669356584548950195e-01 5.478068590164184570e-01
5.249006152153015137e-01 -5.576397776603698730e-01 5.386773943901062012e-01
5.181990265846252441e-01 -5.148558616638183594e-01 4.383765161037445068e-01
5.047016143798828125e-01 -4.695543348789215088e-01 5.210729241371154785e-01
4.891373217105865479e-01 -5.559382438659667969e-01 4.064487814903259277e-01
4.152791500091552734e-01 -5.580847263336181641e-01 5.539283752441406250e-01
5.089111328125000000e-01 -4.705758988857269287e-01 4.963314831256866455e-01
3.857409656047821045e-01 -4.502975940704345703e-01 5.165098905563354492e-01
3.231914341449737549e-01 -5.012765526771545410e-01 4.710381031036376953e-01
6.016122102737426758e-01 -6.043757200241088867e-01 4.439467489719390869e-01
4.601593017578125000e-01 -6.954869031906127930e-01 4.369641542434692383e-01
4.153042137622833252e-01 -6.823222041130065918e-01 4.161036610603332520e-01
5.008739233016967773e-01 -4.844590425491333008e-01 4.633336961269378662e-01
5.835689902305603027e-01 -6.482212543487548828e-01 4.262128174304962158e-01
3.606067597866058350e-01 -4.615896940231323242e-01 5.358028411865234375e-01
4.413326084613800049e-01 -5.836696028709411621e-01 3.952465355396270752e-01
5.934808254241943359e-01 -5.514168739318847656e-01 4.702054560184478760e-01
3.775608241558074951e-01 -6.250873208045959473e-01 5.137116312980651855e-01
5.646331906318664551e-01 -6.486069560050964355e-01 4.071961343288421631e-01
4.427741765975952148e-01 -6.889660954475402832e-01 4.539910256862640381e-01
4.179655909538269043e-01 -5.640723705291748047e-01 4.041083157062530518e-01
4.608864188194274902e-01 -5.602930784225463867e-01 4.029010832309722900e-01
5.849530100822448730e-01 -5.958151817321777344e-01 4.233825504779815674e-01
5.453556776046752930e-01 -5.469793677330017090e-01 4.249878823757171631e-01
5.033125281333923340e-01 -6.358771920204162598e-01 3.873703479766845703e-01
3.280544281005859375e-01 -5.960821509361267090e-01 4.292461872100830078e-01
3.967078626155853271e-01 -6.562477350234985352e-01 4.903498589992523193e-01
3.208036422729492188e-01 -5.992770791053771973e-01 5.049334764480590820e-01
4.478097259998321533e-01 -4.751082062721252441e-01 5.536700487136840820e-01
5.220535993576049805e-01 -6.904705762863159180e-01 4.225766360759735107e-01
5.766569375991821289e-01 -5.431218743324279785e-01 5.078527331352233887e-01
3.262430727481842041e-01 -6.090198755264282227e-01 5.007507205009460449e-01
5.592190623283386230e-01 -5.425146222114562988e-01 5.230743288993835449e-01
3.919036090373992920e-01 -4.504942297935485840e-01 5.297148823738098145e-01
4.939487874507904053e-01 -5.288963913917541504e-01 4.221124351024627686e-01
2.987766563892364502e-01 -5.132235288619995117e-01 4.904344975948333740e-01
3.175161480903625488e-01 -4.939330220222473145e-01 4.845484495162963867e-01
3.584266901016235352e-01 -6.167951226234436035e-01 4.115139544010162354e-01
3.456892669200897217e-01 -6.109474897384643555e-01 4.181492924690246582e-01
5.043049454689025879e-01 -6.704500913619995117e-01 4.800121188163757324e-01
4.232817590236663818e-01 -5.245580077171325684e-01 5.611214637756347656e-01
5.679336190223693848e-01 -5.131932497024536133e-01 4.843072295188903809e-01
4.689880311489105225e-01 -6.914777159690856934e-01 4.524320960044860840e-01
3.211686313152313232e-01 -4.889761209487915039e-01 5.309880971908569336e-01
4.417187571525573730e-01 -4.586563408374786377e-01 5.431233644485473633e-01
5.639336705207824707e-01 -6.178612112998962402e-01 4.052462577819824219e-01
4.724523723125457764e-01 -6.473382711410522461e-01 3.863798379898071289e-01
4.806948602199554443e-01 -5.265618562698364258e-01 4.217627346515655518e-01
5.163797140121459961e-01 -5.498993992805480957e-01 5.429264307022094727e-01
4.011479616165161133e-01 -6.759251356124877930e-01 4.628215730190277100e-01
5.000251531600952148e-01 -6.387233734130859375e-01 5.091279745101928711e-01
5.204601883888244629e-01 -6.097618937492370605e-01 5.218119025230407715e-01
5.593463778495788574e-01 -5.048023462295532227e-01 4.853502213954925537e-01
4.671864807605743408e-01 -6.585068106651306152e-01 3.883659243583679199e-01
5.131844282150268555e-01 -5.718863010406494141e-01 4.029405117034912109e-01
4.891608059406280518e-01 -4.653834402561187744e-01 4.895121753215789795e-01
5.468194484710693359e-01 -6.815938949584960938e-01 4.282821416854858398e-01
4.710274040699005127e-01 -6.686502695083618164e-01 4.865842759609222412e-01
4.765086770057678223e-01 -5.676079392433166504e-01 4.003706574440002441e-01
3.595349788665771484e-01 -5.246869921684265137e-01 5.536519885063171387e-01
3.960986137390136719e-01 -4.574032425880432129e-01 4.894495606422424316e-01
4.018400013446807861e-01 -6.171499490737915039e-01 5.249553918838500977e-01
5.529503822326660156e-01 -5.804990530014038086e-01 4.107231497764587402e-01
3.656503260135650635e-01 -4.669007956981658936e-01 5.444185733795166016e-01
5.140555500984191895e-01 -6.823699474334716797e-01 4.611193537712097168e-01
5.329211950302124023e-01 -4.897453784942626953e-01 4.763851165771484375e-01
5.865942835807800293e-01 -5.650660991668701172e-01 4.403674006462097168e-01
4.953006803989410400e-01 -6.639593243598937988e-01 3.901458680629730225e-01
2.953491806983947754e-01 -5.185222625732421875e-01 5.057497024536132812e-01
5.810570120811462402e-01 -5.298891067504882812e-01 4.881234467029571533e-01
4.732610583305358887e-01 -4.593267440795898438e-01 5.305061340332031250e-01
1.278183311223983765e-01 1.122054904699325562e-01 -5.046040415763854980e-01
4.090822935104370117e-01 4.674482345581054688e-01 -3.865603506565093994e-01
1.630768626928329468e-01 4.040741920471191406e-01 -3.602491617202758789e-01
5.070538520812988281e-01 -1.134899258613586426e-02 -4.924461245536804199e-01
1.875151842832565308e-01 2.410833984613418579e-01 -3.288197517395019531e-01
6.594598889350891113e-01 1.079446077346801758e-02 -3.797548413276672363e-01
4.029901623725891113e-01 5.801498889923095703e-03 -3.144207596778869629e-01
4.083598852157592773e-01 6.742908060550689697e-02 -5.362604260444641113e-01
5.480556488037109375e-01 4.120839238166809082e-01 -4.164483845233917236e-01
3.189126551151275635e-01 4.719111323356628418e-02 -3.153274953365325928e-01
2.716303765773773193e-01 4.163420200347900391e-01 -5.836482644081115723e-01
4.620332121849060059e-01 4.940594732761383057e-01 -4.400270879268646240e-01
2.119717746973037720e-01 2.565988004207611084e-01 -5.758118629455566406e-01
2.744099199771881104e-01 4.568116664886474609e-01 -3.661108911037445068e-01
6.850770115852355957e-02 2.104589045047760010e-01 -5.207353234291076660e-01
1.522270143032073975e-01 5.036292076110839844e-01 -5.620154142379760742e-01
5.855569839477539062e-01 3.528876304626464844e-01 -3.964566588401794434e-01
4.237737655639648438e-01 -2.666816115379333496e-02 -3.232131600379943848e-01
6.619477272033691406e-01 2.550593912601470947e-01 -4.185179471969604492e-01
2.584544122219085693e-01 2.537505030632019043e-01 -5.794791579246520996e-01
6.644186377525329590e-02 3.027305901050567627e-01 -5.468468070030212402e-01
4.859377145767211914e-01 4.191211760044097900e-01 -3.817805051803588867e-01
4.522493481636047363e-01 -1.975691318511962891e-02 -3.199948072433471680e-01
6.197038292884826660e-02 3.592603206634521484e-01 -3.841618597507476807e-01
2.795013487339019775e-01 7.865534722805023193e-02 -3.170600533485412598e-01
4.152311086654663086e-01 2.208178639411926270e-01 -5.697603225708007812e-01
1.103776395320892334e-01 2.901089191436767578e-01 -3.552903831005096436e-01
2.205290943384170532e-01 3.148409724235534668e-02 -4.952704608440399170e-01
5.466927289962768555e-01 2.816072702407836914e-01 -5.387727618217468262e-01
2.296701967716217041e-01 2.621349096298217773e-01 -3.216125965118408203e-01
6.490097045898437500e-01 2.872645854949951172e-01 -4.290689826011657715e-01
1.232382655143737793e-02 4.726063609123229980e-01 -5.015996694564819336e-01
8.520826697349548340e-02 3.424188792705535889e-01 -3.708775937557220459e-01
6.715900897979736328e-01 2.322188764810562134e-01 -4.365592896938323975e-01
1.780892014503479004e-01 7.961975038051605225e-02 -3.507313132286071777e-01
5.432862043380737305e-01 3.776643872261047363e-01 -3.836099505424499512e-01
3.192055821418762207e-01 1.894262880086898804e-01 -3.052310347557067871e-01
5.344346761703491211e-01 -8.523041009902954102e-02 -3.684932589530944824e-01
6.480595469474792480e-02 1.350923180580139160e-01 -4.601326286792755127e-01
5.554718971252441406e-01 -5.729150772094726562e-02 -4.490140676498413086e-01
4.782547950744628906e-01 2.668133080005645752e-01 -5.612320899963378906e-01
4.158404469490051270e-01 -6.532561779022216797e-02 -3.435299694538116455e-01
3.711719214916229248e-01 2.360092550516128540e-01 -5.759702920913696289e-01
6.456559300422668457e-01 2.421621531248092651e-01 -3.822311758995056152e-01
4.514575600624084473e-01 4.559146761894226074e-01 -5.369772911071777344e-01
3.587618768215179443e-01 5.391258001327514648e-02 -5.317214131355285645e-01
4.472781419754028320e-01 2.812327444553375244e-02 -3.083998560905456543e-01
5.301884412765502930e-01 4.406992197036743164e-01 -4.351833164691925049e-01
1.456237733364105225e-01 5.242072343826293945e-01 -4.162985682487487793e-01
4.541906118392944336e-01 8.931601047515869141e-02 -5.391491651535034180e-01
5.680838823318481445e-01 -7.928231358528137207e-02 -3.811364769935607910e-01
6.006902456283569336e-01 8.159783482551574707e-02 -3.287990689277648926e-01
3.469569683074951172e-01 3.016353845596313477e-01 -5.828121900558471680e-01
4.160262942314147949e-01 -9.946757555007934570e-02 -3.922864794731140137e-01
4.765863120555877686e-01 4.435248970985412598e-01 -3.945317566394805908e-01
4.133333563804626465e-01 4.215422272682189941e-01 -5.624487400054931641e-01
2.050161510705947876e-01 5.056753754615783691e-03 -3.783062100410461426e-01
5.140880346298217773e-01 1.201059520244598389e-01 -5.362458229064941406e-01
3.130909502506256104e-01 -2.020165324211120605e-03 -4.989078640937805176e-01
2.711617946624755859e-02 2.237676531076431274e-01 -4.913605451583862305e-01
5.070130825042724609e-01 3.931012153625488281e-01 -3.749464750289916992e-01
4.379365444183349609e-01 -9.399861097335815430e-02 -3.696378171443939209e-01
5.914467573165893555e-01 2.482175379991531372e-01 -5.200921893119812012e-01
5.125882029533386230e-01 2.833780944347381592e-01 -5.512617826461791992e-01
4.212661683559417725e-01 5.264104604721069336e-01 -4.858830571174621582e-01
6.097054481506347656e-01 7.871150970458984375e-03 -4.677897691726684570e-01
1.796853393316268921e-01 5.539488792419433594e-01 -5.419583916664123535e-01
5.262118577957153320e-01 1.996997147798538208e-01 -3.172659575939178467e-01
3.517584800720214844e-01 7.723329961299896240e-02 -5.403985977172851562e-01
7.802203297615051270e-02 4.233464002609252930e-01 -3.921059370040893555e-01
4.568324983119964600e-01 1.407375037670135498e-01 -5.513799190521240234e-01
8.399400115013122559e-02 2.263478934764862061e-01 -3.676090538501739502e-01
3.186372816562652588e-01 2.640193104743957520e-01 -3.121156096458435059e-01
4.352259635925292969e-01 3.180843293666839600e-01 -3.273521959781646729e-01
-5.143344402313232422e-03 3.227524459362030029e-01 -4.956135153770446777e-01
-9.953409433364868164e-03 4.083682000637054443e-01 -4.915600717067718506e-01
4.575991332530975342e-01 3.465087413787841797e-01 -3.398509025573730469e-01
5.102672576904296875e-01 3.701004087924957275e-01 -3.640321493148803711e-01
7.112246751785278320e-02 2.753187716007232666e-01 -3.723805844783782959e-01
4.046376943588256836e-01 -8.465272188186645508e-02 -4.400001168251037598e-01
1.825630366802215576e-01 3.105184733867645264e-01 -5.789578557014465332e-01
1.430571079254150391e-02 2.226999551057815552e-01 -4.584273099899291992e-01
1.152400672435760498e-01 3.579148650169372559e-01 -3.622857630252838135e-01
5.516133308410644531e-01 1.326008439064025879e-01 -3.156538307666778564e-01
1.395871788263320923e-01 1.165145635604858398e-01 -3.586336970329284668e-01
3.566538393497467041e-01 -6.236326694488525391e-02 -4.580379426479339600e-01
4.911442399024963379e-01 4.212427139282226562e-01 -5.328785777091979980e-01
5.434730052947998047e-01 1.075252890586853027e-01 -5.259130001068115234e-01
1.930097043514251709e-01 5.803228020668029785e-01 -4.643373191356658936e-01
6.548742055892944336e-01 6.623207032680511475e-02 -3.576585352420806885e-01
6.860872507095336914e-01 1.758761405944824219e-01 -4.263787269592285156e-01
4.831728339195251465e-01 3.261862099170684814e-01 -5.576972365379333496e-01
3.750675618648529053e-01 3.127552568912506104e-02 -5.225377082824707031e-01
1.521270722150802612e-01 5.489568710327148438e-01 -4.338018596172332764e-01
3.065983951091766357e-01 3.449969589710235596e-01 -5.860347151756286621e-01
1.757038235664367676e-01 2.403660416603088379e-01 -5.672307014465332031e-01
2.512286901473999023e-01 5.839643478393554688e-01 -4.996280670166015625e-01
3.813643157482147217e-01 2.875082492828369141e-01 -5.789691209793090820e-01
1.244847625494003296e-01 3.272543847560882568e-01 -3.542838096618652344e-01
-3.221213817596435547e-03 2.750872075557708740e-01 -4.531267285346984863e-01
2.848432362079620361e-01 3.006398975849151611e-01 -3.200587332248687744e-01
-7.391452789306640625e-03 2.981811165809631348e-01 -4.773102402687072754e-01
1.092129200696945190e-01 5.670859217643737793e-01 -4.921909272670745850e-01
4.730203747749328613e-01 1.772398650646209717e-01 -5.550625324249267578e-01
5.911627411842346191e-02 1.736753582954406738e-01 -3.987309932708740234e-01
2.658166885375976562e-01 4.413134455680847168e-01 -5.805921554565429688e-01
1.117742657661437988e-01 9.667736291885375977e-02 -4.808803498744964600e-01
3.078926503658294678e-01 4.094738960266113281e-01 -3.472618460655212402e-01
2.078188955783843994e-01 3.310106694698333740e-01 -5.834945440292358398e-01
5.914222598075866699e-01 -2.443656325340270996e-02 -3.450960814952850342e-01
5.688180327415466309e-01 2.473738491535186768e-01 -3.393421769142150879e-01
2.426856905221939087e-01 2.377448230981826782e-01 -3.174092173576354980e-01
5.623633265495300293e-01 -2.518549561500549316e-03 -4.826503694057464600e-01
