6.756767630577087402e-02 5.857429653406143188e-02 -3.169718086719512939e-01
-3.172600567340850830e-01 3.273859247565269470e-02 -3.387865722179412842e-01
-7.251577824354171753e-02 5.815430358052253723e-02 -3.689215779304504395e-01
1.841359734535217285e-01 5.256476625800132751e-02 -2.175477743148803711e-01
7.123041152954101562e-02 3.446333855390548706e-02 -4.649065732955932617e-01
-2.638486921787261963e-01 1.271926052868366241e-02 -3.659811317920684814e-01
-2.764981389045715332e-01 2.314516715705394745e-02 -4.545401930809020996e-01
-2.202854305505752563e-02 2.620156481862068176e-02 -9.174704551696777344e-02
-2.617683112621307373e-01 1.762377470731735229e-02 -2.520962357521057129e-01
-1.568075865507125854e-01 1.911818981170654297e-02 -4.744016230106353760e-01
9.351237863302230835e-02 4.596540331840515137e-02 -1.309060305356979370e-01
9.548968821763992310e-02 2.955138497054576874e-02 -4.466580748558044434e-01
1.361966282129287720e-01 5.361573025584220886e-02 -3.691039979457855225e-01
-1.922840476036071777e-01 4.341619089245796204e-02 -2.321447581052780151e-01
-4.205542802810668945e-02 1.048640534281730652e-02 -1.273084580898284912e-01
-2.588867247104644775e-01 4.445950686931610107e-02 -4.489189982414245605e-01
1.402190625667572021e-01 5.565430223941802979e-02 -2.483509778976440430e-01
-1.437988877296447754e-01 7.633587345480918884e-03 -3.848812580108642578e-01
-9.815003722906112671e-02 9.553322568535804749e-03 -4.091351330280303955e-01
-3.342763334512710571e-02 4.449413344264030457e-02 -4.927223920822143555e-01
2.923479974269866943e-01 2.426321804523468018e-02 -2.127156555652618408e-01
-9.553523361682891846e-02 2.179199270904064178e-02 -4.839630126953125000e-01
-2.681535854935646057e-02 5.897318571805953979e-02 -3.413646221160888672e-01
-9.820149838924407959e-02 4.962728172540664673e-02 -4.813144505023956299e-01
8.197680860757827759e-02 3.952518105506896973e-03 -2.480234056711196899e-01
1.571442335844039917e-01 5.421097949147224426e-02 -3.373023569583892822e-01
1.590900495648384094e-02 2.630041912198066711e-03 -2.061030268669128418e-01
2.989980578422546387e-01 2.631701342761516571e-02 -1.957329809665679932e-01
2.053690105676651001e-01 3.919914737343788147e-02 -3.792940378189086914e-01
1.610265970230102539e-01 8.229432627558708191e-03 -2.500745952129364014e-01
-1.032481566071510315e-01 6.833106279373168945e-03 -1.801768243312835693e-01
-8.686211705207824707e-02 5.173959955573081970e-02 -4.683333039283752441e-01
1.951295435428619385e-01 1.330573111772537231e-02 -1.244864761829376221e-01
1.526308655738830566e-01 3.739952296018600464e-02 -4.210623800754547119e-01
-1.852851808071136475e-01 6.356017664074897766e-03 -2.683021426200866699e-01
-2.174915671348571777e-01 8.332282304763793945e-03 -3.449054956436157227e-01
2.857825458049774170e-01 2.560855634510517120e-02 -2.525182664394378662e-01
1.389942765235900879e-01 5.633235722780227661e-02 -2.770507931709289551e-01
2.149995416402816772e-01 4.899007454514503479e-02 -1.884122192859649658e-01
7.086154818534851074e-02 4.428253322839736938e-02 -1.228511631488800049e-01
4.820333421230316162e-02 1.476397365331649780e-02 -8.979034423828125000e-02
-2.503717243671417236e-01 4.183861985802650452e-02 -2.809465825557708740e-01
-1.669054329395294189e-01 5.786703899502754211e-03 -2.510684430599212646e-01
4.403728991746902466e-03 5.696028843522071838e-02 -2.540371716022491455e-01
-2.208027690649032593e-01 4.160830378532409668e-02 -4.915438294410705566e-01
1.579918116331100464e-01 3.963989764451980591e-02 -1.008631587028503418e-01
-2.503669261932373047e-02 1.104462705552577972e-02 -4.095975160598754883e-01
-3.105748072266578674e-02 5.837073922157287598e-02 -3.812678754329681396e-01
1.204261258244514465e-01 1.146869733929634094e-02 -1.063439697027206421e-01
7.943074218928813934e-03 4.999297112226486206e-02 -1.722628474235534668e-01
-1.086732372641563416e-01 4.858819767832756042e-03 -2.077820003032684326e-01
1.381198316812515259e-01 4.781005531549453735e-02 -1.452847868204116821e-01
2.163807898759841919e-01 4.687074944376945496e-02 -1.649457663297653198e-01
-1.019877344369888306e-01 5.012057721614837646e-02 -2.195271104574203491e-01
-1.255367547273635864e-01 4.839612543582916260e-02 -2.192832827568054199e-01
-1.762964278459548950e-01 4.304666072130203247e-02 -2.169083803892135620e-01
1.364417076110839844e-01 3.236111998558044434e-02 -4.284214973449707031e-01
-1.160341724753379822e-01 4.648442566394805908e-02 -4.953622519969940186e-01
-2.716797590255737305e-01 3.984918072819709778e-02 -4.658032655715942383e-01
2.745428979396820068e-01 3.841472417116165161e-02 -2.963488698005676270e-01
-2.231514751911163330e-01 5.067376792430877686e-02 -3.783690929412841797e-01
2.226946949958801270e-01 1.501486264169216156e-02 -1.336906403303146362e-01
2.185163050889968872e-01 1.866818591952323914e-02 -1.051532328128814697e-01
-1.266850531101226807e-01 5.553471297025680542e-02 -3.141816854476928711e-01
-3.505258634686470032e-02 4.979510605335235596e-02 -4.745457172393798828e-01
-3.112241625785827637e-01 2.428947947919368744e-02 -4.202395081520080566e-01
-8.617060631513595581e-02 4.602871090173721313e-02 -1.797270178794860840e-01
-1.831148415803909302e-01 8.035467937588691711e-03 -3.755640983581542969e-01
1.647940576076507568e-01 1.395764388144016266e-02 -3.272773623466491699e-01
6.872001290321350098e-02 5.840365216135978699e-02 -2.938782870769500732e-01
-2.666290402412414551e-01 1.457759365439414978e-02 -2.814169824123382568e-01
-1.833021640777587891e-01 5.211043730378150940e-02 -4.338806271553039551e-01
-5.155135318636894226e-02 5.057849735021591187e-02 -1.977592706680297852e-01
-1.741695702075958252e-01 4.620996117591857910e-02 -2.373404502868652344e-01
6.559725105762481689e-02 8.995577692985534668e-03 -3.531875610351562500e-01
1.505352109670639038e-01 1.138461008667945862e-02 -3.147243857383728027e-01
-2.498892545700073242e-01 3.428687527775764465e-02 -2.397027015686035156e-01
1.387255191802978516e-01 5.492020398378372192e-02 -2.290351986885070801e-01
-1.540026366710662842e-01 4.522274434566497803e-02 -4.970136284828186035e-01
1.544879823923110962e-01 2.170485630631446838e-02 -7.534821331501007080e-02
-1.440688967704772949e-01 5.433422699570655823e-02 -4.272503256797790527e-01
9.820098988711833954e-03 1.324190199375152588e-02 -1.012078225612640381e-01
-1.629877388477325439e-01 4.072640091180801392e-02 -1.944727748632431030e-01
-7.265729457139968872e-02 5.212537944316864014e-02 -2.224673330783843994e-01
-1.130711138248443604e-01 4.018260166049003601e-03 -3.287538290023803711e-01
-1.343212127685546875e-01 3.890424966812133789e-03 -2.587074637413024902e-01
-1.648310273885726929e-01 5.033680051565170288e-02 -4.655419588088989258e-01
1.474186778068542480e-01 5.000360310077667236e-02 -1.657525300979614258e-01
3.422042354941368103e-03 5.592559650540351868e-02 -2.371862232685089111e-01
-1.935064345598220825e-01 1.538690831512212753e-02 -1.906704604625701904e-01
-5.296788364648818970e-02 5.729022622108459473e-02 -2.868244647979736328e-01
1.064650043845176697e-01 5.283097922801971436e-02 -4.000248312950134277e-01
1.336221676319837570e-02 6.110562011599540710e-03 -3.457593619823455811e-01
2.771178185939788818e-01 2.017623558640480042e-02 -1.998605132102966309e-01
8.946637809276580811e-02 5.184028297662734985e-03 -1.666209399700164795e-01
-8.411214500665664673e-02 2.416474744677543640e-03 -2.729717493057250977e-01
-6.530443578958511353e-02 2.522382885217666626e-03 -2.302851080894470215e-01
2.490616738796234131e-01 1.558883022516965866e-02 -1.859680116176605225e-01
2.064250260591506958e-01 4.836362600326538086e-02 -3.438323140144348145e-01
-2.628578841686248779e-01 4.608742892742156982e-02 -4.172138571739196777e-01
3.025570884346961975e-02 5.102537944912910461e-02 -4.502716064453125000e-01
-2.395279332995414734e-02 8.531956002116203308e-03 -3.867682814598083496e-01
-3.046234697103500366e-02 2.550590783357620239e-03 -2.927364706993103027e-01
1.144114062190055847e-01 5.490613728761672974e-02 -3.724504411220550537e-01
-9.230499714612960815e-02 3.267019987106323242e-03 -3.143948614597320557e-01
-2.887112796306610107e-01 1.879751309752464294e-02 -4.137591123580932617e-01
-2.150415331125259399e-01 1.426981389522552490e-02 -2.148894965648651123e-01
-2.906559407711029053e-01 4.081334918737411499e-02 -3.415964841842651367e-01
-1.561184525489807129e-01 4.606600850820541382e-03 -2.718959450721740723e-01
5.835844203829765320e-04 5.911923572421073914e-02 -3.309325575828552246e-01
-1.618230193853378296e-01 5.449488013982772827e-02 -3.416962921619415283e-01
5.345032550394535065e-03 1.999752409756183624e-02 -4.541624784469604492e-01
-7.126475125551223755e-02 5.781965702772140503e-02 -3.874607980251312256e-01
-5.859105288982391357e-02 6.804043427109718323e-03 -3.757526874542236328e-01
2.441438436508178711e-01 4.656821861863136292e-02 -3.021103143692016602e-01
-6.957073509693145752e-02 6.213758140802383423e-03 -1.686339378356933594e-01
-3.536790236830711365e-02 1.941330172121524811e-02 -4.633072018623352051e-01
-1.715604364871978760e-01 1.094245724380016327e-02 -4.160173237323760986e-01
-9.377589821815490723e-02 3.156913444399833679e-03 -2.321050316095352173e-01
-4.907935112714767456e-02 2.014815807342529297e-03 -2.538441419601440430e-01
-1.754897087812423706e-01 5.119456350803375244e-02 -2.909039855003356934e-01
-5.258316919207572937e-02 5.619955807924270630e-02 -2.648938894271850586e-01
-6.545746326446533203e-02 4.361443221569061279e-03 -1.890662908554077148e-01
-7.431358098983764648e-02 4.480391740798950195e-02 -1.665870398283004761e-01
2.001617550849914551e-01 1.564427837729454041e-02 -3.059546053409576416e-01
6.923185288906097412e-02 4.609702154994010925e-03 -1.693182587623596191e-01
9.454090148210525513e-02 2.300982177257537842e-02 -4.283564388751983643e-01
1.149502322077751160e-01 5.694182962179183960e-02 -2.667506933212280273e-01
1.480214595794677734e-01 8.291650563478469849e-03 -2.727311253547668457e-01
-9.809090197086334229e-02 4.275543242692947388e-02 -1.666354238986968994e-01
-5.688079819083213806e-02 1.887358911335468292e-02 -1.063913702964782715e-01
-1.376404911279678345e-01 4.991140216588973999e-02 -4.761317372322082520e-01
-2.557845227420330048e-02 4.866501316428184509e-03 -3.419725000858306885e-01
-2.102249413728713989e-01 7.748520001769065857e-03 -2.833389341831207275e-01
-1.373449563980102539e-01 5.006210878491401672e-03 -2.306181490421295166e-01
1.280668824911117554e-01 1.938683167099952698e-02 -3.926454186439514160e-01
-1.010463237762451172e-01 5.738534405827522278e-02 -3.457130193710327148e-01
-1.353134661912918091e-01 5.363505706191062927e-02 -4.425806999206542969e-01
1.580149382352828979e-01 7.249129936099052429e-03 -2.125157564878463745e-01
2.481684982776641846e-01 4.805489629507064819e-02 -2.318942397832870483e-01
1.950452327728271484e-01 5.303905531764030457e-02 -2.504263520240783691e-01
-1.023560669273138046e-02 1.020054332911968231e-02 -3.981226682662963867e-01
1.774178743362426758e-01 4.788412898778915405e-02 -1.549499034881591797e-01
-2.092174589633941650e-01 5.077830702066421509e-02 -4.274038970470428467e-01
-2.743290960788726807e-01 1.827738434076309204e-02 -4.261334538459777832e-01
5.504517257213592529e-02 1.109330542385578156e-02 -3.788772821426391602e-01
9.032019972801208496e-02 6.890708580613136292e-03 -3.097601532936096191e-01
-7.090198248624801636e-02 2.299601212143898010e-03 -2.480152845382690430e-01
-2.456893771886825562e-01 4.854968190193176270e-02 -3.860107064247131348e-01
-1.552286744117736816e-02 5.898283421993255615e-02 -3.240607380867004395e-01
-1.913481354713439941e-01 5.135036632418632507e-02 -3.141188323497772217e-01
-7.622190564870834351e-02 5.792029201984405518e-02 -3.291010260581970215e-01
1.926979273557662964e-01 4.801957309246063232e-02 -1.624685674905776978e-01
-4.678275063633918762e-02 2.302382141351699829e-03 -2.852725982666015625e-01
-1.336640566587448120e-01 5.611865222454071045e-02 -3.863216042518615723e-01
2.373207956552505493e-01 4.890049621462821960e-02 -2.814388275146484375e-01
-1.844329833984375000e-01 1.270063780248165131e-02 -4.289293289184570312e-01
-2.009526044130325317e-01 4.941412061452865601e-02 -4.549750089645385742e-01
-9.267123043537139893e-02 3.643097728490829468e-02 -1.375954747200012207e-01
6.288744509220123291e-02 4.718127101659774780e-02 -1.412440836429595947e-01
-3.005592525005340576e-02 5.016116797924041748e-02 -1.856136918067932129e-01
-1.904882490634918213e-01 4.618299007415771484e-02 -2.513460516929626465e-01
-3.037003278732299805e-01 1.941336877644062042e-02 -3.911181688308715820e-01
3.646879196166992188e-01 1.507517881691455841e-02 -5.085581541061401367e-01
1.448218077421188354e-01 -1.003884896636009216e-02 -5.521914362907409668e-01
-8.037196099758148193e-02 5.697021633386611938e-02 -5.889753699302673340e-01
1.164920628070831299e-01 -7.638115435838699341e-03 -6.263180375099182129e-01
7.369957864284515381e-03 6.252399086952209473e-02 -5.466480255126953125e-01
1.286586970090866089e-01 6.464925408363342285e-02 -5.249832272529602051e-01
1.765125542879104614e-01 5.007198452949523926e-02 -6.269080042839050293e-01
7.702922821044921875e-02 5.996745824813842773e-02 -3.813333213329315186e-01
2.333062142133712769e-01 -2.838835120201110840e-03 -3.917107284069061279e-01
-2.338290661573410034e-01 1.803694665431976318e-02 -7.567503452301025391e-01
2.497740983963012695e-01 -2.222549170255661011e-03 -5.469436645507812500e-01
-1.059843450784683228e-01 -8.340302854776382446e-03 -6.386282444000244141e-01
4.895658418536186218e-02 4.699747636914253235e-02 -6.959238648414611816e-01
9.678030014038085938e-02 -1.145651191473007202e-02 -5.632361173629760742e-01
2.657224237918853760e-02 -9.664773941040039062e-03 -6.551810503005981445e-01
1.265799105167388916e-01 -7.095519453287124634e-03 -4.390646517276763916e-01
-1.481752097606658936e-02 5.768565461039543152e-03 -4.134148359298706055e-01
1.343161165714263916e-01 -1.004781946539878845e-02 -4.929952621459960938e-01
-1.316862106323242188e-01 -1.103430986404418945e-03 -7.454489469528198242e-01
-4.820442199707031250e-02 4.231251776218414307e-02 -7.362899184226989746e-01
2.273191064596176147e-01 -5.747351795434951782e-03 -4.388997554779052734e-01
9.635792672634124756e-02 4.874856024980545044e-02 -3.139255642890930176e-01
-5.064062774181365967e-03 5.848236754536628723e-02 -4.421034753322601318e-01
1.907390952110290527e-01 4.122816026210784912e-04 -3.586515188217163086e-01
-1.284114122390747070e-01 4.974165558815002441e-02 -5.275682806968688965e-01
-2.117300778627395630e-02 -1.034168154001235962e-02 -6.555122137069702148e-01
2.067885398864746094e-01 4.904504865407943726e-03 -3.268975019454956055e-01
2.126212269067764282e-01 -7.396530359983444214e-03 -4.823329448699951172e-01
-1.679284125566482544e-01 1.526023447513580322e-02 -5.128884315490722656e-01
-1.685366183519363403e-01 -4.786886274814605713e-04 -5.985693335533142090e-01
4.377306103706359863e-01 4.760375618934631348e-02 -3.294827342033386230e-01
2.033138871192932129e-01 1.051715388894081116e-02 -2.996953129768371582e-01
6.321714073419570923e-02 3.957143425941467285e-02 -7.186622619628906250e-01
2.744172215461730957e-01 6.270356476306915283e-03 -3.163749575614929199e-01
5.101546645164489746e-02 -8.138213306665420532e-03 -6.623638868331909180e-01
-3.154478967189788818e-03 -1.413445919752120972e-03 -7.311534881591796875e-01
-1.040385961532592773e-01 -8.213527500629425049e-03 -6.648929715156555176e-01
1.524406373500823975e-01 6.365942209959030151e-02 -3.706404864788055420e-01
3.825206756591796875e-01 4.188907518982887268e-02 -4.872926175594329834e-01
2.606565356254577637e-01 6.322414427995681763e-02 -3.392181992530822754e-01
1.648044586181640625e-01 -6.729356944561004639e-03 -4.319916367530822754e-01
-2.181437760591506958e-01 2.326006069779396057e-02 -7.657034397125244141e-01
1.427757740020751953e-01 6.507537513971328735e-02 -3.976268768310546875e-01
-3.186811506748199463e-02 5.344631522893905640e-02 -6.693090200424194336e-01
2.073210179805755615e-01 -4.688106477260589600e-03 -5.724183917045593262e-01
4.071386456489562988e-01 2.784099429845809937e-02 -4.747141301631927490e-01
-2.036308795213699341e-01 5.885692313313484192e-03 -7.519441246986389160e-01
3.215203285217285156e-01 6.108845770359039307e-02 -4.169185757637023926e-01
1.438313722610473633e-01 -1.034488528966903687e-02 -5.199542641639709473e-01
-1.165615022182464600e-01 5.365092679858207703e-02 -5.689981579780578613e-01
3.817576169967651367e-02 -1.148714125156402588e-02 -5.417265295982360840e-01
-1.039893329143524170e-01 5.002073943614959717e-02 -4.910470545291900635e-01
3.712778091430664062e-01 5.800064280629158020e-02 -3.425090909004211426e-01
-1.256099492311477661e-01 4.443845152854919434e-02 -7.191263437271118164e-01
2.948678284883499146e-02 5.174201726913452148e-02 -3.673787713050842285e-01
3.415709733963012695e-01 3.240594640374183655e-03 -3.981447219848632812e-01
-2.341641634702682495e-01 2.339166402816772461e-02 -5.975835919380187988e-01
2.283854335546493530e-01 2.883971668779850006e-02 -6.502658128738403320e-01
6.085463240742683411e-02 -1.183820143342018127e-02 -5.854721069335937500e-01
6.340447813272476196e-02 6.365503370761871338e-02 -5.499810576438903809e-01
2.675332129001617432e-02 4.535615444183349609e-04 -4.156975448131561279e-01
-4.714740812778472900e-02 6.458554416894912720e-03 -7.704439163208007812e-01
3.985099792480468750e-01 5.368732288479804993e-02 -3.046315908432006836e-01
4.601104855537414551e-01 3.043565526604652405e-02 -3.421747386455535889e-01
4.177035093307495117e-01 4.976211488246917725e-02 -3.860939741134643555e-01
1.302861422300338745e-02 5.709737539291381836e-02 -4.113949239253997803e-01
1.520339846611022949e-01 5.827445164322853088e-02 -5.891245007514953613e-01
2.083558738231658936e-01 5.793539807200431824e-02 -5.603477954864501953e-01
4.098086804151535034e-02 4.209814220666885376e-02 -7.181051373481750488e-01
3.462086617946624756e-01 6.827594712376594543e-03 -3.396866619586944580e-01
-6.182999908924102783e-02 5.713571608066558838e-02 -5.045515298843383789e-01
3.720782995223999023e-01 5.054211989045143127e-02 -2.590333819389343262e-01
-1.604252010583877563e-01 1.699011027812957764e-02 -7.904968261718750000e-01
-3.883041441440582275e-02 3.753957524895668030e-02 -7.525718808174133301e-01
1.978276968002319336e-01 4.889160767197608948e-02 -6.199421286582946777e-01
-3.384718298912048340e-02 2.923721447587013245e-03 -7.573859691619873047e-01
-1.690105944871902466e-01 -3.310367465019226074e-03 -6.857264041900634766e-01
3.621730804443359375e-01 1.000580564141273499e-02 -3.205088376998901367e-01
2.735581696033477783e-01 6.132616102695465088e-02 -3.157324790954589844e-01
3.203887939453125000e-01 2.325098589062690735e-02 -5.751209855079650879e-01
-1.199476271867752075e-01 -7.026728242635726929e-03 -6.793438196182250977e-01
1.798171103000640869e-01 1.592578366398811340e-02 -2.864989638328552246e-01
3.788089752197265625e-01 5.371218174695968628e-02 -2.820616364479064941e-01
9.184446185827255249e-02 6.559318304061889648e-02 -4.972663819789886475e-01
2.709501981735229492e-01 -1.612752676010131836e-03 -5.223422646522521973e-01
-8.215185999870300293e-02 -9.553454816341400146e-03 -6.331918835639953613e-01
-8.416642248630523682e-02 5.680579692125320435e-02 -5.615447759628295898e-01
2.758514881134033203e-01 7.019340991973876953e-04 -3.644152879714965820e-01
3.229650110006332397e-02 6.349879503250122070e-02 -4.786905050277709961e-01
-6.324380636215209961e-02 9.630545973777770996e-04 -7.563294172286987305e-01
-2.182956784963607788e-02 5.853849649429321289e-02 -6.161176562309265137e-01
2.607438713312149048e-02 4.259368404746055603e-02 -3.432821631431579590e-01
2.445101290941238403e-01 1.089292764663696289e-02 -6.249318122863769531e-01
4.594840407371520996e-01 3.824374824762344360e-02 -3.206261098384857178e-01
1.650303006172180176e-01 6.566847860813140869e-02 -3.983195126056671143e-01
6.297603249549865723e-03 1.998005434870719910e-03 -4.186751246452331543e-01
3.765534162521362305e-01 1.424359902739524841e-02 -4.870184063911437988e-01
1.655919849872589111e-01 5.675363540649414062e-02 -3.099850416183471680e-01
1.693126261234283447e-01 6.377591192722320557e-02 -5.226845145225524902e-01
1.581772416830062866e-01 6.116507202386856079e-02 -5.600209236145019531e-01
8.236184716224670410e-03 5.525315180420875549e-03 -4.000904560089111328e-01
4.135544300079345703e-01 4.838988929986953735e-02 -2.747660279273986816e-01
-1.997987180948257446e-02 -7.767684757709503174e-03 -6.916837692260742188e-01
-1.174618899822235107e-01 -3.918975591659545898e-03 -7.269452810287475586e-01
3.697555065155029297e-01 9.687932208180427551e-03 -4.683593213558197021e-01
3.600882291793823242e-01 5.287626758217811584e-03 -4.007654190063476562e-01
-9.067894518375396729e-02 -2.342190593481063843e-03 -7.420598268508911133e-01
3.544195741415023804e-02 6.078997626900672913e-02 -4.247670769691467285e-01
-6.878031790256500244e-02 3.903748095035552979e-02 -7.509887814521789551e-01
-1.879394203424453735e-01 4.132637381553649902e-02 -5.680603384971618652e-01
2.123104482889175415e-01 4.712658002972602844e-02 -2.593115866184234619e-01
-1.277981102466583252e-01 4.890486598014831543e-04 -5.357899069786071777e-01
3.457909524440765381e-01 5.031831562519073486e-03 -4.671003818511962891e-01
-6.700779497623443604e-02 -6.503559648990631104e-03 -5.376550555229187012e-01
1.716348528861999512e-01 3.342806547880172729e-02 -6.809377670288085938e-01
5.827854201197624207e-02 5.948077142238616943e-02 -3.916199207305908203e-01
1.899205446243286133e-01 6.623386591672897339e-02 -4.535225629806518555e-01
3.306953907012939453e-01 5.157893151044845581e-02 -2.544257640838623047e-01
-1.414894610643386841e-01 -5.963418632745742798e-03 -6.619403362274169922e-01
3.283842802047729492e-01 1.551406458020210266e-03 -4.330913722515106201e-01
-1.347914040088653564e-01 1.329219341278076172e-02 -4.829391837120056152e-01
-1.684251278638839722e-01 4.748219251632690430e-02 -6.012864112854003906e-01
4.241185188293457031e-01 3.413675352931022644e-02 -2.544035911560058594e-01
8.176688104867935181e-02 -3.461649641394615173e-03 -6.827915310859680176e-01
9.486485272645950317e-02 -9.203772991895675659e-03 -4.748181700706481934e-01
-2.193454056978225708e-01 3.507740795612335205e-03 -6.840617060661315918e-01
-1.873182505369186401e-02 -1.149442791938781738e-02 -6.135537028312683105e-01
2.940162420272827148e-01 -1.700721681118011475e-03 -4.587487578392028809e-01
-4.143384099006652832e-02 -7.812403142452239990e-03 -6.944301128387451172e-01
1.269042938947677612e-01 -9.402297437191009521e-03 -4.752957224845886230e-01
2.215824127197265625e-01 5.910687893629074097e-02 -5.419574379920959473e-01
-2.197995632886886597e-01 6.332399323582649231e-03 -7.364187240600585938e-01
1.639420539140701294e-01 2.879345789551734924e-03 -3.470230102539062500e-01
1.719339191913604736e-01 6.346052139997482300e-02 -3.590897321701049805e-01
-3.823347389698028564e-03 3.727473691105842590e-02 -7.461397051811218262e-01
-8.997748792171478271e-02 -2.489285543560981750e-03 -5.200238823890686035e-01
1.393913626670837402e-01 -1.287631690502166748e-03 -3.809524774551391602e-01
-2.550923824310302734e-02 -3.548767417669296265e-04 -4.529080986976623535e-01
-7.203212380409240723e-02 4.893635213375091553e-02 -4.452874362468719482e-01
-5.818927288055419922e-02 7.562631741166114807e-03 -4.363465011119842529e-01
4.299252033233642578e-01 1.761368662118911743e-02 -3.621899485588073730e-01
-9.612806141376495361e-02 2.303347364068031311e-02 -4.289721846580505371e-01
6.195640191435813904e-02 6.352744996547698975e-02 -4.372253715991973877e-01
3.453978896141052246e-01 5.818919837474822998e-02 -4.260364174842834473e-01
1.311981081962585449e-01 3.640770912170410156e-03 -6.864452958106994629e-01
4.056108593940734863e-01 2.413893491029739380e-02 -2.643848657608032227e-01
-7.448382675647735596e-02 4.594072327017784119e-02 -7.190297842025756836e-01
2.975571751594543457e-01 3.905230388045310974e-02 -5.810234546661376953e-01
6.811025738716125488e-02 1.397635787725448608e-04 -3.968421518802642822e-01
-4.042969644069671631e-02 -2.300398424267768860e-03 -7.366925477981567383e-01
-1.829072684049606323e-01 3.622915595769882202e-03 -7.541375160217285156e-01
3.411629796028137207e-02 -1.025293022394180298e-02 -5.145695805549621582e-01
-2.261694520711898804e-01 2.920068986713886261e-02 -7.421283721923828125e-01
-1.120300590991973877e-02 6.004286929965019226e-02 -4.699264764785766602e-01
3.544209003448486328e-01 4.581752046942710876e-02 -5.053835511207580566e-01
2.294941991567611694e-02 6.337657570838928223e-02 -5.307280421257019043e-01
-1.066009402275085449e-01 5.470723658800125122e-02 -6.001566648483276367e-01
7.461816072463989258e-03 6.275790184736251831e-02 -5.122728943824768066e-01
8.711573481559753418e-02 -1.072211191058158875e-02 -6.017682552337646484e-01
-8.158066868782043457e-02 5.467782169580459595e-02 -5.028454065322875977e-01
-1.297896653413772583e-01 3.847535699605941772e-03 -5.165355205535888672e-01
1.614728718996047974e-01 8.858414366841316223e-03 -3.173559308052062988e-01
7.371059805154800415e-02 -6.867811083793640137e-03 -6.623520851135253906e-01
2.564174532890319824e-01 3.682922571897506714e-03 -3.329493105411529541e-01
-1.394474953413009644e-01 2.081756293773651123e-02 -7.916508913040161133e-01
1.434091627597808838e-01 6.330947577953338623e-02 -5.412688851356506348e-01
2.639521360397338867e-01 6.331607699394226074e-02 -4.561726152896881104e-01
-1.722234487533569336e-02 2.214822731912136078e-02 -3.695172965526580811e-01
2.365085929632186890e-01 6.523388624191284180e-02 -4.422366023063659668e-01
-2.031414359807968140e-01 9.140279144048690796e-04 -6.671800613403320312e-01
-1.091880947351455688e-01 5.302844196557998657e-02 -6.410945653915405273e-01
-5.670696496963500977e-03 1.119519211351871490e-02 -3.869608044624328613e-01
3.184224367141723633e-01 5.360498279333114624e-02 -5.016425251960754395e-01
3.219956755638122559e-01 1.224484294652938843e-02 -5.525333881378173828e-01
3.082948327064514160e-01 1.016426831483840942e-04 -4.717521369457244873e-01
1.966999769210815430e-01 6.117074191570281982e-02 -5.387710332870483398e-01
-1.774666458368301392e-02 4.470539093017578125e-02 -3.799217343330383301e-01
-1.786472648382186890e-01 3.642921894788742065e-02 -7.441334724426269531e-01
2.610470354557037354e-01 -3.626227378845214844e-03 -5.045331120491027832e-01
1.474178731441497803e-01 4.954854771494865417e-02 -2.902286648750305176e-01
1.123198494315147400e-01 -1.011954247951507568e-02 -4.904870092868804932e-01
1.863382458686828613e-01 -6.936937570571899414e-03 -4.391839802265167236e-01
1.581999361515045166e-01 2.375742420554161072e-03 -6.636390686035156250e-01
-6.427234411239624023e-02 -2.750640735030174255e-03 -4.991174042224884033e-01
-1.443186998367309570e-01 5.001390725374221802e-02 -6.436464786529541016e-01
2.361394464969635010e-03 6.176311150193214417e-02 -4.827166497707366943e-01
1.956936717033386230e-01 5.532847344875335693e-02 -2.911863923072814941e-01
-2.100263386964797974e-01 3.996711969375610352e-02 -6.769698858261108398e-01
-1.908401399850845337e-01 3.472277149558067322e-02 -5.402860641479492188e-01
2.077525854110717773e-01 2.440629526972770691e-02 -2.587839365005493164e-01
-9.574887156486511230e-02 5.500935018062591553e-02 -6.189540624618530273e-01
1.141356080770492554e-01 7.454335689544677734e-03 -7.078092098236083984e-01
9.564010053873062134e-02 2.947221696376800537e-02 -2.964495420455932617e-01
1.221833676099777222e-01 -4.291534423828125000e-03 -6.520828008651733398e-01
2.398437112569808960e-01 6.377126276493072510e-02 -3.465763032436370850e-01
3.563501834869384766e-01 5.497796833515167236e-02 -2.789155244827270508e-01
8.132069557905197144e-02 4.440583288669586182e-03 -3.671206235885620117e-01
2.909732609987258911e-02 8.460117504000663757e-03 -3.758551478385925293e-01
3.092437237501144409e-02 -1.109616458415985107e-02 -6.280546784400939941e-01
1.011857390403747559e-01 5.982356891036033630e-02 -3.635286688804626465e-01
7.179923355579376221e-02 6.276093423366546631e-02 -5.665656328201293945e-01
-2.307978272438049316e-02 6.063769012689590454e-02 -5.038466453552246094e-01
7.085964828729629517e-02 -8.890327066183090210e-03 -6.429774761199951172e-01
-7.233774662017822266e-02 5.617465823888778687e-02 -6.237850189208984375e-01
1.241056993603706360e-01 2.690908126533031464e-02 -7.152266502380371094e-01
1.049082875251770020e-01 6.558477878570556641e-02 -4.408756792545318604e-01
-4.371120035648345947e-02 5.606466159224510193e-02 -6.413450837135314941e-01
4.116895198822021484e-01 1.750788092613220215e-02 -4.384928047657012939e-01
2.016133815050125122e-02 4.181993752717971802e-02 -7.252261638641357422e-01
-2.037073522806167603e-01 3.271574154496192932e-02 -7.466607093811035156e-01
1.576820015907287598e-01 1.077176444232463837e-02 -6.887488365173339844e-01
8.236066997051239014e-02 6.138421595096588135e-02 -5.839470028877258301e-01
1.812567412853240967e-01 -2.570545300841331482e-03 -6.182166337966918945e-01
2.641283273696899414e-01 5.416244640946388245e-02 -5.466472506523132324e-01
1.398699730634689331e-01 -5.729094147682189941e-03 -6.272380352020263672e-01
-2.041537016630172729e-01 3.916842490434646606e-02 -5.884071588516235352e-01
2.112855017185211182e-01 3.487240523099899292e-03 -6.273161172866821289e-01
2.236989289522171021e-01 6.502996385097503662e-02 -3.701343238353729248e-01
2.656720280647277832e-01 6.462264806032180786e-02 -4.178270995616912842e-01
3.173384070396423340e-01 5.191303789615631104e-04 -4.486951231956481934e-01
-1.072990447282791138e-01 -4.065435379743576050e-03 -5.526843667030334473e-01
2.539097070693969727e-01 1.762675493955612183e-02 -2.650175094604492188e-01
-1.383179575204849243e-01 -5.703736096620559692e-04 -5.563076734542846680e-01
-1.727978140115737915e-02 3.142035752534866333e-02 -7.635608911514282227e-01
-1.002120226621627808e-02 -7.089078426361083984e-03 -4.978183805942535400e-01
2.908808290958404541e-01 6.305293738842010498e-02 -3.475275039672851562e-01
4.001080989837646484e-01 1.462600845843553543e-02 -3.162944912910461426e-01
-1.206213980913162231e-01 1.650644652545452118e-02 -7.926809787750244141e-01
1.799267828464508057e-01 5.457891523838043213e-02 -6.005206704139709473e-01
1.905174553394317627e-01 3.683699294924736023e-03 -3.366983234882354736e-01
3.284693360328674316e-01 2.502673119306564331e-02 -2.413765490055084229e-01
8.135341107845306396e-02 6.548837572336196899e-02 -4.811835885047912598e-01
-6.070956587791442871e-02 3.252489492297172546e-03 -4.579395353794097900e-01
1.210579499602317810e-01 -1.099125295877456665e-02 -5.313554406166076660e-01
3.945872187614440918e-01 5.330681055784225464e-02 -3.984262943267822266e-01
9.989951550960540771e-02 6.242034956812858582e-02 -5.671610236167907715e-01
2.900435775518417358e-02 -4.102472215890884399e-03 -4.461913406848907471e-01
-3.368096053600311279e-02 -5.468159914016723633e-03 -4.982867538928985596e-01
2.629330158233642578e-01 -4.000630229711532593e-03 -4.405379891395568848e-01
6.062492728233337402e-03 -1.072479784488677979e-02 -5.412495136260986328e-01
-9.212674200534820557e-02 5.018410459160804749e-02 -4.762781858444213867e-01
1.138242632150650024e-01 -4.757903516292572021e-04 -6.801475286483764648e-01
-1.705892235040664673e-01 6.150783970952033997e-03 -7.707940340042114258e-01
3.567619323730468750e-01 3.891871124505996704e-02 -5.251088738441467285e-01
3.350890278816223145e-01 4.311621189117431641e-02 -5.353962779045104980e-01
3.009170889854431152e-01 6.322649866342544556e-02 -3.696627020835876465e-01
3.279705047607421875e-01 1.325698010623455048e-02 -2.832607030868530273e-01
-1.043494492769241333e-01 -6.550882011651992798e-03 -5.811749696731567383e-01
7.249215990304946899e-02 3.114875219762325287e-02 -7.341060638427734375e-01
1.983914822340011597e-01 -6.735112518072128296e-03 -5.539832115173339844e-01
3.455536961555480957e-01 1.112879626452922821e-02 -3.015653491020202637e-01
5.627492815256118774e-02 4.193780943751335144e-03 -3.800576627254486084e-01
2.981519103050231934e-01 -1.385785639286041260e-03 -4.376587271690368652e-01
7.608234882354736328e-02 4.936680942773818970e-02 -6.758178472518920898e-01
-1.214364022016525269e-01 -7.411710917949676514e-03 -6.521196961402893066e-01
-1.882896274328231812e-01 -1.280238851904869080e-03 -6.799991130828857422e-01
-1.999854594469070435e-01 4.254075512290000916e-02 -6.523594856262207031e-01
2.119857072830200195e-01 1.596575602889060974e-02 -6.598514318466186523e-01
3.949015140533447266e-01 5.531595647335052490e-02 -3.395256400108337402e-01
4.378723502159118652e-01 4.619096964597702026e-02 -2.986064553260803223e-01
3.066752552986145020e-01 4.589420557022094727e-02 -5.520123243331909180e-01
1.556003093719482422e-02 5.326761305332183838e-02 -3.852716386318206787e-01
2.025681883096694946e-01 6.545752286911010742e-02 -3.816197514533996582e-01
-1.802528947591781616e-01 4.473299533128738403e-02 -5.859797000885009766e-01
-2.135595828294754028e-01 1.524752471596002579e-02 -5.734504461288452148e-01
1.056630164384841919e-02 -1.834597438573837280e-03 -4.396359324455261230e-01
1.186822205781936646e-01 6.509023904800415039e-02 -4.145908653736114502e-01
-2.099383920431137085e-01 2.179644629359245300e-02 -5.562508106231689453e-01
-5.734725296497344971e-02 5.539144203066825867e-02 -4.744935333728790283e-01
2.780716121196746826e-02 -6.091084331274032593e-03 -6.912439465522766113e-01
3.726683855056762695e-01 5.663000792264938354e-02 -3.978683650493621826e-01
1.203795820474624634e-01 4.856785014271736145e-02 -6.620191335678100586e-01
1.705887317657470703e-01 2.595166116952896118e-02 -2.681534886360168457e-01
-3.030109405517578125e-02 5.142174661159515381e-03 -4.265813231468200684e-01
1.282906681299209595e-01 6.238052248954772949e-02 -5.591300129890441895e-01
1.610427349805831909e-01 -4.287291318178176880e-03 -4.028725326061248779e-01
-8.764755725860595703e-02 -7.318902760744094849e-03 -5.714400410652160645e-01
1.212849467992782593e-02 -1.156740263104438782e-02 -5.611211657524108887e-01
1.749852597713470459e-01 -6.077755242586135864e-03 -5.917710065841674805e-01
-8.106845617294311523e-02 9.976200759410858154e-03 -4.452736377716064453e-01
9.894135594367980957e-02 3.221723437309265137e-02 -7.207813262939453125e-01
-1.518112868070602417e-01 3.580393269658088684e-02 -4.896130561828613281e-01
4.442729800939559937e-02 2.313572354614734650e-02 -7.539224028587341309e-01
4.111869931221008301e-01 1.402944512665271759e-02 -3.480267524719238281e-01
7.451656460762023926e-02 6.494465470314025879e-02 -5.170623660087585449e-01
-2.268013507127761841e-01 3.479174897074699402e-02 -6.159875988960266113e-01
5.688746646046638489e-02 -7.120199501514434814e-03 -4.607160985469818115e-01
-1.481571346521377563e-01 3.758008405566215515e-02 -7.504526972770690918e-01
-2.438494712114334106e-01 1.401202380657196045e-02 -6.390550732612609863e-01
7.228444516658782959e-02 5.246492102742195129e-03 -7.242111563682556152e-01
1.588362455368041992e-01 -2.317992970347404480e-03 -6.385487318038940430e-01
1.771101653575897217e-01 4.013811424374580383e-02 -6.630774736404418945e-01
2.159438282251358032e-01 -3.766361624002456665e-03 -3.990566134452819824e-01
-5.949521064758300781e-02 -8.743714541196823120e-03 -6.817193627357482910e-01
-1.947900801897048950e-01 2.080354839563369751e-03 -7.331077456474304199e-01
-9.230025112628936768e-02 -8.632156997919082642e-03 -6.076672673225402832e-01
-6.300799548625946045e-02 4.558045789599418640e-02 -4.219209253787994385e-01
9.101808071136474609e-03 5.895270034670829773e-02 -6.172404289245605469e-01
1.976550668478012085e-01 -2.388993278145790100e-03 -6.045764088630676270e-01
-2.056081444025039673e-01 5.179621279239654541e-03 -6.108177900314331055e-01
3.690536022186279297e-01 2.136206813156604767e-02 -2.581644952297210693e-01
6.352670490741729736e-02 5.602826550602912903e-02 -3.638339638710021973e-01
3.109146356582641602e-01 6.238518282771110535e-02 -3.507884144783020020e-01
2.679128646850585938e-01 5.805889144539833069e-02 -2.885006368160247803e-01
-1.186770498752593994e-01 4.127549007534980774e-03 -7.720509767532348633e-01
-6.160362064838409424e-02 -7.344834506511688232e-03 -7.003753185272216797e-01
4.308674111962318420e-02 5.550581216812133789e-02 -6.472766399383544922e-01
2.885298430919647217e-01 1.369509845972061157e-03 -5.300301313400268555e-01
1.902341097593307495e-01 -4.728168249130249023e-03 -4.072444140911102295e-01
2.086903154850006104e-01 -7.096562534570693970e-03 -5.276539921760559082e-01
4.228163361549377441e-01 1.620123162865638733e-02 -3.865790069103240967e-01
3.280915021896362305e-01 4.487698897719383240e-03 -4.972543120384216309e-01
-3.359365463256835938e-02 2.953045442700386047e-02 -3.751732110977172852e-01
2.229572236537933350e-01 1.480534486472606659e-02 -2.793776392936706543e-01
4.435022473335266113e-01 3.899966552853584290e-02 -3.977687060832977295e-01
1.396801471710205078e-01 6.640292704105377197e-02 -4.657334089279174805e-01
2.333878576755523682e-01 6.577739119529724121e-02 -4.088637232780456543e-01
-4.257021844387054443e-02 5.853175744414329529e-02 -6.047645211219787598e-01
1.951379626989364624e-01 6.636030972003936768e-02 -4.187768697738647461e-01
-1.910082250833511353e-01 -1.189783215522766113e-04 -6.428664922714233398e-01
3.440931439399719238e-01 5.167767405509948730e-02 -4.867014884948730469e-01
2.694644331932067871e-01 5.713264644145965576e-02 -5.214794278144836426e-01
2.546383738517761230e-01 4.936936497688293457e-02 -5.796290636062622070e-01
3.694515228271484375e-01 5.820499360561370850e-02 -3.617617487907409668e-01
3.850058913230895996e-01 9.226148948073387146e-03 -3.675931692123413086e-01
-1.660002917051315308e-01 1.676894724369049072e-03 -5.741943120956420898e-01
1.656302511692047119e-01 4.737078770995140076e-02 -2.768727540969848633e-01
-1.375340521335601807e-01 5.148091912269592285e-02 -6.172602176666259766e-01
3.466641902923583984e-02 2.514443360269069672e-02 -3.330459296703338623e-01
1.702319085597991943e-01 -9.097136557102203369e-03 -5.401427149772644043e-01
3.644747734069824219e-01 6.052279844880104065e-03 -4.247117638587951660e-01
-8.996725082397460938e-03 5.832066759467124939e-03 -7.585768699645996094e-01
3.883178234100341797e-01 1.152214035391807556e-02 -4.442880451679229736e-01
-2.552777528762817383e-02 -1.012371480464935303e-02 -5.543477535247802734e-01
-4.924580454826354980e-03 5.200289189815521240e-02 -6.795456409454345703e-01
3.122513890266418457e-01 5.315363407135009766e-03 -5.293866991996765137e-01
2.500472068786621094e-01 -2.957638353109359741e-03 -4.006130695343017578e-01
-1.348319500684738159e-01 -6.262309849262237549e-03 -6.357891559600830078e-01
-9.426999092102050781e-02 5.406270176172256470e-02 -5.172387957572937012e-01
1.514057070016860962e-02 5.556655675172805786e-02 -6.508350372314453125e-01
2.208151370286941528e-01 6.058289855718612671e-02 -3.150017261505126953e-01
2.119405567646026611e-01 3.898781165480613708e-02 -6.447385549545288086e-01
4.095233678817749023e-01 4.054096713662147522e-02 -4.550529420375823975e-01
-3.861761093139648438e-02 -2.298278734087944031e-03 -4.754828512668609619e-01
1.243420541286468506e-01 -2.560766413807868958e-03 -3.948153853416442871e-01
2.233913838863372803e-01 5.673934146761894226e-02 -2.893434762954711914e-01
1.393870562314987183e-01 5.389305949211120605e-02 -6.254505515098571777e-01
-1.106832176446914673e-02 6.048088893294334412e-02 -5.878100991249084473e-01
-3.481967747211456299e-02 5.563759803771972656e-02 -4.487289786338806152e-01
3.214133083820343018e-01 6.126010790467262268e-02 -3.333799839019775391e-01
-2.085284739732742310e-01 4.007354006171226501e-02 -6.126734018325805664e-01
1.438544988632202148e-01 2.924388274550437927e-03 -3.520882725715637207e-01
2.105091512203216553e-02 -7.310479879379272461e-03 -4.808077514171600342e-01
7.926281541585922241e-02 4.222038015723228455e-02 -3.098622858524322510e-01
-9.440273046493530273e-02 5.077956989407539368e-02 -6.796456575393676758e-01
-1.258170157670974731e-01 5.190335214138031006e-02 -5.525822043418884277e-01
1.820295155048370361e-01 1.303641591221094131e-02 -6.767245531082153320e-01
2.750656604766845703e-01 4.851976782083511353e-02 -2.474390268325805664e-01
-4.352284967899322510e-02 5.979822576045989990e-02 -5.347400307655334473e-01
-2.308289259672164917e-01 3.506755828857421875e-02 -6.880004405975341797e-01
2.764121890068054199e-01 -2.756815403699874878e-03 -4.874923229217529297e-01
9.072702378034591675e-02 5.102232471108436584e-02 -6.620118021965026855e-01
6.198218092322349548e-02 -5.557291209697723389e-03 -4.427219927310943604e-01
3.337658643722534180e-01 6.127607822418212891e-02 -3.659470975399017334e-01
3.109426498413085938e-01 6.089841574430465698e-02 -4.377333521842956543e-01
3.264137357473373413e-02 5.944406986236572266e-02 -6.121624708175659180e-01
-1.830772608518600464e-01 -1.318475231528282166e-03 -7.036285400390625000e-01
-1.090552210807800293e-01 3.062147460877895355e-02 -7.777899503707885742e-01
5.923615396022796631e-02 6.485828757286071777e-02 -4.924035668373107910e-01
2.279332727193832397e-01 5.497816205024719238e-02 -5.682099461555480957e-01
-3.897042572498321533e-02 4.579114913940429688e-02 -4.007064402103424072e-01
3.493149280548095703e-01 4.405636340379714966e-03 -4.439123570919036865e-01
3.448612689971923828e-01 6.005552411079406738e-02 -3.893347978591918945e-01
3.852559924125671387e-01 8.835850283503532410e-03 -3.956338763236999512e-01
-2.134947627782821655e-01 2.804823219776153564e-03 -7.050517201423645020e-01
2.382323741912841797e-01 -5.890395492315292358e-03 -4.678088128566741943e-01
-4.046358168125152588e-02 -7.476113736629486084e-03 -5.254892110824584961e-01
2.925583124160766602e-01 5.756747722625732422e-02 -2.841644287109375000e-01
-1.861848384141921997e-01 7.188966497778892517e-03 -5.659312009811401367e-01
-6.571055948734283447e-02 -9.915150701999664307e-03 -6.516537666320800781e-01
-1.884214580059051514e-02 6.138295307755470276e-02 -5.275257825851440430e-01
7.765658199787139893e-03 -8.581463247537612915e-03 -5.040687918663024902e-01
1.076176688075065613e-01 5.675929039716720581e-02 -3.395482301712036133e-01
-4.191398620605468750e-03 5.359563231468200684e-02 -4.038034677505493164e-01
4.287163019180297852e-01 1.917195692658424377e-02 -4.044874906539916992e-01
2.565412521362304688e-01 6.131096929311752319e-02 -4.927177429199218750e-01
3.623767495155334473e-01 5.747813731431961060e-02 -3.089459240436553955e-01
1.957903504371643066e-01 6.469400972127914429e-02 -4.919384717941284180e-01
-1.655958741903305054e-01 4.795964062213897705e-02 -6.332800388336181641e-01
-2.300048023462295532e-01 3.592377156019210815e-02 -6.494320034980773926e-01
1.898576617240905762e-01 6.437176465988159180e-02 -3.645090460777282715e-01
1.277869641780853271e-01 -5.124133080244064331e-03 -4.167775511741638184e-01
-4.272386431694030762e-02 -1.011550799012184143e-02 -5.723490118980407715e-01
5.840737372636795044e-02 -1.191962137818336487e-02 -5.560486316680908203e-01
-1.970370560884475708e-01 7.067384198307991028e-03 -5.827195644378662109e-01
-1.462371498346328735e-01 -5.338173359632492065e-03 -6.809087395668029785e-01
3.041278123855590820e-01 1.629872620105743408e-02 -5.824486613273620605e-01
2.083209753036499023e-01 6.334073841571807861e-02 -3.452796936035156250e-01
9.735032171010971069e-02 8.200256153941154480e-03 -7.187054753303527832e-01
-7.500371336936950684e-02 8.532535284757614136e-03 -7.801117897033691406e-01
3.997981548309326172e-01 3.078174218535423279e-02 -2.448622882366180420e-01
-1.427668482065200806e-01 4.830724000930786133e-02 -5.396918654441833496e-01
2.825736999511718750e-01 9.834509342908859253e-03 -2.955938577651977539e-01
7.649602741003036499e-02 2.045942097902297974e-02 -3.172076940536499023e-01
-5.821172893047332764e-02 -9.930249303579330444e-03 -5.880192518234252930e-01
2.526164948940277100e-01 7.472366094589233398e-03 -3.082752227783203125e-01
1.257433295249938965e-01 4.304496943950653076e-02 -6.812792420387268066e-01
3.630112856626510620e-02 -1.201042532920837402e-02 -5.892128944396972656e-01
4.180413484573364258e-01 4.395727068185806274e-02 -4.279392659664154053e-01
1.237906292080879211e-01 9.126180782914161682e-03 -3.289394378662109375e-01
-2.077386528253555298e-02 5.688913166522979736e-02 -6.373382806777954102e-01
-2.092718034982681274e-01 3.669988736510276794e-02 -7.171764373779296875e-01
-1.289506405591964722e-01 3.944732993841171265e-02 -4.716411232948303223e-01
1.247845590114593506e-01 5.385857820510864258e-02 -3.160881102085113525e-01
9.743616729974746704e-02 -5.860816687345504761e-03 -4.323032796382904053e-01
3.526856303215026855e-01 5.103023350238800049e-02 -2.554820179939270020e-01
2.906137108802795410e-01 3.091489896178245544e-03 -3.452072739601135254e-01
1.962488889694213867e-02 6.321773678064346313e-02 -4.973072409629821777e-01
4.009993076324462891e-01 4.710241407155990601e-02 -2.585037648677825928e-01
1.885817646980285645e-01 5.935592949390411377e-02 -3.161138594150543213e-01
2.905376553535461426e-01 6.281045079231262207e-02 -4.312874674797058105e-01
-2.568407356739044189e-02 1.566645503044128418e-02 -7.774969339370727539e-01
9.112786501646041870e-02 -2.490034326910972595e-03 -4.052439033985137939e-01
1.583877354860305786e-01 -5.600314587354660034e-03 -6.127901077270507812e-01
1.269147694110870361e-01 1.863041520118713379e-02 -2.981026172637939453e-01
3.147159814834594727e-01 5.872443318367004395e-03 -3.292233049869537354e-01
5.301551893353462219e-02 5.890223756432533264e-02 -6.160087585449218750e-01
5.802963674068450928e-02 6.433191150426864624e-02 -4.618894755840301514e-01
2.360073626041412354e-01 3.046397119760513306e-03 -6.028798818588256836e-01
5.026888102293014526e-02 -1.160478219389915466e-02 -6.040707826614379883e-01
1.040926575660705566e-01 3.986614942550659180e-02 -7.011306285858154297e-01
-1.580954939126968384e-01 2.517366781830787659e-03 -5.572407841682434082e-01
1.173661276698112488e-01 5.947162210941314697e-02 -5.936530828475952148e-01
8.288000524044036865e-02 6.513130664825439453e-02 -4.525392651557922363e-01
-3.288653492927551270e-02 6.034316867589950562e-02 -5.656383037567138672e-01
-1.602526754140853882e-01 -4.258695989847183228e-03 -6.535691022872924805e-01
7.073104381561279297e-03 1.568189635872840881e-02 -3.662418723106384277e-01
1.586487889289855957e-01 -8.886117488145828247e-03 -5.658029913902282715e-01
3.035615682601928711e-01 2.495503425598144531e-02 -2.415657937526702881e-01
2.843550443649291992e-01 1.566874235868453979e-02 -6.001828908920288086e-01
-1.856269985437393188e-01 4.020646214485168457e-02 -7.150981426239013672e-01
-1.109536439180374146e-01 4.048305004835128784e-02 -7.442457079887390137e-01
-1.069741994142532349e-01 -6.249245256185531616e-03 -7.045542001724243164e-01
6.495929509401321411e-02 -2.729995176196098328e-03 -4.178222119808197021e-01
1.502800881862640381e-01 6.532372534275054932e-02 -5.038048028945922852e-01
5.467604100704193115e-02 3.105727024376392365e-02 -3.174867630004882812e-01
1.069055050611495972e-01 -1.072883605957031250e-04 -3.826923966407775879e-01
1.563525795936584473e-01 4.891613125801086426e-02 -6.431173682212829590e-01
5.468061938881874084e-02 6.171810626983642578e-02 -5.827684998512268066e-01
-8.681885898113250732e-03 4.034883156418800354e-02 -3.639789223670959473e-01
-1.132192015647888184e-01 1.663735136389732361e-02 -4.541988074779510498e-01
3.628958463668823242e-01 1.351436134427785873e-02 -2.938906848430633545e-01
4.903125390410423279e-02 -9.340461343526840210e-03 -4.923359453678131104e-01
2.251140475273132324e-01 6.485014408826828003e-02 -4.653303027153015137e-01
3.478183746337890625e-01 3.211884573101997375e-02 -5.458359718322753906e-01
4.537492245435714722e-02 1.292732078582048416e-02 -3.516783714294433594e-01
-7.868124544620513916e-02 3.282178938388824463e-02 -7.709730863571166992e-01
4.474935531616210938e-01 4.411596059799194336e-02 -3.489174246788024902e-01
2.920671105384826660e-01 5.856706202030181885e-02 -4.882981777191162109e-01
2.283516675233840942e-01 -4.090558737516403198e-03 -5.531419515609741211e-01
-1.182593256235122681e-01 -6.553050130605697632e-03 -6.033614873886108398e-01
1.537554711103439331e-01 4.467245191335678101e-02 -6.616410017013549805e-01
-1.774245053529739380e-01 9.913995862007141113e-03 -5.415254235267639160e-01
