-2.225871831178665161e-01 9.115912765264511108e-02 7.031266689300537109e-01
-2.395928204059600830e-01 3.575793281197547913e-02 6.613636016845703125e-01
-2.948457002639770508e-01 8.769100904464721680e-02 7.258641123771667480e-01
-7.466921955347061157e-02 9.769445657730102539e-02 7.702183127403259277e-01
-8.652347326278686523e-02 9.810911864042282104e-02 7.666658163070678711e-01
-3.005800247192382812e-01 5.703066661953926086e-02 7.579460144042968750e-01
-1.820017546415328979e-01 8.215417712926864624e-02 6.604979038238525391e-01
-1.657211184501647949e-01 4.106599092483520508e-02 6.265737414360046387e-01
-2.510710954666137695e-01 4.870206862688064575e-02 6.092616319656372070e-01
-9.535819292068481445e-03 5.379087105393409729e-02 6.974803209304809570e-01
-2.184062898159027100e-01 7.083190232515335083e-02 8.140529990196228027e-01
-2.087582945823669434e-01 6.665772944688796997e-02 8.108924031257629395e-01
-1.350686252117156982e-01 9.945207834243774414e-02 7.844993472099304199e-01
-2.912236452102661133e-01 6.107011809945106506e-02 6.210587024688720703e-01
-1.219795197248458862e-01 3.810120373964309692e-02 6.959866285324096680e-01
-8.462160825729370117e-02 4.201591014862060547e-02 7.182943820953369141e-01
6.667956709861755371e-03 5.735544487833976746e-02 7.464053034782409668e-01
-2.758966386318206787e-02 6.915772706270217896e-02 8.134319782257080078e-01
-1.070321425795555115e-01 4.314278811216354370e-02 7.392606139183044434e-01
-2.901706695556640625e-01 8.366984128952026367e-02 6.868901848793029785e-01
-2.252597808837890625e-01 4.452306032180786133e-02 7.445253729820251465e-01
-2.370402067899703979e-01 7.552108913660049438e-02 6.418833732604980469e-01
-1.367932111024856567e-01 3.708479925990104675e-02 6.891157627105712891e-01
-2.720127105712890625e-01 9.128338098526000977e-02 7.519309520721435547e-01
-2.393757104873657227e-01 5.602687597274780273e-02 7.807099819183349609e-01
-1.993372291326522827e-01 4.061638191342353821e-02 7.292445302009582520e-01
-3.328124880790710449e-01 6.453571468591690063e-02 7.505771517753601074e-01
-2.986139059066772461e-01 7.535503804683685303e-02 7.820833921432495117e-01
-1.710157096385955811e-01 3.695207461714744568e-02 6.446312665939331055e-01
-1.566219776868820190e-01 9.291341155767440796e-02 8.237101435661315918e-01
-2.422605603933334351e-01 4.270026087760925293e-02 7.306548357009887695e-01
-2.414630949497222900e-01 9.056384861469268799e-02 7.962431907653808594e-01
-1.333442926406860352e-01 4.810183495283126831e-02 7.689191699028015137e-01
-3.292346596717834473e-01 4.668556898832321167e-02 6.395691633224487305e-01
-5.821172893047332764e-02 5.537477508187294006e-02 7.848806381225585938e-01
-2.143190354108810425e-01 7.583245635032653809e-02 6.414363384246826172e-01
-1.550007611513137817e-01 9.908034652471542358e-02 7.867903709411621094e-01
-3.390999138355255127e-02 9.475786983966827393e-02 7.896167635917663574e-01
-2.588168382644653320e-01 9.211316704750061035e-02 7.312652468681335449e-01
-3.161905705928802490e-01 8.268722146749496460e-02 7.524345517158508301e-01
-3.706140816211700439e-02 7.110661268234252930e-02 6.722931861877441406e-01
-2.551470696926116943e-02 7.385791093111038208e-02 6.838142275810241699e-01
8.350610733032226562e-03 6.140959262847900391e-02 7.696324586868286133e-01
-3.360892534255981445e-01 7.523728162050247192e-02 6.791145205497741699e-01
-6.038542836904525757e-02 6.368816643953323364e-02 8.103725910186767578e-01
-9.188029170036315918e-02 9.853582829236984253e-02 7.959652543067932129e-01
-1.494585573673248291e-01 3.640606254339218140e-02 6.840372681617736816e-01
-3.100980222225189209e-01 5.377808213233947754e-02 7.433080077171325684e-01
-3.357639610767364502e-01 7.656703144311904907e-02 7.454249262809753418e-01
-5.002158135175704956e-02 6.024395674467086792e-02 7.986655831336975098e-01
-1.864440739154815674e-02 5.202744156122207642e-02 6.910396814346313477e-01
-1.122555136680603027e-01 4.814704135060310364e-02 7.672005891799926758e-01
-8.688890188932418823e-02 5.430864915251731873e-02 7.877136468887329102e-01
-7.953794300556182861e-02 9.743720293045043945e-02 8.046048879623413086e-01
-1.170924901962280273e-01 9.105157107114791870e-02 7.035582661628723145e-01
-1.290197372436523438e-01 4.423602297902107239e-02 6.306252479553222656e-01
-2.088536471128463745e-01 3.527845814824104309e-02 6.576021909713745117e-01
-2.439871430397033691e-01 9.406167268753051758e-02 7.692033052444458008e-01
-1.415088474750518799e-01 7.446797192096710205e-02 8.317196369171142578e-01
-4.603665322065353394e-02 4.606274887919425964e-02 7.209200263023376465e-01
-1.398544609546661377e-01 3.959959745407104492e-02 7.216715216636657715e-01
-1.276010423898696899e-01 9.856478869915008545e-02 7.555626630783081055e-01
-2.796003222465515137e-01 5.045400932431221008e-02 6.125813722610473633e-01
-5.361259728670120239e-02 5.039878562092781067e-02 7.612171769142150879e-01
-1.761084496974945068e-01 3.686423227190971375e-02 7.010802626609802246e-01
-2.321992963552474976e-01 4.276548326015472412e-02 7.341025471687316895e-01
-2.635692358016967773e-01 7.936912029981613159e-02 6.580434441566467285e-01
-2.303599715232849121e-01 4.909251630306243896e-02 7.618054747581481934e-01
-1.713491380214691162e-01 9.599323570728302002e-02 8.090137839317321777e-01
-1.827320307493209839e-01 3.948683291673660278e-02 6.277553439140319824e-01
-2.274365723133087158e-02 8.950782567262649536e-02 8.161034584045410156e-01
-4.575591534376144409e-02 7.937702536582946777e-02 6.858255863189697266e-01
-3.281860947608947754e-01 8.102278411388397217e-02 7.376174330711364746e-01
-9.196434170007705688e-02 9.658375382423400879e-02 8.145633935928344727e-01
-7.376751303672790527e-02 4.489007219672203064e-02 7.371657490730285645e-01
-3.538516163825988770e-01 7.275789231061935425e-02 6.951733231544494629e-01
-2.465532273054122925e-01 7.814680784940719604e-02 6.507318019866943359e-01
-1.899761259555816650e-01 5.035772174596786499e-02 6.102219820022583008e-01
-2.636792361736297607e-01 8.082892000675201416e-02 8.007377386093139648e-01
-3.626326322555541992e-01 6.052041798830032349e-02 7.067029476165771484e-01
-1.618993133306503296e-01 4.873254895210266113e-02 7.713561058044433594e-01
-1.202150136232376099e-01 5.288613587617874146e-02 7.864306569099426270e-01
-3.161338269710540771e-01 5.740763992071151733e-02 6.250773072242736816e-01
-2.851248383522033691e-01 3.919177502393722534e-02 6.425967216491699219e-01
-1.565834432840347290e-01 3.931351751089096069e-02 7.219472527503967285e-01
-3.247674703598022461e-01 4.817382618784904480e-02 7.104082703590393066e-01
1.438809931278228760e-02 6.857699155807495117e-02 7.089860439300537109e-01
-1.907804906368255615e-01 9.807978570461273193e-02 7.665063738822937012e-01
-3.515997529029846191e-01 5.002289637923240662e-02 6.778675913810729980e-01
-5.254015326499938965e-02 9.376856684684753418e-02 7.447334527969360352e-01
-2.527432441711425781e-01 3.669077530503273010e-02 6.472286581993103027e-01
-2.331069260835647583e-01 3.787223994731903076e-02 7.016677260398864746e-01
-3.911837935447692871e-02 9.370817244052886963e-02 7.553873658180236816e-01
-2.321014106273651123e-01 4.903909564018249512e-02 6.082708239555358887e-01
-7.838788628578186035e-02 6.957548111677169800e-02 6.513327360153198242e-01
-1.286377012729644775e-02 8.606761693954467773e-02 8.172021508216857910e-01
-1.073741763830184937e-01 8.860322088003158569e-02 6.947943568229675293e-01
-3.727853298187255859e-02 6.286897510290145874e-02 8.021934032440185547e-01
-2.417813241481781006e-01 4.096848145127296448e-02 6.196759343147277832e-01
-2.274987101554870605e-02 9.216398000717163086e-02 7.594671249389648438e-01
-2.101354300975799561e-02 4.978115856647491455e-02 7.187569141387939453e-01
-1.009667366743087769e-01 5.604947730898857117e-02 6.311914324760437012e-01
-1.619516760110855103e-01 9.829156845808029175e-02 7.958371639251708984e-01
-3.139402568340301514e-01 7.972322404384613037e-02 6.817328929901123047e-01
-1.557913124561309814e-01 4.438784718513488770e-02 6.217216253280639648e-01
-2.606081068515777588e-01 3.674441203474998474e-02 6.552403569221496582e-01
7.869541645050048828e-03 5.980859324336051941e-02 7.052210569381713867e-01
-1.011997535824775696e-01 8.564290404319763184e-02 8.375359773635864258e-01
-5.462879687547683716e-02 4.650803655385971069e-02 7.363555431365966797e-01
-1.387551724910736084e-01 3.682346642017364502e-02 6.712875366210937500e-01
-1.961649954319000244e-02 8.973523229360580444e-02 7.436921596527099609e-01
-2.015591263771057129e-01 8.002280443906784058e-02 6.533128023147583008e-01
-2.182812839746475220e-01 9.533303231000900269e-02 7.361621856689453125e-01
-3.200531899929046631e-01 7.214021682739257812e-02 6.548364758491516113e-01
-3.268957138061523438e-01 7.795661687850952148e-02 6.837890744209289551e-01
-7.973623275756835938e-02 7.129415124654769897e-02 8.277554512023925781e-01
-1.598896980285644531e-01 3.656546771526336670e-02 6.940554976463317871e-01
-1.756910383701324463e-01 9.741292893886566162e-02 7.979846000671386719e-01
-8.528982102870941162e-02 9.461373835802078247e-02 7.331877350807189941e-01
-1.623623669147491455e-01 9.591233730316162109e-02 7.274092435836791992e-01
-3.398681879043579102e-01 7.724484056234359741e-02 7.347722053527832031e-01
-4.521150141954421997e-02 8.921620249748229980e-02 7.219482660293579102e-01
-2.503188550472259521e-01 3.967448323965072632e-02 7.091850638389587402e-01
-6.738609075546264648e-02 7.186605036258697510e-02 6.594631075859069824e-01
-2.031365782022476196e-01 9.449299424886703491e-02 8.026235103607177734e-01
-3.228919506072998047e-01 7.462574541568756104e-02 7.633500099182128906e-01
-1.624141931533813477e-01 9.903785586357116699e-02 7.679665088653564453e-01
-2.282307296991348267e-01 5.651103332638740540e-02 7.851244807243347168e-01
-2.020741999149322510e-01 9.711474180221557617e-02 7.514507174491882324e-01
-9.680639952421188354e-02 3.992621600627899170e-02 6.749834418296813965e-01
-2.951736450195312500e-01 7.643233239650726318e-02 6.575185656547546387e-01
-2.076418399810791016e-01 3.530656546354293823e-02 6.746758222579956055e-01
-1.935467123985290527e-03 6.969673931598663330e-02 6.937558650970458984e-01
-2.480480968952178955e-01 9.272502362728118896e-02 7.792389392852783203e-01
-4.774396866559982300e-02 9.456595778465270996e-02 8.099681735038757324e-01
-1.970585137605667114e-01 8.063147962093353271e-02 8.257865309715270996e-01
-4.292719811201095581e-02 5.225105211138725281e-02 7.653274536132812500e-01
-3.281413614749908447e-01 5.917438864707946777e-02 6.321470737457275391e-01
-1.656278967857360840e-02 7.341657578945159912e-02 6.886579394340515137e-01
-3.086178302764892578e-01 8.412703126668930054e-02 7.062969207763671875e-01
-2.303200811147689819e-01 6.434301286935806274e-02 8.014171123504638672e-01
-2.449899017810821533e-01 7.319710403680801392e-02 8.077557086944580078e-01
-1.503383368253707886e-01 3.776342049241065979e-02 7.068066000938415527e-01
-1.563792228698730469e-01 9.007465839385986328e-02 6.930990815162658691e-01
-1.892771273851394653e-01 7.964909821748733521e-02 6.523386836051940918e-01
-1.663432419300079346e-01 3.628293424844741821e-02 6.537439823150634766e-01
-1.081865578889846802e-01 9.403043985366821289e-02 7.218323945999145508e-01
-3.498803079128265381e-02 7.708338648080825806e-02 6.854685544967651367e-01
-1.587414592504501343e-01 6.801991164684295654e-02 8.217197060585021973e-01
-3.566454946994781494e-01 6.820320338010787964e-02 7.240998744964599609e-01
-2.078085094690322876e-01 9.287133812904357910e-02 7.108232378959655762e-01
-2.231913805007934570e-01 3.625113144516944885e-02 6.877146363258361816e-01
-3.156377077102661133e-01 4.237005859613418579e-02 6.766976714134216309e-01
-3.375458717346191406e-02 5.025574192404747009e-02 7.470960617065429688e-01
-2.000131309032440186e-01 3.697566688060760498e-02 7.014484405517578125e-01
-1.914778351783752441e-01 9.756633639335632324e-02 7.516874074935913086e-01
-2.325878143310546875e-01 8.484274148941040039e-02 8.122986555099487305e-01
-1.341715157032012939e-01 8.500822633504867554e-02 6.752833127975463867e-01
-6.241337954998016357e-02 4.423414170742034912e-02 6.770418286323547363e-01
-2.778295874595642090e-01 7.706007361412048340e-02 6.538254618644714355e-01
3.321625292301177979e-02 7.455756515264511108e-02 7.657312154769897461e-01
-1.934528499841690063e-01 3.520541265606880188e-02 6.708286404609680176e-01
-1.064528673887252808e-01 9.629728645086288452e-02 7.380443811416625977e-01
-9.652594476938247681e-02 3.966414928436279297e-02 6.890476942062377930e-01
-2.289893329143524170e-01 3.582326695322990417e-02 6.494207382202148438e-01
-2.013480067253112793e-01 9.754835069179534912e-02 7.685473561286926270e-01
-1.450726538896560669e-01 6.389840692281723022e-02 8.155518770217895508e-01
-4.590556025505065918e-03 7.994416356086730957e-02 7.133055925369262695e-01
-3.139257729053497314e-01 6.366409361362457275e-02 7.633997201919555664e-01
-2.063912451267242432e-01 9.622451663017272949e-02 7.888166904449462891e-01
-2.576412558555603027e-01 9.203086048364639282e-02 7.733806371688842773e-01
-2.126121819019317627e-01 9.034167975187301636e-02 6.962696909904479980e-01
-1.546718031167984009e-01 3.606297820806503296e-02 6.726277470588684082e-01
-3.695803880691528320e-02 5.775304883718490601e-02 7.860012054443359375e-01
-1.130770742893218994e-01 9.710641950368881226e-02 8.134006857872009277e-01
-2.611588239669799805e-01 8.909890055656433105e-02 7.872223854064941406e-01
-2.338013648986816406e-01 9.526462107896804810e-02 7.559866905212402344e-01
-9.908308088779449463e-02 9.905226528644561768e-02 7.813142538070678711e-01
-1.809719502925872803e-01 3.549289703369140625e-02 6.790382862091064453e-01
-1.289539784193038940e-01 8.706100285053253174e-02 6.838599443435668945e-01
-3.460826873779296875e-01 6.177838146686553955e-02 6.470888853073120117e-01
-2.742748260498046875e-01 6.951994448900222778e-02 7.924580574035644531e-01
2.308160066604614258e-03 8.721284568309783936e-02 8.013138771057128906e-01
-1.542602479457855225e-01 4.612673819065093994e-02 7.607847452163696289e-01
-2.328711152076721191e-01 7.951214164495468140e-02 6.533830165863037109e-01
-1.208460777997970581e-01 7.501848042011260986e-02 6.492921710014343262e-01
-2.599640786647796631e-01 4.389780014753341675e-02 7.302017211914062500e-01
-8.021337538957595825e-02 4.675986617803573608e-02 6.492787599563598633e-01
2.770745754241943359e-02 6.982983648777008057e-02 7.740882635116577148e-01
-3.051362335681915283e-01 4.065576195716857910e-02 6.701694726943969727e-01
1.484811305999755859e-03 7.720146328210830688e-02 8.111949563026428223e-01
-1.330762803554534912e-01 5.432485789060592651e-02 6.209735274314880371e-01
-2.254630625247955322e-01 9.278899431228637695e-02 7.153066396713256836e-01
-1.743727177381515503e-01 7.307213544845581055e-02 8.261525630950927734e-01
-2.852926254272460938e-01 6.202020868659019470e-02 7.765825986862182617e-01
-3.414503335952758789e-01 7.629361003637313843e-02 6.931879520416259766e-01
-7.158244401216506958e-02 5.268630385398864746e-02 6.450185775756835938e-01
-1.849933415651321411e-01 9.701989591121673584e-02 7.409028410911560059e-01
-2.881240844726562500e-02 5.260086059570312500e-02 7.581741809844970703e-01
-7.467770576477050781e-02 8.452613651752471924e-02 6.894013881683349609e-01
-3.183737397193908691e-01 8.356139808893203735e-02 7.384793162345886230e-01
-2.130387723445892334e-01 6.144940108060836792e-02 6.142427921295166016e-01
-5.887546390295028687e-02 9.345731884241104126e-02 8.204030394554138184e-01
-1.499312967061996460e-01 6.252496689558029175e-02 6.223159432411193848e-01
-1.107864677906036377e-01 3.874194622039794922e-02 6.723878979682922363e-01
-3.274366259574890137e-01 4.521134123206138611e-02 6.877871751785278320e-01
-2.816272974014282227e-01 8.643123507499694824e-02 6.984595060348510742e-01
-2.656815350055694580e-01 4.632192105054855347e-02 7.390616536140441895e-01
-2.890509366989135742e-02 5.113032460212707520e-02 6.806633472442626953e-01
-2.418498247861862183e-01 4.937286302447319031e-02 7.595190405845642090e-01
-3.196902573108673096e-01 6.423222273588180542e-02 6.353660225868225098e-01
-2.173956334590911865e-01 8.510828763246536255e-02 8.180207610130310059e-01
-1.910249739885330200e-01 9.467443078756332397e-02 7.205656170845031738e-01
-2.890474796295166016e-01 8.477821201086044312e-02 7.776168584823608398e-01
-3.039017915725708008e-01 6.712672859430313110e-02 6.349174976348876953e-01
-2.203076034784317017e-01 3.956235945224761963e-02 7.184500098228454590e-01
-2.077706307172775269e-01 3.837677836418151855e-02 7.125738263130187988e-01
-1.683857887983322144e-01 9.051392972469329834e-02 6.945335268974304199e-01
-2.205767333507537842e-01 4.983505979180335999e-02 7.669016718864440918e-01
-1.825192570686340332e-02 5.724380537867546082e-02 7.741503715515136719e-01
-3.217617273330688477e-01 5.284249782562255859e-02 7.322109937667846680e-01
1.201578974723815918e-02 8.048935979604721069e-02 7.315657734870910645e-01
-1.951740682125091553e-02 6.135280802845954895e-02 6.746752858161926270e-01
-1.012766659259796143e-01 9.898407012224197388e-02 7.914620041847229004e-01
-6.939811259508132935e-02 6.358034163713455200e-02 6.474287509918212891e-01
-6.187503039836883545e-02 8.993537724018096924e-02 7.167502045631408691e-01
-1.393433660268783569e-01 9.830950200557708740e-02 7.507820725440979004e-01
-3.571968376636505127e-01 5.227957665920257568e-02 6.662595868110656738e-01
-2.281816303730010986e-01 8.914783596992492676e-02 6.927448511123657227e-01
-2.476719319820404053e-01 9.238800406455993652e-02 7.236130833625793457e-01
-3.095157146453857422e-01 7.022825628519058228e-02 6.443350315093994141e-01
-1.831174343824386597e-01 5.734746903181076050e-02 7.965059876441955566e-01
-3.280059397220611572e-01 6.580734997987747192e-02 6.425281167030334473e-01
-2.830869257450103760e-01 8.078031241893768311e-02 6.695039868354797363e-01
-3.605538606643676758e-01 5.573812127113342285e-02 6.953341364860534668e-01
-3.440314531326293945e-01 7.675478607416152954e-02 7.251381278038024902e-01
-2.675796747207641602e-01 3.721962869167327881e-02 6.689200401306152344e-01
-2.289636433124542236e-01 5.201908200979232788e-02 7.720701694488525391e-01
-1.826548427343368530e-01 5.334494635462760925e-02 7.852750420570373535e-01
1.198910176753997803e-02 6.673935055732727051e-02 7.856290340423583984e-01
-2.795702219009399414e-01 4.178643226623535156e-02 7.084271311759948730e-01
-1.360882073640823364e-01 9.501184523105621338e-02 7.224959731101989746e-01
-1.033141314983367920e-01 9.784357249736785889e-02 7.537261247634887695e-01
-1.721556931734085083e-01 6.140517443418502808e-02 8.076733946800231934e-01
-2.729843556880950928e-01 8.053103089332580566e-02 6.649436950683593750e-01
-3.347839415073394775e-02 7.511442899703979492e-02 8.242028355598449707e-01
-2.324318587779998779e-01 3.572710976004600525e-02 6.731930971145629883e-01
-1.960284858942031860e-01 7.319359481334686279e-02 6.351003050804138184e-01
-9.633794426918029785e-02 5.627693980932235718e-02 7.955441474914550781e-01
-1.565736979246139526e-01 9.724821150302886963e-02 7.389206886291503906e-01
-1.882215440273284912e-01 3.797581046819686890e-02 7.117799520492553711e-01
-3.098292350769042969e-01 7.842784374952316284e-02 7.717213034629821777e-01
-1.863307952880859375e-01 4.144690930843353271e-02 7.356933951377868652e-01
-3.078983426094055176e-01 4.552672430872917175e-02 6.270398497581481934e-01
-2.654621005058288574e-01 4.874035716056823730e-02 6.108248233795166016e-01
-2.140431851148605347e-01 4.375471919775009155e-02 7.435026168823242188e-01
-2.912887334823608398e-01 6.653766334056854248e-02 6.299355030059814453e-01
-1.199658513069152832e-01 7.123338431119918823e-02 8.290928602218627930e-01
-2.707561254501342773e-01 3.930229321122169495e-02 6.326550245285034180e-01
-1.057489737868309021e-01 5.264283716678619385e-02 7.844013571739196777e-01
-1.124052256345748901e-01 3.905089944601058960e-02 7.035216689109802246e-01
-1.296375095844268799e-01 9.765073657035827637e-02 7.446042895317077637e-01
-2.566765546798706055e-01 9.307506680488586426e-02 7.564264535903930664e-01
-2.025875747203826904e-01 4.009750485420227051e-02 6.226431727409362793e-01
-1.753653436899185181e-01 8.883629739284515381e-02 8.268384933471679688e-01
-1.242057010531425476e-01 8.960977941751480103e-02 6.953863501548767090e-01
-1.688759773969650269e-01 3.931604698300361633e-02 7.226818799972534180e-01
-1.029803901910781860e-01 9.120012819766998291e-02 7.077744007110595703e-01
-1.951487064361572266e-01 8.487601578235626221e-02 6.699895262718200684e-01
-2.700461447238922119e-02 6.303019076585769653e-02 7.988536357879638672e-01
-1.333260685205459595e-01 3.794662654399871826e-02 7.023412585258483887e-01
-1.095210313796997070e-01 5.540972575545310974e-02 7.940505743026733398e-01
1.531736552715301514e-02 8.412204682826995850e-02 7.933821678161621094e-01
-1.140639036893844604e-01 4.123735427856445312e-02 7.276604175567626953e-01
-6.447036564350128174e-02 9.602674841880798340e-02 7.561659812927246094e-01
-3.383425474166870117e-01 7.170014083385467529e-02 6.660768389701843262e-01
-1.335997581481933594e-01 3.876455128192901611e-02 6.496787667274475098e-01
-1.049189120531082153e-01 4.511378705501556396e-02 7.507431507110595703e-01
-7.531839609146118164e-02 9.683931618928909302e-02 7.572370767593383789e-01
-1.344215571880340576e-01 8.968915790319442749e-02 6.939446926116943359e-01
-5.553151667118072510e-02 7.679258286952972412e-02 6.747132539749145508e-01
-1.552534401416778564e-01 7.007169723510742188e-02 6.325891017913818359e-01
-2.140836417675018311e-01 9.418508410453796387e-02 7.979518771171569824e-01
-6.785973906517028809e-02 9.308534115552902222e-02 7.311083078384399414e-01
-9.386222809553146362e-02 4.297897964715957642e-02 7.331093549728393555e-01
-2.544718682765960693e-01 3.825572878122329712e-02 6.331067085266113281e-01
-1.911653578281402588e-02 5.332269892096519470e-02 7.541230916976928711e-01
-2.472403049468994141e-01 9.003060311079025269e-02 7.040854096412658691e-01
-6.006520986557006836e-02 4.491994902491569519e-02 7.264887094497680664e-01
-8.102695643901824951e-02 9.829305112361907959e-02 7.914078235626220703e-01
-1.105288416147232056e-01 9.161741286516189575e-02 8.314198851585388184e-01
-1.253296583890914917e-01 6.321342289447784424e-02 6.284353733062744141e-01
-4.522425681352615356e-02 6.810189783573150635e-02 6.636184453964233398e-01
-2.766909599304199219e-01 3.772616386413574219e-02 6.615911126136779785e-01
2.351556718349456787e-02 7.385956496000289917e-02 7.886978387832641602e-01
-2.520824372768402100e-01 8.111108839511871338e-02 6.618364453315734863e-01
-2.347881346940994263e-01 9.052935242652893066e-02 7.026790380477905273e-01
-1.326268017292022705e-01 9.580437093973159790e-02 8.185657858848571777e-01
-7.360756397247314453e-03 7.695467025041580200e-02 7.028701901435852051e-01
-9.390173852443695068e-02 4.995467141270637512e-02 7.720814943313598633e-01
-4.738301783800125122e-02 8.500117063522338867e-02 7.029197216033935547e-01
-8.559425920248031616e-02 8.764577656984329224e-02 8.357189893722534180e-01
-1.095450669527053833e-01 4.428867250680923462e-02 6.390425562858581543e-01
-1.165450364351272583e-01 9.941089153289794922e-02 7.801315188407897949e-01
-2.814632654190063477e-01 4.868604615330696106e-02 7.415892481803894043e-01
-6.142131984233856201e-02 9.719192236661911011e-02 7.909503579139709473e-01
-1.948154270648956299e-01 3.825254738330841064e-02 6.307398080825805664e-01
-9.058108180761337280e-02 9.163010120391845703e-02 7.137112617492675781e-01
-2.786536216735839844e-01 3.976450860500335693e-02 6.934676766395568848e-01
-1.688978224992752075e-01 9.892170131206512451e-02 7.772293090820312500e-01
-2.638024687767028809e-01 3.864143043756484985e-02 6.935391426086425781e-01
1.902683079242706299e-02 6.366860866546630859e-02 7.653677463531494141e-01
-3.103953897953033447e-01 7.772602885961532593e-02 6.698626279830932617e-01
-2.963783740997314453e-01 6.099736317992210388e-02 7.690386176109313965e-01
-1.969367712736129761e-01 5.228162929415702820e-02 7.798048257827758789e-01
-3.310932517051696777e-01 7.505049556493759155e-02 7.545027732849121094e-01
3.245905041694641113e-03 8.755420148372650146e-02 7.576584815979003906e-01
-1.230780109763145447e-01 8.233598619699478149e-02 6.684507131576538086e-01
-2.276581227779388428e-01 8.397790789604187012e-02 6.687971353530883789e-01
-2.149208188056945801e-01 4.147918522357940674e-02 6.179253458976745605e-01
-2.528210878372192383e-01 7.445671409368515015e-02 6.408360600471496582e-01
-2.092600613832473755e-01 5.483511835336685181e-02 7.851099967956542969e-01
-1.435083597898483276e-01 9.905488789081573486e-02 7.925092577934265137e-01
-3.082629442214965820e-01 4.616773501038551331e-02 7.142923474311828613e-01
-9.984801709651947021e-02 9.445236623287200928e-02 8.244036436080932617e-01
-7.275847345590591431e-02 4.282234609127044678e-02 6.752308607101440430e-01
-2.254957854747772217e-01 9.550338238477706909e-02 7.449902296066284180e-01
-1.939123421907424927e-01 8.839754015207290649e-02 6.846705675125122070e-01
-1.880352944135665894e-01 3.536767512559890747e-02 6.595159769058227539e-01
-2.054630219936370850e-02 8.535701036453247070e-02 7.205060720443725586e-01
-1.958339959383010864e-01 3.548686206340789795e-02 6.810697317123413086e-01
-1.575385034084320068e-01 9.838196635246276855e-02 7.522257566452026367e-01
-2.329054921865463257e-01 9.016317129135131836e-02 8.027039766311645508e-01
-2.425315231084823608e-01 3.730286657810211182e-02 6.920787096023559570e-01
3.306081891059875488e-02 7.198172062635421753e-02 7.494629621505737305e-01
-2.118930220603942871e-02 9.322780370712280273e-02 7.836232185363769531e-01
-3.043692111968994141e-01 8.647897839546203613e-02 7.349764704704284668e-01
-1.989540904760360718e-01 9.661572426557540894e-02 7.414376735687255859e-01
-8.591637015342712402e-02 8.115981519222259521e-02 6.747441291809082031e-01
-1.758553236722946167e-01 3.570261597633361816e-02 6.579148769378662109e-01
-3.603389859199523926e-01 6.725110113620758057e-02 6.781623959541320801e-01
-7.368767261505126953e-02 4.500577598810195923e-02 6.598646044731140137e-01
-3.391616046428680420e-02 4.770056530833244324e-02 6.965809464454650879e-01
-3.128816485404968262e-01 8.480612933635711670e-02 7.261264324188232422e-01
-1.052912101149559021e-01 4.087906330823898315e-02 6.555244326591491699e-01
-2.673706114292144775e-01 8.956116437911987305e-02 7.120379209518432617e-01
-1.641859263181686401e-01 9.460682421922683716e-02 8.169867992401123047e-01
-4.963350296020507812e-02 4.897759854793548584e-02 7.507212162017822266e-01
-5.234742164611816406e-02 9.148642420768737793e-02 7.298705577850341797e-01
-1.355835199356079102e-01 8.205606043338775635e-02 6.651886105537414551e-01
-1.513363569974899292e-01 3.849710151553153992e-02 6.420333385467529297e-01
-2.572958469390869141e-01 8.381474763154983521e-02 6.739929914474487305e-01
4.834711551666259766e-03 8.841431140899658203e-02 7.727857232093811035e-01
-2.137899994850158691e-01 8.042302727699279785e-02 6.548964381217956543e-01
1.581352949142456055e-02 8.502916991710662842e-02 7.640296816825866699e-01
-3.539578616619110107e-02 5.718649178743362427e-02 6.641616821289062500e-01
-1.664812713861465454e-01 7.271601259708404541e-02 6.363644599914550781e-01
-1.465450823307037354e-01 9.062392264604568481e-02 8.299956321716308594e-01
-2.607109546661376953e-01 4.129312187433242798e-02 7.153823375701904297e-01
-2.241537868976593018e-01 3.821531683206558228e-02 7.074729800224304199e-01
-3.251197338104248047e-01 8.083806931972503662e-02 7.015448808670043945e-01
-3.398864865303039551e-01 4.841871187090873718e-02 6.931620240211486816e-01
-6.766706705093383789e-02 4.990611970424652100e-02 7.646795511245727539e-01
-1.480956822633743286e-01 4.223776608705520630e-02 6.285620331764221191e-01
-2.529508471488952637e-01 6.150191277265548706e-02 6.154426336288452148e-01
-9.774908423423767090e-03 8.889062702655792236e-02 7.486630678176879883e-01
-1.299331039190292358e-01 5.125918239355087280e-02 7.811110019683837891e-01
-1.987899243831634521e-01 4.290614649653434753e-02 7.420515418052673340e-01
-2.352668792009353638e-01 9.388770908117294312e-02 7.832867503166198730e-01
-1.527955532073974609e-01 9.930223971605300903e-02 7.732107043266296387e-01
-2.210959792137145996e-01 9.407581388950347900e-02 7.243667244911193848e-01
-4.231262952089309692e-02 6.958818435668945312e-02 8.186123967170715332e-01
-1.570164114236831665e-01 5.620058625936508179e-02 6.160482168197631836e-01
-2.356275320053100586e-01 6.435067951679229736e-02 6.182656288146972656e-01
-2.557424306869506836e-01 7.107181102037429810e-02 8.018763065338134766e-01
-2.599043846130371094e-01 6.083413958549499512e-02 7.850346565246582031e-01
-5.780003964900970459e-02 4.390891641378402710e-02 6.931787729263305664e-01
-2.113612294197082520e-01 9.490562230348587036e-02 7.280296087265014648e-01
-1.777082979679107666e-01 9.237404167652130127e-02 7.043392062187194824e-01
-1.441759616136550903e-01 7.540427893400192261e-02 6.455790400505065918e-01
-3.188694119453430176e-01 4.512551054358482361e-02 6.984372735023498535e-01
-1.187695041298866272e-01 5.898468941450119019e-02 8.047852516174316406e-01
-7.895521819591522217e-02 5.855142325162887573e-02 8.000438213348388672e-01
-5.966269969940185547e-02 4.807156324386596680e-02 7.510066032409667969e-01
-4.215876758098602295e-02 9.210219979286193848e-02 7.402591705322265625e-01
-8.840575069189071655e-02 9.867992252111434937e-02 7.806226015090942383e-01
-1.967151165008544922e-01 5.949880927801132202e-02 7.995300889015197754e-01
-9.605284780263900757e-02 6.172226741909980774e-02 8.105595111846923828e-01
-1.274764537811279297e-03 5.558680742979049683e-02 7.040823101997375488e-01
-6.531454622745513916e-02 9.659157693386077881e-02 8.051996827125549316e-01
-1.518789380788803101e-01 7.891759276390075684e-02 6.534218192100524902e-01
-1.038333848118782043e-01 4.150234907865524292e-02 7.256630063056945801e-01
-6.406798958778381348e-02 8.760218322277069092e-02 7.052983045578002930e-01
-2.647631466388702393e-01 3.764906898140907288e-02 6.812302470207214355e-01
-1.642939448356628418e-01 8.751734346151351929e-02 6.812608838081359863e-01
-2.191624194383621216e-01 3.529835492372512817e-02 6.678532958030700684e-01
-1.462160199880599976e-01 9.914848208427429199e-02 7.646310329437255859e-01
-3.043824136257171631e-01 8.538479357957839966e-02 7.555661797523498535e-01
-2.295984029769897461e-01 4.077051579952239990e-02 7.236971259117126465e-01
-1.017118468880653381e-01 7.660862058401107788e-02 6.578609943389892578e-01
-2.882605791091918945e-01 4.474161565303802490e-02 6.203371286392211914e-01
-1.368084549903869629e-01 9.801907837390899658e-02 8.055970668792724609e-01
-7.584115117788314819e-02 4.168201982975006104e-02 6.928688287734985352e-01
-5.933015793561935425e-02 7.317816466093063354e-02 8.276813030242919922e-01
-2.911686897277832031e-04 5.464392155408859253e-02 7.330984473228454590e-01
-3.410424292087554932e-02 8.734451234340667725e-02 8.255961537361145020e-01
-2.222281694412231445e-01 3.816042095422744751e-02 6.291732788085937500e-01
-1.331960260868072510e-01 4.495331645011901855e-02 7.544239163398742676e-01
-1.207409650087356567e-01 9.477490186691284180e-02 7.235445380210876465e-01
1.970472931861877441e-02 6.180293485522270203e-02 7.252863049507141113e-01
-3.477765023708343506e-01 7.049749046564102173e-02 6.712189316749572754e-01
-2.506315708160400391e-01 4.825883358716964722e-02 7.525717616081237793e-01
-2.496628463268280029e-01 4.467292129993438721e-02 7.378663420677185059e-01
-2.451421469449996948e-01 9.398178011178970337e-02 7.433977127075195312e-01
-3.104121685028076172e-01 4.116937890648841858e-02 6.592990159988403320e-01
-3.274242281913757324e-01 4.408100247383117676e-02 6.738117933273315430e-01
-2.166414856910705566e-01 9.105104207992553711e-02 8.085564374923706055e-01
-3.010857701301574707e-01 8.627071231603622437e-02 7.176468968391418457e-01
-2.513895034790039062e-01 5.199669301509857178e-02 7.652664184570312500e-01
-1.070166230201721191e-01 8.508659899234771729e-02 6.813166141510009766e-01
-5.376738309860229492e-02 4.454699903726577759e-02 7.100127935409545898e-01
-2.103099077939987183e-01 9.633800387382507324e-02 7.445569038391113281e-01
-9.173055738210678101e-02 4.788116365671157837e-02 7.620745897293090820e-01
-1.815475523471832275e-01 9.847930073738098145e-02 7.748755216598510742e-01
-1.886415779590606689e-01 6.501036137342453003e-02 6.202816367149353027e-01
-2.934902608394622803e-01 4.432295262813568115e-02 7.148970365524291992e-01
-2.978367805480957031e-01 4.292908310890197754e-02 7.031888961791992188e-01
2.253644764423370361e-01 7.941734790802001953e-02 -7.505915164947509766e-01
1.818068325519561768e-02 5.164926126599311829e-02 -7.496159076690673828e-01
8.541752398014068604e-02 5.217723175883293152e-02 -7.863762378692626953e-01
3.699275851249694824e-01 5.071836709976196289e-02 -4.710178375244140625e-01
-6.252616643905639648e-03 6.134697422385215759e-02 -8.170623779296875000e-01
2.737830877304077148e-01 4.048082232475280762e-02 -5.274959206581115723e-01
1.758487224578857422e-01 4.014154523611068726e-02 -5.653345584869384766e-01
2.040696144104003906e-01 6.889341771602630615e-02 -7.836382389068603516e-01
2.793589532375335693e-01 8.703880012035369873e-02 -6.229333877563476562e-01
2.066374868154525757e-01 8.291338384151458740e-02 -4.649773836135864258e-01
-1.834017038345336914e-02 5.908706039190292358e-02 -6.467719078063964844e-01
5.356970429420471191e-02 9.367498010396957397e-02 -7.605444788932800293e-01
1.079980880022048950e-01 9.589540958404541016e-02 -6.399888992309570312e-01
1.737067401409149170e-01 9.070342779159545898e-02 -7.326366901397705078e-01
3.844936937093734741e-02 5.894969031214714050e-02 -8.211063742637634277e-01
1.625553667545318604e-01 8.467840403318405151e-02 -7.813687324523925781e-01
3.868563175201416016e-01 5.753791332244873047e-02 -4.637144207954406738e-01
2.331186830997467041e-01 8.858881145715713501e-02 -5.105837583541870117e-01
2.069807350635528564e-01 9.090246260166168213e-02 -5.342223644256591797e-01
2.351785302162170410e-01 4.813198745250701904e-02 -7.037010192871093750e-01
2.076300829648971558e-01 3.929214179515838623e-02 -5.947449803352355957e-01
-7.201775908470153809e-03 5.363767594099044800e-02 -7.239125370979309082e-01
7.806656509637832642e-02 5.497429147362709045e-02 -5.233021974563598633e-01
-1.482075452804565430e-02 6.476838141679763794e-02 -8.277086019515991211e-01
1.341462731361389160e-01 9.610225260257720947e-02 -6.646696329116821289e-01
2.298431396484375000e-01 8.237047493457794189e-02 -7.345328927040100098e-01
1.532471776008605957e-01 9.543356299400329590e-02 -6.744955778121948242e-01
5.803688615560531616e-02 9.545523673295974731e-02 -6.833230853080749512e-01
3.037444949150085449e-01 7.898185402154922485e-02 -4.495974779129028320e-01
-3.373256325721740723e-02 8.630353212356567383e-02 -7.927730083465576172e-01
3.483002185821533203e-01 4.625259712338447571e-02 -4.957067072391510010e-01
-5.056798458099365234e-03 5.393109098076820374e-02 -6.728112101554870605e-01
2.153213471174240112e-01 3.986047953367233276e-02 -6.178439259529113770e-01
3.078933656215667725e-01 8.175934851169586182e-02 -6.296516060829162598e-01
1.803127527236938477e-01 8.662482351064682007e-02 -7.577514648437500000e-01
3.515888452529907227e-01 7.812779396772384644e-02 -5.288753509521484375e-01
2.093313932418823242e-01 4.287536442279815674e-02 -6.745604276657104492e-01
7.140409946441650391e-02 4.479832202196121216e-02 -6.742808818817138672e-01
-5.461177229881286621e-02 8.383359014987945557e-02 -7.461291551589965820e-01
7.732990384101867676e-02 6.778223067522048950e-02 -4.997932314872741699e-01
-2.215060591697692871e-02 8.796302229166030884e-02 -6.856455802917480469e-01
4.966771602630615234e-02 4.702695831656455994e-02 -7.043212652206420898e-01
1.397298127412796021e-01 4.710420221090316772e-02 -7.424563765525817871e-01
6.641113013029098511e-02 7.765519618988037109e-02 -5.216019153594970703e-01
7.770895212888717651e-02 6.997751444578170776e-02 -8.450370430946350098e-01
-2.327625453472137451e-02 5.654319003224372864e-02 -7.405428886413574219e-01
1.966152042150497437e-01 4.642312601208686829e-02 -4.703546166419982910e-01
8.140805363655090332e-02 4.849193617701530457e-02 -7.553933858871459961e-01
1.614188253879547119e-01 9.211788326501846313e-02 -5.510029196739196777e-01
3.192695379257202148e-01 5.109838768839836121e-02 -4.206388592720031738e-01
2.541656196117401123e-01 4.217256978154182434e-02 -4.859699010848999023e-01
2.269729077816009521e-01 4.064709693193435669e-02 -6.293858289718627930e-01
2.887346148490905762e-01 4.101669788360595703e-02 -5.495091676712036133e-01
4.806818813085556030e-02 5.122683197259902954e-02 -7.709363698959350586e-01
7.751798629760742188e-02 8.951111137866973877e-02 -7.988942265510559082e-01
2.900148034095764160e-01 5.542438477277755737e-02 -6.896220445632934570e-01
1.603827178478240967e-01 5.440054088830947876e-02 -4.557561576366424561e-01
3.199966549873352051e-01 4.310858994722366333e-02 -5.135639309883117676e-01
1.573730111122131348e-01 9.193268418312072754e-02 -7.344789505004882812e-01
2.225378155708312988e-01 5.782195925712585449e-02 -7.555312514305114746e-01
-3.540112078189849854e-02 6.914070248603820801e-02 -6.408157944679260254e-01
-1.043753325939178467e-02 5.481357872486114502e-02 -7.475119829177856445e-01
1.556323319673538208e-01 8.953078836202621460e-02 -5.253834724426269531e-01
8.059205114841461182e-02 4.586128517985343933e-02 -7.204888463020324707e-01
2.067909687757492065e-01 8.965084701776504517e-02 -7.087420821189880371e-01
1.365837007761001587e-01 5.823604762554168701e-02 -8.040071725845336914e-01
1.409865021705627441e-01 8.615656197071075439e-02 -5.065709352493286133e-01
4.562796652317047119e-02 4.795105755329132080e-02 -7.217521667480468750e-01
3.529987037181854248e-01 5.421433597803115845e-02 -6.001920104026794434e-01
1.517774760723114014e-01 4.030983895063400269e-02 -6.052398681640625000e-01
1.884153038263320923e-01 4.125239327549934387e-02 -6.605722308158874512e-01
3.689995110034942627e-01 6.190568581223487854e-02 -5.890753865242004395e-01
1.970544755458831787e-01 9.377800673246383667e-02 -6.529658436775207520e-01
3.071283400058746338e-01 4.517194628715515137e-02 -6.059471964836120605e-01
-1.600317656993865967e-02 5.526052042841911316e-02 -6.930692195892333984e-01
1.851360946893692017e-01 9.109785407781600952e-02 -7.173252701759338379e-01
1.386325210332870483e-01 8.181072026491165161e-02 -8.072386980056762695e-01
2.403803169727325439e-01 4.805944859981536865e-02 -4.408963322639465332e-01
1.586266756057739258e-01 5.593571066856384277e-02 -7.868006825447082520e-01
2.782995402812957764e-01 8.571209758520126343e-02 -4.986019134521484375e-01
9.579668194055557251e-02 9.318377822637557983e-02 -5.936924815177917480e-01
1.463634073734283447e-01 4.126729816198348999e-02 -6.616510152816772461e-01
2.902809977531433105e-01 4.796118289232254028e-02 -6.522548198699951172e-01
1.209190636873245239e-01 6.918160617351531982e-02 -8.304837942123413086e-01
2.513088285923004150e-01 9.020168334245681763e-02 -6.257753372192382812e-01
7.484019547700881958e-02 4.511076956987380981e-02 -6.205958127975463867e-01
3.213849067687988281e-01 4.445784538984298706e-02 -4.764754772186279297e-01
-3.312663733959197998e-02 7.236126065254211426e-02 -8.349307775497436523e-01
9.534818679094314575e-02 8.674406260251998901e-02 -5.370727777481079102e-01
-2.224576473236083984e-02 5.617866665124893188e-02 -7.058897614479064941e-01
2.246090173721313477e-01 5.220407992601394653e-02 -7.337066531181335449e-01
1.160925924777984619e-01 4.798211157321929932e-02 -7.532935738563537598e-01
7.841489464044570923e-02 5.885105580091476440e-02 -8.210264444351196289e-01
1.724304258823394775e-01 4.243265092372894287e-02 -6.839330196380615234e-01
1.851877272129058838e-01 3.949508816003799438e-02 -5.853487253189086914e-01
2.194871157407760620e-01 9.197803586721420288e-02 -6.566988229751586914e-01
2.942285537719726562e-01 5.235732346773147583e-02 -6.731306314468383789e-01
1.096782311797142029e-01 4.245122522115707397e-02 -6.652697920799255371e-01
1.187986135482788086e-01 9.547428786754608154e-02 -7.092025876045227051e-01
1.208047866821289062e-01 4.244054853916168213e-02 -6.781049966812133789e-01
3.473700881004333496e-01 4.755675047636032104e-02 -4.643611609935760498e-01
3.720240592956542969e-01 5.421600490808486938e-02 -5.586276054382324219e-01
1.696002036333084106e-01 4.541883617639541626e-02 -7.191302180290222168e-01
-4.065687954425811768e-02 5.999854952096939087e-02 -7.397369146347045898e-01
1.386203467845916748e-01 5.039263516664505005e-02 -4.877178072929382324e-01
-4.678905010223388672e-02 8.484292030334472656e-02 -7.817951440811157227e-01
2.227854877710342407e-01 4.605446755886077881e-02 -6.973727941513061523e-01
1.871760040521621704e-01 8.795817941427230835e-02 -7.431265115737915039e-01
2.066533267498016357e-02 9.319859743118286133e-02 -7.525935173034667969e-01
2.126259356737136841e-01 4.401782527565956116e-02 -4.804280996322631836e-01
1.985779702663421631e-01 4.075389727950096130e-02 -6.474896073341369629e-01
-5.061429738998413086e-02 6.274574995040893555e-02 -7.278802394866943359e-01
1.851116120815277100e-02 9.366710484027862549e-02 -7.253767251968383789e-01
2.294623851776123047e-01 9.235390275716781616e-02 -6.085833311080932617e-01
1.878439635038375854e-01 3.943348675966262817e-02 -6.004914641380310059e-01
3.044457733631134033e-01 4.614378884434700012e-02 -6.200034022331237793e-01
3.561795353889465332e-01 7.332574576139450073e-02 -5.883609056472778320e-01
3.354717195034027100e-01 4.768490418791770935e-02 -5.858381986618041992e-01
-4.764206707477569580e-02 8.277346938848495483e-02 -8.007442951202392578e-01
1.910933852195739746e-02 5.628473311662673950e-02 -7.995244860649108887e-01
3.871423602104187012e-01 6.661172956228256226e-02 -5.190759897232055664e-01
2.917469143867492676e-01 7.036960124969482422e-02 -4.085461497306823730e-01
1.524939388036727905e-01 9.577174484729766846e-02 -6.447233557701110840e-01
2.609872519969940186e-01 5.163930356502532959e-02 -7.024028897285461426e-01
3.093635737895965576e-01 7.687564194202423096e-02 -6.605120301246643066e-01
3.691204190254211426e-01 7.151713967323303223e-02 -4.642686843872070312e-01
2.341706454753875732e-01 4.278901219367980957e-02 -6.572257280349731445e-01
3.091254830360412598e-01 5.485454201698303223e-02 -6.662912964820861816e-01
3.369602560997009277e-01 8.061335235834121704e-02 -5.181444287300109863e-01
9.766367822885513306e-02 4.384214803576469421e-02 -6.936085820198059082e-01
2.544232904911041260e-01 7.802788913249969482e-02 -7.262374758720397949e-01
2.039188146591186523e-01 3.927335888147354126e-02 -5.774328112602233887e-01
1.324293017387390137e-01 4.265574365854263306e-02 -5.638216733932495117e-01
1.951070129871368408e-01 9.151494503021240234e-02 -7.011015415191650391e-01
1.097813472151756287e-01 4.226446524262428284e-02 -6.212988495826721191e-01
5.021168291568756104e-02 9.477862715721130371e-02 -6.693736910820007324e-01
3.799823522567749023e-01 6.770325452089309692e-02 -5.491598844528198242e-01
-3.139574825763702393e-02 8.743533492088317871e-02 -7.034425139427185059e-01
3.145033717155456543e-01 4.270050674676895142e-02 -5.392936468124389648e-01
5.199962109327316284e-02 4.854626953601837158e-02 -6.067569255828857422e-01
2.909684777259826660e-01 8.704958856105804443e-02 -5.588033199310302734e-01
9.445910900831222534e-02 6.183168292045593262e-02 -4.892211556434631348e-01
5.585844069719314575e-02 6.769786775112152100e-02 -5.197787880897521973e-01
2.169570326805114746e-01 7.025470584630966187e-02 -4.188589453697204590e-01
3.198525905609130859e-01 8.212876319885253906e-02 -4.987436532974243164e-01
2.881050109863281250e-01 5.998048931360244751e-02 -3.989653587341308594e-01
4.159215092658996582e-02 5.529248714447021484e-02 -8.013954758644104004e-01
3.141700625419616699e-01 7.959830015897750854e-02 -4.611573219299316406e-01
1.493055522441864014e-01 4.416992515325546265e-02 -5.243369936943054199e-01
9.658851474523544312e-02 4.761879891157150269e-02 -7.493080496788024902e-01
-2.597188949584960938e-02 6.341943144798278809e-02 -8.130493760108947754e-01
3.246836066246032715e-01 4.371847212314605713e-02 -5.003837347030639648e-01
1.812650561332702637e-01 4.738979414105415344e-02 -7.308236360549926758e-01
3.592155873775482178e-02 4.932276159524917603e-02 -7.350905537605285645e-01
1.962130963802337646e-01 4.679822921752929688e-02 -7.190370559692382812e-01
-2.019225060939788818e-02 8.273368328809738159e-02 -8.283095955848693848e-01
2.487131059169769287e-01 4.045903682708740234e-02 -5.161855220794677734e-01
3.015269637107849121e-01 7.353820651769638062e-02 -4.199771881103515625e-01
3.594923019409179688e-02 8.755125850439071655e-02 -5.941993594169616699e-01
-1.475596427917480469e-02 5.755667388439178467e-02 -7.802722454071044922e-01
3.862695693969726562e-01 5.523913353681564331e-02 -4.819723963737487793e-01
6.779164075851440430e-02 4.815007746219635010e-02 -7.463518381118774414e-01
1.978734284639358521e-01 8.479216694831848145e-02 -7.529197931289672852e-01
2.114047855138778687e-01 4.146082699298858643e-02 -6.538555026054382324e-01
3.819109201431274414e-01 5.352152884006500244e-02 -5.113499164581298828e-01
3.083181381225585938e-01 8.199477940797805786e-02 -4.801180064678192139e-01
1.717084944248199463e-01 9.521859884262084961e-02 -6.355695724487304688e-01
1.901788860559463501e-01 7.622469216585159302e-02 -4.418086409568786621e-01
1.457554847002029419e-01 8.312215656042098999e-02 -4.875766336917877197e-01
1.964141726493835449e-01 3.995064646005630493e-02 -6.285995244979858398e-01
8.050435036420822144e-02 8.246467262506484985e-02 -5.261356234550476074e-01
9.843909740447998047e-02 4.584521800279617310e-02 -7.289914488792419434e-01
5.282051861286163330e-02 4.670401662588119507e-02 -6.429217457771301270e-01
3.718331754207611084e-01 7.316208630800247192e-02 -5.032126307487487793e-01
1.919785439968109131e-01 4.326354712247848511e-02 -6.878688931465148926e-01
6.750252842903137207e-02 8.605518937110900879e-02 -8.211419582366943359e-01
2.399292290210723877e-01 3.944205865263938904e-02 -5.562739968299865723e-01
8.189146965742111206e-02 9.562164545059204102e-02 -6.520131230354309082e-01
2.715612947940826416e-02 9.312944114208221436e-02 -6.680913567543029785e-01
1.979857981204986572e-01 9.283231943845748901e-02 -6.761552095413208008e-01
2.280252724885940552e-01 4.143986478447914124e-02 -5.028720498085021973e-01
2.316662967205047607e-01 4.019381478428840637e-02 -5.248582363128662109e-01
-7.877141237258911133e-03 6.249850615859031677e-02 -6.081091165542602539e-01
1.645827442407608032e-01 4.818131029605865479e-02 -4.799907207489013672e-01
3.339462876319885254e-01 5.025565624237060547e-02 -4.301234483718872070e-01
4.634029418230056763e-02 9.082296490669250488e-02 -6.106066107749938965e-01
3.289416134357452393e-01 8.029213547706604004e-02 -4.864797592163085938e-01
1.579926609992980957e-01 9.320919215679168701e-02 -5.668928027153015137e-01
2.388226687908172607e-01 8.330526947975158691e-02 -4.641014933586120605e-01
2.984343171119689941e-01 6.733103096485137939e-02 -6.969190239906311035e-01
1.692286729812622070e-01 4.097267240285873413e-02 -5.511882901191711426e-01
2.437710762023925781e-01 5.278969928622245789e-02 -7.220063209533691406e-01
4.273589700460433960e-02 9.498696774244308472e-02 -7.030990123748779297e-01
2.604807019233703613e-01 5.792006105184555054e-02 -7.253702878952026367e-01
1.230716258287429810e-01 9.587349742650985718e-02 -6.933747529983520508e-01
2.031892836093902588e-01 8.829715102910995483e-02 -7.249925136566162109e-01
2.623231112957000732e-01 8.966483920812606812e-02 -5.614951848983764648e-01
1.042333245277404785e-01 4.459995776414871216e-02 -5.727291107177734375e-01
2.933201491832733154e-01 4.526343941688537598e-02 -4.529461860656738281e-01
1.236619353294372559e-01 7.970591634511947632e-02 -8.207244873046875000e-01
6.117396056652069092e-02 4.906091094017028809e-02 -5.840363502502441406e-01
4.735783487558364868e-02 6.150249391794204712e-02 -8.321672081947326660e-01
9.481004625558853149e-02 8.954732865095138550e-02 -5.572682023048400879e-01
4.702555388212203979e-02 9.374100714921951294e-02 -6.491657495498657227e-01
