-1.569599807262420654e-01 -3.228389918804168701e-01 3.801794052124023438e-01
-1.816070377826690674e-01 -3.658340871334075928e-01 3.735198676586151123e-01
-1.810252517461776733e-01 -3.051736652851104736e-01 3.676083683967590332e-01
-2.153586149215698242e-01 -4.173443913459777832e-01 3.488781452178955078e-01
-2.186567187309265137e-01 -3.096496760845184326e-01 3.252187073230743408e-01
-1.316340267658233643e-01 -1.677813529968261719e-01 3.849738538265228271e-01
-2.292670905590057373e-01 -4.453334510326385498e-01 3.366135060787200928e-01
-1.954245716333389282e-01 -4.027038812637329102e-01 3.543812334537506104e-01
-1.663117855787277222e-01 -2.044362425804138184e-01 3.673242628574371338e-01
-2.135291248559951782e-01 -3.471072912216186523e-01 3.421957790851593018e-01
-1.661921143531799316e-01 -1.669857352972030640e-01 3.511736989021301270e-01
-1.735624074935913086e-01 -3.285123407840728760e-01 3.764224052429199219e-01
-2.139498889446258545e-01 -3.157031238079071045e-01 3.370215594768524170e-01
-1.704046726226806641e-01 -3.337694704532623291e-01 3.793947100639343262e-01
-2.183160036802291870e-01 -3.595785498619079590e-01 3.388431072235107422e-01
-2.063786536455154419e-01 -2.787227332592010498e-01 3.393307030200958252e-01
-1.966768503189086914e-01 -3.384250104427337646e-01 3.439644277095794678e-01
-1.491201817989349365e-01 -1.666749417781829834e-01 3.766630589962005615e-01
-1.391402781009674072e-01 -1.826624572277069092e-01 3.780747056007385254e-01
-1.471530944108963013e-01 -1.379082798957824707e-01 3.737670481204986572e-01
-1.780849695205688477e-01 -1.672068387269973755e-01 3.494586050510406494e-01
-1.834261864423751831e-01 -3.163560032844543457e-01 3.668306767940521240e-01
-2.228543460369110107e-01 -4.347417354583740234e-01 3.430878221988677979e-01
-2.239782065153121948e-01 -4.020831584930419922e-01 3.382966816425323486e-01
-1.378274261951446533e-01 -1.198522150516510010e-01 3.732414841651916504e-01
-1.350912153720855713e-01 -1.197779327630996704e-01 3.797806501388549805e-01
-2.059873640537261963e-01 -2.639943659305572510e-01 3.371169865131378174e-01
-1.390783488750457764e-01 -2.228194177150726318e-01 3.909998536109924316e-01
-1.969788968563079834e-01 -2.430431246757507324e-01 3.336542546749114990e-01
-1.583698987960815430e-01 -3.432245552539825439e-01 3.878371119499206543e-01
-2.043980658054351807e-01 -4.676176607608795166e-01 3.607654273509979248e-01
-1.629182100296020508e-01 -2.468506395816802979e-01 3.625072836875915527e-01
-2.205567061901092529e-01 -4.120085239410400391e-01 3.344524800777435303e-01
-1.814467161893844604e-01 -2.003445029258728027e-01 3.522619605064392090e-01
-2.129271328449249268e-01 -3.696299791336059570e-01 3.346954286098480225e-01
-1.616803109645843506e-01 -3.098303377628326416e-01 3.726865649223327637e-01
-1.967768371105194092e-01 -4.188812971115112305e-01 3.656144738197326660e-01
-1.585043519735336304e-01 -2.082565128803253174e-01 3.619783520698547363e-01
-2.270553112030029297e-01 -4.327442049980163574e-01 3.382937312126159668e-01
-1.663029044866561890e-01 -1.386542022228240967e-01 3.559356033802032471e-01
-1.340662837028503418e-01 -1.772335171699523926e-01 3.831315338611602783e-01
-1.997390240430831909e-01 -4.140637516975402832e-01 3.627595901489257812e-01
-2.073286175727844238e-01 -2.983665466308593750e-01 3.415240049362182617e-01
-1.683727949857711792e-01 -3.515920042991638184e-01 3.726997375488281250e-01
-1.777000576257705688e-01 -2.601462006568908691e-01 3.507219254970550537e-01
-2.012092918157577515e-01 -2.644812464714050293e-01 3.425745069980621338e-01
-2.012731879949569702e-01 -3.995609879493713379e-01 3.601163625717163086e-01
-2.222453653812408447e-01 -4.129576385021209717e-01 3.414565026760101318e-01
-1.670286357402801514e-01 -3.398638665676116943e-01 3.824119567871093750e-01
-1.573564857244491577e-01 -2.349335849285125732e-01 3.662929832935333252e-01
-1.596057713031768799e-01 -2.408823519945144653e-01 3.648922443389892578e-01
-2.191998958587646484e-01 -3.933660686016082764e-01 3.423444926738739014e-01
-1.633427441120147705e-01 -2.752930819988250732e-01 3.658694028854370117e-01
-2.112239301204681396e-01 -4.680339097976684570e-01 3.521068692207336426e-01
-1.353231370449066162e-01 -2.114643156528472900e-01 3.866312503814697266e-01
-1.411900520324707031e-01 -1.031341254711151123e-01 3.698083758354187012e-01
-1.581282913684844971e-01 -2.820462286472320557e-01 3.720460534095764160e-01
-1.669721901416778564e-01 -3.556353449821472168e-01 3.835243880748748779e-01
-1.510996371507644653e-01 -2.321951836347579956e-01 3.836774528026580811e-01
-2.262210547924041748e-01 -4.572419524192810059e-01 3.377269208431243896e-01
-2.013829648494720459e-01 -3.980801701545715332e-01 3.482227325439453125e-01
-2.130124866962432861e-01 -3.032357394695281982e-01 3.277209997177124023e-01
-1.316534429788589478e-01 -1.897625774145126343e-01 3.914469778537750244e-01
-1.346757709980010986e-01 -1.865407079458236694e-01 3.836586177349090576e-01
-1.998747587203979492e-01 -2.347080111503601074e-01 3.385855555534362793e-01
-1.615011245012283325e-01 -1.920643150806427002e-01 3.697925209999084473e-01
-2.121191024780273438e-01 -3.074466884136199951e-01 3.377348482608795166e-01
-1.938249170780181885e-01 -3.652236759662628174e-01 3.500972986221313477e-01
-1.456346064805984497e-01 -2.402535378932952881e-01 3.885198533535003662e-01
-1.974062323570251465e-01 -3.440196514129638672e-01 3.575530350208282471e-01
-1.878292411565780640e-01 -4.396992325782775879e-01 3.708752691745758057e-01
-1.904995441436767578e-01 -3.549511432647705078e-01 3.516150116920471191e-01
-1.816684156656265259e-01 -3.677193522453308105e-01 3.618368208408355713e-01
-1.845195740461349487e-01 -1.945656239986419678e-01 3.479959368705749512e-01
-1.726537197828292847e-01 -2.469954192638397217e-01 3.676207959651947021e-01
-1.716322600841522217e-01 -3.214188814163208008e-01 3.644368052482604980e-01
-1.500623822212219238e-01 -1.377715319395065308e-01 3.627465367317199707e-01
-1.719494163990020752e-01 -1.621621251106262207e-01 3.549516201019287109e-01
-1.491497606039047241e-01 -2.707768082618713379e-01 3.798760771751403809e-01
-2.046518623828887939e-01 -3.365129530429840088e-01 3.371616303920745850e-01
-1.784978508949279785e-01 -2.375857383012771606e-01 3.609974086284637451e-01
-1.657431423664093018e-01 -3.751261532306671143e-01 3.811224400997161865e-01
-1.426024436950683594e-01 -1.917761564254760742e-01 3.755486905574798584e-01
-1.961130350828170776e-01 -3.179740309715270996e-01 3.555079400539398193e-01
-1.413429826498031616e-01 -2.314714044332504272e-01 3.824594318866729736e-01
-2.035562992095947266e-01 -3.836421370506286621e-01 3.442028760910034180e-01
-1.562625765800476074e-01 -1.199084967374801636e-01 3.565546572208404541e-01
-1.997476816177368164e-01 -4.586731493473052979e-01 3.646227419376373291e-01
-1.901024430990219116e-01 -1.937441527843475342e-01 3.355408906936645508e-01
-1.582197844982147217e-01 -2.943927645683288574e-01 3.848707377910614014e-01
-2.194877862930297852e-01 -3.019155859947204590e-01 3.262017667293548584e-01
-1.527595371007919312e-01 -2.235876619815826416e-01 3.813640177249908447e-01
-1.453030854463577271e-01 -2.167984247207641602e-01 3.759926855564117432e-01
-1.527542769908905029e-01 -2.929237484931945801e-01 3.795532584190368652e-01
-1.446412354707717896e-01 -1.203040629625320435e-01 3.726949989795684814e-01
-1.717825680971145630e-01 -1.988801658153533936e-01 3.492982983589172363e-01
-1.776659339666366577e-01 -1.900548338890075684e-01 3.542849719524383545e-01
-1.925778537988662720e-01 -2.735516726970672607e-01 3.527961969375610352e-01
-2.224518805742263794e-01 -3.372457921504974365e-01 3.303825259208679199e-01
-1.560935229063034058e-01 -2.286510765552520752e-01 3.793244063854217529e-01
-1.914773434400558472e-01 -3.578027486801147461e-01 3.644496798515319824e-01
-2.007417380809783936e-01 -2.241749912500381470e-01 3.349869847297668457e-01
-1.663546711206436157e-01 -2.131883054971694946e-01 3.554136455059051514e-01
-1.415873616933822632e-01 -2.699084281921386719e-01 3.927396833896636963e-01
-2.147308737039566040e-01 -2.906312644481658936e-01 3.260495066642761230e-01
-1.877697855234146118e-01 -2.091524004936218262e-01 3.377055823802947998e-01
-2.082859128713607788e-01 -3.075308799743652344e-01 3.312584161758422852e-01
-1.618952751159667969e-01 -2.024963498115539551e-01 3.582404553890228271e-01
-1.668894141912460327e-01 -1.699720323085784912e-01 3.613609075546264648e-01
-1.493697017431259155e-01 -1.859076023101806641e-01 3.680725097656250000e-01
-2.223390787839889526e-01 -4.010110497474670410e-01 3.316975533962249756e-01
-1.942931413650512695e-01 -3.912425041198730469e-01 3.653781414031982422e-01
-1.894503980875015259e-01 -2.409532219171524048e-01 3.509343564510345459e-01
-2.149403393268585205e-01 -4.320184588432312012e-01 3.418558239936828613e-01
-1.859109848737716675e-01 -2.173023819923400879e-01 3.506313264369964600e-01
-1.438530981540679932e-01 -2.049566805362701416e-01 3.858908414840698242e-01
-1.848917156457901001e-01 -2.977149486541748047e-01 3.489692509174346924e-01
-1.611463874578475952e-01 -2.303704172372817993e-01 3.621262907981872559e-01
-2.007111012935638428e-01 -4.250279068946838379e-01 3.628050684928894043e-01
-1.861253529787063599e-01 -2.680152058601379395e-01 3.444254994392395020e-01
-2.079190313816070557e-01 -3.300521969795227051e-01 3.455964624881744385e-01
-1.359802633523941040e-01 -2.291865944862365723e-01 3.929131031036376953e-01
-1.846683025360107422e-01 -2.690802514553070068e-01 3.596966266632080078e-01
-2.106721401214599609e-01 -3.596803545951843262e-01 3.352151215076446533e-01
-1.464083939790725708e-01 -2.483487725257873535e-01 3.887939155101776123e-01
-1.953686922788619995e-01 -3.023007512092590332e-01 3.541370034217834473e-01
-1.666507422924041748e-01 -3.817012906074523926e-01 3.832665383815765381e-01
-1.934219151735305786e-01 -4.279404878616333008e-01 3.608707189559936523e-01
-1.541153043508529663e-01 -2.508063316345214844e-01 3.834834098815917969e-01
-2.158145159482955933e-01 -3.763935267925262451e-01 3.333387374877929688e-01
-1.390272527933120728e-01 -1.915702521800994873e-01 3.876937627792358398e-01
-1.715064048767089844e-01 -2.348399013280868530e-01 3.669901490211486816e-01
-2.024995088577270508e-01 -2.727725803852081299e-01 3.425705730915069580e-01
-1.769127100706100464e-01 -3.107686936855316162e-01 3.717858195304870605e-01
-1.437534987926483154e-01 -1.427755802869796753e-01 3.690590858459472656e-01
-2.123062312602996826e-01 -4.098605513572692871e-01 3.406274914741516113e-01
-1.524391323328018188e-01 -1.156682372093200684e-01 3.647107183933258057e-01
-1.977899819612503052e-01 -3.262121081352233887e-01 3.414975106716156006e-01
-1.589030027389526367e-01 -2.682854235172271729e-01 3.692597746849060059e-01
-1.726786792278289795e-01 -3.803848922252655029e-01 3.810866475105285645e-01
-1.763503551483154297e-01 -1.648207306861877441e-01 3.432723879814147949e-01
-1.647145450115203857e-01 -2.407158613204956055e-01 3.736952245235443115e-01
-1.798016726970672607e-01 -1.550894081592559814e-01 3.440532088279724121e-01
-1.840033233165740967e-01 -1.981519162654876709e-01 3.396664261817932129e-01
-1.509396582841873169e-01 -2.390263974666595459e-01 3.845762610435485840e-01
-2.056967616081237793e-01 -3.528275191783905029e-01 3.383121788501739502e-01
-1.766762137413024902e-01 -3.713815808296203613e-01 3.674687445163726807e-01
-2.053915262222290039e-01 -3.456799983978271484e-01 3.501954078674316406e-01
-1.475594639778137207e-01 -1.017171889543533325e-01 3.645605146884918213e-01
-1.796851903200149536e-01 -2.654121518135070801e-01 3.637768030166625977e-01
-1.612046509981155396e-01 -1.752601861953735352e-01 3.674989044666290283e-01
-1.451114863157272339e-01 -1.154108792543411255e-01 3.658791780471801758e-01
-1.401535570621490479e-01 -2.141091227531433105e-01 3.812049329280853271e-01
-1.457121670246124268e-01 -2.251404523849487305e-01 3.868684768676757812e-01
-2.069683969020843506e-01 -3.146089315414428711e-01 3.443654775619506836e-01
-1.838451176881790161e-01 -3.992477655410766602e-01 3.651320338249206543e-01
-1.503699123859405518e-01 -1.487863510847091675e-01 3.728336095809936523e-01
-1.522764414548873901e-01 -1.324590146541595459e-01 3.683240115642547607e-01
-1.377089470624923706e-01 -2.448706775903701782e-01 3.930906653404235840e-01
-1.696850657463073730e-01 -2.549434602260589600e-01 3.712587952613830566e-01
-1.355310380458831787e-01 -1.623604744672775269e-01 3.795853853225708008e-01
-2.155793309211730957e-01 -2.831400632858276367e-01 3.281504213809967041e-01
-1.769296675920486450e-01 -1.975010484457015991e-01 3.449870347976684570e-01
-1.735679358243942261e-01 -3.710284829139709473e-01 3.799961507320404053e-01
-1.583970785140991211e-01 -2.554368376731872559e-01 3.806759119033813477e-01
-1.908695399761199951e-01 -3.864771127700805664e-01 3.678209185600280762e-01
-1.899581253528594971e-01 -2.008597105741500854e-01 3.358016908168792725e-01
-1.665644347667694092e-01 -1.782168745994567871e-01 3.630443215370178223e-01
-1.879033297300338745e-01 -2.235903590917587280e-01 3.496575355529785156e-01
-1.962634623050689697e-01 -4.489235281944274902e-01 3.672618269920349121e-01
-2.024626880884170532e-01 -3.256520330905914307e-01 3.504256606101989746e-01
-1.873206198215484619e-01 -3.300217688083648682e-01 3.510108590126037598e-01
-1.980860680341720581e-01 -3.733537495136260986e-01 3.474836647510528564e-01
-1.829621344804763794e-01 -4.172660112380981445e-01 3.698965013027191162e-01
-2.084857672452926636e-01 -4.249961078166961670e-01 3.462057411670684814e-01
-1.675401031970977783e-01 -3.152234554290771484e-01 3.798559904098510742e-01
-1.612775027751922607e-01 -3.234060406684875488e-01 3.851696848869323730e-01
-1.595695167779922485e-01 -2.373873591423034668e-01 3.775754272937774658e-01
-2.201972305774688721e-01 -4.707011282444000244e-01 3.478757143020629883e-01
-1.862250417470932007e-01 -3.096846044063568115e-01 3.493103086948394775e-01
-2.111161202192306519e-01 -3.581803441047668457e-01 3.461534380912780762e-01
-1.836967766284942627e-01 -2.384070158004760742e-01 3.433138728141784668e-01
-1.718485355377197266e-01 -2.453474551439285278e-01 3.541525304317474365e-01
-2.010963708162307739e-01 -3.761920034885406494e-01 3.578638136386871338e-01
-2.219296693801879883e-01 -3.180511891841888428e-01 3.267252743244171143e-01
-1.819289922714233398e-01 -4.248584806919097900e-01 3.736793696880340576e-01
-1.701940149068832397e-01 -2.966274023056030273e-01 3.757998943328857422e-01
-1.510419100522994995e-01 -2.802028656005859375e-01 3.793168962001800537e-01
-1.841965317726135254e-01 -2.923662960529327393e-01 3.632138967514038086e-01
-1.444030404090881348e-01 -2.438331246376037598e-01 3.808938562870025635e-01
-2.153415679931640625e-01 -4.310834407806396484e-01 3.502190709114074707e-01
-1.717060804367065430e-01 -1.845267564058303833e-01 3.592025339603424072e-01
-1.922741979360580444e-01 -2.189126014709472656e-01 3.441882729530334473e-01
-2.065369486808776855e-01 -3.239605426788330078e-01 3.342560827732086182e-01
-2.004462182521820068e-01 -3.696110844612121582e-01 3.577293157577514648e-01
-1.789102405309677124e-01 -3.543500006198883057e-01 3.746292591094970703e-01
-1.891910582780838013e-01 -2.860621809959411621e-01 3.439002037048339844e-01
-1.749429255723953247e-01 -1.420561522245407104e-01 3.462238311767578125e-01
-1.801739037036895752e-01 -2.175427675247192383e-01 3.563758432865142822e-01
-1.620075702667236328e-01 -3.297880291938781738e-01 3.757174015045166016e-01
-1.526067852973937988e-01 -3.272061944007873535e-01 3.872787654399871826e-01
-1.657290309667587280e-01 -2.132692933082580566e-01 3.691161870956420898e-01
-1.966532021760940552e-01 -2.778728604316711426e-01 3.369919955730438232e-01
-1.473697423934936523e-01 -1.092995256185531616e-01 3.679028451442718506e-01
-1.456658840179443359e-01 -1.730519235134124756e-01 3.803766071796417236e-01
-2.125404775142669678e-01 -2.916992008686065674e-01 3.344937562942504883e-01
-1.892706453800201416e-01 -3.197225630283355713e-01 3.620408773422241211e-01
-1.485356092453002930e-01 -3.052797317504882812e-01 3.874526917934417725e-01
-2.124859094619750977e-01 -4.505733251571655273e-01 3.543824255466461182e-01
-2.163436710834503174e-01 -4.420911371707916260e-01 3.423640131950378418e-01
-1.870442777872085571e-01 -3.847925066947937012e-01 3.594013154506683350e-01
-2.119682580232620239e-01 -2.719956040382385254e-01 3.266793191432952881e-01
-1.672453135251998901e-01 -2.364091724157333374e-01 3.572370409965515137e-01
-1.475386470556259155e-01 -1.696379184722900391e-01 3.680530488491058350e-01
-1.563234627246856689e-01 -3.293802738189697266e-01 3.823132216930389404e-01
-1.939583867788314819e-01 -2.339505702257156372e-01 3.451019525527954102e-01
-1.439013928174972534e-01 -2.547806799411773682e-01 3.832551836967468262e-01
-1.968614310026168823e-01 -3.577109575271606445e-01 3.596495687961578369e-01
-1.510101407766342163e-01 -1.962407827377319336e-01 3.676771521568298340e-01
-1.567741632461547852e-01 -1.284507662057876587e-01 3.564000427722930908e-01
-1.597561389207839966e-01 -2.573601007461547852e-01 3.669104278087615967e-01
-1.740596741437911987e-01 -1.831726431846618652e-01 3.461041450500488281e-01
-1.865825951099395752e-01 -3.034217953681945801e-01 3.624553680419921875e-01
-1.968541592359542847e-01 -2.100324928760528564e-01 3.324088454246520996e-01
-1.432817727327346802e-01 -2.227261066436767578e-01 3.789781630039215088e-01
-2.254907190799713135e-01 -3.421763479709625244e-01 3.265461027622222900e-01
-2.254074662923812866e-01 -4.217955470085144043e-01 3.323945403099060059e-01
-1.724417507648468018e-01 -2.123491764068603516e-01 3.500491082668304443e-01
-1.518023759126663208e-01 -2.633118629455566406e-01 3.865118622779846191e-01
-2.071036398410797119e-01 -4.556059837341308594e-01 3.530797362327575684e-01
-1.391890943050384521e-01 -2.153901159763336182e-01 3.902126252651214600e-01
-1.313707381486892700e-01 -1.501931101083755493e-01 3.870335221290588379e-01
-1.530902534723281860e-01 -2.412737756967544556e-01 3.713298439979553223e-01
-1.901912838220596313e-01 -3.906070888042449951e-01 3.573363721370697021e-01
-1.717969924211502075e-01 -2.829203009605407715e-01 3.588672578334808350e-01
-2.122646570205688477e-01 -3.229538500308990479e-01 3.400238454341888428e-01
-1.398244798183441162e-01 -2.426764070987701416e-01 3.861744999885559082e-01
-2.168759703636169434e-01 -4.011134207248687744e-01 3.456300497055053711e-01
-2.072471529245376587e-01 -4.359154701232910156e-01 3.491496443748474121e-01
-1.905599981546401978e-01 -2.471853643655776978e-01 3.387223482131958008e-01
-1.344702541828155518e-01 -1.437875926494598389e-01 3.843716681003570557e-01
-2.232468128204345703e-01 -3.490027189254760742e-01 3.314532935619354248e-01
-1.719593256711959839e-01 -3.299219310283660889e-01 3.654091358184814453e-01
-1.604718118906021118e-01 -3.032402098178863525e-01 3.840465843677520752e-01
-1.848811805248260498e-01 -1.721850931644439697e-01 3.383461833000183105e-01
-1.512129753828048706e-01 -1.872037947177886963e-01 3.778742849826812744e-01
-1.918178349733352661e-01 -2.897185385227203369e-01 3.558080196380615234e-01
-1.888639181852340698e-01 -4.220541119575500488e-01 3.719081878662109375e-01
-1.573079377412796021e-01 -1.265953034162521362e-01 3.624402582645416260e-01
-1.527969688177108765e-01 -1.979348957538604736e-01 3.780399262905120850e-01
-2.256424129009246826e-01 -4.200175404548645020e-01 3.385579288005828857e-01
-1.805745363235473633e-01 -2.828938066959381104e-01 3.509237170219421387e-01
-1.754201948642730713e-01 -3.362440168857574463e-01 3.629842996597290039e-01
-1.390629261732101440e-01 -1.102295964956283569e-01 3.716319799423217773e-01
-2.289842367172241211e-01 -3.709478974342346191e-01 3.266887664794921875e-01
-1.570175290107727051e-01 -1.101499050855636597e-01 3.566805124282836914e-01
-2.008390575647354126e-01 -2.529476284980773926e-01 3.317628204822540283e-01
-1.737027019262313843e-01 -3.770894408226013184e-01 3.716917634010314941e-01
-2.251773774623870850e-01 -4.484328627586364746e-01 3.417777121067047119e-01
-2.020265311002731323e-01 -3.438158631324768066e-01 3.401761949062347412e-01
-2.040088027715682983e-01 -2.594834268093109131e-01 3.301707804203033447e-01
-1.377774477005004883e-01 -1.335405707359313965e-01 3.804731070995330811e-01
-1.393318772315979004e-01 -1.741417050361633301e-01 3.768286108970642090e-01
-1.749937087297439575e-01 -3.366358280181884766e-01 3.760764002799987793e-01
-1.727143824100494385e-01 -2.632390856742858887e-01 3.555189371109008789e-01
-1.887709349393844604e-01 -1.971077024936676025e-01 3.437776863574981689e-01
-2.054972946643829346e-01 -3.633582890033721924e-01 3.522903621196746826e-01
-2.037253826856613159e-01 -2.668857276439666748e-01 3.308706581592559814e-01
-1.760000437498092651e-01 -2.535713911056518555e-01 3.514446616172790527e-01
-1.489715427160263062e-01 -2.034665346145629883e-01 3.818326592445373535e-01
-1.542958766222000122e-01 -1.485748291015625000e-01 3.598233461380004883e-01
-2.062488049268722534e-01 -3.728919029235839844e-01 3.404554426670074463e-01
-1.769691556692123413e-01 -3.427271842956542969e-01 3.624714612960815430e-01
-2.124992161989212036e-01 -3.799698054790496826e-01 3.475016951560974121e-01
-1.538360267877578735e-01 -2.613296806812286377e-01 3.733967840671539307e-01
-1.649594604969024658e-01 -2.318502217531204224e-01 3.723306357860565186e-01
-1.491584479808807373e-01 -2.174170017242431641e-01 3.834165930747985840e-01
-1.663406193256378174e-01 -3.037734925746917725e-01 3.796503543853759766e-01
-2.291193902492523193e-01 -4.109849929809570312e-01 3.288094401359558105e-01
-1.584890484809875488e-01 -2.920693457126617432e-01 3.732050955295562744e-01
-1.486304104328155518e-01 -2.622862756252288818e-01 3.790835738182067871e-01
-2.138042002916336060e-01 -4.554920196533203125e-01 3.469526171684265137e-01
-2.013815939426422119e-01 -4.199542105197906494e-01 3.517335951328277588e-01
-2.241628021001815796e-01 -3.662973642349243164e-01 3.331325054168701172e-01
-2.155902683734893799e-01 -3.270240426063537598e-01 3.281180858612060547e-01
-2.086371481418609619e-01 -2.489250451326370239e-01 3.290371000766754150e-01
-1.786514073610305786e-01 -3.165633976459503174e-01 3.570584654808044434e-01
-1.767093390226364136e-01 -2.986915111541748047e-01 3.705735802650451660e-01
-1.620447337627410889e-01 -1.989071667194366455e-01 3.703123331069946289e-01
-1.805135309696197510e-01 -3.073017299175262451e-01 3.540954887866973877e-01
-1.392468810081481934e-01 -1.481504291296005249e-01 3.817083239555358887e-01
-1.776644736528396606e-01 -3.451740443706512451e-01 3.747621178627014160e-01
-1.929561197757720947e-01 -2.582498490810394287e-01 3.501300811767578125e-01
-2.192676365375518799e-01 -3.507044911384582520e-01 3.364950716495513916e-01
-1.702987998723983765e-01 -3.047410547733306885e-01 3.632855117321014404e-01
-1.578842401504516602e-01 -2.506378889083862305e-01 3.678361177444458008e-01
-1.620771139860153198e-01 -1.330514997243881226e-01 3.524151742458343506e-01
-1.351676285266876221e-01 -1.112704575061798096e-01 3.775115013122558594e-01
-1.358480453491210938e-01 -1.272222697734832764e-01 3.807326257228851318e-01
-1.732921600341796875e-01 -4.009546637535095215e-01 3.781863152980804443e-01
-1.638986766338348389e-01 -3.421410620212554932e-01 3.758789300918579102e-01
-2.157366275787353516e-01 -4.615444242954254150e-01 3.520036339759826660e-01
-2.001624405384063721e-01 -3.138441741466522217e-01 3.510755896568298340e-01
-1.673291623592376709e-01 -1.885218918323516846e-01 3.639827072620391846e-01
-1.442796885967254639e-01 -1.562857478857040405e-01 3.790501952171325684e-01
-2.020896822214126587e-01 -3.543342947959899902e-01 3.544301092624664307e-01
-1.988443434238433838e-01 -2.549064755439758301e-01 3.434955775737762451e-01
-1.892277300357818604e-01 -3.352452218532562256e-01 3.639173805713653564e-01
-1.848172992467880249e-01 -2.884980440139770508e-01 3.479051291942596436e-01
-2.044188529253005981e-01 -2.744469344615936279e-01 3.309966325759887695e-01
-1.845695674419403076e-01 -3.536748290061950684e-01 3.699321746826171875e-01
-1.740291863679885864e-01 -2.127459198236465454e-01 3.614872097969055176e-01
-1.307746469974517822e-01 -1.619466096162796021e-01 3.888352215290069580e-01
-2.166548520326614380e-01 -3.777104318141937256e-01 3.430306315422058105e-01
-1.864003092050552368e-01 -4.038646221160888672e-01 3.727551698684692383e-01
-2.070422917604446411e-01 -4.004046320915222168e-01 3.436482846736907959e-01
-1.331868469715118408e-01 -2.174108922481536865e-01 3.913933932781219482e-01
-1.974528878927230835e-01 -3.357336819171905518e-01 3.565003871917724609e-01
-2.066778540611267090e-01 -3.734136223793029785e-01 3.523590862751007080e-01
-1.728622019290924072e-01 -3.936710357666015625e-01 3.811871111392974854e-01
-1.805461198091506958e-01 -3.280802965164184570e-01 3.569139242172241211e-01
-1.616878807544708252e-01 -2.851570248603820801e-01 3.813547790050506592e-01
-2.286840379238128662e-01 -4.399797916412353516e-01 3.331544399261474609e-01
-1.602175980806350708e-01 -1.927766948938369751e-01 3.587169349193572998e-01
-2.191786020994186401e-01 -3.288139402866363525e-01 3.330756723880767822e-01
-1.972558498382568359e-01 -3.645740449428558350e-01 3.600625693798065186e-01
-2.102800607681274414e-01 -4.388604164123535156e-01 3.555502593517303467e-01
-1.667344421148300171e-01 -2.676122188568115234e-01 3.753240406513214111e-01
-2.076167166233062744e-01 -2.709909975528717041e-01 3.365156054496765137e-01
-1.402872204780578613e-01 -1.507188826799392700e-01 3.732577860355377197e-01
-1.376831829547882080e-01 -2.050157487392425537e-01 3.827191293239593506e-01
-1.646433025598526001e-01 -3.495754599571228027e-01 3.846773505210876465e-01
-1.308798789978027344e-01 -1.562853753566741943e-01 3.845856785774230957e-01
-2.094352245330810547e-01 -4.599624872207641602e-01 3.574697673320770264e-01
-1.814659535884857178e-01 -3.354416489601135254e-01 3.706460297107696533e-01
-2.263187766075134277e-01 -3.492758572101593018e-01 3.248251974582672119e-01
-1.820976287126541138e-01 -2.822014689445495605e-01 3.638032078742980957e-01
-1.736675351858139038e-01 -2.600458860397338867e-01 3.684449791908264160e-01
-1.848799437284469604e-01 -3.383109569549560547e-01 3.543629050254821777e-01
-1.547515690326690674e-01 -1.405102163553237915e-01 3.675486743450164795e-01
-1.542354673147201538e-01 -1.586531549692153931e-01 3.607436120510101318e-01
-1.669465154409408569e-01 -2.571974396705627441e-01 3.600483238697052002e-01
-1.389539241790771484e-01 -2.215060889720916748e-01 3.837089240550994873e-01
-2.001082599163055420e-01 -2.409138381481170654e-01 3.395541012287139893e-01
-2.195354402065277100e-01 -4.252996742725372314e-01 3.371424674987792969e-01
-1.859185695648193359e-01 -3.766233921051025391e-01 3.591545820236206055e-01
-2.049728482961654663e-01 -3.914325833320617676e-01 3.441064059734344482e-01
-1.993616372346878052e-01 -2.474194616079330444e-01 3.416184186935424805e-01
-1.725531369447708130e-01 -3.488972187042236328e-01 3.678506612777709961e-01
-1.675301194190979004e-01 -3.679762184619903564e-01 3.768842816352844238e-01
-2.154918760061264038e-01 -2.981120944023132324e-01 3.320145606994628906e-01
-1.530061662197113037e-01 -2.026573717594146729e-01 3.665098845958709717e-01
-1.869801729917526245e-01 -3.219088017940521240e-01 3.502311408519744873e-01
-1.991741657257080078e-01 -2.164172530174255371e-01 3.350649774074554443e-01
-2.067264318466186523e-01 -3.215830326080322266e-01 3.456177711486816406e-01
-1.820281744003295898e-01 -1.857283115386962891e-01 3.489615917205810547e-01
-2.236656546592712402e-01 -3.900580704212188721e-01 3.371078670024871826e-01
-1.818527430295944214e-01 -2.474374771118164062e-01 3.592817187309265137e-01
-1.843362152576446533e-01 -2.273156791925430298e-01 3.417447805404663086e-01
-1.563298106193542480e-01 -1.775869429111480713e-01 3.606667518615722656e-01
-2.004636675119400024e-01 -3.007619976997375488e-01 3.489522337913513184e-01
-1.942487508058547974e-01 -3.107506334781646729e-01 3.563239276409149170e-01
-1.682506501674652100e-01 -2.269481420516967773e-01 3.552471697330474854e-01
-1.970141679048538208e-01 -2.905120849609375000e-01 3.508985340595245361e-01
-1.701178550720214844e-01 -1.533758491277694702e-01 3.550906777381896973e-01
-1.555951833724975586e-01 -1.381649225950241089e-01 3.579233586788177490e-01
-2.076839357614517212e-01 -3.383091092109680176e-01 3.469647467136383057e-01
-2.058310508728027344e-01 -3.860628008842468262e-01 3.545875251293182373e-01
-2.083502113819122314e-01 -3.321980535984039307e-01 3.337894976139068604e-01
-1.800257265567779541e-01 -4.138046801090240479e-01 3.773254156112670898e-01
-2.176874428987503052e-01 -4.045092165470123291e-01 3.355813026428222656e-01
-1.945654451847076416e-01 -3.273227214813232422e-01 3.581390082836151123e-01
-1.566579639911651611e-01 -1.677593588829040527e-01 3.594148755073547363e-01
-1.347165852785110474e-01 -1.734738349914550781e-01 3.882839381694793701e-01
-1.649966239929199219e-01 -1.595270335674285889e-01 3.515891730785369873e-01
-1.769037246704101562e-01 -2.828176021575927734e-01 3.684931397438049316e-01
-1.569976806640625000e-01 -2.088786959648132324e-01 3.760303556919097900e-01
-1.692021489143371582e-01 -3.112802803516387939e-01 3.653049468994140625e-01
-2.114266157150268555e-01 -2.806414663791656494e-01 3.337318599224090576e-01
-1.730580031871795654e-01 -2.007451802492141724e-01 3.605440557003021240e-01
-1.709973961114883423e-01 -2.194153666496276855e-01 3.520148694515228271e-01
-2.082334458827972412e-01 -2.999366521835327148e-01 3.305791020393371582e-01
-1.886575222015380859e-01 -3.805106878280639648e-01 3.691142499446868896e-01
-2.305289655923843384e-01 -4.301592707633972168e-01 3.308504223823547363e-01
-1.771639436483383179e-01 -4.033572673797607422e-01 3.734370172023773193e-01
-1.357238143682479858e-01 -1.419089734554290771e-01 3.772040605545043945e-01
-1.903953850269317627e-01 -3.690312802791595459e-01 3.665525317192077637e-01
-1.444558203220367432e-01 -2.887551784515380859e-01 3.897056281566619873e-01
-1.584586352109909058e-01 -1.669723987579345703e-01 3.686561286449432373e-01
-1.986440718173980713e-01 -2.298131436109542847e-01 3.317932188510894775e-01
-1.484493017196655273e-01 -2.720736265182495117e-01 3.895844519138336182e-01
4.602316319942474365e-01 -7.769038677215576172e-01 -3.919394612312316895e-01
2.906142473220825195e-01 -7.946598529815673828e-01 -4.176989197731018066e-01
3.559540808200836182e-01 -7.874149680137634277e-01 -3.827164173126220703e-01
5.816502869129180908e-02 -6.889733076095581055e-01 -3.914617896080017090e-01
2.087272852659225464e-01 -6.592413783073425293e-01 -4.044828414916992188e-01
4.315331578254699707e-01 -5.675876736640930176e-01 -3.744755983352661133e-01
4.130274355411529541e-01 -5.937572717666625977e-01 -3.936920166015625000e-01
3.335375785827636719e-01 -6.451623439788818359e-01 -4.062096774578094482e-01
3.193484842777252197e-01 -7.031084299087524414e-01 -4.146945178508758545e-01
3.437484204769134521e-01 -7.936871647834777832e-01 -3.838752210140228271e-01
8.656281232833862305e-02 -7.028382420539855957e-01 -3.746158480644226074e-01
1.089053601026535034e-01 -8.214096426963806152e-01 -3.913705646991729736e-01
5.677901506423950195e-01 -6.669885516166687012e-01 -3.790746331214904785e-01
1.280333548784255981e-01 -7.535306811332702637e-01 -3.748420178890228271e-01
3.690741360187530518e-01 -7.651994824409484863e-01 -3.774936795234680176e-01
1.369880586862564087e-01 -7.162837982177734375e-01 -3.705650866031646729e-01
4.347972571849822998e-01 -7.374613285064697266e-01 -4.135019183158874512e-01
3.099248409271240234e-01 -6.410459876060485840e-01 -4.049150645732879639e-01
3.224272131919860840e-01 -7.339313030242919922e-01 -3.696517050266265869e-01
1.787189543247222900e-01 -6.131168007850646973e-01 -3.801495134830474854e-01
3.215125799179077148e-01 -8.139176368713378906e-01 -3.898858428001403809e-01
2.480914592742919922e-01 -6.071723103523254395e-01 -3.917333483695983887e-01
2.192188203334808350e-01 -8.101901412010192871e-01 -4.169675111770629883e-01
4.409117400646209717e-01 -6.258137226104736328e-01 -3.639491796493530273e-01
2.712423503398895264e-01 -6.806407570838928223e-01 -3.637045323848724365e-01
1.709934473037719727e-01 -6.871117949485778809e-01 -4.076418876647949219e-01
4.192318916320800781e-01 -7.653314471244812012e-01 -4.135438203811645508e-01
4.605146646499633789e-01 -7.475643754005432129e-01 -3.805455863475799561e-01
3.096774220466613770e-01 -8.074651956558227539e-01 -3.864622414112091064e-01
4.645302295684814453e-01 -5.757932662963867188e-01 -3.845213055610656738e-01
2.823282182216644287e-01 -7.502813935279846191e-01 -4.181166887283325195e-01
2.663116455078125000e-01 -5.913308858871459961e-01 -3.704518675804138184e-01
2.966437637805938721e-01 -5.926937460899353027e-01 -3.670697212219238281e-01
4.256675839424133301e-01 -6.282619237899780273e-01 -3.633768558502197266e-01
5.639687776565551758e-01 -6.249045133590698242e-01 -3.914903998374938965e-01
3.424044549465179443e-01 -6.343311667442321777e-01 -4.040932953357696533e-01
3.304443061351776123e-01 -6.731759309768676758e-01 -3.631387352943420410e-01
4.092425107955932617e-01 -7.284718751907348633e-01 -3.721407055854797363e-01
4.891905188560485840e-02 -8.114768862724304199e-01 -3.974713683128356934e-01
2.069252282381057739e-01 -7.235468626022338867e-01 -3.683219552040100098e-01
2.717183530330657959e-01 -7.382636070251464844e-01 -4.174276590347290039e-01
4.592736661434173584e-01 -6.036778688430786133e-01 -3.654788732528686523e-01
9.403321146965026855e-02 -6.904696226119995117e-01 -3.739453852176666260e-01
1.425522267818450928e-01 -8.188583850860595703e-01 -3.884240388870239258e-01
2.849996685981750488e-01 -7.624708414077758789e-01 -3.738579750061035156e-01
4.638065695762634277e-01 -6.969169378280639648e-01 -4.103917479515075684e-01
3.382045328617095947e-01 -5.882233977317810059e-01 -3.661135733127593994e-01
3.335656225681304932e-01 -6.788205504417419434e-01 -4.117915332317352295e-01
4.963783919811248779e-01 -6.338836550712585449e-01 -3.673071861267089844e-01
1.802293956279754639e-01 -7.192552685737609863e-01 -4.130460619926452637e-01
1.521973758935928345e-01 -6.442953348159790039e-01 -3.707516491413116455e-01
2.287426888942718506e-01 -7.524329423904418945e-01 -4.176276624202728271e-01
4.169045388698577881e-01 -7.997233867645263672e-01 -4.053526818752288818e-01
4.588257968425750732e-01 -5.883581638336181641e-01 -3.907926976680755615e-01
4.646757245063781738e-01 -7.563146948814392090e-01 -4.098064899444580078e-01
5.522737503051757812e-01 -7.042508721351623535e-01 -3.835836052894592285e-01
2.091128230094909668e-01 -6.371608972549438477e-01 -3.988154530525207520e-01
2.884868979454040527e-01 -6.525491476058959961e-01 -4.067098796367645264e-01
2.804428935050964355e-01 -6.224945783615112305e-01 -3.634267449378967285e-01
2.897544801235198975e-01 -8.267620801925659180e-01 -3.937054276466369629e-01
5.273187160491943359e-01 -6.590251922607421875e-01 -4.021264016628265381e-01
5.186773538589477539e-01 -6.062862277030944824e-01 -3.698261380195617676e-01
3.955218195915222168e-02 -7.433023452758789062e-01 -3.829541206359863281e-01
5.631958246231079102e-01 -6.916486024856567383e-01 -3.829669356346130371e-01
1.679657101631164551e-01 -6.582109928131103516e-01 -3.676729798316955566e-01
1.663747578859329224e-01 -6.435562372207641602e-01 -3.964474201202392578e-01
2.633963227272033691e-01 -7.500786781311035156e-01 -4.180155992507934570e-01
3.641006350517272949e-01 -7.279416322708129883e-01 -3.699384927749633789e-01
2.715495228767395020e-01 -7.113381624221801758e-01 -4.151295423507690430e-01
4.676335453987121582e-01 -6.115152835845947266e-01 -3.975105583667755127e-01
5.156460404396057129e-01 -7.330462932586669922e-01 -3.844960033893585205e-01
4.779574871063232422e-01 -5.740222930908203125e-01 -3.818933367729187012e-01
2.053330540657043457e-01 -6.207982301712036133e-01 -3.685965240001678467e-01
4.701646268367767334e-01 -6.370797157287597656e-01 -4.028277099132537842e-01
2.086279392242431641e-01 -8.289149999618530273e-01 -3.912656009197235107e-01
1.386323273181915283e-01 -7.635362744331359863e-01 -4.147420227527618408e-01
2.017701566219329834e-01 -8.178725838661193848e-01 -4.159200489521026611e-01
1.548923552036285400e-01 -7.405680418014526367e-01 -4.139783382415771484e-01
3.643555641174316406e-01 -8.194039463996887207e-01 -4.026575088500976562e-01
4.745262861251831055e-01 -7.118613719940185547e-01 -3.739117085933685303e-01
1.415100395679473877e-01 -7.189723253250122070e-01 -4.106597006320953369e-01
9.925463795661926270e-02 -7.951458096504211426e-01 -3.840811848640441895e-01
4.684569239616394043e-01 -6.510923504829406738e-01 -4.052087068557739258e-01
1.506167948246002197e-01 -7.540321946144104004e-01 -3.738381862640380859e-01
4.615810811519622803e-01 -5.767568349838256836e-01 -3.702800869941711426e-01
4.086749553680419922e-01 -6.238212585449218750e-01 -3.628862202167510986e-01
5.012485384941101074e-01 -7.484331727027893066e-01 -4.050599634647369385e-01
4.416351616382598877e-01 -6.945905089378356934e-01 -4.113955199718475342e-01
3.312705457210540771e-01 -7.010567188262939453e-01 -3.655302822589874268e-01
4.339933991432189941e-01 -7.926843762397766113e-01 -4.048461914062500000e-01
4.130623042583465576e-01 -6.868985295295715332e-01 -3.663949370384216309e-01
4.068397581577301025e-01 -8.029911518096923828e-01 -3.964741826057434082e-01
4.015874862670898438e-02 -7.299256920814514160e-01 -3.996515870094299316e-01
4.428481757640838623e-01 -6.655343174934387207e-01 -4.083020985126495361e-01
3.712731897830963135e-01 -5.792608261108398438e-01 -3.872308135032653809e-01
5.369170904159545898e-01 -6.217831373214721680e-01 -3.712407052516937256e-01
2.754894793033599854e-01 -6.441131234169006348e-01 -4.045018255710601807e-01
2.002044618129730225e-01 -6.465660929679870605e-01 -4.007469117641448975e-01
2.714527547359466553e-01 -8.220093846321105957e-01 -4.145656526088714600e-01
2.951764166355133057e-01 -5.944286584854125977e-01 -3.902716040611267090e-01
3.036240935325622559e-01 -7.402635812759399414e-01 -4.176287055015563965e-01
4.855410456657409668e-01 -7.463128566741943359e-01 -4.081749022006988525e-01
2.985716462135314941e-01 -5.798185467720031738e-01 -3.809874355792999268e-01
3.148793578147888184e-01 -6.687341928482055664e-01 -3.628149926662445068e-01
2.313821911811828613e-01 -7.178342342376708984e-01 -3.672504127025604248e-01
3.623520433902740479e-01 -7.201544046401977539e-01 -4.157839417457580566e-01
4.438397288322448730e-01 -5.950508713722229004e-01 -3.655708134174346924e-01
2.278958410024642944e-01 -6.858214139938354492e-01 -4.105254113674163818e-01
4.028266966342926025e-01 -7.126548290252685547e-01 -4.142311811447143555e-01
3.837136328220367432e-01 -6.172819733619689941e-01 -3.625705540180206299e-01
4.497027993202209473e-01 -7.362908124923706055e-01 -3.766381740570068359e-01
4.490855038166046143e-01 -7.049559950828552246e-01 -3.707398474216461182e-01
3.990651369094848633e-01 -5.858209133148193359e-01 -3.658536672592163086e-01
3.902603387832641602e-01 -7.440562248229980469e-01 -4.158819019794464111e-01
1.072062104940414429e-01 -6.824575066566467285e-01 -4.003560543060302734e-01
4.359185695648193359e-01 -7.511382102966308594e-01 -4.130939543247222900e-01
4.388257861137390137e-01 -7.142089009284973145e-01 -3.715212345123291016e-01
5.334696173667907715e-01 -5.995168685913085938e-01 -3.726350069046020508e-01
2.816596329212188721e-01 -8.367244601249694824e-01 -4.011928439140319824e-01
2.287559807300567627e-01 -5.978761911392211914e-01 -3.737250864505767822e-01
3.708013892173767090e-01 -7.787829637527465820e-01 -3.811748921871185303e-01
6.570562720298767090e-02 -7.191160917282104492e-01 -4.025614559650421143e-01
2.515163123607635498e-01 -6.501573324203491211e-01 -3.633261322975158691e-01
4.998869597911834717e-01 -6.387006640434265137e-01 -4.014458954334259033e-01
1.965965628623962402e-01 -6.697369813919067383e-01 -3.655530214309692383e-01
2.560130953788757324e-01 -6.540282964706420898e-01 -4.058560729026794434e-01
2.017575204372406006e-01 -7.108362317085266113e-01 -4.130119085311889648e-01
4.461854100227355957e-01 -7.897194027900695801e-01 -3.993625342845916748e-01
4.225686788558959961e-01 -6.481356620788574219e-01 -3.637647628784179688e-01
1.557926386594772339e-01 -6.302734613418579102e-01 -3.737034797668457031e-01
2.139086723327636719e-01 -6.523619294166564941e-01 -3.648655116558074951e-01
2.660683095455169678e-01 -5.903525352478027344e-01 -3.847332000732421875e-01
1.262701600790023804e-01 -6.929196119308471680e-01 -3.704182207584381104e-01
6.322535872459411621e-02 -7.433766126632690430e-01 -4.060435593128204346e-01
4.177580475807189941e-01 -6.096206903457641602e-01 -3.983560502529144287e-01
2.244268953800201416e-01 -6.949769854545593262e-01 -3.654508292675018311e-01
2.131838202476501465e-01 -7.216511368751525879e-01 -4.147278666496276855e-01
1.778478771448135376e-01 -7.958348989486694336e-01 -3.808807134628295898e-01
1.159551739692687988e-01 -7.599855661392211914e-01 -3.764388263225555420e-01
1.943156123161315918e-01 -6.654834747314453125e-01 -4.049075841903686523e-01
2.628136575222015381e-01 -8.011057376861572266e-01 -4.176638722419738770e-01
4.657510519027709961e-01 -6.619623303413391113e-01 -3.667722642421722412e-01
3.484275937080383301e-01 -5.895865559577941895e-01 -3.911913037300109863e-01
4.586986899375915527e-01 -7.139276862144470215e-01 -3.729312121868133545e-01
3.553928136825561523e-01 -6.125903129577636719e-01 -3.626672625541687012e-01
1.258932948112487793e-01 -7.662307024002075195e-01 -4.140806794166564941e-01
4.555630087852478027e-01 -5.891484022140502930e-01 -3.669005036354064941e-01
4.350618720054626465e-01 -6.807748675346374512e-01 -3.667875826358795166e-01
1.091347932815551758e-01 -7.994445562362670898e-01 -4.132304489612579346e-01
4.127057492733001709e-01 -6.605374217033386230e-01 -4.085024893283843994e-01
1.016108393669128418e-01 -7.027466297149658203e-01 -3.728631138801574707e-01
3.271322250366210938e-01 -7.814975976943969727e-01 -4.175192117691040039e-01
1.173922717571258545e-01 -7.270528078079223633e-01 -3.726617097854614258e-01
3.996172249317169189e-01 -6.989691853523254395e-01 -4.132952094078063965e-01
3.438642621040344238e-01 -6.574853062629699707e-01 -4.085640609264373779e-01
2.564516365528106689e-01 -6.062057018280029297e-01 -3.668092191219329834e-01
2.624894976615905762e-01 -8.364675045013427734e-01 -3.979460597038269043e-01
2.451405972242355347e-01 -7.680566310882568359e-01 -4.184499382972717285e-01
4.352215230464935303e-01 -5.910599827766418457e-01 -3.924737870693206787e-01
5.563333034515380859e-01 -6.075575351715087891e-01 -3.758283257484436035e-01
1.790706515312194824e-01 -8.244813084602355957e-01 -4.144562780857086182e-01
1.004203557968139648e-01 -7.364524006843566895e-01 -3.747562468051910400e-01
2.489030361175537109e-01 -6.218054294586181641e-01 -3.971892893314361572e-01
4.390748143196105957e-01 -6.295993924140930176e-01 -4.025330841541290283e-01
1.692084819078445435e-01 -7.501307725906372070e-01 -4.155022799968719482e-01
3.978256583213806152e-01 -6.355729699134826660e-01 -4.044703543186187744e-01
4.537346363067626953e-01 -6.569903492927551270e-01 -3.656950294971466064e-01
5.469672083854675293e-01 -6.124939918518066406e-01 -3.911313414573669434e-01
1.646748483180999756e-01 -8.241910338401794434e-01 -3.896476626396179199e-01
1.789926290512084961e-01 -6.231220364570617676e-01 -3.716299831867218018e-01
2.653863430023193359e-01 -7.012090086936950684e-01 -3.652664422988891602e-01
2.406903654336929321e-01 -6.123062968254089355e-01 -3.668718039989471436e-01
4.244445562362670898e-01 -5.801403522491455078e-01 -3.882406353950500488e-01
5.679618716239929199e-01 -6.430242061614990234e-01 -3.766916394233703613e-01
4.044930040836334229e-01 -7.431116104125976562e-01 -4.152267277240753174e-01
9.539413452148437500e-02 -7.916241884231567383e-01 -4.122884571552276611e-01
3.339234888553619385e-01 -7.113561630249023438e-01 -4.154603779315948486e-01
9.529814124107360840e-02 -6.923466324806213379e-01 -4.011751413345336914e-01
2.855405211448669434e-01 -7.270029187202453613e-01 -3.681158125400543213e-01
4.972227811813354492e-01 -5.940052866935729980e-01 -3.690648972988128662e-01
2.845291495323181152e-01 -8.000013828277587891e-01 -3.828420937061309814e-01
2.920279204845428467e-01 -7.434790134429931641e-01 -3.706058263778686523e-01
1.036321371793746948e-01 -8.272023200988769531e-01 -4.089159369468688965e-01
4.218997359275817871e-01 -7.109152674674987793e-01 -4.133994579315185547e-01
3.934695124626159668e-01 -5.704233646392822266e-01 -3.821218013763427734e-01
2.972449958324432373e-01 -7.528187036514282227e-01 -4.181805253028869629e-01
4.561257362365722656e-02 -7.774121761322021484e-01 -3.862142264842987061e-01
3.236359059810638428e-01 -5.951444506645202637e-01 -3.923469781875610352e-01
1.853998303413391113e-01 -7.578903436660766602e-01 -4.166699647903442383e-01
3.986793458461761475e-01 -7.947976589202880859e-01 -3.896342217922210693e-01
2.286510467529296875e-01 -8.157259821891784668e-01 -3.864127099514007568e-01
1.812069416046142578e-01 -7.386474013328552246e-01 -4.151228070259094238e-01
3.105108439922332764e-01 -5.974432826042175293e-01 -3.925582468509674072e-01
2.419781684875488281e-01 -7.990496158599853516e-01 -3.815434277057647705e-01
2.741443514823913574e-01 -7.868471145629882812e-01 -4.183526039123535156e-01
5.288293361663818359e-01 -7.001265883445739746e-01 -4.045870900154113770e-01
2.105778753757476807e-01 -7.084625363349914551e-01 -3.668100833892822266e-01
2.274307608604431152e-01 -6.052757501602172852e-01 -3.882460892200469971e-01
4.514684975147247314e-01 -7.663288712501525879e-01 -3.853494226932525635e-01
2.078843116760253906e-01 -7.368236780166625977e-01 -3.698453307151794434e-01
4.433175325393676758e-01 -7.554175257682800293e-01 -3.808402419090270996e-01
3.494454324245452881e-01 -6.103050708770751953e-01 -3.982479870319366455e-01
2.333599776029586792e-01 -7.999628186225891113e-01 -4.178348183631896973e-01
3.708183765411376953e-01 -6.032589673995971680e-01 -3.633663654327392578e-01
7.507830858230590820e-02 -6.786124706268310547e-01 -3.791012763977050781e-01
3.971043825149536133e-01 -6.082217097282409668e-01 -3.631978631019592285e-01
3.516803979873657227e-01 -6.232836842536926270e-01 -4.016919732093811035e-01
4.530408382415771484e-01 -6.781574487686157227e-01 -3.675174415111541748e-01
2.638247311115264893e-01 -6.251961588859558105e-01 -3.991729021072387695e-01
2.727020382881164551e-01 -6.102050542831420898e-01 -3.650571107864379883e-01
5.003632903099060059e-01 -6.121711134910583496e-01 -3.677185475826263428e-01
9.323975443840026855e-02 -7.472480535507202148e-01 -3.764386475086212158e-01
3.932377994060516357e-01 -7.023841738700866699e-01 -3.673950731754302979e-01
1.423166394233703613e-01 -7.902407050132751465e-01 -4.155961871147155762e-01
4.848030507564544678e-01 -5.936304926872253418e-01 -3.913943469524383545e-01
8.751620352268218994e-02 -7.582898736000061035e-01 -4.104166924953460693e-01
5.800585448741912842e-02 -7.220672965049743652e-01 -3.788153827190399170e-01
1.206335723400115967e-01 -8.092626333236694336e-01 -3.864340782165527344e-01
4.642503857612609863e-01 -7.320437431335449219e-01 -3.770546913146972656e-01
4.670035243034362793e-01 -6.662924289703369141e-01 -4.073397219181060791e-01
3.080260157585144043e-01 -7.261720299720764160e-01 -3.682474493980407715e-01
3.568098247051239014e-01 -6.496521234512329102e-01 -4.072492420673370361e-01
5.394799113273620605e-01 -7.182428836822509766e-01 -3.848228454589843750e-01
2.140070796012878418e-01 -7.886982560157775879e-01 -4.180584549903869629e-01
5.511622428894042969e-01 -6.246384382247924805e-01 -3.732616007328033447e-01
2.514997720718383789e-01 -5.890951752662658691e-01 -3.764006197452545166e-01
3.857719004154205322e-01 -7.792894840240478516e-01 -3.824682831764221191e-01
3.431595265865325928e-01 -7.397793531417846680e-01 -4.171754419803619385e-01
2.155251204967498779e-01 -8.003703951835632324e-01 -3.817040324211120605e-01
2.285978198051452637e-01 -7.523351907730102539e-01 -3.717845082283020020e-01
2.555441558361053467e-01 -7.197539210319519043e-01 -3.672042191028594971e-01
5.069532990455627441e-01 -7.443557977676391602e-01 -3.869124650955200195e-01
