-2.777642011642456055e-02 -2.796869352459907532e-02 5.185222029685974121e-01
-1.360356807708740234e-01 -4.629439860582351685e-02 -3.609523922204971313e-02
-2.338754236698150635e-01 1.650220341980457306e-02 -1.384606957435607910e-01
-1.589253842830657959e-01 -4.234486818313598633e-02 4.673292487859725952e-02
-9.071705490350723267e-02 6.656023114919662476e-02 -1.818538904190063477e-01
-2.255392223596572876e-01 5.023702979087829590e-03 -8.545660227537155151e-02
-3.350347280502319336e-03 3.202467411756515503e-02 5.406876206398010254e-01
8.857817947864532471e-02 2.144320867955684662e-03 4.373614192008972168e-01
7.761913537979125977e-02 4.465450718998908997e-02 4.867986440658569336e-01
-2.907487750053405762e-02 7.461749762296676636e-02 1.690278947353363037e-01
-7.954435795545578003e-02 7.741272449493408203e-02 -2.356661856174468994e-02
7.061789929866790771e-02 4.883053898811340332e-02 4.351065754890441895e-01
-6.933873891830444336e-02 6.270842254161834717e-02 -1.445573568344116211e-01
-2.518652379512786865e-01 3.695479780435562134e-02 -3.843225240707397461e-01
-1.020721197128295898e-01 2.615629695355892181e-03 3.623042106628417969e-01
-1.121298000216484070e-01 1.156435254961252213e-02 3.252197504043579102e-01
3.203669190406799316e-02 4.527833312749862671e-02 1.544982194900512695e-01
-1.364882737398147583e-01 -4.444861784577369690e-02 -6.936048716306686401e-02
-1.060307770967483521e-02 -5.853168666362762451e-03 2.757176011800765991e-02
2.906472235918045044e-02 -3.972143679857254028e-02 4.656097292900085449e-01
5.822022259235382080e-02 -2.435820549726486206e-02 4.028530716896057129e-01
-1.896874904632568359e-01 5.752036347985267639e-02 -1.143948063254356384e-01
-1.547770500183105469e-01 5.386339128017425537e-02 -3.652156889438629150e-01
7.501110434532165527e-03 -3.109770268201828003e-02 2.092321664094924927e-01
7.045589387416839600e-03 5.302739515900611877e-02 4.630056023597717285e-01
-1.587195992469787598e-01 1.698235608637332916e-02 -3.973173797130584717e-01
8.984735608100891113e-02 1.867666095495223999e-02 4.185363650321960449e-01
1.912624388933181763e-02 4.857118427753448486e-02 5.041301250457763672e-01
-5.109383910894393921e-02 -4.552603885531425476e-02 3.799575269222259521e-01
-9.974512457847595215e-02 -3.783017024397850037e-02 3.064507842063903809e-01
-1.648915410041809082e-01 3.225454688072204590e-02 1.129836887121200562e-01
-8.276388049125671387e-03 -3.747107088565826416e-02 1.978619098663330078e-01
-1.172780990600585938e-01 -2.977558225393295288e-02 2.849504947662353516e-01
-2.487033233046531677e-02 -3.449668735265731812e-02 1.140793636441230774e-01
-1.672761440277099609e-01 4.368807747960090637e-02 -4.085140526294708252e-01
-7.524758577346801758e-02 -2.237861230969429016e-02 4.221470654010772705e-01
-1.702928543090820312e-01 -2.684470638632774353e-02 -2.719001471996307373e-01
-2.487431019544601440e-01 -6.907662376761436462e-03 -3.807690143585205078e-01
-1.617369204759597778e-01 6.499698758125305176e-02 -3.192109167575836182e-01
-1.179728657007217407e-01 3.844664990901947021e-02 2.455379068851470947e-01
-1.445533633232116699e-01 -1.088533364236354828e-02 2.314365506172180176e-01
-1.783577650785446167e-01 6.813358515501022339e-02 -2.641981244087219238e-01
-2.439782395958900452e-02 -3.071006014943122864e-02 9.040829539299011230e-02
-1.925957053899765015e-01 -3.226662427186965942e-02 -2.378384768962860107e-01
-1.116204559803009033e-01 2.301068417727947235e-02 3.073023259639739990e-01
-2.203808724880218506e-01 -2.346811443567276001e-02 -1.330007910728454590e-01
2.919927239418029785e-03 4.786331579089164734e-02 4.869057834148406982e-01
6.284417212009429932e-02 2.344503998756408691e-02 2.661725282669067383e-01
3.708571940660476685e-02 -1.993416994810104370e-02 2.636806368827819824e-01
-1.588703244924545288e-01 -2.426873892545700073e-02 1.589791178703308105e-01
-2.382740750908851624e-02 -4.745996370911598206e-02 2.639937400817871094e-01
-2.439661771059036255e-01 4.284936934709548950e-02 -3.470672965049743652e-01
-6.981424987316131592e-02 7.747760415077209473e-02 5.199394375085830688e-02
-1.145695894956588745e-01 5.187319964170455933e-02 -2.927347123622894287e-01
-8.074989914894104004e-02 7.405565679073333740e-02 -9.468219429254531860e-02
2.467828989028930664e-02 6.530743092298507690e-02 3.117807209491729736e-01
-2.562250494956970215e-01 3.145015239715576172e-02 -4.147582948207855225e-01
1.692241430282592773e-02 5.366856977343559265e-02 1.177909746766090393e-01
2.129390835762023926e-02 -7.616281509399414062e-04 6.356112957000732422e-01
-1.523373126983642578e-01 3.932509943842887878e-02 -3.888616561889648438e-01
-2.190027385950088501e-01 5.453422665596008301e-02 -2.636602818965911865e-01
-7.272709906101226807e-02 -2.346247434616088867e-02 -9.220751374959945679e-02
3.666081279516220093e-02 -2.439203485846519470e-02 2.886573970317840576e-01
-1.642530560493469238e-01 -3.520512580871582031e-02 -2.010293006896972656e-01
4.544374346733093262e-02 -3.441695496439933777e-02 4.523577094078063965e-01
6.787845492362976074e-02 4.650823771953582764e-02 5.167592167854309082e-01
-1.054074019193649292e-01 -1.331855915486812592e-02 -2.156326770782470703e-01
-9.421408176422119141e-03 7.640235126018524170e-03 5.786449909210205078e-01
4.763264954090118408e-02 -2.226172760128974915e-02 6.319376230239868164e-01
-1.954875886440277100e-03 -4.519823938608169556e-02 4.301637411117553711e-01
-1.867995560169219971e-01 1.358656398952007294e-02 7.353495061397552490e-02
-1.435828953981399536e-02 5.621520429849624634e-02 5.352266132831573486e-03
2.756796777248382568e-02 -7.455760613083839417e-03 1.704044193029403687e-01
-2.401379644870758057e-01 -1.517740637063980103e-02 -2.290883362293243408e-01
-1.984608471393585205e-01 -1.846439018845558167e-02 1.257735490798950195e-02
-4.976026713848114014e-02 5.627243220806121826e-02 3.434786498546600342e-01
-1.702595502138137817e-02 4.996670037508010864e-02 -2.279453724622726440e-02
-2.100545316934585571e-01 -1.074656099081039429e-02 -3.946395814418792725e-01
-1.740535497665405273e-01 6.933730840682983398e-02 -2.297775745391845703e-01
-2.111685648560523987e-02 5.693640559911727905e-05 -2.259244769811630249e-02
-9.972519427537918091e-02 3.978462517261505127e-02 2.935903668403625488e-01
-1.429789662361145020e-01 -4.249849915504455566e-02 1.231300458312034607e-01
-1.770706176757812500e-01 6.652320921421051025e-02 -3.052332997322082520e-01
-3.755390271544456482e-02 6.450200080871582031e-02 3.106546401977539062e-01
-1.429174542427062988e-01 -1.500588469207286835e-02 -2.884393036365509033e-01
9.431339800357818604e-03 6.432837247848510742e-02 3.672107160091400146e-01
-2.160921096801757812e-01 5.004249140620231628e-02 -1.911950111389160156e-01
3.466158360242843628e-02 3.724487870931625366e-02 5.762819051742553711e-01
-2.674180641770362854e-02 -3.918450325727462769e-02 1.449165940284729004e-01
-2.237968742847442627e-01 -2.553584799170494080e-02 -2.007424235343933105e-01
5.038663744926452637e-02 5.440325662493705750e-02 4.612650871276855469e-01
-2.292186617851257324e-01 -1.216109655797481537e-02 -3.866276144981384277e-01
1.535586267709732056e-02 6.756769120693206787e-02 2.616312503814697266e-01
-8.650174736976623535e-02 -2.139781787991523743e-02 3.940788209438323975e-01
-1.498958617448806763e-01 1.101206056773662567e-03 2.159192562103271484e-01
-4.010078310966491699e-02 7.585267722606658936e-02 1.261113286018371582e-01
-2.098616063594818115e-01 -2.838136628270149231e-02 -2.642323374748229980e-01
-2.192673385143280029e-01 4.749887809157371521e-02 -4.390920102596282959e-01
-5.360070988535881042e-02 6.490403413772583008e-02 -8.742546290159225464e-02
-6.681179255247116089e-02 -3.911808133125305176e-03 -1.475012004375457764e-01
-1.129149496555328369e-01 -4.999892786145210266e-02 7.336981594562530518e-02
-1.364031434059143066e-01 6.749376654624938965e-02 -2.696430683135986328e-01
-3.864844515919685364e-02 -1.366417855024337769e-04 -7.646671682596206665e-02
-1.653425395488739014e-03 3.572560101747512817e-02 9.078457951545715332e-03
-7.275405526161193848e-02 -3.843907639384269714e-02 -1.908563077449798584e-03
1.980432122945785522e-02 -4.188570007681846619e-02 4.216943085193634033e-01
-1.798564791679382324e-01 1.609695516526699066e-02 9.608941525220870972e-02
8.979223668575286865e-02 3.625203669071197510e-02 5.141616463661193848e-01
-8.998978883028030396e-02 -3.033931180834770203e-02 -1.003131940960884094e-01
-8.217602968215942383e-02 7.592266798019409180e-02 7.881505787372589111e-02
-2.519532144069671631e-01 2.152411825954914093e-02 -2.598322331905364990e-01
-2.486100196838378906e-01 3.388230875134468079e-02 -2.924716770648956299e-01
-2.228357344865798950e-01 2.564036101102828979e-02 -1.037952676415443420e-01
1.341655850410461426e-03 6.927636265754699707e-02 2.871618270874023438e-01
-2.611506581306457520e-01 1.627852581441402435e-02 -3.326484858989715576e-01
-3.866409882903099060e-02 2.951203286647796631e-02 4.779218137264251709e-01
-8.461695164442062378e-02 7.715117931365966797e-02 3.962578997015953064e-02
-1.939254254102706909e-02 -5.293210968375205994e-03 -2.886734902858734131e-03
6.711441278457641602e-02 8.562206290662288666e-03 3.001580536365509033e-01
-2.071952819824218750e-02 5.456485226750373840e-02 4.111877679824829102e-01
4.629349708557128906e-02 2.787974476814270020e-02 6.213810443878173828e-01
-1.127610579133033752e-01 -5.022709444165229797e-02 1.042173579335212708e-01
4.334978759288787842e-03 -4.275808855891227722e-02 3.180360198020935059e-01
-4.195465892553329468e-02 -5.029052868485450745e-02 3.063953816890716553e-01
-3.500855341553688049e-02 5.338949337601661682e-02 -7.373795658349990845e-02
-1.954593509435653687e-01 4.735011979937553406e-02 -4.346002638339996338e-01
-1.686252802610397339e-01 6.285621225833892822e-02 -6.598577648401260376e-02
7.122403383255004883e-02 2.642707899212837219e-02 3.097335994243621826e-01
-1.949104368686676025e-01 5.490844324231147766e-02 -4.040469825267791748e-01
-4.580121859908103943e-02 -7.917229086160659790e-04 5.078952908515930176e-01
-2.529003843665122986e-02 2.691695839166641235e-02 5.131326913833618164e-01
-1.869807690382003784e-01 3.590564802289009094e-02 1.835336536169052124e-02
-6.147205829620361328e-03 -1.272451505064964294e-02 6.541073322296142578e-02
7.893241941928863525e-03 6.587883830070495605e-02 1.604243069887161255e-01
1.490913331508636475e-02 -3.527218475937843323e-02 5.495988726615905762e-01
-1.177130341529846191e-01 1.132737472653388977e-02 -3.064598441123962402e-01
2.914579957723617554e-02 -3.534206748008728027e-02 3.477670848369598389e-01
-6.569364666938781738e-02 3.581630438566207886e-02 3.963912427425384521e-01
-1.271771192550659180e-01 3.511053696274757385e-02 2.287254929542541504e-01
-4.076027497649192810e-02 -2.166517823934555054e-02 5.057749748229980469e-01
-1.974459588527679443e-01 1.742489263415336609e-02 2.569735795259475708e-02
3.615924715995788574e-02 -3.719785064458847046e-02 4.305814504623413086e-01
1.853372156620025635e-02 3.033427707850933075e-02 5.810875892639160156e-01
3.247730433940887451e-03 6.224950775504112244e-02 3.871825337409973145e-01
-5.777761340141296387e-03 6.393136084079742432e-02 7.796479761600494385e-02
4.310344159603118896e-02 -2.998911216855049133e-02 5.902340412139892578e-01
-1.132322102785110474e-01 -4.350452497601509094e-02 -4.882917553186416626e-02
-8.962052315473556519e-02 7.324518263339996338e-02 1.036523878574371338e-01
3.434235602617263794e-02 1.089218817651271820e-02 1.526972651481628418e-01
-2.450354099273681641e-01 4.021066427230834961e-02 -3.165533542633056641e-01
-5.716249346733093262e-03 -3.265971317887306213e-02 1.692533344030380249e-01
-1.702854335308074951e-01 -3.508333861827850342e-02 6.399161368608474731e-02
-2.642204239964485168e-02 8.051274344325065613e-03 -5.601973086595535278e-02
-1.434495002031326294e-01 -4.688001051545143127e-02 3.593029454350471497e-02
-1.017541959881782532e-01 -4.007490351796150208e-03 -2.365768551826477051e-01
-2.019533663988113403e-01 -3.335637971758842468e-03 -4.171993434429168701e-01
-2.157401591539382935e-01 2.960295416414737701e-02 -8.233999460935592651e-02
3.338678926229476929e-02 5.673578754067420959e-02 2.130024135112762451e-01
9.898537397384643555e-02 -3.424221649765968323e-04 6.204895973205566406e-01
9.958006441593170166e-02 2.050287276506423950e-02 6.041210293769836426e-01
3.046622127294540405e-02 -1.050627231597900391e-02 1.928338259458541870e-01
-3.646472096443176270e-02 -3.300406783819198608e-02 4.845375716686248779e-01
-1.350171267986297607e-01 -3.837964683771133423e-02 -1.364629864692687988e-01
-2.076770812273025513e-01 5.660245195031166077e-02 -2.059366106986999512e-01
-1.941664814949035645e-01 -3.486018627882003784e-02 -1.969814598560333252e-01
-2.332294285297393799e-01 4.828951507806777954e-02 -3.017662167549133301e-01
-1.840479671955108643e-01 -9.230829775333404541e-03 -3.763853013515472412e-01
7.288886606693267822e-02 8.798656985163688660e-03 6.757491230964660645e-01
9.860117733478546143e-02 1.208953373134136200e-02 4.926148653030395508e-01
-1.399777531623840332e-01 3.429232165217399597e-04 2.487504184246063232e-01
-4.721248894929885864e-02 -4.652968049049377441e-02 1.548084616661071777e-01
9.035676717758178711e-03 2.819006331264972687e-02 4.437787085771560669e-02
-1.344949454069137573e-01 7.371333241462707520e-02 -1.963432729244232178e-01
-1.260959357023239136e-01 6.784843653440475464e-02 -2.500072419643402100e-01
9.536407887935638428e-02 2.746491879224777222e-02 4.828873872756958008e-01
-1.835159659385681152e-01 -3.083513304591178894e-02 2.946759760379791260e-02
-1.746778190135955811e-01 3.667781502008438110e-02 6.276814639568328857e-02
-4.444466903805732727e-02 3.436317294836044312e-02 -1.299619972705841064e-01
-1.169684380292892456e-01 6.594304740428924561e-02 9.916409850120544434e-02
-1.704749166965484619e-01 6.134742870926856995e-04 -3.874524533748626709e-01
-2.435259670019149780e-01 3.196308761835098267e-02 -4.694572985172271729e-01
-2.060205638408660889e-01 5.512156989425420761e-03 -4.456940591335296631e-01
-1.856681704521179199e-01 -3.630025312304496765e-02 -3.058546036481857300e-02
-2.408977448940277100e-01 -1.412194594740867615e-02 -3.435333967208862305e-01
-2.151802033185958862e-01 4.597488045692443848e-02 -1.557265818119049072e-01
3.161838650703430176e-02 -3.778863325715065002e-02 5.157483220100402832e-01
1.152011007070541382e-02 -2.253739535808563232e-02 1.724088937044143677e-01
-1.526378989219665527e-01 -2.330446615815162659e-02 1.842918694019317627e-01
8.116982877254486084e-03 -3.963077440857887268e-02 5.105611681938171387e-01
-2.271198779344558716e-01 1.750116422772407532e-02 -4.798828661441802979e-01
7.558816671371459961e-02 1.993611454963684082e-02 3.316530883312225342e-01
-1.312576085329055786e-01 6.327250599861145020e-02 -2.870135903358459473e-01
-2.953771874308586121e-02 -1.748810708522796631e-02 7.100634276866912842e-03
-3.702543675899505615e-03 -4.077785089612007141e-02 4.926379919052124023e-01
-6.513892114162445068e-02 4.426703974604606628e-02 -1.816122233867645264e-01
-2.514263615012168884e-02 7.079178094863891602e-02 2.609332203865051270e-01
-9.250391274690628052e-02 -8.112182840704917908e-03 -2.021097838878631592e-01
9.824313223361968994e-03 -8.979493752121925354e-03 6.164686083793640137e-01
-2.590315937995910645e-01 1.199412252753973007e-02 -3.021059334278106689e-01
-6.578984856605529785e-02 1.773075386881828308e-02 4.408240914344787598e-01
-7.456922531127929688e-02 -1.454753242433071136e-02 -1.344291865825653076e-01
-4.929307848215103149e-02 7.279823720455169678e-02 1.999250054359436035e-01
-5.272656306624412537e-02 2.251127921044826508e-02 4.630257189273834229e-01
-4.621572047472000122e-02 7.636319100856781006e-02 1.065369620919227600e-01
5.580061674118041992e-02 9.644530713558197021e-03 2.451666891574859619e-01
-1.373779475688934326e-01 -4.086696356534957886e-02 -1.155024394392967224e-01
-3.470016643404960632e-02 7.412499934434890747e-02 6.915414333343505859e-02
-3.726682066917419434e-02 -4.925005882978439331e-02 2.452249825000762939e-01
1.202933490276336670e-03 1.030180603265762329e-03 6.027507185935974121e-01
-9.325964003801345825e-02 1.461060345172882080e-02 -2.532256543636322021e-01
-1.472204923629760742e-01 3.331296890974044800e-02 1.702865362167358398e-01
2.463497221469879150e-02 -3.565543517470359802e-02 3.268401920795440674e-01
-1.167658567428588867e-01 -4.577158018946647644e-02 -2.650697529315948486e-02
-1.651358157396316528e-01 1.496600545942783356e-02 1.510398536920547485e-01
-1.901751384139060974e-02 7.345992326736450195e-02 1.930368840694427490e-01
-7.512739300727844238e-02 -4.989333078265190125e-02 1.268245875835418701e-01
-1.428035795688629150e-01 -4.687794670462608337e-02 -9.359590709209442139e-03
9.617233276367187500e-02 2.076553925871849060e-02 6.226719021797180176e-01
7.052147388458251953e-02 -9.386468678712844849e-03 6.686887741088867188e-01
-1.168288663029670715e-01 -4.924414679408073425e-02 4.299854859709739685e-02
-2.009481489658355713e-01 6.176697835326194763e-02 -2.415035665035247803e-01
-1.288617998361587524e-01 5.833068117499351501e-02 1.173248738050460815e-01
-1.550357341766357422e-01 3.531152755022048950e-02 1.375932246446609497e-01
2.257962524890899658e-02 6.523987650871276855e-02 3.334585428237915039e-01
-2.341158688068389893e-03 -1.601058803498744965e-02 9.138280898332595825e-02
-1.204069852828979492e-01 -9.579211473464965820e-03 3.091531395912170410e-01
7.136249542236328125e-02 4.090458527207374573e-02 3.452641069889068604e-01
5.884332954883575439e-02 -2.944052219390869141e-02 5.597125291824340820e-01
-7.551984488964080811e-02 -4.824924096465110779e-02 2.938043773174285889e-01
-4.125570878386497498e-02 -3.671190887689590454e-02 7.661985605955123901e-02
-1.082955822348594666e-01 6.435719132423400879e-02 1.390320211648941040e-01
-9.670317173004150391e-02 5.987314879894256592e-02 -2.275514304637908936e-01
-2.886130288243293762e-02 3.130212426185607910e-02 -8.299141377210617065e-02
-1.210215240716934204e-01 2.056279778480529785e-02 2.845161259174346924e-01
-1.672827154397964478e-01 3.854784741997718811e-02 8.308979868888854980e-02
-1.425302922725677490e-01 -4.549880698323249817e-02 8.429250121116638184e-02
2.872272580862045288e-02 -3.846121206879615784e-02 3.947571218013763428e-01
-8.194354921579360962e-02 -5.126905813813209534e-02 2.096303701400756836e-01
-9.595128893852233887e-02 -3.969004377722740173e-03 3.815077543258666992e-01
-2.677259966731071472e-02 7.185158878564834595e-02 2.425536513328552246e-01
-6.101544201374053955e-02 -5.126919224858283997e-02 2.209906876087188721e-01
-2.122829258441925049e-01 -2.275214344263076782e-02 -7.499723881483078003e-02
-1.560390293598175049e-01 6.868766993284225464e-02 -2.804605662822723389e-01
-1.077102050185203552e-01 4.610583186149597168e-03 3.449161350727081299e-01
-1.303775161504745483e-01 8.860852569341659546e-03 2.733765840530395508e-01
-1.754603385925292969e-01 5.675479024648666382e-02 -3.817529380321502686e-01
-2.850030735135078430e-02 -4.546192288398742676e-02 4.186594188213348389e-01
-2.016296237707138062e-01 4.745726287364959717e-02 -9.774360805749893188e-02
-1.332941353321075439e-01 7.538156211376190186e-02 -1.318869590759277344e-01
7.761372625827789307e-02 3.937242180109024048e-02 5.617403984069824219e-01
-4.798236861824989319e-02 7.444533705711364746e-02 1.738193631172180176e-01
-3.893695771694183350e-03 4.104217886924743652e-02 5.074422955513000488e-01
1.547444611787796021e-02 -5.337662994861602783e-03 1.175268143415451050e-01
8.496300876140594482e-02 -1.045922376215457916e-02 4.753739237785339355e-01
-2.451957762241363525e-01 4.239451140165328979e-02 -3.671275675296783447e-01
-1.758550107479095459e-01 6.156259402632713318e-02 -3.547594249248504639e-01
-1.534762084484100342e-01 7.289877533912658691e-02 -1.848095059394836426e-01
-9.942304342985153198e-02 2.541696466505527496e-02 3.366784155368804932e-01
4.318423569202423096e-02 -2.317983284592628479e-02 3.115765750408172607e-01
4.209493845701217651e-02 4.503822699189186096e-02 5.434072613716125488e-01
-6.166599318385124207e-02 -3.663260489702224731e-02 4.138412475585937500e-01
-1.397206187248229980e-01 7.317231595516204834e-02 -7.617511600255966187e-02
-4.693521559238433838e-02 6.857013702392578125e-02 2.554952204227447510e-01
-1.574508547782897949e-01 5.584394559264183044e-02 3.380101919174194336e-02
4.161088913679122925e-02 6.034569442272186279e-02 3.713017106056213379e-01
-1.144304797053337097e-01 7.583752274513244629e-02 -2.425310015678405762e-02
2.705721557140350342e-02 5.852816253900527954e-02 1.924997270107269287e-01
-6.074301898479461670e-02 -4.592877998948097229e-02 3.554503917694091797e-01
-4.492091387510299683e-02 6.598645821213722229e-03 -1.095320507884025574e-01
-2.565909028053283691e-01 -1.914877444505691528e-03 -3.159411847591400146e-01
-2.154780328273773193e-01 1.637158356606960297e-02 -4.923985153436660767e-02
-8.525858819484710693e-02 5.599793046712875366e-02 2.592619359493255615e-01
6.055584549903869629e-02 -1.350916177034378052e-02 3.413883745670318604e-01
-7.896079868078231812e-02 -2.254879474639892578e-02 -1.128670200705528259e-01
-6.123388186097145081e-02 4.590679705142974854e-02 3.694111704826354980e-01
-1.610105633735656738e-01 -3.681805357336997986e-02 9.342809021472930908e-02
8.369986712932586670e-02 -1.722751557826995850e-02 5.506583452224731445e-01
-6.429154425859451294e-02 -4.852164909243583679e-02 3.172952234745025635e-01
3.207265585660934448e-02 -3.603000566363334656e-02 3.747821152210235596e-01
-1.190663874149322510e-01 -3.765529766678810120e-02 -1.148230955004692078e-01
-1.713807582855224609e-01 -4.217817261815071106e-02 -7.094530016183853149e-02
-2.400450408458709717e-01 2.434358373284339905e-02 -1.906145215034484863e-01
-8.858780562877655029e-02 -4.705081880092620850e-02 2.720579504966735840e-01
-8.085834234952926636e-02 1.447310671210289001e-03 4.207859039306640625e-01
-1.290667951107025146e-01 -4.042304679751396179e-02 1.954844146966934204e-01
-2.303081378340721130e-02 -4.205126315355300903e-03 5.577843785285949707e-01
-1.039495691657066345e-01 4.568749666213989258e-02 2.585752308368682861e-01
-2.254233360290527344e-01 -2.336816117167472839e-02 -1.756497621536254883e-01
-5.016133189201354980e-02 -4.879127815365791321e-02 1.817824840545654297e-01
2.059390395879745483e-02 1.667126826941967010e-02 6.172492504119873047e-01
6.690362095832824707e-02 -2.279169484972953796e-02 4.470388591289520264e-01
-1.169507950544357300e-02 -4.741740971803665161e-02 3.504993915557861328e-01
-1.128544956445693970e-01 -4.824665933847427368e-02 1.736219525337219238e-01
-9.348948299884796143e-02 7.434546202421188354e-02 -1.230372413992881775e-01
-5.608128756284713745e-02 7.011647522449493408e-02 2.211498618125915527e-01
7.859775424003601074e-02 -6.681464612483978271e-03 4.086533188819885254e-01
-2.235299348831176758e-02 -4.817970842123031616e-02 2.930093109607696533e-01
-1.779625117778778076e-01 -1.368045248091220856e-02 -3.506969213485717773e-01
-1.075964346528053284e-01 5.972902104258537292e-02 -2.536487877368927002e-01
6.687152385711669922e-02 2.561892569065093994e-02 6.397503614425659180e-01
9.513400495052337646e-03 -4.319329932332038879e-02 3.616358637809753418e-01
-1.128983497619628906e-01 7.283388078212738037e-02 -1.816073358058929443e-01
-1.955528557300567627e-01 5.636028572916984558e-02 -1.334594190120697021e-01
-2.144436538219451904e-01 -2.367350831627845764e-02 -3.109613358974456787e-01
-9.124331921339035034e-02 6.769639998674392700e-02 1.600455939769744873e-01
-1.917306780815124512e-01 5.090392008423805237e-02 -7.398157566785812378e-02
1.615179330110549927e-02 2.195081114768981934e-02 7.193853706121444702e-02
5.082969367504119873e-02 3.614011779427528381e-02 5.936975479125976562e-01
-2.074998468160629272e-01 -2.078613638877868652e-02 -3.926212340593338013e-02
-5.993593484163284302e-02 -4.447575286030769348e-02 8.941665291786193848e-02
-1.737311929464340210e-01 6.865958869457244873e-02 -1.805952787399291992e-01
-1.114089041948318481e-01 4.904715344309806824e-02 2.219853699207305908e-01
-5.210325121879577637e-02 6.506577134132385254e-02 2.772702276706695557e-01
-1.434608101844787598e-01 6.164069473743438721e-02 4.425797238945960999e-02
-2.168981358408927917e-02 -4.384062811732292175e-02 2.127910256385803223e-01
6.611873209476470947e-02 -1.992543227970600128e-03 3.217718303203582764e-01
6.667479872703552246e-02 -2.294830605387687683e-02 6.136339306831359863e-01
-3.805601596832275391e-02 -3.169430792331695557e-02 5.231643095612525940e-02
-6.951116025447845459e-02 -2.928733453154563904e-02 -5.355515331029891968e-02
-1.847566664218902588e-01 -3.907982259988784790e-02 -9.694295376539230347e-02
9.731267392635345459e-02 -4.644757136702537537e-03 5.691457390785217285e-01
1.917669177055358887e-02 -3.608778864145278931e-02 3.037882447242736816e-01
-1.212435439229011536e-01 4.415600001811981201e-02 -3.213102519512176514e-01
-1.790882647037506104e-01 -1.992233842611312866e-02 -3.226283490657806396e-01
-2.311920002102851868e-02 -4.873649403452873230e-02 3.165203928947448730e-01
-7.784440368413925171e-02 -4.635726660490036011e-02 6.212734431028366089e-02
5.114911496639251709e-02 5.252684280276298523e-02 4.830339550971984863e-01
-1.747118383646011353e-01 6.538591533899307251e-02 -1.244241967797279358e-01
-6.755119562149047852e-02 -5.116586014628410339e-02 1.877176761627197266e-01
-7.740848511457443237e-02 4.095771536231040955e-02 3.491475582122802734e-01
-9.874133765697479248e-02 -2.049990370869636536e-02 3.615922629833221436e-01
3.123663365840911865e-02 4.051508381962776184e-02 5.584713816642761230e-01
5.899953842163085938e-02 5.395125225186347961e-02 3.800533413887023926e-01
1.366762071847915649e-02 2.221697010099887848e-03 9.079612791538238525e-02
-2.102250158786773682e-01 -2.720797434449195862e-02 -9.427065402269363403e-02
-5.623225495219230652e-02 3.129733353853225708e-02 -1.650095283985137939e-01
-2.480859309434890747e-01 6.611319258809089661e-04 -2.180756628513336182e-01
5.566573143005371094e-02 4.441413283348083496e-02 2.660754323005676270e-01
8.499275147914886475e-02 8.658403530716896057e-03 3.971932232379913330e-01
-1.805823743343353271e-01 6.459094583988189697e-02 -1.457079350948333740e-01
-7.784693688154220581e-02 -5.050066486001014709e-02 2.480625808238983154e-01
-1.542684435844421387e-01 -4.121586307883262634e-02 -1.271555423736572266e-01
-1.558309644460678101e-01 1.014075241982936859e-02 1.893925666809082031e-01
-2.280557602643966675e-01 5.147636309266090393e-02 -3.831970095634460449e-01
-1.430308967828750610e-01 5.863669142127037048e-02 6.747038662433624268e-02
-2.324559688568115234e-01 -8.037608116865158081e-03 -1.346026062965393066e-01
1.882408559322357178e-02 -2.917570993304252625e-02 5.859729051589965820e-01
-1.281627118587493896e-01 7.031792402267456055e-02 1.702031493186950684e-02
2.412024885416030884e-02 -3.978833928704261780e-02 4.969456195831298828e-01
-1.687752902507781982e-01 -3.982846438884735107e-02 -1.478128731250762939e-01
-2.031439393758773804e-01 2.778017520904541016e-02 -2.128005772829055786e-02
2.105443924665451050e-02 -3.187908604741096497e-02 2.728016376495361328e-01
-7.143551111221313477e-02 -6.501918658614158630e-03 4.465539157390594482e-01
-1.772282421588897705e-01 4.037482291460037231e-02 3.898165747523307800e-02
-2.007628381252288818e-01 -2.465891465544700623e-02 -2.222298830747604370e-02
-1.484662890434265137e-01 5.906441062688827515e-02 -3.360934555530548096e-01
-1.882634907960891724e-01 -3.670722246170043945e-02 -5.590156465768814087e-02
-1.365132182836532593e-01 -3.109185025095939636e-03 -3.157702982425689697e-01
-1.677804440259933472e-02 -4.457969218492507935e-02 4.417384564876556396e-01
-1.547243595123291016e-01 -1.554340496659278870e-02 -3.074191808700561523e-01
6.512919068336486816e-02 -2.613703534007072449e-02 5.829976201057434082e-01
3.280918300151824951e-02 4.723130166530609131e-02 5.246451497077941895e-01
-1.278945505619049072e-01 -3.280432149767875671e-02 -1.674189865589141846e-01
-2.241260707378387451e-01 3.249213844537734985e-02 -1.329797208309173584e-01
-1.006075739860534668e-02 6.497988849878311157e-02 3.473525047302246094e-01
2.553450316190719604e-02 -2.254486456513404846e-02 6.162671446800231934e-01
-3.007866442203521729e-03 -3.263910114765167236e-02 5.445939302444458008e-01
8.217202126979827881e-02 4.144837707281112671e-02 4.511952698230743408e-01
9.120272099971771240e-02 -9.061889722943305969e-03 5.242153406143188477e-01
-1.581240296363830566e-01 6.352733075618743896e-02 -2.766954153776168823e-02
-2.038842141628265381e-01 6.284520961344242096e-03 1.216364651918411255e-02
8.344210684299468994e-02 -1.702034287154674530e-02 5.939515233039855957e-01
-1.370941698551177979e-01 -1.675969921052455902e-02 -2.701750099658966064e-01
-2.408369183540344238e-01 9.008436463773250580e-03 -4.654611051082611084e-01
-1.065364107489585876e-01 2.638808451592922211e-03 -2.644008398056030273e-01
2.655175328254699707e-02 2.222477644681930542e-02 1.110490933060646057e-01
4.814198613166809082e-02 5.567845422774553299e-03 2.191765159368515015e-01
-5.758306384086608887e-02 7.706317305564880371e-02 7.745572924613952637e-02
-7.172453403472900391e-02 3.568011149764060974e-02 -2.070256769657135010e-01
-1.274440884590148926e-01 1.315653976052999496e-02 -3.305737972259521484e-01
-2.420098036527633667e-01 3.846451640129089355e-02 -4.500545561313629150e-01
-3.549579530954360962e-02 5.709829181432723999e-02 3.680937290191650391e-01
-2.301557213068008423e-01 -4.410192370414733887e-03 -1.145007833838462830e-01
-1.199550032615661621e-01 7.636186480522155762e-02 -1.167865917086601257e-01
-1.876059472560882568e-01 -9.307753294706344604e-03 7.574945688247680664e-02
-7.492459565401077271e-02 8.723020553588867188e-03 -1.972471773624420166e-01
-1.008521318435668945e-01 3.597152233123779297e-02 -2.814840376377105713e-01
4.379737377166748047e-02 -6.753537803888320923e-03 2.346598803997039795e-01
nan nan nan
-1.157745569944381714e-01 4.684903472661972046e-02 5.337067246437072754e-01
-3.244218230247497559e-01 -4.579676315188407898e-02 3.882545828819274902e-01
-3.844772279262542725e-02 2.936897240579128265e-02 6.993798613548278809e-01
-3.878498077392578125e-02 -2.621130086481571198e-02 6.009911298751831055e-01
-3.669210970401763916e-01 2.192855812609195709e-02 3.936713933944702148e-01
-1.798762679100036621e-01 -5.144757404923439026e-02 3.809055089950561523e-01
-2.757085561752319336e-01 -6.223403289914131165e-02 4.911255836486816406e-01
-1.018935739994049072e-01 -6.274557113647460938e-02 5.744740962982177734e-01
-1.322834789752960205e-01 -5.126587674021720886e-02 4.353628456592559814e-01
-1.608299314975738525e-01 5.521129071712493896e-02 7.950450778007507324e-01
-7.074940204620361328e-02 -4.155131056904792786e-02 7.328790426254272461e-01
-1.372648477554321289e-01 6.983950734138488770e-02 6.727146506309509277e-01
-3.399802148342132568e-01 5.993170663714408875e-03 3.243588209152221680e-01
-2.093300819396972656e-01 -7.033886015415191650e-02 5.477260947227478027e-01
-1.644217818975448608e-01 -6.287708878517150879e-02 6.495772600173950195e-01
-2.690230011940002441e-01 -6.454553455114364624e-02 4.524642229080200195e-01
-1.963447481393814087e-01 7.446938753128051758e-02 6.838773488998413086e-01
-2.403570413589477539e-01 7.520477473735809326e-02 5.896158814430236816e-01
-2.906883060932159424e-01 6.733088940382003784e-02 5.920175313949584961e-01
-2.641061544418334961e-01 6.263067014515399933e-03 7.384803295135498047e-01
-9.552294015884399414e-02 -3.859542682766914368e-02 4.701531827449798584e-01
-1.906451433897018433e-01 -3.998132795095443726e-02 7.306303381919860840e-01
-1.735509037971496582e-01 6.616770476102828979e-02 5.407209396362304688e-01
-2.696682214736938477e-01 -6.395410746335983276e-02 4.343147277832031250e-01
-1.212483495473861694e-01 6.639055162668228149e-02 7.028872370719909668e-01
-2.983146905899047852e-01 6.107528507709503174e-02 6.247210502624511719e-01
-3.254757523536682129e-01 5.244213715195655823e-02 4.443346858024597168e-01
-3.588607907295227051e-01 -2.346874400973320007e-02 4.761413335800170898e-01
-1.742563247680664062e-01 -7.123374938964843750e-02 4.894471168518066406e-01
-2.561326622962951660e-01 -2.882461436092853546e-02 6.937870979309082031e-01
-1.817353665828704834e-01 -6.635609269142150879e-02 6.158177852630615234e-01
-3.242988884449005127e-02 -1.592677645385265350e-02 7.553805112838745117e-01
-1.231983229517936707e-01 6.663583964109420776e-02 6.635484695434570312e-01
-8.122797310352325439e-02 5.434757471084594727e-02 6.967374086380004883e-01
-1.036071330308914185e-01 3.254942968487739563e-02 8.353849053382873535e-01
-2.815771996974945068e-01 6.662831455469131470e-02 6.296238899230957031e-01
-2.827007174491882324e-01 -5.934896320104598999e-02 5.056761503219604492e-01
-9.768752753734588623e-02 -6.189253553748130798e-02 5.952154397964477539e-01
-2.746917605400085449e-01 6.979346275329589844e-02 6.166393160820007324e-01
-3.416293561458587646e-01 3.608451411128044128e-02 5.945690274238586426e-01
-2.378816306591033936e-01 -6.443854421377182007e-02 5.662245154380798340e-01
-3.508280515670776367e-01 -9.503477253019809723e-03 3.319528698921203613e-01
-3.070226311683654785e-01 -4.849363118410110474e-03 3.016560077667236328e-01
-2.109992206096649170e-01 5.737227946519851685e-02 4.574927687644958496e-01
-3.013105690479278564e-01 -3.855482488870620728e-02 3.245051503181457520e-01
-7.208235561847686768e-02 -5.320982262492179871e-02 6.426548957824707031e-01
-2.512226998805999756e-01 7.421161234378814697e-02 6.109196543693542480e-01
-2.734338939189910889e-01 5.889357998967170715e-02 4.418883621692657471e-01
-3.679662942886352539e-02 -3.285304829478263855e-02 6.847980618476867676e-01
-2.708649039268493652e-01 -5.576668307185173035e-02 5.673090815544128418e-01
-1.208572238683700562e-01 -5.721757933497428894e-02 6.869239211082458496e-01
-3.098312914371490479e-01 5.721020698547363281e-02 4.531368613243103027e-01
-1.734555959701538086e-01 -3.362703695893287659e-02 3.607238233089447021e-01
-3.454311490058898926e-01 -2.736493945121765137e-02 5.173647999763488770e-01
-2.959578633308410645e-01 6.808244623243808746e-03 6.938138604164123535e-01
-1.835743784904479980e-01 -2.529582241550087929e-03 8.071592450141906738e-01
-2.411148548126220703e-01 4.868673160672187805e-02 4.068166017532348633e-01
-2.126147001981735229e-01 7.628322392702102661e-02 6.163602471351623535e-01
-9.568703174591064453e-02 -5.567402765154838562e-02 5.218838453292846680e-01
-2.319769859313964844e-01 -4.321556165814399719e-02 6.816303730010986328e-01
-1.694653481245040894e-01 5.617355182766914368e-02 4.923660457134246826e-01
-1.395938992500305176e-01 -6.897544115781784058e-02 5.854557156562805176e-01
-3.688307106494903564e-02 -3.014294616878032684e-02 6.248084902763366699e-01
-1.046501174569129944e-01 -6.688220426440238953e-03 8.298590183258056641e-01
-5.148103833198547363e-02 7.943167351186275482e-03 5.650687813758850098e-01
-2.371488511562347412e-01 7.071267813444137573e-02 5.213100910186767578e-01
-2.090857923030853271e-02 -2.844119211658835411e-03 7.202688455581665039e-01
-2.593485713005065918e-01 5.625271424651145935e-02 4.299750924110412598e-01
-1.945837438106536865e-01 4.106358811259269714e-02 8.030171394348144531e-01
-1.054032444953918457e-01 5.759018287062644958e-02 7.673164606094360352e-01
-5.032718181610107422e-02 3.741265088319778442e-02 6.824538707733154297e-01
-3.533687591552734375e-01 -1.402192190289497375e-02 5.379914045333862305e-01
-2.632076144218444824e-01 2.234679833054542542e-02 3.334991931915283203e-01
-2.563724517822265625e-01 6.201507151126861572e-02 4.586395025253295898e-01
-8.619179576635360718e-02 3.841333836317062378e-02 8.185073137283325195e-01
-1.976915299892425537e-01 3.655149135738611221e-03 8.028323054313659668e-01
-2.455656081438064575e-01 -6.595979630947113037e-02 4.176839590072631836e-01
-2.700459957122802734e-02 1.663545519113540649e-02 7.030569314956665039e-01
-2.392668575048446655e-01 -5.051793903112411499e-02 6.451687216758728027e-01
-2.029383182525634766e-01 -1.265074405819177628e-02 7.801551222801208496e-01
-1.741253435611724854e-01 -7.123047113418579102e-02 5.645068883895874023e-01
-3.451169133186340332e-01 5.403694696724414825e-03 5.951879024505615234e-01
-3.668593168258666992e-01 -1.780353859066963196e-02 4.568452239036560059e-01
-3.639824986457824707e-01 -1.799214445054531097e-02 3.768687248229980469e-01
-1.680103838443756104e-01 7.246875017881393433e-02 7.047637701034545898e-01
-1.512153148651123047e-01 6.166793033480644226e-02 7.747822403907775879e-01
-2.493307739496231079e-01 9.212559089064598083e-03 3.197076022624969482e-01
-3.515669107437133789e-01 4.493198543787002563e-02 5.072000622749328613e-01
-2.304565459489822388e-01 -3.681950271129608154e-02 3.238890767097473145e-01
-3.095923066139221191e-01 -5.360869690775871277e-02 4.350452423095703125e-01
-1.552746593952178955e-01 7.072374969720840454e-02 6.133211255073547363e-01
-1.403916031122207642e-01 6.404712796211242676e-02 7.603901624679565430e-01
-7.009944319725036621e-02 -5.286313593387603760e-02 6.273725032806396484e-01
-3.508758544921875000e-02 -1.025723572820425034e-02 7.744010090827941895e-01
-1.449788659811019897e-01 7.348178885877132416e-03 8.347648382186889648e-01
-1.230581253767013550e-01 1.893491484224796295e-02 4.460006952285766602e-01
-3.766814470291137695e-01 1.740493252873420715e-02 4.443241357803344727e-01
-2.005463838577270508e-01 6.904851645231246948e-02 5.302587747573852539e-01
-1.740281134843826294e-01 -2.281703241169452667e-02 7.833220362663269043e-01
-4.460886120796203613e-02 7.807952351868152618e-03 5.847424864768981934e-01
-6.395171582698822021e-02 -3.143169730901718140e-02 7.646803259849548340e-01
-2.804031372070312500e-01 5.315597727894783020e-02 4.157234728336334229e-01
-3.685185313224792480e-02 -3.349295631051063538e-02 6.628582477569580078e-01
-3.545152544975280762e-01 -2.501976676285266876e-02 4.906563758850097656e-01
-3.693702518939971924e-01 3.003174625337123871e-02 4.634022116661071777e-01
-2.779687345027923584e-01 4.641313850879669189e-02 3.900334239006042480e-01
-2.509220540523529053e-01 -6.701393425464630127e-02 4.395476579666137695e-01
-3.268665671348571777e-01 -4.535290598869323730e-02 4.692940711975097656e-01
-2.196721732616424561e-01 -6.759028136730194092e-02 5.662161111831665039e-01
-2.878164649009704590e-01 -2.137086167931556702e-02 6.655590534210205078e-01
-3.005573749542236328e-01 -4.405921325087547302e-02 5.678952336311340332e-01
-1.025311201810836792e-01 2.349434234201908112e-02 4.868532419204711914e-01
-1.076587289571762085e-01 -5.556641146540641785e-02 4.925360679626464844e-01
-1.203037798404693604e-01 6.181547045707702637e-02 7.585481405258178711e-01
-1.662750840187072754e-01 -7.009283453226089478e-02 5.840424299240112305e-01
-1.580148935317993164e-01 2.379871159791946411e-02 8.331013917922973633e-01
-2.534889578819274902e-01 -6.063510850071907043e-02 3.821184337139129639e-01
-3.040485978126525879e-01 9.359893389046192169e-03 3.115445375442504883e-01
-1.844398379325866699e-01 -3.295182436704635620e-02 7.542251348495483398e-01
-2.476536035537719727e-01 2.572779729962348938e-02 7.639869451522827148e-01
-3.528254032135009766e-01 6.286949850618839264e-03 5.750403404235839844e-01
-1.742802262306213379e-01 -6.612794846296310425e-02 4.407737851142883301e-01
-6.135565042495727539e-02 3.745221346616744995e-02 6.272220015525817871e-01
-6.105424463748931885e-02 1.080364733934402466e-02 5.453574061393737793e-01
-1.763639599084854126e-01 5.429142341017723083e-02 7.919143438339233398e-01
-1.892622411251068115e-01 2.760259620845317841e-02 8.153374791145324707e-01
-2.125250697135925293e-01 -7.150588929653167725e-02 4.786894917488098145e-01
-1.612956225872039795e-01 -5.897564068436622620e-02 4.212699532508850098e-01
-1.967239379882812500e-01 1.530346833169460297e-02 3.594923615455627441e-01
-4.420003294944763184e-02 3.281268477439880371e-02 7.528120875358581543e-01
-3.013157844543457031e-01 -5.623780190944671631e-02 4.541842937469482422e-01
-3.417645096778869629e-01 -3.682786226272583008e-02 3.826722502708435059e-01
-1.816359460353851318e-01 -4.933775216341018677e-02 7.057253718376159668e-01
-3.377246260643005371e-01 -1.655944436788558960e-02 5.769301056861877441e-01
-2.355420440435409546e-01 7.085146009922027588e-02 6.831410527229309082e-01
-1.556846797466278076e-01 -6.127651408314704895e-02 4.371750950813293457e-01
-1.786916255950927734e-01 -5.907097458839416504e-02 6.643626093864440918e-01
-2.754376530647277832e-01 1.746006309986114502e-02 3.227733969688415527e-01
-3.443742990493774414e-01 -3.028375469148159027e-02 3.562223911285400391e-01
-9.206849336624145508e-02 -4.758373275399208069e-02 4.971526265144348145e-01
-2.252852171659469604e-01 4.210563376545906067e-03 7.797147035598754883e-01
-2.517676055431365967e-01 -6.764712929725646973e-02 4.707169234752655029e-01
-1.247318536043167114e-01 -4.384992271661758423e-02 7.471913099288940430e-01
-1.824987083673477173e-01 7.480128854513168335e-02 6.758899688720703125e-01
-4.390135407447814941e-02 1.052257884293794632e-02 8.043533563613891602e-01
-2.198709994554519653e-01 -5.672688409686088562e-02 3.687608242034912109e-01
-1.207479536533355713e-01 1.349140657112002373e-04 4.243580102920532227e-01
-1.235365495085716248e-01 3.062963299453258514e-02 4.699315726757049561e-01
-2.993707358837127686e-02 1.934351958334445953e-02 6.885482072830200195e-01
-2.012063264846801758e-01 -6.759305298328399658e-02 5.892006754875183105e-01
-1.534988731145858765e-01 -6.700897961854934692e-02 6.198863387107849121e-01
-3.265974521636962891e-01 -4.686061292886734009e-02 4.246892333030700684e-01
-2.644857764244079590e-01 7.196672260761260986e-02 5.469704866409301758e-01
-2.336728870868682861e-01 7.472819834947586060e-02 6.453391909599304199e-01
-1.670480519533157349e-01 7.325956970453262329e-02 6.243765950202941895e-01
-3.063277602195739746e-01 3.531498089432716370e-02 3.597545623779296875e-01
-9.093741327524185181e-02 3.092146012932062149e-03 8.372271656990051270e-01
-1.222949326038360596e-01 -6.678798049688339233e-02 5.496017932891845703e-01
-1.259927600622177124e-01 -6.771135330200195312e-02 5.743778347969055176e-01
-2.885659337043762207e-01 -5.792672187089920044e-02 3.999684453010559082e-01
-3.483326435089111328e-01 3.189856931567192078e-02 3.832944333553314209e-01
-6.175681948661804199e-02 2.609496749937534332e-02 5.796695351600646973e-01
-2.907203137874603271e-01 -7.268290966749191284e-03 2.990221381187438965e-01
-1.392263174057006836e-01 4.713452607393264771e-02 4.964792430400848389e-01
-1.265713274478912354e-01 4.884849861264228821e-02 5.228993892669677734e-01
-9.047708660364151001e-02 -2.860081009566783905e-02 7.889228463172912598e-01
-1.284463405609130859e-01 5.926168337464332581e-02 7.792339324951171875e-01
-2.496608793735504150e-01 3.888722136616706848e-02 7.549454569816589355e-01
-1.174254044890403748e-01 -6.009760126471519470e-02 6.663015484809875488e-01
-2.081503719091415405e-01 3.616838902235031128e-02 3.907050490379333496e-01
-1.441800445318222046e-01 -5.759922787547111511e-03 3.899036347866058350e-01
-2.342019677162170410e-01 2.879258990287780762e-02 7.775804400444030762e-01
-2.030239254236221313e-01 4.632920771837234497e-02 7.905488014221191406e-01
-1.823761910200119019e-01 6.577891111373901367e-02 5.271969437599182129e-01
-3.232773244380950928e-01 -1.887187827378511429e-03 3.083857595920562744e-01
-3.669912219047546387e-01 -8.753266185522079468e-03 4.987025856971740723e-01
-2.754405140876770020e-01 5.897249653935432434e-02 6.814777255058288574e-01
-1.987122148275375366e-01 7.615978270769119263e-02 6.374581456184387207e-01
-1.937972307205200195e-01 6.368295103311538696e-02 5.026839375495910645e-01
-3.111425042152404785e-02 -1.314088981598615646e-02 6.167978048324584961e-01
-3.275140523910522461e-01 4.096724465489387512e-02 6.230306029319763184e-01
-3.594563007354736328e-01 -1.690460368990898132e-02 3.575342595577239990e-01
-1.080839559435844421e-01 2.156557515263557434e-03 4.447944760322570801e-01
-2.448110878467559814e-01 5.926029011607170105e-02 4.474163949489593506e-01
-1.485346257686614990e-01 -2.476082369685173035e-02 7.922506928443908691e-01
-2.193878591060638428e-01 -3.871194273233413696e-02 7.092562317848205566e-01
-3.027565181255340576e-01 4.839631542563438416e-02 4.018764495849609375e-01
-3.157668411731719971e-01 5.968690663576126099e-02 4.870278537273406982e-01
-3.106601536273956299e-01 -4.654723778367042542e-02 5.269585251808166504e-01
-2.486230432987213135e-01 6.502047926187515259e-02 4.773186445236206055e-01
-3.587008118629455566e-01 1.443217135965824127e-02 5.610514283180236816e-01
-3.424696922302246094e-01 -3.682753071188926697e-02 4.685016274452209473e-01
-1.017993316054344177e-01 4.697572067379951477e-02 8.084955811500549316e-01
-1.733573675155639648e-01 1.036812737584114075e-02 8.232452273368835449e-01
-1.888061761856079102e-01 7.557791471481323242e-02 6.591140031814575195e-01
-1.889149099588394165e-01 7.324279844760894775e-02 5.818545818328857422e-01
-3.227265775203704834e-01 -1.849794574081897736e-02 6.074993014335632324e-01
-3.027304410934448242e-01 -5.510085821151733398e-02 4.725914597511291504e-01
-1.625002026557922363e-01 -5.474096536636352539e-02 4.063654541969299316e-01
-1.398190706968307495e-01 6.980867683887481689e-02 7.016620635986328125e-01
-2.637377381324768066e-02 7.283895276486873627e-03 6.594930291175842285e-01
-3.506147563457489014e-01 -2.021346241235733032e-02 3.430966734886169434e-01
-2.979947924613952637e-01 4.582797735929489136e-02 6.761739850044250488e-01
-2.677432596683502197e-01 -6.337565928697586060e-02 4.182474613189697266e-01
-3.031418919563293457e-01 -1.939927972853183746e-02 6.439614892005920410e-01
-3.744986653327941895e-02 1.705880090594291687e-02 6.323626041412353516e-01
-8.062384277582168579e-02 -1.892567425966262817e-02 4.820046424865722656e-01
-1.153139173984527588e-01 -6.566082686185836792e-02 5.932171940803527832e-01
-2.434843629598617554e-01 7.460773736238479614e-02 5.740985870361328125e-01
-1.945961415767669678e-01 -7.230593264102935791e-02 5.222600698471069336e-01
-2.793594598770141602e-01 6.611845642328262329e-02 4.914802312850952148e-01
-6.126043200492858887e-02 -3.493217378854751587e-02 7.490527033805847168e-01
-6.010591983795166016e-02 4.426367580890655518e-02 6.946095824241638184e-01
-1.332104504108428955e-01 -6.267534196376800537e-02 6.537793874740600586e-01
-3.256188035011291504e-01 -3.092515282332897186e-02 3.275189995765686035e-01
-1.413030773401260376e-01 -6.405866891145706177e-02 4.723798036575317383e-01
-1.507603377103805542e-01 2.314324863255023956e-02 4.177617430686950684e-01
-1.877277493476867676e-01 -1.580715179443359375e-02 7.867813110351562500e-01
-3.265442848205566406e-01 1.718266867101192474e-02 3.291712999343872070e-01
-3.618449568748474121e-01 3.173490613698959351e-02 5.284972190856933594e-01
-1.660358011722564697e-01 -3.964632377028465271e-02 7.474207282066345215e-01
-1.014184057712554932e-01 6.050636246800422668e-02 6.652577519416809082e-01
-1.127564907073974609e-01 6.449400633573532104e-02 6.857745051383972168e-01
-1.630550622940063477e-01 2.233263477683067322e-02 4.024162888526916504e-01
-3.681416213512420654e-01 2.240256406366825104e-02 5.183206200599670410e-01
-3.685789108276367188e-01 -1.772041991353034973e-02 4.147603511810302734e-01
-2.011882066726684570e-01 -7.107138633728027344e-02 4.656645059585571289e-01
-2.091845571994781494e-01 1.350115798413753510e-02 7.995996475219726562e-01
-2.597954273223876953e-01 -4.605767875909805298e-02 6.347962021827697754e-01
-1.477535963058471680e-01 -6.828860938549041748e-02 6.046186685562133789e-01
-6.478825211524963379e-02 -4.145076870918273926e-02 5.490926504135131836e-01
-9.020125120878219604e-02 4.553483426570892334e-02 5.821870565414428711e-01
-3.080815076828002930e-01 -4.703257605433464050e-02 3.582820594310760498e-01
-2.478176653385162354e-01 -6.561105698347091675e-02 5.343837738037109375e-01
-3.077461123466491699e-01 2.909027785062789917e-02 6.776980757713317871e-01
-1.809950321912765503e-01 -2.302748896181583405e-02 3.486269712448120117e-01
-4.831120371818542480e-02 -2.684401907026767731e-02 5.662054419517517090e-01
-1.930806934833526611e-01 -7.102643698453903198e-02 5.569004416465759277e-01
-3.355662524700164795e-01 -2.691370248794555664e-02 5.511330962181091309e-01
