-3.299856185913085938e-01 -6.683581508696079254e-03 -1.267694681882858276e-01
-2.317354381084442139e-01 -6.763489544391632080e-02 -2.488944306969642639e-02
-2.500245571136474609e-01 -3.069307655096054077e-02 -1.079617291688919067e-01
-3.810639679431915283e-01 -8.425498008728027344e-02 -9.687985293567180634e-03
-2.291338741779327393e-01 9.408586472272872925e-02 -5.695408955216407776e-02
-3.970012664794921875e-01 4.218087345361709595e-02 -7.646742276847362518e-03
-3.674402236938476562e-01 5.614740401506423950e-02 4.357984289526939392e-02
-3.854960501194000244e-01 -1.042563468217849731e-03 9.346381574869155884e-02
-3.174523115158081055e-01 8.677611500024795532e-02 6.236129906028509140e-03
-2.358085960149765015e-01 1.062171384692192078e-01 4.258288536220788956e-03
-3.737970590591430664e-01 -8.080646395683288574e-02 3.779072687029838562e-02
-1.951793879270553589e-01 -4.971312731504440308e-02 -3.042138367891311646e-02
-1.917271912097930908e-01 7.982952892780303955e-02 1.075187847018241882e-01
-2.320548892021179199e-01 7.861810177564620972e-02 1.091943234205245972e-01
-2.412420064210891724e-01 -1.018323656171560287e-02 1.410792320966720581e-01
-1.676835268735885620e-01 -4.059173911809921265e-02 2.722567319869995117e-02
-1.998052895069122314e-01 1.077449694275856018e-01 1.744890399277210236e-02
-2.484434396028518677e-01 8.890552446246147156e-03 -1.251223534345626831e-01
-1.830952167510986328e-01 1.052608639001846313e-01 -4.527872428297996521e-03
-1.557247191667556763e-01 -2.257870882749557495e-02 -3.156463801860809326e-02
-1.476745307445526123e-01 9.132894128561019897e-02 -2.336145192384719849e-02
-2.917043268680572510e-01 -4.262023605406284332e-03 -1.295788139104843140e-01
-1.366472989320755005e-01 9.926286526024341583e-03 9.471908956766128540e-02
-2.354435920715332031e-01 -6.613012403249740601e-02 6.293602287769317627e-02
-1.832098364830017090e-01 -6.763897836208343506e-04 1.270420253276824951e-01
-4.054551720619201660e-01 2.352500334382057190e-02 -5.712470784783363342e-02
-2.694318592548370361e-01 -3.927141800522804260e-02 1.249043643474578857e-01
-2.081763148307800293e-01 8.750297129154205322e-02 -6.831286102533340454e-02
-2.987940013408660889e-01 8.235280215740203857e-02 6.867289543151855469e-02
-2.879054844379425049e-01 -4.603205621242523193e-02 -1.059288904070854187e-01
-3.441683650016784668e-01 -8.385435491800308228e-02 4.532333090901374817e-02
-4.224518537521362305e-01 -5.883046984672546387e-02 2.232811786234378815e-02
-2.205821573734283447e-01 -6.723419576883316040e-02 1.294159330427646637e-02
-1.837946474552154541e-01 5.116661638021469116e-02 1.300124078989028931e-01
-3.547919094562530518e-01 -6.823171675205230713e-02 7.917895168066024780e-02
-2.692395448684692383e-01 3.878153488039970398e-02 1.380061805248260498e-01
-2.349071502685546875e-01 1.994771324098110199e-02 -1.219264864921569824e-01
-1.542382240295410156e-01 1.009704917669296265e-01 2.023411169648170471e-02
-4.365431666374206543e-01 -1.307948399335145950e-02 4.872429184615612030e-03
-3.414559960365295410e-01 -7.550785690546035767e-02 -6.820506602525711060e-02
-1.253231316804885864e-01 -1.747265458106994629e-03 -2.825118601322174072e-03
-3.483346104621887207e-01 6.999315321445465088e-02 3.366616368293762207e-02
-1.078838706016540527e-01 4.133092239499092102e-02 6.212532892823219299e-02
-3.097869753837585449e-01 -7.958215661346912384e-03 1.367899179458618164e-01
-1.265131235122680664e-01 -6.252526305615901947e-03 1.346670277416706085e-02
-3.349153697490692139e-01 -8.316745609045028687e-02 -4.676565155386924744e-02
-4.254961013793945312e-01 -5.677359551191329956e-02 -3.561274707317352295e-02
-3.766199648380279541e-01 5.465045943856239319e-02 2.405600994825363159e-02
-3.275419771671295166e-01 -7.617595791816711426e-02 -6.651282310485839844e-02
-3.753035068511962891e-01 -6.234204769134521484e-02 -8.242368698120117188e-02
-1.666063219308853149e-01 1.039561778306961060e-01 2.440075576305389404e-02
-1.328692734241485596e-01 -1.101001631468534470e-02 -1.532118767499923706e-05
-2.100115120410919189e-01 -5.889800190925598145e-02 5.446107685565948486e-02
-3.096324205398559570e-01 -8.172287046909332275e-02 5.556343868374824524e-02
-1.028372049331665039e-01 4.925216361880302429e-02 4.069871827960014343e-02
-1.956312805414199829e-01 -5.441405624151229858e-02 -9.336297400295734406e-03
-3.617753982543945312e-01 2.656098082661628723e-02 9.879491478204727173e-02
-1.616114079952239990e-01 8.095678687095642090e-02 -5.651515349745750427e-02
-3.922954797744750977e-01 5.508243106305599213e-03 -9.422146528959274292e-02
-3.930636644363403320e-01 4.152208939194679260e-02 -3.842418640851974487e-02
-3.945118486881256104e-01 -4.195357114076614380e-02 8.090883493423461914e-02
-4.157961606979370117e-01 -5.489733070135116577e-02 -5.865048989653587341e-02
-2.906892597675323486e-01 -2.959923446178436279e-02 1.323944628238677979e-01
-2.228103429079055786e-01 -4.198242723941802979e-02 1.076433137059211731e-01
-3.959708809852600098e-01 -5.430231243371963501e-02 -7.997553050518035889e-02
-1.527379155158996582e-01 -2.838984876871109009e-02 -2.579138614237308502e-03
-4.044443070888519287e-01 1.707229390740394592e-02 5.550306662917137146e-02
-2.640051245689392090e-01 7.316345721483230591e-02 1.083111539483070374e-01
-3.045193552970886230e-01 7.882311195135116577e-02 -6.488677114248275757e-02
-1.498189270496368408e-01 9.889967739582061768e-02 3.479024395346641541e-02
-1.294169723987579346e-01 8.857064694166183472e-02 4.273070394992828369e-02
-2.001565992832183838e-01 2.489009127020835876e-02 -1.087093278765678406e-01
-3.412692248821258545e-01 5.940286070108413696e-02 -7.653321325778961182e-02
-1.068496108055114746e-01 2.663071453571319580e-02 4.461185634136199951e-02
-1.455406993627548218e-01 -6.340106017887592316e-03 8.817361295223236084e-02
-1.323365718126296997e-01 -1.033945661038160324e-02 4.828757420182228088e-02
-3.153071999549865723e-01 -4.306206479668617249e-02 1.196852624416351318e-01
-3.018415868282318115e-01 6.048332527279853821e-02 -9.865760058164596558e-02
-2.412873208522796631e-01 -7.448108494281768799e-02 8.647646754980087280e-03
-4.354610443115234375e-01 -4.720537737011909485e-02 -7.854447700083255768e-03
-2.059502005577087402e-01 9.322916716337203979e-02 8.593288064002990723e-02
-3.855460286140441895e-01 -7.071003317832946777e-02 -6.246346607804298401e-02
-2.209140807390213013e-01 1.057531759142875671e-01 3.902513906359672546e-02
-3.281586468219757080e-01 5.298368260264396667e-02 9.867636859416961670e-02
-4.121862053871154785e-01 1.782261580228805542e-02 3.767165914177894592e-02
-3.753053247928619385e-01 5.743894353508949280e-02 9.816288016736507416e-03
-3.370103240013122559e-01 7.868082821369171143e-02 5.318661220371723175e-03
-2.792767286300659180e-01 -4.331637173891067505e-04 -1.292573362588882446e-01
-2.526170313358306885e-01 -1.417672540992498398e-02 -1.197266727685928345e-01
-1.068735420703887939e-01 6.636705249547958374e-02 1.656602136790752411e-02
-2.093537896871566772e-01 5.668300390243530273e-02 -1.025561094284057617e-01
-2.293966263532638550e-01 8.780310302972793579e-02 -7.044883817434310913e-02
-2.014828026294708252e-01 -1.509971451014280319e-02 -9.413127601146697998e-02
-1.349078416824340820e-01 -6.102792918682098389e-03 -2.211906388401985168e-02
-3.640833199024200439e-01 4.572318866848945618e-02 7.314688712358474731e-02
-3.600638508796691895e-01 -7.457116246223449707e-02 6.465660035610198975e-02
-3.053124845027923584e-01 8.464812487363815308e-02 -4.652818664908409119e-02
-2.609089314937591553e-01 4.972407594323158264e-03 -1.273448467254638672e-01
-2.301082313060760498e-01 -3.262728825211524963e-02 1.224647909402847290e-01
-1.421769559383392334e-01 5.433917418122291565e-02 -6.308376789093017578e-02
-2.796354293823242188e-01 9.855581074953079224e-02 8.192518725991249084e-03
-2.041311264038085938e-01 -5.950316786766052246e-02 -1.473940908908843994e-03
-2.422535121440887451e-01 7.665000855922698975e-02 -8.852767199277877808e-02
-3.471537232398986816e-01 -8.644227683544158936e-02 3.230250254273414612e-02
-3.296350240707397461e-01 4.400125890970230103e-02 -1.055489033460617065e-01
-3.090127110481262207e-01 -8.781171590089797974e-02 2.012464776635169983e-02
-2.475586235523223877e-01 4.830170050263404846e-02 -1.155353784561157227e-01
-1.198563873767852783e-01 2.421159762889146805e-03 4.045312106609344482e-02
-2.191153913736343384e-01 -2.726069837808609009e-02 -9.500902891159057617e-02
-4.070683717727661133e-01 -7.248017936944961548e-02 1.716885715723037720e-02
-2.089318931102752686e-01 3.864463418722152710e-02 -1.106033846735954285e-01
-1.078909933567047119e-01 3.785360231995582581e-02 -8.650769479572772980e-03
-3.455532491207122803e-01 -8.581347018480300903e-02 -3.505510091781616211e-02
-3.777948617935180664e-01 5.635787919163703918e-02 -8.169359527528285980e-03
-3.614669442176818848e-01 -2.622870355844497681e-02 -1.150979399681091309e-01
-3.680423200130462646e-01 -4.637458175420761108e-02 9.750771522521972656e-02
-3.547112345695495605e-01 -8.785697817802429199e-02 -1.775561273097991943e-02
-2.852720022201538086e-01 -4.528626427054405212e-02 1.200917959213256836e-01
-2.533727884292602539e-01 -2.053167298436164856e-02 1.372813433408737183e-01
-3.182860016822814941e-01 -8.735477179288864136e-02 -2.256641909480094910e-02
-2.090591788291931152e-01 8.466056734323501587e-02 1.020038351416587830e-01
-3.943577408790588379e-01 -7.853072881698608398e-02 1.758267357945442200e-02
-3.690443336963653564e-01 5.327698215842247009e-02 -5.559565499424934387e-02
-4.110438823699951172e-01 -2.905167639255523682e-03 -7.849966734647750854e-02
-2.833413183689117432e-01 7.559891790151596069e-02 -8.300855010747909546e-02
-2.545703649520874023e-01 1.025190204381942749e-01 3.170663863420486450e-02
-3.170513212680816650e-01 -5.959770828485488892e-02 1.020681411027908325e-01
-4.125495851039886475e-01 -4.449939727783203125e-02 -7.373485714197158813e-02
-3.841577470302581787e-01 3.721902891993522644e-02 5.857859924435615540e-02
-1.474163383245468140e-01 6.674003601074218750e-02 1.032849326729774475e-01
-2.124794274568557739e-01 1.068450063467025757e-01 -5.558466538786888123e-03
-3.764426410198211670e-01 1.819406077265739441e-02 9.163532406091690063e-02
-3.696385920047760010e-01 -1.040393207222223282e-02 -1.139459386467933655e-01
-2.686110138893127441e-01 5.433689057826995850e-02 1.276472806930541992e-01
-3.088557422161102295e-01 8.977914601564407349e-02 -4.224578849971294403e-03
-2.956830561161041260e-01 -6.547027081251144409e-02 9.362879395484924316e-02
-2.517037987709045410e-01 2.284651994705200195e-02 1.457352936267852783e-01
-2.571693658828735352e-01 8.104211837053298950e-02 -8.055306226015090942e-02
-2.577008008956909180e-01 -4.328168183565139771e-02 -9.873121976852416992e-02
-2.853704988956451416e-01 3.438994660973548889e-02 1.361211240291595459e-01
-1.718886643648147583e-01 -3.315132111310958862e-02 -3.668503090739250183e-02
-2.421283870935440063e-01 -4.894452542066574097e-02 1.066267415881156921e-01
-2.981441318988800049e-01 9.340323507785797119e-02 6.426455453038215637e-03
-4.288987219333648682e-01 -3.377470001578330994e-02 3.731960058212280273e-02
-2.430819123983383179e-01 -7.043685019016265869e-02 -3.082926943898200989e-02
-1.638191342353820801e-01 1.022101286798715591e-02 -8.061417192220687866e-02
-2.858462631702423096e-01 -7.376307994127273560e-02 -5.941144004464149475e-02
-3.907311856746673584e-01 -8.140896260738372803e-02 3.236161544919013977e-03
-2.056969702243804932e-01 -4.369449615478515625e-02 9.281749278306961060e-02
-4.194806218147277832e-01 1.976264268159866333e-02 -5.266949534416198730e-03
-2.486908286809921265e-01 -6.073115766048431396e-02 8.846488595008850098e-02
-4.295896291732788086e-01 -5.565913021564483643e-02 3.586128354072570801e-03
-4.048256576061248779e-01 -2.464579790830612183e-02 7.656522095203399658e-02
-3.163731396198272705e-01 3.554693888872861862e-03 -1.288509666919708252e-01
-1.604018509387969971e-01 -2.078073471784591675e-02 -4.400415718555450439e-02
-3.366181254386901855e-01 7.695895433425903320e-02 2.729219198226928711e-02
-4.096824228763580322e-01 -7.304942607879638672e-02 2.374342642724514008e-03
-2.355078607797622681e-01 4.444321244955062866e-02 -1.158693656325340271e-01
-2.422815114259719849e-01 1.029060184955596924e-01 4.319990798830986023e-02
-4.171723723411560059e-01 -5.896922945976257324e-02 3.438439965248107910e-02
-3.103498816490173340e-01 -1.299846265465021133e-02 -1.279374361038208008e-01
-3.977805972099304199e-01 1.216545235365629196e-02 -8.375453948974609375e-02
-2.218591421842575073e-01 9.781073033809661865e-02 -4.709868133068084717e-02
-3.946264386177062988e-01 -3.076479211449623108e-02 -9.668389707803726196e-02
-1.862587630748748779e-01 1.352799776941537857e-02 -9.929296374320983887e-02
-2.367303222417831421e-01 5.999375134706497192e-04 -1.201813519001007080e-01
-3.042804002761840820e-01 8.996704965829849243e-02 -2.076798677444458008e-02
-2.485256940126419067e-01 -6.803819537162780762e-02 -4.667153954505920410e-02
-2.233608365058898926e-01 -6.201875209808349609e-02 -3.479368984699249268e-02
-1.796486973762512207e-01 1.950483769178390503e-02 1.329172998666763306e-01
-1.507317423820495605e-01 -2.002009376883506775e-02 7.085324823856353760e-02
-2.154819071292877197e-01 9.655714780092239380e-02 7.732541859149932861e-02
-3.161344826221466064e-01 6.800833344459533691e-02 -8.001586794853210449e-02
-2.718361914157867432e-01 -8.143193274736404419e-02 -1.317882630974054337e-02
-1.924993991851806641e-01 -4.859622940421104431e-02 6.407895684242248535e-02
-3.072341978549957275e-01 -6.366503238677978516e-02 -8.753571659326553345e-02
-1.155411750078201294e-01 7.829327881336212158e-02 1.217215694487094879e-02
-3.259624540805816650e-01 8.092720061540603638e-02 3.260973095893859863e-02
-1.208603382110595703e-01 6.978444755077362061e-02 -2.322264015674591064e-02
-2.198297083377838135e-01 1.116102561354637146e-03 1.415564268827438354e-01
-3.267474174499511719e-01 4.501748457551002502e-02 1.089295446872711182e-01
-3.353632390499114990e-01 7.914882153272628784e-02 -1.113758701831102371e-02
-3.378665447235107422e-01 6.308635324239730835e-02 7.252432405948638916e-02
-3.869355916976928711e-01 -7.490740157663822174e-03 -1.034196764230728149e-01
-3.659047186374664307e-01 6.131952628493309021e-02 2.599170804023742676e-02
-1.426816731691360474e-01 9.143556654453277588e-02 5.923946946859359741e-02
-1.467648297548294067e-01 7.052265573292970657e-03 1.042665913701057434e-01
-3.897807300090789795e-01 -5.673687905073165894e-02 7.235156744718551636e-02
-3.533385396003723145e-01 6.485749781131744385e-02 4.373055696487426758e-02
-1.514758467674255371e-01 9.698646515607833862e-02 5.057637393474578857e-02
-3.609144091606140137e-01 -8.692386001348495483e-02 1.858388260006904602e-02
-2.455616593360900879e-01 9.228470921516418457e-02 7.993967831134796143e-02
-1.676537245512008667e-01 3.335425257682800293e-02 1.281619966030120850e-01
-1.059460788965225220e-01 5.806528031826019287e-02 4.941801726818084717e-02
-3.392293453216552734e-01 6.941104680299758911e-02 5.446641519665718079e-02
-2.578332126140594482e-01 3.938628733158111572e-02 -1.211518645286560059e-01
-4.297842085361480713e-01 4.298585001379251480e-03 -1.947663724422454834e-02
-1.489969491958618164e-01 8.768136799335479736e-02 7.595237344503402710e-02
-3.530165553092956543e-01 7.098422199487686157e-02 -1.114201731979846954e-03
-2.378271520137786865e-01 6.068627163767814636e-02 -1.056396514177322388e-01
-2.763656973838806152e-01 9.635274857282638550e-02 -2.814750000834465027e-02
-3.551575541496276855e-01 4.682212322950363159e-02 8.207506686449050903e-02
-2.230966240167617798e-01 -1.183681096881628036e-02 1.365991830825805664e-01
-3.863966763019561768e-01 5.011501908302307129e-02 4.403752740472555161e-03
-1.123548299074172974e-01 4.802465811371803284e-02 7.283352315425872803e-02
-3.172644972801208496e-01 -8.903370052576065063e-02 6.800341885536909103e-03
-1.118261963129043579e-01 1.643566414713859558e-02 4.742713645100593567e-03
-3.499996662139892578e-01 4.733110591769218445e-02 -8.901616185903549194e-02
-3.133789300918579102e-01 1.793137937784194946e-02 -1.266509294509887695e-01
-2.661198675632476807e-01 -7.777265459299087524e-02 4.735753685235977173e-02
-4.121489226818084717e-01 -4.085058346390724182e-02 6.216510385274887085e-02
-2.025990784168243408e-01 1.030048727989196777e-01 -2.705257385969161987e-02
-3.914816975593566895e-01 2.532219141721725464e-02 6.588222086429595947e-02
-1.561401784420013428e-01 1.407472137361764908e-02 1.170963346958160400e-01
-1.508838832378387451e-01 -2.841775864362716675e-02 3.524342924356460571e-02
-1.250806003808975220e-01 8.178433775901794434e-02 -9.411475621163845062e-03
-1.637282371520996094e-01 -2.063651569187641144e-03 -7.225783169269561768e-02
-1.724574863910675049e-01 8.182502537965774536e-02 -6.258015334606170654e-02
-1.983314603567123413e-01 5.849264189600944519e-02 -9.751523286104202271e-02
-2.179908752441406250e-01 -5.053851008415222168e-02 -6.005097553133964539e-02
-1.978551447391510010e-01 -5.726572126150131226e-02 9.401049464941024780e-03
-4.132592976093292236e-01 2.112273871898651123e-02 -4.273069277405738831e-02
-2.891828715801239014e-01 6.548927724361419678e-02 -9.640505909919738770e-02
-3.673919141292572021e-01 -5.473379045724868774e-02 -9.470120072364807129e-02
-2.109795510768890381e-01 2.352502755820751190e-02 1.430406272411346436e-01
-3.837689161300659180e-01 -4.485119134187698364e-02 8.804117888212203979e-02
-2.672120630741119385e-01 -7.317840307950973511e-02 6.674435734748840332e-02
-3.390603363513946533e-01 7.267332077026367188e-02 -4.343369230628013611e-02
-3.155740499496459961e-01 8.430386334657669067e-02 -3.294647485017776489e-02
-1.941792964935302734e-01 -4.372883588075637817e-02 -4.636842384934425354e-02
-1.202416121959686279e-01 8.370263129472732544e-02 2.288411185145378113e-02
-1.028305888175964355e-01 3.669203072786331177e-02 2.173914760351181030e-02
-4.010656476020812988e-01 -9.356544353067874908e-03 -9.225150197744369507e-02
-2.720710337162017822e-01 8.128612488508224487e-02 -7.647898048162460327e-02
-1.959605813026428223e-01 -4.554989933967590332e-02 7.846167683601379395e-02
-2.740275859832763672e-01 9.862276166677474976e-02 2.984569594264030457e-02
-4.327625632286071777e-01 -2.903907746076583862e-02 -4.823311418294906616e-02
-2.192541062831878662e-01 8.391778171062469482e-02 -7.628902047872543335e-02
-1.688435375690460205e-01 3.979792352765798569e-03 1.209822595119476318e-01
-3.928955197334289551e-01 -4.293543472886085510e-02 -9.194725751876831055e-02
-3.391832113265991211e-01 -8.940877765417098999e-02 8.859124034643173218e-03
-1.238071173429489136e-01 4.451163113117218018e-02 -4.316781461238861084e-02
-2.687919437885284424e-01 2.605592459440231323e-02 1.431549638509750366e-01
-3.137538135051727295e-01 -3.059735894203186035e-02 -1.209790408611297607e-01
-4.081723690032958984e-01 -5.239945277571678162e-02 5.769515410065650940e-02
-3.097360432147979736e-01 7.349939644336700439e-02 7.975991815328598022e-02
-3.116018772125244141e-01 5.005840957164764404e-02 1.132971346378326416e-01
-2.987645268440246582e-01 -7.106231898069381714e-02 8.309169858694076538e-02
-2.200078219175338745e-01 1.074670106172561646e-01 6.952540948987007141e-03
-1.780596673488616943e-01 3.764867410063743591e-02 -9.574373811483383179e-02
-1.925663501024246216e-01 9.662739187479019165e-02 7.673402875661849976e-02
-4.074674248695373535e-01 3.141204267740249634e-02 1.097873505204916000e-02
-2.677527070045471191e-01 -1.480079162865877151e-02 -1.234249025583267212e-01
-4.081304967403411865e-01 1.066375337541103363e-02 -7.139243930578231812e-02
-2.936177849769592285e-01 -8.515726029872894287e-02 -1.738140732049942017e-02
-4.255490899085998535e-01 -6.074444204568862915e-02 -1.927162334322929382e-02
-3.813000321388244629e-01 4.947050288319587708e-02 -4.168903827667236328e-02
-1.755366474390029907e-01 7.233300805091857910e-02 -7.566013187170028687e-02
-2.514721453189849854e-01 9.497844427824020386e-02 6.957819312810897827e-02
-1.431573182344436646e-01 -1.919461786746978760e-02 -8.055233396589756012e-03
-4.179540574550628662e-01 -4.903612658381462097e-02 4.710952565073966980e-02
-3.111483454704284668e-01 8.739832788705825806e-02 2.894168719649314880e-02
-3.673838078975677490e-01 8.280384354293346405e-03 1.055938303470611572e-01
-2.998414933681488037e-01 -7.755543291568756104e-02 -5.574090406298637390e-02
-2.246980369091033936e-01 5.311573669314384460e-02 -1.089242920279502869e-01
-4.341593086719512939e-01 -4.458715766668319702e-02 1.231064368039369583e-02
-2.531919181346893311e-01 -5.753853358328342438e-03 1.437911987304687500e-01
-3.383879661560058594e-01 -5.375775694847106934e-02 1.041683927178382874e-01
-2.930152416229248047e-01 -7.994691282510757446e-02 5.711797252297401428e-02
-1.294066756963729858e-01 2.186578884720802307e-02 -4.602156952023506165e-02
-4.015538096427917480e-01 9.177240543067455292e-03 6.875851005315780640e-02
-1.787475347518920898e-01 9.242052584886550903e-02 8.323959261178970337e-02
-3.933843076229095459e-01 -7.685814052820205688e-02 -3.734876587986946106e-02
-2.526005506515502930e-01 -5.603065341711044312e-02 9.944453090429306030e-02
-1.759548783302307129e-01 -3.951753675937652588e-02 -2.603947371244430542e-02
-2.863233089447021484e-01 -8.535128831863403320e-02 2.252581063657999039e-03
-3.577992916107177734e-01 6.756003946065902710e-02 -1.966103911399841309e-02
-2.343915700912475586e-01 4.137931764125823975e-02 1.408869177103042603e-01
-3.243367075920104980e-01 -6.586029380559921265e-02 -8.630530536174774170e-02
-4.181949496269226074e-01 -8.524234406650066376e-03 5.489909648895263672e-02
-3.694726824760437012e-01 -3.310838341712951660e-02 1.044066250324249268e-01
-3.877504169940948486e-01 -2.910405769944190979e-02 9.248962253332138062e-02
-1.484820544719696045e-01 8.087174594402313232e-02 8.778485655784606934e-02
-3.576558232307434082e-01 -8.506565541028976440e-02 -3.475978597998619080e-02
-1.395253837108612061e-01 1.650300808250904083e-02 -5.736250802874565125e-02
-3.831729292869567871e-01 4.308168217539787292e-02 -5.726060643792152405e-02
-3.257738947868347168e-01 7.504985481500625610e-02 -5.475302413105964661e-02
-2.715201377868652344e-01 -4.884990677237510681e-02 1.149501129984855652e-01
-2.886483371257781982e-01 -6.212139874696731567e-02 -8.499434590339660645e-02
-3.214160203933715820e-01 -7.281437516212463379e-02 7.973465323448181152e-02
-2.574118673801422119e-01 6.282353401184082031e-02 1.227921769022941589e-01
-2.511582672595977783e-01 1.034123897552490234e-01 -9.802638553082942963e-03
-1.809741258621215820e-01 3.736781701445579529e-02 1.334868073463439941e-01
-2.207378745079040527e-01 8.251584321260452271e-02 1.048554107546806335e-01
-1.414567381143569946e-01 -2.026939019560813904e-02 3.993592411279678345e-02
-2.875639498233795166e-01 -8.545758575201034546e-02 1.528834458440542221e-02
-1.790543496608734131e-01 6.324154138565063477e-02 1.213043779134750366e-01
-2.547265887260437012e-01 -7.768496125936508179e-02 2.844966575503349304e-02
-1.892144531011581421e-01 9.404344111680984497e-02 -4.938769340515136719e-02
-2.871467471122741699e-01 9.617926925420761108e-02 -7.743389345705509186e-03
-1.920196115970611572e-01 8.101651817560195923e-02 -7.329956442117691040e-02
-2.543292343616485596e-01 4.082379117608070374e-02 1.395959556102752686e-01
-1.618015468120574951e-01 6.074286252260208130e-02 -7.636361569166183472e-02
-2.421839982271194458e-01 8.655150234699249268e-02 9.375497698783874512e-02
-1.305588185787200928e-01 6.075025070458650589e-03 8.122789859771728516e-02
-2.855121195316314697e-01 4.658741503953933716e-02 1.284420192241668701e-01
-3.131957948207855225e-01 -8.221928030252456665e-02 -4.587787017226219177e-02
-3.314619064331054688e-01 -1.347472984343767166e-02 1.288036108016967773e-01
-4.211872220039367676e-01 1.095955353230237961e-02 2.522027119994163513e-02
-2.625933885574340820e-01 -6.761636584997177124e-02 -6.034324690699577332e-02
-3.932561874389648438e-01 -6.708528101444244385e-02 5.383876711130142212e-02
-1.708974540233612061e-01 9.261812269687652588e-02 -4.245043918490409851e-02
-1.991308629512786865e-01 6.945689767599105835e-02 -8.909125626087188721e-02
-2.902067005634307861e-01 6.238798797130584717e-02 1.109913587570190430e-01
-1.551924049854278564e-01 9.795046597719192505e-02 -1.075897458940744400e-02
-1.694380939006805420e-01 5.388630554080009460e-02 -8.534741401672363281e-02
-3.712188005447387695e-01 -7.912619411945343018e-02 -5.040797591209411621e-02
-2.813500761985778809e-01 8.686729520559310913e-02 -5.963802710175514221e-02
-1.262173354625701904e-01 8.335629850625991821e-02 5.505734309554100037e-02
-2.363199293613433838e-01 -7.150275260210037231e-02 3.641889616847038269e-02
-1.810057759284973145e-01 -4.569693282246589661e-02 -1.327562984079122543e-02
-2.738663554191589355e-01 -1.971166953444480896e-02 1.385822892189025879e-01
-1.079630404710769653e-01 6.776561588048934937e-02 3.862038627266883850e-02
-1.791124045848846436e-01 1.041364818811416626e-01 4.362762719392776489e-02
-3.465467095375061035e-01 4.688142612576484680e-02 9.083304554224014282e-02
-4.264075756072998047e-01 9.748515672981739044e-03 1.180076040327548981e-03
-3.065319359302520752e-01 -2.605697885155677795e-02 1.321210712194442749e-01
-1.692302525043487549e-01 9.549556672573089600e-02 7.163850963115692139e-02
-3.381609618663787842e-01 -8.931127190589904785e-02 -8.521788753569126129e-03
-4.350872039794921875e-01 -2.389164268970489502e-02 2.127050049602985382e-02
-2.374443411827087402e-01 -5.814568698406219482e-02 -6.223991140723228455e-02
-4.131064414978027344e-01 4.698613192886114120e-03 5.409102886915206909e-02
-4.113619625568389893e-01 -6.890949606895446777e-02 -3.475182875990867615e-02
-2.349899113178253174e-01 -6.877127289772033691e-02 5.098749697208404541e-02
-2.956982851028442383e-01 -5.527918040752410889e-02 -9.704887121915817261e-02
-2.449652105569839478e-01 9.807348996400833130e-02 -4.264310374855995178e-02
-1.739062368869781494e-01 -3.622493520379066467e-02 7.103097438812255859e-02
-1.237656772136688232e-01 8.429566025733947754e-02 3.122005611658096313e-03
-3.221584856510162354e-01 7.044244557619094849e-02 7.413844019174575806e-02
-2.136780172586441040e-01 1.074193641543388367e-01 2.567808702588081360e-02
-1.974909901618957520e-01 8.658091723918914795e-02 9.824369847774505615e-02
-2.801415622234344482e-01 9.179401397705078125e-02 5.761636793613433838e-02
-3.312578201293945312e-01 1.104537956416606903e-02 -1.247084289789199829e-01
-1.218684911727905273e-01 4.536182619631290436e-03 5.770351365208625793e-02
-1.745838522911071777e-01 -4.491418227553367615e-02 1.436304114758968353e-02
-3.374650478363037109e-01 2.748379856348037720e-02 1.164041757583618164e-01
-1.482598781585693359e-01 -1.548008061945438385e-03 -5.383399873971939087e-02
-2.167565822601318359e-01 1.002979744225740433e-02 -1.147544458508491516e-01
-3.675982058048248291e-01 3.111461549997329712e-02 8.887112140655517578e-02
-1.558042466640472412e-01 5.839421972632408142e-02 1.144663542509078979e-01
-3.784991204738616943e-01 -2.778979763388633728e-02 -1.073700115084648132e-01
-2.102098762989044189e-01 -4.233134165406227112e-02 -6.813193857669830322e-02
-1.167712360620498657e-01 5.360449664294719696e-03 2.286587655544281006e-02
-1.179754137992858887e-01 2.489706128835678101e-02 -2.693261206150054932e-02
-3.611930310726165771e-01 6.600580364465713501e-02 1.121769845485687256e-02
-2.107741683721542358e-01 -1.257687527686357498e-02 -1.020335853099822998e-01
-1.775263547897338867e-01 1.059044748544692993e-01 1.596787199378013611e-02
-2.595723867416381836e-01 9.806694090366363525e-02 5.251935124397277832e-02
-2.312442809343338013e-01 1.003037616610527039e-01 6.170896813273429871e-02
-2.204658985137939453e-01 1.051936820149421692e-01 -1.721001788973808289e-02
-1.952637434005737305e-01 1.055870875716209412e-01 -1.112103555351495743e-02
-2.233603894710540771e-01 1.031989082694053650e-01 5.272445082664489746e-02
-3.643921613693237305e-01 5.373714119195938110e-02 5.629225820302963257e-02
-3.933224678039550781e-01 5.966973491013050079e-03 8.181253075599670410e-02
-6.254975795745849609e-01 1.499963849782943726e-01 9.755323082208633423e-02
-7.570983767509460449e-01 1.904428303241729736e-01 9.131008386611938477e-02
-5.909224152565002441e-01 1.408548802137374878e-01 6.425675004720687866e-02
-6.851317882537841797e-01 1.624611318111419678e-01 -1.073777824640274048e-01
-7.329164743423461914e-01 1.839937865734100342e-01 -1.250607371330261230e-01
-7.188979387283325195e-01 2.626411318778991699e-01 -1.103200912475585938e-01
-7.907148003578186035e-01 2.656966447830200195e-01 4.779963567852973938e-02
-7.352474927902221680e-01 1.811589300632476807e-01 -1.115956082940101624e-01
-6.452333331108093262e-01 2.644769549369812012e-01 -3.587270155549049377e-02
-5.291587114334106445e-01 2.216386497020721436e-01 7.328269630670547485e-02
-7.062533497810363770e-01 2.605082690715789795e-01 1.203757300972938538e-01
-5.541669130325317383e-01 1.499414592981338501e-01 1.113383397459983826e-01
-8.135981559753417969e-01 2.361682206392288208e-01 -7.208161056041717529e-02
-8.012817502021789551e-01 2.129950672388076782e-01 5.629393085837364197e-02
-5.885819792747497559e-01 1.376772820949554443e-01 3.237342461943626404e-02
-7.301384210586547852e-01 2.755029201507568359e-01 -7.303912658244371414e-03
-6.612580418586730957e-01 1.478259712457656860e-01 -3.230633214116096497e-02
-6.525581479072570801e-01 2.671925425529479980e-01 1.655212976038455963e-02
-7.172968983650207520e-01 1.663739234209060669e-01 -6.843455880880355835e-02
-7.022532224655151367e-01 1.602765917778015137e-01 4.287469387054443359e-02
-7.475814223289489746e-01 2.741177678108215332e-01 -3.442716225981712341e-02
-6.394214034080505371e-01 2.645650207996368408e-01 1.608098112046718597e-02
-7.665095329284667969e-01 1.907175779342651367e-01 6.975305825471878052e-02
-7.706415653228759766e-01 2.732374072074890137e-01 -1.223412062972784042e-02
-5.451827645301818848e-01 2.329582273960113525e-01 4.699018225073814392e-02
-7.979559302330017090e-01 2.252818942070007324e-01 9.087102860212326050e-02
-6.870692372322082520e-01 2.246379554271697998e-01 -1.848611980676651001e-01
-7.276800870895385742e-01 2.552280724048614502e-01 -1.337341666221618652e-01
-5.983595848083496094e-01 2.332718074321746826e-01 1.457828283309936523e-01
-6.467587947845458984e-01 1.540240645408630371e-01 9.925395250320434570e-02
-6.075929999351501465e-01 1.799890995025634766e-01 1.778796613216400146e-01
-5.803537964820861816e-01 1.722783148288726807e-01 1.656013280153274536e-01
-5.854701399803161621e-01 2.108582109212875366e-01 -1.676484793424606323e-01
-7.837127447128295898e-01 2.099543511867523193e-01 -1.081602498888969421e-01
-6.213262081146240234e-01 1.725393086671829224e-01 1.665917187929153442e-01
-7.129977941513061523e-01 2.724127471446990967e-01 5.524549633264541626e-02
-5.847506523132324219e-01 2.222754359245300293e-01 -1.495984494686126709e-01
-7.062137126922607422e-01 1.661686003208160400e-01 7.918897271156311035e-02
-6.502400040626525879e-01 1.751561462879180908e-01 1.627498865127563477e-01
-5.812113285064697266e-01 2.486717402935028076e-01 8.605808950960636139e-03
-4.933546781539916992e-01 2.037356495857238770e-01 1.133371889591217041e-02
-5.259197950363159180e-01 1.456148922443389893e-01 7.845326513051986694e-02
-6.789662241935729980e-01 1.641757488250732422e-01 -1.222618892788887024e-01
-5.310620069503784180e-01 1.557503640651702881e-01 -1.147547438740730286e-01
-7.629106044769287109e-01 2.718624472618103027e-01 4.691977798938751221e-02
-6.063414812088012695e-01 1.685310602188110352e-01 -1.650381833314895630e-01
-7.261386513710021973e-01 1.708183735609054565e-01 6.278222799301147461e-02
-6.219345927238464355e-01 2.029658108949661255e-01 1.905750483274459839e-01
-6.794440746307373047e-01 1.531349271535873413e-01 3.541728109121322632e-02
-6.698022484779357910e-01 2.671192288398742676e-01 -5.661509931087493896e-02
-5.259485244750976562e-01 1.378774046897888184e-01 -5.041446536779403687e-03
-7.464689612388610840e-01 2.750115096569061279e-01 2.127235941588878632e-02
-5.480027794837951660e-01 1.359573900699615479e-01 7.708485238254070282e-03
-5.377994775772094727e-01 2.311298549175262451e-01 -3.838663105852901936e-04
-6.497468352317810059e-01 1.695238500833511353e-01 -1.584681570529937744e-01
-5.027961134910583496e-01 2.050634175539016724e-01 6.759002804756164551e-02
-7.955023646354675293e-01 2.039535939693450928e-01 3.625828772783279419e-02
-5.160741209983825684e-01 2.075856477022171021e-01 9.668430685997009277e-02
-6.381001472473144531e-01 2.501824796199798584e-01 1.273917108774185181e-01
-5.189306735992431641e-01 1.429991722106933594e-01 -5.582216382026672363e-02
-5.906960368156433105e-01 2.478601634502410889e-01 7.218270003795623779e-02
-6.495765447616577148e-01 2.524007856845855713e-01 -1.202205717563629150e-01
-7.741194963455200195e-01 1.900343596935272217e-01 3.751774504780769348e-02
-7.914202809333801270e-01 2.529563605785369873e-01 9.093876183032989502e-02
-5.982491970062255859e-01 1.420332342386245728e-01 -7.649165391921997070e-02
-5.181522369384765625e-01 1.509066522121429443e-01 9.150921553373336792e-02
-6.408470273017883301e-01 2.642267942428588867e-01 3.505207970738410950e-02
-7.074471712112426758e-01 2.735479772090911865e-01 -3.118232451379299164e-02
-5.001794695854187012e-01 2.034952342510223389e-01 -5.150193721055984497e-02
-7.045429944992065430e-01 2.046217024326324463e-01 1.751361042261123657e-01
-5.152755975723266602e-01 2.160916626453399658e-01 5.554611608386039734e-02
-4.893688559532165527e-01 1.490949392318725586e-01 -1.523925736546516418e-02
-6.245710849761962891e-01 1.430228054523468018e-01 -5.968439206480979919e-02
-5.318784117698669434e-01 1.405568867921829224e-01 5.418811738491058350e-02
-6.575871706008911133e-01 2.612159848213195801e-01 9.366582334041595459e-02
-6.497676968574523926e-01 1.560142934322357178e-01 -1.160529926419258118e-01
-6.391023993492126465e-01 2.377745509147644043e-01 -1.563522517681121826e-01
-5.292372107505798340e-01 2.212368994951248169e-01 -6.223132461309432983e-02
-6.351584792137145996e-01 2.635965347290039062e-01 -7.195281796157360077e-03
-8.030358552932739258e-01 2.492543458938598633e-01 7.761157304048538208e-02
-7.351595163345336914e-01 2.711005806922912598e-01 6.886363029479980469e-02
-8.089868426322937012e-01 2.130072265863418579e-01 1.384704001247882843e-02
-7.326804995536804199e-01 2.622218430042266846e-01 -1.112461462616920471e-01
-5.208328366279602051e-01 1.677602082490921021e-01 -1.235928088426589966e-01
-7.033295631408691406e-01 2.739031910896301270e-01 -1.683191396296024323e-02
-6.570899486541748047e-01 1.484209597110748291e-01 4.335121065378189087e-02
-7.824277281761169434e-01 2.679672837257385254e-01 -5.200527235865592957e-02
-7.409265637397766113e-01 2.451697289943695068e-01 1.476358920335769653e-01
-4.940791130065917969e-01 1.466519087553024292e-01 1.793338172137737274e-02
-7.900716662406921387e-01 2.594803273677825928e-01 7.647179067134857178e-02
-6.757392883300781250e-01 2.338569015264511108e-01 1.765126734972000122e-01
-7.004182934761047363e-01 2.694443166255950928e-01 -6.846992671489715576e-02
-6.838437318801879883e-01 1.582280993461608887e-01 7.209850847721099854e-02
-7.466892004013061523e-01 2.284019142389297485e-01 1.560490429401397705e-01
-7.836583852767944336e-01 2.054940164089202881e-01 8.307550847530364990e-02
-5.492452383041381836e-01 2.099942266941070557e-01 1.444825083017349243e-01
-6.408860087394714355e-01 1.450204104185104370e-01 4.127795994281768799e-02
-6.252349615097045898e-01 1.642376929521560669e-01 1.481835097074508667e-01
-7.569505572319030762e-01 2.028594464063644409e-01 1.252075731754302979e-01
-6.608644723892211914e-01 2.549378573894500732e-01 1.254028081893920898e-01
-7.808941602706909180e-01 2.472683638334274292e-01 -1.197990924119949341e-01
-6.778413653373718262e-01 1.512796729803085327e-01 -1.585217192769050598e-02
-8.153392076492309570e-01 2.249986380338668823e-01 -5.133401602506637573e-02
-6.579256057739257812e-01 1.486068964004516602e-01 -5.577674508094787598e-02
-5.034751892089843750e-01 1.540459841489791870e-01 8.250477910041809082e-02
-5.082545280456542969e-01 1.416358202695846558e-01 -1.412157993763685226e-02
-7.986201047897338867e-01 2.422917485237121582e-01 -1.022115051746368408e-01
-6.525116562843322754e-01 1.855860501527786255e-01 -1.833856105804443359e-01
-5.342296361923217773e-01 1.373130679130554199e-01 -2.157779410481452942e-02
-6.890555620193481445e-01 1.551947593688964844e-01 -4.128347337245941162e-02
-7.377344965934753418e-01 2.746200561523437500e-01 3.345132619142532349e-02
-7.193520069122314453e-01 2.645291090011596680e-01 1.052838638424873352e-01
-7.856023311614990234e-01 1.946278959512710571e-01 -2.531455457210540771e-02
-5.672605633735656738e-01 1.449279189109802246e-01 9.377559274435043335e-02
-5.821593999862670898e-01 2.314971387386322021e-01 1.340879797935485840e-01
-5.213807821273803711e-01 2.220674306154251099e-01 3.055864013731479645e-02
-6.022942066192626953e-01 1.623374223709106445e-01 -1.532657593488693237e-01
-6.484128832817077637e-01 2.663387060165405273e-01 -9.196300990879535675e-03
-5.120374560356140137e-01 1.782599985599517822e-01 -1.174985542893409729e-01
-6.374766230583190918e-01 2.462527304887771606e-01 1.400794237852096558e-01
-4.851778745651245117e-01 1.942024081945419312e-01 3.460384160280227661e-02
-8.189269900321960449e-01 2.485674917697906494e-01 3.203091770410537720e-02
-4.873905777931213379e-01 1.893014311790466309e-01 -5.377264320850372314e-02
-5.718850493431091309e-01 1.393540203571319580e-01 -6.499261409044265747e-02
-6.808722615242004395e-01 1.735275536775588989e-01 -1.502658575773239136e-01
-4.957690536975860596e-01 1.489126086235046387e-01 4.597010463476181030e-02
-5.301325917243957520e-01 1.421540379524230957e-01 -6.464029848575592041e-02
-8.121771812438964844e-01 2.153062969446182251e-01 -8.488540537655353546e-03
-6.837712526321411133e-01 2.607400119304656982e-01 1.138914525508880615e-01
-5.208061933517456055e-01 1.602198481559753418e-01 1.172046214342117310e-01
-5.258935689926147461e-01 1.394799649715423584e-01 -3.768479824066162109e-02
-6.912605762481689453e-01 2.028321623802185059e-01 -1.861939281225204468e-01
-6.596465706825256348e-01 2.651064097881317139e-01 6.843693554401397705e-02
-6.720585227012634277e-01 2.679720222949981689e-01 5.966239050030708313e-02
-5.004490613937377930e-01 2.090384066104888916e-01 -7.582863792777061462e-03
-5.615174770355224609e-01 1.380251348018646240e-01 -5.288770794868469238e-02
-5.712108612060546875e-01 2.426715940237045288e-01 -4.467864334583282471e-02
-7.505120635032653809e-01 1.792522668838500977e-01 4.871525987982749939e-02
-4.892551600933074951e-01 1.990982592105865479e-01 -1.591123826801776886e-02
-8.234317898750305176e-01 2.454181164503097534e-01 -1.610460318624973297e-02
-6.792637705802917480e-01 1.538180708885192871e-01 -5.804346129298210144e-02
-7.939524054527282715e-01 2.324311137199401855e-01 -1.133435443043708801e-01
-6.311088800430297852e-01 2.179875820875167847e-01 1.863120645284652710e-01
-5.902540087699890137e-01 1.366428434848785400e-01 -2.896424848586320877e-03
-7.034848332405090332e-01 1.711847037076950073e-01 1.080592125654220581e-01
-5.083537101745605469e-01 1.904503852128982544e-01 -1.043079048395156860e-01
-5.515544414520263672e-01 1.570755541324615479e-01 1.305380016565322876e-01
-6.397376060485839844e-01 2.549214065074920654e-01 -1.001455038785934448e-01
-7.715741395950317383e-01 2.678356468677520752e-01 6.565303355455398560e-02
-6.768414378166198730e-01 1.966883242130279541e-01 1.816571354866027832e-01
-6.995862722396850586e-01 2.463821023702621460e-01 -1.556752920150756836e-01
-6.035790443420410156e-01 2.180612981319427490e-01 -1.705745309591293335e-01
-6.398470401763916016e-01 1.580625772476196289e-01 1.221566498279571533e-01
-5.996929407119750977e-01 1.399833858013153076e-01 4.972407966852188110e-02
-6.617754697799682617e-01 1.601402461528778076e-01 1.122827976942062378e-01
-6.916875243186950684e-01 1.611172258853912354e-01 -8.974702656269073486e-02
-7.658771872520446777e-01 2.120251208543777466e-01 -1.391791850328445435e-01
-6.684985160827636719e-01 1.557239145040512085e-01 8.196379244327545166e-02
-7.701727151870727539e-01 1.960269510746002197e-01 8.324310928583145142e-02
-6.423154473304748535e-01 1.764755100011825562e-01 -1.738393157720565796e-01
-6.908919215202331543e-01 1.900295168161392212e-01 1.669078767299652100e-01
-5.752912759780883789e-01 1.494628489017486572e-01 -1.170314252376556396e-01
-7.698006033897399902e-01 2.507574260234832764e-01 1.196001023054122925e-01
-7.496441006660461426e-01 2.723056674003601074e-01 5.424987524747848511e-02
-6.966722607612609863e-01 2.619875967502593994e-01 -1.084742620587348938e-01
-5.539796352386474609e-01 1.463280916213989258e-01 9.768693894147872925e-02
-4.805344641208648682e-01 1.846807152032852173e-01 -3.604556247591972351e-02
-6.498621702194213867e-01 1.604901552200317383e-01 -1.332879662513732910e-01
-8.199540376663208008e-01 2.255810648202896118e-01 -2.979405224323272705e-03
-7.069764137268066406e-01 1.653560698032379150e-01 -8.663887530565261841e-02
-6.734071373939514160e-01 1.803724318742752075e-01 1.611051410436630249e-01
-5.445815920829772949e-01 2.339053452014923096e-01 -1.331194490194320679e-02
-6.014814376831054688e-01 2.534829676151275635e-01 -3.667041286826133728e-02
-5.518650412559509277e-01 2.312056720256805420e-01 8.411254733800888062e-02
-5.833946466445922852e-01 1.581404209136962891e-01 1.396439820528030396e-01
-6.025543212890625000e-01 2.405361533164978027e-01 1.282971501350402832e-01
-4.833469390869140625e-01 1.937154084444046021e-01 -4.545514937490224838e-03
-5.189737081527709961e-01 1.512086093425750732e-01 -9.156786650419235229e-02
-8.097882866859436035e-01 2.195484936237335205e-01 4.582965001463890076e-02
-7.718121409416198730e-01 1.962973326444625854e-01 -9.513505548238754272e-02
-6.234135031700134277e-01 2.507170438766479492e-01 1.110916137695312500e-01
-7.165675163269042969e-01 2.749709784984588623e-01 1.594607345759868622e-02
-8.119663596153259277e-01 2.483102977275848389e-01 5.802198871970176697e-02
-7.988300919532775879e-01 2.034174352884292603e-01 -1.347944233566522598e-02
-7.791860103607177734e-01 1.915886998176574707e-01 2.298677340149879456e-02
-6.653472185134887695e-01 1.733953207731246948e-01 -1.596756577491760254e-01
-8.040454983711242676e-01 2.077111005783081055e-01 7.037706091068685055e-04
-8.055402636528015137e-01 2.638228535652160645e-01 -6.645792629569768906e-03
-7.201493382453918457e-01 2.330179214477539062e-01 -1.721119731664657593e-01
-6.016276478767395020e-01 1.688119471073150635e-01 1.621768623590469360e-01
-7.495590448379516602e-01 1.760091781616210938e-01 -3.111813776195049286e-02
-5.753384828567504883e-01 1.983615905046463013e-01 1.758941113948822021e-01
-5.663424134254455566e-01 1.366307437419891357e-01 3.063879348337650299e-02
-5.938407182693481445e-01 2.527711391448974609e-01 8.394308388233184814e-03
-7.085834741592407227e-01 1.600531637668609619e-01 -9.738447144627571106e-03
-5.799066424369812012e-01 2.360307276248931885e-01 -1.046072095632553101e-01
-5.245368480682373047e-01 2.100211679935455322e-01 1.077346354722976685e-01
-5.297066569328308105e-01 1.998851746320724487e-01 -1.255952268838882446e-01
-7.118695974349975586e-01 2.650009691715240479e-01 -9.923179447650909424e-02
-6.350600123405456543e-01 1.687816977500915527e-01 -1.619079411029815674e-01
-8.090807199478149414e-01 2.354692667722702026e-01 7.280723750591278076e-02
-7.013142704963684082e-01 1.579176932573318481e-01 5.564964376389980316e-03
-5.277244448661804199e-01 2.171926647424697876e-01 9.079466015100479126e-02
-7.124784588813781738e-01 2.555802464485168457e-01 -1.337901949882507324e-01
-6.743022799491882324e-01 2.558180391788482666e-01 1.288548856973648071e-01
-7.273737192153930664e-01 1.666117906570434570e-01 1.069022109732031822e-03
-5.880821347236633301e-01 2.066682279109954834e-01 1.785429567098617554e-01
-7.383048534393310547e-01 2.657091617584228516e-01 -9.617137163877487183e-02
-5.903602838516235352e-01 2.408750653266906738e-01 1.115271523594856262e-01
-5.195344686508178711e-01 1.942317038774490356e-01 1.278312355279922485e-01
-7.281365394592285156e-01 2.245718389749526978e-01 1.685891598463058472e-01
-5.232549309730529785e-01 1.667881160974502563e-01 1.293666064739227295e-01
-7.499045729637145996e-01 2.676213383674621582e-01 8.394411206245422363e-02
-6.106904745101928711e-01 2.492957711219787598e-01 -9.077178686857223511e-02
-6.026204228401184082e-01 2.502591609954833984e-01 8.180861920118331909e-02
-5.414602160453796387e-01 2.317102402448654175e-01 -2.666216343641281128e-02
-5.638530254364013672e-01 1.421168297529220581e-01 -8.310061693191528320e-02
-6.121577620506286621e-01 1.525902748107910156e-01 -1.239305436611175537e-01
-5.415690541267395020e-01 2.297869920730590820e-01 -4.743714258074760437e-02
-5.132267475128173828e-01 2.095010131597518921e-01 -6.988266855478286743e-02
-7.782183289527893066e-01 2.242254316806793213e-01 1.230680122971534729e-01
-7.810767292976379395e-01 1.914909482002258301e-01 -1.069804280996322632e-02
-7.931664586067199707e-01 2.346441000699996948e-01 1.045475825667381287e-01
-7.636750936508178711e-01 2.426808178424835205e-01 1.352960318326950073e-01
-6.949677467346191406e-01 2.706012129783630371e-01 6.050505489110946655e-02
-6.563823223114013672e-01 2.659197151660919189e-01 -4.529059305787086487e-02
-7.295223474502563477e-01 1.703249514102935791e-01 4.825381562113761902e-02
-6.846345067024230957e-01 2.543111443519592285e-01 1.370012164115905762e-01
-5.399692058563232422e-01 1.754589825868606567e-01 1.507938057184219360e-01
-6.891002655029296875e-01 1.585333794355392456e-01 -7.697390764951705933e-02
-7.719874978065490723e-01 1.865194588899612427e-01 3.614675719290971756e-03
-6.371464729309082031e-01 2.635832130908966064e-01 -2.118906006217002869e-02
-7.304285764694213867e-01 2.081048041582107544e-01 1.605668216943740845e-01
-6.431586146354675293e-01 1.465011835098266602e-01 -6.436935067176818848e-02
-6.426386833190917969e-01 2.234947085380554199e-01 -1.812090575695037842e-01
-4.922605752944946289e-01 1.999301463365554810e-01 4.575634747743606567e-02
-6.640347838401794434e-01 1.517018377780914307e-01 6.062332540750503540e-02
-6.489933729171752930e-01 2.315163910388946533e-01 1.760986596345901489e-01
-7.465928196907043457e-01 2.749570012092590332e-01 -2.040497213602066040e-02
-4.847160577774047852e-01 1.513925194740295410e-01 -1.380995381623506546e-03
-8.041604161262512207e-01 2.590472400188446045e-01 -5.611670017242431641e-02
-7.166435718536376953e-01 1.904245465993881226e-01 1.476722508668899536e-01
-6.558749079704284668e-01 2.225456833839416504e-01 -1.852068006992340088e-01
-7.701404690742492676e-01 2.711478471755981445e-01 -4.501946642994880676e-02
-6.664958000183105469e-01 2.556136548519134521e-01 -1.196024790406227112e-01
-5.870928764343261719e-01 2.345173209905624390e-01 -1.203384324908256531e-01
-7.608815431594848633e-01 1.828201413154602051e-01 -5.218010768294334412e-02
-6.917052268981933594e-01 1.551073044538497925e-01 -2.115333825349807739e-02
-7.194751501083374023e-01 1.820506155490875244e-01 1.244086623191833496e-01
-7.320197224617004395e-01 1.992680579423904419e-01 -1.587012559175491333e-01
-6.097664237022399902e-01 2.410990446805953979e-01 -1.245184540748596191e-01
-8.162757158279418945e-01 2.458166033029556274e-01 -5.814301595091819763e-02
-7.451692223548889160e-01 2.040237039327621460e-01 1.418029963970184326e-01
-5.774507522583007812e-01 1.412381827831268311e-01 -7.810626178979873657e-02
-7.897933721542358398e-01 2.205872982740402222e-01 1.013781279325485229e-01
-6.371151208877563477e-01 1.441751867532730103e-01 -5.021349713206291199e-02
-6.367558836936950684e-01 2.624608278274536133e-01 4.931344836950302124e-02
-4.899598360061645508e-01 1.789294630289077759e-01 -7.695022225379943848e-02
-6.678472757339477539e-01 2.650701999664306641e-01 -7.121385633945465088e-02
-7.909522652626037598e-01 1.983628869056701660e-01 1.314416155219078064e-02
-5.392465591430664062e-01 1.447800397872924805e-01 -8.594226092100143433e-02
