7.035497426986694336e-01 -1.278638467192649841e-02 4.872435629367828369e-01
5.819653868675231934e-01 1.646085083484649658e-02 5.567915439605712891e-01
6.735918521881103516e-01 -2.382735311985015869e-01 5.186317563056945801e-01
4.883364737033843994e-01 -2.168186306953430176e-01 5.661215186119079590e-01
5.960589647293090820e-01 -3.106299042701721191e-02 4.187941253185272217e-01
4.668135941028594971e-01 -1.579601466655731201e-01 4.264054894447326660e-01
5.619326829910278320e-01 -5.438787862658500671e-02 4.134435057640075684e-01
6.368528008460998535e-01 -1.624844521284103394e-01 5.557978749275207520e-01
5.360970497131347656e-01 -2.070379555225372314e-01 5.658770799636840820e-01
6.488764286041259766e-01 -8.372454345226287842e-02 5.545091032981872559e-01
5.244984030723571777e-01 3.910010308027267456e-02 5.689976215362548828e-01
4.925960004329681396e-01 -3.273325785994529724e-02 5.948874950408935547e-01
6.279431581497192383e-01 -1.981576532125473022e-01 5.501415133476257324e-01
3.840865492820739746e-01 -1.701490730047225952e-01 5.883007049560546875e-01
6.237240433692932129e-01 -1.430636048316955566e-01 4.077192544937133789e-01
7.725484371185302734e-01 -1.587473452091217041e-01 4.392828643321990967e-01
7.070553898811340332e-01 -2.508879825472831726e-02 5.001769065856933594e-01
3.141618371009826660e-01 3.324532508850097656e-02 4.636723995208740234e-01
6.700719594955444336e-01 -1.721926629543304443e-01 4.114723801612854004e-01
2.676030993461608887e-01 -8.113630861043930054e-02 6.063522100448608398e-01
3.437863588333129883e-01 -2.190429270267486572e-01 5.150387883186340332e-01
5.309631228446960449e-01 -1.990649402141571045e-01 4.249214529991149902e-01
4.956054091453552246e-01 -2.548275589942932129e-01 4.635434746742248535e-01
5.265794396400451660e-01 6.073457747697830200e-02 4.541526436805725098e-01
1.972753405570983887e-01 -3.174352273344993591e-02 5.033714175224304199e-01
4.868977367877960205e-01 -1.331664621829986572e-01 4.189293086528778076e-01
5.061470866203308105e-01 -2.691703140735626221e-01 5.187543034553527832e-01
6.657403707504272461e-01 -2.247785031795501709e-01 5.285884737968444824e-01
3.235055208206176758e-01 6.883252412080764771e-02 5.989834070205688477e-01
6.191992759704589844e-01 -2.521541118621826172e-01 5.267201066017150879e-01
2.357294559478759766e-01 -7.279984652996063232e-02 4.874600470066070557e-01
4.133908152580261230e-01 -1.801106631755828857e-01 4.458948075771331787e-01
6.474273204803466797e-01 -1.847894042730331421e-01 4.125460684299468994e-01
3.722060918807983398e-01 -2.245699465274810791e-01 4.935706555843353271e-01
5.153149962425231934e-01 -3.640929609537124634e-02 4.184100329875946045e-01
3.059219121932983398e-01 -9.003666788339614868e-02 4.598312377929687500e-01
4.580662548542022705e-01 7.487631589174270630e-02 5.724700093269348145e-01
5.369549393653869629e-01 -2.302442491054534912e-02 4.200189113616943359e-01
4.720323383808135986e-01 1.107783243060112000e-01 5.270713567733764648e-01
3.389473259449005127e-01 -1.659506261348724365e-01 4.676190316677093506e-01
6.156724691390991211e-01 4.548841714859008789e-02 5.154287219047546387e-01
5.234036445617675781e-01 -1.051214337348937988e-02 5.843164324760437012e-01
7.723466157913208008e-01 -1.048211157321929932e-01 4.624738991260528564e-01
2.753165066242218018e-01 1.201795116066932678e-01 5.650920271873474121e-01
2.238581180572509766e-01 -5.779666826128959656e-02 4.911939203739166260e-01
3.607670664787292480e-01 -1.346055269241333008e-01 5.999014377593994141e-01
6.750575900077819824e-01 -1.510446965694427490e-01 5.442619323730468750e-01
3.875669836997985840e-01 -8.342149108648300171e-02 6.090335249900817871e-01
6.510737538337707520e-01 -2.110544741153717041e-01 5.390537381172180176e-01
4.993662834167480469e-01 9.827014058828353882e-02 5.333153605461120605e-01
1.607357561588287354e-01 4.656381905078887939e-02 5.401718616485595703e-01
1.541301310062408447e-01 1.593649387359619141e-02 5.815074443817138672e-01
3.639330863952636719e-01 -1.856770217418670654e-01 5.790071487426757812e-01
2.151758819818496704e-01 -7.155933231115341187e-02 5.973693728446960449e-01
6.171622276306152344e-01 5.084114521741867065e-02 4.815616607666015625e-01
3.229501247406005859e-01 -2.092832028865814209e-01 5.304685831069946289e-01
4.334134161472320557e-01 -2.062304913997650146e-01 5.727046132087707520e-01
2.910164594650268555e-01 3.905836492776870728e-02 4.715232551097869873e-01
7.520270347595214844e-01 -1.957171559333801270e-01 4.324828386306762695e-01
2.285772264003753662e-01 2.424217760562896729e-02 4.905101060867309570e-01
7.386434078216552734e-01 -1.845575869083404541e-01 5.088098645210266113e-01
5.734033584594726562e-01 -1.083424091339111328e-01 4.085182845592498779e-01
3.467532396316528320e-01 -1.862168759107589722e-01 4.744909703731536865e-01
6.233470439910888672e-01 -2.211725413799285889e-01 -4.281651377677917480e-01
5.003593564033508301e-01 -2.357088029384613037e-01 -5.349947810173034668e-01
5.477573871612548828e-01 -1.497956663370132446e-01 -5.705079436302185059e-01
5.962781906127929688e-01 -2.103491872549057007e-01 -4.121830761432647705e-01
6.321675181388854980e-01 -1.843986809253692627e-01 -4.473344981670379639e-01
6.352038383483886719e-01 -1.686512231826782227e-01 -4.588767886161804199e-01
6.144269108772277832e-01 -1.463724374771118164e-01 -5.697804093360900879e-01
6.276823878288269043e-01 -2.019125223159790039e-01 -5.522691011428833008e-01
5.674982070922851562e-01 -1.824159920215606689e-01 -4.224719703197479248e-01
6.186772584915161133e-01 -2.122229039669036865e-01 -5.590549707412719727e-01
6.389772295951843262e-01 -1.604029387235641479e-01 -5.398657321929931641e-01
5.796473026275634766e-01 -2.549299895763397217e-01 -5.657902956008911133e-01
5.044347643852233887e-01 -3.097924590110778809e-01 -4.282203614711761475e-01
5.357366800308227539e-01 -2.762016654014587402e-01 -5.565407872200012207e-01
5.377543568611145020e-01 -3.014231920242309570e-01 -5.429363250732421875e-01
5.463051795959472656e-01 -1.724791377782821655e-01 -5.770821571350097656e-01
6.364547014236450195e-01 -1.268696188926696777e-01 -5.113477110862731934e-01
4.919399619102478027e-01 -3.118335604667663574e-01 -4.741224348545074463e-01
4.974614083766937256e-01 -2.179551422595977783e-01 -4.742686152458190918e-01
5.263072848320007324e-01 -1.620585769414901733e-01 -4.711419045925140381e-01
6.385525465011596680e-01 -1.867962777614593506e-01 -5.388959050178527832e-01
6.269918680191040039e-01 -2.637952566146850586e-01 -5.123573541641235352e-01
5.953752994537353516e-01 -2.558887898921966553e-01 -5.577408671379089355e-01
5.059018731117248535e-01 -1.978877186775207520e-01 -4.711497128009796143e-01
4.979639649391174316e-01 -3.276900053024291992e-01 -4.564635455608367920e-01
6.306200623512268066e-01 -1.515488624572753906e-01 -5.536531805992126465e-01
5.490282177925109863e-01 -2.820032536983489990e-01 -3.968372344970703125e-01
5.822199583053588867e-01 -1.050407961010932922e-01 -4.958328306674957275e-01
5.817235112190246582e-01 -2.715402841567993164e-01 -5.561665296554565430e-01
5.008038282394409180e-01 -3.339358568191528320e-01 -4.738511145114898682e-01
6.383197903633117676e-01 -1.391258537769317627e-01 -4.901736676692962646e-01
6.227414011955261230e-01 -1.872376501560211182e-01 -4.356585144996643066e-01
5.746852755546569824e-01 -3.367255330085754395e-01 -4.201982319355010986e-01
5.687656402587890625e-01 -2.599552869796752930e-01 -3.968876302242279053e-01
5.096345543861389160e-01 -1.803425252437591553e-01 -4.866995513439178467e-01
6.173723340034484863e-01 -1.366691142320632935e-01 -5.649338960647583008e-01
5.713885426521301270e-01 -2.512644231319427490e-01 -5.695819854736328125e-01
6.228616237640380859e-01 -1.130750179290771484e-01 -5.411652326583862305e-01
4.919008016586303711e-01 -2.381058782339096069e-01 -5.092762112617492676e-01
5.438272356986999512e-01 -2.405177205801010132e-01 -4.051265716552734375e-01
5.093952417373657227e-01 -3.386726379394531250e-01 -4.892401695251464844e-01
5.370840430259704590e-01 -1.364620923995971680e-01 -5.443879961967468262e-01
6.453970074653625488e-01 -1.836639344692230225e-01 -5.201028585433959961e-01
5.454640984535217285e-01 -1.863011121749877930e-01 -5.785116553306579590e-01
6.473051309585571289e-01 -1.696663051843643188e-01 -5.021356344223022461e-01
5.258303284645080566e-01 -3.176382780075073242e-01 -4.088958501815795898e-01
5.429981350898742676e-01 -1.275282800197601318e-01 -4.996439814567565918e-01
6.438808441162109375e-01 -2.146178185939788818e-01 -5.093010663986206055e-01
5.312853455543518066e-01 -1.395298838615417480e-01 -5.319179892539978027e-01
5.629309415817260742e-01 -2.485434859991073608e-01 -3.986271619796752930e-01
5.613971352577209473e-01 -1.956050693988800049e-01 -5.834771394729614258e-01
5.844463109970092773e-01 -3.423963189125061035e-01 -4.596741795539855957e-01
6.307445764541625977e-01 -2.716568708419799805e-01 -4.781283140182495117e-01
6.420831084251403809e-01 -2.111717462539672852e-01 -5.193507671356201172e-01
6.145236492156982422e-01 -3.038083910942077637e-01 -4.773689806461334229e-01
5.636278986930847168e-01 -2.840181887149810791e-01 -3.958103060722351074e-01
4.964571297168731689e-01 -2.465924620628356934e-01 -5.268728733062744141e-01
6.468453407287597656e-01 -1.747001856565475464e-01 -5.130072236061096191e-01
5.114725828170776367e-01 -2.112653553485870361e-01 -5.509961843490600586e-01
6.072617173194885254e-01 -1.177340075373649597e-01 -4.760931432247161865e-01
6.453595161437988281e-01 -1.879195272922515869e-01 -4.752706289291381836e-01
6.161019802093505859e-01 -1.207349896430969238e-01 -4.778804183006286621e-01
5.730587840080261230e-01 -3.512080907821655273e-01 -4.559516012668609619e-01
5.666130781173706055e-01 -1.672224104404449463e-01 -5.836857557296752930e-01
5.162760019302368164e-01 -3.423982858657836914e-01 -4.299508035182952881e-01
5.150681138038635254e-01 -1.656635850667953491e-01 -5.246396660804748535e-01
5.736364126205444336e-01 -3.210366666316986084e-01 -5.205017924308776855e-01
5.003824234008789062e-01 -2.230914235115051270e-01 -4.595968127250671387e-01
5.851035118103027344e-01 -1.970321685075759888e-01 -5.822651982307434082e-01
6.187384128570556641e-01 -2.937665283679962158e-01 -4.878315329551696777e-01
4.884338974952697754e-01 -2.803597152233123779e-01 -4.687462449073791504e-01
5.368657708168029785e-01 -2.499242722988128662e-01 -4.056892991065979004e-01
5.570514798164367676e-01 -1.261151731014251709e-01 -4.786053001880645752e-01
5.212706923484802246e-01 -3.185629844665527344e-01 -5.236128568649291992e-01
5.936779975891113281e-01 -2.388585060834884644e-01 -4.049422442913055420e-01
5.448567271232604980e-01 -1.382616460323333740e-01 -5.598988533020019531e-01
5.444357991218566895e-01 -1.315707564353942871e-01 -5.518656373023986816e-01
5.895848274230957031e-01 -3.269459009170532227e-01 -4.266892671585083008e-01
5.863946676254272461e-01 -2.981998324394226074e-01 -5.341851711273193359e-01
5.862290263175964355e-01 -2.091624736785888672e-01 -4.100186228752136230e-01
5.148676037788391113e-01 -2.996768951416015625e-01 -4.145479202270507812e-01
5.744978785514831543e-01 -3.490905165672302246e-01 -4.678042232990264893e-01
5.816780328750610352e-01 -1.008824557065963745e-01 -5.438990592956542969e-01
5.000041723251342773e-01 -2.887040674686431885e-01 -4.334629774093627930e-01
6.324440836906433105e-01 -2.630575895309448242e-01 -4.592803716659545898e-01
5.494383573532104492e-01 -1.218363940715789795e-01 -5.448015928268432617e-01
6.062771081924438477e-01 -2.431537210941314697e-01 -5.566139221191406250e-01
6.246914863586425781e-01 -2.017787992954254150e-01 -4.330501258373260498e-01
5.971224904060363770e-01 -3.279659152030944824e-01 -4.474840164184570312e-01
6.349942684173583984e-01 -2.067039608955383301e-01 -5.390213727951049805e-01
5.888488292694091797e-01 -1.413808763027191162e-01 -5.793852210044860840e-01
5.291301012039184570e-01 -3.545901179313659668e-01 -4.328585863113403320e-01
4.966415166854858398e-01 -2.268298566341400146e-01 -5.235956907272338867e-01
4.898918569087982178e-01 -2.491689473390579224e-01 -5.031232237815856934e-01
5.056746602058410645e-01 -2.655213177204132080e-01 -5.392750501632690430e-01
6.056071519851684570e-01 -1.120158806443214417e-01 -5.589176416397094727e-01
5.421963930130004883e-01 -3.562032878398895264e-01 -4.815909862518310547e-01
6.097927689552307129e-01 -1.978010237216949463e-01 -4.223513901233673096e-01
6.145266294479370117e-01 -2.432570606470108032e-01 -4.181196093559265137e-01
5.167568922042846680e-01 -2.779833376407623291e-01 -4.137160778045654297e-01
5.156103372573852539e-01 -1.752420365810394287e-01 -4.759154617786407471e-01
5.725620388984680176e-01 -2.710988819599151611e-01 -3.966079950332641602e-01
5.830278992652893066e-01 -1.719830930233001709e-01 -5.843835473060607910e-01
5.205032825469970703e-01 -3.554278314113616943e-01 -4.472982287406921387e-01
5.054362416267395020e-01 -2.339414805173873901e-01 -5.438902378082275391e-01
6.397236585617065430e-01 -2.401330471038818359e-01 -4.675962924957275391e-01
5.725945830345153809e-01 -1.020270437002182007e-01 -5.343385934829711914e-01
6.160050034523010254e-01 -1.073253899812698364e-01 -5.003500580787658691e-01
5.925208330154418945e-01 -1.160955131053924561e-01 -4.749299287796020508e-01
6.380817294120788574e-01 -1.905857175588607788e-01 -4.549026787281036377e-01
5.864920020103454590e-01 -2.060141414403915405e-01 -5.802801847457885742e-01
6.029152870178222656e-01 -1.613029986619949341e-01 -5.782955288887023926e-01
6.222221255302429199e-01 -2.337210178375244141e-01 -4.262312650680541992e-01
6.072608828544616699e-01 -1.915826499462127686e-01 -5.738105177879333496e-01
5.342166423797607422e-01 -3.368622958660125732e-01 -4.125783741474151611e-01
6.458902955055236816e-01 -1.932306587696075439e-01 -5.145692825317382812e-01
6.088884472846984863e-01 -1.002261340618133545e-01 -5.126585960388183594e-01
6.114218831062316895e-01 -2.156721949577331543e-01 -4.184775650501251221e-01
4.903360009193420410e-01 -2.942231893539428711e-01 -4.599002301692962646e-01
6.078258156776428223e-01 -2.633180320262908936e-01 -4.134352505207061768e-01
5.268215537071228027e-01 -2.526350021362304688e-01 -4.110037982463836670e-01
4.941940307617187500e-01 -2.568525075912475586e-01 -4.533462226390838623e-01
4.910057783126831055e-01 -3.050386607646942139e-01 -4.635455310344696045e-01
5.363492369651794434e-01 -3.164433836936950684e-01 -4.036020338535308838e-01
5.708507895469665527e-01 -1.030661165714263916e-01 -5.160597562789916992e-01
5.852337479591369629e-01 -1.409963071346282959e-01 -4.487724006175994873e-01
5.223543643951416016e-01 -1.564299464225769043e-01 -4.905534386634826660e-01
6.411572098731994629e-01 -1.406965255737304688e-01 -4.999810159206390381e-01
5.299706459045410156e-01 -1.660684645175933838e-01 -5.606952309608459473e-01
5.913279652595520020e-01 -3.358473181724548340e-01 -4.592365026473999023e-01
5.045688152313232422e-01 -2.128429859876632690e-01 -5.391887426376342773e-01
5.488800406455993652e-01 -1.326605975627899170e-01 -4.781492650508880615e-01
6.259172558784484863e-01 -1.363144963979721069e-01 -4.702761769294738770e-01
5.202187299728393555e-01 -1.547250002622604370e-01 -5.096606016159057617e-01
5.277611613273620605e-01 -3.277986943721771240e-01 -5.186819434165954590e-01
5.368375182151794434e-01 -3.283593356609344482e-01 -5.209783911705017090e-01
5.589732527732849121e-01 -3.582225441932678223e-01 -4.603463411331176758e-01
6.243692636489868164e-01 -1.214932128787040710e-01 -5.487262606620788574e-01
5.090245008468627930e-01 -3.431720137596130371e-01 -4.792140126228332520e-01
5.967065095901489258e-01 -2.863741219043731689e-01 -5.358892679214477539e-01
4.975485503673553467e-01 -3.184657990932464600e-01 -4.460353851318359375e-01
5.319060087203979492e-01 -1.383857727050781250e-01 -5.055011510848999023e-01
5.930902957916259766e-01 -1.638893783092498779e-01 -4.323793351650238037e-01
6.310452222824096680e-01 -2.386819422245025635e-01 -5.274905562400817871e-01
6.393465995788574219e-01 -1.718621253967285156e-01 -5.394594669342041016e-01
6.251282691955566406e-01 -1.539765596389770508e-01 -5.610434412956237793e-01
5.898806452751159668e-01 -2.717148959636688232e-01 -5.517688989639282227e-01
5.185719728469848633e-01 -3.076623082160949707e-01 -4.120894074440002441e-01
6.265102624893188477e-01 -2.804453074932098389e-01 -4.831725358963012695e-01
4.929439127445220947e-01 -2.881994843482971191e-01 -4.492060244083404541e-01
5.171282887458801270e-01 -2.894794046878814697e-01 -4.124222993850708008e-01
5.298930406570434570e-01 -2.478426098823547363e-01 -5.644909143447875977e-01
5.545453429222106934e-01 -1.138054281473159790e-01 -5.133594870567321777e-01
5.114401578903198242e-01 -1.858150362968444824e-01 -4.717551767826080322e-01
5.187911987304687500e-01 -3.554233312606811523e-01 -4.564994871616363525e-01
5.530477762222290039e-01 -3.501673638820648193e-01 -4.226501286029815674e-01
5.290009379386901855e-01 -1.901350319385528564e-01 -4.398620128631591797e-01
6.129968166351318359e-01 -2.608364820480346680e-01 -5.389484167098999023e-01
4.915483593940734863e-01 -2.449417561292648315e-01 -4.703558087348937988e-01
5.908359885215759277e-01 -1.518609523773193359e-01 -4.401825070381164551e-01
5.027705430984497070e-01 -1.934656500816345215e-01 -4.929580390453338623e-01
5.686523914337158203e-01 -1.259022355079650879e-01 -5.694944262504577637e-01
6.328054666519165039e-01 -1.238053888082504272e-01 -4.998940527439117432e-01
5.572078824043273926e-01 -1.279119253158569336e-01 -5.635477900505065918e-01
6.002755165100097656e-01 -3.110709190368652344e-01 -5.042034983634948730e-01
5.607705712318420410e-01 -3.371785581111907959e-01 -4.122211337089538574e-01
6.114566326141357422e-01 -2.967351078987121582e-01 -5.041942596435546875e-01
5.539011955261230469e-01 -1.582135111093521118e-01 -4.448561668395996094e-01
5.111027359962463379e-01 -1.720835268497467041e-01 -5.046385526657104492e-01
5.611279010772705078e-01 -1.112511679530143738e-01 -5.042940974235534668e-01
6.217098236083984375e-01 -2.545880675315856934e-01 -5.317161679267883301e-01
6.446216702461242676e-01 -1.563099622726440430e-01 -4.932540357112884521e-01
5.280019044876098633e-01 -3.093006908893585205e-01 -4.059204459190368652e-01
5.159671306610107422e-01 -1.652867794036865234e-01 -4.944868087768554688e-01
6.314630508422851562e-01 -1.465028822422027588e-01 -4.682997167110443115e-01
4.992998540401458740e-01 -2.607837319374084473e-01 -5.310308337211608887e-01
5.462434887886047363e-01 -2.358333319425582886e-01 -5.739607214927673340e-01
5.819528698921203613e-01 -2.730308771133422852e-01 -3.989050984382629395e-01
6.316815018653869629e-01 -2.519988715648651123e-01 -5.136137604713439941e-01
5.570398569107055664e-01 -1.478880941867828369e-01 -5.756950378417968750e-01
6.118111014366149902e-01 -1.672104597091674805e-01 -5.733070373535156250e-01
5.700509548187255859e-01 -3.256891965866088867e-01 -4.082889854907989502e-01
5.346987247467041016e-01 -2.960411906242370605e-01 -4.013531208038330078e-01
6.190506815910339355e-01 -2.849659323692321777e-01 -5.039937496185302734e-01
5.832731723785400391e-01 -3.416928052902221680e-01 -4.429892897605895996e-01
5.311221480369567871e-01 -1.493839323520660400e-01 -4.808336794376373291e-01
5.513528585433959961e-01 -1.982453912496566772e-01 -4.191559553146362305e-01
5.597947239875793457e-01 -2.668459117412567139e-01 -5.640300512313842773e-01
4.913862347602844238e-01 -2.331779301166534424e-01 -4.966673254966735840e-01
5.992991924285888672e-01 -2.094167470932006836e-01 -5.743430852890014648e-01
5.996563434600830078e-01 -3.174727261066436768e-01 -4.944385588169097900e-01
5.866024494171142578e-01 -1.908275485038757324e-01 -4.172715246677398682e-01
5.046220421791076660e-01 -2.519990205764770508e-01 -4.344721138477325439e-01
5.937748551368713379e-01 -2.818776965141296387e-01 -4.056262075901031494e-01
6.170256733894348145e-01 -1.124207079410552979e-01 -4.911224842071533203e-01
6.387508511543273926e-01 -1.473480165004730225e-01 -5.367467999458312988e-01
6.468949317932128906e-01 -1.708823144435882568e-01 -4.923235476016998291e-01
6.127473115921020508e-01 -1.354964226484298706e-01 -4.599097967147827148e-01
4.970486164093017578e-01 -2.105781435966491699e-01 -5.093653202056884766e-01
5.934140086174011230e-01 -1.989417374134063721e-01 -4.151988923549652100e-01
6.453946232795715332e-01 -2.063388824462890625e-01 -4.752742052078247070e-01
6.303191184997558594e-01 -2.514373660087585449e-01 -4.425318241119384766e-01
6.162585020065307617e-01 -2.235112190246582031e-01 -4.208765625953674316e-01
5.413135886192321777e-01 -1.549065411090850830e-01 -4.584828019142150879e-01
5.658568739891052246e-01 -1.464951932430267334e-01 -4.488112330436706543e-01
6.414750218391418457e-01 -2.373153716325759888e-01 -4.794113934040069580e-01
6.244084239006042480e-01 -2.148979306221008301e-01 -5.515738725662231445e-01
5.072616338729858398e-01 -3.439990282058715820e-01 -4.698403179645538330e-01
5.980013012886047363e-01 -3.072804808616638184e-01 -5.129890441894531250e-01
6.082708835601806641e-01 -9.870925545692443848e-02 -5.254938006401062012e-01
5.624364018440246582e-01 -1.542505323886871338e-01 -4.435816407203674316e-01
4.974326491355895996e-01 -3.231064677238464355e-01 -4.851839244365692139e-01
5.013656616210937500e-01 -2.202132642269134521e-01 -5.343540906906127930e-01
4.894046187400817871e-01 -2.733552455902099609e-01 -5.014612674713134766e-01
5.499126911163330078e-01 -2.166969925165176392e-01 -4.111258983612060547e-01
5.343860387802124023e-01 -3.599964976310729980e-01 -4.682960212230682373e-01
5.056462883949279785e-01 -2.778156101703643799e-01 -5.348646640777587891e-01
5.593284368515014648e-01 -1.381096541881561279e-01 -5.722951292991638184e-01
6.169888377189636230e-01 -2.785395681858062744e-01 -5.169453620910644531e-01
6.334090232849121094e-01 -2.067480534315109253e-01 -4.433577060699462891e-01
6.414666771888732910e-01 -1.460089683532714844e-01 -5.267429947853088379e-01
4.883819222450256348e-01 -2.554454207420349121e-01 -4.845027327537536621e-01
6.241083145141601562e-01 -1.335620582103729248e-01 -5.568112730979919434e-01
6.274588704109191895e-01 -2.781469225883483887e-01 -4.613415002822875977e-01
5.225306153297424316e-01 -2.692882716655731201e-01 -4.103137254714965820e-01
6.440425515174865723e-01 -1.632592678070068359e-01 -4.830919504165649414e-01
6.188584566116333008e-01 -1.044401600956916809e-01 -5.214577317237854004e-01
5.064381361007690430e-01 -3.437360525131225586e-01 -4.593495726585388184e-01
5.645077824592590332e-01 -1.935900747776031494e-01 -4.171928763389587402e-01
5.128447413444519043e-01 -3.183490633964538574e-01 -5.172586441040039062e-01
5.208278894424438477e-01 -1.650331020355224609e-01 -5.442513823509216309e-01
6.202294826507568359e-01 -1.683978140354156494e-01 -5.665503144264221191e-01
5.271005034446716309e-01 -1.783287823200225830e-01 -5.626218318939208984e-01
5.206763148307800293e-01 -3.525039553642272949e-01 -4.384374022483825684e-01
5.619027018547058105e-01 -2.430047392845153809e-01 -5.736895799636840820e-01
5.293267965316772461e-01 -2.221819758415222168e-01 -4.204761981964111328e-01
5.014571547508239746e-01 -3.202542066574096680e-01 -4.373800754547119141e-01
5.288376808166503906e-01 -3.080036938190460205e-01 -5.356024503707885742e-01
6.222183704376220703e-01 -2.272835075855255127e-01 -5.485585927963256836e-01
6.279599070549011230e-01 -1.753254234790802002e-01 -4.459012746810913086e-01
5.939608812332153320e-01 -3.172279298305511475e-01 -4.225050806999206543e-01
4.953481554985046387e-01 -2.764195799827575684e-01 -5.187654495239257812e-01
5.049542784690856934e-01 -1.878840178251266479e-01 -5.181245803833007812e-01
5.220143198966979980e-01 -3.520353138446807861e-01 -4.811679720878601074e-01
6.242710947990417480e-01 -2.714780569076538086e-01 -4.400610327720642090e-01
5.172113180160522461e-01 -2.026516348123550415e-01 -4.446640014648437500e-01
6.132208108901977539e-01 -1.598080992698669434e-01 -4.420676231384277344e-01
5.787956118583679199e-01 -1.362252831459045410e-01 -4.540762007236480713e-01
5.427491664886474609e-01 -2.644060552120208740e-01 -4.001591503620147705e-01
5.966818928718566895e-01 -1.323263347148895264e-01 -5.748025178909301758e-01
6.460968255996704102e-01 -1.598176658153533936e-01 -5.087836980819702148e-01
5.132310986518859863e-01 -2.787700295448303223e-01 -5.423765778541564941e-01
5.868844985961914062e-01 -3.129160106182098389e-01 -4.118251204490661621e-01
5.690915584564208984e-01 -1.154603511095046997e-01 -5.601868033409118652e-01
5.915856957435607910e-01 -1.758322268724441528e-01 -4.252926111221313477e-01
6.352006196975708008e-01 -2.382824420928955078e-01 -4.491268396377563477e-01
5.958378314971923828e-01 -1.238219216465950012e-01 -5.710834264755249023e-01
5.436854362487792969e-01 -2.166000008583068848e-01 -5.768380165100097656e-01
6.252757906913757324e-01 -2.845588922500610352e-01 -4.686881303787231445e-01
6.062483787536621094e-01 -1.735446304082870483e-01 -4.308165907859802246e-01
5.273227691650390625e-01 -2.333396971225738525e-01 -5.661323666572570801e-01
5.980559587478637695e-01 -1.038960963487625122e-01 -5.524179339408874512e-01
6.466712951660156250e-01 -1.990942060947418213e-01 -4.817711114883422852e-01
5.610498785972595215e-01 -3.543691039085388184e-01 -4.752734899520874023e-01
4.978407323360443115e-01 -2.073923945426940918e-01 -4.929194152355194092e-01
5.324421525001525879e-01 -3.270479738712310791e-01 -4.084954857826232910e-01
5.692674517631530762e-01 -2.952203750610351562e-01 -3.976231217384338379e-01
6.183670759201049805e-01 -2.639820277690887451e-01 -5.290887355804443359e-01
5.604270696640014648e-01 -2.221316695213317871e-01 -4.060220718383789062e-01
5.529123544692993164e-01 -1.197602972388267517e-01 -4.967857003211975098e-01
6.045172214508056641e-01 -3.131520748138427734e-01 -4.371563494205474854e-01
5.225906968116760254e-01 -3.562535345554351807e-01 -4.689548015594482422e-01
6.159301996231079102e-01 -2.988739609718322754e-01 -4.485833048820495605e-01
5.130004286766052246e-01 -1.724526733160018921e-01 -4.897435009479522705e-01
6.436177492141723633e-01 -1.471489369869232178e-01 -5.127754807472229004e-01
6.018714904785156250e-01 -1.848721802234649658e-01 -4.236291944980621338e-01
6.386654973030090332e-01 -1.323284357786178589e-01 -5.199326276779174805e-01
6.011505126953125000e-01 -3.089497685432434082e-01 -4.254877269268035889e-01
5.641611218452453613e-01 -3.562567532062530518e-01 -4.529972076416015625e-01
6.118565201759338379e-01 -1.014163792133331299e-01 -5.348216295242309570e-01
4.923812448978424072e-01 -2.506036460399627686e-01 -4.625113904476165771e-01
5.311344265937805176e-01 -1.849310398101806641e-01 -5.686081647872924805e-01
5.312259793281555176e-01 -1.774746477603912354e-01 -4.476650357246398926e-01
4.995183944702148438e-01 -2.346612662076950073e-01 -4.528746604919433594e-01
5.932025909423828125e-01 -1.276923120021820068e-01 -4.613166451454162598e-01
6.074885725975036621e-01 -1.409713029861450195e-01 -4.525717496871948242e-01
6.343976855278015137e-01 -1.234757080674171448e-01 -5.232083797454833984e-01
6.367543935775756836e-01 -2.495409250259399414e-01 -4.625536203384399414e-01
5.809105038642883301e-01 -3.229243457317352295e-01 -4.133254587650299072e-01
5.602281689643859863e-01 -1.086525022983551025e-01 -5.273006558418273926e-01
5.873662233352661133e-01 -2.610358595848083496e-01 -5.594756603240966797e-01
6.412276625633239746e-01 -2.289866209030151367e-01 -5.065163373947143555e-01
5.164180397987365723e-01 -2.218928486108779907e-01 -4.331266283988952637e-01
5.051205158233642578e-01 -2.758065462112426758e-01 -4.270126521587371826e-01
5.412020087242126465e-01 -3.556105792522430420e-01 -4.293639361858367920e-01
5.172836184501647949e-01 -1.858764141798019409e-01 -4.592970609664916992e-01
6.260955929756164551e-01 -1.846759170293807983e-01 -5.586663484573364258e-01
5.448570251464843750e-01 -2.770426869392395020e-01 -5.583375692367553711e-01
5.797606706619262695e-01 -1.893117874860763550e-01 -5.841637253761291504e-01
5.182633399963378906e-01 -1.985720545053482056e-01 -5.577634572982788086e-01
5.555830001831054688e-01 -2.427121102809906006e-01 -4.009325206279754639e-01
6.186931133270263672e-01 -2.895950973033905029e-01 -4.429554641246795654e-01
5.101454854011535645e-01 -1.830166131258010864e-01 -5.342060327529907227e-01
5.967267155647277832e-01 -1.357867717742919922e-01 -4.538744986057281494e-01
5.428425073623657227e-01 -1.240682601928710938e-01 -5.164963603019714355e-01
5.089000463485717773e-01 -2.198621928691864014e-01 -5.483909845352172852e-01
5.970452427864074707e-01 -1.878034472465515137e-01 -5.797029733657836914e-01
5.253869295120239258e-01 -2.899239361286163330e-01 -5.453079938888549805e-01
4.929046928882598877e-01 -2.690101861953735352e-01 -4.522417783737182617e-01
5.095140337944030762e-01 -2.031511366367340088e-01 -5.456704497337341309e-01
5.019968748092651367e-01 -3.297741115093231201e-01 -4.436890184879302979e-01
5.627573728561401367e-01 -3.024642467498779297e-01 -5.419648885726928711e-01
6.069028377532958984e-01 -3.055333495140075684e-01 -4.325012266635894775e-01
6.277654767036437988e-01 -2.331368774175643921e-01 -4.336159229278564453e-01
5.041513442993164062e-01 -2.433815598487854004e-01 -4.389808177947998047e-01
5.574854612350463867e-01 -1.122987717390060425e-01 -5.383439064025878906e-01
6.177652478218078613e-01 -1.226475164294242859e-01 -5.578361749649047852e-01
5.102537870407104492e-01 -2.970328330993652344e-01 -5.302299261093139648e-01
4.885410070419311523e-01 -2.910159826278686523e-01 -4.721366167068481445e-01
5.641268491744995117e-01 -2.311437278985977173e-01 -5.773661136627197266e-01
5.281432867050170898e-01 -1.967790424823760986e-01 -5.679060220718383789e-01
5.263060927391052246e-01 -1.481118649244308472e-01 -5.343134403228759766e-01
5.518445372581481934e-01 -1.247663199901580811e-01 -5.540848970413208008e-01
4.930830001831054688e-01 -2.882089018821716309e-01 -5.077087283134460449e-01
4.894195199012756348e-01 -2.600681781768798828e-01 -5.032151341438293457e-01
6.054368019104003906e-01 -1.790347993373870850e-01 -5.766043066978454590e-01
5.137184262275695801e-01 -3.512121438980102539e-01 -4.650371670722961426e-01
5.903975963592529297e-01 -2.429539263248443604e-01 -5.668819546699523926e-01
6.215351223945617676e-01 -2.447054237127304077e-01 -4.259625971317291260e-01
6.334635019302368164e-01 -2.170580476522445679e-01 -5.368472933769226074e-01
5.581789612770080566e-01 -2.739551961421966553e-01 -3.959110081195831299e-01
5.003038644790649414e-01 -2.592696845531463623e-01 -4.389047324657440186e-01
5.209355354309082031e-01 -3.424227237701416016e-01 -4.975251555442810059e-01
4.940850734710693359e-01 -2.220458239316940308e-01 -4.877009689807891846e-01
6.387367248535156250e-01 -2.023869007825851440e-01 -4.537933468818664551e-01
5.422605872154235840e-01 -2.466645687818527222e-01 -5.698565840721130371e-01
5.320767164230346680e-01 -3.476417660713195801e-01 -4.961759448051452637e-01
5.598231554031372070e-01 -1.648738980293273926e-01 -4.363756477832794189e-01
4.946477413177490234e-01 -3.211196362972259521e-01 -4.689246118068695068e-01
5.725530385971069336e-01 -2.266332507133483887e-01 -5.780497193336486816e-01
5.858467817306518555e-01 -9.720101952552795410e-02 -5.239370465278625488e-01
4.929472804069519043e-01 -2.645768821239471436e-01 -5.162711143493652344e-01
6.164214015007019043e-01 -1.748856604099273682e-01 -4.358609318733215332e-01
6.420545578002929688e-01 -1.588110625743865967e-01 -5.313249826431274414e-01
5.798895955085754395e-01 -2.334873527288436890e-01 -5.744585990905761719e-01
5.251200199127197266e-01 -1.468958556652069092e-01 -5.218724608421325684e-01
6.105547547340393066e-01 -3.088101148605346680e-01 -4.488227665424346924e-01
5.628520250320434570e-01 -1.316109746694564819e-01 -4.660764038562774658e-01
5.919523239135742188e-01 -1.617634594440460205e-01 -5.822528600692749023e-01
5.054613947868347168e-01 -2.077237069606781006e-01 -4.613034129142761230e-01
5.577020049095153809e-01 -2.062112540006637573e-01 -5.819088816642761230e-01
5.380699634552001953e-01 -1.300530433654785156e-01 -5.102571249008178711e-01
5.054335594177246094e-01 -2.325967550277709961e-01 -4.425707459449768066e-01
5.060718059539794922e-01 -3.263591229915618896e-01 -5.010737180709838867e-01
5.979555249214172363e-01 -2.478620111942291260e-01 -4.060170054435729980e-01
5.308580398559570312e-01 -2.125079482793807983e-01 -5.705690979957580566e-01
5.411900281906127930e-01 -3.078315258026123047e-01 -4.003309607505798340e-01
6.114925146102905273e-01 -1.814536601305007935e-01 -4.296964704990386963e-01
6.177822351455688477e-01 -1.466682255268096924e-01 -4.539806842803955078e-01
5.921778082847595215e-01 -2.596201896667480469e-01 -4.027613401412963867e-01
5.553615093231201172e-01 -1.508248150348663330e-01 -4.505746960639953613e-01
5.491144657135009766e-01 -3.294301033020019531e-01 -5.204751491546630859e-01
4.879226088523864746e-01 -2.658585906028747559e-01 -4.779980182647705078e-01
6.455100178718566895e-01 -1.653161346912384033e-01 -5.191006660461425781e-01
5.542627573013305664e-01 -3.599650263786315918e-01 -4.502699077129364014e-01
6.134183406829833984e-01 -2.934615015983581543e-01 -4.338237643241882324e-01
5.701519250869750977e-01 -2.388152778148651123e-01 -5.745332241058349609e-01
6.229705810546875000e-01 -2.888546288013458252e-01 -4.773400723934173584e-01
5.262531042098999023e-01 -1.486642956733703613e-01 -4.959551692008972168e-01
6.147639751434326172e-01 -2.558716535568237305e-01 -4.193183183670043945e-01
6.266048550605773926e-01 -2.761114835739135742e-01 -4.945710301399230957e-01
5.704647302627563477e-01 -2.274867147207260132e-01 -4.032282531261444092e-01
5.495117902755737305e-01 -3.574724793434143066e-01 -4.342094957828521729e-01
5.059899687767028809e-01 -3.153019547462463379e-01 -5.121670961380004883e-01
5.957143306732177734e-01 -2.957457005977630615e-01 -5.283831357955932617e-01
5.602028369903564453e-01 -1.182270497083663940e-01 -4.886795878410339355e-01
6.163086891174316406e-01 -2.034173309803009033e-01 -5.641875267028808594e-01
4.923147857189178467e-01 -2.333130687475204468e-01 -4.797274172306060791e-01
6.303225755691528320e-01 -1.581685841083526611e-01 -4.581403136253356934e-01
6.080036759376525879e-01 -1.122503280639648438e-01 -4.841719865798950195e-01
6.438902020454406738e-01 -1.718902885913848877e-01 -4.765645265579223633e-01
5.011017322540283203e-01 -1.968204081058502197e-01 -5.097860097885131836e-01
6.153084635734558105e-01 -2.266068607568740845e-01 -5.565341114997863770e-01
5.344984531402587891e-01 -2.094643712043762207e-01 -4.229363799095153809e-01
6.093936562538146973e-01 -3.119183778762817383e-01 -4.757992923259735107e-01
5.917865037918090820e-01 -3.260100185871124268e-01 -4.938128888607025146e-01
5.789559483528137207e-01 -1.518655121326446533e-01 -4.405544400215148926e-01
5.960823297500610352e-01 -1.139127165079116821e-01 -5.642768144607543945e-01
6.114463806152343750e-01 -3.099608421325683594e-01 -4.619914591312408447e-01
5.432611703872680664e-01 -3.450465202331542969e-01 -4.162912666797637939e-01
5.360082983970642090e-01 -2.285255789756774902e-01 -5.717985630035400391e-01
5.674101114273071289e-01 -3.410757184028625488e-01 -4.982231557369232178e-01
5.096853971481323242e-01 -2.596791684627532959e-01 -5.456377267837524414e-01
5.568904876708984375e-01 -3.186116814613342285e-01 -4.015526175498962402e-01
4.882818460464477539e-01 -2.586859464645385742e-01 -4.933582842350006104e-01
5.735566616058349609e-01 -1.073158383369445801e-01 -5.517794489860534668e-01
5.517569184303283691e-01 -3.595058321952819824e-01 -4.665825963020324707e-01
5.645247697830200195e-01 -1.703993231058120728e-01 -4.306730926036834717e-01
5.994920134544372559e-01 -2.998768985271453857e-01 -5.198553204536437988e-01
5.449339747428894043e-01 -3.616691231727600098e-01 -4.589194357395172119e-01
4.972643256187438965e-01 -3.000654876232147217e-01 -4.393479526042938232e-01
6.381773948669433594e-01 -2.108090966939926147e-01 -5.304083228111267090e-01
5.475879907608032227e-01 -1.271288990974426270e-01 -4.900712668895721436e-01
5.246161818504333496e-01 -3.385108709335327148e-01 -4.187923669815063477e-01
5.334920287132263184e-01 -3.179254531860351562e-01 -5.296040773391723633e-01
5.469966530799865723e-01 -2.605805695056915283e-01 -5.660570859909057617e-01
5.043329000473022461e-01 -2.669182121753692627e-01 -4.300493299961090088e-01
5.573354959487915039e-01 -1.829446405172348022e-01 -5.828199982643127441e-01
6.390221118927001953e-01 -2.471259832382202148e-01 -4.820980429649353027e-01
5.795774459838867188e-01 -3.099468648433685303e-01 -5.280983448028564453e-01
5.223571658134460449e-01 -2.763615250587463379e-01 -5.502324104309082031e-01
5.965537428855895996e-01 -2.222537100315093994e-01 -4.091272950172424316e-01
6.446361541748046875e-01 -1.514894962310791016e-01 -5.043023824691772461e-01
4.903605282306671143e-01 -2.401741743087768555e-01 -4.857628643512725830e-01
4.895689189434051514e-01 -2.548724412918090820e-01 -4.725826978683471680e-01
5.461118221282958984e-01 -3.375925123691558838e-01 -5.115415453910827637e-01
6.064937114715576172e-01 -2.127873450517654419e-01 -5.690447092056274414e-01
6.033143997192382812e-01 -1.007573008537292480e-01 -5.438605546951293945e-01
5.740531086921691895e-01 -3.130219578742980957e-01 -4.039029479026794434e-01
5.198846459388732910e-01 -3.333243727684020996e-01 -5.083389878273010254e-01
5.974389314651489258e-01 -1.461118310689926147e-01 -5.785756707191467285e-01
5.150513648986816406e-01 -1.770953387022018433e-01 -5.420437455177307129e-01
5.762886404991149902e-01 -1.624323129653930664e-01 -4.332690834999084473e-01
5.052552223205566406e-01 -2.228051424026489258e-01 -4.491783380508422852e-01
5.182803273200988770e-01 -1.804058104753494263e-01 -5.510036349296569824e-01
5.472342371940612793e-01 -1.194514259696006775e-01 -5.252852439880371094e-01
5.296428203582763672e-01 -2.623574435710906982e-01 -4.068026542663574219e-01
6.060123443603515625e-01 -2.850212752819061279e-01 -5.270696282386779785e-01
5.603792071342468262e-01 -2.868349254131317139e-01 -5.531080961227416992e-01
5.660913586616516113e-01 -2.764007151126861572e-01 -5.583063364028930664e-01
5.017237663269042969e-01 -2.001374214887619019e-01 -5.220416784286499023e-01
5.872112512588500977e-01 -1.107952520251274109e-01 -4.832253754138946533e-01
5.649983286857604980e-01 -3.443171977996826172e-01 -4.212473928928375244e-01
6.218842864036560059e-01 -2.878749370574951172e-01 -4.521213769912719727e-01
5.411779880523681641e-01 -1.701252013444900513e-01 -4.441716670989990234e-01
5.344476699829101562e-01 -1.335915923118591309e-01 -5.196088552474975586e-01
5.778518915176391602e-01 -3.347483873367309570e-01 -4.985879361629486084e-01
5.495741963386535645e-01 -3.278575539588928223e-01 -4.050070047378540039e-01
5.909243822097778320e-01 -9.707628190517425537e-02 -5.347847342491149902e-01
5.641524195671081543e-01 -3.536544442176818848e-01 -4.375179708003997803e-01
6.412604451179504395e-01 -2.375469058752059937e-01 -4.903664290904998779e-01
5.798140764236450195e-01 -1.000742465257644653e-01 -5.131154060363769531e-01
5.457443594932556152e-01 -2.957884073257446289e-01 -5.478610396385192871e-01
6.209050416946411133e-01 -2.870657444000244141e-01 -4.945975840091705322e-01
5.802527070045471191e-01 -2.318420708179473877e-01 -4.026707112789154053e-01
5.099667310714721680e-01 -2.468321919441223145e-01 -4.290638267993927002e-01
5.462619662284851074e-01 -3.222123980522155762e-01 -5.276876688003540039e-01
5.867035984992980957e-01 -3.341832458972930908e-01 -4.326406717300415039e-01
4.901833832263946533e-01 -3.030999600887298584e-01 -4.793134629726409912e-01
6.268588304519653320e-01 -2.740654945373535156e-01 -4.503256678581237793e-01
4.958991706371307373e-01 -3.145018219947814941e-01 -4.929242432117462158e-01
5.127697587013244629e-01 -2.325759232044219971e-01 -5.536233186721801758e-01
5.872491598129272461e-01 -2.474286109209060669e-01 -4.015828967094421387e-01
6.149300336837768555e-01 -1.829751878976821899e-01 -5.697704553604125977e-01
5.736171603202819824e-01 -1.048910394310951233e-01 -5.035262703895568848e-01
6.442493200302124023e-01 -2.201208174228668213e-01 -5.002846121788024902e-01
5.815061330795288086e-01 -1.182817295193672180e-01 -4.737025797367095947e-01
5.858265757560729980e-01 -2.872216105461120605e-01 -4.020550847053527832e-01
5.878024101257324219e-01 -3.358133137226104736e-01 -4.792269766330718994e-01
5.380434989929199219e-01 -2.320076674222946167e-01 -4.106744527816772461e-01
6.014986634254455566e-01 -3.237093687057495117e-01 -4.546525478363037109e-01
5.334891080856323242e-01 -2.614162266254425049e-01 -5.618666410446166992e-01
5.674157738685607910e-01 -1.242419555783271790e-01 -4.724626541137695312e-01
6.175165176391601562e-01 -1.045837774872779846e-01 -5.122163295745849609e-01
5.296727418899536133e-01 -3.404734134674072266e-01 -5.053890347480773926e-01
5.268467068672180176e-01 -2.439032495021820068e-01 -4.136541485786437988e-01
5.115298628807067871e-01 -1.992841660976409912e-01 -4.566316604614257812e-01
6.310523152351379395e-01 -2.599168121814727783e-01 -4.498763680458068848e-01
6.406555771827697754e-01 -1.852017790079116821e-01 -4.619538784027099609e-01
5.303117632865905762e-01 -2.795467078685760498e-01 -4.038721024990081787e-01
5.038627386093139648e-01 -2.551810741424560547e-01 -5.394292473793029785e-01
4.955228567123413086e-01 -2.359683066606521606e-01 -5.231265425682067871e-01
4.947326481342315674e-01 -2.218106836080551147e-01 -5.112039446830749512e-01
5.956750512123107910e-01 -3.067492246627807617e-01 -4.166206121444702148e-01
5.709662437438964844e-01 -1.092065051198005676e-01 -4.952985048294067383e-01
4.939934909343719482e-01 -3.054014444351196289e-01 -4.971736967563629150e-01
5.273067355155944824e-01 -2.060270458459854126e-01 -4.308446645736694336e-01
5.775820612907409668e-01 -3.436520099639892578e-01 -4.801820814609527588e-01
5.587738156318664551e-01 -1.625141352415084839e-01 -5.808387994766235352e-01
6.276796460151672363e-01 -1.232444494962692261e-01 -4.884801805019378662e-01
5.693090558052062988e-01 -1.533621698617935181e-01 -5.817429423332214355e-01
4.889629185199737549e-01 -2.857881486415863037e-01 -4.928565621376037598e-01
6.077576875686645508e-01 -2.729110717773437500e-01 -4.152254164218902588e-01
5.954032540321350098e-01 -2.006369680166244507e-01 -5.782517790794372559e-01
5.103296637535095215e-01 -1.745736002922058105e-01 -5.193142294883728027e-01
5.323863625526428223e-01 -1.446414142847061157e-01 -5.461924076080322266e-01
5.603117942810058594e-01 -3.307905495166778564e-01 -5.163232684135437012e-01
5.104688405990600586e-01 -2.870461344718933105e-01 -4.190762042999267578e-01
6.143994331359863281e-01 -1.107025742530822754e-01 -5.504541397094726562e-01
5.739041566848754883e-01 -2.970689237117767334e-01 -5.423225760459899902e-01
5.992738008499145508e-01 -9.820534288883209229e-02 -5.119932293891906738e-01
5.723329782485961914e-01 -2.160464376211166382e-01 -5.807599425315856934e-01
6.477167606353759766e-01 -1.882655918598175049e-01 -5.028227567672729492e-01
5.797470808029174805e-01 -1.573244184255599976e-01 -5.834280252456665039e-01
6.371247768402099609e-01 -2.122995108366012573e-01 -4.496042430400848389e-01
5.632983446121215820e-01 -3.200708329677581787e-01 -5.266216993331909180e-01
6.355860233306884766e-01 -2.330572456121444702e-01 -5.216087102890014648e-01
5.707730054855346680e-01 -3.100814223289489746e-01 -5.329173207283020020e-01
5.408342480659484863e-01 -2.036672234535217285e-01 -5.766396522521972656e-01
4.954485297203063965e-01 -2.347410917282104492e-01 -4.639074504375457764e-01
-3.443250656127929688e-01 5.508093833923339844e-01 5.482103228569030762e-01
-3.883817791938781738e-01 5.150094032287597656e-01 5.695648193359375000e-01
-3.979566693305969238e-01 4.989803135395050049e-01 5.504195690155029297e-01
-3.643198609352111816e-01 5.430589914321899414e-01 5.264395475387573242e-01
-3.559873998165130615e-01 5.487339496612548828e-01 5.313481688499450684e-01
-3.764777779579162598e-01 5.055360198020935059e-01 5.342193245887756348e-01
-3.701803982257843018e-01 5.278988480567932129e-01 5.250491499900817871e-01
-3.760502040386199951e-01 5.512393116950988770e-01 5.553501248359680176e-01
-3.821153342723846436e-01 5.143634080886840820e-01 5.273507833480834961e-01
-3.460578620433807373e-01 5.475130677223205566e-01 5.618583559989929199e-01
-3.889690935611724854e-01 5.421568155288696289e-01 5.436314940452575684e-01
-3.758857846260070801e-01 5.180140733718872070e-01 5.265834927558898926e-01
-3.783318102359771729e-01 5.458244085311889648e-01 5.291545987129211426e-01
-3.632912635803222656e-01 5.083765983581542969e-01 5.691346526145935059e-01
-3.893028497695922852e-01 5.041223764419555664e-01 5.675407648086547852e-01
-3.540462255477905273e-01 5.144214630126953125e-01 5.500450134277343750e-01
-3.654731810092926025e-01 5.093422532081604004e-01 5.715478062629699707e-01
-3.717374801635742188e-01 4.985867142677307129e-01 5.624134540557861328e-01
-3.939619064331054688e-01 4.961409270763397217e-01 5.465681552886962891e-01
-3.761876523494720459e-01 5.442768931388854980e-01 5.643647909164428711e-01
-3.947912752628326416e-01 5.060616731643676758e-01 5.633161067962646484e-01
-3.428112864494323730e-01 5.412182211875915527e-01 5.551016330718994141e-01
-3.649669885635375977e-01 5.555045008659362793e-01 5.334677696228027344e-01
-3.949459195137023926e-01 5.322897434234619141e-01 5.388318896293640137e-01
-3.915978670120239258e-01 5.156523585319519043e-01 5.291042327880859375e-01
-3.946045041084289551e-01 5.301195979118347168e-01 5.541765689849853516e-01
-3.498799502849578857e-01 5.510150194168090820e-01 5.629792809486389160e-01
-3.716593980789184570e-01 5.295666456222534180e-01 5.746749639511108398e-01
-3.903290033340454102e-01 5.316282510757446289e-01 5.605800151824951172e-01
-3.677688241004943848e-01 5.526809692382812500e-01 5.609412789344787598e-01
-3.598405122756958008e-01 5.228576064109802246e-01 5.744500160217285156e-01
-3.639199435710906982e-01 5.316416025161743164e-01 5.750342011451721191e-01
-3.501401841640472412e-01 5.201467871665954590e-01 5.504761338233947754e-01
-3.529696166515350342e-01 5.337724089622497559e-01 5.338781476020812988e-01
-3.533586859703063965e-01 5.362565517425537109e-01 5.328159928321838379e-01
-3.586721420288085938e-01 5.115258693695068359e-01 5.673999190330505371e-01
-3.531908988952636719e-01 5.498979687690734863e-01 5.655445456504821777e-01
-3.937295377254486084e-01 5.183374285697937012e-01 5.638175010681152344e-01
-3.543152213096618652e-01 5.182227492332458496e-01 5.427970290184020996e-01
-3.459740579128265381e-01 5.338634252548217773e-01 5.444583892822265625e-01
-3.980750441551208496e-01 5.251619815826416016e-01 5.390984416007995605e-01
-3.632909655570983887e-01 5.532814264297485352e-01 5.622975230216979980e-01
-3.764140903949737549e-01 5.211601853370666504e-01 5.254012942314147949e-01
-3.935609459877014160e-01 5.255889892578125000e-01 5.307157039642333984e-01
-3.882332444190979004e-01 5.327774286270141602e-01 5.282716751098632812e-01
-3.985162079334259033e-01 5.177384614944458008e-01 5.562117099761962891e-01
-3.761740922927856445e-01 5.102299451828002930e-01 5.306289792060852051e-01
-3.567321598529815674e-01 5.206440687179565430e-01 5.369467139244079590e-01
-3.588259220123291016e-01 5.106856822967529297e-01 5.454601645469665527e-01
-3.491389751434326172e-01 5.404955148696899414e-01 5.366155505180358887e-01
-3.471280038356781006e-01 5.392422676086425781e-01 5.397390723228454590e-01
-3.437175750732421875e-01 5.399530529975891113e-01 5.598174333572387695e-01
-3.593918085098266602e-01 5.604230165481567383e-01 5.481566190719604492e-01
-3.490319252014160156e-01 5.560743808746337891e-01 5.428665876388549805e-01
-3.608541488647460938e-01 5.292522907257080078e-01 5.750228762626647949e-01
-3.590745627880096436e-01 5.319239497184753418e-01 5.743485689163208008e-01
-3.928211331367492676e-01 5.346547961235046387e-01 5.519016981124877930e-01
-3.536554574966430664e-01 5.159856081008911133e-01 5.476719141006469727e-01
-3.694304525852203369e-01 5.274545550346374512e-01 5.755354762077331543e-01
-3.731683194637298584e-01 5.559399724006652832e-01 5.423457026481628418e-01
-4.007445573806762695e-01 5.049872398376464844e-01 5.484472513198852539e-01
-3.549738228321075439e-01 5.602224469184875488e-01 5.482288599014282227e-01
