-3.229276537895202637e-01 3.211029618978500366e-02 9.108931571245193481e-02
-4.852272570133209229e-01 2.763386256992816925e-02 9.177747368812561035e-02
-2.355664074420928955e-01 -5.700305849313735962e-02 -2.033581212162971497e-02
-2.792802751064300537e-01 -7.528737932443618774e-02 -1.863407716155052185e-02
-3.848169445991516113e-01 1.252314448356628418e-01 -8.808214217424392700e-03
-4.163833260536193848e-01 -8.140756934881210327e-02 3.482304885983467102e-02
-4.643555879592895508e-01 9.194608032703399658e-02 6.352638453245162964e-02
-3.199470937252044678e-01 -7.464869320392608643e-02 5.155283957719802856e-02
-5.107166171073913574e-01 1.102520078420639038e-01 -9.837863966822624207e-03
-4.372700750827789307e-01 1.178166419267654419e-01 -4.730713739991188049e-02
-5.065909624099731445e-01 6.461842358112335205e-02 7.290157675743103027e-02
-4.513677656650543213e-01 -3.072163090109825134e-02 8.924359083175659180e-02
-3.663596212863922119e-01 6.496650725603103638e-02 8.519577234983444214e-02
-4.980918765068054199e-01 1.899791881442070007e-03 8.714482933282852173e-02
-4.157532155513763428e-01 -2.699890360236167908e-02 -8.627498894929885864e-02
-5.183326005935668945e-01 1.005538031458854675e-01 -3.504746407270431519e-02
-2.601456046104431152e-01 -2.760934084653854370e-02 6.867322325706481934e-02
-2.478464990854263306e-01 4.112692922353744507e-02 -7.567641139030456543e-02
-4.489509463310241699e-01 -3.900522738695144653e-02 -6.951988488435745239e-02
-2.777236104011535645e-01 -6.774057447910308838e-02 4.326137900352478027e-02
-4.035635590553283691e-01 1.199903711676597595e-01 2.394841983914375305e-02
-3.037741482257843018e-01 5.854990333318710327e-02 7.369666546583175659e-02
-5.158066153526306152e-01 -2.109332010149955750e-02 6.997661292552947998e-02
-4.878893792629241943e-01 -3.729967772960662842e-02 7.280260324478149414e-02
-4.975702762603759766e-01 -3.372758999466896057e-02 -5.229966714978218079e-02
-5.448401570320129395e-01 3.458783775568008423e-02 -5.658822506666183472e-02
-2.162477076053619385e-01 -4.279637336730957031e-02 1.677557080984115601e-02
-4.445836842060089111e-01 7.371500134468078613e-02 -9.021230041980743408e-02
-3.713501989841461182e-01 -8.364857733249664307e-02 4.023099690675735474e-02
-3.280550837516784668e-01 -8.529387414455413818e-02 2.677027508616447449e-02
-3.618676364421844482e-01 -3.700599819421768188e-02 9.205727279186248779e-02
-1.949629038572311401e-01 2.022538706660270691e-02 -2.543640136718750000e-02
-3.091768920421600342e-01 -5.718325823545455933e-02 6.979019194841384888e-02
-4.732981622219085693e-01 -1.179614290595054626e-02 -7.970483601093292236e-02
-1.921965777873992920e-01 -8.922107517719268799e-03 -9.457122534513473511e-03
-5.073271989822387695e-01 -5.553587526082992554e-02 2.192693203687667847e-02
-3.096395432949066162e-01 -8.217508345842361450e-02 2.867343276739120483e-02
-5.410601496696472168e-01 6.453943252563476562e-02 5.505451560020446777e-02
-3.055313825607299805e-01 -1.076598465442657471e-02 -9.318211674690246582e-02
-5.455281734466552734e-01 7.068601995706558228e-02 -4.571235924959182739e-02
-4.732969105243682861e-01 3.218436986207962036e-02 -9.133782982826232910e-02
-3.589227497577667236e-01 1.221177577972412109e-01 -6.771250627934932709e-03
-3.250850141048431396e-01 5.196271091699600220e-02 -9.870577603578567505e-02
-5.432171821594238281e-01 -2.333242446184158325e-02 -2.338081598281860352e-02
-4.862731993198394775e-01 1.176148876547813416e-01 -3.361538983881473541e-05
-3.341304063796997070e-01 2.983287721872329712e-02 -1.034469008445739746e-01
-2.448366582393646240e-01 -4.942790418863296509e-02 -4.469121620059013367e-02
-4.921880066394805908e-01 -5.767243355512619019e-02 -1.835949346423149109e-02
-3.011047542095184326e-01 3.044830448925495148e-02 8.546854555606842041e-02
-6.158599257469177246e-01 9.900455176830291748e-02 -4.789191484451293945e-02
-5.101164579391479492e-01 1.551969796419143677e-01 5.930140614509582520e-02
-6.122578978538513184e-01 1.203285306692123413e-01 4.991368576884269714e-02
-5.255374908447265625e-01 6.106208264827728271e-02 -1.528624445199966431e-02
-4.740709662437438965e-01 7.661753892898559570e-02 -7.455315440893173218e-02
-5.582726597785949707e-01 6.723374873399734497e-02 -4.028485342860221863e-02
-6.216646432876586914e-01 1.224798262119293213e-01 3.097020462155342102e-02
-4.505050182342529297e-01 9.925203025341033936e-02 -8.726378530263900757e-02
-5.476298332214355469e-01 6.791187822818756104e-02 3.267060592770576477e-02
-5.123318433761596680e-01 1.656856536865234375e-01 7.013547234237194061e-03
-5.709962248802185059e-01 1.483219712972640991e-01 -7.117587327957153320e-02
-4.711212217807769775e-01 9.694904088973999023e-02 -9.922369569540023804e-02
-4.803517460823059082e-01 1.265610158443450928e-01 8.862538635730743408e-02
-5.819405317306518555e-01 1.445148736238479614e-01 -7.051764428615570068e-02
-5.380039811134338379e-01 1.333639323711395264e-01 9.144447743892669678e-02
-5.410377383232116699e-01 1.656996309757232666e-01 -1.143447868525981903e-02
-4.946317374706268311e-01 1.354363858699798584e-01 -9.965856373310089111e-02
-4.313177168369293213e-01 8.262172341346740723e-02 -3.299263119697570801e-02
-4.983150362968444824e-01 6.704722344875335693e-02 3.689289838075637817e-02
-4.441608190536499023e-01 1.418930441141128540e-01 4.122478514909744263e-02
-6.065083146095275879e-01 1.460473239421844482e-01 1.748077198863029480e-02
-4.890604615211486816e-01 1.561334431171417236e-01 4.806466400623321533e-02
-4.989845156669616699e-01 7.329338043928146362e-02 -7.756707072257995605e-02
-5.204666256904602051e-01 7.381865382194519043e-02 5.977988243103027344e-02
-6.262849569320678711e-01 1.122733503580093384e-01 -3.318489342927932739e-02
-4.230314195156097412e-01 1.301375329494476318e-01 2.518444880843162537e-02
-4.640033543109893799e-01 1.566627323627471924e-01 1.315014623105525970e-02
-4.992196559906005859e-01 6.212446466088294983e-02 -2.999451942741870880e-02
-4.412941336631774902e-01 7.505957782268524170e-02 -5.332663655281066895e-03
-4.296892881393432617e-01 8.155870437622070312e-02 -6.558977067470550537e-03
-5.564883947372436523e-01 7.355725765228271484e-02 -6.782262772321701050e-02
-5.200826525688171387e-01 6.161951273679733276e-02 -2.968065813183784485e-02
-5.022792220115661621e-01 1.142377629876136780e-01 9.770968556404113770e-02
-5.350232720375061035e-01 6.409820914268493652e-02 2.076291851699352264e-02
-4.928081929683685303e-01 6.505829095840454102e-02 -4.724393412470817566e-02
-5.048322081565856934e-01 1.247841864824295044e-01 -1.101296916604042053e-01
-4.722203016281127930e-01 1.046732142567634583e-01 -1.031984016299247742e-01
-5.521239638328552246e-01 1.591764986515045166e-01 4.211452230811119080e-02
-5.299109220504760742e-01 8.010902255773544312e-02 7.164501398801803589e-02
-5.901830792427062988e-01 1.547967791557312012e-01 -2.296523377299308777e-02
-4.658045768737792969e-01 7.214985042810440063e-02 3.435647860169410706e-02
-4.576690196990966797e-01 1.033932939171791077e-01 7.764197140932083130e-02
-4.182284772396087646e-01 9.535615146160125732e-02 1.454112678766250610e-02
-4.840764999389648438e-01 1.407775431871414185e-01 7.745954394340515137e-02
-6.157723069190979004e-01 1.328883916139602661e-01 -4.548681527376174927e-02
-5.079726576805114746e-01 6.180625036358833313e-02 -3.133460879325866699e-02
-4.342261850833892822e-01 1.230977252125740051e-01 5.509207397699356079e-02
-4.323887228965759277e-01 1.419876366853713989e-01 1.131983846426010132e-02
-4.694696962833404541e-01 1.509986370801925659e-01 4.820112511515617371e-02
-4.956363439559936523e-01 1.550050973892211914e-01 5.504605174064636230e-02
-4.873920083045959473e-01 6.394705921411514282e-02 -3.589295595884323120e-02
-5.539641380310058594e-01 9.344327449798583984e-02 -1.013940870761871338e-01
-4.251764416694641113e-01 8.533309400081634521e-02 6.633689627051353455e-04
-5.835709571838378906e-01 7.222853600978851318e-02 -1.741221919655799866e-02
-5.621600747108459473e-01 1.528210490942001343e-01 5.601143836975097656e-02
-5.797203779220581055e-01 1.592301130294799805e-01 -2.540747169405221939e-03
-4.324393868446350098e-01 8.471092581748962402e-02 -4.426178708672523499e-02
-6.161321401596069336e-01 9.045215696096420288e-02 -1.152902189642190933e-02
-4.862486720085144043e-01 8.070001751184463501e-02 6.821513921022415161e-02
-5.642307400703430176e-01 8.063148707151412964e-02 5.950193852186203003e-02
-4.279711544513702393e-01 9.552052617073059082e-02 -5.735529959201812744e-02
-5.733749866485595703e-01 1.510482132434844971e-01 -6.290380656719207764e-02
-5.277706384658813477e-01 1.650241017341613770e-01 -2.799104154109954834e-02
-5.533520579338073730e-01 1.633632183074951172e-01 -2.681603468954563141e-02
-6.004662513732910156e-01 1.232924610376358032e-01 6.390310078859329224e-02
-4.689522385597229004e-01 7.931891083717346191e-02 5.671931058168411255e-02
-5.594801902770996094e-01 1.636810600757598877e-01 -5.324478261172771454e-04
-4.497389197349548340e-01 1.377452909946441650e-01 -6.916251778602600098e-02
-6.041343212127685547e-01 8.262961357831954956e-02 -2.561576291918754578e-02
-5.390920639038085938e-01 1.462773382663726807e-01 -8.794428408145904541e-02
-4.450954794883728027e-01 1.391711384057998657e-01 -6.078038364648818970e-02
-6.054019927978515625e-01 9.238636493682861328e-02 -5.695833638310432434e-02
-6.291139125823974609e-01 1.139642074704170227e-01 2.834979444742202759e-03
-5.747494697570800781e-01 8.433055877685546875e-02 5.922572314739227295e-02
-5.960434675216674805e-01 9.128515422344207764e-02 -6.878528743982315063e-02
-5.273418426513671875e-01 6.424853205680847168e-02 2.515577897429466248e-02
-4.561829566955566406e-01 1.327419579029083252e-01 6.957276910543441772e-02
-4.795787036418914795e-01 1.125852912664413452e-01 -1.071004718542098999e-01
-5.967229008674621582e-01 7.815447449684143066e-02 -2.204878069460391998e-02
-5.788587331771850586e-01 1.021771878004074097e-01 7.791897654533386230e-02
-5.632158517837524414e-01 1.570258289575576782e-01 -5.226257443428039551e-02
-5.653170943260192871e-01 1.610819250345230103e-01 2.042907476425170898e-02
-4.593092501163482666e-01 7.883543521165847778e-02 4.793339595198631287e-02
-5.807316303253173828e-01 1.560052186250686646e-01 2.721089124679565430e-02
-4.966065883636474609e-01 7.050380110740661621e-02 4.833681136369705200e-02
-5.616416931152343750e-01 7.819823920726776123e-02 -7.602322101593017578e-02
-5.163537263870239258e-01 6.077723205089569092e-02 -9.397757239639759064e-03
-4.795905649662017822e-01 1.531934291124343872e-01 5.055236071348190308e-02
-4.569243490695953369e-01 1.393852084875106812e-01 -7.356012612581253052e-02
-5.854389667510986328e-01 1.116910204291343689e-01 -9.330498427152633667e-02
-4.532136917114257812e-01 7.403991371393203735e-02 2.523734048008918762e-02
-5.169321298599243164e-01 6.470448523759841919e-02 2.942777052521705627e-02
-5.771983861923217773e-01 1.185368224978446960e-01 8.354644477367401123e-02
-4.717768728733062744e-01 7.002851366996765137e-02 -5.350100621581077576e-02
-5.904042720794677734e-01 1.454354077577590942e-01 -6.009554490447044373e-02
-6.166468262672424316e-01 1.223534196615219116e-01 4.181824624538421631e-02
-5.590727329254150391e-01 1.637225747108459473e-01 -9.178461506962776184e-03
-5.584067106246948242e-01 1.167513132095336914e-01 -1.074681282043457031e-01
-5.699355602264404297e-01 1.116853207349777222e-01 8.712426573038101196e-02
-4.239446818828582764e-01 1.071816459298133850e-01 4.258310422301292419e-02
-6.250233054161071777e-01 1.032369956374168396e-01 8.471908047795295715e-03
-4.377172589302062988e-01 8.805708587169647217e-02 4.254059121012687683e-02
-4.550072252750396729e-01 1.127180382609367371e-01 7.818274945020675659e-02
-4.724229872226715088e-01 1.154253557324409485e-01 -1.036590188741683960e-01
-6.000321507453918457e-01 1.482670009136199951e-01 -3.587122261524200439e-02
-4.346861839294433594e-01 1.429979801177978516e-01 -2.648116461932659149e-02
-4.151606559753417969e-01 1.225702315568923950e-01 -2.784348465502262115e-02
-5.258247852325439453e-01 1.623413264751434326e-01 -4.528458416461944580e-02
-6.224336624145507812e-01 1.332961469888687134e-01 9.307533502578735352e-03
-4.140026867389678955e-01 1.019747257232666016e-01 1.156648807227611542e-02
-4.918131232261657715e-01 1.076449230313301086e-01 9.454286843538284302e-02
-5.840309858322143555e-01 9.553189575672149658e-02 6.829216331243515015e-02
-5.678890943527221680e-01 1.472699344158172607e-01 6.452862173318862915e-02
-5.677334666252136230e-01 1.425245851278305054e-01 7.224657386541366577e-02
-4.590272903442382812e-01 6.828448921442031860e-02 -9.929301217198371887e-03
-6.030516624450683594e-01 1.347315311431884766e-01 -6.427928805351257324e-02
-4.118871390819549561e-01 1.167623624205589294e-01 -2.071711048483848572e-02
-4.218760728836059570e-01 1.001287549734115601e-01 -5.067870020866394043e-02
-5.433920025825500488e-01 6.493735313415527344e-02 -4.212332144379615784e-02
-4.331112205982208252e-01 9.743271023035049438e-02 4.970877617597579956e-02
-5.453449487686157227e-01 1.654747426509857178e-01 -2.660256344825029373e-03
-4.710678160190582275e-01 6.857402622699737549e-02 2.466817945241928101e-02
-4.901728630065917969e-01 1.628784835338592529e-01 -2.144018560647964478e-02
-4.479132592678070068e-01 1.226192489266395569e-01 7.028888911008834839e-02
-5.703939795494079590e-01 9.098058938980102539e-02 -9.099739789962768555e-02
-5.053648352622985840e-01 1.415375322103500366e-01 8.312911540269851685e-02
-5.065313577651977539e-01 1.291201263666152954e-01 9.434034675359725952e-02
-5.316689014434814453e-01 7.968513667583465576e-02 -9.061933308839797974e-02
-5.047657489776611328e-01 9.252993762493133545e-02 -1.063094660639762878e-01
-4.283263087272644043e-01 1.402305513620376587e-01 -3.181019797921180725e-03
-5.740411877632141113e-01 7.000405341386795044e-02 -3.043774329125881195e-02
-5.906789302825927734e-01 7.783390581607818604e-02 -4.066556319594383240e-02
-4.128541350364685059e-01 1.000729650259017944e-01 -4.282282199710607529e-03
-5.138195753097534180e-01 1.608738601207733154e-01 -5.067387595772743225e-02
-5.507024526596069336e-01 8.071450889110565186e-02 6.684101372957229614e-02
-5.425604581832885742e-01 1.567635238170623779e-01 5.406375601887702942e-02
-6.121959090232849121e-01 1.294627785682678223e-01 4.429917037487030029e-02
-4.991422295570373535e-01 1.527719050645828247e-01 6.219232082366943359e-02
-5.857387185096740723e-01 7.322603464126586914e-02 1.268731430172920227e-04
-5.231722593307495117e-01 1.036712154746055603e-01 -1.132547482848167419e-01
-5.630732178688049316e-01 7.288262248039245605e-02 -6.062778085470199585e-02
-5.932868123054504395e-01 1.005636230111122131e-01 -8.226444572210311890e-02
-4.905159771442413330e-01 6.213823705911636353e-02 -1.663434877991676331e-02
-5.630775690078735352e-01 1.595917791128158569e-01 -4.127491638064384460e-02
-5.578950047492980957e-01 1.300537139177322388e-01 8.859296143054962158e-02
-5.743821263313293457e-01 7.864815741777420044e-02 4.677835479378700256e-02
-4.480056166648864746e-01 8.790297806262969971e-02 5.481763929128646851e-02
-5.038501620292663574e-01 1.572051644325256348e-01 -6.139271706342697144e-02
-4.540280103683471680e-01 7.265028357505798340e-02 -4.100839421153068542e-02
-5.257401466369628906e-01 8.455185592174530029e-02 7.917603850364685059e-02
-5.752332806587219238e-01 1.367441266775131226e-01 7.490011304616928101e-02
-6.156783699989318848e-01 1.094257831573486328e-01 4.273898527026176453e-02
-4.853404164314270020e-01 1.285158097743988037e-01 -1.028860956430435181e-01
-4.487420320510864258e-01 1.481006145477294922e-01 -3.996951878070831299e-02
-4.410766661167144775e-01 1.477227210998535156e-01 7.117791101336479187e-03
-5.005306601524353027e-01 1.539268493652343750e-01 -6.986157596111297607e-02
-5.315974354743957520e-01 6.159746646881103516e-02 -2.051636949181556702e-02
-5.334936976432800293e-01 9.723271429538726807e-02 -1.093402728438377380e-01
-6.057817339897155762e-01 1.045733019709587097e-01 5.449442192912101746e-02
-4.986452162265777588e-01 6.133960559964179993e-02 -1.341789029538631439e-02
-5.373792052268981934e-01 1.619335263967514038e-01 -4.553215205669403076e-02
-4.898307621479034424e-01 6.475985795259475708e-02 2.151105739176273346e-02
-4.538061618804931641e-01 1.509913355112075806e-01 2.638531848788261414e-02
-6.032269001007080078e-01 1.139407902956008911e-01 -7.721877843141555786e-02
-5.988993644714355469e-01 8.327987045049667358e-02 -4.533257335424423218e-02
-4.181298613548278809e-01 1.032401546835899353e-01 2.758698537945747375e-02
-5.955113768577575684e-01 1.397679299116134644e-01 -6.564362347126007080e-02
-5.359657406806945801e-01 1.081208512187004089e-01 -1.131247207522392273e-01
-5.934723615646362305e-01 1.128995642066001892e-01 7.149638980627059937e-02
-5.419449806213378906e-01 6.385120749473571777e-02 1.344567164778709412e-02
-4.553402662277221680e-01 1.437862664461135864e-01 -6.310425698757171631e-02
-4.269330203533172607e-01 1.026694625616073608e-01 -6.215144693851470947e-02
-4.376373291015625000e-01 7.902874797582626343e-02 1.474644429981708527e-02
-5.414832830429077148e-01 1.627679467201232910e-01 3.093072026968002319e-02
-4.405725002288818359e-01 1.416985243558883667e-01 -4.725241661071777344e-02
-5.106869339942932129e-01 6.950081884860992432e-02 -6.939400732517242432e-02
-5.486280918121337891e-01 1.603832393884658813e-01 -4.814777523279190063e-02
-5.920703411102294922e-01 1.550593376159667969e-01 -6.142657250165939331e-03
-6.273361444473266602e-01 1.138681769371032715e-01 1.412020809948444366e-02
-5.969495177268981934e-01 9.451488405466079712e-02 5.437861755490303040e-02
-5.093284249305725098e-01 6.397054344415664673e-02 -4.735499620437622070e-02
-5.511848330497741699e-01 1.563210934400558472e-01 5.219931155443191528e-02
-4.912975132465362549e-01 1.095538735389709473e-01 -1.108842790126800537e-01
-4.576811790466308594e-01 1.228100433945655823e-01 -9.226182848215103149e-02
-5.303357243537902832e-01 6.491210311651229858e-02 -4.975185543298721313e-02
-5.598616600036621094e-01 1.405419111251831055e-01 -9.031005948781967163e-02
-6.173223853111267090e-01 1.349451094865798950e-01 -3.701090067625045776e-02
-4.732373058795928955e-01 9.739825874567031860e-02 8.283339440822601318e-02
-4.951459169387817383e-01 9.303138405084609985e-02 -1.050118878483772278e-01
-5.277619361877441406e-01 1.662946045398712158e-01 -8.966739289462566376e-03
-5.468922853469848633e-01 1.437255889177322388e-01 -9.023869037628173828e-02
-5.755640864372253418e-01 1.506948173046112061e-01 5.165641754865646362e-02
-5.796418786048889160e-01 1.577008962631225586e-01 -2.831992693245410919e-02
-4.479082524776458740e-01 1.130687370896339417e-01 7.262414693832397461e-02
-6.104972958564758301e-01 1.455078870058059692e-01 -9.267888031899929047e-03
-5.808552503585815430e-01 1.585203707218170166e-01 -1.646658405661582947e-02
-6.163229346275329590e-01 1.391293853521347046e-01 1.409453526139259338e-02
-5.723149776458740234e-01 6.851162761449813843e-02 -1.553645823150873184e-02
-5.550301671028137207e-01 1.476544737815856934e-01 7.020201534032821655e-02
-5.066229701042175293e-01 1.417567282915115356e-01 -9.472173452377319336e-02
-4.739582836627960205e-01 1.489764302968978882e-01 5.727857351303100586e-02
-5.168788433074951172e-01 1.658132672309875488e-01 -1.701540872454643250e-02
-4.166556000709533691e-01 1.127652898430824280e-01 -4.328187182545661926e-02
-5.818256139755249023e-01 7.378399372100830078e-02 -3.878788650035858154e-02
-5.575403571128845215e-01 6.490221619606018066e-02 -1.148981042206287384e-02
-4.821725785732269287e-01 1.180409714579582214e-01 9.221965074539184570e-02
-6.006329059600830078e-01 7.973915338516235352e-02 -1.255657151341438293e-02
-5.117073059082031250e-01 8.288741856813430786e-02 7.700306177139282227e-02
-5.580873489379882812e-01 1.342272460460662842e-01 -9.816658496856689453e-02
-5.083143711090087891e-01 7.979422807693481445e-02 -9.175151586532592773e-02
-5.377198457717895508e-01 7.707606256008148193e-02 6.415445357561111450e-02
-5.053704977035522461e-01 1.057983562350273132e-01 9.654416143894195557e-02
-5.172234177589416504e-01 1.625860482454299927e-01 -4.330388456583023071e-02
-6.095315217971801758e-01 1.444382220506668091e-01 -2.632084861397743225e-02
-4.790754914283752441e-01 1.609852612018585205e-01 9.668426588177680969e-03
-4.744768142700195312e-01 6.484486907720565796e-02 5.132062360644340515e-04
-6.010205149650573730e-01 9.756951034069061279e-02 -7.100286334753036499e-02
-5.509346127510070801e-01 8.336249738931655884e-02 -9.086845070123672485e-02
-5.736262798309326172e-01 7.051210105419158936e-02 1.436687447130680084e-02
-4.761060178279876709e-01 1.460675150156021118e-01 6.486327946186065674e-02
-4.428540468215942383e-01 1.472391784191131592e-01 1.851647347211837769e-02
-5.279461145401000977e-01 6.254111230373382568e-02 -3.549121320247650146e-02
-5.391057729721069336e-01 6.209655478596687317e-02 -9.060168638825416565e-03
-5.106791853904724121e-01 1.169967055320739746e-01 9.868838638067245483e-02
-5.702117681503295898e-01 1.162021234631538391e-01 -1.024790704250335693e-01
-4.496314823627471924e-01 8.031161874532699585e-02 4.116134718060493469e-02
-4.596500396728515625e-01 1.475756466388702393e-01 4.735518246889114380e-02
-5.267969369888305664e-01 1.497640609741210938e-01 -8.297252655029296875e-02
-6.172701716423034668e-01 1.402292698621749878e-01 -9.955859743058681488e-03
-5.166602134704589844e-01 6.170122697949409485e-02 8.729422464966773987e-03
-5.163186788558959961e-01 1.260240375995635986e-01 -1.105766147375106812e-01
-6.258403062820434570e-01 1.240056976675987244e-01 1.629304699599742889e-02
-5.690816044807434082e-01 1.368293315172195435e-01 -9.055587649345397949e-02
-6.028365492820739746e-01 1.295261234045028687e-01 -7.070291042327880859e-02
-4.381625652313232422e-01 8.216534554958343506e-02 2.876145765185356140e-02
-4.292712509632110596e-01 1.281405091285705566e-01 -5.618093907833099365e-02
-4.287873208522796631e-01 8.906246721744537354e-02 2.885954454541206360e-02
-4.638699591159820557e-01 1.094163358211517334e-01 8.353687822818756104e-02
-4.753617048263549805e-01 1.565044224262237549e-01 -4.440470039844512939e-02
-5.012909770011901855e-01 9.663151949644088745e-02 9.094197303056716919e-02
-5.789135098457336426e-01 1.030201166868209839e-01 -9.523859620094299316e-02
-5.555155873298645020e-01 9.849313646554946899e-02 8.709267526865005493e-02
-4.194624125957489014e-01 9.127188473939895630e-02 4.499478265643119812e-03
-4.383876919746398926e-01 1.302615851163864136e-01 -6.709399074316024780e-02
-5.962063074111938477e-01 7.766129821538925171e-02 -1.728539820760488510e-03
-4.329225420951843262e-01 8.001001179218292236e-02 2.073077484965324402e-03
-5.108117461204528809e-01 7.282546907663345337e-02 5.730185657739639282e-02
-5.156202912330627441e-01 1.156751587986946106e-01 -1.142312511801719666e-01
-4.570772945880889893e-01 8.912978321313858032e-02 6.470344215631484985e-02
-4.669106006622314453e-01 1.568393558263778687e-01 -2.901727147400379181e-02
-4.417670071125030518e-01 1.025629267096519470e-01 6.398517638444900513e-02
-6.044709682464599609e-01 1.406453251838684082e-01 -5.139701440930366516e-02
-5.174633860588073730e-01 1.091804355382919312e-01 9.842392057180404663e-02
-4.894720017910003662e-01 6.335230916738510132e-02 1.074860617518424988e-02
-6.108223199844360352e-01 1.003924980759620667e-01 4.272961616516113281e-02
-4.831266105175018311e-01 1.352096199989318848e-01 -9.591162949800491333e-02
-5.422455668449401855e-01 7.182617485523223877e-02 4.957783222198486328e-02
-4.244072437286376953e-01 8.736920356750488281e-02 1.015743799507617950e-02
-6.188598871231079102e-01 1.362810879945755005e-01 -2.739070355892181396e-02
-4.481810927391052246e-01 1.403544992208480835e-01 5.038232728838920593e-02
-6.258658170700073242e-01 1.029108315706253052e-01 -1.720506884157657623e-02
-5.825310349464416504e-01 1.356478482484817505e-01 7.108331471681594849e-02
-5.951856374740600586e-01 1.299627125263214111e-01 -7.856457680463790894e-02
-5.458259582519531250e-01 1.237473934888839722e-01 9.500166773796081543e-02
-4.763702750205993652e-01 1.120276898145675659e-01 9.013468772172927856e-02
-4.174575805664062500e-01 1.160299479961395264e-01 2.878779172897338867e-02
-6.124997138977050781e-01 1.022487729787826538e-01 -5.897689610719680786e-02
-5.017209053039550781e-01 1.120409741997718811e-01 -1.131412088871002197e-01
-4.333211779594421387e-01 1.125830784440040588e-01 -7.318129390478134155e-02
-5.541152954101562500e-01 6.462287902832031250e-02 1.323587261140346527e-03
-6.110479235649108887e-01 1.403920650482177734e-01 2.678550407290458679e-02
-4.916427135467529297e-01 1.008828654885292053e-01 -1.088790446519851685e-01
-4.487406611442565918e-01 1.517057418823242188e-01 -1.337630115449428558e-02
-4.478476643562316895e-01 1.236554235219955444e-01 -8.383431285619735718e-02
-5.010005235671997070e-01 1.640068739652633667e-01 1.650860346853733063e-02
-4.583187401294708252e-01 8.417596668004989624e-02 5.807984620332717896e-02
-6.287264823913574219e-01 1.109043136239051819e-01 -1.763425022363662720e-02
-5.541182160377502441e-01 1.206475347280502319e-01 9.353272616863250732e-02
-5.255619287490844727e-01 1.630164980888366699e-01 3.304253518581390381e-02
-4.916151762008666992e-01 6.619498133659362793e-02 3.029280900955200195e-02
-5.432924032211303711e-01 1.546737849712371826e-01 -6.934630870819091797e-02
-4.294596910476684570e-01 1.343830525875091553e-01 -4.449989646673202515e-02
-5.188224315643310547e-01 8.208896964788436890e-02 -9.561257064342498779e-02
-6.241201162338256836e-01 1.321459114551544189e-01 -1.518316008150577545e-02
-5.647554993629455566e-01 1.233749240636825562e-01 8.890854567289352417e-02
-5.183123350143432617e-01 1.642332077026367188e-01 -3.351449966430664062e-02
-5.561926960945129395e-01 1.531893014907836914e-01 -6.832353770732879639e-02
-5.175593495368957520e-01 1.572422385215759277e-01 5.485691875219345093e-02
-6.006820201873779297e-01 8.802624046802520752e-02 3.695492818951606750e-02
-4.362966418266296387e-01 1.354106366634368896e-01 4.289923980832099915e-02
-5.326811671257019043e-01 1.439561545848846436e-01 -9.251827001571655273e-02
-5.714217424392700195e-01 7.175269722938537598e-02 2.562816441059112549e-02
-5.928964018821716309e-01 8.413189649581909180e-02 -5.856722593307495117e-02
-5.301769971847534180e-01 1.175496056675910950e-01 -1.135517656803131104e-01
-6.171399950981140137e-01 9.603012353181838989e-02 -3.805301338434219360e-02
-5.036427974700927734e-01 6.340569257736206055e-02 2.040448412299156189e-02
-5.542483329772949219e-01 1.413531452417373657e-01 7.973022013902664185e-02
-4.123349487781524658e-01 1.109329462051391602e-01 -2.802695147693157196e-02
-5.649058818817138672e-01 1.621418446302413940e-01 1.118122972548007965e-02
-4.342966973781585693e-01 1.039989143610000610e-01 5.641342699527740479e-02
-4.346566200256347656e-01 1.381475776433944702e-01 3.365545719861984253e-02
-4.242512583732604980e-01 8.687084168195724487e-02 -2.577635273337364197e-02
-6.046028733253479004e-01 1.377731561660766602e-01 4.507739096879959106e-02
-5.863559246063232422e-01 1.433190703392028809e-01 5.747584253549575806e-02
-6.213097572326660156e-01 1.206550076603889465e-01 -4.715147614479064941e-02
-5.975141525268554688e-01 7.978691160678863525e-02 1.262197829782962799e-02
-4.809254109859466553e-01 6.779469549655914307e-02 3.053728863596916199e-02
-5.439810752868652344e-01 7.557657361030578613e-02 5.877022445201873779e-02
-6.231301426887512207e-01 1.027147471904754639e-01 -3.301043435931205750e-02
-4.277916848659515381e-01 1.298142075538635254e-01 3.732422366738319397e-02
-5.786893963813781738e-01 1.550530940294265747e-01 -4.433353245258331299e-02
-5.764893293380737305e-01 1.266182810068130493e-01 -9.529096633195877075e-02
-4.569938182830810547e-01 6.922566890716552734e-02 -2.141156420111656189e-02
-5.309203863143920898e-01 6.193270534276962280e-02 4.618511535227298737e-03
-4.239642024040222168e-01 1.217763125896453857e-01 3.965359553694725037e-02
-5.306811928749084473e-01 1.239212378859519958e-01 9.732804447412490845e-02
-4.483200907707214355e-01 8.457202464342117310e-02 -6.870701909065246582e-02
-4.509543776512145996e-01 7.684619724750518799e-02 -5.312379822134971619e-02
-6.171540021896362305e-01 1.234845668077468872e-01 -5.423913896083831787e-02
-6.094870567321777344e-01 1.161729842424392700e-01 -6.933788955211639404e-02
-5.855931043624877930e-01 7.614696025848388672e-02 2.295109815895557404e-02
-5.058621764183044434e-01 6.125603616237640381e-02 -2.307412587106227875e-02
-4.645660221576690674e-01 1.420433670282363892e-01 6.376827508211135864e-02
-5.667116641998291016e-01 1.323779672384262085e-01 8.337453752756118774e-02
-5.401464104652404785e-01 1.121222078800201416e-01 9.714646637439727783e-02
-5.918358564376831055e-01 1.527252644300460815e-01 2.275095134973526001e-02
-4.547375142574310303e-01 1.296694278717041016e-01 -8.465597033500671387e-02
-4.642379581928253174e-01 1.151103675365447998e-01 -9.942229092121124268e-02
-4.944925010204315186e-01 1.219231784343719482e-01 -1.094549819827079773e-01
-6.022319793701171875e-01 1.452809423208236694e-01 3.155377879738807678e-02
-6.225636601448059082e-01 9.732571244239807129e-02 -1.192060112953186035e-02
-4.485406279563903809e-01 7.188453525304794312e-02 -8.087212219834327698e-03
-5.057225227355957031e-01 1.620689481496810913e-01 3.328119218349456787e-02
-4.950832426548004150e-01 6.346808373928070068e-02 -3.883368149399757385e-02
-4.373034834861755371e-01 1.430536955595016479e-01 -3.489206731319427490e-02
-5.156570076942443848e-01 6.702595204114913940e-02 -6.134923920035362244e-02
-5.505352020263671875e-01 6.628763675689697266e-02 2.186293900012969971e-02
-4.746834635734558105e-01 6.568662822246551514e-02 -3.280577808618545532e-02
-5.625306367874145508e-01 7.522162795066833496e-02 4.753125086426734924e-02
-5.601289868354797363e-01 6.926247477531433105e-02 -4.920404776930809021e-02
-5.326862931251525879e-01 1.601945757865905762e-01 -5.406959354877471924e-02
-4.253961443901062012e-01 8.941694349050521851e-02 2.136432379484176636e-02
-6.016963720321655273e-01 9.352760016918182373e-02 4.669053107500076294e-02
-6.071316003799438477e-01 1.024584919214248657e-01 -6.763452291488647461e-02
-5.550323724746704102e-01 1.522948145866394043e-01 6.094688177108764648e-02
-6.280735135078430176e-01 1.070336624979972839e-01 -6.487376522272825241e-03
-5.434129238128662109e-01 6.308825314044952393e-02 3.247081302106380463e-03
-5.605521798133850098e-01 6.701165437698364258e-02 1.341816224157810211e-02
-4.923933744430541992e-01 1.613470464944839478e-01 2.794138714671134949e-02
-4.524664282798767090e-01 7.158443331718444824e-02 9.254409000277519226e-03
-5.706251859664916992e-01 1.419801414012908936e-01 -8.289922028779983521e-02
-6.054329872131347656e-01 8.841823041439056396e-02 -4.763162881135940552e-02
-4.853259325027465820e-01 1.522735953330993652e-01 5.692828446626663208e-02
-5.253416895866394043e-01 1.566271483898162842e-01 -6.659863144159317017e-02
-5.580598711967468262e-01 1.246629357337951660e-01 -1.050137206912040710e-01
-5.827863216400146484e-01 1.521398574113845825e-01 4.008485004305839539e-02
-5.258241891860961914e-01 1.533830016851425171e-01 -7.514856755733489990e-02
-4.969955682754516602e-01 1.580285131931304932e-01 4.616500809788703918e-02
-5.475422143936157227e-01 1.324616521596908569e-01 -1.030215695500373840e-01
-5.663166046142578125e-01 1.289726048707962036e-01 -9.908239543437957764e-02
-4.638101458549499512e-01 6.934065371751785278e-02 -4.021281376481056213e-02
-6.262377500534057617e-01 1.267421990633010864e-01 -2.267019078135490417e-02
-5.250715017318725586e-01 9.576202929019927979e-02 9.143193811178207397e-02
-6.141955256462097168e-01 1.333785951137542725e-01 3.539279103279113770e-02
-5.212945938110351562e-01 1.662918329238891602e-01 -6.461064331233501434e-04
-4.756439328193664551e-01 1.606470942497253418e-01 4.386045038700103760e-04
-4.591180682182312012e-01 1.254905164241790771e-01 7.762886583805084229e-02
-5.260390639305114746e-01 1.597617864608764648e-01 4.711307585239410400e-02
-4.741181433200836182e-01 8.222882449626922607e-02 -8.510502427816390991e-02
-5.092771053314208984e-01 1.556847095489501953e-01 -6.756463646888732910e-02
-5.784235000610351562e-01 8.098394423723220825e-02 -6.857463717460632324e-02
-4.991647303104400635e-01 1.489367783069610596e-01 -8.093918114900588989e-02
-5.132787227630615234e-01 9.537987411022186279e-02 9.122744202613830566e-02
-4.703930914402008057e-01 1.512948721647262573e-01 -5.861195921897888184e-02
-4.891556501388549805e-01 1.633118391036987305e-01 2.187156118452548981e-03
-5.815125107765197754e-01 1.253166794776916504e-01 7.911363244056701660e-02
-5.265147089958190918e-01 1.659701615571975708e-01 8.746378123760223389e-03
-4.668133258819580078e-01 8.920354396104812622e-02 7.144768536090850830e-02
-5.750970244407653809e-01 1.554960310459136963e-01 3.721386194229125977e-02
-5.400784015655517578e-01 1.533057689666748047e-01 6.357993185520172119e-02
-4.340342879295349121e-01 7.896424829959869385e-02 -1.703511923551559448e-02
-5.229626297950744629e-01 8.948308229446411133e-02 -1.042839512228965759e-01
-4.857406616210937500e-01 1.613344997167587280e-01 2.004224620759487152e-02
-6.100345849990844727e-01 1.253079175949096680e-01 -6.479741632938385010e-02
-5.861197710037231445e-01 7.867251336574554443e-02 3.252910450100898743e-02
-4.280988276004791260e-01 1.180122047662734985e-01 -6.410627067089080811e-02
-5.197032094001770020e-01 7.165725529193878174e-02 -7.544117420911788940e-02
-4.943688809871673584e-01 6.183317676186561584e-02 -3.177234437316656113e-03
-4.449859857559204102e-01 1.057766824960708618e-01 -8.522599935531616211e-02
-4.833117127418518066e-01 1.480230838060379028e-01 -7.615077495574951172e-02
-4.886398017406463623e-01 1.256831586360931396e-01 9.205674380064010620e-02
-5.713297724723815918e-01 1.611414551734924316e-01 5.622627213597297668e-03
-6.279758810997009277e-01 1.180639714002609253e-01 -2.603290043771266937e-02
-4.753175973892211914e-01 1.314227432012557983e-01 8.314131200313568115e-02
-5.243273377418518066e-01 6.113388016819953918e-02 -2.859897445887327194e-03
-6.065360307693481445e-01 8.795644342899322510e-02 2.485115453600883484e-02
-5.118523836135864258e-01 6.627092510461807251e-02 3.647028282284736633e-02
-5.310684442520141602e-01 7.131942361593246460e-02 -7.289170473814010620e-02
-4.976757466793060303e-01 1.643001735210418701e-01 7.801580242812633514e-03
-4.127971827983856201e-01 1.213773190975189209e-01 7.854588329792022705e-05
-5.898492336273193359e-01 1.390023678541183472e-01 -7.284351438283920288e-02
-4.714147746562957764e-01 7.398179918527603149e-02 4.535477980971336365e-02
-6.264771223068237305e-01 1.281869411468505859e-01 1.730080693960189819e-03
-5.610654950141906738e-01 8.708737045526504517e-02 7.250547409057617188e-02
-6.136522889137268066e-01 8.930299431085586548e-02 -2.412166260182857513e-02
-5.385534167289733887e-01 7.071284949779510498e-02 -6.889550387859344482e-02
-5.924495458602905273e-01 1.249891221523284912e-01 7.091517746448516846e-02
-5.073729753494262695e-01 6.195904314517974854e-02 1.022834889590740204e-02
-5.687131285667419434e-01 8.358377218246459961e-02 -8.174137026071548462e-02
-4.750944077968597412e-01 6.622543931007385254e-02 1.574582420289516449e-02
-4.722485840320587158e-01 1.236227601766586304e-01 -1.004941016435623169e-01
-5.137379765510559082e-01 1.340907961130142212e-01 9.174673259258270264e-02
-5.078133344650268555e-01 7.469236850738525391e-02 -8.222251385450363159e-02
-4.763294160366058350e-01 1.546851098537445068e-01 -5.290337651968002319e-02
-6.033776998519897461e-01 8.159776031970977783e-02 -2.030641771852970123e-04
-5.456559062004089355e-01 7.375070452690124512e-02 -7.431708276271820068e-02
-4.988784790039062500e-01 1.632398366928100586e-01 -2.985427528619766235e-02
-5.080768465995788574e-01 1.472129374742507935e-01 7.547961920499801636e-02
-5.382334589958190918e-01 1.642013788223266602e-01 2.319852076470851898e-02
-5.783065557479858398e-01 7.046635448932647705e-02 -2.263781148940324783e-03
-5.145215988159179688e-01 1.487738043069839478e-01 -8.443551510572433472e-02
-5.458201169967651367e-01 6.870447844266891479e-02 -5.866634100675582886e-02
-6.094712615013122559e-01 1.414557397365570068e-01 -3.905222937464714050e-02
-4.297837615013122559e-01 1.269575506448745728e-01 4.496556892991065979e-02
-4.535462856292724609e-01 1.538532972335815430e-01 -1.305750571191310883e-03
-4.980642199516296387e-01 6.647933274507522583e-02 -5.630338937044143677e-02
-5.117107629776000977e-01 1.646775603294372559e-01 1.894482783973217010e-02
-5.081778168678283691e-01 1.596241593360900879e-01 4.501649364829063416e-02
-5.554327368736267090e-01 1.628086566925048828e-01 2.037365920841693878e-02
-5.154102444648742676e-01 1.073018163442611694e-01 -1.141563057899475098e-01
-4.269260764122009277e-01 1.389601379632949829e-01 -1.305364817380905151e-02
-5.721390843391418457e-01 1.611673980951309204e-01 -8.931603282690048218e-03
-4.266992211341857910e-01 1.373168230056762695e-01 -2.538469806313514709e-02
-4.539347290992736816e-01 1.064018830657005310e-01 -9.272629022598266602e-02
-5.347381830215454102e-01 1.243288889527320862e-01 -1.107308790087699890e-01
-5.013586878776550293e-01 6.842899322509765625e-02 -6.452085822820663452e-02
-5.391295552253723145e-01 9.044090658426284790e-02 8.445937931537628174e-02
-6.223575472831726074e-01 1.086464598774909973e-01 2.752352505922317505e-02
-5.699087977409362793e-01 7.152369618415832520e-02 -4.774688184261322021e-02
-6.067933440208435059e-01 9.349812567234039307e-02 3.854296728968620300e-02
-5.292302966117858887e-01 6.828521192073822021e-02 4.248849302530288696e-02
-4.535738527774810791e-01 9.861941635608673096e-02 7.177553325891494751e-02
-4.686309993267059326e-01 1.570242345333099365e-01 2.172178030014038086e-02
-5.714065432548522949e-01 7.025778293609619141e-02 -3.840144723653793335e-02
-5.208126902580261230e-01 1.196308135986328125e-01 9.881467372179031372e-02
-4.924316704273223877e-01 1.416341066360473633e-01 7.960364222526550293e-02
-4.955751895904541016e-01 1.641872823238372803e-01 -1.320344023406505585e-02
-5.379938483238220215e-01 1.579140424728393555e-01 -6.118433922529220581e-02
-5.539343953132629395e-01 1.617708504199981689e-01 -3.766405582427978516e-02
-4.852710366249084473e-01 9.056930989027023315e-02 -1.001299321651458740e-01
-6.233718991279602051e-01 9.891715645790100098e-02 4.696547985076904297e-04
-5.470478534698486328e-01 1.394122987985610962e-01 8.412984758615493774e-02
-6.081539392471313477e-01 8.617995679378509521e-02 1.237490214407444000e-02
-4.528340101242065430e-01 1.525805890560150146e-01 -2.379029057919979095e-02
-4.883305430412292480e-01 1.566485762596130371e-01 -5.547827482223510742e-02
-4.477626681327819824e-01 1.306251436471939087e-01 -7.734096050262451172e-02
-5.175146460533142090e-01 7.754996418952941895e-02 6.795579940080642700e-02
-4.972995519638061523e-01 1.463371515274047852e-01 7.426336407661437988e-02
-6.081200838088989258e-01 8.441638201475143433e-02 -1.641334965825080872e-02
-4.431196451187133789e-01 1.485216915607452393e-01 -2.075683698058128357e-02
-5.312075614929199219e-01 8.799035847187042236e-02 -1.019435301423072815e-01
-5.224872231483459473e-01 1.334899961948394775e-01 9.256021678447723389e-02
-4.193013906478881836e-01 1.205094158649444580e-01 -4.499903693795204163e-02
-4.608320295810699463e-01 1.526101231575012207e-01 -4.201974719762802124e-02
-5.419081449508666992e-01 1.654382795095443726e-01 7.496790960431098938e-03
-5.378576517105102539e-01 8.363910764455795288e-02 7.589010894298553467e-02
-4.457271993160247803e-01 1.287232935428619385e-01 6.391732394695281982e-02
-5.377376079559326172e-01 8.411157876253128052e-02 -9.604422003030776978e-02
-4.564974308013916016e-01 7.037356495857238770e-02 -3.203795850276947021e-02
-4.627713263034820557e-01 7.227838039398193359e-02 -5.253654718399047852e-02
-5.053045749664306641e-01 8.721074461936950684e-02 8.231496810913085938e-02
-5.925232768058776855e-01 1.521854102611541748e-01 -3.416753560304641724e-02
-5.070907473564147949e-01 1.622340828180313110e-01 -4.191758111119270325e-02
-4.410441815853118896e-01 8.654882758855819702e-02 -6.345298886299133301e-02
-4.781464040279388428e-01 6.718261539936065674e-02 -4.690389335155487061e-02
-4.615075588226318359e-01 8.447267860174179077e-02 -8.054386824369430542e-02
-5.845574736595153809e-01 9.638330340385437012e-02 -8.648456633090972900e-02
-5.986846685409545898e-01 8.070792257785797119e-02 -3.429157286882400513e-02
-6.062629222869873047e-01 1.191904097795486450e-01 5.836743861436843872e-02
-4.646481871604919434e-01 1.575217545032501221e-01 -1.376688387244939804e-02
-4.726383090019226074e-01 1.431073546409606934e-01 -7.933343946933746338e-02
-4.425657689571380615e-01 7.446344196796417236e-02 -1.531984470784664154e-02
-4.843946695327758789e-01 1.587205231189727783e-01 -4.361195862293243408e-02
-4.257887005805969238e-01 1.362079977989196777e-01 1.460121572017669678e-02
-5.411355495452880859e-01 1.439571976661682129e-01 7.993626594543457031e-02
-5.301378965377807617e-01 1.457768082618713379e-01 7.885311543941497803e-02
-6.196622252464294434e-01 1.141672506928443909e-01 3.696125373244285583e-02
-5.905912518501281738e-01 1.509214788675308228e-01 3.321652114391326904e-02
-5.319907665252685547e-01 1.095138490200042725e-01 9.784644097089767456e-02
-6.113781929016113281e-01 1.448352038860321045e-01 -8.379342034459114075e-05
-4.932164251804351807e-01 1.615445017814636230e-01 -3.648602589964866638e-02
-5.827924609184265137e-01 1.379955112934112549e-01 -8.033676445484161377e-02
-4.849532842636108398e-01 1.609456837177276611e-01 -3.094221651554107666e-02
-4.820754528045654297e-01 1.574978828430175781e-01 3.752857819199562073e-02
-5.739666223526000977e-01 7.515497505664825439e-02 3.647788614034652710e-02
-5.447562336921691895e-01 6.329135596752166748e-02 -2.584283985197544098e-02
-5.389001965522766113e-01 1.376374363899230957e-01 -9.981124103069305420e-02
-4.601305723190307617e-01 9.503598511219024658e-02 -9.151816368103027344e-02
-5.230383872985839844e-01 1.527059376239776611e-01 6.661718338727951050e-02
-5.666256546974182129e-01 6.718441843986511230e-02 -9.386981837451457977e-04
6.485559791326522827e-02 -4.333084821701049805e-02 1.474134176969528198e-01
-1.378202587366104126e-01 7.667221128940582275e-03 1.583282947540283203e-01
-9.453095495700836182e-02 -3.483007103204727173e-02 2.884410619735717773e-01
-5.003988742828369141e-03 -3.824666142463684082e-03 -2.536761462688446045e-01
-8.652435243129730225e-02 -3.918294981122016907e-02 -1.650783121585845947e-01
7.928232848644256592e-02 -3.831944428384304047e-03 2.250923663377761841e-01
3.729115426540374756e-02 -7.822432555258274078e-03 3.491116762161254883e-01
-5.730748921632766724e-02 1.240773126482963562e-02 3.077320754528045654e-03
-2.341857366263866425e-02 -4.464463144540786743e-02 -1.359671503305435181e-01
-1.910828351974487305e-01 -1.482533104717731476e-02 -6.399221718311309814e-02
-1.335633248090744019e-01 -2.274788916110992432e-02 -2.256546616554260254e-01
-8.726415038108825684e-02 -3.001599013805389404e-02 3.419696688652038574e-01
-7.595042884349822998e-02 -4.535697400569915771e-02 -1.044012978672981262e-02
-8.789072930812835693e-02 4.819195717573165894e-03 -1.711795628070831299e-01
8.368557691574096680e-02 -4.234892874956130981e-02 9.534469246864318848e-02
-3.824950009584426880e-02 -4.705573618412017822e-02 1.100457161664962769e-01
-3.854653984308242798e-02 -3.361250832676887512e-02 3.471033871173858643e-01
5.842979997396469116e-02 -4.781602881848812103e-03 -1.817714571952819824e-01
-6.168558076024055481e-02 -4.475791752338409424e-02 1.578980684280395508e-01
2.495988830924034119e-02 -8.351338095963001251e-03 -2.587195336818695068e-01
-1.887909770011901855e-01 -8.780003525316715240e-03 1.777132749557495117e-01
-5.774827301502227783e-02 2.908576279878616333e-04 3.518033623695373535e-01
5.337759107351303101e-02 5.010735243558883667e-03 1.176954209804534912e-01
-9.905737638473510742e-02 1.115789264440536499e-02 1.484447121620178223e-01
-6.570488214492797852e-02 -4.584079608321189880e-02 -3.119565919041633606e-02
-6.710285693407058716e-02 -6.604556925594806671e-03 -2.780115902423858643e-01
-4.516324400901794434e-02 1.268651895225048065e-02 8.747050911188125610e-02
-7.164667546749114990e-02 1.246804744005203247e-02 1.205445826053619385e-01
-8.176213502883911133e-02 1.194245740771293640e-02 -9.407073259353637695e-03
4.084841907024383545e-02 -3.875597380101680756e-03 3.172737658023834229e-01
2.658058702945709229e-02 -3.730927035212516785e-02 3.009518384933471680e-01
5.669459700584411621e-02 8.807312697172164917e-04 2.249083220958709717e-01
7.017832994461059570e-02 -3.802423551678657532e-02 2.346945106983184814e-01
5.507268011569976807e-03 -4.124360531568527222e-02 -1.938165575265884399e-01
-1.545573770999908447e-01 -2.372775971889495850e-02 2.668215334415435791e-01
-4.277661070227622986e-02 1.085163466632366180e-02 -5.949795618653297424e-02
3.884983062744140625e-02 -4.435513913631439209e-02 -1.123461127281188965e-01
2.581690624356269836e-02 -3.061326965689659119e-02 3.535749614238739014e-01
-1.082532629370689392e-01 -3.923194110393524170e-02 -1.141402125358581543e-01
8.345875144004821777e-02 -9.019405581057071686e-03 2.669133841991424561e-01
3.337340056896209717e-02 -1.526116020977497101e-02 -2.784864008426666260e-01
1.817526668310165405e-02 4.403479397296905518e-03 2.557450532913208008e-01
5.527919530868530273e-02 3.004800528287887573e-03 -6.428912281990051270e-02
4.294525831937789917e-03 -4.763675481081008911e-02 1.073997318744659424e-01
-9.679315984249114990e-02 -4.286103695631027222e-02 -4.506814852356910706e-02
1.248102039098739624e-01 -2.047922462224960327e-02 -7.129323482513427734e-02
-1.283796131610870361e-01 8.524700999259948730e-03 -3.634626790881156921e-02
5.530508607625961304e-02 -2.439185976982116699e-03 -1.622150242328643799e-01
8.688455820083618164e-02 -4.792734980583190918e-04 3.370093926787376404e-02
1.115581393241882324e-02 -4.641288146376609802e-02 -8.845998346805572510e-02
1.274037957191467285e-01 -1.848785951733589172e-02 1.365053951740264893e-01
-5.896119028329849243e-02 1.120736263692378998e-02 -5.273912474513053894e-02
-1.919004321098327637e-01 -2.226804196834564209e-02 5.410897359251976013e-02
3.046945482492446899e-02 -4.439771175384521484e-02 1.900022476911544800e-01
-1.961455643177032471e-01 -1.619904674589633942e-02 1.197597086429595947e-01
1.800662651658058167e-02 -2.965684980154037476e-04 -2.006362974643707275e-01
-6.777209043502807617e-02 -3.199029713869094849e-02 -2.617166936397552490e-01
-7.398797571659088135e-02 6.832286715507507324e-03 -1.493386030197143555e-01
-9.234763681888580322e-02 1.219058036804199219e-02 3.542046248912811279e-02
6.195860356092453003e-02 -4.550619423389434814e-02 3.877373039722442627e-02
-4.765046387910842896e-02 5.198666825890541077e-03 3.017178773880004883e-01
9.191183000802993774e-02 -1.590409316122531891e-02 2.800623476505279541e-01
-1.120209544897079468e-01 -3.745738416910171509e-02 2.158486992120742798e-01
-1.597401648759841919e-01 -5.086799152195453644e-03 2.692974209785461426e-01
-1.778987050056457520e-01 -6.983242928981781006e-05 -2.709269151091575623e-02
-1.992007344961166382e-01 -1.537387631833553314e-02 2.762313187122344971e-02
-7.282080501317977905e-02 -3.865202516317367554e-02 2.686318755149841309e-01
-4.871544986963272095e-02 1.226397976279258728e-02 1.334743797779083252e-01
-2.807696722447872162e-02 9.185317903757095337e-03 2.238729149103164673e-01
-6.142646446824073792e-02 -3.525073081254959106e-02 3.204098045825958252e-01
-8.359346538782119751e-02 6.048312410712242126e-03 2.821597456932067871e-01
7.409909367561340332e-02 -3.443771600723266602e-02 2.659142017364501953e-01
8.151169121265411377e-02 -4.326201230287551880e-02 3.827619925141334534e-02
1.083423346281051636e-01 -3.793840855360031128e-02 -9.713321924209594727e-05
4.287421703338623047e-02 2.455562353134155273e-03 2.360459566116333008e-01
-3.409573063254356384e-02 -2.606247365474700928e-02 3.927696645259857178e-01
-1.049021780490875244e-01 -4.275332391262054443e-02 5.111155658960342407e-02
