-3.516916930675506592e-01 2.360109090805053711e-01 2.244062721729278564e-01
-3.849130570888519287e-01 3.250365555286407471e-01 -6.198168545961380005e-02
-3.362764120101928711e-01 2.923803329467773438e-01 1.755365729331970215e-01
-3.442897498607635498e-01 2.083231508731842041e-01 1.281300187110900879e-01
-3.462465703487396240e-01 2.258659750223159790e-01 8.638206869363784790e-02
-3.776604831218719482e-01 2.754759490489959717e-01 -6.743285804986953735e-02
-3.746165633201599121e-01 2.769574224948883057e-01 8.232533186674118042e-02
-3.308492302894592285e-01 2.127472013235092163e-01 2.363446056842803955e-01
-3.356517851352691650e-01 2.486342936754226685e-01 1.200826987624168396e-01
-3.735643029212951660e-01 2.260766029357910156e-01 4.609123617410659790e-02
-3.466835021972656250e-01 3.344244658946990967e-01 2.021496370434761047e-02
-3.365232646465301514e-01 3.033675849437713623e-01 1.413941234350204468e-01
-3.799795210361480713e-01 3.534777760505676270e-01 -8.219107240438461304e-02
-3.778250813484191895e-01 2.516202330589294434e-01 -2.011603116989135742e-02
-3.488378524780273438e-01 2.909103333950042725e-01 9.748637676239013672e-04
-3.659636378288269043e-01 2.812009751796722412e-01 1.284701824188232422e-01
-3.821997344493865967e-01 3.299224972724914551e-01 -3.707982599735260010e-02
-3.480038344860076904e-01 2.062953114509582520e-01 2.452554106712341309e-01
-3.405109643936157227e-01 3.180637061595916748e-01 6.784547120332717896e-02
-3.446581959724426270e-01 3.019847273826599121e-01 1.648823320865631104e-01
-3.681994378566741943e-01 2.229165583848953247e-01 1.382637619972229004e-01
-3.790295720100402832e-01 2.945036888122558594e-01 3.599247708916664124e-02
-3.501763939857482910e-01 2.641981840133666992e-01 2.066863179206848145e-01
-3.556420505046844482e-01 2.720658481121063232e-01 1.810562610626220703e-01
-3.622781038284301758e-01 2.478852570056915283e-01 1.724861264228820801e-01
-3.599589765071868896e-01 3.172788918018341064e-01 1.058806478977203369e-01
-3.609126806259155273e-01 1.951120346784591675e-01 1.459758877754211426e-01
-3.695196807384490967e-01 2.457336932420730591e-01 1.316969692707061768e-01
-3.850909173488616943e-01 3.285030722618103027e-01 -7.490464299917221069e-02
-3.692649602890014648e-01 3.351716697216033936e-01 3.756966441869735718e-02
-3.552048802375793457e-01 2.161555588245391846e-01 2.164173424243927002e-01
-3.331620991230010986e-01 2.299830168485641479e-01 2.593173384666442871e-01
-3.831472098827362061e-01 3.391935229301452637e-01 -7.020009309053421021e-02
-3.421586453914642334e-01 2.309804707765579224e-01 9.944373369216918945e-02
-3.614355027675628662e-01 2.141672223806381226e-01 1.824662089347839355e-01
-3.520193099975585938e-01 2.806876301765441895e-01 -7.421821355819702148e-03
-3.789183795452117920e-01 2.692666053771972656e-01 5.229661241173744202e-02
-3.637747466564178467e-01 3.032957315444946289e-01 -7.284311205148696899e-02
-3.805306553840637207e-01 2.533389329910278320e-01 1.854668185114860535e-02
-3.555517196655273438e-01 2.783646881580352783e-01 1.745347231626510620e-01
-3.632509708404541016e-01 2.497287094593048096e-01 -1.099017262458801270e-02
-3.764350116252899170e-01 3.101243972778320312e-01 3.739837929606437683e-02
-3.856786191463470459e-01 3.218467235565185547e-01 -9.103829413652420044e-02
-3.701056540012359619e-01 2.535808086395263672e-01 1.253107786178588867e-01
-3.343377709388732910e-01 2.170945405960083008e-01 1.751415729522705078e-01
-3.487510383129119873e-01 3.276775777339935303e-01 1.074784323573112488e-01
-3.571974039077758789e-01 2.389138191938400269e-01 2.272883802652359009e-02
-3.369827866554260254e-01 2.140137851238250732e-01 1.601531654596328735e-01
-3.356325328350067139e-01 2.779082357883453369e-01 1.003366112709045410e-01
-3.309038281440734863e-01 2.362706065177917480e-01 2.476060092449188232e-01
-3.569040298461914062e-01 2.818315029144287109e-01 -2.959220111370086670e-02
-3.405692577362060547e-01 1.901640295982360840e-01 1.990851759910583496e-01
-3.617809116840362549e-01 2.642478644847869873e-01 -2.727037668228149414e-02
-3.860520124435424805e-01 3.082596361637115479e-01 -6.211902946233749390e-02
-3.649809360504150391e-01 2.050401121377944946e-01 1.420628130435943604e-01
-3.462124764919281006e-01 2.439797520637512207e-01 2.358055412769317627e-01
-3.606832027435302734e-01 3.620548248291015625e-01 -3.740306198596954346e-02
-3.756981790065765381e-01 2.629233002662658691e-01 8.191411197185516357e-02
-3.676382899284362793e-01 3.601991832256317139e-01 -1.977857947349548340e-02
-3.842042684555053711e-01 2.768982052803039551e-01 -2.773074060678482056e-02
-3.307267129421234131e-01 2.688653171062469482e-01 1.901883780956268311e-01
-3.775328099727630615e-01 2.656169831752777100e-01 6.581681221723556519e-02
-3.322592973709106445e-01 2.134022861719131470e-01 2.604624330997467041e-01
-3.444942533969879150e-01 1.939417123794555664e-01 1.629160642623901367e-01
-3.447239995002746582e-01 1.858167350292205811e-01 1.940222084522247314e-01
-3.401344418525695801e-01 2.658230662345886230e-01 7.170703262090682983e-02
-3.814384937286376953e-01 2.676570415496826172e-01 2.413640543818473816e-02
-3.830601572990417480e-01 2.699733376502990723e-01 -3.247682750225067139e-02
-3.698294758796691895e-01 3.102484047412872314e-01 7.522282004356384277e-02
-3.686424493789672852e-01 3.238385021686553955e-01 -1.004248633980751038e-01
-3.560893535614013672e-01 2.933478057384490967e-01 -3.594435751438140869e-02
-3.745415508747100830e-01 2.898448109626770020e-01 7.210475206375122070e-02
-3.655181825160980225e-01 2.447705566883087158e-01 1.566686332225799561e-01
-3.363876342773437500e-01 3.004131913185119629e-01 9.959282726049423218e-02
-3.773486316204071045e-01 2.897772490978240967e-01 5.293643102049827576e-02
-3.566808402538299561e-01 5.172942280769348145e-01 -2.166735827922821045e-01
-3.853672742843627930e-01 6.379156112670898438e-01 -2.346922308206558228e-01
-3.599237799644470215e-01 4.216734170913696289e-01 -2.389389425516128540e-01
-3.539792597293853760e-01 5.162748694419860840e-01 -2.492033243179321289e-01
-3.739945888519287109e-01 5.310071110725402832e-01 -2.099931836128234863e-01
-3.481772541999816895e-01 4.513831138610839844e-01 -2.511732578277587891e-01
-3.574738204479217529e-01 5.436590909957885742e-01 -2.430153489112854004e-01
-3.666809499263763428e-01 5.824871659278869629e-01 -2.135522365570068359e-01
-3.604441881179809570e-01 5.267895460128784180e-01 -2.067531198263168335e-01
-3.781296610832214355e-01 5.204955935478210449e-01 -2.743447124958038330e-01
-3.576324582099914551e-01 4.427803754806518555e-01 -2.163169831037521362e-01
-3.663219511508941650e-01 5.197533965110778809e-01 -2.006562948226928711e-01
-3.838646411895751953e-01 5.716243386268615723e-01 -2.666472792625427246e-01
-3.816568255424499512e-01 5.495025515556335449e-01 -2.701147496700286865e-01
-3.578620851039886475e-01 5.444628596305847168e-01 -2.583549916744232178e-01
-3.672523796558380127e-01 6.019577980041503906e-01 -2.558376491069793701e-01
-3.512593507766723633e-01 4.813594818115234375e-01 -2.687938511371612549e-01
-3.485341966152191162e-01 4.281568825244903564e-01 -2.355665266513824463e-01
-3.703387081623077393e-01 5.720010995864868164e-01 -2.966896891593933105e-01
-3.548696041107177734e-01 4.988681674003601074e-01 -2.827945649623870850e-01
-3.635517954826354980e-01 5.822649598121643066e-01 -2.545407712459564209e-01
-3.750332891941070557e-01 5.045896768569946289e-01 -2.839514315128326416e-01
-3.474130928516387939e-01 4.324945807456970215e-01 -2.503543198108673096e-01
-3.631253242492675781e-01 4.463814198970794678e-01 -2.920103371143341064e-01
-3.504219353199005127e-01 4.767668545246124268e-01 -2.633513212203979492e-01
-3.706475496292114258e-01 5.045946240425109863e-01 -2.114480584859848022e-01
-3.706078827381134033e-01 6.008802056312561035e-01 -2.803129851818084717e-01
-3.709716498851776123e-01 5.438224077224731445e-01 -3.036882281303405762e-01
-3.684379160404205322e-01 6.077341437339782715e-01 -2.560731768608093262e-01
-3.700307905673980713e-01 5.520269870758056641e-01 -3.022369742393493652e-01
-3.561360538005828857e-01 5.332920551300048828e-01 -2.414196878671646118e-01
-3.770152926445007324e-01 5.619999170303344727e-01 -2.090530097484588623e-01
-3.739736974239349365e-01 4.956071674823760986e-01 -2.825744748115539551e-01
-3.553343415260314941e-01 5.227250456809997559e-01 -2.316294312477111816e-01
-3.507105112075805664e-01 4.728525876998901367e-01 -2.302480787038803101e-01
-3.544874787330627441e-01 4.037998914718627930e-01 -2.443094253540039062e-01
-3.651246130466461182e-01 4.380003809928894043e-01 -2.499063313007354736e-01
-3.760907649993896484e-01 6.320938467979431152e-01 -2.679066956043243408e-01
-3.713476657867431641e-01 5.334609150886535645e-01 -2.034011185169219971e-01
-3.812256455421447754e-01 5.612833499908447266e-01 -2.271700948476791382e-01
-3.844362199306488037e-01 6.171305775642395020e-01 -2.765046954154968262e-01
-3.746782541275024414e-01 5.124703049659729004e-01 -2.226663976907730103e-01
-3.551812171936035156e-01 5.177994966506958008e-01 -2.271420806646347046e-01
-3.475090265274047852e-01 4.199120998382568359e-01 -2.614943683147430420e-01
-3.679155707359313965e-01 4.608166217803955078e-01 -2.331149280071258545e-01
-3.696306943893432617e-01 4.598283767700195312e-01 -2.569767832756042480e-01
-3.865441679954528809e-01 6.359004974365234375e-01 -2.444608807563781738e-01
-3.719349503517150879e-01 5.000623464584350586e-01 -2.184818387031555176e-01
-3.499194383621215820e-01 4.699560105800628662e-01 -2.643273770809173584e-01
-3.675051331520080566e-01 4.489320516586303711e-01 -2.669889926910400391e-01
-3.517980873584747314e-01 4.945729970932006836e-01 -2.402720749378204346e-01
-3.818326890468597412e-01 6.428847312927246094e-01 -2.281214445829391479e-01
-3.785146474838256836e-01 5.409644842147827148e-01 -2.884534895420074463e-01
-3.555358946323394775e-01 4.025641083717346191e-01 -2.533803880214691162e-01
-3.633958399295806885e-01 4.334897994995117188e-01 -2.419069707393646240e-01
-3.546217679977416992e-01 5.207760930061340332e-01 -2.404380440711975098e-01
-3.586257100105285645e-01 5.519720911979675293e-01 -2.437089979648590088e-01
-3.822896778583526611e-01 6.013064980506896973e-01 -2.184020876884460449e-01
-3.575963675975799561e-01 4.169160723686218262e-01 -2.354972660541534424e-01
-3.478408455848693848e-01 4.445655047893524170e-01 -2.496547996997833252e-01
-3.475554883480072021e-01 4.141753911972045898e-01 -2.496979683637619019e-01
-3.650923967361450195e-01 5.893592238426208496e-01 -2.318251878023147583e-01
-3.802698552608489990e-01 5.706630945205688477e-01 -2.904142737388610840e-01
-3.733444213867187500e-01 5.015134811401367188e-01 -2.241201698780059814e-01
-3.481657505035400391e-01 4.138205647468566895e-01 -2.672752141952514648e-01
-3.691137433052062988e-01 6.022249460220336914e-01 -2.201850265264511108e-01
-3.774606585502624512e-01 6.141709089279174805e-01 -2.115261852741241455e-01
-3.482291102409362793e-01 4.074902832508087158e-01 -2.636103928089141846e-01
-3.868993520736694336e-01 6.213572621345520020e-01 -2.522008419036865234e-01
-3.850204348564147949e-01 6.323741078376770020e-01 -2.695437073707580566e-01
-3.491418659687042236e-01 4.060361087322235107e-01 -2.691100239753723145e-01
-3.653205931186676025e-01 4.618670642375946045e-01 -2.201042920351028442e-01
-3.644402623176574707e-01 4.882178902626037598e-01 -2.055463492870330811e-01
-3.575718104839324951e-01 4.862897098064422607e-01 -2.974239885807037354e-01
-3.494181334972381592e-01 4.361456930637359619e-01 -2.298811078071594238e-01
-3.850403130054473877e-01 6.486197710037231445e-01 -2.528294026851654053e-01
-3.557710647583007812e-01 5.072147846221923828e-01 -2.826676070690155029e-01
-3.681608140468597412e-01 4.546411633491516113e-01 -2.456190437078475952e-01
-3.553243577480316162e-01 5.102391839027404785e-01 -2.200830876827239990e-01
-3.685465455055236816e-01 5.601372718811035156e-01 -2.013907134532928467e-01
-3.854549527168273926e-01 5.970205664634704590e-01 -2.676248252391815186e-01
-3.507605195045471191e-01 4.755797982215881348e-01 -2.689236104488372803e-01
-3.581175506114959717e-01 5.336673259735107422e-01 -2.192213833332061768e-01
-3.617195487022399902e-01 4.237435758113861084e-01 -2.483161985874176025e-01
-3.614882528781890869e-01 5.594567060470581055e-01 -2.202522158622741699e-01
-3.728542029857635498e-01 4.799799621105194092e-01 -2.508223950862884521e-01
-3.692763149738311768e-01 5.810772180557250977e-01 -2.902879118919372559e-01
-3.785739243030548096e-01 5.338492393493652344e-01 -2.839869558811187744e-01
-3.670341074466705322e-01 5.954571366310119629e-01 -2.674155533313751221e-01
-3.508288264274597168e-01 4.488261938095092773e-01 -2.822548151016235352e-01
-3.563413023948669434e-01 5.292496681213378906e-01 -2.660840451717376709e-01
-3.651791512966156006e-01 4.589424431324005127e-01 -2.944136559963226318e-01
-3.796541988849639893e-01 5.433291792869567871e-01 -2.832996249198913574e-01
-3.715893030166625977e-01 6.168437004089355469e-01 -2.248388528823852539e-01
-3.633724749088287354e-01 4.285644590854644775e-01 -2.604003548622131348e-01
-3.679382801055908203e-01 4.539169967174530029e-01 -2.750241458415985107e-01
-3.843475878238677979e-01 5.797762870788574219e-01 -2.410857528448104858e-01
-3.511247038841247559e-01 4.638299643993377686e-01 -2.791618108749389648e-01
-3.782774209976196289e-01 5.168484449386596680e-01 -2.559422254562377930e-01
-3.771070241928100586e-01 5.129680633544921875e-01 -2.409624904394149780e-01
-3.509607315063476562e-01 4.831979274749755859e-01 -2.364657074213027954e-01
-3.747564554214477539e-01 4.917567372322082520e-01 -2.648059129714965820e-01
-3.491754829883575439e-01 4.448567330837249756e-01 -2.316315919160842896e-01
-3.753747642040252686e-01 5.448601245880126953e-01 -2.091846317052841187e-01
-3.778884112834930420e-01 6.449602842330932617e-01 -2.492123842239379883e-01
-3.826021850109100342e-01 5.718445181846618652e-01 -2.796654701232910156e-01
-3.673446178436279297e-01 4.725121259689331055e-01 -2.194766849279403687e-01
-3.598175048828125000e-01 5.428149700164794922e-01 -2.792265117168426514e-01
-3.713268041610717773e-01 6.225122213363647461e-01 -2.441671490669250488e-01
-3.815103769302368164e-01 6.091639995574951172e-01 -2.157993167638778687e-01
-3.551423251628875732e-01 4.420456886291503906e-01 -2.944444417953491211e-01
-3.474401235580444336e-01 4.231730401515960693e-01 -2.471675127744674683e-01
-3.788387179374694824e-01 6.470726132392883301e-01 -2.417479157447814941e-01
-3.539290130138397217e-01 4.239390492439270020e-01 -2.245553433895111084e-01
-3.665668070316314697e-01 4.766699075698852539e-01 -2.143803089857101440e-01
-3.801417350769042969e-01 5.320757627487182617e-01 -2.550740540027618408e-01
-3.568711578845977783e-01 5.248973965644836426e-01 -2.759756147861480713e-01
-3.694958984851837158e-01 4.911316633224487305e-01 -2.988854050636291504e-01
-3.499168157577514648e-01 4.271563589572906494e-01 -2.797166109085083008e-01
-3.603162467479705811e-01 5.634588599205017090e-01 -2.473756223917007446e-01
-3.501611649990081787e-01 4.520523548126220703e-01 -2.267683744430541992e-01
-3.639700710773468018e-01 5.713585615158081055e-01 -2.768688499927520752e-01
-3.771976232528686523e-01 5.121352076530456543e-01 -2.727262675762176514e-01
-3.741076290607452393e-01 4.869368672370910645e-01 -2.585351765155792236e-01
-3.678837418556213379e-01 6.059741973876953125e-01 -2.380476742982864380e-01
-3.510240614414215088e-01 4.680244326591491699e-01 -2.257131338119506836e-01
-3.627906143665313721e-01 5.679620504379272461e-01 -2.203353792428970337e-01
-3.637552857398986816e-01 4.671468734741210938e-01 -2.128377258777618408e-01
-3.787573873996734619e-01 6.455230116844177246e-01 -2.364505827426910400e-01
-3.708485662937164307e-01 4.825271368026733398e-01 -2.894795835018157959e-01
-3.622162640094757080e-01 5.377750396728515625e-01 -2.929894328117370605e-01
-3.625429570674896240e-01 5.577471256256103516e-01 -2.816024422645568848e-01
-3.843253850936889648e-01 5.952694416046142578e-01 -2.766189277172088623e-01
-3.718647062778472900e-01 6.181970834732055664e-01 -2.663936913013458252e-01
-3.689548969268798828e-01 5.046026110649108887e-01 -3.035250902175903320e-01
-3.477941155433654785e-01 4.088371694087982178e-01 -2.582249045372009277e-01
-3.639317154884338379e-01 5.786808729171752930e-01 -2.674676775932312012e-01
-3.676732182502746582e-01 5.555073618888854980e-01 -2.986404299736022949e-01
-3.565907776355743408e-01 4.058762490749359131e-01 -2.683600485324859619e-01
-3.841259181499481201e-01 5.812829732894897461e-01 -2.724328339099884033e-01
-3.676173985004425049e-01 5.081855058670043945e-01 -2.038481533527374268e-01
-3.814216852188110352e-01 5.921281576156616211e-01 -2.883421480655670166e-01
-3.599884212017059326e-01 4.189940690994262695e-01 -2.440626770257949829e-01
-3.738600015640258789e-01 4.939195811748504639e-01 -2.355140447616577148e-01
-3.605299592018127441e-01 5.629228353500366211e-01 -2.348944246768951416e-01
-3.711732327938079834e-01 4.700812995433807373e-01 -2.496278136968612671e-01
-3.824308514595031738e-01 5.537878870964050293e-01 -2.626093029975891113e-01
-3.762252926826477051e-01 5.195770859718322754e-01 -2.259216457605361938e-01
-3.594150543212890625e-01 4.375205039978027344e-01 -2.216089069843292236e-01
-3.474636375904083252e-01 4.308478236198425293e-01 -2.588340342044830322e-01
-3.849415779113769531e-01 5.976696610450744629e-01 -2.339866459369659424e-01
-3.725500106811523438e-01 5.117349028587341309e-01 -2.985576391220092773e-01
-3.712496459484100342e-01 4.765740633010864258e-01 -2.811325490474700928e-01
-3.570836782455444336e-01 5.057678222656250000e-01 -2.896558046340942383e-01
-3.628374338150024414e-01 4.334432482719421387e-01 -2.810793519020080566e-01
-3.515446782112121582e-01 4.543462991714477539e-01 -2.843949496746063232e-01
-3.700501620769500732e-01 5.883615016937255859e-01 -2.878883183002471924e-01
-3.620767891407012939e-01 5.457354187965393066e-01 -2.881250977516174316e-01
-3.751416206359863281e-01 5.687542557716369629e-01 -2.995854020118713379e-01
-3.747245371341705322e-01 5.092281699180603027e-01 -2.894011735916137695e-01
-3.847007453441619873e-01 5.816595554351806641e-01 -2.652364373207092285e-01
-3.686761260032653809e-01 4.597667157649993896e-01 -2.784371674060821533e-01
-3.806342184543609619e-01 5.363512039184570312e-01 -2.600212395191192627e-01
-3.862164020538330078e-01 6.080558896064758301e-01 -2.633063793182373047e-01
-3.584630787372589111e-01 5.034328103065490723e-01 -2.065362930297851562e-01
-3.558951020240783691e-01 5.304047465324401855e-01 -2.566784918308258057e-01
-3.850608170032501221e-01 6.106964349746704102e-01 -2.740488350391387939e-01
-3.650761842727661133e-01 4.806312918663024902e-01 -3.028484284877777100e-01
-3.715422451496124268e-01 4.736491143703460693e-01 -2.732609212398529053e-01
-3.540984094142913818e-01 5.141999125480651855e-01 -2.606674134731292725e-01
-3.531580269336700439e-01 4.605431854724884033e-01 -2.895259261131286621e-01
-3.772445619106292725e-01 5.537157654762268066e-01 -2.120310366153717041e-01
-3.583554029464721680e-01 4.100501537322998047e-01 -2.547202110290527344e-01
-3.853895068168640137e-01 6.369636654853820801e-01 -2.653766274452209473e-01
-3.812500536441802979e-01 6.480956673622131348e-01 -2.595646083354949951e-01
-3.526943027973175049e-01 5.044500827789306641e-01 -2.439158260822296143e-01
-3.561987280845642090e-01 5.343234539031982422e-01 -2.475620657205581665e-01
-3.840616941452026367e-01 5.878717899322509766e-01 -2.762190997600555420e-01
-3.567253351211547852e-01 4.989358782768249512e-01 -2.911770641803741455e-01
-3.702970743179321289e-01 4.878942370414733887e-01 -2.200074940919876099e-01
-3.642345964908599854e-01 4.440107941627502441e-01 -2.863356769084930420e-01
-3.564524948596954346e-01 4.042997956275939941e-01 -2.624298632144927979e-01
-3.792618513107299805e-01 5.816792845726013184e-01 -2.114084362983703613e-01
-3.597405552864074707e-01 5.021702647209167480e-01 -2.989957034587860107e-01
-3.536401689052581787e-01 4.972876012325286865e-01 -2.228520214557647705e-01
-3.727191388607025146e-01 5.226705670356750488e-01 -3.010423779487609863e-01
-3.524637222290039062e-01 4.944206476211547852e-01 -2.681156992912292480e-01
-3.759938478469848633e-01 5.059053897857666016e-01 -2.773626744747161865e-01
-3.819678723812103271e-01 5.975136756896972656e-01 -2.866273522377014160e-01
-3.563900887966156006e-01 4.607096016407012939e-01 -2.976053655147552490e-01
-3.784386217594146729e-01 5.438199043273925781e-01 -2.214607149362564087e-01
-3.772023022174835205e-01 5.172499418258666992e-01 -2.798033952713012695e-01
-3.691648244857788086e-01 6.056576371192932129e-01 -2.676419913768768311e-01
-3.844774663448333740e-01 5.886231660842895508e-01 -2.349547147750854492e-01
-3.572319746017456055e-01 5.373951196670532227e-01 -2.305946201086044312e-01
-3.616531193256378174e-01 4.431144893169403076e-01 -2.228598296642303467e-01
-3.756211698055267334e-01 5.098950862884521484e-01 -2.308316379785537720e-01
-3.701607286930084229e-01 4.649935662746429443e-01 -2.721651494503021240e-01
-3.651359081268310547e-01 4.510030746459960938e-01 -2.889872789382934570e-01
-3.573226332664489746e-01 5.358979105949401855e-01 -2.672089040279388428e-01
-3.681130409240722656e-01 5.004666447639465332e-01 -2.070654034614562988e-01
-3.566012382507324219e-01 5.310740470886230469e-01 -2.286351621150970459e-01
-3.671850562095642090e-01 5.932527184486389160e-01 -2.206644713878631592e-01
-3.722158670425415039e-01 4.860877990722656250e-01 -2.849761843681335449e-01
-3.650056123733520508e-01 5.850861072540283203e-01 -2.250841259956359863e-01
-3.690916001796722412e-01 4.963555932044982910e-01 -3.014595806598663330e-01
-3.829713761806488037e-01 5.916531085968017578e-01 -2.830613851547241211e-01
-3.668153584003448486e-01 4.447584152221679688e-01 -2.585431635379791260e-01
-3.669069707393646240e-01 4.859273135662078857e-01 -3.020670115947723389e-01
-3.517525494098663330e-01 4.883956611156463623e-01 -2.320623695850372314e-01
-3.607655465602874756e-01 4.561751782894134521e-01 -2.132313102483749390e-01
-3.652249574661254883e-01 5.842902660369873047e-01 -2.698470950126647949e-01
-3.485747873783111572e-01 4.397698938846588135e-01 -2.353156954050064087e-01
-3.530323505401611328e-01 4.674957692623138428e-01 -2.874498367309570312e-01
-3.515863120555877686e-01 4.902262687683105469e-01 -2.620114386081695557e-01
-3.797912001609802246e-01 5.472264885902404785e-01 -2.272662371397018433e-01
-3.773424923419952393e-01 5.101399421691894531e-01 -2.640701234340667725e-01
-3.799895048141479492e-01 5.533388257026672363e-01 -2.866677045822143555e-01
-3.708747923374176025e-01 4.817430377006530762e-01 -2.280894070863723755e-01
-3.529967367649078369e-01 4.110399782657623291e-01 -2.333661317825317383e-01
-3.736489415168762207e-01 4.872581958770751953e-01 -2.444764375686645508e-01
-3.596880435943603516e-01 5.450479388236999512e-01 -2.186677455902099609e-01
-3.822933435440063477e-01 5.590987801551818848e-01 -2.735917866230010986e-01
-3.718507289886474609e-01 4.920172691345214844e-01 -2.916266620159149170e-01
-3.690959513187408447e-01 6.008509993553161621e-01 -2.736141085624694824e-01
-3.595888018608093262e-01 5.474638342857360840e-01 -2.730110883712768555e-01
-3.529864549636840820e-01 4.742195904254913330e-01 -2.850310802459716797e-01
-3.662550747394561768e-01 5.607959628105163574e-01 -2.933925092220306396e-01
-3.631237149238586426e-01 5.135892629623413086e-01 -3.027296662330627441e-01
-3.604578077793121338e-01 5.173500180244445801e-01 -2.963005900382995605e-01
-3.664306998252868652e-01 4.443283975124359131e-01 -2.497876584529876709e-01
-3.658208250999450684e-01 5.904418826103210449e-01 -2.263545393943786621e-01
-3.482323586940765381e-01 4.055433869361877441e-01 -2.507639229297637939e-01
-3.855421543121337891e-01 6.266136169433593750e-01 -2.692895233631134033e-01
-3.519041538238525391e-01 4.533942043781280518e-01 -2.196339964866638184e-01
-3.499706089496612549e-01 4.111902117729187012e-01 -2.758169770240783691e-01
-3.521740138530731201e-01 4.253092110157012939e-01 -2.863743901252746582e-01
-3.762581348419189453e-01 5.018243193626403809e-01 -2.617348134517669678e-01
-3.765867352485656738e-01 6.236788630485534668e-01 -2.164772450923919678e-01
-3.826707899570465088e-01 6.165529489517211914e-01 -2.194743305444717407e-01
-3.845770657062530518e-01 6.150256991386413574e-01 -2.270006090402603149e-01
-3.792813718318939209e-01 6.192117333412170410e-01 -2.139659523963928223e-01
-3.603017032146453857e-01 4.818607568740844727e-01 -2.050746232271194458e-01
-3.553287386894226074e-01 5.010150671005249023e-01 -2.155974954366683960e-01
-3.582808971405029297e-01 4.657098352909088135e-01 -3.002836704254150391e-01
-3.716260790824890137e-01 5.317063331604003906e-01 -3.036515712738037109e-01
-3.783873319625854492e-01 5.264382958412170410e-01 -2.357203960418701172e-01
-3.486911952495574951e-01 4.506371915340423584e-01 -2.376805841922760010e-01
-3.605274856090545654e-01 5.339620709419250488e-01 -2.088754028081893921e-01
-3.658215999603271484e-01 5.956369042396545410e-01 -2.510296404361724854e-01
-3.796894848346710205e-01 5.337148904800415039e-01 -2.403573095798492432e-01
-3.511598706245422363e-01 4.358423352241516113e-01 -2.236030101776123047e-01
-3.765377998352050781e-01 5.766268968582153320e-01 -2.059848010540008545e-01
-3.622058928012847900e-01 5.745664834976196289e-01 -2.533299922943115234e-01
-3.842372298240661621e-01 5.732172727584838867e-01 -2.502445280551910400e-01
-3.552193939685821533e-01 4.299277961254119873e-01 -2.214678823947906494e-01
-3.633289933204650879e-01 4.998198151588439941e-01 -3.044988214969635010e-01
-3.732313811779022217e-01 6.301933526992797852e-01 -2.452413141727447510e-01
-3.668805062770843506e-01 5.998461246490478516e-01 -2.342011928558349609e-01
-3.795043230056762695e-01 5.322190523147583008e-01 -2.743903100490570068e-01
-3.837359547615051270e-01 5.677996873855590820e-01 -2.623102664947509766e-01
-3.479564785957336426e-01 4.157918393611907959e-01 -2.434099763631820679e-01
-3.595094680786132812e-01 4.134653210639953613e-01 -2.610002160072326660e-01
-3.859343230724334717e-01 5.961829423904418945e-01 -2.559912502765655518e-01
-3.693112134933471680e-01 4.602061808109283447e-01 -2.473099231719970703e-01
-3.647125661373138428e-01 4.548617601394653320e-01 -2.233998775482177734e-01
-3.590312302112579346e-01 5.300648212432861328e-01 -2.847361266613006592e-01
-3.788457512855529785e-01 5.589115619659423828e-01 -2.160176932811737061e-01
-3.592501282691955566e-01 4.174086749553680420e-01 -2.768038809299468994e-01
-3.831731975078582764e-01 6.418218016624450684e-01 -2.678224146366119385e-01
-3.832783102989196777e-01 5.819129347801208496e-01 -2.793595790863037109e-01
-3.862329125404357910e-01 6.042053699493408203e-01 -2.465346157550811768e-01
-3.533544540405273438e-01 5.038727521896362305e-01 -2.667934000492095947e-01
-3.856529593467712402e-01 6.053345203399658203e-01 -2.370359599590301514e-01
-3.734039068222045898e-01 5.146248936653137207e-01 -2.155542373657226562e-01
-3.600763678550720215e-01 4.172640740871429443e-01 -2.706747949123382568e-01
-3.724105954170227051e-01 4.812273681163787842e-01 -2.773660719394683838e-01
-3.863746821880340576e-01 6.254574060440063477e-01 -2.634753286838531494e-01
-3.515568375587463379e-01 4.768337011337280273e-01 -2.751087248325347900e-01
-3.644933104515075684e-01 4.340419173240661621e-01 -2.544361650943756104e-01
-3.727710545063018799e-01 6.089165806770324707e-01 -2.134468108415603638e-01
-3.614360690116882324e-01 5.550348162651062012e-01 -2.167547643184661865e-01
-3.726436793804168701e-01 6.271491646766662598e-01 -2.381424605846405029e-01
-3.759643435478210449e-01 5.700531005859375000e-01 -2.054999619722366333e-01
-3.624314665794372559e-01 5.634372830390930176e-01 -2.756183743476867676e-01
-3.572370409965515137e-01 4.493427872657775879e-01 -2.134595066308975220e-01
-3.637403249740600586e-01 4.390779137611389160e-01 -2.354106009006500244e-01
-3.474262952804565430e-01 4.146530628204345703e-01 -2.553407847881317139e-01
-3.521086871623992920e-01 4.855745732784271240e-01 -2.731544077396392822e-01
-3.597271740436553955e-01 5.572944879531860352e-01 -2.584277987480163574e-01
-3.840429186820983887e-01 6.004689931869506836e-01 -2.789813578128814697e-01
-3.599449098110198975e-01 5.233415365219116211e-01 -2.922684550285339355e-01
-3.759414851665496826e-01 5.322449207305908203e-01 -2.953293621540069580e-01
-3.555925190448760986e-01 4.079656600952148438e-01 -2.766727209091186523e-01
-3.785729706287384033e-01 5.494936704635620117e-01 -2.915282249450683594e-01
-3.492620587348937988e-01 4.480000734329223633e-01 -2.728766500949859619e-01
-3.552424907684326172e-01 5.265176296234130859e-01 -2.513346374034881592e-01
-3.543266057968139648e-01 4.314137399196624756e-01 -2.913152277469635010e-01
-3.490502536296844482e-01 4.571826159954071045e-01 -2.373110651969909668e-01
-3.606434464454650879e-01 4.342182874679565430e-01 -2.273065447807312012e-01
-3.698590993881225586e-01 6.118088364601135254e-01 -2.624475657939910889e-01
-3.795477747917175293e-01 6.324166059494018555e-01 -2.755143046379089355e-01
-3.527593910694122314e-01 4.414760172367095947e-01 -2.189714163541793823e-01
-3.712404966354370117e-01 6.123703122138977051e-01 -2.211088836193084717e-01
-3.827300667762756348e-01 5.860548615455627441e-01 -2.833418846130371094e-01
-3.811499774456024170e-01 5.411970019340515137e-01 -2.528984546661376953e-01
-3.853394389152526855e-01 5.886188149452209473e-01 -2.615377902984619141e-01
-3.480493724346160889e-01 4.464017748832702637e-01 -2.587844729423522949e-01
-3.668381571769714355e-01 6.014185547828674316e-01 -2.465659677982330322e-01
-3.651468753814697266e-01 4.428489804267883301e-01 -2.392509430646896362e-01
-3.864408433437347412e-01 6.060035824775695801e-01 -2.549409270286560059e-01
-3.632988333702087402e-01 5.818322896957397461e-01 -2.425673604011535645e-01
-3.528717458248138428e-01 5.060062408447265625e-01 -2.531233131885528564e-01
-3.642816841602325439e-01 4.905380010604858398e-01 -3.046780526638031006e-01
-3.526459336280822754e-01 4.993195235729217529e-01 -2.336124479770660400e-01
-3.519974052906036377e-01 3.968884646892547607e-01 -2.604863643646240234e-01
-3.575940430164337158e-01 5.281794071197509766e-01 -2.183723449707031250e-01
-3.582262396812438965e-01 5.430529713630676270e-01 -2.662824392318725586e-01
-3.713442981243133545e-01 4.765880703926086426e-01 -2.378316670656204224e-01
-3.841727972030639648e-01 5.717006921768188477e-01 -2.566795051097869873e-01
-3.742889761924743652e-01 4.908995628356933594e-01 -2.722949385643005371e-01
-3.477981686592102051e-01 4.402752220630645752e-01 -2.595883011817932129e-01
-3.820696473121643066e-01 5.558791160583496094e-01 -2.395640015602111816e-01
-3.631607592105865479e-01 5.631829500198364258e-01 -2.143851816654205322e-01
-3.489727079868316650e-01 4.120929837226867676e-01 -2.391672730445861816e-01
-3.771333694458007812e-01 5.251498818397521973e-01 -2.270558625459671021e-01
-3.849919140338897705e-01 5.849635601043701172e-01 -2.453374862670898438e-01
-3.778278231620788574e-01 5.780212879180908203e-01 -2.960970997810363770e-01
-3.582284450531005859e-01 4.729029834270477295e-01 -3.002275824546813965e-01
-3.765003383159637451e-01 5.052443146705627441e-01 -2.690811157226562500e-01
-3.694108724594116211e-01 4.638574123382568359e-01 -2.405344247817993164e-01
-3.508631885051727295e-01 4.827072024345397949e-01 -2.618964016437530518e-01
-3.534899652004241943e-01 5.116446018218994141e-01 -2.434383630752563477e-01
-3.851466178894042969e-01 6.236176490783691406e-01 -2.299737036228179932e-01
-3.769467771053314209e-01 6.369056701660156250e-01 -2.280225753784179688e-01
-3.611127436161041260e-01 5.501883029937744141e-01 -2.803424894809722900e-01
-3.500382602214813232e-01 4.729704856872558594e-01 -2.380189746618270874e-01
-3.749874532222747803e-01 6.042854189872741699e-01 -2.085362523794174194e-01
-3.492092192173004150e-01 4.053426682949066162e-01 -2.437284588813781738e-01
-3.652653098106384277e-01 4.379551410675048828e-01 -2.676107883453369141e-01
-3.541459143161773682e-01 5.137904286384582520e-01 -2.338978052139282227e-01
-3.800044059753417969e-01 6.323033571243286133e-01 -2.199830859899520874e-01
-3.651652038097381592e-01 5.535745620727539062e-01 -2.940331101417541504e-01
-3.747931122779846191e-01 6.339560151100158691e-01 -2.565108537673950195e-01
-3.711467683315277100e-01 5.155840516090393066e-01 -3.024354577064514160e-01
-3.584461808204650879e-01 4.928432106971740723e-01 -2.981491684913635254e-01
-3.856644034385681152e-01 5.918645262718200684e-01 -2.517366111278533936e-01
-3.579351902008056641e-01 5.465775728225708008e-01 -2.528139054775238037e-01
-3.487488031387329102e-01 4.548596143722534180e-01 -2.630180120468139648e-01
-3.756183385848999023e-01 5.229451656341552734e-01 -2.201482951641082764e-01
-3.494325280189514160e-01 4.422330856323242188e-01 -2.759584784507751465e-01
-3.536462783813476562e-01 4.748001396656036377e-01 -2.153858244419097900e-01
-3.626069128513336182e-01 5.723286867141723633e-01 -2.651360332965850830e-01
-3.576778769493103027e-01 4.722485244274139404e-01 -2.077573090791702271e-01
-3.633310198783874512e-01 5.784761309623718262e-01 -2.302285283803939819e-01
-3.520256578922271729e-01 4.982132017612457275e-01 -2.523182928562164307e-01
-3.477732539176940918e-01 4.270998239517211914e-01 -2.651832699775695801e-01
-3.569916188716888428e-01 4.127613008022308350e-01 -2.791167795658111572e-01
-3.608087897300720215e-01 4.361888766288757324e-01 -2.907173037528991699e-01
-3.731130063533782959e-01 5.072802901268005371e-01 -2.951022386550903320e-01
-3.774403631687164307e-01 5.875655412673950195e-01 -2.071610689163208008e-01
-3.736459910869598389e-01 6.113681793212890625e-01 -2.811781167984008789e-01
-3.642159104347229004e-01 5.083528161048889160e-01 -3.045853376388549805e-01
-3.751194179058074951e-01 5.182965993881225586e-01 -2.927398979663848877e-01
-3.726682662963867188e-01 4.839246571063995361e-01 -2.390083670616149902e-01
-3.734748661518096924e-01 4.972864985466003418e-01 -2.287208437919616699e-01
-3.813048005104064941e-01 5.784940719604492188e-01 -2.879701852798461914e-01
-3.783381283283233643e-01 5.325430631637573242e-01 -2.289866805076599121e-01
-3.752155900001525879e-01 4.960944652557373047e-01 -2.485572397708892822e-01
-3.685502707958221436e-01 4.793482124805450439e-01 -2.191079705953598022e-01
-3.813727200031280518e-01 5.505667924880981445e-01 -2.377916127443313599e-01
-3.486637771129608154e-01 4.495295882225036621e-01 -2.662393152713775635e-01
-3.485016524791717529e-01 4.233226478099822998e-01 -2.718279957771301270e-01
-3.747212588787078857e-01 4.953321516513824463e-01 -2.423873245716094971e-01
-3.611877858638763428e-01 4.476522207260131836e-01 -2.185672223567962646e-01
-3.663705289363861084e-01 5.374469757080078125e-01 -3.020679354667663574e-01
-3.820075094699859619e-01 5.491511225700378418e-01 -2.528852522373199463e-01
-3.613694608211517334e-01 5.677251815795898438e-01 -2.588807940483093262e-01
-3.589376509189605713e-01 5.515982508659362793e-01 -2.593656182289123535e-01
-3.488275408744812012e-01 4.348549842834472656e-01 -2.734119892120361328e-01
-3.635912835597991943e-01 5.283840894699096680e-01 -2.015202939510345459e-01
-3.717931807041168213e-01 4.726899266242980957e-01 -2.545732259750366211e-01
-3.777237832546234131e-01 5.137016773223876953e-01 -2.499431371688842773e-01
-3.649794161319732666e-01 5.894464254379272461e-01 -2.574659883975982666e-01
-3.787997066974639893e-01 5.209487676620483398e-01 -2.601603567600250244e-01
-3.543615341186523438e-01 5.092202425003051758e-01 -2.710421085357666016e-01
-3.512965142726898193e-01 4.911232888698577881e-01 -2.470104694366455078e-01
-3.491325080394744873e-01 4.659459888935089111e-01 -2.492123395204544067e-01
-3.662030398845672607e-01 5.652198195457458496e-01 -2.059022933244705200e-01
-3.556817770004272461e-01 4.090675115585327148e-01 -2.396298497915267944e-01
-3.836660981178283691e-01 6.513552665710449219e-01 -2.431293427944183350e-01
-3.665846884250640869e-01 5.473433732986450195e-01 -2.009500265121459961e-01
-3.837685286998748779e-01 6.282783746719360352e-01 -2.246943712234497070e-01
-3.741383552551269531e-01 6.186184287071228027e-01 -2.762619554996490479e-01
-3.487910330295562744e-01 4.605149030685424805e-01 -2.466006278991699219e-01
-3.522790670394897461e-01 4.989215433597564697e-01 -2.582761943340301514e-01
-3.713958561420440674e-01 5.839434266090393066e-01 -2.044963538646697998e-01
-3.726107478141784668e-01 6.270624399185180664e-01 -2.521868944168090820e-01
-3.856136798858642578e-01 6.424463391304016113e-01 -2.594731748104095459e-01
-3.819608092308044434e-01 5.651358366012573242e-01 -2.806862890720367432e-01
-3.863945305347442627e-01 6.307193040847778320e-01 -2.401315718889236450e-01
-3.667598962783813477e-01 4.931355416774749756e-01 -2.072309106588363647e-01
-3.609721362590789795e-01 4.298035502433776855e-01 -2.850645482540130615e-01
-3.517332375049591064e-01 4.752025604248046875e-01 -2.240243554115295410e-01
-3.826390802860260010e-01 5.551841259002685547e-01 -2.538930773735046387e-01
-3.496942222118377686e-01 4.264558553695678711e-01 -2.303004562854766846e-01
-3.642780482769012451e-01 5.728764533996582031e-01 -2.165322899818420410e-01
-3.513267338275909424e-01 4.309916794300079346e-01 -2.851437926292419434e-01
-3.662417232990264893e-01 4.451032280921936035e-01 -2.747493684291839600e-01
-3.718573153018951416e-01 6.209427118301391602e-01 -2.613346576690673828e-01
-3.586691915988922119e-01 5.358482003211975098e-01 -2.782500684261322021e-01
-3.556172549724578857e-01 5.188067555427551270e-01 -2.720893919467926025e-01
-3.711916208267211914e-01 6.208767890930175781e-01 -2.367147207260131836e-01
-3.866659104824066162e-01 6.332456469535827637e-01 -2.566442191600799561e-01
-3.828292787075042725e-01 5.777650475502014160e-01 -2.281808257102966309e-01
-3.585565686225891113e-01 4.121034145355224609e-01 -2.490643113851547241e-01
-3.859097659587860107e-01 5.992115736007690430e-01 -2.623032033443450928e-01
-3.720092773437500000e-01 4.739162921905517578e-01 -2.641273736953735352e-01
-3.712934553623199463e-01 5.975170135498046875e-01 -2.851403951644897461e-01
-3.523212969303131104e-01 4.400006830692291260e-01 -2.885752320289611816e-01
-3.858156800270080566e-01 6.098327636718750000e-01 -2.685184776782989502e-01
-3.656377792358398438e-01 5.721980333328247070e-01 -2.106509208679199219e-01
-3.866487741470336914e-01 6.175942420959472656e-01 -2.598024606704711914e-01
-3.670855462551116943e-01 4.840931892395019531e-01 -2.117992341518402100e-01
-3.795037269592285156e-01 5.714542865753173828e-01 -2.143339365720748901e-01
-3.586061596870422363e-01 5.465295314788818359e-01 -2.287839800119400024e-01
-3.840692937374114990e-01 6.004341244697570801e-01 -2.267338037490844727e-01
-3.500166833400726318e-01 4.770614504814147949e-01 -2.515273392200469971e-01
-3.499775230884552002e-01 3.979164958000183105e-01 -2.549513280391693115e-01
-3.821142017841339111e-01 5.704270601272583008e-01 -2.274870574474334717e-01
-3.781581819057464600e-01 5.185395479202270508e-01 -2.456749826669692993e-01
-3.605554103851318359e-01 5.579650402069091797e-01 -2.676649987697601318e-01
-3.747914135456085205e-01 5.952945947647094727e-01 -2.924815416336059570e-01
-3.727458715438842773e-01 5.941829681396484375e-01 -2.065383344888687134e-01
-3.836675286293029785e-01 5.784278512001037598e-01 -2.344955652952194214e-01
-3.770034909248352051e-01 5.400927066802978516e-01 -2.167071551084518433e-01
-3.781759738922119141e-01 6.385615468025207520e-01 -2.665260732173919678e-01
-3.761875033378601074e-01 5.019025802612304688e-01 -2.521372437477111816e-01
-3.579289317131042480e-01 5.178234577178955078e-01 -2.871009707450866699e-01
-3.731528222560882568e-01 4.807594716548919678e-01 -2.585366964340209961e-01
-3.633808791637420654e-01 5.558381676673889160e-01 -2.092966288328170776e-01
-3.613292276859283447e-01 5.289585590362548828e-01 -2.942633032798767090e-01
-3.753596246242523193e-01 4.954971075057983398e-01 -2.562345564365386963e-01
-3.563368320465087891e-01 5.326593518257141113e-01 -2.347266376018524170e-01
-3.495022952556610107e-01 4.185296297073364258e-01 -2.337248921394348145e-01
-3.574118018150329590e-01 5.322226285934448242e-01 -2.727062106132507324e-01
-3.531180024147033691e-01 4.846744239330291748e-01 -2.808905541896820068e-01
-3.609339594841003418e-01 4.296353459358215332e-01 -2.331146299839019775e-01
-3.686257898807525635e-01 5.751754045486450195e-01 -2.919521331787109375e-01
-3.754780292510986328e-01 4.985352456569671631e-01 -2.708554565906524658e-01
-3.615633547306060791e-01 5.714386105537414551e-01 -2.468134909868240356e-01
-3.704120814800262451e-01 6.013557910919189453e-01 -2.143876999616622925e-01
-3.652738332748413086e-01 5.433534383773803711e-01 -2.985264658927917480e-01
-3.809850513935089111e-01 5.796954631805419922e-01 -2.176551818847656250e-01
-3.755285143852233887e-01 5.397369861602783203e-01 -2.114061415195465088e-01
-3.672002553939819336e-01 5.356795191764831543e-01 -1.999614238739013672e-01
-3.548921346664428711e-01 4.549616277217864990e-01 -2.948464155197143555e-01
-3.760538697242736816e-01 5.146043300628662109e-01 -2.858007550239562988e-01
-3.559469580650329590e-01 4.759284853935241699e-01 -2.952595055103302002e-01
-3.863984048366546631e-01 6.211845874786376953e-01 -2.399151772260665894e-01
-3.835860490798950195e-01 6.050360202789306641e-01 -2.232481837272644043e-01
-3.791624307632446289e-01 5.964445471763610840e-01 -2.102232873439788818e-01
-3.642231822013854980e-01 5.872924327850341797e-01 -2.448806017637252808e-01
-3.820601403713226318e-01 5.525886416435241699e-01 -2.444808632135391235e-01
-3.853910863399505615e-01 6.122373938560485840e-01 -2.324371188879013062e-01
-3.805834650993347168e-01 5.467602014541625977e-01 -2.789154648780822754e-01
-3.691470623016357422e-01 6.068581938743591309e-01 -2.258080542087554932e-01
-3.686705827713012695e-01 6.105440258979797363e-01 -2.452197521924972534e-01
-3.653210103511810303e-01 5.933920741081237793e-01 -2.443900406360626221e-01
-3.501450121402740479e-01 4.641681611537933350e-01 -2.303747534751892090e-01
-3.679077923297882080e-01 4.573076665401458740e-01 -2.379548698663711548e-01
-3.586252033710479736e-01 5.401051044464111328e-01 -2.212498486042022705e-01
-3.483739793300628662e-01 4.525604844093322754e-01 -2.445096373558044434e-01
-3.802079558372497559e-01 5.384352803230285645e-01 -2.741639316082000732e-01
-3.493331968784332275e-01 4.664848744869232178e-01 -2.424207925796508789e-01
-3.787759542465209961e-01 5.255658030509948730e-01 -2.414098978042602539e-01
-3.688915073871612549e-01 5.882204771041870117e-01 -2.102642655372619629e-01
-3.532023727893829346e-01 4.897668659687042236e-01 -2.783409059047698975e-01
-3.473002910614013672e-01 4.251517057418823242e-01 -2.559301853179931641e-01
-3.519880771636962891e-01 4.692184031009674072e-01 -2.818996608257293701e-01
-3.762645423412322998e-01 5.067036151885986328e-01 -2.411731630563735962e-01
-3.770344853401184082e-01 5.074077844619750977e-01 -2.564524710178375244e-01
-3.694160878658294678e-01 5.163493752479553223e-01 -2.043711394071578979e-01
-3.493926525115966797e-01 4.568433761596679688e-01 -2.694386243820190430e-01
-3.546539545059204102e-01 4.838767945766448975e-01 -2.134956717491149902e-01
-3.741766512393951416e-01 6.331350207328796387e-01 -2.393649071455001831e-01
-3.803075551986694336e-01 5.414774417877197266e-01 -2.370204478502273560e-01
-3.689982891082763672e-01 4.803736805915832520e-01 -2.953278124332427979e-01
-3.651463985443115234e-01 4.481586813926696777e-01 -2.319060862064361572e-01
-3.671298325061798096e-01 5.779340267181396484e-01 -2.858046591281890869e-01
-3.766987919807434082e-01 5.206661224365234375e-01 -2.863795459270477295e-01
-3.609752953052520752e-01 5.668987631797790527e-01 -2.534101307392120361e-01
-3.850547671318054199e-01 6.453444957733154297e-01 -2.385989427566528320e-01
-3.642318546772003174e-01 5.312609076499938965e-01 -3.004072606563568115e-01
-3.559666574001312256e-01 4.889152348041534424e-01 -2.104400247335433960e-01
-3.858875334262847900e-01 5.971901416778564453e-01 -2.473893314599990845e-01
-3.724855780601501465e-01 5.384969711303710938e-01 -3.030961453914642334e-01
-3.789876103401184082e-01 5.644898414611816406e-01 -2.145718038082122803e-01
-3.698548376560211182e-01 4.611798822879791260e-01 -2.638191580772399902e-01
-3.534136116504669189e-01 5.081430673599243164e-01 -2.608723640441894531e-01
4.063546657562255859e-01 -6.593652367591857910e-01 -4.228840768337249756e-01
3.798049092292785645e-01 -6.539951562881469727e-01 -3.871081173419952393e-01
4.067758321762084961e-01 -6.166458129882812500e-01 -3.861385583877563477e-01
3.646930456161499023e-01 -6.174332499504089355e-01 -4.124003946781158447e-01
3.720851838588714600e-01 -6.487011909484863281e-01 -4.107231497764587402e-01
3.799283802509307861e-01 -6.727855205535888672e-01 -3.958777487277984619e-01
3.669885694980621338e-01 -5.858602523803710938e-01 -4.254935085773468018e-01
3.892555534839630127e-01 -6.630645990371704102e-01 -3.801675438880920410e-01
4.242172837257385254e-01 -7.729275822639465332e-01 -4.106220006942749023e-01
4.090650379657745361e-01 -6.662893891334533691e-01 -4.218236207962036133e-01
4.135875999927520752e-01 -7.185183167457580566e-01 -4.211381375789642334e-01
3.872660696506500244e-01 -7.027981877326965332e-01 -4.055062532424926758e-01
4.263656735420227051e-01 -7.796375155448913574e-01 -3.879968523979187012e-01
4.218232333660125732e-01 -7.222442626953125000e-01 -4.170584082603454590e-01
3.928780555725097656e-01 -6.799125671386718750e-01 -3.807207643985748291e-01
3.918084502220153809e-01 -7.026396989822387695e-01 -4.179284572601318359e-01
4.340400695800781250e-01 -7.327409386634826660e-01 -3.994942307472229004e-01
3.592096269130706787e-01 -5.903638601303100586e-01 -4.137510359287261963e-01
3.982988893985748291e-01 -7.073564529418945312e-01 -4.214584231376647949e-01
4.269977509975433350e-01 -7.905628681182861328e-01 -3.987307250499725342e-01
3.846735358238220215e-01 -6.805140972137451172e-01 -3.901563882827758789e-01
4.156381487846374512e-01 -6.527286767959594727e-01 -3.842586874961853027e-01
4.141126275062561035e-01 -6.379269957542419434e-01 -3.890889286994934082e-01
3.508864939212799072e-01 -5.408654808998107910e-01 -4.111929535865783691e-01
3.700612187385559082e-01 -6.396958231925964355e-01 -4.123060107231140137e-01
3.499433696269989014e-01 -5.298032760620117188e-01 -4.049505293369293213e-01
3.507018387317657471e-01 -5.135430097579956055e-01 -4.008408486843109131e-01
3.921574056148529053e-01 -6.155822277069091797e-01 -4.258093535900115967e-01
4.308539032936096191e-01 -7.776599526405334473e-01 -4.071977138519287109e-01
3.528162837028503418e-01 -5.554766058921813965e-01 -4.116775393486022949e-01
4.062111973762512207e-01 -6.889394521713256836e-01 -3.761835694313049316e-01
4.132350683212280273e-01 -7.576671838760375977e-01 -3.873781561851501465e-01
4.229741692543029785e-01 -7.117759585380554199e-01 -4.152886867523193359e-01
3.665332794189453125e-01 -6.266804933547973633e-01 -4.036228060722351074e-01
3.942353129386901855e-01 -7.234123349189758301e-01 -4.057774841785430908e-01
4.178135097026824951e-01 -6.492196321487426758e-01 -4.018144607543945312e-01
3.690365254878997803e-01 -5.183009505271911621e-01 -4.168241024017333984e-01
4.016111493110656738e-01 -6.883580088615417480e-01 -4.250319600105285645e-01
3.709476888179779053e-01 -6.220765709877014160e-01 -3.894549906253814697e-01
3.864621818065643311e-01 -5.481846332550048828e-01 -3.932259380817413330e-01
3.855071663856506348e-01 -6.518723964691162109e-01 -4.264110624790191650e-01
4.056432843208312988e-01 -6.105968952178955078e-01 -4.099423289299011230e-01
4.214886426925659180e-01 -6.719058752059936523e-01 -3.866219520568847656e-01
4.094628095626831055e-01 -6.852717399597167969e-01 -4.230534434318542480e-01
3.852284252643585205e-01 -6.542204022407531738e-01 -3.815902769565582275e-01
3.954536020755767822e-01 -6.438924670219421387e-01 -3.761707842350006104e-01
3.661308288574218750e-01 -5.501496195793151855e-01 -4.251368343830108643e-01
4.266396760940551758e-01 -7.434591054916381836e-01 -4.137254357337951660e-01
4.021017253398895264e-01 -6.991444230079650879e-01 -3.786104023456573486e-01
