-4.308501482009887695e-01 1.386047303676605225e-01 8.145332336425781250e-01
-6.453512907028198242e-01 2.269353419542312622e-01 6.614516973495483398e-01
-2.805486023426055908e-01 3.034396171569824219e-01 8.113371729850769043e-01
1.643842160701751709e-01 3.758099675178527832e-01 7.454058527946472168e-01
-6.319165229797363281e-02 2.515416145324707031e-01 6.479145884513854980e-01
-5.963844060897827148e-02 2.015325576066970825e-01 8.352674245834350586e-01
-3.975869417190551758e-01 -7.060086727142333984e-02 6.520172357559204102e-01
1.600682735443115234e-01 1.544324010610580444e-01 7.064204812049865723e-01
-2.892819046974182129e-01 7.545283436775207520e-02 6.304263472557067871e-01
1.807397007942199707e-01 1.921841651201248169e-01 7.117687463760375977e-01
-8.943738043308258057e-02 2.924579381942749023e-02 8.321910500526428223e-01
-3.966225385665893555e-01 1.093956083059310913e-01 6.244254708290100098e-01
-7.425141334533691406e-02 4.483324885368347168e-01 6.918771862983703613e-01
-3.388903439044952393e-01 4.056801795959472656e-01 6.631926298141479492e-01
-5.220302343368530273e-01 2.155928313732147217e-02 6.357079148292541504e-01
-9.419113397598266602e-02 2.930162549018859863e-01 6.467509865760803223e-01
-4.782709479331970215e-01 3.133549094200134277e-01 6.451380252838134766e-01
-3.146468997001647949e-01 -5.282349884510040283e-02 8.175411224365234375e-01
-4.401481151580810547e-02 -1.074476391077041626e-01 7.298417091369628906e-01
-4.030458331108093262e-01 4.247835278511047363e-01 6.920804381370544434e-01
7.795679569244384766e-02 1.335346549749374390e-01 6.805183291435241699e-01
-6.940116882324218750e-01 1.675084084272384644e-01 6.685798764228820801e-01
-3.679402172565460205e-02 4.404707998037338257e-02 8.308529257774353027e-01
-3.503911793231964111e-01 3.678503036499023438e-01 7.821870446205139160e-01
7.080233097076416016e-02 1.156660914421081543e-02 7.069351673126220703e-01
-4.890354871749877930e-01 2.869604229927062988e-01 6.400101184844970703e-01
-1.461595296859741211e-02 4.497948884963989258e-01 7.058105468750000000e-01
-2.799938917160034180e-01 -7.185101509094238281e-02 8.154323101043701172e-01
-1.306442469358444214e-01 1.754374951124191284e-01 6.383325457572937012e-01
-5.017746686935424805e-01 2.568285167217254639e-01 7.839608192443847656e-01
-5.678923130035400391e-01 -6.653746962547302246e-02 7.778457403182983398e-01
-6.761877536773681641e-01 2.338644415140151978e-01 6.879423260688781738e-01
1.386618912220001221e-01 1.463376879692077637e-01 8.146932125091552734e-01
3.079277276992797852e-02 2.560711503028869629e-01 8.259341716766357422e-01
-4.434908032417297363e-01 -2.918228507041931152e-02 8.079989552497863770e-01
-6.446735858917236328e-01 1.192344725131988525e-01 6.458212137222290039e-01
-4.041282832622528076e-01 -1.552207916975021362e-01 7.774273157119750977e-01
-1.932471990585327148e-03 2.574642896652221680e-01 8.278710842132568359e-01
9.553539752960205078e-02 1.974883228540420532e-01 6.802619099617004395e-01
1.189697682857513428e-01 1.301498860120773315e-01 6.939001679420471191e-01
3.780114650726318359e-02 4.168099761009216309e-01 6.991311311721801758e-01
-1.683008074760437012e-01 3.257082998752593994e-01 6.433391571044921875e-01
-1.220030039548873901e-01 -1.161139458417892456e-01 7.049191594123840332e-01
-7.019194364547729492e-01 -5.320297181606292725e-02 7.092172503471374512e-01
-6.860958337783813477e-01 2.177388370037078857e-01 7.125536203384399414e-01
-3.487382531166076660e-01 -1.949681341648101807e-02 6.413866281509399414e-01
6.624048948287963867e-02 3.268732428550720215e-01 6.797963380813598633e-01
-1.981969773769378662e-01 -3.525418043136596680e-02 6.580506563186645508e-01
-1.194252520799636841e-01 3.191400766372680664e-01 6.469522714614868164e-01
-2.419725507497787476e-01 2.317996323108673096e-01 6.290710568428039551e-01
-1.920346170663833618e-01 6.934404373168945312e-02 8.361743092536926270e-01
-6.092503666877746582e-02 1.166144460439682007e-01 8.372520804405212402e-01
-6.189991235733032227e-01 -3.482919931411743164e-02 6.572630405426025391e-01
1.504581868648529053e-01 2.405533790588378906e-01 8.102016448974609375e-01
-4.639348983764648438e-01 -1.122003048658370972e-01 7.871710062026977539e-01
-6.749264001846313477e-01 -8.099097013473510742e-02 6.993483901023864746e-01
-4.603829979896545410e-01 2.530643939971923828e-01 7.942069768905639648e-01
-6.726787984371185303e-02 4.725946187973022461e-01 7.213705182075500488e-01
7.821860909461975098e-02 6.825551390647888184e-03 8.040744066238403320e-01
-3.683981895446777344e-01 -1.681359857320785522e-01 7.727792859077453613e-01
4.192894697189331055e-02 5.948606133460998535e-02 6.830801367759704590e-01
-4.505592584609985352e-01 3.909497261047363281e-01 6.747617721557617188e-01
-6.778730154037475586e-01 6.966513395309448242e-02 6.552990674972534180e-01
-3.829003572463989258e-01 4.910957068204879761e-02 6.295305490493774414e-01
-6.280589699745178223e-01 2.641708552837371826e-01 6.683374047279357910e-01
-8.233933150768280029e-02 6.294467300176620483e-02 8.353037238121032715e-01
-4.961926341056823730e-01 -4.665255546569824219e-04 8.027450442314147949e-01
-5.257351398468017578e-01 -1.548915356397628784e-01 7.518794536590576172e-01
-1.641756296157836914e-02 -9.594191610813140869e-02 7.770249843597412109e-01
-4.222359955310821533e-01 3.125702738761901855e-01 6.389877796173095703e-01
1.662872433662414551e-01 2.648673951625823975e-01 8.029625415802001953e-01
-1.178624033927917480e-01 3.813572525978088379e-01 8.018555641174316406e-01
2.247136831283569336e-02 2.892807722091674805e-01 6.652200818061828613e-01
-2.043394148349761963e-01 3.308410644531250000e-01 6.416732072830200195e-01
-4.176222085952758789e-01 -1.779939979314804077e-01 7.583112716674804688e-01
-3.932888507843017578e-01 3.231099992990493774e-02 8.200753927230834961e-01
1.547689437866210938e-01 3.160667121410369873e-01 7.069423794746398926e-01
-3.578929305076599121e-01 -1.315994709730148315e-01 6.758676767349243164e-01
-2.434835880994796753e-01 -1.017783135175704956e-01 8.080368041992187500e-01
1.210837662220001221e-01 5.152910947799682617e-03 7.400299906730651855e-01
-1.308337748050689697e-01 1.186412870883941650e-01 6.413983106613159180e-01
-4.454206228256225586e-01 1.299138069152832031e-01 6.242628097534179688e-01
-7.329781055450439453e-01 8.917129039764404297e-02 6.853484511375427246e-01
-1.606794148683547974e-01 7.792113721370697021e-02 6.417914032936096191e-01
-6.558789014816284180e-01 8.479396253824234009e-02 7.639033794403076172e-01
-2.443576306104660034e-01 -4.079382121562957764e-02 6.540261507034301758e-01
2.153938710689544678e-01 3.041024804115295410e-01 7.584541440010070801e-01
3.487449884414672852e-02 1.182800829410552979e-01 8.306560516357421875e-01
-4.894497394561767578e-01 1.767324060201644897e-01 8.008139133453369141e-01
6.934493780136108398e-02 3.752749264240264893e-01 6.917076706886291504e-01
-3.149600327014923096e-01 2.404429912567138672e-01 6.267049312591552734e-01
1.009245514869689941e-01 3.913968205451965332e-01 7.806823849678039551e-01
-1.874559372663497925e-01 4.646676182746887207e-01 6.950814127922058105e-01
-2.240228801965713501e-01 2.807540893554687500e-01 8.210624456405639648e-01
-2.564733326435089111e-01 2.024829387664794922e-01 8.293019533157348633e-01
-7.582336664199829102e-02 3.510907888412475586e-01 6.574425101280212402e-01
-5.616427659988403320e-01 -1.188784390687942505e-01 7.625689506530761719e-01
-3.638387918472290039e-01 3.513453006744384766e-01 6.448937654495239258e-01
1.048077940940856934e-01 3.413640856742858887e-01 6.935814023017883301e-01
-3.707772791385650635e-01 3.032874464988708496e-01 6.344274878501892090e-01
-6.402878761291503906e-01 3.916372358798980713e-02 7.697932124137878418e-01
-3.649112880229949951e-01 -4.860912263393402100e-02 6.472204923629760742e-01
-1.657893359661102295e-01 1.282383203506469727e-01 6.365079879760742188e-01
-2.772620618343353271e-01 4.593434333801269531e-01 6.974870562553405762e-01
-4.907812774181365967e-01 3.832610249519348145e-01 7.258188724517822266e-01
-4.168768525123596191e-01 -9.135781228542327881e-02 6.580737829208374023e-01
-4.174154996871948242e-02 4.416418671607971191e-01 6.934244036674499512e-01
1.472391486167907715e-01 3.148343563079833984e-01 7.980595827102661133e-01
-4.044338464736938477e-01 -3.249202668666839600e-02 8.126140832901000977e-01
-1.850219666957855225e-01 -1.368180066347122192e-01 7.901890277862548828e-01
-3.369276523590087891e-01 3.352460265159606934e-01 6.398748755455017090e-01
-2.732760906219482422e-01 1.093691512942314148e-01 8.329657912254333496e-01
-2.250322848558425903e-01 1.995138078927993774e-01 8.317669630050659180e-01
-1.145422458648681641e-03 1.830993294715881348e-01 8.338843584060668945e-01
4.779726266860961914e-02 2.269977629184722900e-01 6.676651835441589355e-01
-5.094410181045532227e-01 -1.308317929506301880e-01 7.711983919143676758e-01
-5.489045977592468262e-01 2.827396392822265625e-01 7.625172138214111328e-01
-5.146707892417907715e-01 2.309013158082962036e-02 8.010275959968566895e-01
1.711671054363250732e-01 1.729273647069931030e-01 8.066560029983520508e-01
9.000295400619506836e-02 -1.753261685371398926e-02 7.864176630973815918e-01
-2.107809782028198242e-01 4.098746776580810547e-01 6.618576049804687500e-01
-3.286316096782684326e-01 4.526612758636474609e-01 7.216728925704956055e-01
-3.350403606891632080e-01 -1.828451603651046753e-01 7.604201436042785645e-01
-3.011654913425445557e-01 1.383765041828155518e-02 6.378453373908996582e-01
-1.313516050577163696e-01 4.655230045318603516e-01 7.543865442276000977e-01
-5.559259653091430664e-01 1.339392960071563721e-01 6.314729452133178711e-01
-5.540415048599243164e-01 3.059795498847961426e-02 7.932087182998657227e-01
6.843581795692443848e-02 2.739287018775939941e-01 6.742739081382751465e-01
-1.906776279211044312e-01 4.720183610916137695e-01 7.393125295639038086e-01
1.835036873817443848e-01 2.942617535591125488e-01 7.168866395950317383e-01
1.494473516941070557e-01 5.504079163074493408e-02 7.930917739868164062e-01
-2.855997681617736816e-01 3.757504224777221680e-01 6.495547890663146973e-01
-4.979622364044189453e-01 3.584312796592712402e-01 7.449138164520263672e-01
-6.968767642974853516e-01 1.173220574855804443e-01 6.624507904052734375e-01
-2.863883078098297119e-01 1.069752871990203857e-01 6.279323101043701172e-01
-4.278204739093780518e-01 3.185087442398071289e-02 8.156562447547912598e-01
-4.127897620201110840e-01 1.157081425189971924e-01 8.183048367500305176e-01
-8.674147725105285645e-02 4.494982361793518066e-01 7.692835927009582520e-01
-7.320237159729003906e-01 2.054478973150253296e-02 7.139896750450134277e-01
-1.519952118396759033e-01 -1.901111006736755371e-02 8.270956873893737793e-01
-4.286850094795227051e-01 -7.718919217586517334e-02 8.017051815986633301e-01
-5.357924699783325195e-01 -9.552751481533050537e-02 7.781513333320617676e-01
-2.296739369630813599e-01 3.890106678009033203e-01 6.541309356689453125e-01
-4.995788633823394775e-02 -6.481011211872100830e-02 6.977496147155761719e-01
-5.512334108352661133e-01 3.518981337547302246e-01 7.136449813842773438e-01
-1.678729951381683350e-01 4.040828943252563477e-01 7.908953428268432617e-01
-3.548672199249267578e-01 4.077654480934143066e-01 7.616551518440246582e-01
-3.665341436862945557e-01 -8.057859539985656738e-02 6.559685468673706055e-01
3.871873021125793457e-02 3.719549775123596191e-01 6.826726198196411133e-01
3.109127283096313477e-02 4.525124430656433105e-01 7.343905568122863770e-01
-1.108264923095703125e-02 -8.268694579601287842e-02 7.239242196083068848e-01
-4.114888310432434082e-01 3.904723823070526123e-01 6.649510264396667480e-01
-6.457786560058593750e-01 -1.279130578041076660e-03 6.554732322692871094e-01
-2.232161015272140503e-01 9.076560288667678833e-02 8.357604742050170898e-01
-2.837843000888824463e-01 8.619591593742370605e-03 8.279692530632019043e-01
-4.458870291709899902e-01 2.621259987354278564e-01 6.315439939498901367e-01
3.743152022361755371e-01 4.476535320281982422e-01 -6.989990472793579102e-01
6.941241025924682617e-01 2.416027486324310303e-01 -5.760972499847412109e-01
3.429841697216033936e-01 3.064088821411132812e-01 -5.289376378059387207e-01
2.354567646980285645e-01 2.555040121078491211e-01 -6.741046309471130371e-01
4.963473379611968994e-01 1.590582281351089478e-01 -5.092343091964721680e-01
6.110454797744750977e-01 2.022895812988281250e-01 -4.760059118270874023e-01
2.281642705202102661e-01 3.694563508033752441e-01 -7.542066574096679688e-01
4.234342873096466064e-01 1.133026927709579468e-01 -5.843639373779296875e-01
4.975169003009796143e-01 4.382680952548980713e-01 -6.067209243774414062e-01
3.872382640838623047e-01 3.108122050762176514e-01 -8.142321109771728516e-01
5.226470828056335449e-01 3.094761669635772705e-01 -4.631094932556152344e-01
3.648923635482788086e-01 9.827986359596252441e-02 -7.890193462371826172e-01
5.280301570892333984e-01 2.433472871780395508e-02 -6.574244499206542969e-01
5.323975086212158203e-01 1.714626848697662354e-01 -4.919454455375671387e-01
4.162319898605346680e-01 1.068397313356399536e-01 -8.175845742225646973e-01
6.277956962585449219e-01 1.708171665668487549e-01 -7.347398996353149414e-01
3.772486448287963867e-01 1.004666984081268311e-01 -6.458752751350402832e-01
5.284414291381835938e-01 4.543659090995788574e-02 -6.067278981208801270e-01
3.975731432437896729e-01 2.421173602342605591e-01 -8.345853686332702637e-01
2.439762055873870850e-01 2.326919138431549072e-01 -6.801298260688781738e-01
5.662460327148437500e-01 2.520415186882019043e-01 -7.571808695793151855e-01
5.316755175590515137e-01 2.183011770248413086e-01 -4.734795987606048584e-01
6.249397397041320801e-01 3.369588553905487061e-01 -5.177888274192810059e-01
4.173507690429687500e-01 1.662425994873046875e-01 -8.358971476554870605e-01
6.214964985847473145e-01 7.066093385219573975e-02 -5.584727525711059570e-01
7.021580338478088379e-01 2.088324427604675293e-01 -5.475487709045410156e-01
4.960494637489318848e-01 2.762304842472076416e-01 -7.897813320159912109e-01
6.701282858848571777e-01 8.233241736888885498e-02 -5.671869516372680664e-01
4.443985223770141602e-01 1.328723430633544922e-01 -8.269675374031066895e-01
5.557728409767150879e-01 3.875858187675476074e-01 -6.421861052513122559e-01
3.523944616317749023e-01 9.373871982097625732e-02 -7.111369371414184570e-01
5.602607727050781250e-01 3.864473700523376465e-01 -5.089364647865295410e-01
6.103570461273193359e-01 1.394290328025817871e-01 -7.532230019569396973e-01
4.368995428085327148e-01 2.581339776515960693e-01 -4.899183511734008789e-01
6.462272405624389648e-01 2.789822518825531006e-01 -6.547434926033020020e-01
3.892007470130920410e-01 3.651661276817321777e-01 -7.822396159172058105e-01
5.723614692687988281e-01 2.757526040077209473e-01 -7.396941184997558594e-01
3.119402229785919189e-01 1.280184090137481689e-01 -7.639550566673278809e-01
7.061949968338012695e-01 2.040430605411529541e-01 -5.707632303237915039e-01
5.662239193916320801e-01 3.244805037975311279e-01 -4.690002799034118652e-01
3.063162565231323242e-01 4.269897937774658203e-01 -5.696951150894165039e-01
6.824138164520263672e-01 1.439057886600494385e-01 -6.744544506072998047e-01
4.577387869358062744e-01 3.157739639282226562e-01 -4.740732908248901367e-01
6.974508762359619141e-01 9.599204361438751221e-02 -6.100958585739135742e-01
4.837369024753570557e-01 2.690852582454681396e-01 -4.716677963733673096e-01
4.825343489646911621e-01 4.240837991237640381e-01 -6.663995981216430664e-01
3.850650489330291748e-01 2.644392549991607666e-01 -5.136738419532775879e-01
2.645301818847656250e-01 3.903190493583679199e-01 -5.941047668457031250e-01
6.443927884101867676e-01 7.747861742973327637e-02 -5.569115877151489258e-01
6.603814363479614258e-01 2.359563112258911133e-01 -4.918799400329589844e-01
3.456102013587951660e-01 1.921381056308746338e-01 -8.373185396194458008e-01
4.525098800659179688e-01 4.170410931110382080e-01 -7.023956775665283203e-01
6.337612271308898926e-01 1.213684454560279846e-01 -7.326197624206542969e-01
2.762856483459472656e-01 2.550484836101531982e-01 -6.084387302398681641e-01
3.083628714084625244e-01 3.419811129570007324e-01 -5.493450760841369629e-01
5.864410400390625000e-01 6.512619554996490479e-02 -5.637968182563781738e-01
4.819878041744232178e-01 2.456673383712768555e-01 -4.772717356681823730e-01
6.233149170875549316e-01 1.029154360294342041e-01 -5.274483561515808105e-01
2.390586584806442261e-01 3.093808889389038086e-01 -6.322093009948730469e-01
3.023534417152404785e-01 3.066923618316650391e-01 -8.200771808624267578e-01
4.103640317916870117e-01 1.048718243837356567e-01 -6.045736670494079590e-01
2.086866796016693115e-01 3.360415101051330566e-01 -7.313204407691955566e-01
4.951733648777008057e-01 5.833230912685394287e-02 -6.038262844085693359e-01
3.948081731796264648e-01 1.364029943943023682e-01 -5.836422443389892578e-01
5.071458816528320312e-01 2.901582717895507812e-01 -7.767736315727233887e-01
4.201000332832336426e-01 4.487240314483642578e-01 -6.731553077697753906e-01
2.893319725990295410e-01 3.527359068393707275e-01 -7.977648973464965820e-01
2.128781825304031372e-01 3.292527198791503906e-01 -7.502939701080322266e-01
2.528696060180664062e-01 2.899977862834930420e-01 -8.060547709465026855e-01
3.758838474750518799e-01 4.180815815925598145e-01 -7.388915419578552246e-01
5.997776389122009277e-01 3.424178063869476318e-02 -7.103003263473510742e-01
4.344874024391174316e-01 2.962565422058105469e-01 -8.073835968971252441e-01
4.692842662334442139e-01 3.692844510078430176e-02 -7.444669604301452637e-01
3.137356042861938477e-01 1.423362493515014648e-01 -7.961472272872924805e-01
4.418547153472900391e-01 4.323111176490783691e-01 -6.873338222503662109e-01
3.221123516559600830e-01 4.642071425914764404e-01 -6.050018072128295898e-01
6.018964648246765137e-01 1.648624390363693237e-01 -7.577188611030578613e-01
4.269335567951202393e-01 7.291609048843383789e-02 -6.352460384368896484e-01
4.701269567012786865e-01 2.117748856544494629e-01 -8.215130567550659180e-01
2.633230090141296387e-01 1.858058422803878784e-01 -7.701063156127929688e-01
6.201854944229125977e-01 2.993188798427581787e-01 -4.815737605094909668e-01
5.414786338806152344e-01 1.889878511428833008e-02 -6.824470162391662598e-01
3.235742151737213135e-01 2.305706888437271118e-01 -5.733149647712707520e-01
3.349968791007995605e-01 3.733152151107788086e-01 -7.867321968078613281e-01
6.586183309555053711e-01 6.608220934867858887e-02 -6.817237138748168945e-01
4.426979124546051025e-01 5.731514096260070801e-02 -7.758463025093078613e-01
4.044700264930725098e-01 4.347778558731079102e-01 -7.062299251556396484e-01
5.234745144844055176e-01 2.038405835628509521e-02 -6.972289085388183594e-01
2.748733162879943848e-01 1.962091922760009766e-01 -8.030291795730590820e-01
6.417911648750305176e-01 3.107705414295196533e-01 -5.100370049476623535e-01
5.456410646438598633e-01 3.384314477443695068e-01 -7.155367136001586914e-01
3.503356277942657471e-01 1.765508055686950684e-01 -5.866259336471557617e-01
3.028684258460998535e-01 4.129351973533630371e-01 -7.529790997505187988e-01
4.763765037059783936e-01 5.076377093791961670e-02 -7.741215229034423828e-01
4.184571504592895508e-01 4.039544463157653809e-01 -5.014572143554687500e-01
3.764669597148895264e-01 3.515445888042449951e-01 -5.055262446403503418e-01
5.315312147140502930e-01 2.147296518087387085e-01 -7.931878566741943359e-01
5.844419598579406738e-01 3.401937484741210938e-01 -4.822750091552734375e-01
6.246941089630126953e-01 3.571049869060516357e-02 -6.212635040283203125e-01
2.767978310585021973e-01 2.814229130744934082e-01 -8.195392489433288574e-01
2.770197391510009766e-01 3.418258130550384521e-01 -5.775435566902160645e-01
4.628600180149078369e-01 3.402657806873321533e-02 -7.103093266487121582e-01
6.589328646659851074e-01 3.047028481960296631e-01 -5.443859696388244629e-01
2.185095250606536865e-01 3.000633120536804199e-01 -6.789669394493103027e-01
2.694266438484191895e-01 4.041967988014221191e-01 -7.536711692810058594e-01
6.940568685531616211e-01 2.366140186786651611e-01 -5.449329614639282227e-01
3.501744568347930908e-01 9.780125319957733154e-02 -7.672540545463562012e-01
3.787317276000976562e-01 3.057128190994262695e-01 -5.072632431983947754e-01
4.957905113697052002e-01 4.199015498161315918e-01 -5.134600400924682617e-01
6.611031293869018555e-01 2.700256109237670898e-01 -6.381423473358154297e-01
2.321730554103851318e-01 4.013951718807220459e-01 -6.516923308372497559e-01
4.758410155773162842e-01 3.936968445777893066e-01 -7.149286270141601562e-01
4.534979760646820068e-01 4.475799202919006348e-02 -7.561224699020385742e-01
2.770319581031799316e-01 2.157949507236480713e-01 -6.371059417724609375e-01
4.113236069679260254e-01 1.492422521114349365e-01 -5.599374175071716309e-01
3.438450694084167480e-01 4.013926386833190918e-01 -5.316523909568786621e-01
3.922790288925170898e-01 8.261479437351226807e-02 -6.588941216468811035e-01
6.718541979789733887e-01 1.547187417745590210e-01 -6.886827945709228516e-01
5.164427757263183594e-01 3.169271647930145264e-01 -7.547720074653625488e-01
4.305277764797210693e-01 4.397514760494232178e-01 -5.263975858688354492e-01
2.283384501934051514e-01 2.976834475994110107e-01 -7.825607061386108398e-01
4.649790823459625244e-01 3.735887706279754639e-01 -7.424271106719970703e-01
6.011635065078735352e-01 1.407967209815979004e-01 -5.003137588500976562e-01
5.960140824317932129e-01 2.639271914958953857e-01 -4.659666419029235840e-01
2.800362706184387207e-01 3.789432644844055176e-01 -5.752199292182922363e-01
4.512822031974792480e-01 4.561011493206024170e-01 -5.652623772621154785e-01
4.037762582302093506e-01 4.679211378097534180e-01 -6.287890076637268066e-01
4.455389380455017090e-01 3.729868531227111816e-01 -7.536656260490417480e-01
3.868640661239624023e-01 1.014905124902725220e-01 -8.066754341125488281e-01
2.094820439815521240e-01 3.265938758850097656e-01 -6.973513960838317871e-01
6.193103790283203125e-01 3.184139728546142578e-01 -4.913064241409301758e-01
3.382257521152496338e-01 2.594943642616271973e-01 -5.467591285705566406e-01
7.074337005615234375e-01 1.757363080978393555e-01 -5.545840859413146973e-01
4.935649335384368896e-01 3.185133635997772217e-02 -6.609926223754882812e-01
6.341775059700012207e-01 1.437994241714477539e-01 -7.323998808860778809e-01
4.745011627674102783e-01 1.912963837385177612e-01 -8.228814601898193359e-01
2.708256840705871582e-01 2.012248933315277100e-01 -6.631483435630798340e-01
4.262462258338928223e-01 1.433327496051788330e-01 -8.313624858856201172e-01
4.062103629112243652e-01 1.991263478994369507e-01 -5.296323299407958984e-01
6.720034480094909668e-01 1.652010083198547363e-01 -5.084185600280761719e-01
4.651714265346527100e-01 3.086322546005249023e-01 -7.886627316474914551e-01
4.037380814552307129e-01 9.031757712364196777e-02 -8.025346994400024414e-01
6.287701725959777832e-01 1.766337454319000244e-01 -4.869669675827026367e-01
6.190174818038940430e-01 3.149869740009307861e-01 -6.566770076751708984e-01
5.411349534988403320e-01 1.883338838815689087e-01 -7.937365770339965820e-01
6.654104590415954590e-01 2.811965346336364746e-01 -6.130003333091735840e-01
6.687591075897216797e-01 1.285232305526733398e-01 -6.943945884704589844e-01
5.489729642868041992e-01 2.753469944000244141e-01 -7.578470110893249512e-01
2.731445431709289551e-01 2.920925617218017578e-01 -5.938489437103271484e-01
5.832349061965942383e-01 2.427248954772949219e-01 -7.484457492828369141e-01
3.437243103981018066e-01 1.233703196048736572e-01 -6.545222401618957520e-01
2.978358268737792969e-01 1.589894294738769531e-01 -7.965415716171264648e-01
5.502284765243530273e-01 1.576900482177734375e-01 -7.922568321228027344e-01
5.965654850006103516e-01 2.286417186260223389e-01 -7.437646389007568359e-01
3.305216133594512939e-01 1.759001910686492920e-01 -8.295139074325561523e-01
4.257139563560485840e-01 8.574530482292175293e-02 -6.161476373672485352e-01
6.988723278045654297e-01 2.250154912471771240e-01 -5.894800424575805664e-01
3.186360299587249756e-01 1.667834520339965820e-01 -6.303725242614746094e-01
7.038252353668212891e-01 2.013220489025115967e-01 -6.015985608100891113e-01
4.126290380954742432e-01 3.726583421230316162e-01 -7.686720490455627441e-01
5.144593715667724609e-01 3.969165682792663574e-01 -6.779545545578002930e-01
4.215674400329589844e-01 4.357738196849822998e-01 -6.952972412109375000e-01
4.582706987857818604e-01 2.661529481410980225e-01 -8.110029697418212891e-01
4.783029556274414062e-01 4.095138609409332275e-02 -6.497938036918640137e-01
6.143769025802612305e-01 3.421565890312194824e-01 -6.241485476493835449e-01
4.705890715122222900e-01 1.279727667570114136e-01 -5.417903065681457520e-01
3.482214510440826416e-01 3.836087584495544434e-01 -5.243964791297912598e-01
6.097512245178222656e-01 2.696929872035980225e-02 -6.767325997352600098e-01
2.296359390020370483e-01 2.734275460243225098e-01 -7.817546129226684570e-01
6.707831025123596191e-01 2.285544127225875854e-01 -6.588249802589416504e-01
5.582066774368286133e-01 1.651966571807861328e-01 -4.902978241443634033e-01
4.497333168983459473e-01 2.001444846391677856e-01 -8.295457363128662109e-01
3.615844547748565674e-01 3.411586880683898926e-01 -5.133692622184753418e-01
3.557919859886169434e-01 4.691283702850341797e-01 -5.936073660850524902e-01
3.162688910961151123e-01 1.289078742265701294e-01 -6.964974999427795410e-01
4.183938503265380859e-01 5.940882861614227295e-02 -6.768079400062561035e-01
5.884424448013305664e-01 2.164522111415863037e-01 -4.703406691551208496e-01
7.088080048561096191e-01 1.482618749141693115e-01 -5.678148269653320312e-01
4.349700212478637695e-01 4.450814425945281982e-02 -7.153723239898681641e-01
3.311960697174072266e-01 1.137325465679168701e-01 -7.719465494155883789e-01
4.492543041706085205e-01 4.499833583831787109e-01 -6.443063616752624512e-01
5.314775705337524414e-01 4.218842983245849609e-01 -5.566307902336120605e-01
6.470305919647216797e-01 2.503955960273742676e-01 -6.784623265266418457e-01
6.761529445648193359e-01 1.728672832250595093e-01 -6.784309744834899902e-01
3.017985224723815918e-01 3.368400633335113525e-01 -8.078411817550659180e-01
4.058975875377655029e-01 2.690017819404602051e-01 -8.260985612869262695e-01
3.275716900825500488e-01 4.326541423797607422e-01 -5.576300621032714844e-01
3.032786250114440918e-01 4.542877674102783203e-01 -6.905746459960937500e-01
2.778409719467163086e-01 2.262533605098724365e-01 -8.185068964958190918e-01
5.399137735366821289e-01 1.957032382488250732e-01 -4.798483252525329590e-01
2.214951813220977783e-01 3.716202974319458008e-01 -6.589891910552978516e-01
2.624771893024444580e-01 1.812749207019805908e-01 -7.414758205413818359e-01
5.645772814750671387e-01 1.796952635049819946e-01 -7.814074754714965820e-01
5.242673754692077637e-01 7.791481912136077881e-02 -5.645315647125244141e-01
5.363745689392089844e-01 4.096984267234802246e-01 -5.247635245323181152e-01
7.079688310623168945e-01 1.285095661878585815e-01 -6.029768586158752441e-01
6.766972541809082031e-01 7.784704864025115967e-02 -6.608094573020935059e-01
6.443319916725158691e-01 2.677632570266723633e-01 -4.864837229251861572e-01
3.808616399765014648e-01 4.478815793991088867e-01 -5.444138050079345703e-01
4.607373774051666260e-01 4.418192207813262939e-01 -5.334476232528686523e-01
3.513035774230957031e-01 1.351802647113800049e-01 -6.275806427001953125e-01
5.931802988052368164e-01 3.684554100036621094e-01 -6.134992837905883789e-01
4.068519473075866699e-01 3.927913904190063477e-01 -7.536200881004333496e-01
4.219377934932708740e-01 2.532052099704742432e-01 -8.268482685089111328e-01
5.393606424331665039e-01 1.391699761152267456e-01 -5.084840655326843262e-01
4.375144243240356445e-01 3.973338901996612549e-01 -4.941753745079040527e-01
4.661191403865814209e-01 9.416852891445159912e-02 -8.102181553840637207e-01
3.677273988723754883e-01 4.613254070281982422e-01 -6.736369729042053223e-01
4.771372377872467041e-01 8.846268057823181152e-02 -5.755367875099182129e-01
2.374452948570251465e-01 4.130324721336364746e-01 -7.127857804298400879e-01
3.459725975990295410e-01 9.629188477993011475e-02 -7.395176291465759277e-01
5.058875679969787598e-01 1.411160230636596680e-01 -5.171406865119934082e-01
6.569902300834655762e-01 5.149380862712860107e-02 -6.598960161209106445e-01
4.536628127098083496e-01 3.265608847141265869e-01 -7.835584878921508789e-01
2.930661737918853760e-01 1.781527101993560791e-01 -6.537451148033142090e-01
2.666217088699340820e-01 2.414313256740570068e-01 -6.304571032524108887e-01
4.400498569011688232e-01 4.209970831871032715e-01 -5.079778432846069336e-01
4.124256372451782227e-01 3.593532443046569824e-01 -4.907158017158508301e-01
6.197063922882080078e-01 2.964641749858856201e-01 -6.756928563117980957e-01
2.177909612655639648e-01 3.487397134304046631e-01 -6.644526124000549316e-01
3.621172010898590088e-01 3.521341681480407715e-01 -7.971930503845214844e-01
3.482901155948638916e-01 1.667001843452453613e-01 -8.318988680839538574e-01
2.221571207046508789e-01 2.565421462059020996e-01 -7.437423467636108398e-01
3.618857860565185547e-01 4.407106637954711914e-01 -5.446177721023559570e-01
2.499544322490692139e-01 3.366493284702301025e-01 -6.093158125877380371e-01
4.801416397094726562e-01 1.117547303438186646e-01 -5.507439970970153809e-01
5.155029296875000000e-01 6.599307060241699219e-02 -5.824153423309326172e-01
7.075956463813781738e-01 1.619063913822174072e-01 -6.139826774597167969e-01
5.630411505699157715e-01 3.366275131702423096e-01 -7.009992599487304688e-01
2.521229088306427002e-01 4.109809994697570801e-01 -7.354332208633422852e-01
4.458627998828887939e-01 4.429697990417480469e-02 -6.818498969078063965e-01
4.384412765502929688e-01 1.447891891002655029e-01 -5.461193919181823730e-01
3.671405911445617676e-01 1.886348724365234375e-01 -5.631250143051147461e-01
4.040005207061767578e-01 9.016065299510955811e-02 -6.309813261032104492e-01
6.889559030532836914e-01 1.721990108489990234e-01 -5.207698941230773926e-01
4.935092031955718994e-01 1.745844781398773193e-01 -8.174197673797607422e-01
4.117261767387390137e-01 7.618230581283569336e-02 -7.897666692733764648e-01
5.908184051513671875e-01 5.909436941146850586e-02 -7.449119687080383301e-01
3.376635015010833740e-01 4.706949293613433838e-01 -6.417809724807739258e-01
5.299576520919799805e-01 3.800523579120635986e-01 -6.852889060974121094e-01
3.255952894687652588e-01 1.304430961608886719e-01 -6.722189784049987793e-01
3.363773524761199951e-01 3.478815555572509766e-01 -8.028170466423034668e-01
5.704256296157836914e-01 4.556061327457427979e-02 -7.456709742546081543e-01
5.559259653091430664e-01 4.045170843601226807e-01 -5.958061814308166504e-01
2.238633036613464355e-01 2.725249230861663818e-01 -6.872397065162658691e-01
5.875383019447326660e-01 2.530828118324279785e-02 -6.377987861633300781e-01
6.174637079238891602e-01 1.216544881463050842e-01 -5.130057930946350098e-01
6.628104448318481445e-01 5.261066555976867676e-02 -6.283580064773559570e-01
5.242475867271423340e-01 4.266223013401031494e-01 -5.858735442161560059e-01
5.737763643264770508e-01 2.719727158546447754e-01 -4.627903103828430176e-01
5.118523240089416504e-01 3.251747786998748779e-02 -7.458488941192626953e-01
5.662648677825927734e-01 3.488100469112396240e-01 -6.847580075263977051e-01
2.972162961959838867e-01 2.250195294618606567e-01 -6.036470532417297363e-01
2.317616790533065796e-01 2.392665147781372070e-01 -7.620028257369995117e-01
2.907256186008453369e-01 2.105897665023803711e-01 -6.228852272033691406e-01
2.776032388210296631e-01 3.231407105922698975e-01 -8.088040947914123535e-01
2.302281260490417480e-01 3.550583124160766602e-01 -6.377473473548889160e-01
4.015404880046844482e-01 3.855515718460083008e-01 -4.999175071716308594e-01
2.753379940986633301e-01 4.247292578220367432e-01 -7.318865656852722168e-01
3.635712563991546631e-01 4.387618899345397949e-01 -7.163001298904418945e-01
6.535025835037231445e-01 1.720183491706848145e-01 -7.079882025718688965e-01
4.840321242809295654e-01 3.771328926086425781e-01 -4.802296161651611328e-01
5.958398580551147461e-01 8.653916418552398682e-02 -5.404059290885925293e-01
4.190398156642913818e-01 1.683920174837112427e-01 -5.407384037971496582e-01
2.382445186376571655e-01 2.201621234416961670e-01 -7.435096502304077148e-01
5.200130343437194824e-01 1.167372912168502808e-01 -8.036741018295288086e-01
4.606767296791076660e-01 3.947769105434417725e-01 -4.897354245185852051e-01
5.560837388038635254e-01 6.529292464256286621e-02 -7.687746882438659668e-01
4.358627498149871826e-01 1.737051010131835938e-01 -5.275990962982177734e-01
2.533425688743591309e-01 2.749724686145782471e-01 -6.271356344223022461e-01
6.542565822601318359e-01 2.147996127605438232e-01 -4.876343607902526855e-01
6.762976646423339844e-01 1.948511451482772827e-01 -6.698366403579711914e-01
2.676286399364471436e-01 2.503151595592498779e-01 -8.159845471382141113e-01
3.933936059474945068e-01 4.711933434009552002e-01 -6.034180521965026855e-01
3.035660684108734131e-01 1.848022341728210449e-01 -8.202842473983764648e-01
4.017046689987182617e-01 6.536556780338287354e-02 -6.892689466476440430e-01
3.928115367889404297e-01 1.779843568801879883e-01 -8.387086987495422363e-01
4.144214093685150146e-01 4.075441658496856689e-01 -7.355688214302062988e-01
6.332364082336425781e-01 3.258703351020812988e-01 -6.134023070335388184e-01
4.827044904232025146e-01 1.484765410423278809e-01 -5.212218165397644043e-01
4.524814486503601074e-01 3.846904635429382324e-02 -7.293529510498046875e-01
5.723154544830322266e-01 3.005393743515014648e-01 -7.231305837631225586e-01
5.664871931076049805e-01 2.207515537738800049e-01 -4.691567420959472656e-01
2.840358018875122070e-01 4.073903262615203857e-01 -5.792607069015502930e-01
6.783436536788940430e-01 2.650136351585388184e-01 -6.018637418746948242e-01
3.756971359252929688e-01 4.116361737251281738e-01 -5.195785760879516602e-01
6.060442328453063965e-01 3.445503711700439453e-01 -5.016785860061645508e-01
6.816269159317016602e-01 2.438139021396636963e-01 -5.183233618736267090e-01
3.918570876121520996e-01 1.267133653163909912e-01 -8.248922824859619141e-01
6.152736544609069824e-01 2.431147545576095581e-01 -4.706979393959045410e-01
3.875604867935180664e-01 2.097966670989990234e-01 -5.354894995689392090e-01
5.283234119415283203e-01 9.897358715534210205e-02 -5.421086549758911133e-01
5.839966535568237305e-01 3.382926583290100098e-01 -6.763172149658203125e-01
4.935209751129150391e-01 2.717825770378112793e-02 -7.233839631080627441e-01
4.332775473594665527e-01 1.262698769569396973e-01 -5.647732019424438477e-01
6.392437219619750977e-01 3.939189016819000244e-02 -6.661800146102905273e-01
6.832647919654846191e-01 7.678693532943725586e-02 -5.984256863594055176e-01
2.605008780956268311e-01 4.322443306446075439e-01 -6.287648081779479980e-01
3.703648447990417480e-01 1.238336265087127686e-01 -6.202341914176940918e-01
3.143116235733032227e-01 4.002554416656494141e-01 -7.659676074981689453e-01
2.139077335596084595e-01 3.639076352119445801e-01 -6.802683472633361816e-01
3.133326172828674316e-01 3.701360225677490234e-01 -7.895243167877197266e-01
4.553789794445037842e-01 4.344706535339355469e-01 -6.729149818420410156e-01
5.357470512390136719e-01 4.487259685993194580e-02 -7.598157525062561035e-01
3.147387206554412842e-01 2.217294424772262573e-01 -8.338900804519653320e-01
4.263975620269775391e-01 3.364806473255157471e-01 -4.839401245117187500e-01
2.964804172515869141e-01 2.505127489566802979e-01 -5.883402824401855469e-01
3.323828577995300293e-01 1.709531247615814209e-01 -6.096953749656677246e-01
4.239922761917114258e-01 2.742926776409149170e-01 -8.196505308151245117e-01
4.140059351921081543e-01 5.496661365032196045e-02 -7.389166355133056641e-01
5.236390233039855957e-01 3.488619327545166016e-01 -7.244169116020202637e-01
5.859452486038208008e-01 8.972807228565216064e-02 -7.635446786880493164e-01
4.024820923805236816e-01 4.616046547889709473e-01 -5.621465444564819336e-01
2.416346371173858643e-01 2.681784033775329590e-01 -6.504308581352233887e-01
5.420314073562622070e-01 3.497740328311920166e-01 -4.730501770973205566e-01
4.557546973228454590e-01 3.475154638290405273e-01 -4.763830900192260742e-01
4.950571060180664062e-01 2.529375255107879639e-02 -6.973338127136230469e-01
4.886437654495239258e-01 4.477380216121673584e-02 -6.320494413375854492e-01
4.900915920734405518e-01 1.503712534904479980e-01 -8.186622262001037598e-01
4.290305376052856445e-01 3.178569674491882324e-01 -7.986179590225219727e-01
5.102141499519348145e-01 4.176454842090606689e-01 -6.469795107841491699e-01
3.650166690349578857e-01 9.448105096817016602e-02 -6.765474081039428711e-01
4.685978889465332031e-01 4.168973863124847412e-01 -5.043997764587402344e-01
4.481665194034576416e-01 9.696389734745025635e-02 -5.843111872673034668e-01
6.387684345245361328e-01 1.395432353019714355e-01 -5.058124065399169922e-01
6.952800154685974121e-01 1.019158810377120972e-01 -5.778418183326721191e-01
5.399892926216125488e-01 3.095141649246215820e-01 -7.432157993316650391e-01
3.488542437553405762e-01 2.375893890857696533e-01 -5.484923124313354492e-01
5.362635254859924316e-01 2.485359311103820801e-01 -4.655299484729766846e-01
5.576915740966796875e-01 1.017886400222778320e-01 -5.317032933235168457e-01
3.637471497058868408e-01 1.143802702426910400e-01 -6.410059332847595215e-01
6.273051500320434570e-01 4.870668053627014160e-02 -7.038819193840026855e-01
5.039602518081665039e-01 3.721558451652526855e-01 -7.173100113868713379e-01
4.657771885395050049e-01 2.460012733936309814e-01 -8.148781657218933105e-01
6.964017748832702637e-01 2.197135537862777710e-01 -6.090291738510131836e-01
5.816382169723510742e-01 1.437778770923614502e-01 -4.991239905357360840e-01
2.306432127952575684e-01 3.273317515850067139e-01 -6.405506730079650879e-01
4.486215114593505859e-01 1.642540246248245239e-01 -8.307695984840393066e-01
2.851380705833435059e-01 1.587145328521728516e-01 -7.728418707847595215e-01
3.076175153255462646e-01 4.652820825576782227e-01 -6.430396437644958496e-01
2.931576371192932129e-01 3.147043585777282715e-01 -5.665735006332397461e-01
5.844091773033142090e-01 1.716569960117340088e-01 -7.695625424385070801e-01
2.077951133251190186e-01 3.214654922485351562e-01 -7.168406248092651367e-01
4.814197421073913574e-01 2.942647933959960938e-01 -4.691110849380493164e-01
3.781338632106781006e-01 1.362908482551574707e-01 -5.982759594917297363e-01
3.954554796218872070e-01 3.117190301418304443e-01 -4.978506863117218018e-01
6.028475165367126465e-01 2.046675533056259155e-01 -7.475568056106567383e-01
6.835548877716064453e-01 2.265443950891494751e-01 -6.363904476165771484e-01
4.629414677619934082e-01 2.798868715763092041e-01 -4.757588505744934082e-01
4.962477087974548340e-01 8.607357740402221680e-02 -8.008936643600463867e-01
6.584165096282958984e-01 1.148878633975982666e-01 -7.060041427612304688e-01
5.269671678543090820e-01 9.451290965080261230e-02 -7.949346303939819336e-01
2.889904975891113281e-01 2.853849828243255615e-01 -5.796055197715759277e-01
5.624362826347351074e-01 1.302475929260253906e-01 -5.096186399459838867e-01
5.190165638923645020e-01 3.816965222358703613e-02 -6.252291202545166016e-01
3.626852035522460938e-01 2.305307537317276001e-01 -8.394060730934143066e-01
6.408603191375732422e-01 9.101007878780364990e-02 -7.193804383277893066e-01
3.784651160240173340e-01 3.285977840423583984e-01 -8.074135780334472656e-01
2.326632589101791382e-01 4.144636392593383789e-01 -6.844927668571472168e-01
5.764700770378112793e-01 3.922954797744750977e-01 -5.609269738197326660e-01
2.447897791862487793e-01 3.201833367347717285e-01 -7.942114472389221191e-01
3.242859840393066406e-01 3.194367885589599609e-01 -5.398131012916564941e-01
4.786498844623565674e-01 4.481223821640014648e-01 -5.686945915222167969e-01
3.509636223316192627e-01 4.099602699279785156e-01 -7.536209821701049805e-01
3.102248311042785645e-01 1.894457042217254639e-01 -6.176096200942993164e-01
3.273895382881164551e-01 1.112286001443862915e-01 -7.371993660926818848e-01
2.304319590330123901e-01 2.497909069061279297e-01 -6.952211260795593262e-01
4.736988544464111328e-01 4.086956679821014404e-01 -6.980190873146057129e-01
6.706566810607910156e-01 1.448929607868194580e-01 -5.161958932876586914e-01
6.165864467620849609e-01 3.556860089302062988e-01 -5.772618055343627930e-01
5.123646259307861328e-01 3.922556638717651367e-01 -4.911064505577087402e-01
3.585872650146484375e-01 1.183330118656158447e-01 -8.082280158996582031e-01
4.351632893085479736e-01 7.464089989662170410e-02 -7.956604957580566406e-01
5.992242693901062012e-01 1.139881461858749390e-01 -7.601563334465026855e-01
5.299242734909057617e-01 2.849483489990234375e-02 -7.358199357986450195e-01
5.107590556144714355e-01 2.551227807998657227e-01 -4.681534767150878906e-01
6.409650444984436035e-01 3.042482733726501465e-01 -6.333466172218322754e-01
5.380636453628540039e-01 3.865672647953033447e-01 -6.674363613128662109e-01
6.669673919677734375e-01 6.479266285896301270e-02 -5.929870605468750000e-01
5.667296648025512695e-01 3.557537496089935303e-01 -4.835951924324035645e-01
3.693512082099914551e-01 2.022959142923355103e-01 -8.403599262237548828e-01
6.470006704330444336e-01 1.072700023651123047e-01 -5.294597744941711426e-01
6.852731108665466309e-01 2.619941234588623047e-01 -5.697779655456542969e-01
2.748868465423583984e-01 1.815871894359588623e-01 -6.839655637741088867e-01
6.104528903961181641e-01 3.602327406406402588e-01 -5.389233827590942383e-01
4.895505607128143311e-01 6.375512480735778809e-02 -7.875605821609497070e-01
5.684113502502441406e-01 1.602848470211029053e-01 -7.814650535583496094e-01
5.307957530021667480e-01 3.667913973331451416e-01 -4.788539707660675049e-01
2.955508530139923096e-01 1.416731476783752441e-01 -7.480003833770751953e-01
3.282278776168823242e-01 3.399095833301544189e-01 -5.345516800880432129e-01
6.007719635963439941e-01 3.712438344955444336e-01 -5.754617452621459961e-01
2.820217311382293701e-01 4.547055363655090332e-01 -6.659291982650756836e-01
6.109210252761840820e-01 1.669955253601074219e-01 -4.879394769668579102e-01
6.321562528610229492e-01 3.394278883934020996e-01 -5.736494660377502441e-01
5.976083278656005859e-01 3.085954189300537109e-01 -4.737040996551513672e-01
6.694127917289733887e-01 2.851193249225616455e-01 -5.912913680076599121e-01
6.336464881896972656e-01 3.382677137851715088e-01 -5.526339411735534668e-01
5.352072119712829590e-01 1.294440329074859619e-01 -7.991532087326049805e-01
6.396930813789367676e-01 2.890634536743164062e-01 -4.911566376686096191e-01
2.312177568674087524e-01 3.796979188919067383e-01 -6.400391459465026855e-01
3.398749828338623047e-01 4.553755521774291992e-01 -5.729832053184509277e-01
5.949157476425170898e-01 1.896489858627319336e-01 -4.782454371452331543e-01
4.863231778144836426e-01 3.015006780624389648e-01 -7.821040153503417969e-01
6.585174798965454102e-01 2.705304622650146484e-01 -5.003628134727478027e-01
3.906883299350738525e-01 6.852178275585174561e-02 -7.505177259445190430e-01
4.541141390800476074e-01 3.745197355747222900e-01 -4.825634360313415527e-01
7.040527462959289551e-01 1.260189414024353027e-01 -5.700891017913818359e-01
2.264757603406906128e-01 3.422242999076843262e-01 -7.691540122032165527e-01
5.768474936485290527e-01 1.973323523998260498e-02 -6.807926297187805176e-01
3.677681684494018555e-01 2.287049144506454468e-01 -5.390706658363342285e-01
2.845790386199951172e-01 4.453158378601074219e-01 -6.105031371116638184e-01
5.123859643936157227e-01 1.139634549617767334e-01 -5.348732471466064453e-01
3.100109100341796875e-01 1.505990326404571533e-01 -6.648626327514648438e-01
3.169267177581787109e-01 2.470352649688720703e-01 -8.344004154205322266e-01
2.132882922887802124e-01 2.886790633201599121e-01 -7.125439643859863281e-01
2.599482238292694092e-01 3.457353413105010986e-01 -7.924690246582031250e-01
3.134284913539886475e-01 1.241135820746421814e-01 -7.301188707351684570e-01
3.542666435241699219e-01 1.576399356126785278e-01 -5.997417569160461426e-01
5.455075502395629883e-01 2.456542402505874634e-01 -7.743668556213378906e-01
4.024707376956939697e-01 4.477034211158752441e-01 -6.861561536788940430e-01
6.718062162399291992e-01 2.866337895393371582e-01 -5.667169690132141113e-01
5.681157708168029785e-01 8.295358717441558838e-02 -5.468624234199523926e-01
3.548322916030883789e-01 2.745325565338134766e-01 -5.293018221855163574e-01
2.093589901924133301e-01 3.070547878742218018e-01 -7.318862676620483398e-01
3.287000060081481934e-01 2.862839400768280029e-01 -5.444166660308837891e-01
5.749304294586181641e-01 1.861223280429840088e-01 -4.795961380004882812e-01
6.084191799163818359e-01 5.406941473484039307e-02 -5.784417390823364258e-01
4.764805436134338379e-01 5.899313092231750488e-02 -6.152257323265075684e-01
4.207122921943664551e-01 2.118981331586837769e-01 -8.350898027420043945e-01
3.644893467426300049e-01 3.210577666759490967e-01 -5.131269693374633789e-01
4.058164358139038086e-01 2.511629760265350342e-01 -5.066593289375305176e-01
6.487268209457397461e-01 3.088206052780151367e-01 -6.074849963188171387e-01
4.175328314304351807e-01 4.670993089675903320e-01 -6.120174527168273926e-01
4.328528344631195068e-01 4.055669009685516357e-01 -7.285007238388061523e-01
5.076115727424621582e-01 3.361948728561401367e-01 -4.672433137893676758e-01
5.216112732887268066e-01 4.034657180309295654e-01 -6.596920490264892578e-01
3.133480846881866455e-01 3.678006529808044434e-01 -5.454277396202087402e-01
6.389774680137634277e-01 2.320877164602279663e-01 -4.793015122413635254e-01
6.014541387557983398e-01 4.998663067817687988e-02 -7.295602560043334961e-01
2.204380035400390625e-01 2.739130258560180664e-01 -7.615120410919189453e-01
6.445196866989135742e-01 5.905778706073760986e-02 -6.947523951530456543e-01
4.197025597095489502e-01 2.305269092321395874e-01 -5.071948170661926270e-01
6.866407394409179688e-01 1.343284845352172852e-01 -5.346201062202453613e-01
2.977456450462341309e-01 4.044786691665649414e-01 -5.654973983764648438e-01
4.879838526248931885e-01 1.226557344198226929e-01 -8.155970573425292969e-01
3.923941254615783691e-01 1.538605093955993652e-01 -5.699401497840881348e-01
5.665901899337768555e-01 2.022911161184310913e-01 -7.752407193183898926e-01
6.933807134628295898e-01 9.862209856510162354e-02 -6.399329900741577148e-01
6.914215087890625000e-01 2.076796442270278931e-01 -6.341506838798522949e-01
3.406663537025451660e-01 3.636378645896911621e-01 -5.262863039970397949e-01
5.008999705314636230e-01 4.377250373363494873e-01 -5.595869421958923340e-01
5.610877275466918945e-01 9.509435296058654785e-02 -7.796799540519714355e-01
7.004967927932739258e-01 1.343985348939895630e-01 -6.383689641952514648e-01
3.371863365173339844e-01 1.373749822378158569e-01 -8.116579055786132812e-01
4.677953124046325684e-01 1.727882325649261475e-01 -8.260907530784606934e-01
4.885651171207427979e-01 4.343124628067016602e-01 -6.371181011199951172e-01
2.488908022642135620e-01 2.527409493923187256e-01 -8.012542724609375000e-01
5.298956632614135742e-01 3.291328549385070801e-01 -7.362602949142456055e-01
4.977470338344573975e-01 2.314314842224121094e-01 -8.056640028953552246e-01
5.005537867546081543e-01 1.888753622770309448e-01 -4.921647310256958008e-01
4.036392271518707275e-01 4.221426248550415039e-01 -7.236037254333496094e-01
2.576248049736022949e-01 4.102998971939086914e-01 -6.115536689758300781e-01
5.391739010810852051e-01 5.729749798774719238e-02 -5.842806100845336914e-01
3.242937922477722168e-01 1.494122147560119629e-01 -6.440894007682800293e-01
4.906222224235534668e-01 3.138135373592376709e-01 -4.668222069740295410e-01
3.604387640953063965e-01 2.659896910190582275e-01 -8.335993289947509766e-01
3.837749361991882324e-01 1.788284480571746826e-01 -5.572784543037414551e-01
4.577021598815917969e-01 3.462969660758972168e-01 -7.685072422027587891e-01
3.551293611526489258e-01 3.016946315765380859e-01 -8.230031728744506836e-01
3.104136586189270020e-01 4.436453282833099365e-01 -5.804550647735595703e-01
4.501536488533020020e-01 2.191947400569915771e-01 -4.975841045379638672e-01
5.202449560165405273e-01 5.807660520076751709e-02 -7.769336104393005371e-01
5.741622447967529297e-01 3.571778535842895508e-01 -6.649854779243469238e-01
4.974801838397979736e-01 3.547671437263488770e-01 -7.384324669837951660e-01
4.616668224334716797e-01 4.530158638954162598e-01 -6.147649288177490234e-01
