-5.085939764976501465e-01 1.018802672624588013e-01 1.005878075957298279e-01
-4.918434321880340576e-01 1.510572731494903564e-01 -1.571573875844478607e-02
-2.993847131729125977e-01 1.020385026931762695e-01 1.207098960876464844e-01
-2.128527611494064331e-01 -2.723762691020965576e-01 -6.444033235311508179e-02
-5.096784830093383789e-01 1.526944637298583984e-01 7.137449830770492554e-02
-2.338709086179733276e-01 1.359733492136001587e-01 7.947864383459091187e-02
-3.780012726783752441e-01 1.817591488361358643e-01 -2.351820934563875198e-03
-5.710663795471191406e-01 4.361617565155029297e-02 -3.223638981580734253e-02
-1.549602001905441284e-01 -1.350255310535430908e-01 -1.071325838565826416e-01
-3.665349185466766357e-01 -2.428559362888336182e-01 -7.249432802200317383e-02
-5.952623486518859863e-02 -1.488054692745208740e-01 2.929105423390865326e-02
-3.415028154850006104e-01 -2.280716001987457275e-01 5.250480398535728455e-02
-2.583131492137908936e-01 -2.326336652040481567e-01 5.729927495121955872e-02
-8.172783255577087402e-02 -5.854862928390502930e-02 -6.165044382214546204e-02
-1.122478395700454712e-01 4.705804586410522461e-02 -2.116505242884159088e-02
-3.144994080066680908e-01 -2.426393926143646240e-01 -8.935201913118362427e-02
-3.542808294296264648e-01 -1.208996772766113281e-02 -1.147303059697151184e-01
-1.952506005764007568e-01 -2.757557332515716553e-01 -3.536222036927938461e-03
-4.822102487087249756e-01 1.074467599391937256e-01 -5.300383642315864563e-02
-3.937866091728210449e-01 1.595834195613861084e-01 9.981286525726318359e-02
-1.285180002450942993e-01 -2.432406842708587646e-01 1.367649063467979431e-02
-1.562648117542266846e-01 -1.027679815888404846e-02 -8.619660884141921997e-02
-3.129600882530212402e-01 -8.336467295885086060e-02 1.246991604566574097e-01
-2.271844148635864258e-01 -3.818559646606445312e-02 -1.131172180175781250e-01
-5.093493461608886719e-01 -1.585430055856704712e-01 -4.429663717746734619e-02
-3.182712793350219727e-01 6.315860897302627563e-03 -1.109573990106582642e-01
-3.531948029994964600e-01 1.916386336088180542e-01 3.894431143999099731e-02
-4.889544546604156494e-01 -1.226689442992210388e-01 7.320757955312728882e-02
-3.135934174060821533e-01 5.729202181100845337e-02 -9.349706023931503296e-02
-2.341878116130828857e-01 -2.834650874137878418e-01 -1.583700440824031830e-02
-1.553722470998764038e-01 -5.029516667127609253e-02 -9.789498150348663330e-02
-4.526886940002441406e-01 -2.169725298881530762e-01 -9.045934304594993591e-03
-4.492099285125732422e-01 -8.271841704845428467e-02 -1.049561873078346252e-01
-4.791746139526367188e-01 -1.044784858822822571e-01 -9.149701148271560669e-02
-4.644600152969360352e-01 -1.985800862312316895e-01 -5.059365928173065186e-02
-3.427380025386810303e-01 -1.779804229736328125e-01 8.754913508892059326e-02
-1.902577728033065796e-01 -2.380193769931793213e-01 -9.086145460605621338e-02
-2.547533214092254639e-01 1.619371175765991211e-01 5.357437953352928162e-02
-5.865598917007446289e-01 -7.607292383909225464e-03 4.640468955039978027e-02
-3.690868020057678223e-01 1.463555395603179932e-01 -4.328896850347518921e-02
-5.874461531639099121e-01 -2.536384761333465576e-02 -1.684569567441940308e-02
-3.153956532478332520e-01 1.118455827236175537e-01 -6.507891416549682617e-02
-7.303927838802337646e-02 -2.273233421146869659e-02 4.875697568058967590e-02
-4.526512026786804199e-01 -4.923473298549652100e-02 -1.039773449301719666e-01
-2.624099850654602051e-01 -8.671018481254577637e-02 1.219082251191139221e-01
-1.074444949626922607e-01 5.006771534681320190e-02 4.292705655097961426e-02
-2.676301896572113037e-01 -2.599349319934844971e-01 -8.129052072763442993e-02
-1.419608741998672485e-01 -5.492525175213813782e-02 9.909690916538238525e-02
-5.846568346023559570e-01 6.815662235021591187e-02 -3.135253209620714188e-03
-2.509026229381561279e-01 -9.507492184638977051e-02 -1.237057894468307495e-01
-1.257003396749496460e-01 2.190926671028137207e-02 8.146518468856811523e-02
-1.922887414693832397e-01 1.317283064126968384e-01 3.084308467805385590e-02
-3.856267035007476807e-01 -4.426625370979309082e-02 1.284400969743728638e-01
-3.794268071651458740e-01 4.682254791259765625e-02 -9.731902182102203369e-02
-6.568935513496398926e-02 -1.589099168777465820e-01 -5.679198354482650757e-02
-2.628431916236877441e-01 5.115067958831787109e-02 -9.028957039117813110e-02
-4.067533612251281738e-01 1.022363901138305664e-01 -7.116985321044921875e-02
-3.245964050292968750e-01 2.226388454437255859e-02 1.359165608882904053e-01
-4.274549782276153564e-01 -4.246193915605545044e-03 1.279833614826202393e-01
-4.710434079170227051e-01 4.433035850524902344e-03 -9.260435402393341064e-02
-2.955740392208099365e-01 -2.499032616615295410e-01 -8.698398619890213013e-02
-4.242627322673797607e-01 -7.313312590122222900e-02 -1.117656230926513672e-01
-5.430777072906494141e-01 1.080680936574935913e-01 -2.224415913224220276e-02
-4.695551097393035889e-01 -1.437202394008636475e-01 -8.557836711406707764e-02
-7.344193756580352783e-02 -4.640143364667892456e-03 -2.046186849474906921e-02
-2.167970836162567139e-01 -1.443907022476196289e-01 -1.198333650827407837e-01
-5.916998386383056641e-01 3.547508269548416138e-03 -1.243986748158931732e-02
-1.866981983184814453e-01 -2.300481051206588745e-01 5.076951533555984497e-02
-4.651397466659545898e-01 8.002479374408721924e-02 1.191385090351104736e-01
-1.415178924798965454e-01 -1.508322656154632568e-01 -1.021228134632110596e-01
-4.614753127098083496e-01 -3.116445243358612061e-02 -1.002387329936027527e-01
-2.557630836963653564e-01 1.004061251878738403e-01 -6.143410131335258484e-02
-1.722712665796279907e-01 6.709672510623931885e-02 9.223032742738723755e-02
-3.684796094894409180e-01 -1.090323254466056824e-01 -1.210733205080032349e-01
-9.141311049461364746e-02 3.439207375049591064e-02 2.960229851305484772e-02
-4.026648998260498047e-01 8.319979906082153320e-02 -8.095862716436386108e-02
-2.043904066085815430e-01 -2.242617011070251465e-01 5.865892395377159119e-02
-3.241063952445983887e-01 -2.203240990638732910e-01 6.238912045955657959e-02
-2.144199609756469727e-01 -2.413773089647293091e-01 4.665338248014450073e-02
-2.972599565982818604e-01 -6.129817292094230652e-02 1.288028806447982788e-01
-1.690344661474227905e-01 1.417582482099533081e-02 -8.131246268749237061e-02
-3.367797732353210449e-01 -1.696613430976867676e-01 -1.171486824750900269e-01
-5.691810846328735352e-01 5.653146654367446899e-02 7.187272608280181885e-02
-3.464885056018829346e-01 -1.162241995334625244e-01 -1.232977807521820068e-01
-4.371128976345062256e-01 1.707171052694320679e-01 8.540771901607513428e-02
-2.297191768884658813e-01 6.917142868041992188e-02 1.151340901851654053e-01
-2.704999148845672607e-01 1.141382157802581787e-01 1.097550541162490845e-01
-5.169423818588256836e-01 -1.615461111068725586e-01 -2.239650674164295197e-02
-5.667272210121154785e-02 -3.060984984040260315e-02 2.167558856308460236e-02
-2.370106577873229980e-01 1.567810475826263428e-01 3.033804520964622498e-02
-3.875911235809326172e-01 9.418182075023651123e-02 1.274463087320327759e-01
-4.741676449775695801e-01 3.773339092731475830e-02 1.198657006025314331e-01
-2.687579989433288574e-01 -2.580189704895019531e-01 3.268527239561080933e-02
-1.879364699125289917e-01 1.114660128951072693e-02 1.135031953454017639e-01
-4.854119420051574707e-01 -1.838464140892028809e-01 1.820334419608116150e-02
-3.895965218544006348e-01 -2.506800293922424316e-01 -6.848920602351427078e-03
-4.890264272689819336e-01 -1.669510900974273682e-01 3.782099112868309021e-02
-4.207441210746765137e-02 -7.677464187145233154e-02 -5.671121645718812943e-03
-9.139907360076904297e-02 -1.232262700796127319e-01 6.476107239723205566e-02
-3.938378095626831055e-01 -2.492266446352005005e-01 -3.740599751472473145e-02
-5.203358530998229980e-01 -1.196907684206962585e-01 5.403655767440795898e-02
-8.121694624423980713e-02 -2.075824290513992310e-01 -5.002691969275474548e-02
-4.453121423721313477e-01 -1.494647860527038574e-01 -9.484797716140747070e-02
-7.516808807849884033e-02 -4.075174033641815186e-02 5.662556737661361694e-02
-4.716292321681976318e-01 -2.038673162460327148e-01 -1.949658989906311035e-02
-1.677723973989486694e-01 -2.676982283592224121e-01 -8.150935173034667969e-05
-4.019551873207092285e-01 -2.240757346153259277e-01 -7.302691042423248291e-02
-1.532538533210754395e-01 1.022901237010955811e-01 1.574325934052467346e-02
-5.249646902084350586e-01 2.122703939676284790e-03 -7.218536734580993652e-02
-5.770038366317749023e-01 1.346907019615173340e-02 6.375011801719665527e-02
-1.616080105304718018e-01 9.132580459117889404e-02 6.815056502819061279e-02
-4.293915927410125732e-01 9.149374067783355713e-02 -7.364377379417419434e-02
-3.115598559379577637e-01 -1.190286576747894287e-01 1.149503588676452637e-01
-1.344847828149795532e-01 -2.130541801452636719e-01 4.586810618638992310e-02
-2.297114282846450806e-01 -6.420256197452545166e-02 -1.181418746709823608e-01
-1.887424290180206299e-01 -2.821493893861770630e-02 -1.024649664759635925e-01
-5.708138942718505859e-01 -7.754838466644287109e-02 2.670267038047313690e-02
-5.332233309745788574e-01 2.052616328001022339e-02 9.660843759775161743e-02
-3.168433010578155518e-01 -2.676349282264709473e-01 9.115837514400482178e-03
-3.039373159408569336e-01 7.432265579700469971e-02 -8.502754569053649902e-02
-2.348093092441558838e-01 -2.470956891775131226e-01 -9.140810370445251465e-02
-9.866032004356384277e-02 -6.164615601301193237e-02 -7.450983673334121704e-02
-4.578998386859893799e-01 -1.422412097454071045e-01 -9.193470329046249390e-02
-2.905936241149902344e-01 -2.233446389436721802e-01 4.888680577278137207e-02
-4.705739319324493408e-01 -6.941816210746765137e-02 4.546719416975975037e-02
-4.980621635913848877e-01 -6.111140549182891846e-02 -2.108914405107498169e-02
-4.768124818801879883e-01 -3.019786775112152100e-01 3.252042457461357117e-02
-3.805152475833892822e-01 -3.301386833190917969e-01 -3.826778382062911987e-02
-4.252851307392120361e-01 -2.003694623708724976e-01 -1.013715788722038269e-01
-3.923195302486419678e-01 -3.021197319030761719e-01 -6.863528490066528320e-02
-4.309225976467132568e-01 -3.188455700874328613e-01 5.932505428791046143e-02
-3.282065391540527344e-01 -1.641193330287933350e-01 2.219626866281032562e-02
-4.395753145217895508e-01 -1.941373199224472046e-01 1.320441216230392456e-01
-4.945593178272247314e-01 -8.333729207515716553e-02 -5.751290917396545410e-02
-5.002133250236511230e-01 -1.977189630270004272e-01 -9.272933006286621094e-02
-5.746599435806274414e-01 -5.847379565238952637e-02 5.799468234181404114e-02
-3.338755369186401367e-01 -2.107668220996856689e-01 -6.967143714427947998e-02
-2.744815945625305176e-01 -2.407341003417968750e-01 1.192897744476795197e-02
-3.595509529113769531e-01 -1.409887820482254028e-01 -2.436900883913040161e-02
-3.664486706256866455e-01 -1.876634508371353149e-01 1.074614897370338440e-01
-4.632391929626464844e-01 -7.987196743488311768e-02 -3.616869822144508362e-02
-5.210198163986206055e-01 -9.714896231889724731e-02 1.034085527062416077e-01
-3.936545848846435547e-01 -3.403896689414978027e-01 2.993418462574481964e-02
-3.190714120864868164e-01 -1.761156171560287476e-01 -7.707540877163410187e-03
-2.652598619461059570e-01 -2.694764137268066406e-01 4.645962268114089966e-03
-3.689975142478942871e-01 -1.338409483432769775e-01 5.235010385513305664e-02
-4.301998913288116455e-01 -2.620725333690643311e-01 -8.792624622583389282e-02
-4.257194101810455322e-01 -3.149418830871582031e-01 7.183320820331573486e-02
-4.787523746490478516e-01 -6.206080317497253418e-02 2.317830175161361694e-02
-4.375074803829193115e-01 -8.169943839311599731e-02 -2.714761532843112946e-03
-2.698970437049865723e-01 -3.131307959556579590e-01 3.343090042471885681e-02
-3.032592535018920898e-01 -2.512039840221405029e-01 -5.840670317411422729e-02
-5.254909396171569824e-01 -2.532523572444915771e-01 -3.596104308962821960e-02
-5.045849084854125977e-01 -2.464002370834350586e-01 9.948046505451202393e-02
-3.474768996238708496e-01 -1.878601014614105225e-01 9.377288818359375000e-02
-6.290993690490722656e-01 -9.829161316156387329e-02 1.501055806875228882e-02
-5.980950593948364258e-01 -1.193924173712730408e-01 -4.832541197538375854e-02
-4.793787896633148193e-01 -2.263345718383789062e-01 -9.065961837768554688e-02
-3.843856155872344971e-01 -3.379395008087158203e-01 5.093555152416229248e-02
-3.512542545795440674e-01 -2.676407694816589355e-01 -8.387769013643264771e-02
-4.133220314979553223e-01 -3.110152184963226318e-01 8.467592298984527588e-02
-5.435433387756347656e-01 -5.169913172721862793e-02 -1.729576662182807922e-02
-6.262778043746948242e-01 -1.078284010291099548e-01 -4.393578507006168365e-03
-3.964647352695465088e-01 -1.952756643295288086e-01 -9.549125283956527710e-02
-3.704657852649688721e-01 -3.075667321681976318e-01 9.686236828565597534e-02
-4.846458435058593750e-01 -8.263634145259857178e-02 8.236204087734222412e-02
-5.922399759292602539e-01 -1.870625317096710205e-01 -2.025803551077842712e-02
-5.346004962921142578e-01 -1.632830798625946045e-01 -8.572416007518768311e-02
-4.781033098697662354e-01 -2.425113618373870850e-01 -8.333546668291091919e-02
-3.023566901683807373e-01 -1.979290843009948730e-01 -1.033580210059881210e-02
-3.217453658580780029e-01 -1.781073510646820068e-01 4.708560556173324585e-02
-5.561828613281250000e-01 -1.018749773502349854e-01 1.012765020132064819e-01
-6.135612130165100098e-01 -1.089323163032531738e-01 6.507363915443420410e-02
-5.888702869415283203e-01 -1.721671372652053833e-01 -4.147572070360183716e-02
-2.641850113868713379e-01 -3.016362488269805908e-01 2.273601666092872620e-02
-3.684349954128265381e-01 -1.483583748340606689e-01 7.660884410142898560e-02
-3.680897653102874756e-01 -3.414703011512756348e-01 -1.933678239583969116e-02
-4.505802989006042480e-01 -7.812172174453735352e-02 4.446484148502349854e-02
-4.504429101943969727e-01 -1.071632504463195801e-01 9.457959234714508057e-02
-4.607512652873992920e-01 -2.811377942562103271e-01 9.484504908323287964e-02
-3.218093216419219971e-01 -1.986086070537567139e-01 -4.992180317640304565e-02
-4.290876090526580811e-01 -3.023196160793304443e-01 8.817671984434127808e-02
-4.112184643745422363e-01 -1.409588754177093506e-01 -7.625526934862136841e-02
-4.109350740909576416e-01 -1.041179597377777100e-01 -2.846834436058998108e-02
-3.699786663055419922e-01 -1.440482288599014282e-01 -4.650056362152099609e-02
-5.414869785308837891e-01 -2.313132286071777344e-01 8.069536834955215454e-02
-3.350712656974792480e-01 -2.471588850021362305e-01 1.068167909979820251e-01
-5.145387053489685059e-01 -2.246386855840682983e-01 -7.482118159532546997e-02
-3.101314008235931396e-01 -3.471707701683044434e-01 2.588396891951560974e-03
-3.177197575569152832e-01 -3.451527953147888184e-01 4.083397984504699707e-02
-4.428246915340423584e-01 -2.975813150405883789e-01 8.650287240743637085e-02
-3.582209050655364990e-01 -1.406564116477966309e-01 4.592614248394966125e-02
-4.290552735328674316e-01 -3.281351327896118164e-01 1.668453961610794067e-02
-4.730454981327056885e-01 -2.547420859336853027e-01 -7.788767665624618530e-02
-3.776179552078247070e-01 -2.595394849777221680e-01 1.202779784798622131e-01
-2.743667066097259521e-01 -2.431048899888992310e-01 2.519152313470840454e-02
-2.937038540840148926e-01 -2.987642288208007812e-01 -4.749643802642822266e-02
-4.426624774932861328e-01 -3.042098581790924072e-01 -4.415158554911613464e-02
-5.336545705795288086e-01 -9.046817570924758911e-02 -6.716356426477432251e-02
-4.178060591220855713e-01 -2.726038098335266113e-01 1.159400194883346558e-01
-3.904202282428741455e-01 -1.100725382566452026e-01 3.914465196430683136e-03
-4.792748987674713135e-01 -1.179278641939163208e-01 -8.291516453027725220e-02
-4.977591037750244141e-01 -1.095537394285202026e-01 -7.985809445381164551e-02
-4.880487322807312012e-01 -2.920661866664886475e-01 -1.149948220700025558e-02
-3.426710367202758789e-01 -3.321225643157958984e-01 -4.109037294983863831e-02
-5.603982806205749512e-01 -2.360534071922302246e-01 2.540560439229011536e-02
-2.859537303447723389e-01 -3.235436677932739258e-01 5.086670815944671631e-02
-4.563747942447662354e-01 -1.435663551092147827e-01 1.217734664678573608e-01
-4.233800768852233887e-01 -2.914073169231414795e-01 1.016638949513435364e-01
-4.731984436511993408e-01 -6.400133669376373291e-02 8.520316332578659058e-03
-4.915869534015655518e-01 -7.171557843685150146e-02 6.919520348310470581e-02
-4.831517636775970459e-01 -1.870683580636978149e-01 1.304597407579421997e-01
-4.936404228210449219e-01 -2.588234543800354004e-01 9.591657668352127075e-02
-2.978915572166442871e-01 -3.388826251029968262e-01 4.026382789015769958e-02
-4.750992059707641602e-01 -1.202701330184936523e-01 1.133333072066307068e-01
-3.701673448085784912e-01 -2.908447980880737305e-01 -7.797364145517349243e-02
-5.707599520683288574e-01 -1.634787619113922119e-01 9.909048676490783691e-02
-5.832626223564147949e-01 -1.288542747497558594e-01 -6.075285375118255615e-02
-3.027154803276062012e-01 -2.784916758537292480e-01 8.613188564777374268e-02
-3.399088382720947266e-01 -3.220849335193634033e-01 8.188688755035400391e-02
-2.816511094570159912e-01 -3.342298269271850586e-01 7.899776101112365723e-03
-4.670379757881164551e-01 -6.839288771152496338e-02 -7.005467079579830170e-03
-4.384602904319763184e-01 -1.479690223932266235e-01 -9.059680998325347900e-02
-5.934587717056274414e-01 -1.934750676155090332e-01 3.981286659836769104e-02
-4.798746109008789062e-01 -1.395946592092514038e-01 -9.290875494480133057e-02
-4.377746880054473877e-01 -8.129741996526718140e-02 2.800824865698814392e-02
-3.099177479743957520e-01 -1.853705495595932007e-01 5.202442407608032227e-04
-5.539470911026000977e-01 -1.245862990617752075e-01 -7.650034874677658081e-02
-5.389316082000732422e-01 -1.347979605197906494e-01 1.161236092448234558e-01
-4.918885231018066406e-01 -2.190384864807128906e-01 1.218699514865875244e-01
-4.729576408863067627e-01 -1.521795690059661865e-01 1.269095540046691895e-01
-5.940290093421936035e-01 -1.959832459688186646e-01 2.428839728236198425e-02
-5.989097952842712402e-01 -1.766280531883239746e-01 5.570458248257637024e-02
-4.083437919616699219e-01 -2.942177653312683105e-01 -7.180605083703994751e-02
-5.686848163604736328e-01 -1.306363940238952637e-01 -7.019167393445968628e-02
-2.710236310958862305e-01 -2.615621089935302734e-01 3.899800032377243042e-02
-5.584364533424377441e-01 -2.090889662504196167e-01 8.415698260068893433e-02
-4.295823872089385986e-01 -2.794704437255859375e-01 1.092550158500671387e-01
-4.117215275764465332e-01 -1.484469771385192871e-01 1.095278039574623108e-01
-4.262376427650451660e-01 -8.708819001913070679e-02 2.234646305441856384e-02
-3.978381156921386719e-01 -1.465321183204650879e-01 -7.300204038619995117e-02
-3.743047714233398438e-01 -3.163042366504669189e-01 -5.812765657901763916e-02
-5.909561514854431152e-01 -7.157108187675476074e-02 6.632047891616821289e-02
-4.079470038414001465e-01 -1.672256141901016235e-01 -9.006750583648681641e-02
-3.257485628128051758e-01 -3.322452306747436523e-01 -3.828017786145210266e-02
-4.144168496131896973e-01 -3.314712047576904297e-01 -7.952096872031688690e-03
-3.301670849323272705e-01 -1.860990524291992188e-01 -4.835524410009384155e-02
-4.869884550571441650e-01 -6.430007517337799072e-02 4.903313517570495605e-02
-6.223950386047363281e-01 -7.817958295345306396e-02 2.840924635529518127e-02
-4.840071499347686768e-01 -6.147010624408721924e-02 -5.140601657330989838e-03
-6.227034330368041992e-01 -1.312600374221801758e-01 4.204618558287620544e-02
-4.565101563930511475e-01 -1.070288866758346558e-01 -6.874655187129974365e-02
-4.720172882080078125e-01 -1.055967807769775391e-01 -7.277298718690872192e-02
-4.200085401535034180e-01 -9.610288590192794800e-02 4.875155165791511536e-02
-5.649397373199462891e-01 -4.579368233680725098e-02 1.136732660233974457e-02
-5.484762191772460938e-01 -1.520204991102218628e-01 -8.045903593301773071e-02
-5.765265822410583496e-01 -2.094365656375885010e-01 5.519732832908630371e-02
-4.726389050483703613e-01 -1.096603572368621826e-01 1.054445654153823853e-01
-5.283204317092895508e-01 -5.486376583576202393e-02 5.194858834147453308e-02
-3.571091294288635254e-01 -3.367413878440856934e-01 6.361554563045501709e-02
-3.768528699874877930e-01 -2.608441114425659180e-01 -9.051596373319625854e-02
-6.263750791549682617e-01 -1.296716779470443726e-01 2.402474544942378998e-02
-3.968073129653930664e-01 -3.152369856834411621e-01 -5.397320538759231567e-02
-5.409820675849914551e-01 -8.059038966894149780e-02 9.008183330297470093e-02
-4.753645360469818115e-01 -1.798380315303802490e-01 -1.000938639044761658e-01
-4.842349886894226074e-01 -2.058756202459335327e-01 1.278637051582336426e-01
-4.416118264198303223e-01 -1.291199624538421631e-01 1.094396561384201050e-01
-5.345849990844726562e-01 -2.584578990936279297e-01 -3.238529898226261139e-03
-3.892653882503509521e-01 -1.419048011302947998e-01 -6.287090480327606201e-02
-5.112994313240051270e-01 -2.088884115219116211e-01 -8.465486019849777222e-02
-4.531594514846801758e-01 -7.363746315240859985e-02 2.876296080648899078e-02
-3.332199752330780029e-01 -2.911505401134490967e-01 9.970503300428390503e-02
-5.260701179504394531e-01 -2.669116854667663574e-01 3.524205647408962250e-03
-2.703740298748016357e-01 -3.204827010631561279e-01 6.354322656989097595e-03
-3.144683837890625000e-01 -1.792842000722885132e-01 1.982443407177925110e-02
-2.898979187011718750e-01 -2.860850095748901367e-01 -4.758227616548538208e-02
-3.880766928195953369e-01 -3.317484855651855469e-01 6.345608085393905640e-02
-4.857575893402099609e-01 -2.721255123615264893e-01 8.749586343765258789e-02
-3.660612106323242188e-01 -3.082247078418731689e-01 -6.619027256965637207e-02
-4.430722594261169434e-01 -2.322523891925811768e-01 -9.733990579843521118e-02
-5.178304314613342285e-01 -2.679151594638824463e-01 -1.889326423406600952e-02
-4.576897323131561279e-01 -2.490908801555633545e-01 1.196544542908668518e-01
-2.859107851982116699e-01 -2.454425096511840820e-01 -3.510383889079093933e-02
-3.108944892883300781e-01 -2.010002732276916504e-01 -3.656758368015289307e-02
-6.035896539688110352e-01 -9.204080700874328613e-02 7.118102163076400757e-02
-5.664573311805725098e-01 -2.133246362209320068e-01 -3.289971128106117249e-02
-3.638263642787933350e-01 -3.344803452491760254e-01 -3.580914810299873352e-02
-2.877335548400878906e-01 -2.320174127817153931e-01 -2.766834571957588196e-02
-5.414072275161743164e-01 -2.539042234420776367e-01 3.008985146880149841e-02
-5.172843933105468750e-01 -2.496972680091857910e-01 -5.089666694402694702e-02
-5.356545448303222656e-01 -2.568765878677368164e-01 4.157888889312744141e-02
-5.034640431404113770e-01 -1.243070438504219055e-01 -8.713852614164352417e-02
-4.641469717025756836e-01 -9.076368808746337891e-02 -5.424937605857849121e-02
-4.544073641300201416e-01 -8.799508213996887207e-02 7.192862778902053833e-02
-5.527201890945434570e-01 -6.381070613861083984e-02 -3.959467634558677673e-02
-3.462165892124176025e-01 -1.480146646499633789e-01 -8.161601610481739044e-03
-6.146741509437561035e-01 -1.508494615554809570e-01 -1.148936618119478226e-02
-4.414785504341125488e-01 -8.800630271434783936e-02 5.927451699972152710e-02
-5.612933635711669922e-01 -1.808274686336517334e-01 9.993987530469894409e-02
-4.322692155838012695e-01 -3.244569003582000732e-01 -5.791912786662578583e-03
-3.679664731025695801e-01 -2.249058336019515991e-01 -9.141167253255844116e-02
-3.140040338039398193e-01 -3.359920382499694824e-01 -2.885033562779426575e-02
-5.875971317291259766e-01 -6.387929618358612061e-02 -2.670384570956230164e-02
-5.972799062728881836e-01 -6.260423362255096436e-02 4.977049306035041809e-02
-4.048409163951873779e-01 -1.711739599704742432e-01 1.187929213047027588e-01
-5.013263225555419922e-01 -2.476752400398254395e-01 -6.666813790798187256e-02
-3.008220791816711426e-01 -3.042529821395874023e-01 7.773896306753158569e-02
-4.023572504520416260e-01 -1.950066089630126953e-01 1.256550848484039307e-01
-5.809838771820068359e-01 -1.529360711574554443e-01 9.389932453632354736e-02
-3.454110324382781982e-01 -3.305636048316955566e-01 7.316489517688751221e-02
-4.235755205154418945e-01 -1.835563927888870239e-01 1.283085942268371582e-01
-3.788269162178039551e-01 -1.248967498540878296e-01 -2.386777102947235107e-02
-2.712190449237823486e-01 -2.566238045692443848e-01 -9.622908197343349457e-03
-4.636647999286651611e-01 -2.153389900922775269e-01 -9.818042069673538208e-02
-5.718480944633483887e-01 -6.937010586261749268e-02 7.347019761800765991e-02
-2.817577719688415527e-01 -2.271889746189117432e-01 1.532814465463161469e-03
-6.144889593124389648e-01 -8.480337262153625488e-02 -2.007350325584411621e-02
-4.827179610729217529e-01 -1.302359253168106079e-01 1.196783557534217834e-01
-4.116075932979583740e-01 -9.616181999444961548e-02 2.525428123772144318e-02
-5.934350490570068359e-01 -1.880679577589035034e-01 5.178900063037872314e-02
-5.145711302757263184e-01 -2.393264025449752808e-01 -6.392026692628860474e-02
-3.146760463714599609e-01 -2.395146340131759644e-01 -6.528165936470031738e-02
-2.785200476646423340e-01 -2.552612423896789551e-01 -2.771840617060661316e-02
-6.067204475402832031e-01 -8.958706259727478027e-02 -3.270585089921951294e-02
-5.791411995887756348e-01 -5.441913008689880371e-02 -1.596214622259140015e-02
-6.007733345031738281e-01 -1.617697179317474365e-01 -3.130997344851493835e-02
-3.793554008007049561e-01 -1.192770823836326599e-01 -4.485960118472576141e-03
-4.083556532859802246e-01 -2.099413722753524780e-01 1.291979551315307617e-01
-3.365267813205718994e-01 -3.483542501926422119e-01 -6.033466197550296783e-03
-4.133998155593872070e-01 -1.936876028776168823e-01 -9.909879416227340698e-02
-2.661247551441192627e-01 -2.887215316295623779e-01 -1.014321204274892807e-02
-3.196727037429809570e-01 -1.752046495676040649e-01 3.168911486864089966e-02
-4.647232592105865479e-01 -3.067785203456878662e-01 4.444186761975288391e-02
-5.381095409393310547e-01 -2.132937908172607422e-01 9.992108494043350220e-02
-3.879906833171844482e-01 -2.807343304157257080e-01 -8.346074819564819336e-02
-5.211178660392761230e-01 -2.015411257743835449e-01 1.162894070148468018e-01
-4.503826200962066650e-01 -7.450942695140838623e-02 2.757558599114418030e-03
-3.662061989307403564e-01 -1.287670284509658813e-01 2.232205122709274292e-03
-3.632943332195281982e-01 -1.316888779401779175e-01 2.728242985904216766e-02
-2.868601679801940918e-01 -3.324055671691894531e-01 -1.158825960010290146e-02
-5.485773086547851562e-01 -1.192689165472984314e-01 1.098695248365402222e-01
-5.652394890785217285e-01 -9.153997153043746948e-02 9.317513555288314819e-02
-5.585486292839050293e-01 -1.958506107330322266e-01 9.421498328447341919e-02
-5.507282614707946777e-01 -1.762268245220184326e-01 -7.468788325786590576e-02
-5.702562928199768066e-01 -4.849207401275634766e-02 -3.753882832825183868e-03
-4.396715164184570312e-01 -1.792194545269012451e-01 1.301229745149612427e-01
-3.357085287570953369e-01 -2.719955742359161377e-01 1.059332191944122314e-01
-3.881237208843231201e-01 -2.110442072153091431e-01 1.244339123368263245e-01
-3.991896808147430420e-01 -1.259121596813201904e-01 7.972980290651321411e-02
-6.153444051742553711e-01 -1.421910971403121948e-01 5.376164615154266357e-02
-5.495027303695678711e-01 -2.466886341571807861e-01 8.570721372961997986e-03
-5.429642200469970703e-01 -5.036200582981109619e-02 4.384062811732292175e-02
-5.204029679298400879e-01 -1.616188138723373413e-01 1.234715804457664490e-01
-4.099194109439849854e-01 -1.297892779111862183e-01 -6.583916395902633667e-02
-3.412404954433441162e-01 -1.672285050153732300e-01 -4.060663655400276184e-02
-4.106141328811645508e-01 -2.325124591588973999e-01 -9.894477576017379761e-02
-6.045253276824951172e-01 -7.213661074638366699e-02 5.531326308846473694e-02
-3.272261917591094971e-01 -2.162569314241409302e-01 9.313307702541351318e-02
-6.095159053802490234e-01 -6.100808084011077881e-02 2.041737362742424011e-02
-5.862091779708862305e-01 -5.532300472259521484e-02 4.542034491896629333e-02
-5.617619752883911133e-01 -5.999122560024261475e-02 6.415171921253204346e-02
-4.092094600200653076e-01 -3.358021974563598633e-01 2.442371472716331482e-02
-3.162281215190887451e-01 -2.552260458469390869e-01 9.589181840419769287e-02
-2.822298407554626465e-01 -2.654735445976257324e-01 6.372929364442825317e-02
-2.773225903511047363e-01 -2.799170017242431641e-01 -3.306852653622627258e-02
-3.874551653861999512e-01 -1.444950401782989502e-01 9.080023318529129028e-02
-5.644406676292419434e-01 -9.775804728269577026e-02 -6.406715512275695801e-02
-6.140319705009460449e-01 -1.626580804586410522e-01 2.526219934225082397e-02
-5.129979252815246582e-01 -2.361040264368057251e-01 1.019473597407341003e-01
-3.771982789039611816e-01 -3.007301688194274902e-01 -7.155368477106094360e-02
-3.343252539634704590e-01 -2.447163015604019165e-01 -7.896193116903305054e-02
-3.574472963809967041e-01 -2.217310369014739990e-01 1.145006120204925537e-01
-4.925963878631591797e-01 -7.235312461853027344e-02 -4.169421270489692688e-02
-4.045335948467254639e-01 -2.696208059787750244e-01 -8.795703947544097900e-02
-5.028635859489440918e-01 -2.771103978157043457e-01 -2.479376643896102905e-02
-4.163424968719482422e-01 -2.500404715538024902e-01 -9.477316588163375854e-02
-4.931597411632537842e-01 -1.526249349117279053e-01 1.269611269235610962e-01
-4.251217842102050781e-01 -9.417974948883056641e-02 -2.497697994112968445e-02
-3.987981677055358887e-01 -1.045131981372833252e-01 2.495995163917541504e-02
-2.867814302444458008e-01 -2.236653417348861694e-01 -1.369397249072790146e-02
-5.120850801467895508e-01 -6.437000632286071777e-02 6.587408483028411865e-02
-5.034213662147521973e-01 -1.967011988162994385e-01 1.246322914958000183e-01
-5.243226289749145508e-01 -4.934948682785034180e-02 2.528794109821319580e-03
-5.503452420234680176e-01 -2.092722654342651367e-01 -5.739363282918930054e-02
-5.182294249534606934e-01 -2.456623911857604980e-01 8.915134519338607788e-02
-4.651134610176086426e-01 -1.948845684528350830e-01 -1.008729860186576843e-01
-4.283169507980346680e-01 -9.995635598897933960e-02 -4.148950055241584778e-02
-3.619442582130432129e-01 -1.649273782968521118e-01 -6.185941398143768311e-02
-5.461949110031127930e-01 -2.453428804874420166e-01 4.803014546632766724e-02
-3.246811032295227051e-01 -2.874818146228790283e-01 -6.955384463071823120e-02
-3.406264185905456543e-01 -3.220815658569335938e-01 -5.256279557943344116e-02
-3.902317881584167480e-01 -2.726961076259613037e-01 1.173969209194183350e-01
-4.304722547531127930e-01 -2.908822000026702881e-01 -6.745140254497528076e-02
-3.657100200653076172e-01 -2.897758185863494873e-01 1.079168617725372314e-01
-4.483613669872283936e-01 -3.135126233100891113e-01 -1.796655729413032532e-02
-3.306744098663330078e-01 -3.032813370227813721e-01 9.324833750724792480e-02
-5.461729168891906738e-01 -1.871731430292129517e-01 1.079019978642463684e-01
-3.058972358703613281e-01 -3.453593850135803223e-01 2.971829473972320557e-02
-5.816357731819152832e-01 -2.123735100030899048e-01 2.298621274530887604e-02
-3.450523018836975098e-01 -3.489380776882171631e-01 3.242963552474975586e-02
-3.224850296974182129e-01 -1.783378720283508301e-01 -2.437142282724380493e-02
-3.982497155666351318e-01 -1.110469177365303040e-01 -2.474478632211685181e-02
-4.969988465309143066e-01 -2.340679466724395752e-01 1.126735806465148926e-01
-4.669794142246246338e-01 -2.886840403079986572e-01 -4.756686091423034668e-02
-3.711835145950317383e-01 -1.989954710006713867e-01 -8.734067529439926147e-02
-4.832199811935424805e-01 -2.990237176418304443e-01 1.589287631213665009e-02
-3.958486020565032959e-01 -3.400063514709472656e-01 4.573985934257507324e-03
-4.082407951354980469e-01 -2.854755520820617676e-01 1.096379831433296204e-01
-5.862241983413696289e-01 -1.455687880516052246e-01 -5.638998746871948242e-02
-5.009251832962036133e-01 -8.369348198175430298e-02 8.927790075540542603e-02
-5.288424491882324219e-01 -2.342503815889358521e-01 9.084660559892654419e-02
-4.276351034641265869e-01 -1.364165097475051880e-01 1.087748631834983826e-01
-4.098589420318603516e-01 -2.332570254802703857e-01 1.287548542022705078e-01
-4.485194683074951172e-01 -2.008015364408493042e-01 -1.018488183617591858e-01
-4.272310733795166016e-01 -1.189819872379302979e-01 -6.589511036872863770e-02
-3.548020124435424805e-01 -1.747222244739532471e-01 9.021722525358200073e-02
-4.327571392059326172e-01 -8.652854710817337036e-02 4.120767861604690552e-02
-2.951017022132873535e-01 -3.184726536273956299e-01 -3.710391744971275330e-02
-3.373089432716369629e-01 -3.046966195106506348e-01 -6.560507416725158691e-02
-2.926024794578552246e-01 -2.629185020923614502e-01 7.624637335538864136e-02
-4.995458722114562988e-01 -9.870003163814544678e-02 1.028308719396591187e-01
-2.897631227970123291e-01 -2.170277237892150879e-01 3.529084101319313049e-02
-3.210076093673706055e-01 -2.296260446310043335e-01 9.359320998191833496e-02
-6.108304858207702637e-01 -1.673389375209808350e-01 3.995534032583236694e-03
-4.426179528236389160e-01 -8.280759304761886597e-02 -1.939090341329574585e-02
-5.366698503494262695e-01 -2.223179638385772705e-01 -5.965490639209747314e-02
-4.273465573787689209e-01 -8.899253606796264648e-02 -1.182862836867570877e-02
-4.507012963294982910e-01 -2.292510867118835449e-01 1.284660845994949341e-01
-4.855471849441528320e-01 -2.038038671016693115e-01 -9.575570374727249146e-02
-4.032541513442993164e-01 -2.567719817161560059e-01 1.234047412872314453e-01
-2.836242914199829102e-01 -2.287898957729339600e-01 3.706180676817893982e-02
-3.392794132232666016e-01 -1.796404272317886353e-01 7.858189940452575684e-02
-4.206807017326354980e-01 -2.184385061264038086e-01 1.308981478214263916e-01
-4.705637395381927490e-01 -1.909509301185607910e-01 1.317510455846786499e-01
-4.833664596080780029e-01 -2.893557846546173096e-01 -2.788687869906425476e-02
-3.668024241924285889e-01 -3.470063209533691406e-01 2.853107079863548279e-02
-2.823464572429656982e-01 -2.673399448394775391e-01 -3.866147994995117188e-02
-5.820534229278564453e-01 -2.101665884256362915e-01 1.504249870777130127e-03
-5.301064848899841309e-01 -1.471862792968750000e-01 1.201650872826576233e-01
-3.295168876647949219e-01 -1.635969579219818115e-01 -3.114511258900165558e-03
-6.152336001396179199e-01 -1.525590419769287109e-01 4.362153261899948120e-02
-6.237013936042785645e-01 -8.182678371667861938e-02 4.255068488419055939e-03
-5.922768712043762207e-01 -1.745617538690567017e-01 7.030545175075531006e-02
-5.738856792449951172e-01 -1.211664825677871704e-01 1.000207662582397461e-01
-3.184258341789245605e-01 -2.807557284832000732e-01 9.603714942932128906e-02
-6.159093379974365234e-01 -7.088114321231842041e-02 -8.988985791802406311e-04
-5.130050182342529297e-01 -6.067472696304321289e-02 -2.922348305583000183e-02
-5.704092383384704590e-01 -1.858107000589370728e-01 8.925011008977890015e-02
-4.750361740589141846e-01 -2.741352021694183350e-01 -5.963373929262161255e-02
-3.562816977500915527e-01 -1.386715471744537354e-01 -7.253409363329410553e-03
-3.189184963703155518e-01 -3.371705412864685059e-01 5.800319835543632507e-02
-3.955403268337249756e-01 -1.491986811161041260e-01 1.009174436330795288e-01
-5.052877664566040039e-01 -1.302384287118911743e-01 1.202839091420173645e-01
-3.917324244976043701e-01 -1.285236477851867676e-01 -4.912660270929336548e-02
-3.923493623733520508e-01 -3.247096836566925049e-01 -4.243433848023414612e-02
-6.226302385330200195e-01 -9.715857356786727905e-02 -1.204570662230253220e-02
-4.250048696994781494e-01 -1.398940235376358032e-01 -8.183665573596954346e-02
-5.070878267288208008e-01 -2.595825791358947754e-01 -4.918556660413742065e-02
-6.275477409362792969e-01 -1.106972843408584595e-01 3.479813784360885620e-02
-5.261539816856384277e-01 -7.092235982418060303e-02 -4.896301031112670898e-02
-3.104325830936431885e-01 -2.152697890996932983e-01 7.489717751741409302e-02
-5.821501016616821289e-01 -1.106718033552169800e-01 9.328247606754302979e-02
-4.503787755966186523e-01 -3.169860243797302246e-01 2.089150249958038330e-03
-5.078895092010498047e-01 -1.144117563962936401e-01 1.134789586067199707e-01
-3.114104270935058594e-01 -2.951256632804870605e-01 -6.059347093105316162e-02
-5.651153326034545898e-01 -1.576536148786544800e-01 -7.020590454339981079e-02
-2.714019417762756348e-01 -2.816555500030517578e-01 4.856567829847335815e-02
-5.363218784332275391e-01 -2.515318691730499268e-01 -2.036420255899429321e-02
-6.068285703659057617e-01 -1.663474887609481812e-01 4.983686655759811401e-02
-4.459272325038909912e-01 -1.196698099374771118e-01 -7.550685852766036987e-02
-2.866792380809783936e-01 -3.322591185569763184e-01 3.915394470095634460e-02
-5.712294578552246094e-01 -2.238383144140243530e-01 5.977872759103775024e-03
-3.627327978610992432e-01 -2.801441550254821777e-01 -8.237939327955245972e-02
-3.554553985595703125e-01 -3.464430868625640869e-01 -9.235548786818981171e-03
-3.922765254974365234e-01 -1.756708770990371704e-01 -8.768391609191894531e-02
-6.175130605697631836e-01 -9.367220848798751831e-02 5.509475618600845337e-02
-5.681457519531250000e-01 -2.209912985563278198e-01 5.198919400572776794e-02
-4.224923849105834961e-01 -2.744420170783996582e-01 -8.261889964342117310e-02
-3.554381430149078369e-01 -3.263393640518188477e-01 -4.859153926372528076e-02
-5.016431808471679688e-01 -1.710774451494216919e-01 -9.572719782590866089e-02
-4.940180778503417969e-01 -5.682502686977386475e-02 2.461986243724822998e-02
-4.167128205299377441e-01 -1.343565434217453003e-01 1.016753986477851868e-01
-3.489861488342285156e-01 -1.466941386461257935e-01 3.846406564116477966e-02
-4.522951245307922363e-01 -3.109790384769439697e-01 5.307429283857345581e-02
-3.692491352558135986e-01 -2.376523762941360474e-01 1.206981614232063293e-01
-5.792421698570251465e-01 -1.770422756671905518e-01 -5.011013895273208618e-02
-5.300525426864624023e-01 -5.276072025299072266e-02 -1.668078452348709106e-02
-2.669551074504852295e-01 -2.739129960536956787e-01 3.436820209026336670e-02
-6.095059514045715332e-01 -1.060019209980964661e-01 -3.502850234508514404e-02
-2.969893813133239746e-01 -2.895601391792297363e-01 7.985734939575195312e-02
-5.862889885902404785e-01 -2.004634290933609009e-01 -1.135875377804040909e-02
-4.607276320457458496e-01 -2.575577795505523682e-01 -8.139076083898544312e-02
-3.887238204479217529e-01 -3.241735100746154785e-01 7.616247981786727905e-02
-4.494125843048095703e-01 -2.917259037494659424e-01 -5.671317875385284424e-02
-4.752343893051147461e-01 -7.156321406364440918e-02 -2.851743996143341064e-02
-4.322991073131561279e-01 -1.777011901140213013e-01 -9.922566264867782593e-02
-5.813704729080200195e-01 -1.797167807817459106e-01 8.120629191398620605e-02
-5.984393358230590820e-01 -1.516140997409820557e-01 7.646334171295166016e-02
-4.369208216667175293e-01 -2.907882928848266602e-01 9.718286246061325073e-02
-6.050775647163391113e-01 -6.473465263843536377e-02 -1.064916048198938370e-02
-4.482704401016235352e-01 -2.521782517433166504e-01 -8.859568834304809570e-02
-5.854454636573791504e-01 -8.571743220090866089e-02 8.091150969266891479e-02
-6.084482669830322266e-01 -1.736873537302017212e-01 1.668134331703186035e-02
-5.146620273590087891e-01 -5.297072231769561768e-02 3.681011870503425598e-02
-4.673641622066497803e-01 -2.119173854589462280e-01 1.299206018447875977e-01
-4.389484822750091553e-01 -3.226119875907897949e-01 3.172660246491432190e-02
-4.532519578933715820e-01 -2.074029743671417236e-01 1.320223063230514526e-01
-5.721036195755004883e-01 -1.143389418721199036e-01 -6.615957617759704590e-02
-2.701214849948883057e-01 -2.976239025592803955e-01 4.441128298640251160e-02
-5.636366605758666992e-01 -1.784150749444961548e-01 -6.445159763097763062e-02
-5.357347726821899414e-01 -1.474516093730926514e-01 -8.575195074081420898e-02
-4.958823323249816895e-01 -2.883847057819366455e-01 3.941935673356056213e-02
-3.770602345466613770e-01 -1.695618182420730591e-01 -7.665584981441497803e-02
-4.543965756893157959e-01 -3.040587007999420166e-01 -3.349747508764266968e-02
-3.014118075370788574e-01 -3.323027193546295166e-01 -2.688546106219291687e-02
-5.571082830429077148e-01 -5.003777146339416504e-02 -1.287297252565622330e-02
-3.075488805770874023e-01 -1.970675587654113770e-01 4.910532385110855103e-02
-3.853263258934020996e-01 -1.884592771530151367e-01 1.176449134945869446e-01
-5.485606789588928223e-01 -9.999221563339233398e-02 -7.016675919294357300e-02
-4.619682133197784424e-01 -3.030754625797271729e-01 6.020687893033027649e-02
-3.014995455741882324e-01 -2.442269921302795410e-01 8.061757683753967285e-02
-4.203388392925262451e-01 -2.538032829761505127e-01 1.240123435854911804e-01
-6.189715862274169922e-01 -1.521232426166534424e-01 1.300078816711902618e-02
-5.355512499809265137e-01 -9.274920821189880371e-02 9.988591074943542480e-02
-5.272784829139709473e-01 -2.145370244979858398e-01 -7.263974100351333618e-02
-6.073650717735290527e-01 -1.186565011739730835e-01 7.335560768842697144e-02
-3.823535740375518799e-01 -3.403196334838867188e-01 -1.343071367591619492e-02
-4.533177614212036133e-01 -1.542682945728302002e-01 -9.576702117919921875e-02
-3.723975419998168945e-01 -3.383125960826873779e-01 5.648620054125785828e-02
-5.171311497688293457e-01 -1.474703252315521240e-01 -9.110128134489059448e-02
-5.607836842536926270e-01 -8.390141278505325317e-02 -5.735769122838973999e-02
-3.018327653408050537e-01 -2.194156646728515625e-01 -4.087880626320838928e-02
-4.134883582592010498e-01 -1.108635142445564270e-01 7.190248370170593262e-02
-4.384044706821441650e-01 -9.910548478364944458e-02 7.673870772123336792e-02
-3.447015881538391113e-01 -2.864100337028503418e-01 -7.647572457790374756e-02
-6.135755777359008789e-01 -1.313739567995071411e-01 -2.722679078578948975e-02
-5.771231055259704590e-01 -4.905876517295837402e-02 3.327224031090736389e-02
-5.122073888778686523e-01 -2.762961983680725098e-01 -5.481035448610782623e-03
-3.454541862010955811e-01 -1.734545826911926270e-01 -5.355975031852722168e-02
-5.072184205055236816e-01 -2.582659125328063965e-01 8.520922809839248657e-02
-4.126641750335693359e-01 -9.493780136108398438e-02 8.826812729239463806e-03
-2.786564826965332031e-01 -3.040515780448913574e-01 -2.976621314883232117e-02
-4.414613544940948486e-01 -1.341342478990554810e-01 -8.405656367540359497e-02
-3.012030124664306641e-01 -3.398868441581726074e-01 -1.317699532955884933e-02
-3.452802002429962158e-01 -2.009641230106353760e-01 -7.338763773441314697e-02
-3.538633584976196289e-01 -2.453081309795379639e-01 -8.736076951026916504e-02
-3.776070177555084229e-01 -1.745167970657348633e-01 1.070865169167518616e-01
-2.956560254096984863e-01 -2.305307239294052124e-01 6.571500748395919800e-02
-3.544128537178039551e-01 -2.577731907367706299e-01 1.148903071880340576e-01
-5.289825201034545898e-01 -5.849353969097137451e-02 -3.013115748763084412e-02
-5.647996068000793457e-01 -1.440391242504119873e-01 1.061889529228210449e-01
-5.455786585807800293e-01 -1.675160825252532959e-01 1.136258542537689209e-01
-3.139349222183227539e-01 -3.125379979610443115e-01 -5.275185406208038330e-02
-3.208324909210205078e-01 -1.717263460159301758e-01 7.794822100549936295e-03
-4.636688530445098877e-01 -1.756915152072906494e-01 1.312930136919021606e-01
-5.201671123504638672e-01 -2.574801445007324219e-01 7.153317332267761230e-02
-3.929324448108673096e-01 -3.347135484218597412e-01 -2.178197354078292847e-02
-4.917259812355041504e-01 -5.712199211120605469e-02 1.167738903313875198e-02
-3.988861739635467529e-01 -1.096237078309059143e-01 4.832466319203376770e-02
-5.506889820098876953e-01 -2.317967116832733154e-01 6.724293529987335205e-02
-5.597164034843444824e-01 -7.821988314390182495e-02 8.531439304351806641e-02
-4.031605720520019531e-01 -2.844814062118530273e-01 -7.994348555803298950e-02
-3.244318962097167969e-01 -3.294175267219543457e-01 7.041157782077789307e-02
-3.370652198791503906e-01 -1.980866640806198120e-01 9.147125482559204102e-02
-5.695932507514953613e-01 -2.203387618064880371e-01 -1.361503731459379196e-02
-5.208877325057983398e-01 -8.429294824600219727e-02 9.323070198297500610e-02
-5.875740051269531250e-01 -1.625681817531585693e-01 8.415051549673080444e-02
-3.729488551616668701e-01 -1.383266001939773560e-01 6.769011169672012329e-02
-2.967368960380554199e-01 -2.021895945072174072e-01 1.816252060234546661e-02
-4.143056273460388184e-01 -3.316001296043395996e-01 4.020703211426734924e-02
-6.054653525352478027e-01 -1.675309836864471436e-01 -1.575319468975067139e-02
-3.402067422866821289e-01 -1.514236927032470703e-01 1.159333810210227966e-02
-3.076046109199523926e-01 -1.890839636325836182e-01 2.838356792926788330e-02
-3.155020773410797119e-01 -3.424810767173767090e-01 -1.746486127376556396e-02
-2.836232185363769531e-01 -3.161537945270538330e-01 -2.803905680775642395e-02
-4.921852350234985352e-01 -1.147400438785552979e-01 1.126882657408714294e-01
-4.459903240203857422e-01 -1.182171776890754700e-01 1.028139367699623108e-01
-2.859012186527252197e-01 -2.391632199287414551e-01 5.572286620736122131e-02
-2.938697934150695801e-01 -3.419913649559020996e-01 6.561241112649440765e-03
-5.111107826232910156e-01 -5.166415870189666748e-02 8.370224386453628540e-03
-3.910098969936370850e-01 -2.463017404079437256e-01 1.248454749584197998e-01
-4.668943583965301514e-01 -6.747947633266448975e-02 2.904189378023147583e-02
-4.552608430385589600e-01 -8.113095164299011230e-02 5.922437459230422974e-02
-4.045249223709106445e-01 -3.253139853477478027e-01 -3.484463319182395935e-02
-5.159744620323181152e-01 -2.710115909576416016e-01 4.936456680297851562e-02
-3.248468935489654541e-01 -3.502102196216583252e-01 9.377453476190567017e-03
-3.812201619148254395e-01 -2.905416190624237061e-01 1.084648221731185913e-01
-4.043003618717193604e-01 -1.225642263889312744e-01 -5.322691053152084351e-02
-4.972193241119384766e-01 -2.272273898124694824e-01 -8.294077962636947632e-02
-4.753042757511138916e-01 -7.191738486289978027e-02 5.786674469709396362e-02
-4.709826707839965820e-01 -2.581985890865325928e-01 1.094488501548767090e-01
-4.377261996269226074e-01 -2.309895008802413940e-01 1.293457150459289551e-01
-6.236302852630615234e-01 -1.097314432263374329e-01 4.725087434053421021e-02
-3.227001428604125977e-01 -2.098901271820068359e-01 -5.938114225864410400e-02
-2.629079520702362061e-01 -2.828804850578308105e-01 1.519734226167201996e-02
-5.649219155311584473e-01 -1.996914446353912354e-01 -4.973533004522323608e-02
-4.944074451923370361e-01 -1.386125981807708740e-01 1.233569383621215820e-01
-3.742110431194305420e-01 -1.249494850635528564e-01 3.826906904578208923e-02
-3.517735302448272705e-01 -3.493004441261291504e-01 3.821217454969882965e-03
-4.005400538444519043e-01 -2.514419555664062500e-01 -9.470912069082260132e-02
-3.637976646423339844e-01 -2.032847404479980469e-01 1.126051545143127441e-01
-5.282480716705322266e-01 -2.660285830497741699e-01 2.177055925130844116e-02
-3.242689371109008789e-01 -1.950129568576812744e-01 7.524783164262771606e-02
-5.141945481300354004e-01 -9.339637309312820435e-02 -6.984955817461013794e-02
-5.035147666931152344e-01 -2.739534080028533936e-01 6.536845117807388306e-02
-5.825582742691040039e-01 -1.587519347667694092e-01 -5.579759925603866577e-02
-4.664027690887451172e-01 -2.927171587944030762e-01 7.556001096963882446e-02
-4.819153249263763428e-01 -9.255702793598175049e-02 9.293699264526367188e-02
-4.442308247089385986e-01 -1.571739315986633301e-01 1.248205378651618958e-01
-5.290930867195129395e-01 -1.189691349864006042e-01 -8.222092688083648682e-02
-5.440721511840820312e-01 -4.720513522624969482e-02 3.087071329355239868e-02
-5.954834222793579102e-01 -1.400052309036254883e-01 -4.866243898868560791e-02
-4.874264001846313477e-01 -2.591080069541931152e-01 -6.614875048398971558e-02
-5.366950035095214844e-01 -1.878510415554046631e-01 -7.929102331399917603e-02
-3.406875133514404297e-01 -1.617238074541091919e-01 5.603307858109474182e-02
-3.656075596809387207e-01 -1.794441342353820801e-01 -7.546733319759368896e-02
-5.503545999526977539e-01 -1.376691907644271851e-01 -7.958406209945678711e-02
-4.685671031475067139e-01 -3.062976300716400146e-01 -2.190641127526760101e-03
-4.850930273532867432e-01 -2.544472217559814453e-01 1.051516309380531311e-01
-5.056782364845275879e-01 -6.915685534477233887e-02 -4.197384789586067200e-02
