3.144700825214385986e-01 -7.987517714500427246e-01 2.710822224617004395e-01
3.893174231052398682e-01 -8.352152109146118164e-01 3.107148706912994385e-01
2.911516726016998291e-01 -5.827690958976745605e-01 2.862790226936340332e-01
2.529505193233489990e-01 -7.220955491065979004e-01 3.012878894805908203e-01
2.718361318111419678e-01 -7.766624093055725098e-01 2.886485755443572998e-01
3.862120509147644043e-01 -7.221804857254028320e-01 3.005595505237579346e-01
3.209651410579681396e-01 -7.680696845054626465e-01 2.627665102481842041e-01
3.595124483108520508e-01 -7.190421819686889648e-01 2.650427818298339844e-01
3.774358928203582764e-01 -8.522098660469055176e-01 3.565737009048461914e-01
3.841364383697509766e-01 -8.245547413825988770e-01 3.503169119358062744e-01
3.689278960227966309e-01 -7.478798031806945801e-01 3.545947074890136719e-01
3.769976496696472168e-01 -8.907425403594970703e-01 3.328512609004974365e-01
2.833132743835449219e-01 -7.504254579544067383e-01 2.715775370597839355e-01
2.984244227409362793e-01 -7.771264314651489258e-01 2.703765928745269775e-01
3.146400451660156250e-01 -7.350308895111083984e-01 3.702950179576873779e-01
3.362002670764923096e-01 -7.251840829849243164e-01 2.573025822639465332e-01
3.407834172248840332e-01 -7.951499223709106445e-01 3.751908838748931885e-01
3.041043877601623535e-01 -6.572319269180297852e-01 3.500912785530090332e-01
2.993263602256774902e-01 -8.820070028305053711e-01 3.246818184852600098e-01
3.789964020252227783e-01 -8.204354047775268555e-01 3.564185202121734619e-01
2.726175189018249512e-01 -8.010469079017639160e-01 3.543676733970642090e-01
2.866261601448059082e-01 -7.922712564468383789e-01 2.812663018703460693e-01
2.522641718387603760e-01 -6.879537105560302734e-01 3.235834836959838867e-01
2.626851201057434082e-01 -6.170049905776977539e-01 3.015919029712677002e-01
2.708030939102172852e-01 -7.067516446113586426e-01 3.518496453762054443e-01
3.857287466526031494e-01 -7.242817282676696777e-01 3.205327093601226807e-01
3.256884813308715820e-01 -6.672806739807128906e-01 2.550560235977172852e-01
3.176420032978057861e-01 -8.221397399902343750e-01 2.775813043117523193e-01
2.550863027572631836e-01 -7.604471445083618164e-01 3.159710168838500977e-01
3.336759805679321289e-01 -8.080993294715881348e-01 2.714436054229736328e-01
3.873650729656219482e-01 -7.498902082443237305e-01 2.939465045928955078e-01
3.129260241985321045e-01 -8.445048928260803223e-01 3.740866780281066895e-01
2.646390497684478760e-01 -6.892828941345214844e-01 2.765077948570251465e-01
3.286000490188598633e-01 -9.076474308967590332e-01 3.240512609481811523e-01
2.617981433868408203e-01 -7.905539870262145996e-01 3.360806703567504883e-01
3.892640173435211182e-01 -7.858897447586059570e-01 2.975876331329345703e-01
3.641219437122344971e-01 -6.666091680526733398e-01 2.765294313430786133e-01
2.709363400936126709e-01 -6.055010557174682617e-01 3.090198338031768799e-01
2.633942663669586182e-01 -7.807449698448181152e-01 3.029463589191436768e-01
3.746193647384643555e-01 -7.703583836555480957e-01 3.546921014785766602e-01
2.525799274444580078e-01 -7.406458854675292969e-01 3.126771450042724609e-01
2.959933578968048096e-01 -8.400673866271972656e-01 2.948748469352722168e-01
2.902374267578125000e-01 -6.027349829673767090e-01 3.214315176010131836e-01
3.188428580760955811e-01 -6.484367847442626953e-01 3.456014692783355713e-01
2.842997312545776367e-01 -7.622954249382019043e-01 3.660371899604797363e-01
3.388156592845916748e-01 -8.222975134849548340e-01 2.756319642066955566e-01
3.608454763889312744e-01 -7.541996836662292480e-01 2.674958109855651855e-01
3.583090305328369141e-01 -7.935204505920410156e-01 3.690641224384307861e-01
3.158083260059356689e-01 -7.197193503379821777e-01 2.561302185058593750e-01
2.690732479095458984e-01 -8.139150738716125488e-01 3.143004775047302246e-01
3.485763370990753174e-01 -8.332893848419189453e-01 3.744032680988311768e-01
3.207220435142517090e-01 -6.178259253501892090e-01 3.295410871505737305e-01
3.907866477966308594e-01 -7.727609872817993164e-01 3.309484124183654785e-01
3.450984358787536621e-01 -8.654404282569885254e-01 3.725743293762207031e-01
3.652962744235992432e-01 -8.149176836013793945e-01 2.801899909973144531e-01
2.725129425525665283e-01 -8.318901062011718750e-01 3.294215500354766846e-01
2.945406734943389893e-01 -6.415368914604187012e-01 3.431125581264495850e-01
3.405624926090240479e-01 -6.298285126686096191e-01 2.673542499542236328e-01
2.681616544723510742e-01 -7.606409192085266113e-01 2.871735095977783203e-01
3.791387081146240234e-01 -7.199561595916748047e-01 3.335360586643218994e-01
2.941523790359497070e-01 -8.676246404647827148e-01 3.159250915050506592e-01
3.746682405471801758e-01 -8.189910054206848145e-01 2.869381010532379150e-01
3.420667648315429688e-01 -6.154563426971435547e-01 2.770588696002960205e-01
2.505855560302734375e-01 -7.162629365921020508e-01 3.188515901565551758e-01
2.814701199531555176e-01 -8.002365231513977051e-01 3.633878827095031738e-01
3.391259014606475830e-01 -8.290328979492187500e-01 3.765056729316711426e-01
2.514145374298095703e-01 -7.259590029716491699e-01 3.096710443496704102e-01
2.911989092826843262e-01 -7.699623703956604004e-01 3.695888519287109375e-01
2.693800628185272217e-01 -7.443011403083801270e-01 2.810803055763244629e-01
3.439342379570007324e-01 -6.518015265464782715e-01 3.369285762310028076e-01
2.806039750576019287e-01 -5.889654159545898438e-01 2.893267869949340820e-01
3.504405021667480469e-01 -7.843072414398193359e-01 3.713798522949218750e-01
3.847633600234985352e-01 -7.824414968490600586e-01 3.453435301780700684e-01
2.638813853263854980e-01 -7.168393731117248535e-01 3.473309874534606934e-01
3.657039999961853027e-01 -8.283354640007019043e-01 3.670814037322998047e-01
3.418622016906738281e-01 -6.946553587913513184e-01 3.554969727993011475e-01
2.922329306602478027e-01 -8.098117709159851074e-01 3.695272505283355713e-01
3.941276669502258301e-01 -7.939099669456481934e-01 3.204681873321533203e-01
3.931749463081359863e-01 -8.241201043128967285e-01 3.230371773242950439e-01
2.734135985374450684e-01 -7.861175537109375000e-01 2.906000912189483643e-01
3.917733728885650635e-01 -7.695627808570861816e-01 3.042132258415222168e-01
3.773847222328186035e-01 -8.401670455932617188e-01 2.957446575164794922e-01
2.982478439807891846e-01 -7.994211316108703613e-01 3.727256655693054199e-01
3.257361650466918945e-01 -5.929776430130004883e-01 2.810983955860137939e-01
3.394300639629364014e-01 -7.964193224906921387e-01 2.687482535839080811e-01
3.774315118789672852e-01 -7.997833490371704102e-01 2.846986055374145508e-01
3.165456652641296387e-01 -7.758096456527709961e-01 3.755584359169006348e-01
3.882448673248291016e-01 -7.620138525962829590e-01 3.337886929512023926e-01
2.824023962020874023e-01 -6.868619918823242188e-01 3.541535735130310059e-01
3.475621342658996582e-01 -6.240047812461853027e-01 2.776020765304565430e-01
3.566925227642059326e-01 -6.665186285972595215e-01 3.344391584396362305e-01
2.795560359954833984e-01 -8.417098522186279297e-01 3.162826597690582275e-01
2.644592523574829102e-01 -7.311106920242309570e-01 3.493278622627258301e-01
2.618770301342010498e-01 -7.789276242256164551e-01 3.421107530593872070e-01
3.494100272655487061e-01 -6.345914602279663086e-01 2.730438411235809326e-01
3.497854471206665039e-01 -7.582271099090576172e-01 3.678755462169647217e-01
3.266102373600006104e-01 -6.131358742713928223e-01 2.662543952465057373e-01
3.715267777442932129e-01 -7.866597175598144531e-01 2.778322994709014893e-01
3.518280386924743652e-01 -8.038631081581115723e-01 2.725951969623565674e-01
3.922572433948516846e-01 -8.335139155387878418e-01 3.236699402332305908e-01
2.673337757587432861e-01 -6.065906286239624023e-01 2.997983396053314209e-01
2.860609889030456543e-01 -6.381626725196838379e-01 3.395870923995971680e-01
2.622780799865722656e-01 -6.663402318954467773e-01 2.785485684871673584e-01
3.723053932189941406e-01 -6.672230958938598633e-01 2.996174693107604980e-01
3.425570428371429443e-01 -6.656678318977355957e-01 3.443465232849121094e-01
2.899950742721557617e-01 -8.318243622779846191e-01 2.954355776309967041e-01
3.491568565368652344e-01 -7.242975234985351562e-01 2.604821920394897461e-01
3.175479173660278320e-01 -8.316043019294738770e-01 3.763791322708129883e-01
3.216851055622100830e-01 -7.427031397819519043e-01 3.714297413825988770e-01
3.368286490440368652e-01 -6.187525987625122070e-01 2.696391642093658447e-01
2.505486607551574707e-01 -6.820166110992431641e-01 3.123405575752258301e-01
3.249454200267791748e-01 -7.671089768409729004e-01 3.746616840362548828e-01
2.535240054130554199e-01 -6.556046605110168457e-01 3.117659091949462891e-01
3.936997056007385254e-01 -7.910934686660766602e-01 3.123288154602050781e-01
2.602900564670562744e-01 -6.631982922554016113e-01 3.309802114963531494e-01
2.888313233852386475e-01 -6.198375821113586426e-01 3.317015171051025391e-01
3.715341687202453613e-01 -8.664675354957580566e-01 3.023057878017425537e-01
3.344479799270629883e-01 -8.177225589752197266e-01 3.771502375602722168e-01
3.516709804534912109e-01 -8.549733757972717285e-01 3.722208440303802490e-01
2.563501596450805664e-01 -6.577823758125305176e-01 3.221973180770874023e-01
3.105248510837554932e-01 -7.129039764404296875e-01 3.659420013427734375e-01
3.509920835494995117e-01 -8.122646808624267578e-01 2.744836211204528809e-01
3.326641917228698730e-01 -8.473306894302368164e-01 3.761049509048461914e-01
3.004111647605895996e-01 -7.010612487792968750e-01 3.624219298362731934e-01
2.869798243045806885e-01 -7.341303825378417969e-01 2.662605643272399902e-01
2.997559607028961182e-01 -7.879760861396789551e-01 3.732356429100036621e-01
3.458766937255859375e-01 -6.319080591201782227e-01 3.228290081024169922e-01
3.834308385848999023e-01 -7.059286236763000488e-01 3.044214248657226562e-01
3.113270699977874756e-01 -6.519324779510498047e-01 3.480017781257629395e-01
3.018343448638916016e-01 -6.892892122268676758e-01 3.597356081008911133e-01
3.495260477066040039e-01 -7.747291922569274902e-01 2.661080956459045410e-01
2.600702047348022461e-01 -7.107011079788208008e-01 3.421405553817749023e-01
3.611381351947784424e-01 -6.599763035774230957e-01 3.252501487731933594e-01
2.574880123138427734e-01 -6.519812941551208496e-01 2.876136600971221924e-01
3.274860084056854248e-01 -8.546893000602722168e-01 3.751750886440277100e-01
3.612922132015228271e-01 -8.313785791397094727e-01 2.830801010131835938e-01
2.766253054141998291e-01 -8.025540113449096680e-01 2.942277789115905762e-01
3.236782252788543701e-01 -8.663520812988281250e-01 2.945442795753479004e-01
3.340895771980285645e-01 -6.189367771148681641e-01 3.232728242874145508e-01
2.996126711368560791e-01 -8.190264701843261719e-01 3.722722530364990234e-01
2.809546589851379395e-01 -6.161838769912719727e-01 3.264971077442169189e-01
3.242888152599334717e-01 -7.033400535583496094e-01 2.547627687454223633e-01
3.890764117240905762e-01 -8.101198673248291016e-01 3.417278826236724854e-01
2.688129246234893799e-01 -8.162373304367065430e-01 3.401190340518951416e-01
2.694466412067413330e-01 -6.272473335266113281e-01 2.758285701274871826e-01
3.131285607814788818e-01 -6.165178418159484863e-01 2.616249918937683105e-01
3.512764573097229004e-01 -7.015778422355651855e-01 3.531453907489776611e-01
2.539047598838806152e-01 -7.008822560310363770e-01 3.305317759513854980e-01
2.754602432250976562e-01 -7.213973402976989746e-01 2.711280584335327148e-01
3.684400022029876709e-01 -8.034183979034423828e-01 3.641937673091888428e-01
2.652274072170257568e-01 -8.063176870346069336e-01 3.195836842060089111e-01
2.757489681243896484e-01 -6.161274909973144531e-01 2.731673419475555420e-01
2.905486822128295898e-01 -6.889013051986694336e-01 3.574644327163696289e-01
3.130138814449310303e-01 -6.799300909042358398e-01 2.542570829391479492e-01
3.680297434329986572e-01 -7.985787987709045410e-01 2.778683304786682129e-01
2.908772230148315430e-01 -8.121331334114074707e-01 2.857455909252166748e-01
3.285844922065734863e-01 -9.129676818847656250e-01 3.343010842800140381e-01
2.813201248645782471e-01 -6.348093748092651367e-01 2.651529312133789062e-01
3.046512305736541748e-01 -8.727770447731018066e-01 3.084144294261932373e-01
3.005343377590179443e-01 -7.784268856048583984e-01 3.731494545936584473e-01
2.810530066490173340e-01 -6.487304568290710449e-01 2.638031840324401855e-01
3.871532082557678223e-01 -8.177148103713989258e-01 3.455999791622161865e-01
3.345032632350921631e-01 -7.063272595405578613e-01 3.614814579486846924e-01
2.673927247524261475e-01 -7.747483253479003906e-01 3.520826101303100586e-01
2.513042688369750977e-01 -6.912298202514648438e-01 3.007758855819702148e-01
2.912667989730834961e-01 -7.174257040023803711e-01 2.617754340171813965e-01
3.302906751632690430e-01 -8.020926713943481445e-01 3.771139979362487793e-01
2.748209238052368164e-01 -6.550434827804565430e-01 3.410021066665649414e-01
2.971637547016143799e-01 -6.161391139030456543e-01 3.313244581222534180e-01
3.034294545650482178e-01 -7.542805075645446777e-01 3.718997836112976074e-01
3.435300588607788086e-01 -6.793022155761718750e-01 3.493708372116088867e-01
3.516386747360229492e-01 -7.437447905540466309e-01 2.626934647560119629e-01
3.575768768787384033e-01 -8.937079906463623047e-01 3.107964992523193359e-01
2.610386312007904053e-01 -7.393926382064819336e-01 3.455104529857635498e-01
2.811165452003479004e-01 -6.222134232521057129e-01 2.676233351230621338e-01
2.782534658908843994e-01 -6.726703047752380371e-01 2.647764086723327637e-01
3.050549030303955078e-01 -6.672579646110534668e-01 2.551921904087066650e-01
3.064700365066528320e-01 -6.689913868904113770e-01 3.541604578495025635e-01
2.606672644615173340e-01 -6.312549114227294922e-01 2.880277633666992188e-01
2.915695607662200928e-01 -7.496377229690551758e-01 3.682471215724945068e-01
2.909589111804962158e-01 -6.657984256744384766e-01 2.587271630764007568e-01
2.522091269493103027e-01 -6.641412377357482910e-01 3.017422854900360107e-01
2.548177540302276611e-01 -6.888538599014282227e-01 2.906717658042907715e-01
3.640597164630889893e-01 -7.205613851547241211e-01 3.507301211357116699e-01
3.576028645038604736e-01 -6.329092383384704590e-01 2.924420833587646484e-01
3.272133767604827881e-01 -8.348221182823181152e-01 2.802549898624420166e-01
3.145242631435394287e-01 -9.020835161209106445e-01 3.307113647460937500e-01
2.759436666965484619e-01 -7.635148763656616211e-01 3.608339726924896240e-01
3.104352951049804688e-01 -7.633049488067626953e-01 2.634675204753875732e-01
2.951890528202056885e-01 -8.513130545616149902e-01 3.019735217094421387e-01
2.712161540985107422e-01 -6.323460936546325684e-01 3.289317488670349121e-01
2.756042778491973877e-01 -8.402954339981079102e-01 3.318530321121215820e-01
3.770608603954315186e-01 -6.819784641265869141e-01 3.047765195369720459e-01
2.601333558559417725e-01 -6.458812355995178223e-01 3.231635093688964844e-01
2.955057322978973389e-01 -5.806958675384521484e-01 2.945114374160766602e-01
3.257189095020294189e-01 -5.996526479721069336e-01 3.122783303260803223e-01
2.661673128604888916e-01 -6.227177977561950684e-01 3.177691400051116943e-01
3.572319149971008301e-01 -7.250918149948120117e-01 3.568083941936492920e-01
2.627130448818206787e-01 -7.559024691581726074e-01 3.474398851394653320e-01
3.036806583404541016e-01 -8.921290040016174316e-01 3.369033932685852051e-01
3.602739572525024414e-01 -8.174306154251098633e-01 3.697892129421234131e-01
3.806573450565338135e-01 -7.793275713920593262e-01 2.845474183559417725e-01
3.184812963008880615e-01 -6.576353311538696289e-01 3.493513464927673340e-01
3.030287623405456543e-01 -6.278114318847656250e-01 3.377908468246459961e-01
2.802518606185913086e-01 -7.144216299057006836e-01 3.588505983352661133e-01
3.459982275962829590e-01 -6.144257187843322754e-01 3.020752072334289551e-01
3.932781219482421875e-01 -7.864865064620971680e-01 3.258124291896820068e-01
2.877754569053649902e-01 -7.803514599800109863e-01 3.682952821254730225e-01
3.126180768013000488e-01 -6.432671546936035156e-01 2.562868297100067139e-01
3.285139501094818115e-01 -8.356942534446716309e-01 3.770131766796112061e-01
3.723101615905761719e-01 -6.937580108642578125e-01 3.306270837783813477e-01
3.156056404113769531e-01 -5.836824178695678711e-01 2.938783764839172363e-01
3.699793517589569092e-01 -7.105000019073486328e-01 3.416364789009094238e-01
3.283565044403076172e-01 -5.922254323959350586e-01 2.900238335132598877e-01
2.756654024124145508e-01 -6.072871088981628418e-01 2.769886553287506104e-01
3.701869547367095947e-01 -7.032110691070556641e-01 2.743946909904479980e-01
2.546208500862121582e-01 -7.119736671447753906e-01 3.334760963916778564e-01
2.575598359107971191e-01 -6.688055992126464844e-01 2.853385806083679199e-01
2.636651992797851562e-01 -6.194559931755065918e-01 3.101524114608764648e-01
3.679210245609283447e-01 -8.556469678878784180e-01 3.643049895763397217e-01
3.293478786945343018e-01 -7.746526002883911133e-01 3.751415014266967773e-01
2.873243391513824463e-01 -8.624621033668518066e-01 3.234549462795257568e-01
3.940358757972717285e-01 -8.054544329643249512e-01 3.181987106800079346e-01
3.522059619426727295e-01 -7.326833605766296387e-01 3.615120351314544678e-01
2.742057144641876221e-01 -8.309861421585083008e-01 3.181465566158294678e-01
3.514201045036315918e-01 -6.921274065971374512e-01 3.497788012027740479e-01
2.594870626926422119e-01 -7.723138928413391113e-01 3.071761429309844971e-01
2.586518526077270508e-01 -7.633011937141418457e-01 3.390059471130371094e-01
3.842064440250396729e-01 -8.587436079978942871e-01 3.454358577728271484e-01
2.945072352886199951e-01 -8.239699006080627441e-01 2.882509529590606689e-01
2.513843774795532227e-01 -6.792918443679809570e-01 3.010123968124389648e-01
2.798065841197967529e-01 -7.022884488105773926e-01 3.564097583293914795e-01
3.224921226501464844e-01 -8.805614113807678223e-01 3.031072020530700684e-01
3.801381289958953857e-01 -8.681514263153076172e-01 3.493981361389160156e-01
2.700321972370147705e-01 -6.024944782257080078e-01 2.911840081214904785e-01
2.608351409435272217e-01 -6.742768883705139160e-01 3.353250026702880859e-01
3.892168998718261719e-01 -8.527752161026000977e-01 3.311491906642913818e-01
3.361695706844329834e-01 -7.382193803787231445e-01 2.584998011589050293e-01
3.309497237205505371e-01 -7.933390140533447266e-01 2.677000164985656738e-01
3.272564709186553955e-01 -6.909649968147277832e-01 3.589181303977966309e-01
3.140109181404113770e-01 -6.313810944557189941e-01 3.387162983417510986e-01
3.514104485511779785e-01 -7.492756247520446777e-01 3.655314445495605469e-01
2.974584102630615234e-01 -8.834387660026550293e-01 3.399878144264221191e-01
3.230848908424377441e-01 -7.803336977958679199e-01 2.651218771934509277e-01
3.855933547019958496e-01 -7.156797051429748535e-01 3.074855208396911621e-01
3.359540402889251709e-01 -7.051448822021484375e-01 2.562022209167480469e-01
2.744266688823699951e-01 -6.910910010337829590e-01 3.511177897453308105e-01
2.624624073505401611e-01 -7.984250783920288086e-01 3.287228345870971680e-01
3.860968053340911865e-01 -7.366236448287963867e-01 2.933989763259887695e-01
3.623348474502563477e-01 -8.397940397262573242e-01 3.687912821769714355e-01
3.213188350200653076e-01 -9.013938307762145996e-01 3.212822675704956055e-01
3.215087950229644775e-01 -8.434218764305114746e-01 3.759301900863647461e-01
3.097023367881774902e-01 -7.971397638320922852e-01 3.758559823036193848e-01
3.372185528278350830e-01 -6.138802170753479004e-01 3.162402510643005371e-01
3.019085824489593506e-01 -5.990080833435058594e-01 2.680909931659698486e-01
2.588279843330383301e-01 -7.801408767700195312e-01 3.169680833816528320e-01
3.399397432804107666e-01 -9.126253128051757812e-01 3.264704942703247070e-01
3.856976628303527832e-01 -8.552815914154052734e-01 3.137992918491363525e-01
3.509619832038879395e-01 -8.807933926582336426e-01 3.680492043495178223e-01
2.874464988708496094e-01 -5.841955542564392090e-01 2.977074086666107178e-01
2.995717227458953857e-01 -7.253993749618530273e-01 2.598863542079925537e-01
3.172204196453094482e-01 -9.064488410949707031e-01 3.400487303733825684e-01
2.768776714801788330e-01 -8.117022514343261719e-01 3.571078181266784668e-01
2.560489177703857422e-01 -7.638469934463500977e-01 3.298575282096862793e-01
2.548547983169555664e-01 -6.733773350715637207e-01 3.255611360073089600e-01
3.255022764205932617e-01 -7.517699003219604492e-01 3.725754320621490479e-01
3.434683680534362793e-01 -7.470471858978271484e-01 3.681133687496185303e-01
3.758607804775238037e-01 -7.582132816314697266e-01 3.508121073246002197e-01
3.691343665122985840e-01 -6.689588427543640137e-01 2.838712930679321289e-01
3.751881420612335205e-01 -8.845363259315490723e-01 3.493438363075256348e-01
2.934024930000305176e-01 -8.765785098075866699e-01 3.320840597152709961e-01
3.152855634689331055e-01 -7.625779509544372559e-01 3.742028176784515381e-01
2.861772775650024414e-01 -6.886472105979919434e-01 2.612408697605133057e-01
3.225033581256866455e-01 -7.531131505966186523e-01 2.599816322326660156e-01
2.643971741199493408e-01 -6.523261070251464844e-01 2.769086062908172607e-01
3.483612239360809326e-01 -8.108521103858947754e-01 3.741794228553771973e-01
3.693942427635192871e-01 -7.767235636711120605e-01 2.749239802360534668e-01
3.304309248924255371e-01 -7.843806147575378418e-01 3.759619891643524170e-01
3.881372511386871338e-01 -8.566173315048217773e-01 3.231969773769378662e-01
3.862348794937133789e-01 -7.630534768104553223e-01 2.909262776374816895e-01
3.136870265007019043e-01 -6.025459766387939453e-01 2.669726610183715820e-01
3.199393153190612793e-01 -7.151325345039367676e-01 3.662151694297790527e-01
2.946294844150543213e-01 -7.432097196578979492e-01 2.644285559654235840e-01
3.509255051612854004e-01 -6.595949530601501465e-01 2.656356692314147949e-01
3.921634554862976074e-01 -8.281112909317016602e-01 3.315177559852600098e-01
2.858228683471679688e-01 -8.511530160903930664e-01 3.533870875835418701e-01
3.295118212699890137e-01 -8.952469825744628906e-01 3.111055493354797363e-01
3.652815818786621094e-01 -7.878037691116333008e-01 3.645873367786407471e-01
3.032864332199096680e-01 -8.879534006118774414e-01 3.499035835266113281e-01
3.700127005577087402e-01 -7.535540461540222168e-01 2.729142904281616211e-01
2.645695507526397705e-01 -6.346235275268554688e-01 3.233653008937835693e-01
2.794108986854553223e-01 -7.370228171348571777e-01 3.614834249019622803e-01
2.995602786540985107e-01 -7.890208363533020020e-01 2.731564044952392578e-01
2.623382806777954102e-01 -7.176524996757507324e-01 2.829145193099975586e-01
2.960048615932464600e-01 -6.996624469757080078e-01 2.582433521747589111e-01
3.321788311004638672e-01 -8.669177293777465820e-01 2.930940389633178711e-01
3.808386325836181641e-01 -8.803997039794921875e-01 3.394661843776702881e-01
3.819123506546020508e-01 -8.660279512405395508e-01 3.137580454349517822e-01
2.541040480136871338e-01 -7.408063411712646484e-01 3.313079178333282471e-01
2.607151567935943604e-01 -7.243929505348205566e-01 3.444154262542724609e-01
2.676239013671875000e-01 -7.909129858016967773e-01 3.496035635471343994e-01
3.377791643142700195e-01 -6.021659970283508301e-01 2.892181277275085449e-01
3.093006908893585205e-01 -8.987292051315307617e-01 3.414150178432464600e-01
3.400735557079315186e-01 -6.071313023567199707e-01 3.030646741390228271e-01
3.061207532882690430e-01 -7.032276988029479980e-01 2.560124695301055908e-01
3.499690294265747070e-01 -8.204391598701477051e-01 3.739924430847167969e-01
3.713507056236267090e-01 -8.948230743408203125e-01 3.230214118957519531e-01
3.411460220813751221e-01 -7.225312590599060059e-01 3.635899424552917480e-01
3.370947837829589844e-01 -6.274600625038146973e-01 3.272110819816589355e-01
2.807686626911163330e-01 -7.661612629890441895e-01 2.772558033466339111e-01
3.525173962116241455e-01 -7.121271491050720215e-01 3.557819724082946777e-01
3.401265740394592285e-01 -7.810116410255432129e-01 3.740520477294921875e-01
3.605640828609466553e-01 -7.794356346130371094e-01 3.662134110927581787e-01
3.214187920093536377e-01 -7.275886535644531250e-01 2.566083669662475586e-01
3.601527214050292969e-01 -7.521198987960815430e-01 3.616549670696258545e-01
3.775248527526855469e-01 -7.557962536811828613e-01 2.794425189495086670e-01
3.138901293277740479e-01 -8.721088171005249023e-01 3.683973550796508789e-01
3.080329000949859619e-01 -6.442333459854125977e-01 -3.448130488395690918e-01
3.530553579330444336e-01 -5.918437838554382324e-01 -2.772002220153808594e-01
3.671947121620178223e-01 -6.245942115783691406e-01 -2.778166234493255615e-01
3.219082653522491455e-01 -8.648175001144409180e-01 -2.951408624649047852e-01
3.162837326526641846e-01 -8.695421218872070312e-01 -3.076168894767761230e-01
3.660813271999359131e-01 -7.943622469902038574e-01 -2.560058534145355225e-01
3.507148325443267822e-01 -7.462911009788513184e-01 -2.417701631784439087e-01
2.918021678924560547e-01 -8.213905692100524902e-01 -3.274864852428436279e-01
3.018057346343994141e-01 -6.544712781906127930e-01 -3.466587066650390625e-01
2.955977022647857666e-01 -6.502500772476196289e-01 -2.431229203939437866e-01
3.306708037853240967e-01 -7.202522754669189453e-01 -3.646911680698394775e-01
2.741495966911315918e-01 -6.893661022186279297e-01 -2.761714458465576172e-01
3.553288578987121582e-01 -8.555960059165954590e-01 -3.683089613914489746e-01
2.789775133132934570e-01 -7.097822427749633789e-01 -2.722787261009216309e-01
3.607697486877441406e-01 -8.322384953498840332e-01 -3.677953779697418213e-01
3.650169372558593750e-01 -8.135789632797241211e-01 -2.609153687953948975e-01
3.560515940189361572e-01 -6.968756318092346191e-01 -2.384748756885528564e-01
3.910188972949981689e-01 -7.802205681800842285e-01 -2.775019705295562744e-01
3.010082840919494629e-01 -7.904752492904663086e-01 -3.612159192562103271e-01
3.731206655502319336e-01 -8.468492627143859863e-01 -3.593894243240356445e-01
3.924326002597808838e-01 -7.964810729026794434e-01 -2.830326557159423828e-01
3.444644808769226074e-01 -7.926377654075622559e-01 -3.720787167549133301e-01
3.416780233383178711e-01 -7.487483024597167969e-01 -2.414445430040359497e-01
2.754835486412048340e-01 -5.918174386024475098e-01 -2.879659235477447510e-01
3.370390236377716064e-01 -5.666533708572387695e-01 -2.696417570114135742e-01
3.384952545166015625e-01 -6.923156380653381348e-01 -3.562166094779968262e-01
3.541277050971984863e-01 -9.145808815956115723e-01 -3.374406397342681885e-01
2.812344729900360107e-01 -7.391916513442993164e-01 -2.792006433010101318e-01
3.627965450286865234e-01 -8.455689549446105957e-01 -2.717626690864562988e-01
2.758247256278991699e-01 -7.153435945510864258e-01 -3.333598077297210693e-01
2.729638218879699707e-01 -6.214237809181213379e-01 -2.736013829708099365e-01
2.808897197246551514e-01 -6.958547830581665039e-01 -3.409352600574493408e-01
3.198808729648590088e-01 -7.148917913436889648e-01 -3.640310466289520264e-01
3.614388108253479004e-01 -6.841837167739868164e-01 -3.395863175392150879e-01
2.831041514873504639e-01 -5.699326992034912109e-01 -2.788128256797790527e-01
3.419998288154602051e-01 -6.280264854431152344e-01 -3.297838866710662842e-01
2.812803983688354492e-01 -7.581770420074462891e-01 -2.891233563423156738e-01
2.982888817787170410e-01 -6.294134855270385742e-01 -2.408751249313354492e-01
3.605978488922119141e-01 -6.551375985145568848e-01 -2.440778464078903198e-01
3.457675576210021973e-01 -6.521469950675964355e-01 -3.386679887771606445e-01
3.212089836597442627e-01 -5.894631147384643555e-01 -3.186123967170715332e-01
3.049413561820983887e-01 -5.844476222991943359e-01 -2.431424856185913086e-01
3.825783133506774902e-01 -7.886096835136413574e-01 -2.662282586097717285e-01
3.384149372577667236e-01 -6.186823844909667969e-01 -3.272025585174560547e-01
3.688517510890960693e-01 -7.433781027793884277e-01 -3.518815636634826660e-01
3.340704441070556641e-01 -8.302303552627563477e-01 -2.674340903759002686e-01
3.815057277679443359e-01 -7.228214144706726074e-01 -3.295837342739105225e-01
3.832922279834747314e-01 -7.364397644996643066e-01 -3.318337798118591309e-01
3.094491064548492432e-01 -8.569568395614624023e-01 -3.069900274276733398e-01
3.133738934993743896e-01 -8.604409098625183105e-01 -3.530378043651580811e-01
3.026566803455352783e-01 -5.981642007827758789e-01 -2.411663532257080078e-01
3.470135331153869629e-01 -7.759830951690673828e-01 -3.699737489223480225e-01
3.405796587467193604e-01 -8.704872727394104004e-01 -2.858281731605529785e-01
2.707665562629699707e-01 -7.165315151214599609e-01 -3.039151430130004883e-01
3.409333825111389160e-01 -8.231290578842163086e-01 -2.625945508480072021e-01
3.315390944480895996e-01 -5.891423821449279785e-01 -3.131807446479797363e-01
3.959516584873199463e-01 -8.071158528327941895e-01 -2.972225248813629150e-01
3.140414357185363770e-01 -8.395820856094360352e-01 -3.627582490444183350e-01
3.378040790557861328e-01 -9.003779292106628418e-01 -3.138727545738220215e-01
3.307017683982849121e-01 -6.946761012077331543e-01 -2.339590936899185181e-01
3.360233008861541748e-01 -5.750445127487182617e-01 -2.959092855453491211e-01
2.954729497432708740e-01 -8.316894173622131348e-01 -3.184113800525665283e-01
3.963724374771118164e-01 -7.949236631393432617e-01 -2.973154485225677490e-01
2.996009290218353271e-01 -8.250128030776977539e-01 -2.963333725929260254e-01
3.553737103939056396e-01 -8.037868142127990723e-01 -2.556536495685577393e-01
3.937469720840454102e-01 -7.969822883605957031e-01 -3.262742161750793457e-01
3.557342290878295898e-01 -7.912504076957702637e-01 -2.522215545177459717e-01
3.670114278793334961e-01 -6.526910066604614258e-01 -3.165644705295562744e-01
3.460850715637207031e-01 -8.164826631546020508e-01 -2.594453096389770508e-01
3.203287422657012939e-01 -8.859150409698486328e-01 -3.374340534210205078e-01
3.900004625320434570e-01 -8.601354956626892090e-01 -3.045439422130584717e-01
3.252683579921722412e-01 -5.911788940429687500e-01 -2.394405603408813477e-01
2.822252810001373291e-01 -7.765381336212158203e-01 -3.003675341606140137e-01
3.246686160564422607e-01 -7.318884730339050293e-01 -3.671168088912963867e-01
3.965831398963928223e-01 -7.850913405418395996e-01 -3.082728981971740723e-01
3.927079737186431885e-01 -8.532651066780090332e-01 -3.099848031997680664e-01
2.735150456428527832e-01 -6.271405816078186035e-01 -3.125210106372833252e-01
2.910684049129486084e-01 -7.741252779960632324e-01 -2.785298526287078857e-01
3.910789191722869873e-01 -7.378639578819274902e-01 -3.129400312900543213e-01
3.499544858932495117e-01 -8.798299431800842285e-01 -2.890647351741790771e-01
2.750519514083862305e-01 -5.989639163017272949e-01 -2.976587414741516113e-01
3.332835435867309570e-01 -5.662277936935424805e-01 -2.873537540435791016e-01
3.205878734588623047e-01 -6.375518441200256348e-01 -2.327864766120910645e-01
3.805342912673950195e-01 -8.496164679527282715e-01 -2.831768393516540527e-01
3.945124149322509766e-01 -7.808194160461425781e-01 -3.197559416294097900e-01
3.440518677234649658e-01 -8.293318748474121094e-01 -3.726255595684051514e-01
3.710805475711822510e-01 -8.356624245643615723e-01 -2.708980739116668701e-01
2.921418845653533936e-01 -6.016646027565002441e-01 -3.224872946739196777e-01
3.061974346637725830e-01 -7.421764135360717773e-01 -2.513903081417083740e-01
3.817327022552490234e-01 -6.744989156723022461e-01 -2.918851077556610107e-01
2.787761688232421875e-01 -7.642495632171630859e-01 -3.280363678932189941e-01
3.806819915771484375e-01 -8.899052143096923828e-01 -3.378451168537139893e-01
3.860105872154235840e-01 -7.581263780593872070e-01 -2.667571306228637695e-01
3.472583591938018799e-01 -7.648518085479736328e-01 -3.685152828693389893e-01
3.895431160926818848e-01 -7.942554354667663574e-01 -3.361567556858062744e-01
3.910842835903167725e-01 -7.817426919937133789e-01 -3.302988708019256592e-01
3.201581239700317383e-01 -6.398205161094665527e-01 -3.433414697647094727e-01
2.725626230239868164e-01 -7.190703153610229492e-01 -3.231191635131835938e-01
3.062771856784820557e-01 -8.160053491592407227e-01 -2.803037762641906738e-01
3.847778439521789551e-01 -8.327847123146057129e-01 -3.470054268836975098e-01
2.868216633796691895e-01 -5.886144638061523438e-01 -3.110948503017425537e-01
3.684459030628204346e-01 -7.121036052703857422e-01 -2.462202310562133789e-01
3.196149766445159912e-01 -5.518574714660644531e-01 -2.665187120437622070e-01
3.151794970035552979e-01 -6.854936480522155762e-01 -3.574334681034088135e-01
2.922941744327545166e-01 -6.149491071701049805e-01 -3.287518918514251709e-01
3.070957660675048828e-01 -5.724405050277709961e-01 -3.091641366481781006e-01
2.961589097976684570e-01 -7.812918424606323242e-01 -3.576611578464508057e-01
3.331104516983032227e-01 -9.026652574539184570e-01 -3.287096321582794189e-01
3.237814307212829590e-01 -7.943120598793029785e-01 -2.576396465301513672e-01
3.122950792312622070e-01 -5.996010899543762207e-01 -2.377259582281112671e-01
3.721762895584106445e-01 -6.463808417320251465e-01 -2.988432347774505615e-01
3.641951382160186768e-01 -6.169410943984985352e-01 -2.819956839084625244e-01
3.746513128280639648e-01 -8.131688237190246582e-01 -3.579809367656707764e-01
3.436007797718048096e-01 -7.430921196937561035e-01 -3.662257790565490723e-01
3.866077363491058350e-01 -8.769339919090270996e-01 -3.319244384765625000e-01
3.082970976829528809e-01 -8.611969351768493652e-01 -3.411665856838226318e-01
3.759882748126983643e-01 -6.559591889381408691e-01 -2.714686989784240723e-01
3.919685781002044678e-01 -8.397710323333740234e-01 -2.964898049831390381e-01
2.795171141624450684e-01 -5.922418832778930664e-01 -2.660888135433197021e-01
3.678280413150787354e-01 -6.386310458183288574e-01 -3.034220933914184570e-01
2.818688750267028809e-01 -5.806794762611389160e-01 -2.672533094882965088e-01
3.954838514328002930e-01 -8.118844628334045410e-01 -3.213081955909729004e-01
3.787781596183776855e-01 -6.762495040893554688e-01 -2.656601667404174805e-01
3.661762773990631104e-01 -8.920423388481140137e-01 -2.989525794982910156e-01
2.869783043861389160e-01 -5.733555555343627930e-01 -2.620722651481628418e-01
3.757401108741760254e-01 -7.080574035644531250e-01 -3.326005041599273682e-01
3.639978170394897461e-01 -7.806079387664794922e-01 -3.627231419086456299e-01
3.933607339859008789e-01 -7.492481470108032227e-01 -3.097786307334899902e-01
2.825883626937866211e-01 -6.689007878303527832e-01 -3.384855985641479492e-01
3.751584589481353760e-01 -6.490385532379150391e-01 -2.855957746505737305e-01
3.007073402404785156e-01 -7.270120978355407715e-01 -3.606163561344146729e-01
3.290961980819702148e-01 -8.486807942390441895e-01 -2.788021564483642578e-01
3.296982645988464355e-01 -6.058954000473022461e-01 -3.249957263469696045e-01
3.522463738918304443e-01 -7.042417526245117188e-01 -3.533500432968139648e-01
2.953652739524841309e-01 -7.063251733779907227e-01 -2.509814202785491943e-01
3.365725874900817871e-01 -8.411359190940856934e-01 -2.714624106884002686e-01
3.360209465026855469e-01 -8.828263878822326660e-01 -3.610756099224090576e-01
3.042581677436828613e-01 -6.650118827819824219e-01 -2.388119995594024658e-01
3.087096512317657471e-01 -8.305064439773559570e-01 -3.605559170246124268e-01
3.957078456878662109e-01 -8.158707618713378906e-01 -2.989509105682373047e-01
3.858173787593841553e-01 -6.961434483528137207e-01 -2.999997735023498535e-01
3.632738292217254639e-01 -6.565484404563903809e-01 -3.244980275630950928e-01
2.840095758438110352e-01 -7.241088151931762695e-01 -2.686063647270202637e-01
2.847615480422973633e-01 -6.224834918975830078e-01 -2.526053190231323242e-01
3.017989099025726318e-01 -7.341071367263793945e-01 -2.524096667766571045e-01
3.291332423686981201e-01 -5.782135725021362305e-01 -2.457905709743499756e-01
3.340506851673126221e-01 -5.804125666618347168e-01 -3.039158582687377930e-01
3.202494978904724121e-01 -5.684450268745422363e-01 -3.029517233371734619e-01
3.525933921337127686e-01 -8.473883271217346191e-01 -2.713762223720550537e-01
3.170667588710784912e-01 -5.682728886604309082e-01 -2.473990619182586670e-01
3.641785383224487305e-01 -6.282168030738830566e-01 -3.019001781940460205e-01
3.691360354423522949e-01 -7.328808903694152832e-01 -3.488405644893646240e-01
3.954785466194152832e-01 -7.680685520172119141e-01 -3.087433874607086182e-01
3.826015889644622803e-01 -6.814866662025451660e-01 -2.760981321334838867e-01
2.710315883159637451e-01 -7.073298692703247070e-01 -2.934097647666931152e-01
3.344734609127044678e-01 -7.954292893409729004e-01 -3.733103871345520020e-01
3.644659221172332764e-01 -6.734132170677185059e-01 -3.317349255084991455e-01
2.907481789588928223e-01 -6.664832830429077148e-01 -2.484610676765441895e-01
2.937666177749633789e-01 -6.391972303390502930e-01 -3.386722505092620850e-01
2.748417854309082031e-01 -6.593114733695983887e-01 -3.259176909923553467e-01
3.904998600482940674e-01 -7.292491197586059570e-01 -3.093322217464447021e-01
3.860318362712860107e-01 -7.762056589126586914e-01 -2.684636414051055908e-01
3.493333458900451660e-01 -6.757589578628540039e-01 -2.355642914772033691e-01
2.709792554378509521e-01 -7.113989591598510742e-01 -3.177084922790527344e-01
2.916313707828521729e-01 -5.875036716461181641e-01 -2.506922483444213867e-01
3.134921491146087646e-01 -6.251372694969177246e-01 -3.380312919616699219e-01
3.425616621971130371e-01 -5.831888914108276367e-01 -2.957764565944671631e-01
3.631661236286163330e-01 -9.032499790191650391e-01 -3.083405494689941406e-01
2.887079417705535889e-01 -7.151019573211669922e-01 -2.597402930259704590e-01
2.753501534461975098e-01 -7.005071043968200684e-01 -3.324789702892303467e-01
3.492635786533355713e-01 -6.351751685142517090e-01 -3.278799355030059814e-01
3.242582380771636963e-01 -8.881309032440185547e-01 -3.456699550151824951e-01
3.151850402355194092e-01 -6.508581042289733887e-01 -2.337740361690521240e-01
3.105452954769134521e-01 -7.748994231224060059e-01 -3.679893314838409424e-01
2.688360810279846191e-01 -6.848266720771789551e-01 -2.943721711635589600e-01
3.003508150577545166e-01 -8.004294037818908691e-01 -3.591350615024566650e-01
3.566367328166961670e-01 -6.321026682853698730e-01 -2.457631826400756836e-01
2.916722893714904785e-01 -7.411639690399169922e-01 -3.552225232124328613e-01
3.326787352561950684e-01 -7.526248693466186523e-01 -3.698242902755737305e-01
3.826843500137329102e-01 -8.804762363433837891e-01 -3.402992486953735352e-01
3.526303470134735107e-01 -8.935668468475341797e-01 -2.987206876277923584e-01
3.335233926773071289e-01 -8.570048213005065918e-01 -3.686167895793914795e-01
2.907435595989227295e-01 -8.042336702346801758e-01 -2.989293932914733887e-01
2.872293591499328613e-01 -5.807158946990966797e-01 -3.058649003505706787e-01
3.219987750053405762e-01 -6.628099679946899414e-01 -2.327253818511962891e-01
3.753021359443664551e-01 -7.513757944107055664e-01 -3.474715650081634521e-01
3.411709070205688477e-01 -7.770482301712036133e-01 -2.478568553924560547e-01
3.009434342384338379e-01 -8.241736292839050293e-01 -3.532636463642120361e-01
2.834334373474121094e-01 -6.542319059371948242e-01 -3.358003497123718262e-01
3.211383819580078125e-01 -8.550969362258911133e-01 -2.887600064277648926e-01
3.840442299842834473e-01 -8.877481818199157715e-01 -3.275414407253265381e-01
2.760972976684570312e-01 -7.408793568611145020e-01 -3.296173214912414551e-01
3.382587134838104248e-01 -6.662369370460510254e-01 -3.480747938156127930e-01
3.625197410583496094e-01 -8.930342793464660645e-01 -3.563129305839538574e-01
3.702947199344635010e-01 -6.802725791931152344e-01 -2.499396800994873047e-01
2.828884422779083252e-01 -6.452876925468444824e-01 -3.327282667160034180e-01
3.097457289695739746e-01 -8.305913209915161133e-01 -2.848925590515136719e-01
2.803838253021240234e-01 -6.449831724166870117e-01 -2.582564055919647217e-01
3.020893037319183350e-01 -7.494922876358032227e-01 -3.630632460117340088e-01
3.695683181285858154e-01 -9.101947546005249023e-01 -3.295337855815887451e-01
3.887878358364105225e-01 -7.159830927848815918e-01 -3.061097264289855957e-01
3.468768596649169922e-01 -5.880535840988159180e-01 -2.570840120315551758e-01
3.872506022453308105e-01 -7.058295011520385742e-01 -3.036562800407409668e-01
2.925495207309722900e-01 -6.235567331314086914e-01 -2.450684010982513428e-01
3.857719600200653076e-01 -6.934077739715576172e-01 -2.824910581111907959e-01
3.171367049217224121e-01 -8.541696667671203613e-01 -3.605342805385589600e-01
3.903022706508636475e-01 -8.511829972267150879e-01 -3.341730237007141113e-01
3.267022669315338135e-01 -5.753666162490844727e-01 -3.054272234439849854e-01
3.726250827312469482e-01 -6.591291427612304688e-01 -2.592609524726867676e-01
3.249640166759490967e-01 -8.561481833457946777e-01 -3.654386103153228760e-01
3.965615928173065186e-01 -7.962126731872558594e-01 -3.128219842910766602e-01
2.679707705974578857e-01 -6.715809106826782227e-01 -3.031478822231292725e-01
3.248429298400878906e-01 -7.240872383117675781e-01 -2.389642298221588135e-01
3.818601965904235840e-01 -6.883949041366577148e-01 -3.090314865112304688e-01
3.291021585464477539e-01 -6.753625869750976562e-01 -2.325767278671264648e-01
2.758462131023406982e-01 -6.354619860649108887e-01 -3.205197155475616455e-01
3.524366021156311035e-01 -9.128868579864501953e-01 -3.227215409278869629e-01
3.930144906044006348e-01 -8.173124194145202637e-01 -2.897530794143676758e-01
3.023732602596282959e-01 -8.363389372825622559e-01 -3.007067441940307617e-01
3.820754587650299072e-01 -8.279109001159667969e-01 -2.761034965515136719e-01
2.844863533973693848e-01 -6.378756165504455566e-01 -2.527523934841156006e-01
2.772294282913208008e-01 -6.731746792793273926e-01 -3.326610326766967773e-01
3.446351587772369385e-01 -8.970359563827514648e-01 -3.045242130756378174e-01
3.762966990470886230e-01 -8.546411395072937012e-01 -3.558164834976196289e-01
3.009819686412811279e-01 -7.726897001266479492e-01 -3.625106513500213623e-01
2.878146767616271973e-01 -6.949740648269653320e-01 -2.559787631034851074e-01
3.411284685134887695e-01 -6.581336259841918945e-01 -2.334235906600952148e-01
2.891046404838562012e-01 -7.868244647979736328e-01 -2.893581390380859375e-01
2.979144454002380371e-01 -6.062169075012207031e-01 -2.425896525382995605e-01
2.690759599208831787e-01 -6.983510851860046387e-01 -3.049356341361999512e-01
3.755946159362792969e-01 -6.561226248741149902e-01 -2.980444431304931641e-01
3.018084466457366943e-01 -5.952502489089965820e-01 -3.229800462722778320e-01
3.176636993885040283e-01 -7.812204360961914062e-01 -2.562152743339538574e-01
3.440794944763183594e-01 -9.116733074188232422e-01 -3.312489688396453857e-01
3.843229115009307861e-01 -7.664384245872497559e-01 -3.394273519515991211e-01
2.795305848121643066e-01 -5.872464776039123535e-01 -2.992470264434814453e-01
3.206325173377990723e-01 -6.072949767112731934e-01 -3.289558589458465576e-01
3.151264786720275879e-01 -5.598263740539550781e-01 -2.527829408645629883e-01
3.895618021488189697e-01 -7.190630435943603516e-01 -2.812841534614562988e-01
3.695377111434936523e-01 -7.533365488052368164e-01 -2.499741613864898682e-01
2.987117171287536621e-01 -8.361957073211669922e-01 -3.105463683605194092e-01
2.874333262443542480e-01 -7.674757838249206543e-01 -3.485897183418273926e-01
3.079704642295837402e-01 -6.262351274490356445e-01 -2.362271398305892944e-01
2.992909550666809082e-01 -7.595838308334350586e-01 -2.624155580997467041e-01
3.491710126399993896e-01 -8.316383361816406250e-01 -2.648878991603851318e-01
3.858840167522430420e-01 -7.193992137908935547e-01 -2.687408328056335449e-01
2.740458548069000244e-01 -7.279585599899291992e-01 -2.928249537944793701e-01
3.136011958122253418e-01 -8.544157743453979492e-01 -2.971033155918121338e-01
3.504746854305267334e-01 -5.877746939659118652e-01 -2.686410546302795410e-01
3.663394451141357422e-01 -6.278257966041564941e-01 -2.650246322154998779e-01
3.465279042720794678e-01 -6.812092065811157227e-01 -3.493043184280395508e-01
3.740707635879516602e-01 -8.237097263336181641e-01 -3.589870631694793701e-01
2.798983752727508545e-01 -7.093227505683898926e-01 -3.406475782394409180e-01
3.411606252193450928e-01 -5.730057954788208008e-01 -2.807672321796417236e-01
3.189382255077362061e-01 -5.806195139884948730e-01 -3.133936822414398193e-01
3.282236456871032715e-01 -5.593238472938537598e-01 -2.830400168895721436e-01
3.097695410251617432e-01 -7.970085740089416504e-01 -2.675937414169311523e-01
3.275591433048248291e-01 -6.855970621109008789e-01 -2.334151566028594971e-01
3.280362784862518311e-01 -8.609135150909423828e-01 -2.868263721466064453e-01
3.590307533740997314e-01 -7.628215551376342773e-01 -3.629992604255676270e-01
2.827895283699035645e-01 -7.419253587722778320e-01 -3.445269167423248291e-01
3.752442896366119385e-01 -8.690577745437622070e-01 -3.545179069042205811e-01
2.982890605926513672e-01 -5.512982606887817383e-01 -2.722598314285278320e-01
3.169654011726379395e-01 -8.240945339202880859e-01 -3.679519891738891602e-01
3.822284340858459473e-01 -8.899949789047241211e-01 -3.157860636711120605e-01
3.375519812107086182e-01 -6.819834113121032715e-01 -2.330679446458816528e-01
3.093298673629760742e-01 -5.836962461471557617e-01 -3.170548975467681885e-01
3.027471899986267090e-01 -7.065766453742980957e-01 -3.588150441646575928e-01
3.689316213130950928e-01 -8.769768476486206055e-01 -2.895840108394622803e-01
3.696729838848114014e-01 -6.816832423210144043e-01 -3.291487097740173340e-01
3.753869831562042236e-01 -7.943757176399230957e-01 -2.611337304115295410e-01
3.486193418502807617e-01 -9.034225940704345703e-01 -3.094695210456848145e-01
3.557474017143249512e-01 -7.794325351715087891e-01 -3.671048283576965332e-01
2.756698131561279297e-01 -5.941850543022155762e-01 -2.770045697689056396e-01
3.946887850761413574e-01 -8.392593264579772949e-01 -3.081788718700408936e-01
3.024144768714904785e-01 -6.147470474243164062e-01 -2.392823696136474609e-01
3.184714913368225098e-01 -6.737118959426879883e-01 -2.340779006481170654e-01
3.781138062477111816e-01 -8.579987883567810059e-01 -2.849841117858886719e-01
2.721303701400756836e-01 -6.519419550895690918e-01 -2.743886411190032959e-01
2.746265828609466553e-01 -6.124461889266967773e-01 -2.709314525127410889e-01
3.854730129241943359e-01 -7.091824412345886230e-01 -2.703890800476074219e-01
3.086930811405181885e-01 -5.487356185913085938e-01 -2.784523367881774902e-01
3.581306934356689453e-01 -9.104470014572143555e-01 -3.453952670097351074e-01
3.632034659385681152e-01 -6.384823918342590332e-01 -2.516039013862609863e-01
3.108249008655548096e-01 -6.872682571411132812e-01 -2.380386888980865479e-01
3.588940501213073730e-01 -8.841927051544189453e-01 -3.611885607242584229e-01
2.876495420932769775e-01 -7.507600188255310059e-01 -2.730836272239685059e-01
3.168469965457916260e-01 -6.727243661880493164e-01 -3.542041480541229248e-01
3.633063435554504395e-01 -8.022514581680297852e-01 -3.654932975769042969e-01
3.008300662040710449e-01 -6.392158865928649902e-01 -2.393696755170822144e-01
3.926800191402435303e-01 -8.358407020568847656e-01 -3.303936123847961426e-01
3.160245716571807861e-01 -7.493013143539428711e-01 -2.476064562797546387e-01
2.724826931953430176e-01 -6.062736511230468750e-01 -2.922638058662414551e-01
2.725847363471984863e-01 -6.497952938079833984e-01 -3.188790380954742432e-01
3.416353762149810791e-01 -7.290726304054260254e-01 -3.641384840011596680e-01
3.004039525985717773e-01 -6.917343735694885254e-01 -2.443949729204177856e-01
3.639351129531860352e-01 -6.675314903259277344e-01 -2.451453804969787598e-01
3.859559297561645508e-01 -8.458567857742309570e-01 -3.443684279918670654e-01
2.891987860202789307e-01 -5.719957947731018066e-01 -3.004877567291259766e-01
3.469510078430175781e-01 -6.161979436874389648e-01 -2.420246303081512451e-01
3.593675494194030762e-01 -7.085092067718505859e-01 -2.404478043317794800e-01
3.939399123191833496e-01 -8.222478628158569336e-01 -3.275081813335418701e-01
2.754786312580108643e-01 -7.156537771224975586e-01 -2.819691598415374756e-01
2.850753366947174072e-01 -7.561821937561035156e-01 -2.797966301441192627e-01
2.797915637493133545e-01 -6.704548597335815430e-01 -2.617605924606323242e-01
3.242828249931335449e-01 -7.604420185089111328e-01 -3.707011640071868896e-01
3.724793493747711182e-01 -8.201490640640258789e-01 -2.663071453571319580e-01
3.546444475650787354e-01 -8.095475435256958008e-01 -3.700557351112365723e-01
3.228336572647094727e-01 -6.649050712585449219e-01 -3.516331017017364502e-01
3.891403079032897949e-01 -7.454102635383605957e-01 -3.230179250240325928e-01
