-1.004682183265686035e-01 -6.139438748359680176e-01 6.030297279357910156e-01
2.936829328536987305e-01 -4.920022487640380859e-01 5.620512962341308594e-01
1.383948624134063721e-01 -5.718629956245422363e-01 6.093666553497314453e-01
1.195564195513725281e-01 -5.582970380783081055e-01 6.094934940338134766e-01
2.695312350988388062e-02 -6.203781962394714355e-01 5.488113164901733398e-01
9.437196701765060425e-02 -5.461991429328918457e-01 5.423932075500488281e-01
-8.122061192989349365e-02 -5.254156589508056641e-01 5.509979724884033203e-01
2.170768380165100098e-02 -5.726736783981323242e-01 5.426217317581176758e-01
-4.336988925933837891e-02 -6.590782403945922852e-01 5.675770640373229980e-01
2.016450762748718262e-01 -4.715704619884490967e-01 5.688262581825256348e-01
-4.383407533168792725e-03 -6.166719794273376465e-01 6.062551140785217285e-01
1.841084063053131104e-01 -4.710275530815124512e-01 5.799236297607421875e-01
7.170455902814865112e-02 -5.905169248580932617e-01 5.437055826187133789e-01
-1.250466257333755493e-01 -5.112712979316711426e-01 5.620077252388000488e-01
5.636171996593475342e-02 -5.886385440826416016e-01 5.434507131576538086e-01
3.310763239860534668e-01 -5.375526547431945801e-01 5.556316971778869629e-01
2.751608565449714661e-02 -5.830592513084411621e-01 6.098279356956481934e-01
-9.539985656738281250e-02 -5.211286544799804688e-01 5.963654518127441406e-01
-1.688770204782485962e-02 -6.592954993247985840e-01 5.897431969642639160e-01
-5.189368128776550293e-02 -6.570548415184020996e-01 5.902197957038879395e-01
-1.317829042673110962e-01 -5.468295216560363770e-01 5.994389653205871582e-01
2.682198584079742432e-01 -5.376470088958740234e-01 5.491256713867187500e-01
3.610582351684570312e-01 -5.227435827255249023e-01 5.628089904785156250e-01
2.770802378654479980e-01 -5.189633965492248535e-01 5.518264770507812500e-01
4.183736070990562439e-02 -5.347819328308105469e-01 5.436489582061767578e-01
3.048911690711975098e-01 -6.136416196823120117e-01 5.867285132408142090e-01
2.549726665019989014e-01 -5.338780283927917480e-01 6.024251580238342285e-01
2.690247297286987305e-01 -5.810224413871765137e-01 5.512472987174987793e-01
-1.053202152252197266e-01 -5.428993701934814453e-01 5.497025847434997559e-01
-1.798205822706222534e-02 -5.748070478439331055e-01 5.435554385185241699e-01
1.278895437717437744e-01 -5.574284195899963379e-01 5.424923896789550781e-01
5.039960145950317383e-03 -5.292043685913085938e-01 5.453312993049621582e-01
-2.552574127912521362e-02 -4.835138022899627686e-01 5.816994905471801758e-01
8.293211460113525391e-02 -5.410682559013366699e-01 5.426872372627258301e-01
2.308615669608116150e-02 -6.622631549835205078e-01 5.866577625274658203e-01
2.272789925336837769e-01 -5.058518648147583008e-01 5.510000586509704590e-01
-5.229903757572174072e-02 -6.182240247726440430e-01 6.047070026397705078e-01
5.835564434528350830e-02 -5.022834539413452148e-01 5.995044112205505371e-01
-9.441958367824554443e-02 -6.425794959068298340e-01 5.597611665725708008e-01
-2.077467739582061768e-02 -6.404297947883605957e-01 5.999910235404968262e-01
-6.845274567604064941e-02 -5.405667424201965332e-01 5.473021864891052246e-01
-7.895573973655700684e-03 -5.831033587455749512e-01 6.091939210891723633e-01
1.321925967931747437e-01 -5.044104456901550293e-01 6.008752584457397461e-01
3.103921413421630859e-01 -4.871387183666229248e-01 5.774227976799011230e-01
-1.369924098253250122e-01 -5.912360548973083496e-01 6.023994088172912598e-01
3.044067919254302979e-01 -6.077764034271240234e-01 5.639093518257141113e-01
-9.842313826084136963e-03 -6.054272651672363281e-01 5.462343692779541016e-01
1.545946300029754639e-02 -5.921054482460021973e-01 5.440626144409179688e-01
-2.333675324916839600e-02 -5.753113031387329102e-01 6.087816357612609863e-01
-2.457896322011947632e-01 -6.022825837135314941e-01 5.714633464813232422e-01
1.615695655345916748e-01 -5.864705443382263184e-01 5.451977252960205078e-01
-4.336131364107131958e-02 -6.285191178321838379e-01 6.028886437416076660e-01
1.979100853204727173e-01 -5.714590549468994141e-01 5.452821850776672363e-01
-1.235253810882568359e-01 -6.118307113647460938e-01 5.523980855941772461e-01
1.664145290851593018e-01 -4.690486192703247070e-01 5.765202045440673828e-01
1.996909826993942261e-01 -6.285107731819152832e-01 5.968791842460632324e-01
-6.023301184177398682e-02 -4.935325980186462402e-01 5.625272393226623535e-01
-1.624801605939865112e-01 -6.423622965812683105e-01 5.877604484558105469e-01
1.897361725568771362e-01 -6.097255349159240723e-01 5.509688854217529297e-01
-2.443801313638687134e-01 -5.680215954780578613e-01 5.710514187812805176e-01
3.591486811637878418e-01 -5.813198685646057129e-01 5.657777786254882812e-01
3.478379249572753906e-01 -5.125676989555358887e-01 5.871875882148742676e-01
1.033321619033813477e-01 -6.558152437210083008e-01 5.675193071365356445e-01
-1.853619962930679321e-01 -5.260350704193115234e-01 5.692867040634155273e-01
5.891344696283340454e-02 -6.331444978713989258e-01 5.527624487876892090e-01
2.312152385711669922e-01 -5.697233080863952637e-01 6.054993271827697754e-01
1.916046440601348877e-01 -5.436730980873107910e-01 5.445165634155273438e-01
1.237161159515380859e-01 -4.773198962211608887e-01 5.881475210189819336e-01
3.443273156881332397e-02 -4.847986698150634766e-01 5.901053547859191895e-01
9.225382655858993530e-02 -6.031724810600280762e-01 6.082054376602172852e-01
5.772295966744422913e-02 -6.079379320144653320e-01 6.079433560371398926e-01
3.726552426815032959e-02 -6.418713927268981934e-01 5.558965802192687988e-01
7.351901382207870483e-02 -5.523064136505126953e-01 5.421398282051086426e-01
-4.125197231769561768e-02 -5.328843593597412109e-01 6.036678552627563477e-01
-1.739361435174942017e-01 -6.452527642250061035e-01 5.803462862968444824e-01
-1.021206974983215332e-01 -4.994001686573028564e-01 5.664566755294799805e-01
1.953509598970413208e-01 -5.257652401924133301e-01 5.460452437400817871e-01
2.472459971904754639e-01 -5.045110583305358887e-01 5.968437194824218750e-01
2.078738361597061157e-01 -6.429787278175354004e-01 5.856333374977111816e-01
2.362161427736282349e-01 -5.968277454376220703e-01 5.512971878051757812e-01
-1.552426218986511230e-01 -5.491785407066345215e-01 5.539132356643676758e-01
-1.427882462739944458e-01 -5.265413522720336914e-01 5.578428506851196289e-01
6.323849409818649292e-02 -5.216551423072814941e-01 6.049486994743347168e-01
9.431959688663482666e-02 -5.160166621208190918e-01 6.040039658546447754e-01
1.315332949161529541e-03 -5.985072851181030273e-01 5.450303554534912109e-01
1.275884062051773071e-01 -5.253359675407409668e-01 5.444585680961608887e-01
-1.004587113857269287e-01 -5.928892493247985840e-01 5.482526421546936035e-01
-4.082231223583221436e-02 -6.098369956016540527e-01 6.063705682754516602e-01
1.897567957639694214e-01 -4.757472872734069824e-01 5.625513792037963867e-01
-1.165345311164855957e-02 -5.709472298622131348e-01 6.090394854545593262e-01
-1.842769235372543335e-01 -6.406003832817077637e-01 5.723115205764770508e-01
2.784159183502197266e-01 -4.866075217723846436e-01 5.631727576255798340e-01
3.912013769149780273e-01 -5.621059536933898926e-01 5.735921263694763184e-01
1.334103792905807495e-01 -5.591875314712524414e-01 6.093016862869262695e-01
1.421236693859100342e-01 -4.925805330276489258e-01 5.966057777404785156e-01
-1.620736718177795410e-01 -5.528430938720703125e-01 5.970741510391235352e-01
2.827404811978340149e-02 -6.353109478950500488e-01 6.021679043769836426e-01
8.175023645162582397e-02 -5.253077149391174316e-01 6.058918833732604980e-01
-1.415641903877258301e-01 -5.379025340080261230e-01 5.962393283843994141e-01
-2.280613332986831665e-01 -5.711081027984619141e-01 5.637652873992919922e-01
2.295142412185668945e-01 -4.956549406051635742e-01 5.948632359504699707e-01
-1.284324824810028076e-01 -5.241032838821411133e-01 5.934139490127563477e-01
-1.146074980497360229e-01 -6.263508200645446777e-01 5.996666550636291504e-01
-1.635371148586273193e-01 -5.364176034927368164e-01 5.925639867782592773e-01
4.491145908832550049e-02 -6.505981087684631348e-01 5.604671835899353027e-01
-2.319014817476272583e-01 -6.113498210906982422e-01 5.685270428657531738e-01
3.407381176948547363e-01 -5.086703896522521973e-01 5.626239180564880371e-01
1.801099181175231934e-01 -5.516108870506286621e-01 6.076977252960205078e-01
-5.410762131214141846e-02 -4.954821765422821045e-01 5.885695815086364746e-01
1.913173794746398926e-01 -5.666871666908264160e-01 6.076506972312927246e-01
-1.974448561668395996e-02 -5.964704155921936035e-01 6.083046793937683105e-01
1.265691071748733521e-01 -4.886461496353149414e-01 5.949443578720092773e-01
2.529218792915344238e-01 -6.343503594398498535e-01 5.822283625602722168e-01
9.040062874555587769e-02 -6.571649312973022461e-01 5.677752494812011719e-01
1.083619594573974609e-01 -5.998988151550292969e-01 5.455182194709777832e-01
-4.336841404438018799e-03 -5.529684424400329590e-01 5.433215498924255371e-01
2.211978435516357422e-01 -6.110865473747253418e-01 6.007192134857177734e-01
3.710298985242843628e-02 -5.537723302841186523e-01 6.091620326042175293e-01
1.697876453399658203e-01 -4.760849475860595703e-01 5.866180658340454102e-01
-1.806363463401794434e-02 -6.085352897644042969e-01 6.071739792823791504e-01
-1.406594365835189819e-02 -5.019930601119995117e-01 5.960272550582885742e-01
-1.091287136077880859e-01 -5.136319398880004883e-01 5.579642057418823242e-01
1.999390423297882080e-01 -6.460949182510375977e-01 5.730037689208984375e-01
2.327641546726226807e-01 -4.763874411582946777e-01 5.822597146034240723e-01
-2.360924929380416870e-01 -5.546267628669738770e-01 5.756356716156005859e-01
-1.834924072027206421e-01 -5.839715600013732910e-01 5.552318096160888672e-01
2.444946020841598511e-02 -5.020727515220642090e-01 5.508511066436767578e-01
1.391316652297973633e-01 -6.022277474403381348e-01 6.071488261222839355e-01
1.803208142518997192e-01 -5.512425899505615234e-01 5.439101457595825195e-01
2.267054021358489990e-01 -5.601737499237060547e-01 5.461868047714233398e-01
2.737497687339782715e-01 -5.979412794113159180e-01 5.553082823753356934e-01
2.834491133689880371e-01 -5.003741979598999023e-01 5.922924876213073730e-01
3.704339265823364258e-02 -6.648613214492797852e-01 5.780285000801086426e-01
3.806403279304504395e-01 -5.603675246238708496e-01 5.854787826538085938e-01
1.830697059631347656e-01 -6.060878038406372070e-01 6.045328378677368164e-01
2.840085327625274658e-01 -5.322422981262207031e-01 5.508037805557250977e-01
-2.030442506074905396e-01 -5.780560970306396484e-01 5.943862199783325195e-01
2.180535718798637390e-02 -4.785543680191040039e-01 5.645394325256347656e-01
-1.489110589027404785e-01 -6.223514676094055176e-01 5.975863933563232422e-01
1.710527837276458740e-01 -5.092454552650451660e-01 6.015996932983398438e-01
2.202695757150650024e-01 -4.733260869979858398e-01 5.795512795448303223e-01
-2.413721829652786255e-01 -6.038497686386108398e-01 5.839747786521911621e-01
-1.968479901552200317e-01 -6.339792013168334961e-01 5.851044654846191406e-01
4.445443674921989441e-02 -5.023510456085205078e-01 5.500040650367736816e-01
9.981393814086914062e-04 -6.371724009513854980e-01 6.014493107795715332e-01
-6.802076101303100586e-02 -6.494802236557006836e-01 5.942970514297485352e-01
-8.122397959232330322e-02 -6.582671403884887695e-01 5.865345001220703125e-01
6.257583200931549072e-02 -4.748798608779907227e-01 5.644508004188537598e-01
-1.834115833044052124e-01 -6.266484856605529785e-01 5.629180073738098145e-01
4.617909342050552368e-02 -5.319533348083496094e-01 6.066250205039978027e-01
2.489345222711563110e-01 -6.195710301399230957e-01 5.948405265808105469e-01
-3.376309573650360107e-02 -5.090436339378356934e-01 5.518918633460998535e-01
1.490126848220825195e-01 -6.555318832397460938e-01 5.777028799057006836e-01
-4.092910140752792358e-02 -6.643592119216918945e-01 5.793653726577758789e-01
1.244680434465408325e-01 -6.540772318840026855e-01 5.884163379669189453e-01
2.809336781501770020e-01 -6.218029856681823730e-01 5.676677823066711426e-01
3.073240518569946289e-01 -5.267240405082702637e-01 5.536712408065795898e-01
-1.973903626203536987e-01 -5.396640300750732422e-01 5.865259766578674316e-01
2.683381736278533936e-01 -6.071555018424987793e-01 5.967942476272583008e-01
8.620270341634750366e-02 -6.418179869651794434e-01 5.987939834594726562e-01
2.056937664747238159e-01 -5.966153144836425781e-01 6.047468781471252441e-01
2.950369715690612793e-01 -5.850386023521423340e-01 5.985270738601684570e-01
3.494233489036560059e-01 -5.472952127456665039e-01 5.933572053909301758e-01
-2.152120918035507202e-01 -5.558094978332519531e-01 5.632683634757995605e-01
-1.689659804105758667e-02 -6.309435963630676270e-01 5.521825551986694336e-01
3.075662851333618164e-01 -6.178388595581054688e-01 5.751484632492065430e-01
-7.819190621376037598e-03 -6.650322079658508301e-01 5.757261514663696289e-01
-3.690354526042938232e-03 -6.324949860572814941e-01 5.524618029594421387e-01
2.496049851179122925e-01 -5.772125124931335449e-01 5.490567684173583984e-01
1.659921109676361084e-01 -6.383129358291625977e-01 5.601900815963745117e-01
4.815753549337387085e-02 -5.170215368270874023e-01 6.035935282707214355e-01
3.922094777226448059e-02 -6.443367600440979004e-01 5.988203883171081543e-01
2.386414259672164917e-01 -4.951502680778503418e-01 5.549049377441406250e-01
-2.015344798564910889e-03 -5.807662010192871094e-01 5.434271693229675293e-01
-2.367214113473892212e-01 -5.811531543731689453e-01 5.870893001556396484e-01
-1.522875428199768066e-01 -5.872017145156860352e-01 6.010806560516357422e-01
1.536215543746948242e-01 -4.825831055641174316e-01 5.567382574081420898e-01
-5.643062293529510498e-02 -5.947644114494323730e-01 5.462181568145751953e-01
2.467313855886459351e-01 -5.888994336128234863e-01 6.028506755828857422e-01
2.368678748607635498e-01 -6.300904154777526855e-01 5.911352038383483887e-01
1.078917384147644043e-01 -4.788749814033508301e-01 5.891146063804626465e-01
3.183429241180419922e-01 -5.840985774993896484e-01 5.578227639198303223e-01
2.377168238162994385e-01 -5.230839252471923828e-01 6.018838882446289062e-01
3.114370107650756836e-01 -5.543472766876220703e-01 5.988211035728454590e-01
-1.103217005729675293e-01 -6.000136137008666992e-01 5.496407151222229004e-01
-1.188656836748123169e-01 -6.567615866661071777e-01 5.757682919502258301e-01
2.572571933269500732e-01 -4.913660883903503418e-01 5.579499006271362305e-01
5.875757709145545959e-02 -6.038177609443664551e-01 5.454839468002319336e-01
-1.362172812223434448e-01 -6.384659409523010254e-01 5.938109159469604492e-01
-2.291825562715530396e-01 -5.929341912269592285e-01 5.637723803520202637e-01
-9.744857251644134521e-02 -6.160438656806945801e-01 5.514866709709167480e-01
1.750763952732086182e-01 -6.506292223930358887e-01 5.733393430709838867e-01
-1.992064863443374634e-01 -5.701446533203125000e-01 5.577770471572875977e-01
2.232689112424850464e-01 -5.357234477996826172e-01 5.463711023330688477e-01
2.272775396704673767e-02 -5.506403446197509766e-01 5.427644252777099609e-01
8.050237596035003662e-02 -5.922253131866455078e-01 6.094462275505065918e-01
-7.873499393463134766e-02 -6.434734463691711426e-01 5.965330004692077637e-01
1.346138119697570801e-01 -6.200602054595947266e-01 6.039566397666931152e-01
1.232712268829345703e-01 -5.335879921913146973e-01 6.071906685829162598e-01
-5.770963430404663086e-02 -5.124496817588806152e-01 5.526555180549621582e-01
5.323509871959686279e-02 -5.959005951881408691e-01 6.092792749404907227e-01
8.251648396253585815e-02 -4.747034907341003418e-01 5.632598400115966797e-01
-1.088077574968338013e-01 -5.759626626968383789e-01 6.045400500297546387e-01
2.395566552877426147e-01 -5.201219916343688965e-01 5.489398837089538574e-01
1.136722788214683533e-02 -5.076975822448730469e-01 5.496860742568969727e-01
2.726089358329772949e-01 -5.312275886535644531e-01 6.007919311523437500e-01
-1.751830130815505981e-01 -5.656243562698364258e-01 5.973463654518127441e-01
-7.232762873172760010e-02 -4.997156858444213867e-01 5.599910616874694824e-01
6.390084326267242432e-02 -6.199336051940917969e-01 6.058441400527954102e-01
1.278244853019714355e-01 -5.748592019081115723e-01 5.430902242660522461e-01
2.844108939170837402e-01 -5.050926208496093750e-01 5.555706620216369629e-01
1.927204430103302002e-02 -5.091739296913146973e-01 6.004775166511535645e-01
3.161354660987854004e-01 -5.814730525016784668e-01 5.962678194046020508e-01
3.391773700714111328e-01 -5.954605937004089355e-01 5.875696539878845215e-01
-5.970834195613861084e-02 -6.356953978538513184e-01 6.003040671348571777e-01
-1.697296351194381714e-01 -5.190123915672302246e-01 5.800819396972656250e-01
5.790540948510169983e-02 -5.389279127120971680e-01 5.430111289024353027e-01
-1.059660762548446655e-01 -5.801687240600585938e-01 5.478202700614929199e-01
5.540241301059722900e-02 -4.749706387519836426e-01 5.828180909156799316e-01
1.404602825641632080e-01 -5.059961676597595215e-01 5.481215715408325195e-01
1.045181602239608765e-02 -6.223359704017639160e-01 5.493909716606140137e-01
3.248831033706665039e-01 -6.089301705360412598e-01 5.829793214797973633e-01
-2.172084301710128784e-01 -6.155613660812377930e-01 5.885632634162902832e-01
1.789519041776657104e-01 -5.246720314025878906e-01 6.047034263610839844e-01
2.379940003156661987e-01 -4.857717454433441162e-01 5.894718170166015625e-01
-1.394627094268798828e-01 -5.644969344139099121e-01 6.012549400329589844e-01
2.285742610692977905e-01 -6.342417597770690918e-01 5.658789277076721191e-01
-1.452344954013824463e-01 -6.206744909286499023e-01 5.562137365341186523e-01
8.714009821414947510e-02 -5.657258629798889160e-01 6.100479364395141602e-01
2.524539828300476074e-01 -5.199797749519348145e-01 6.003820300102233887e-01
-1.914636939764022827e-01 -5.936164259910583496e-01 5.963348150253295898e-01
7.237514108419418335e-02 -4.806061387062072754e-01 5.892683863639831543e-01
-3.453967720270156860e-02 -5.570681095123291016e-01 5.441873073577880859e-01
1.611867994070053101e-01 -6.537672281265258789e-01 5.792534351348876953e-01
-1.805704087018966675e-01 -5.473229885101318359e-01 5.930470228195190430e-01
-1.204038262367248535e-01 -6.288197040557861328e-01 5.563750863075256348e-01
-5.683764815330505371e-02 -5.492333769798278809e-01 5.457028150558471680e-01
5.869560688734054565e-02 -6.446352005004882812e-01 5.575271248817443848e-01
3.216086626052856445e-01 -5.077889561653137207e-01 5.902113318443298340e-01
-3.320160508155822754e-02 -5.228850841522216797e-01 5.481902956962585449e-01
3.366696089506149292e-02 -5.439046025276184082e-01 5.429658889770507812e-01
-3.057736158370971680e-02 -6.279429793357849121e-01 6.034103035926818848e-01
2.926416695117950439e-03 -5.080170035362243652e-01 5.993467569351196289e-01
2.046751379966735840e-01 -5.608404278755187988e-01 5.450382828712463379e-01
3.087705373764038086e-01 -5.290488004684448242e-01 5.970913767814636230e-01
-1.307587623596191406e-01 -5.332437157630920410e-01 5.541470646858215332e-01
-1.701779812574386597e-01 -5.885929465293884277e-01 5.991730093955993652e-01
3.247241377830505371e-01 -4.920586049556732178e-01 5.791304111480712891e-01
6.692731380462646484e-02 -5.657072663307189941e-01 5.420778989791870117e-01
1.421957910060882568e-01 -5.868469476699829102e-01 6.086573004722595215e-01
2.106378078460693359e-01 -4.880832433700561523e-01 5.560488700866699219e-01
-5.302658677101135254e-02 -5.728461742401123047e-01 6.076032519340515137e-01
2.907415330410003662e-01 -5.678140521049499512e-01 6.007709503173828125e-01
1.644002273678779602e-02 -5.431293845176696777e-01 6.076291799545288086e-01
3.566421866416931152e-01 -5.723251104354858398e-01 5.904027223587036133e-01
-1.298435032367706299e-03 -4.783750772476196289e-01 5.785299539566040039e-01
1.924457401037216187e-02 -5.294764637947082520e-01 5.448417663574218750e-01
1.327610164880752563e-01 -6.355027556419372559e-01 5.992220640182495117e-01
-5.557167530059814453e-02 -6.605953574180603027e-01 5.701714754104614258e-01
3.155042529106140137e-01 -4.926378726959228516e-01 5.659803152084350586e-01
1.173541694879531860e-02 -6.274679303169250488e-01 6.042594909667968750e-01
-3.251665830612182617e-02 -6.250102519989013672e-01 5.508392453193664551e-01
-1.532903611660003662e-01 -5.724952220916748047e-01 5.516978502273559570e-01
1.486163735389709473e-01 -5.636320710182189941e-01 5.430489182472229004e-01
-1.529891192913055420e-01 -5.151042342185974121e-01 5.829290747642517090e-01
9.578402340412139893e-02 -6.379495859146118164e-01 5.556027889251708984e-01
-1.557068228721618652e-01 -5.649260282516479492e-01 5.996230244636535645e-01
1.290610730648040771e-01 -6.521483659744262695e-01 5.665289759635925293e-01
1.225192472338676453e-01 -5.005131959915161133e-01 5.494287610054016113e-01
9.537963569164276123e-02 -5.034568309783935547e-01 5.486686229705810547e-01
1.022198349237442017e-01 -5.048084855079650879e-01 6.010251641273498535e-01
-8.866518735885620117e-03 -6.576233506202697754e-01 5.651140809059143066e-01
-1.641553491353988647e-01 -5.220111608505249023e-01 5.645416378974914551e-01
3.765380382537841797e-01 -5.800902843475341797e-01 5.788825154304504395e-01
2.085822522640228271e-01 -6.270055174827575684e-01 5.586122870445251465e-01
-7.650396227836608887e-02 -6.397798061370849609e-01 5.574082136154174805e-01
7.399462163448333740e-03 -6.461791396141052246e-01 5.578028559684753418e-01
-1.730605214834213257e-02 -5.483059883117675781e-01 5.440231561660766602e-01
-2.806231379508972168e-03 -5.071020722389221191e-01 5.505676865577697754e-01
2.290770113468170166e-01 -5.841407775878906250e-01 5.484669804573059082e-01
1.597357392311096191e-01 -6.101921796798706055e-01 5.493808984756469727e-01
1.214215382933616638e-01 -5.382469892501831055e-01 5.430795550346374512e-01
-6.997691094875335693e-02 -6.003571748733520508e-01 5.474470257759094238e-01
1.411683410406112671e-01 -5.783687233924865723e-01 5.436862707138061523e-01
2.845661044120788574e-01 -4.807506501674652100e-01 5.747635960578918457e-01
1.436509191989898682e-01 -6.131841540336608887e-01 5.493761897087097168e-01
1.371690258383750916e-02 -5.878484249114990234e-01 6.094778180122375488e-01
-5.714215338230133057e-02 -5.568314790725708008e-01 6.063850522041320801e-01
-7.873640954494476318e-02 -5.718141794204711914e-01 5.460089445114135742e-01
-2.083461135625839233e-01 -6.294917464256286621e-01 5.703863501548767090e-01
2.533723115921020508e-01 -6.055924892425537109e-01 5.552216172218322754e-01
-1.054093837738037109e-01 -5.524998307228088379e-01 6.027750372886657715e-01
3.516085743904113770e-01 -5.029672980308532715e-01 5.692811608314514160e-01
-8.388198912143707275e-03 -5.376889705657958984e-01 5.446848273277282715e-01
-1.554021090269088745e-01 -6.287927627563476562e-01 5.597837567329406738e-01
-1.102148443460464478e-01 -4.986358284950256348e-01 5.770026445388793945e-01
2.359034866094589233e-01 -5.554046630859375000e-01 6.052294969558715820e-01
1.596921682357788086e-01 -4.965466260910034180e-01 5.510590076446533203e-01
1.109367311000823975e-01 -6.017080545425415039e-01 6.080236434936523438e-01
-1.733467280864715576e-01 -6.340346932411193848e-01 5.645704269409179688e-01
1.477257907390594482e-01 -4.696165919303894043e-01 5.685023069381713867e-01
2.395425438880920410e-01 -5.632538795471191406e-01 5.471227169036865234e-01
-2.341007441282272339e-02 -4.930648505687713623e-01 5.906282067298889160e-01
4.274575412273406982e-02 -6.262101531028747559e-01 6.046146750450134277e-01
3.034283518791198730e-01 -5.910749435424804688e-01 5.573437213897705078e-01
-3.843915462493896484e-02 -4.849528670310974121e-01 5.675481557846069336e-01
3.603804856538772583e-02 -4.860590696334838867e-01 5.572929978370666504e-01
6.890138238668441772e-02 -5.313310027122497559e-01 5.436729192733764648e-01
1.299051195383071899e-01 -6.354181170463562012e-01 5.561123490333557129e-01
9.132527559995651245e-02 -6.271940469741821289e-01 6.036178469657897949e-01
3.425871133804321289e-01 -5.504224300384521484e-01 5.571350455284118652e-01
2.570633888244628906e-01 -6.230332851409912109e-01 5.632198452949523926e-01
-2.137837260961532593e-01 -5.698672533035278320e-01 5.915477275848388672e-01
1.840493679046630859e-01 -5.643140673637390137e-01 5.442553758621215820e-01
1.663105189800262451e-01 -5.257205963134765625e-01 6.052299141883850098e-01
1.567599028348922729e-01 -6.421433687210083008e-01 5.942544937133789062e-01
-1.408018022775650024e-01 -6.517230868339538574e-01 5.833634734153747559e-01
2.984943389892578125e-01 -6.002592444419860840e-01 5.945599079132080078e-01
-8.855724334716796875e-02 -6.219180226325988770e-01 6.023395657539367676e-01
1.611633002758026123e-01 -5.176668763160705566e-01 5.461444258689880371e-01
1.427939906716346741e-02 -6.623623967170715332e-01 5.700137615203857422e-01
2.042294591665267944e-01 -5.833631157875061035e-01 5.468073487281799316e-01
2.951109707355499268e-01 -5.537017583847045898e-01 6.005562543869018555e-01
1.408505737781524658e-01 -5.241058468818664551e-01 5.447977185249328613e-01
-2.181267291307449341e-01 -5.814152359962463379e-01 5.608179569244384766e-01
1.663192063570022583e-01 -5.433471202850341797e-01 6.075145006179809570e-01
3.869140744209289551e-01 -5.272580981254577637e-01 5.711653232574462891e-01
3.418867588043212891e-01 -4.969492554664611816e-01 5.771287679672241211e-01
2.172824442386627197e-01 -5.661630630493164062e-01 6.063908338546752930e-01
2.562098205089569092e-01 -5.508629083633422852e-01 5.479041934013366699e-01
2.514648437500000000e-01 -6.037920117378234863e-01 5.996723771095275879e-01
1.814551800489425659e-01 -5.362338423728942871e-01 5.445591211318969727e-01
2.433578073978424072e-01 -5.761535167694091797e-01 6.043696999549865723e-01
7.113240659236907959e-02 -6.270336508750915527e-01 5.509687066078186035e-01
-1.881349235773086548e-01 -6.221941709518432617e-01 5.925151705741882324e-01
2.819818258285522461e-01 -5.611093044281005859e-01 5.503267049789428711e-01
-1.303041428327560425e-01 -5.557358860969543457e-01 5.503988265991210938e-01
-2.033310383558273315e-01 -5.336069464683532715e-01 5.713575482368469238e-01
1.059463620185852051e-01 -5.636923313140869141e-01 6.098533272743225098e-01
3.448938205838203430e-02 -5.147917270660400391e-01 5.470395088195800781e-01
3.697681427001953125e-01 -5.518915653228759766e-01 5.892902016639709473e-01
-2.103864997625350952e-01 -5.911713242530822754e-01 5.596748590469360352e-01
6.115372106432914734e-02 -5.766068100929260254e-01 6.101663112640380859e-01
-5.507354438304901123e-02 -5.789185166358947754e-01 5.450205802917480469e-01
1.186885237693786621e-01 -5.806158781051635742e-01 6.095716357231140137e-01
1.369877159595489502e-01 -5.383462905883789062e-01 5.432925820350646973e-01
-1.755171716213226318e-01 -6.292417049407958984e-01 5.922226905822753906e-01
5.011296272277832031e-02 -5.762864351272583008e-01 5.425052642822265625e-01
9.586733579635620117e-02 -4.705675244331359863e-01 5.681741237640380859e-01
9.550685435533523560e-02 -5.298786163330078125e-01 6.067528724670410156e-01
-1.117285639047622681e-01 -5.352742671966552734e-01 5.989077687263488770e-01
1.717163026332855225e-01 -6.430172920227050781e-01 5.920699834823608398e-01
-1.289574950933456421e-01 -5.969999432563781738e-01 5.506355166435241699e-01
2.438186109066009521e-01 -5.083968639373779297e-01 5.513950586318969727e-01
6.555187702178955078e-02 -5.633337497711181641e-01 6.099884510040283203e-01
1.063697785139083862e-01 -5.597186684608459473e-01 5.421946644783020020e-01
-1.590236276388168335e-01 -6.494109630584716797e-01 5.771397948265075684e-01
-6.345240771770477295e-02 -5.270585417747497559e-01 6.009329557418823242e-01
-1.358158737421035767e-01 -5.779187083244323730e-01 5.500401258468627930e-01
1.725828647613525391e-01 -4.911359846591949463e-01 5.954505205154418945e-01
1.585917174816131592e-02 -6.481063365936279297e-01 5.972506403923034668e-01
-1.564412564039230347e-02 -5.505123734474182129e-01 6.075238585472106934e-01
2.859061956405639648e-01 -5.282455086708068848e-01 5.992420911788940430e-01
-1.181839704513549805e-01 -5.830270648002624512e-01 5.487837791442871094e-01
3.104233741760253906e-01 -6.012547016143798828e-01 5.920725464820861816e-01
1.003148108720779419e-01 -6.516969799995422363e-01 5.927001833915710449e-01
1.828329861164093018e-01 -4.843494892120361328e-01 5.918166637420654297e-01
4.870818555355072021e-02 -4.780953824520111084e-01 5.622298717498779297e-01
-7.635006308555603027e-02 -5.596042275428771973e-01 6.055927872657775879e-01
1.503342986106872559e-01 -5.476551651954650879e-01 6.082835793495178223e-01
1.849402189254760742e-01 -5.387293100357055664e-01 6.064751744270324707e-01
1.373272389173507690e-01 -6.446449756622314453e-01 5.614764690399169922e-01
3.764672949910163879e-02 -6.580420732498168945e-01 5.907712578773498535e-01
9.613200277090072632e-02 -5.876502990722656250e-01 6.095846891403198242e-01
1.964961588382720947e-01 -4.883429706096649170e-01 5.933603644371032715e-01
-1.535496860742568970e-01 -5.909661054611206055e-01 5.522307157516479492e-01
1.150733530521392822e-01 -5.158122181892395020e-01 5.458493232727050781e-01
2.829006314277648926e-01 -5.739149451255798340e-01 5.515988469123840332e-01
1.367145180702209473e-01 -5.963935256004333496e-01 5.457230806350708008e-01
1.745475456118583679e-02 -4.807884097099304199e-01 5.853605270385742188e-01
2.453630417585372925e-02 -4.952061176300048828e-01 5.953459739685058594e-01
-9.940887987613677979e-02 -6.540449261665344238e-01 5.675523281097412109e-01
-3.050477057695388794e-02 -5.629913806915283203e-01 6.080555319786071777e-01
3.492149114608764648e-01 -5.841589570045471191e-01 5.893083214759826660e-01
2.604784369468688965e-01 -5.589843988418579102e-01 6.036226749420166016e-01
1.237750947475433350e-01 -6.142781972885131836e-01 6.056444048881530762e-01
2.946373224258422852e-01 -6.208688616752624512e-01 5.717307925224304199e-01
6.908196955919265747e-02 -4.921664893627166748e-01 5.957521796226501465e-01
3.271782025694847107e-02 -5.225285887718200684e-01 6.044903397560119629e-01
-1.365526765584945679e-02 -5.324162244796752930e-01 6.049148440361022949e-01
1.087422668933868408e-01 -6.580403447151184082e-01 5.854868292808532715e-01
-1.494681984186172485e-01 -6.377330422401428223e-01 5.925111770629882812e-01
1.808559894561767578e-01 -6.313615441322326660e-01 5.579430460929870605e-01
-6.746299564838409424e-02 -4.977691173553466797e-01 5.882524251937866211e-01
-8.548095822334289551e-02 -5.995908975601196289e-01 5.481126904487609863e-01
-7.070223987102508545e-02 -5.844531059265136719e-01 6.068953871726989746e-01
-5.192308127880096436e-02 -5.013692378997802734e-01 5.565196871757507324e-01
-1.822537630796432495e-01 -6.053481698036193848e-01 5.571119189262390137e-01
-7.122121751308441162e-02 -4.894091486930847168e-01 5.763888359069824219e-01
1.358712315559387207e-01 -4.771071672439575195e-01 5.599944591522216797e-01
-6.928370893001556396e-02 -6.260390281677246094e-01 6.024465560913085938e-01
1.717159748077392578e-01 -5.696106553077697754e-01 6.083989739418029785e-01
-6.415073573589324951e-02 -5.628352761268615723e-01 5.453361272811889648e-01
1.770872771739959717e-01 -5.927763581275939941e-01 6.067988872528076172e-01
1.272633075714111328e-01 -5.942928194999694824e-01 6.084483861923217773e-01
6.795497983694076538e-02 -5.107592940330505371e-01 5.471771359443664551e-01
3.770789504051208496e-01 -5.180639028549194336e-01 5.799984335899353027e-01
-2.531265616416931152e-01 -5.941204428672790527e-01 5.774678587913513184e-01
1.562027931213378906e-01 -4.878458380699157715e-01 5.943055152893066406e-01
1.431928575038909912e-01 -5.254191756248474121e-01 6.056486964225769043e-01
3.700768947601318359e-01 -5.273804664611816406e-01 5.865359306335449219e-01
3.636112809181213379e-01 -5.396785736083984375e-01 5.901427268981933594e-01
3.140524923801422119e-01 -5.035791397094726562e-01 5.597566962242126465e-01
-8.688330650329589844e-02 -5.895491838455200195e-01 6.059399843215942383e-01
6.165057420730590820e-02 -6.621717214584350586e-01 5.721260309219360352e-01
2.716894745826721191e-01 -4.791502952575683594e-01 5.703430771827697754e-01
-6.810703873634338379e-02 -6.622855663299560547e-01 5.814220309257507324e-01
-3.210059553384780884e-02 -5.856408476829528809e-01 6.084502935409545898e-01
8.749593794345855713e-02 -5.742962956428527832e-01 5.424603223800659180e-01
2.445707097649574280e-02 -6.134380698204040527e-01 6.071127057075500488e-01
2.922610640525817871e-01 -4.897033572196960449e-01 5.854974985122680664e-01
2.751696705818176270e-01 -5.118916630744934082e-01 5.968109369277954102e-01
7.604780793190002441e-02 -6.510549783706665039e-01 5.617560744285583496e-01
1.636604368686676025e-01 -5.495941042900085449e-01 5.433958768844604492e-01
-1.910667866468429565e-02 -6.135410666465759277e-01 5.478735566139221191e-01
3.444228768348693848e-01 -5.787800550460815430e-01 5.612301826477050781e-01
7.739774882793426514e-02 -6.603667736053466797e-01 5.859837532043457031e-01
7.963698357343673706e-02 -5.411024689674377441e-01 6.083014011383056641e-01
-1.930150538682937622e-01 -5.389525890350341797e-01 5.632100105285644531e-01
-1.497616320848464966e-01 -6.390029191970825195e-01 5.635355710983276367e-01
2.414498478174209595e-01 -5.503259301185607910e-01 5.469067692756652832e-01
2.834402620792388916e-01 -6.261010169982910156e-01 5.803466439247131348e-01
8.103277534246444702e-02 -4.911478757858276367e-01 5.530261993408203125e-01
8.345341682434082031e-02 -5.091239809989929199e-01 6.021332144737243652e-01
8.154354989528656006e-03 -4.961709976196289062e-01 5.539261698722839355e-01
-2.276032418012619019e-02 -6.591992974281311035e-01 5.668343305587768555e-01
3.569799065589904785e-01 -5.945937633514404297e-01 5.752849578857421875e-01
6.699552386999130249e-02 -1.549569070339202881e-01 5.588813424110412598e-01
6.969694048166275024e-02 -1.466444432735443115e-01 5.475903749465942383e-01
1.109014451503753662e-01 -7.954749464988708496e-02 5.573582053184509277e-01
7.435595244169235229e-02 -1.097562834620475769e-01 5.520843267440795898e-01
9.821031987667083740e-02 -1.060016229748725891e-01 5.422558784484863281e-01
8.679196238517761230e-02 -7.898063957691192627e-02 5.672031641006469727e-01
9.672471880912780762e-02 -8.244238048791885376e-02 5.554710626602172852e-01
7.727757841348648071e-02 -9.221059828996658325e-02 5.638455152511596680e-01
1.240911483764648438e-01 -1.181464940309524536e-01 5.698793530464172363e-01
8.863967657089233398e-02 -1.405882984399795532e-01 5.884920358657836914e-01
9.129846841096878052e-02 -1.009997874498367310e-01 5.454134941101074219e-01
1.178657785058021545e-01 -6.982039660215377808e-02 5.831693410873413086e-01
8.616083115339279175e-02 -7.676465809345245361e-02 5.746922492980957031e-01
6.507399678230285645e-02 -1.483241468667984009e-01 5.665558576583862305e-01
9.005328267812728882e-02 -1.609246879816055298e-01 5.703367590904235840e-01
1.115733087062835693e-01 -1.137968823313713074e-01 5.930419564247131348e-01
9.810429811477661133e-02 -9.080781042575836182e-02 5.995131134986877441e-01
1.035557314753532410e-01 -9.984962642192840576e-02 5.447688102722167969e-01
1.247199624776840210e-01 -9.973152726888656616e-02 5.826002359390258789e-01
1.205822303891181946e-01 -1.238490715622901917e-01 5.554789900779724121e-01
6.753841042518615723e-02 -1.560342013835906982e-01 5.620489716529846191e-01
7.776533067226409912e-02 -1.010064706206321716e-01 5.913861393928527832e-01
8.734586089849472046e-02 -7.961081713438034058e-02 5.895246267318725586e-01
9.457566589117050171e-02 -7.522360235452651978e-02 5.922185778617858887e-01
7.267905771732330322e-02 -1.627306640148162842e-01 5.572039484977722168e-01
1.050379946827888489e-01 -1.223587468266487122e-01 5.401000380516052246e-01
1.222511231899261475e-01 -1.024819910526275635e-01 5.862529873847961426e-01
9.280725568532943726e-02 -1.391147226095199585e-01 5.375816822052001953e-01
1.170278638601303101e-01 -7.701934874057769775e-02 5.626748204231262207e-01
6.561702489852905273e-02 -1.516126543283462524e-01 5.602697730064392090e-01
9.535412490367889404e-02 -6.904861330986022949e-02 5.775589942932128906e-01
7.692163437604904175e-02 -1.513033658266067505e-01 5.425266027450561523e-01
8.427409082651138306e-02 -1.129025816917419434e-01 5.964488387107849121e-01
1.197410300374031067e-01 -1.123511120676994324e-01 5.858721733093261719e-01
1.007636338472366333e-01 -1.497457474470138550e-01 5.773813128471374512e-01
8.350860327482223511e-02 -1.407877802848815918e-01 5.384972095489501953e-01
1.167077422142028809e-01 -1.375499814748764038e-01 5.636069774627685547e-01
1.261264383792877197e-01 -8.473937213420867920e-02 5.752972364425659180e-01
6.331919133663177490e-02 -1.386267542839050293e-01 5.629039406776428223e-01
9.351811558008193970e-02 -1.429850608110427856e-01 5.864592790603637695e-01
6.547743082046508789e-02 -1.201495081186294556e-01 5.621201992034912109e-01
8.292591571807861328e-02 -9.034623950719833374e-02 5.924884676933288574e-01
8.364495635032653809e-02 -8.201668411493301392e-02 5.674087405204772949e-01
7.029512524604797363e-02 -1.025518998503684998e-01 5.679512023925781250e-01
1.045465245842933655e-01 -6.838764250278472900e-02 5.693644881248474121e-01
6.425848603248596191e-02 -1.260588616132736206e-01 5.726770758628845215e-01
1.117220371961593628e-01 -1.459533274173736572e-01 5.621628165245056152e-01
7.940725982189178467e-02 -1.320250332355499268e-01 5.904344916343688965e-01
6.606538593769073486e-02 -1.151146888732910156e-01 5.661002993583679199e-01
8.971516788005828857e-02 -7.444854825735092163e-02 5.855504870414733887e-01
7.391998171806335449e-02 -1.634306013584136963e-01 5.612110495567321777e-01
9.219097346067428589e-02 -1.638518273830413818e-01 5.534144043922424316e-01
1.254704743623733521e-01 -1.065562441945075989e-01 5.618237853050231934e-01
7.548165321350097656e-02 -1.133147776126861572e-01 5.488915443420410156e-01
9.064766764640808105e-02 -7.914115488529205322e-02 5.623044371604919434e-01
9.775871783494949341e-02 -9.871032088994979858e-02 5.451823472976684570e-01
1.154723539948463440e-01 -6.848032027482986450e-02 5.731642842292785645e-01
8.008760958909988403e-02 -1.434152424335479736e-01 5.857248902320861816e-01
7.133980840444564819e-02 -1.190889328718185425e-01 5.506772398948669434e-01
1.223663762211799622e-01 -7.512405514717102051e-02 5.736534595489501953e-01
7.533892989158630371e-02 -1.019092127680778503e-01 5.887878537178039551e-01
6.732390820980072021e-02 -1.356976032257080078e-01 5.792486071586608887e-01
9.985272586345672607e-02 -8.472912013530731201e-02 5.985561609268188477e-01
9.358533471822738647e-02 -1.636175811290740967e-01 5.576256513595581055e-01
1.178836971521377563e-01 -1.102075874805450439e-01 5.491027235984802246e-01
1.243558526039123535e-01 -8.693391084671020508e-02 5.643621683120727539e-01
1.133895963430404663e-01 -8.221028745174407959e-02 5.563745498657226562e-01
1.041673496365547180e-01 -1.529334038496017456e-01 5.504430532455444336e-01
1.188196688890457153e-01 -7.688499987125396729e-02 5.892305374145507812e-01
6.713880598545074463e-02 -1.517557203769683838e-01 5.536317825317382812e-01
1.234010308980941772e-01 -7.663510739803314209e-02 5.785037875175476074e-01
8.743402361869812012e-02 -1.478872150182723999e-01 5.839855670928955078e-01
8.548268675804138184e-02 -1.584103405475616455e-01 5.432034730911254883e-01
8.172427862882614136e-02 -9.375178813934326172e-02 5.558064579963684082e-01
1.044580042362213135e-01 -1.549907922744750977e-01 5.610596537590026855e-01
7.258579134941101074e-02 -1.575775146484375000e-01 5.486918091773986816e-01
1.226511597633361816e-01 -1.128741800785064697e-01 5.558187961578369141e-01
9.559483826160430908e-02 -7.870019972324371338e-02 5.952326059341430664e-01
1.208913400769233704e-01 -1.055433601140975952e-01 5.529204607009887695e-01
1.128204017877578735e-01 -1.326001733541488647e-01 5.813910961151123047e-01
1.188734471797943115e-01 -1.168160885572433472e-01 5.846822261810302734e-01
9.966920316219329834e-02 -7.154925912618637085e-02 5.660880804061889648e-01
8.164000511169433594e-02 -1.101791262626647949e-01 5.953947305679321289e-01
6.790767610073089600e-02 -1.176578253507614136e-01 5.813983678817749023e-01
1.072405129671096802e-01 -1.056276485323905945e-01 5.974938273429870605e-01
8.079788088798522949e-02 -1.658567786216735840e-01 5.532230734825134277e-01
7.079586386680603027e-02 -1.589097082614898682e-01 5.526495575904846191e-01
1.008019149303436279e-01 -1.359465122222900391e-01 5.883818864822387695e-01
6.875834614038467407e-02 -1.537714004516601562e-01 5.699413418769836426e-01
9.324441105127334595e-02 -1.035440117120742798e-01 5.994126796722412109e-01
9.825026243925094604e-02 -1.224387586116790771e-01 5.954781174659729004e-01
8.914515376091003418e-02 -1.421046704053878784e-01 5.377912521362304688e-01
8.165082335472106934e-02 -1.171498969197273254e-01 5.948681235313415527e-01
7.257028669118881226e-02 -1.321628987789154053e-01 5.451425909996032715e-01
1.107051521539688110e-01 -6.575796008110046387e-02 5.828754901885986328e-01
1.245627701282501221e-01 -8.142016828060150146e-02 5.810641646385192871e-01
1.166485473513603210e-01 -1.202833205461502075e-01 5.480032563209533691e-01
6.540837138891220093e-02 -1.246077269315719604e-01 5.587713122367858887e-01
8.630656450986862183e-02 -1.338539272546768188e-01 5.378955006599426270e-01
9.177048504352569580e-02 -8.919633179903030396e-02 5.977821946144104004e-01
8.352515101432800293e-02 -1.102168485522270203e-01 5.444657206535339355e-01
9.054181724786758423e-02 -8.875408023595809937e-02 5.531677007675170898e-01
7.345783710479736328e-02 -1.625650078058242798e-01 5.537908077239990234e-01
7.761998474597930908e-02 -1.048863530158996582e-01 5.515992641448974609e-01
8.534742891788482666e-02 -7.882326841354370117e-02 5.849077701568603516e-01
7.001078128814697266e-02 -1.087578684091567993e-01 5.826299190521240234e-01
8.909497410058975220e-02 -1.655279248952865601e-01 5.577594041824340820e-01
1.063075214624404907e-01 -6.700941920280456543e-02 5.718495845794677734e-01
8.390605449676513672e-02 -1.629199236631393433e-01 5.688506364822387695e-01
1.043145954608917236e-01 -1.489373743534088135e-01 5.747951269149780273e-01
1.128065958619117737e-01 -1.414479762315750122e-01 5.711422562599182129e-01
9.539819508790969849e-02 -9.873196482658386230e-02 5.997636914253234863e-01
8.706717938184738159e-02 -1.047080159187316895e-01 5.452251434326171875e-01
1.194046139717102051e-01 -9.775058925151824951e-02 5.909277796745300293e-01
8.770186454057693481e-02 -1.654732525348663330e-01 5.613089203834533691e-01
1.167586967349052429e-01 -1.165515035390853882e-01 5.478292703628540039e-01
7.699843496084213257e-02 -1.402703821659088135e-01 5.860635638236999512e-01
1.264669895172119141e-01 -9.897267818450927734e-02 5.650191903114318848e-01
1.025505661964416504e-01 -1.066486239433288574e-01 5.423018932342529297e-01
8.830941468477249146e-02 -9.161958098411560059e-02 5.522947311401367188e-01
1.223828047513961792e-01 -1.219214051961898804e-01 5.726845860481262207e-01
1.175170838832855225e-01 -1.348320990800857544e-01 5.687391161918640137e-01
7.611320167779922485e-02 -1.211258396506309509e-01 5.911667346954345703e-01
9.263587743043899536e-02 -1.347737759351730347e-01 5.373409390449523926e-01
1.111107468605041504e-01 -1.467377543449401855e-01 5.585408210754394531e-01
8.412465453147888184e-02 -1.652907580137252808e-01 5.638626813888549805e-01
6.589192152023315430e-02 -1.389534920454025269e-01 5.755800008773803711e-01
9.220799058675765991e-02 -9.537093341350555420e-02 5.480821132659912109e-01
8.558110147714614868e-02 -1.492729485034942627e-01 5.393148064613342285e-01
1.239606812596321106e-01 -9.421322494745254517e-02 5.852110981941223145e-01
1.035063341259956360e-01 -1.147404015064239502e-01 5.965930819511413574e-01
8.842881023883819580e-02 -9.638421237468719482e-02 5.490600466728210449e-01
9.641481935977935791e-02 -7.799227535724639893e-02 5.597397685050964355e-01
8.304277807474136353e-02 -1.059089004993438721e-01 5.961112976074218750e-01
8.535537868738174438e-02 -1.305343210697174072e-01 5.383899211883544922e-01
9.814035147428512573e-02 -6.790694594383239746e-02 5.756526589393615723e-01
1.221301704645156860e-01 -1.002725660800933838e-01 5.554232597351074219e-01
8.901651203632354736e-02 -1.332826614379882812e-01 5.920531153678894043e-01
1.123659089207649231e-01 -7.745739817619323730e-02 5.595738887786865234e-01
1.187330856919288635e-01 -1.316704452037811279e-01 5.704957246780395508e-01
1.104621589183807373e-01 -1.018040999770164490e-01 5.458837151527404785e-01
8.558702468872070312e-02 -8.205009996891021729e-02 5.641227364540100098e-01
1.157976016402244568e-01 -1.322568207979202271e-01 5.772562026977539062e-01
1.143598034977912903e-01 -1.301330626010894775e-01 5.476043224334716797e-01
6.508655846118927002e-02 -1.481287777423858643e-01 5.575422644615173340e-01
7.459051162004470825e-02 -9.268089383840560913e-02 5.769017934799194336e-01
1.075992286205291748e-01 -1.481703817844390869e-01 5.501507520675659180e-01
1.082796454429626465e-01 -1.496288776397705078e-01 5.542605519294738770e-01
6.708819419145584106e-02 -1.396999061107635498e-01 5.508421659469604492e-01
9.750231355428695679e-02 -1.470978856086730957e-01 5.819999575614929199e-01
6.681858003139495850e-02 -1.213712990283966064e-01 5.570865869522094727e-01
7.556923478841781616e-02 -1.334936022758483887e-01 5.425252914428710938e-01
7.991721481084823608e-02 -1.607200205326080322e-01 5.715317726135253906e-01
9.152394533157348633e-02 -1.220909431576728821e-01 5.384836196899414062e-01
1.115752980113029480e-01 -1.279319077730178833e-01 5.861446857452392578e-01
1.011451780796051025e-01 -1.257669031620025635e-01 5.934322476387023926e-01
7.079012691974639893e-02 -1.148753985762596130e-01 5.537178516387939453e-01
9.553592652082443237e-02 -1.569014489650726318e-01 5.727887153625488281e-01
9.594655036926269531e-02 -1.610439866781234741e-01 5.645291805267333984e-01
1.215573027729988098e-01 -1.252362430095672607e-01 5.706059932708740234e-01
1.070978268980979919e-01 -1.074452698230743408e-01 5.430964231491088867e-01
1.153012812137603760e-01 -6.879292428493499756e-02 5.855757594108581543e-01
1.049783825874328613e-01 -1.448955535888671875e-01 5.786736607551574707e-01
9.469117969274520874e-02 -1.573601663112640381e-01 5.450561046600341797e-01
9.544760733842849731e-02 -1.592631489038467407e-01 5.691538453102111816e-01
1.033154651522636414e-01 -7.260556519031524658e-02 5.934778451919555664e-01
9.341100603342056274e-02 -1.507108062505722046e-01 5.806379914283752441e-01
7.280775904655456543e-02 -1.508828550577163696e-01 5.772498250007629395e-01
1.150454133749008179e-01 -9.629639983177185059e-02 5.948437452316284180e-01
1.264423727989196777e-01 -8.971910178661346436e-02 5.687230825424194336e-01
6.860633939504623413e-02 -1.065761372447013855e-01 5.682048201560974121e-01
1.139370054006576538e-01 -1.413794010877609253e-01 5.676856637001037598e-01
7.496741414070129395e-02 -1.176160499453544617e-01 5.905863046646118164e-01
9.631390869617462158e-02 -1.131532788276672363e-01 5.401363372802734375e-01
8.278675377368927002e-02 -1.024230495095252991e-01 5.957106351852416992e-01
1.107129305601119995e-01 -6.958486884832382202e-02 5.677214264869689941e-01
1.017643809318542480e-01 -1.137773469090461731e-01 5.403721332550048828e-01
1.098995357751846313e-01 -1.471674442291259766e-01 5.674272775650024414e-01
1.146805882453918457e-01 -8.657908439636230469e-02 5.543032884597778320e-01
8.347241580486297607e-02 -1.608851552009582520e-01 5.718726515769958496e-01
1.092601343989372253e-01 -1.049078181385993958e-01 5.445102453231811523e-01
9.249570965766906738e-02 -1.506815254688262939e-01 5.401582121849060059e-01
6.965650618076324463e-02 -1.533149480819702148e-01 5.498040318489074707e-01
7.182298600673675537e-02 -1.223802268505096436e-01 5.486828088760375977e-01
9.517025947570800781e-02 -1.039103418588638306e-01 5.432705879211425781e-01
1.076252087950706482e-01 -1.471105515956878662e-01 5.726381540298461914e-01
1.062467023730278015e-01 -1.149450540542602539e-01 5.413017868995666504e-01
1.247010380029678345e-01 -1.106249094009399414e-01 5.604188442230224609e-01
1.093670278787612915e-01 -8.639410138130187988e-02 5.523037314414978027e-01
1.064782217144966125e-01 -9.982395917177200317e-02 5.986084938049316406e-01
8.280230313539505005e-02 -1.199171915650367737e-01 5.413925647735595703e-01
9.853719174861907959e-02 -9.503910690546035767e-02 5.998780727386474609e-01
