-5.568045973777770996e-01 -1.900056004524230957e-02 7.798892259597778320e-02
-2.773364484310150146e-01 4.943281412124633789e-03 -2.441400289535522461e-01
-9.372375011444091797e-01 1.003095507621765137e-02 -1.899115741252899170e-01
-7.504575848579406738e-01 8.178979158401489258e-02 -1.543238759040832520e-03
-6.057847738265991211e-01 1.234593838453292847e-01 -5.887073278427124023e-02
-9.221427440643310547e-01 5.520232021808624268e-03 -8.725466579198837280e-02
-4.958161711692810059e-01 -1.765101552009582520e-01 7.941579818725585938e-02
-4.997580945491790771e-01 1.572553664445877075e-01 -3.024433553218841553e-01
-3.006690442562103271e-01 2.353124320507049561e-02 -3.398405909538269043e-01
-6.585346460342407227e-01 -2.058869451284408569e-01 7.210034132003784180e-02
-6.098501682281494141e-01 -2.217104434967041016e-01 6.622469425201416016e-02
-8.906531929969787598e-01 9.589253365993499756e-02 -1.681558638811111450e-01
-5.655944943428039551e-01 -2.985988259315490723e-01 -1.649007350206375122e-01
-4.052420854568481445e-01 -2.773956954479217529e-01 -2.347820252180099487e-01
-7.161336541175842285e-01 -7.975067198276519775e-02 -4.606134891510009766e-01
-6.219586133956909180e-01 9.092079102993011475e-02 -5.381047725677490234e-03
-8.398013710975646973e-01 1.790792495012283325e-02 -3.973779082298278809e-01
-3.273302018642425537e-01 1.000881940126419067e-02 -4.102568924427032471e-01
-6.411969661712646484e-01 1.086668521165847778e-01 -2.768044173717498779e-02
-4.512332677841186523e-01 1.387294381856918335e-01 -2.478579580783843994e-01
-6.524498462677001953e-01 -7.244263589382171631e-02 1.075539588928222656e-01
-8.970725536346435547e-01 6.551472842693328857e-02 -1.034249812364578247e-01
-3.819463849067687988e-01 -2.288856208324432373e-01 -1.833662390708923340e-02
-6.335925459861755371e-01 1.723960340023040771e-01 -1.832299381494522095e-01
-5.968526601791381836e-01 1.686417758464813232e-01 -1.831094175577163696e-01
-4.195348024368286133e-01 -2.237643301486968994e-01 1.588186621665954590e-02
-7.576969861984252930e-01 -2.437212020158767700e-01 -8.387528359889984131e-02
-2.645730376243591309e-01 -1.054649502038955688e-01 -1.225008815526962280e-01
-6.551657915115356445e-01 1.818428635597229004e-01 -2.624123990535736084e-01
-3.818649947643280029e-01 9.162728488445281982e-02 -3.634043335914611816e-01
-3.602969348430633545e-01 2.204887568950653076e-02 -7.874090969562530518e-02
-5.887274742126464844e-01 5.507421493530273438e-02 2.920970320701599121e-02
-6.183043122291564941e-01 -2.284250259399414062e-01 -3.576652705669403076e-01
-3.988596796989440918e-01 -1.824034452438354492e-01 2.909813821315765381e-02
-7.962079644203186035e-01 -3.153809532523155212e-02 -4.297027587890625000e-01
-7.261150479316711426e-01 -1.094469204545021057e-01 9.686741232872009277e-02
-7.109538912773132324e-01 2.921660989522933960e-02 -4.831086993217468262e-01
-8.164628744125366211e-01 -2.050204873085021973e-01 -6.902639567852020264e-02
-7.352216243743896484e-01 -2.429537326097488403e-01 -2.274654656648635864e-01
-7.937253713607788086e-01 -2.101863622665405273e-01 -2.303554862737655640e-01
-5.595018863677978516e-01 1.241659522056579590e-01 -4.461293220520019531e-01
-4.332666695117950439e-01 1.116652488708496094e-01 -1.581451594829559326e-01
-2.814703285694122314e-01 -2.094347923994064331e-01 -2.261474430561065674e-01
-3.936997652053833008e-01 -5.026621371507644653e-02 -4.808166921138763428e-01
-7.337285280227661133e-01 1.785938441753387451e-02 6.044450402259826660e-02
-4.332011640071868896e-01 4.098230600357055664e-02 -4.780303835868835449e-01
-4.897369742393493652e-01 -2.234503179788589478e-01 -3.869933485984802246e-01
-5.906661152839660645e-01 -8.985984325408935547e-02 1.079607009887695312e-01
-7.910584211349487305e-01 -1.617923378944396973e-01 4.149568080902099609e-02
-6.741434931755065918e-01 -2.139847874641418457e-01 -3.525620102882385254e-01
-5.511898398399353027e-01 -1.879968345165252686e-01 -4.288397431373596191e-01
-3.608052730560302734e-01 -9.020199626684188843e-02 -4.554058313369750977e-01
-5.934903025627136230e-01 -1.655943989753723145e-01 -4.439492225646972656e-01
-4.054377675056457520e-01 -2.018489539623260498e-01 -3.958241343498229980e-01
-5.467259883880615234e-01 1.553260684013366699e-01 -1.668622195720672607e-01
-8.563218712806701660e-01 -1.364866197109222412e-01 -8.211940526962280273e-03
-6.762498021125793457e-01 -2.697928845882415771e-01 -4.848408699035644531e-02
-4.413974583148956299e-01 1.255279928445816040e-01 -1.932317763566970825e-01
-6.669701337814331055e-01 -2.812330424785614014e-01 -1.184982508420944214e-01
-6.367135643959045410e-01 -1.899486184120178223e-01 -4.046473801136016846e-01
-2.987111210823059082e-01 -2.284293770790100098e-01 -1.843761205673217773e-01
-6.896775960922241211e-01 9.380479156970977783e-02 -5.646422505378723145e-03
-3.286641538143157959e-01 3.772275894880294800e-02 -1.550816446542739868e-01
-3.375996947288513184e-01 6.054947525262832642e-02 -3.502059876918792725e-01
-6.111016869544982910e-01 -2.916901111602783203e-01 -9.002692252397537231e-02
-7.851418852806091309e-01 -2.090762853622436523e-01 -1.564924418926239014e-02
-5.797072052955627441e-01 -2.866336107254028320e-01 -4.317548871040344238e-02
-4.959993660449981689e-01 -2.773544788360595703e-01 -2.803536355495452881e-01
-2.543119490146636963e-01 -6.521241366863250732e-02 -1.770969331264495850e-01
-8.041513562202453613e-01 -5.784842744469642639e-02 6.367224454879760742e-02
-4.514417648315429688e-01 -1.490145027637481689e-01 6.869998574256896973e-02
-4.698812067508697510e-01 -2.814436554908752441e-01 -2.627299129962921143e-01
-7.274855375289916992e-01 1.760206520557403564e-01 -2.427309900522232056e-01
-8.824040889739990234e-01 5.008969455957412720e-02 -5.728639662265777588e-02
-6.897801160812377930e-01 7.047872245311737061e-02 2.191966772079467773e-02
-2.596173882484436035e-01 -2.969309315085411072e-02 -2.216584086418151855e-01
-8.824179172515869141e-01 -1.359128952026367188e-01 -2.216321527957916260e-01
-5.393818616867065430e-01 -2.372552007436752319e-01 -3.643690943717956543e-01
-8.328692913055419922e-01 1.273965388536453247e-01 -1.362680494785308838e-01
-8.566042184829711914e-01 -1.540072858333587646e-01 -3.192715346813201904e-02
-8.180968761444091797e-01 -9.060569107532501221e-02 -3.807816505432128906e-01
-8.987383842468261719e-01 9.122651815414428711e-02 -2.002670615911483765e-01
-3.269638419151306152e-01 5.273913592100143433e-02 -2.015618830919265747e-01
-9.179751873016357422e-01 5.059396475553512573e-02 -2.502773702144622803e-01
-6.140961050987243652e-01 -2.692577242851257324e-01 -2.718876600265502930e-01
-8.592556118965148926e-01 -1.689056456089019775e-01 -7.448299229145050049e-02
-4.864619970321655273e-01 9.276151657104492188e-02 -6.389883160591125488e-02
-7.850601673126220703e-01 3.657372295856475830e-02 -4.410857260227203369e-01
-2.788881957530975342e-01 -1.045595854520797729e-03 -2.058196067810058594e-01
-8.082574009895324707e-01 1.409000456333160400e-01 -3.202094435691833496e-01
-4.563923478126525879e-01 -2.955149710178375244e-01 -1.759284585714340210e-01
-2.915137112140655518e-01 -1.337987929582595825e-01 -6.980331242084503174e-02
-8.325185775756835938e-01 1.382300406694412231e-01 -1.805161386728286743e-01
-4.781380295753479004e-01 -5.776290595531463623e-02 -5.069352388381958008e-01
-6.936736106872558594e-01 1.076118797063827515e-01 -4.522370100021362305e-01
-6.764710545539855957e-01 1.863143593072891235e-02 -4.970691204071044922e-01
-3.970841765403747559e-01 -1.428320407867431641e-01 3.809157013893127441e-02
-7.394646406173706055e-01 -5.998405441641807556e-02 -4.572623670101165771e-01
4.335407018661499023e-01 -3.405401855707168579e-02 -2.519875764846801758e-02
5.706994533538818359e-01 -1.596002578735351562e-01 -5.634852051734924316e-01
6.488540172576904297e-01 -1.557132303714752197e-01 -5.705870389938354492e-01
7.320691347122192383e-01 -1.634795665740966797e-01 -1.112471520900726318e-01
7.998789548873901367e-01 5.021265149116516113e-02 -9.795585274696350098e-02
6.060022115707397461e-01 6.251631677150726318e-02 5.736333131790161133e-02
4.113199114799499512e-01 -2.324418127536773682e-01 -2.677564918994903564e-01
5.871430039405822754e-01 -2.322326749563217163e-01 -1.225154548883438110e-01
4.585616886615753174e-01 1.279349476099014282e-01 -3.053736090660095215e-01
3.839563131332397461e-01 -1.145813986659049988e-02 -3.363045156002044678e-01
7.725734114646911621e-01 -2.754868268966674805e-01 -3.024404346942901611e-01
5.749220848083496094e-01 6.004740297794342041e-02 5.967471003532409668e-02
6.872619986534118652e-01 3.610992431640625000e-02 -4.586323201656341553e-01
5.608915090560913086e-01 -1.075465902686119080e-01 -1.409496366977691650e-02
6.479369401931762695e-01 2.306086719036102295e-01 -2.477803826332092285e-02
3.929523825645446777e-01 -1.487589180469512939e-01 -3.966320753097534180e-01
6.346282362937927246e-01 -3.714594244956970215e-01 -4.494124948978424072e-01
7.167239785194396973e-01 -3.398794233798980713e-01 -3.691807985305786133e-01
5.784904956817626953e-01 6.744089722633361816e-02 -4.379351139068603516e-01
5.022426843643188477e-01 1.223898380994796753e-01 -3.502311706542968750e-01
4.546221196651458740e-01 -1.069176718592643738e-01 -4.801883101463317871e-01
5.487271547317504883e-01 -1.495582610368728638e-01 -4.688903689384460449e-02
3.679266870021820068e-01 5.827042460441589355e-02 -2.027129530906677246e-01
6.480732560157775879e-01 -2.959129810333251953e-01 -2.143308967351913452e-01
4.149053096771240234e-01 -2.064991444349288940e-01 -2.042185962200164795e-01
6.478306055068969727e-01 1.746815741062164307e-01 -3.118249773979187012e-01
7.160020470619201660e-01 -2.429582774639129639e-01 -1.805038452148437500e-01
4.233784079551696777e-01 -1.700476855039596558e-01 -1.414149701595306396e-01
4.378207027912139893e-01 1.900560706853866577e-01 -1.152094602584838867e-01
5.283750295639038086e-01 -1.176922321319580078e-01 -2.654181420803070068e-02
3.635593950748443604e-01 -1.128915324807167053e-01 -3.029091656208038330e-01
4.983450770378112793e-01 -5.445899069309234619e-02 4.047334194183349609e-03
5.068750977516174316e-01 1.873608380556106567e-01 -2.603620886802673340e-01
8.346024155616760254e-01 -1.194753572344779968e-01 -4.070026874542236328e-01
3.871350288391113281e-01 -1.366337984800338745e-01 -1.651644259691238403e-01
6.964797973632812500e-01 -3.554620444774627686e-01 -4.051075577735900879e-01
6.756893396377563477e-01 -6.460005789995193481e-02 -5.306065678596496582e-01
6.397492289543151855e-01 -1.949746161699295044e-01 -9.135745465755462646e-02
8.121337294578552246e-01 -1.657107472419738770e-01 -2.162236720323562622e-01
4.881866574287414551e-01 -4.779078811407089233e-02 -4.818384945392608643e-01
5.664452314376831055e-01 -2.079901397228240967e-01 -9.788061678409576416e-02
7.874261140823364258e-01 -2.505595684051513672e-01 -2.848186194896697998e-01
6.296147108078002930e-01 2.274141609668731689e-01 -5.095809698104858398e-03
8.154074549674987793e-01 -6.462179124355316162e-02 -4.261510372161865234e-01
4.631927311420440674e-01 -1.749084889888763428e-01 -1.063468754291534424e-01
4.981157183647155762e-01 5.531021952629089355e-02 -4.159782230854034424e-01
7.584959268569946289e-01 -2.716275155544281006e-01 -2.685766518115997314e-01
4.288083016872406006e-01 -8.638757467269897461e-02 -4.452204704284667969e-01
4.486375451087951660e-01 -1.700083017349243164e-01 -4.854743480682373047e-01
6.662876009941101074e-01 1.280850172042846680e-01 -3.709862232208251953e-01
3.556002378463745117e-01 -7.829882204532623291e-02 -2.515459358692169189e-01
5.927980542182922363e-01 -1.026080921292304993e-02 3.815177083015441895e-02
6.810286641120910645e-01 -3.410723805427551270e-01 -5.137757062911987305e-01
4.435547292232513428e-01 -2.608242034912109375e-01 -4.438492059707641602e-01
7.397057414054870605e-01 1.325129717588424683e-01 -3.173472881317138672e-01
7.391213774681091309e-01 7.242940366268157959e-02 -1.289378106594085693e-02
7.650749683380126953e-01 3.599034994840621948e-02 -4.298514127731323242e-02
8.414831161499023438e-01 -1.594051420688629150e-01 -3.193232715129852295e-01
4.451045691967010498e-01 4.949750006198883057e-02 -3.772767186164855957e-01
5.906268954277038574e-01 1.689878106117248535e-01 -3.246488273143768311e-01
6.303526163101196289e-01 -2.911660820245742798e-03 -4.983693659305572510e-01
8.373590707778930664e-01 2.229428291320800781e-02 -2.623268365859985352e-01
6.426545381546020508e-01 -9.374123811721801758e-02 -1.369361579418182373e-02
6.133541464805603027e-01 -2.173973023891448975e-01 -1.082172542810440063e-01
5.915017127990722656e-01 -8.570152521133422852e-02 2.544522285461425781e-04
7.854926586151123047e-01 1.371673345565795898e-01 -1.499475240707397461e-01
6.163745522499084473e-01 2.415627539157867432e-01 -1.763441115617752075e-01
4.811354577541351318e-01 -1.581915020942687988e-01 -7.827439904212951660e-02
3.544004261493682861e-01 -6.526309251785278320e-02 -2.253867983818054199e-01
3.840814828872680664e-01 5.757806450128555298e-02 -7.201464474201202393e-02
5.065922141075134277e-01 -2.471760660409927368e-01 -1.616574674844741821e-01
6.436678767204284668e-01 -3.137950599193572998e-01 -2.420863062143325806e-01
5.570471286773681641e-01 -3.468585312366485596e-01 -3.182506561279296875e-01
8.202460408210754395e-01 6.944365799427032471e-02 -1.796966493129730225e-01
4.028239846229553223e-01 1.325755417346954346e-01 -7.503250241279602051e-02
7.121864557266235352e-01 -3.058511614799499512e-01 -5.320894718170166016e-01
8.357571363449096680e-01 2.722372859716415405e-02 -2.160546779632568359e-01
8.263903856277465820e-01 -2.113741487264633179e-01 -3.757897019386291504e-01
3.916085958480834961e-01 -1.989354491233825684e-01 -2.583495676517486572e-01
5.353622436523437500e-01 2.927929908037185669e-02 -4.567506909370422363e-01
4.868429303169250488e-01 2.149458825588226318e-01 -1.752440333366394043e-01
6.875922083854675293e-01 -2.213890105485916138e-01 -5.719203948974609375e-01
8.304865360260009766e-01 -1.694471538066864014e-01 -2.716645896434783936e-01
6.509177088737487793e-01 2.417839169502258301e-01 -1.465955525636672974e-01
5.442154407501220703e-01 -5.011681094765663147e-02 -5.123758316040039062e-01
6.427342295646667480e-01 -2.459408938884735107e-01 -1.458253115415573120e-01
6.032464504241943359e-01 -1.521058678627014160e-01 -5.684845447540283203e-01
7.299681901931762695e-01 1.744406670331954956e-01 -2.503594160079956055e-01
6.103560924530029297e-01 -6.764211505651473999e-02 8.745312690734863281e-03
5.399624705314636230e-01 -3.110446631908416748e-01 -5.256152153015136719e-01
7.849145531654357910e-01 -1.047379374504089355e-01 -1.208683550357818604e-01
5.750949382781982422e-01 -1.659493446350097656e-01 -5.797427892684936523e-02
7.968417406082153320e-01 -2.670755982398986816e-01 -4.164842665195465088e-01
7.847064137458801270e-01 -2.311235368251800537e-01 -2.466803342103958130e-01
7.536883950233459473e-01 1.781152933835983276e-01 -1.370776295661926270e-01
3.887249529361724854e-01 1.042383462190628052e-01 -8.728820085525512695e-02
6.004492044448852539e-01 3.908143192529678345e-02 -4.656000733375549316e-01
7.582367658615112305e-01 -1.685239374637603760e-02 -4.689639806747436523e-02
7.632828950881958008e-01 1.613868921995162964e-01 -2.086724340915679932e-01
7.226578593254089355e-01 1.025274395942687988e-01 -3.738071322441101074e-01
7.910307645797729492e-01 -2.075228840112686157e-01 -2.252358645200729370e-01
7.776248455047607422e-01 6.094143539667129517e-02 -6.021296977996826172e-02
3.750452399253845215e-01 5.713236331939697266e-02 -9.849905967712402344e-02
4.196671843528747559e-01 -2.573477029800415039e-01 -3.349604010581970215e-01
7.069702148437500000e-01 -7.522266358137130737e-02 -3.177475929260253906e-02
7.653325200080871582e-01 -3.038016557693481445e-01 -3.671250939369201660e-01
5.077691078186035156e-01 2.291738986968994141e-01 -1.613714098930358887e-01
8.241523504257202148e-01 -1.447446644306182861e-02 -3.712123930454254150e-01
5.522451996803283691e-01 -2.584829926490783691e-01 -5.587162971496582031e-01
5.393474102020263672e-01 -1.324853599071502686e-01 -5.451468229293823242e-01
5.641044974327087402e-01 -2.468330711126327515e-01 -1.413045972585678101e-01
7.056303620338439941e-01 -2.739380002021789551e-01 -5.551717877388000488e-01
5.792172551155090332e-01 8.951003849506378174e-02 -4.171668291091918945e-01
7.743199467658996582e-01 1.051154881715774536e-01 -6.848211586475372314e-02
8.469175100326538086e-01 -1.184614002704620361e-01 -3.510127067565917969e-01
8.062140345573425293e-01 1.035368293523788452e-01 -1.766684651374816895e-01
5.637326836585998535e-01 -6.351324170827865601e-02 -5.259079933166503906e-01
8.213656544685363770e-01 -1.900777071714401245e-01 -4.354234933853149414e-01
7.419769167900085449e-01 -3.689772635698318481e-02 -3.897280991077423096e-02
6.664968132972717285e-01 -2.499943375587463379e-01 -1.592463701963424683e-01
7.263187170028686523e-01 -2.029355615377426147e-01 -5.546585321426391602e-01
6.744994521141052246e-01 -3.000052273273468018e-01 -2.328553795814514160e-01
5.794450640678405762e-01 -3.543632030487060547e-01 -4.959785938262939453e-01
7.451065778732299805e-01 -3.256631493568420410e-01 -4.369333386421203613e-01
3.960151374340057373e-01 1.450014114379882812e-02 -3.400538861751556396e-01
8.285505175590515137e-01 4.424904286861419678e-02 -1.878854483366012573e-01
4.161473810672760010e-01 1.632552593946456909e-01 -9.763276576995849609e-02
6.065033078193664551e-01 2.513721883296966553e-01 -1.366089582443237305e-01
4.075525999069213867e-01 -7.010091841220855713e-02 -4.101011753082275391e-01
4.489489495754241943e-01 -1.836428791284561157e-01 -1.278790235519409180e-01
3.741651773452758789e-01 5.709231644868850708e-02 -2.389884591102600098e-01
6.703505516052246094e-01 -8.096814900636672974e-02 -1.592293381690979004e-02
7.215210199356079102e-01 2.068728506565093994e-01 -1.136486530303955078e-01
7.208631038665771484e-01 -3.370826840400695801e-01 -4.724079370498657227e-01
7.817448377609252930e-01 4.074990749359130859e-02 -3.872658908367156982e-01
3.799635767936706543e-01 5.835108458995819092e-03 -3.139664530754089355e-01
4.365957975387573242e-01 -2.773110866546630859e-01 -3.252359330654144287e-01
4.118852615356445312e-01 1.417031884193420410e-01 -2.005654275417327881e-01
7.660288810729980469e-01 1.090491414070129395e-01 -3.206408321857452393e-01
3.662488460540771484e-01 -1.211858317255973816e-01 -2.141528576612472534e-01
4.295229613780975342e-01 1.649949997663497925e-01 -1.926389336585998535e-01
4.787309467792510986e-01 -2.960630655288696289e-01 -4.697617292404174805e-01
7.745246887207031250e-01 -7.624642550945281982e-02 -4.841985702514648438e-01
7.620173692703247070e-01 -1.356025636196136475e-01 -5.189667940139770508e-01
7.781180739402770996e-01 -2.043833732604980469e-01 -5.109491348266601562e-01
6.215078830718994141e-01 1.672016829252243042e-01 -3.278030753135681152e-01
8.353688716888427734e-01 -1.391482502222061157e-01 -2.502501904964447021e-01
6.042211651802062988e-01 2.381623089313507080e-01 -1.172132790088653564e-02
3.739589452743530273e-01 -1.650078892707824707e-01 -2.973970174789428711e-01
4.953608214855194092e-01 -7.743830978870391846e-02 -1.045671105384826660e-02
7.003427743911743164e-01 -2.968116402626037598e-01 -2.452483028173446655e-01
3.869366943836212158e-01 -6.036826968193054199e-02 -3.700227737426757812e-01
7.550594210624694824e-01 -1.180538311600685120e-01 -9.623414278030395508e-02
6.008875966072082520e-01 1.960816979408264160e-01 3.709393739700317383e-02
5.707553625106811523e-01 2.545453310012817383e-01 -1.100885719060897827e-01
5.065320134162902832e-01 -1.140518710017204285e-01 -5.224589109420776367e-01
4.194180369377136230e-01 3.945301473140716553e-02 -1.462486386299133301e-02
4.044268429279327393e-01 5.248478055000305176e-02 -3.297056257724761963e-02
4.156225323677062988e-01 -2.316971272230148315e-01 -4.054691195487976074e-01
4.989680051803588867e-01 -3.356887698173522949e-01 -3.793276548385620117e-01
5.935526490211486816e-01 -1.024578362703323364e-01 -5.504605770111083984e-01
4.906602203845977783e-01 1.618596911430358887e-01 -2.886576652526855469e-01
5.408533811569213867e-01 1.272369027137756348e-01 -3.651898503303527832e-01
7.386745214462280273e-01 -2.137220650911331177e-01 -1.658808588981628418e-01
4.301021993160247803e-01 1.366670429706573486e-01 -1.650311052799224854e-02
5.520365238189697266e-01 2.404009401798248291e-01 -1.766663789749145508e-02
5.564225912094116211e-01 2.108310461044311523e-01 2.670598030090332031e-02
6.594798564910888672e-01 1.791723221540451050e-01 2.334430813789367676e-02
7.958033680915832520e-01 -2.381225228309631348e-01 -4.703075289726257324e-01
7.822434902191162109e-01 1.333197206258773804e-01 -2.352159321308135986e-01
6.139745116233825684e-01 -3.543455898761749268e-01 -5.094744563102722168e-01
3.897863030433654785e-01 -2.048837393522262573e-01 -3.207464516162872314e-01
6.962338685989379883e-01 5.548043549060821533e-02 2.101525664329528809e-02
5.554885864257812500e-01 2.410016655921936035e-01 -1.698665767908096313e-01
8.043155670166015625e-01 6.819117069244384766e-02 -3.137752413749694824e-01
4.739683866500854492e-01 -7.109577208757400513e-02 -4.830300807952880859e-01
7.914911508560180664e-01 9.952728450298309326e-02 -1.028586328029632568e-01
3.837496638298034668e-01 1.084017455577850342e-01 -1.324233561754226685e-01
3.817280530929565430e-01 8.512881398200988770e-02 -2.192349731922149658e-01
5.712676048278808594e-01 -3.635948002338409424e-01 -3.726276457309722900e-01
4.771736562252044678e-01 9.888269007205963135e-02 -3.582434654235839844e-01
6.632540225982666016e-01 1.977289021015167236e-01 -2.653567790985107422e-01
5.014094710350036621e-01 2.921615540981292725e-02 3.982561826705932617e-02
3.949231803417205811e-01 -2.110787779092788696e-01 -3.502345383167266846e-01
4.533804953098297119e-01 6.043419241905212402e-02 2.013799548149108887e-02
7.753799557685852051e-01 -1.664443016052246094e-01 -5.133259296417236328e-01
4.348587989807128906e-01 1.740934848785400391e-01 -4.861496388912200928e-02
8.019532561302185059e-01 9.595328569412231445e-02 -1.320714205503463745e-01
5.936559438705444336e-01 2.508165538311004639e-01 -4.327395558357238770e-02
4.080686569213867188e-01 -2.353710532188415527e-01 -3.648107349872589111e-01
3.680993318557739258e-01 4.601307958364486694e-02 -1.213406175374984741e-01
7.018538117408752441e-01 1.584414094686508179e-01 -3.105954825878143311e-01
7.529620528221130371e-01 -1.912507861852645874e-01 -1.561813503503799438e-01
5.466749072074890137e-01 -1.916867941617965698e-01 -8.470107614994049072e-02
8.351234793663024902e-01 -1.866581141948699951e-01 -3.519626259803771973e-01
7.048046588897705078e-01 1.356663852930068970e-01 -3.427641391754150391e-01
4.035349786281585693e-01 -2.500977367162704468e-03 -4.488191008567810059e-02
6.880062818527221680e-01 -3.689309954643249512e-02 -5.115631222724914551e-01
7.024055123329162598e-01 1.832371950149536133e-01 -1.767647266387939453e-02
7.326505184173583984e-01 -2.792620658874511719e-01 -2.471864968538284302e-01
4.570640325546264648e-01 2.064740955829620361e-01 -1.253856420516967773e-01
4.659295082092285156e-01 -2.942416667938232422e-01 -4.466472268104553223e-01
7.422852516174316406e-01 1.191074550151824951e-01 -2.533319592475891113e-02
3.697399497032165527e-01 1.216923445463180542e-02 -1.077712923288345337e-01
5.105997323989868164e-01 -1.530326008796691895e-01 -5.355658531188964844e-01
7.199718356132507324e-01 2.508956193923950195e-02 -4.538058638572692871e-01
5.121354460716247559e-01 2.246677875518798828e-01 -1.262986660003662109e-02
4.235819876194000244e-01 -1.196038275957107544e-01 -9.146302938461303711e-02
4.755836725234985352e-01 1.818355470895767212e-01 7.126331329345703125e-03
7.526012063026428223e-01 1.633366644382476807e-01 -8.050763607025146484e-02
8.356010913848876953e-01 -1.774904429912567139e-01 -3.829154372215270996e-01
6.368134617805480957e-01 -3.464089632034301758e-01 -3.071315586566925049e-01
5.640087723731994629e-01 1.845050156116485596e-01 4.628330469131469727e-02
4.533924162387847900e-01 1.676935255527496338e-01 -2.353761196136474609e-01
5.855711698532104492e-01 -3.200759291648864746e-01 -2.468123584985733032e-01
8.236945867538452148e-01 6.048166006803512573e-02 -2.567599415779113770e-01
4.935157895088195801e-01 -1.376479119062423706e-01 -5.209448337554931641e-01
6.630690097808837891e-01 -1.795167475938796997e-01 -8.484493196010589600e-02
3.937607109546661377e-01 1.243649423122406006e-01 -1.727900207042694092e-01
5.282159447669982910e-01 -3.227581381797790527e-01 -2.765787243843078613e-01
6.288426518440246582e-01 1.397239714860916138e-01 5.213484168052673340e-02
3.840612173080444336e-01 5.317861586809158325e-02 -2.759583294391632080e-01
6.013235449790954590e-01 -4.325959458947181702e-02 -5.225571393966674805e-01
7.066761255264282227e-01 2.001805603504180908e-01 -4.620096087455749512e-02
8.283902406692504883e-01 -8.911585807800292969e-02 -1.878794729709625244e-01
4.244197010993957520e-01 7.467055320739746094e-02 -6.427854299545288086e-03
5.921812653541564941e-01 -1.853968799114227295e-01 -7.520958781242370605e-02
6.299812793731689453e-01 -1.616733372211456299e-01 -5.949367582798004150e-02
7.625689506530761719e-01 -2.165711224079132080e-01 -1.947412937879562378e-01
7.530694007873535156e-01 -1.055696606636047363e-01 -5.153452157974243164e-01
6.702767610549926758e-01 1.446605473756790161e-01 3.169611096382141113e-02
6.439125537872314453e-01 -3.629522621631622314e-01 -3.621497750282287598e-01
7.493401169776916504e-01 1.675308495759963989e-01 -2.310297489166259766e-01
6.119809746742248535e-01 -3.195446133613586426e-01 -2.454473227262496948e-01
4.743846058845520020e-01 2.123304009437561035e-01 -4.045467078685760498e-02
7.561606168746948242e-01 -5.402531847357749939e-02 -4.873911738395690918e-01
5.858726501464843750e-01 3.665515780448913574e-02 5.410268902778625488e-02
5.276756882667541504e-01 -3.340280652046203613e-01 -3.062086403369903564e-01
4.331939816474914551e-01 -2.414793372154235840e-01 -2.306943237781524658e-01
5.612183213233947754e-01 4.280644655227661133e-02 -4.549877941608428955e-01
4.883021116256713867e-01 -3.264271616935729980e-01 -3.557887077331542969e-01
4.965714812278747559e-01 -2.785264253616333008e-01 -5.099604725837707520e-01
4.037799835205078125e-01 1.462482810020446777e-01 -1.368047744035720825e-01
8.057538270950317383e-01 9.489905834197998047e-02 -2.538630962371826172e-01
3.924629688262939453e-01 8.074295520782470703e-02 -5.903768539428710938e-02
7.325693964958190918e-01 8.293917775154113770e-02 -3.895269036293029785e-01
7.881057858467102051e-01 -1.048004925251007080e-01 -4.833491444587707520e-01
4.115923047065734863e-01 -2.924170345067977905e-02 -4.554677009582519531e-02
7.083400487899780273e-01 1.781086921691894531e-01 -2.696964740753173828e-01
6.792499423027038574e-01 8.346098661422729492e-02 -4.170615673065185547e-01
6.485329866409301758e-01 -1.444022655487060547e-01 -5.066591501235961914e-02
6.600696444511413574e-01 -3.311956524848937988e-01 -5.366739034652709961e-01
8.362522721290588379e-01 -4.445250332355499268e-02 -3.653950691223144531e-01
4.061463475227355957e-01 -7.597011327743530273e-02 -7.911711931228637695e-02
6.514313220977783203e-01 3.136755526065826416e-02 3.865975141525268555e-02
7.275723218917846680e-01 1.642823666334152222e-01 -3.335461020469665527e-02
5.464375615119934082e-01 5.689623206853866577e-02 -4.383257031440734863e-01
6.317392587661743164e-01 1.896224468946456909e-01 3.158611059188842773e-02
5.639966726303100586e-01 2.491332590579986572e-01 -1.420959979295730591e-01
4.773614108562469482e-01 -2.201787978410720825e-01 -1.463786363601684570e-01
8.318607807159423828e-01 -2.873166278004646301e-02 -1.730759590864181519e-01
5.104262828826904297e-01 1.995035111904144287e-01 1.934891939163208008e-02
5.065357685089111328e-01 1.477533429861068726e-01 -3.210768699645996094e-01
5.546927452087402344e-01 7.629111409187316895e-02 -4.236083030700683594e-01
7.445278763771057129e-01 -2.908541560173034668e-01 -2.833245396614074707e-01
4.644113779067993164e-01 1.515105813741683960e-01 1.661005616188049316e-02
4.045589864253997803e-01 -2.306300401687622070e-01 -2.970750331878662109e-01
6.221488714218139648e-01 2.305498719215393066e-01 -2.081735879182815552e-01
8.412914276123046875e-01 -1.476725637912750244e-01 -2.900148034095764160e-01
7.622207999229431152e-01 8.222869038581848145e-02 -4.116855561733245850e-02
8.494223356246948242e-01 -4.540925472974777222e-02 -2.854547798633575439e-01
4.284676909446716309e-01 -2.238194197416305542e-01 -4.439370632171630859e-01
4.970320761203765869e-01 2.090064883232116699e-01 -2.062024772167205811e-01
4.457283914089202881e-01 -6.258823722600936890e-02 -4.539007246494293213e-01
7.760729789733886719e-01 -1.597934663295745850e-01 -1.524534821510314941e-01
7.884441614151000977e-01 1.104074269533157349e-01 -2.750851809978485107e-01
5.809524655342102051e-01 2.341843843460083008e-01 -2.003450095653533936e-01
8.213651776313781738e-01 3.339783102273941040e-02 -1.475965380668640137e-01
5.580714344978332520e-01 1.367383748292922974e-01 6.127974390983581543e-02
7.772922515869140625e-01 -2.775666713714599609e-01 -4.703131318092346191e-01
3.796190023422241211e-01 8.654627203941345215e-02 -1.044807732105255127e-01
8.469955921173095703e-01 -4.258762672543525696e-02 -3.146029114723205566e-01
5.655388236045837402e-01 -3.602420985698699951e-01 -4.669406414031982422e-01
4.424503445625305176e-01 1.654675900936126709e-01 -2.052062749862670898e-02
5.342651605606079102e-01 -5.220230668783187866e-02 1.564970612525939941e-02
4.301067590713500977e-01 -2.520138025283813477e-01 -4.213273525238037109e-01
4.659744501113891602e-01 1.951659619808197021e-01 -2.051888406276702881e-02
4.565501809120178223e-01 -2.671380341053009033e-01 -2.407417595386505127e-01
7.178313136100769043e-01 2.029240727424621582e-01 -1.884291172027587891e-01
6.008471846580505371e-01 5.195811390876770020e-04 -4.947386980056762695e-01
6.711226701736450195e-01 -1.165576502680778503e-01 -5.551344156265258789e-01
6.086482405662536621e-01 -2.826829552650451660e-01 -5.693317651748657227e-01
7.857115268707275391e-01 1.242071837186813354e-01 -1.150649040937423706e-01
5.484524965286254883e-01 2.074817717075347900e-01 -2.496217340230941772e-01
6.105214953422546387e-01 -2.915468066930770874e-02 2.799865603446960449e-02
5.192220807075500488e-01 -8.501580357551574707e-02 -5.183051824569702148e-01
5.620414614677429199e-01 -1.920984983444213867e-01 -5.661140084266662598e-01
6.313642859458923340e-01 5.121120065450668335e-02 4.966804385185241699e-02
7.371327877044677734e-01 -7.810795307159423828e-02 -5.132585763931274414e-01
3.641685545444488525e-01 3.701003640890121460e-02 -2.228477597236633301e-01
6.524002552032470703e-01 2.442639172077178955e-01 -8.314210176467895508e-02
7.602586150169372559e-01 -3.017902970314025879e-01 -4.698927402496337891e-01
4.132905006408691406e-01 -2.050157934427261353e-01 -4.229539930820465088e-01
8.477021455764770508e-01 -3.927414491772651672e-02 -2.493605017662048340e-01
6.522691845893859863e-01 2.122974395751953125e-01 3.999471664428710938e-05
3.941685259342193604e-01 -1.665075421333312988e-01 -1.878297626972198486e-01
4.107072949409484863e-01 8.527982234954833984e-02 -2.600240707397460938e-02
7.874834537506103516e-01 -1.690790355205535889e-01 -1.765770614147186279e-01
3.745658397674560547e-01 -1.274758875370025635e-01 -3.484765887260437012e-01
5.062887668609619141e-01 9.167605638504028320e-02 5.193427205085754395e-02
3.593816459178924561e-01 2.106481045484542847e-02 -1.600756496191024780e-01
8.083325624465942383e-01 -2.355315685272216797e-01 -4.372681379318237305e-01
8.454920053482055664e-01 -1.851554587483406067e-02 -2.877464592456817627e-01
6.418532729148864746e-01 -3.463228046894073486e-01 -5.221806764602661133e-01
5.068157911300659180e-01 2.387792766094207764e-01 -7.704328000545501709e-02
4.723592400550842285e-01 -2.688235044479370117e-01 -4.869049191474914551e-01
8.284406065940856934e-01 -7.792180776596069336e-02 -4.077995419502258301e-01
6.462009549140930176e-01 -2.164824306964874268e-01 -1.144448369741439819e-01
7.465603351593017578e-01 -2.405730485916137695e-01 -5.369162559509277344e-01
6.663120985031127930e-01 2.302264869213104248e-01 -4.633457958698272705e-02
5.068629384040832520e-01 -3.035531044006347656e-01 -2.531018257141113281e-01
7.807961702346801758e-01 -1.648806408047676086e-02 -4.400179386138916016e-01
6.256252527236938477e-01 -3.374586999416351318e-01 -2.830674946308135986e-01
5.244790315628051758e-01 6.825685501098632812e-02 -4.190095663070678711e-01
4.989534020423889160e-01 -2.853661179542541504e-01 -2.252852767705917358e-01
4.352957904338836670e-01 -1.884463280439376831e-01 -4.674659371376037598e-01
5.455577969551086426e-01 1.708787083625793457e-01 -3.099397718906402588e-01
5.655595064163208008e-01 -2.888788878917694092e-01 -1.978693455457687378e-01
4.919367134571075439e-01 -1.321689635515213013e-01 -5.048279464244842529e-02
7.716817259788513184e-01 1.398832648992538452e-01 -9.498390555381774902e-02
5.145023465156555176e-01 1.570174396038055420e-01 4.636859893798828125e-02
6.304621696472167969e-01 -3.725179731845855713e-01 -4.174827933311462402e-01
5.266953706741333008e-01 2.981525659561157227e-02 4.751804471015930176e-02
5.579067468643188477e-01 -7.729036360979080200e-02 4.904806613922119141e-03
4.583379924297332764e-01 1.504327803850173950e-01 -2.723851501941680908e-01
7.375804185867309570e-01 -2.808759808540344238e-01 -5.280377864837646484e-01
5.101904273033142090e-01 -2.148264646530151367e-01 -5.404534339904785156e-01
5.878248810768127441e-01 -3.600139319896697998e-01 -3.452588915824890137e-01
6.684638261795043945e-01 -5.824004858732223511e-02 -2.681821584701538086e-03
4.518541693687438965e-01 1.993408203125000000e-01 -6.383384764194488525e-02
4.857982397079467773e-01 2.264474034309387207e-01 -6.571516394615173340e-02
4.518274664878845215e-01 -1.378115564584732056e-01 -8.030216395854949951e-02
8.163968324661254883e-01 -2.076478749513626099e-01 -2.847704291343688965e-01
6.925517320632934570e-01 -3.575414419174194336e-02 -3.616273403167724609e-03
5.605633258819580078e-01 -2.732102572917938232e-01 -1.761562228202819824e-01
7.422799468040466309e-01 -2.390530705451965332e-01 -1.995138823986053467e-01
8.359916210174560547e-01 6.253987550735473633e-03 -3.090952336788177490e-01
7.508503198623657227e-01 -1.781905740499496460e-01 -5.364896655082702637e-01
5.797712802886962891e-01 -1.376536786556243896e-01 -3.497771918773651123e-02
6.330690383911132812e-01 2.502865791320800781e-01 -1.118609309196472168e-01
5.998399853706359863e-01 -2.583355903625488281e-01 -5.743324756622314453e-01
5.358533859252929688e-01 8.502586185932159424e-02 5.973458290100097656e-02
5.120940804481506348e-01 -1.137842983007431030e-02 2.934518456459045410e-02
8.115603923797607422e-01 -1.571037769317626953e-01 -4.634610414505004883e-01
3.957617580890655518e-01 1.318877637386322021e-01 -1.155451089143753052e-01
7.265964150428771973e-01 2.710070461034774780e-02 -5.859851837158203125e-03
6.269688606262207031e-01 -6.364975869655609131e-02 -5.352911353111267090e-01
7.279582023620605469e-01 -3.147855997085571289e-01 -3.108421266078948975e-01
4.837193489074707031e-01 -3.146469965577125549e-02 9.460479021072387695e-03
7.132230401039123535e-01 7.455332577228546143e-02 1.042115688323974609e-02
6.103169918060302734e-01 8.346678316593170166e-02 -4.267391264438629150e-01
6.658681631088256836e-01 7.676143944263458252e-02 4.023277759552001953e-02
3.657581806182861328e-01 -8.099135011434555054e-03 -2.842448949813842773e-01
4.725561141967773438e-01 4.553874582052230835e-02 3.033766150474548340e-02
6.944690346717834473e-01 2.200953960418701172e-01 -1.710595786571502686e-01
8.108956813812255859e-01 -1.323198676109313965e-01 -1.818222403526306152e-01
7.892781496047973633e-01 -3.322258591651916504e-03 -8.138206601142883301e-02
8.148896098136901855e-01 -3.091162256896495819e-02 -1.321937143802642822e-01
6.485050916671752930e-01 1.599411517381668091e-01 -3.337211608886718750e-01
5.381819605827331543e-01 -3.391188979148864746e-01 -4.887683987617492676e-01
3.851259946823120117e-01 -1.145814806222915649e-01 -1.455644965171813965e-01
4.120737910270690918e-01 -1.325251162052154541e-01 -1.172634810209274292e-01
4.894926548004150391e-01 -3.241436481475830078e-01 -4.339981675148010254e-01
5.314249396324157715e-01 2.175113856792449951e-01 -2.185374349355697632e-01
4.893108010292053223e-01 1.232928037643432617e-01 4.271885752677917480e-02
4.826332926750183105e-01 -3.057112991809844971e-01 -2.885595560073852539e-01
3.957582116127014160e-01 2.789709717035293579e-02 -4.876314103603363037e-02
7.475055456161499023e-01 -8.188919723033905029e-02 -6.619602441787719727e-02
4.281332492828369141e-01 8.553200960159301758e-02 -3.202946484088897705e-01
5.914417505264282227e-01 -7.083796709775924683e-02 -5.358760356903076172e-01
8.473685979843139648e-01 -7.413139194250106812e-02 -3.400239050388336182e-01
7.419536113739013672e-01 -3.150106668472290039e-01 -4.841692447662353516e-01
4.309662580490112305e-01 1.219114065170288086e-01 -2.773438692092895508e-01
7.764332294464111328e-01 1.504957973957061768e-01 -1.882396787405014038e-01
5.370096564292907715e-01 1.928665041923522949e-01 -2.708049118518829346e-01
7.619273662567138672e-01 -2.472933381795883179e-01 -2.344116866588592529e-01
7.061238288879394531e-01 2.182863652706146240e-01 -1.349737197160720825e-01
4.666237831115722656e-01 -1.968504339456558228e-01 -5.045420527458190918e-01
8.255785703659057617e-01 -5.322930589318275452e-02 -3.993648588657379150e-01
8.224136829376220703e-01 4.425724595785140991e-02 -3.008689284324645996e-01
3.649106025695800781e-01 -7.079006731510162354e-02 -3.145785629749298096e-01
4.991759955883026123e-01 2.337621450424194336e-01 -1.186764091253280640e-01
8.468019962310791016e-01 -1.327452659606933594e-01 -3.156574964523315430e-01
7.182741165161132812e-01 5.104922503232955933e-02 -4.316262602806091309e-01
3.859419822692871094e-01 -1.862203180789947510e-01 -3.496061563491821289e-01
4.639415442943572998e-01 -1.506597101688385010e-01 -4.995284080505371094e-01
3.733999133110046387e-01 7.940305769443511963e-02 -1.332361698150634766e-01
7.222353816032409668e-01 1.263477057218551636e-01 -4.815220832824707031e-03
8.423694372177124023e-01 1.605615019798278809e-03 -2.380386292934417725e-01
5.171775221824645996e-01 8.544813096523284912e-02 -3.989904522895812988e-01
6.930104494094848633e-01 2.017900943756103516e-01 -2.331183552742004395e-01
4.831186532974243164e-01 -2.411616593599319458e-02 -4.647562801837921143e-01
8.409779071807861328e-01 -1.621959507465362549e-01 -3.592325150966644287e-01
8.101151585578918457e-01 -5.888875946402549744e-02 -1.334617286920547485e-01
5.269513726234436035e-01 -4.837553948163986206e-03 -4.777724146842956543e-01
7.662845849990844727e-01 -4.383556544780731201e-02 -6.575706601142883301e-02
7.959476113319396973e-01 -1.864809542894363403e-01 -2.083323597908020020e-01
4.274620413780212402e-01 -1.377644240856170654e-01 -4.566229581832885742e-01
5.865553021430969238e-01 -1.874888315796852112e-02 -5.055574178695678711e-01
4.632182717323303223e-01 7.550875842571258545e-02 -3.704543113708496094e-01
7.461794018745422363e-01 3.106068074703216553e-02 -4.317566454410552979e-01
6.494003534317016602e-01 -3.681631982326507568e-01 -3.945605158805847168e-01
7.955322861671447754e-01 -2.570747733116149902e-01 -4.496221840381622314e-01
7.757381200790405273e-01 -4.615004360675811768e-02 -4.657956361770629883e-01
5.099057555198669434e-01 -1.718136519193649292e-01 -7.678765058517456055e-02
6.245477795600891113e-01 -3.267031610012054443e-01 -5.454661250114440918e-01
7.340202927589416504e-01 1.969201564788818359e-01 -1.513703614473342896e-01
5.213257074356079102e-01 -3.489027619361877441e-01 -3.921835720539093018e-01
8.209328651428222656e-01 7.274414598941802979e-02 -2.271202802658081055e-01
5.138877630233764648e-01 2.366099059581756592e-01 -4.211229085922241211e-02
5.326414108276367188e-01 -1.981417387723922729e-01 -5.539096593856811523e-01
6.049200296401977539e-01 -2.095911204814910889e-01 -5.779979228973388672e-01
3.577532172203063965e-01 -2.189430221915245056e-02 -1.619964540004730225e-01
7.200093865394592285e-01 -3.436069786548614502e-01 -4.405336976051330566e-01
6.724128127098083496e-01 1.106511801481246948e-02 -4.828904867172241211e-01
5.515884757041931152e-01 -3.126515820622444153e-02 2.865391969680786133e-02
5.022792220115661621e-01 -2.254197150468826294e-01 -1.366298049688339233e-01
3.911899328231811523e-01 -9.828075766563415527e-02 -1.187852472066879272e-01
8.036080002784729004e-01 -1.047456562519073486e-01 -1.482246220111846924e-01
4.412845969200134277e-01 -9.716168791055679321e-02 -5.668063461780548096e-02
5.249004364013671875e-01 2.252391874790191650e-01 -1.939737200736999512e-01
4.610575139522552490e-01 -2.296176180243492126e-02 -4.466913342475891113e-01
6.748785376548767090e-01 2.249778062105178833e-02 2.630060911178588867e-02
6.818613409996032715e-01 -1.948901712894439697e-01 -5.722415447235107422e-01
6.671673655509948730e-01 2.391470372676849365e-01 -1.208445727825164795e-01
3.687583804130554199e-01 -1.449778974056243896e-01 -2.526474595069885254e-01
6.833941936492919922e-01 -2.735513746738433838e-01 -1.982181668281555176e-01
5.173293948173522949e-01 -2.843279838562011719e-01 -5.262809395790100098e-01
3.588125109672546387e-01 1.080820709466934204e-02 -2.291137874126434326e-01
7.875937223434448242e-01 -1.335484385490417480e-01 -1.453785896301269531e-01
7.609909176826477051e-01 -2.856237292289733887e-01 -4.935927391052246094e-01
5.014621019363403320e-01 -1.892558932304382324e-01 -9.732283651828765869e-02
4.031201899051666260e-01 -1.198505759239196777e-01 -4.169953465461730957e-01
4.121311306953430176e-01 4.464226216077804565e-02 -3.399485349655151367e-01
5.464247465133666992e-01 -2.814869582653045654e-01 -5.480936765670776367e-01
6.512687206268310547e-01 -2.867334187030792236e-01 -5.681706666946411133e-01
5.102065801620483398e-01 1.031078994274139404e-01 -3.769354820251464844e-01
7.960957884788513184e-01 -1.015157625079154968e-02 -4.165533781051635742e-01
5.142722725868225098e-01 -3.251915574073791504e-01 -4.825299978256225586e-01
6.236130595207214355e-01 2.513615489006042480e-01 -7.087823748588562012e-02
8.273067474365234375e-01 -1.322332024574279785e-01 -4.284824132919311523e-01
5.291991829872131348e-01 -9.464633464813232422e-02 -1.048329472541809082e-02
7.927957177162170410e-01 5.966870486736297607e-02 -3.490619659423828125e-01
3.840802311897277832e-01 -5.324743688106536865e-03 -7.715094089508056641e-02
4.392542243003845215e-01 1.830669641494750977e-01 -1.661839634180068970e-01
3.810047507286071777e-01 -5.518646165728569031e-02 -1.064368784427642822e-01
6.778674125671386719e-01 -2.890096306800842285e-01 -5.610196590423583984e-01
8.305218219757080078e-01 -1.832340657711029053e-01 -2.954893112182617188e-01
5.876704454421997070e-01 2.155447006225585938e-01 2.316564321517944336e-02
7.487269639968872070e-01 -3.067474663257598877e-01 -3.275170624256134033e-01
6.862736940383911133e-01 2.266168296337127686e-01 -7.546225190162658691e-02
6.591784358024597168e-01 6.854662299156188965e-02 -4.371125102043151855e-01
5.923022627830505371e-01 -3.708834350109100342e-01 -4.050477743148803711e-01
4.705498814582824707e-01 -3.120081722736358643e-01 -4.098788499832153320e-01
5.956398248672485352e-01 1.523895114660263062e-01 -3.479855656623840332e-01
6.486717462539672852e-01 1.095722466707229614e-01 -3.970526754856109619e-01
4.652587175369262695e-01 2.005816698074340820e-01 -1.781145632266998291e-01
7.343505620956420898e-01 -2.626959085464477539e-01 -2.234709560871124268e-01
3.561687171459197998e-01 -2.988365478813648224e-02 -2.540360093116760254e-01
7.082049250602722168e-01 -1.775164008140563965e-01 -1.062356233596801758e-01
6.843761801719665527e-01 -1.456026136875152588e-01 -6.603236496448516846e-02
7.120215892791748047e-01 -3.316108286380767822e-01 -5.002692937850952148e-01
5.902856588363647461e-01 1.452422887086868286e-01 5.937990546226501465e-02
4.808998703956604004e-01 -2.576559782028198242e-01 -1.952064633369445801e-01
7.152798175811767578e-01 -1.955402195453643799e-01 -1.279379427433013916e-01
4.596164524555206299e-01 -3.034952878952026367e-01 -3.504578471183776855e-01
7.259170413017272949e-01 -1.175195574760437012e-01 -5.366084575653076172e-01
6.327916383743286133e-01 -1.844372600317001343e-01 -5.771893262863159180e-01
6.471449732780456543e-01 -2.706817090511322021e-01 -1.780282258987426758e-01
6.867995262145996094e-01 -3.223444521427154541e-01 -5.341090559959411621e-01
6.151415109634399414e-01 2.087581157684326172e-01 -2.589923143386840820e-01
5.398530960083007812e-01 -3.566244840621948242e-01 -4.308500885963439941e-01
5.201407074928283691e-01 -3.441230058670043945e-01 -3.558771312236785889e-01
8.181594610214233398e-01 -2.251470834016799927e-01 -3.345434963703155518e-01
4.406767487525939941e-01 -2.735963165760040283e-01 -2.911386787891387939e-01
8.492794036865234375e-01 -8.332383632659912109e-02 -2.700010240077972412e-01
6.102589368820190430e-01 -3.672641217708587646e-01 -3.708551526069641113e-01
6.261230111122131348e-01 1.030557155609130859e-01 5.640655755996704102e-02
7.097676992416381836e-01 -1.529861986637115479e-01 -8.633954823017120361e-02
6.976069808006286621e-01 1.161897927522659302e-02 1.083436608314514160e-02
7.445274591445922852e-01 1.038033813238143921e-01 -3.538047075271606445e-01
7.969427108764648438e-01 -2.609326839447021484e-01 -3.396830558776855469e-01
7.060980200767517090e-01 -2.783435285091400146e-01 -2.206012904644012451e-01
6.089783310890197754e-01 -2.418022751808166504e-01 -1.343804001808166504e-01
7.497000694274902344e-01 2.116182446479797363e-02 -2.809232473373413086e-02
4.446727931499481201e-01 -2.844527959823608398e-01 -4.013099670410156250e-01
6.158215403556823730e-01 1.381449401378631592e-01 -3.668779134750366211e-01
7.208064794540405273e-01 -9.816832840442657471e-03 -1.156018674373626709e-02
4.780886769294738770e-01 1.298962533473968506e-02 -4.362176954746246338e-01
5.560258626937866211e-01 -3.631179034709930420e-01 -4.012960791587829590e-01
1.326700001955032349e-01 1.824278831481933594e-01 -9.825094044208526611e-02
2.334090918302536011e-01 5.908029526472091675e-02 -4.297799170017242432e-01
1.603125631809234619e-01 2.702237293124198914e-02 7.218022644519805908e-02
1.685856431722640991e-01 1.386820375919342041e-01 5.218732357025146484e-02
1.387066990137100220e-01 1.612314730882644653e-01 -3.123518824577331543e-02
4.288302063941955566e-01 -1.566608697175979614e-01 -1.880150288343429565e-01
4.991146028041839600e-01 3.785611093044281006e-01 -9.515925496816635132e-02
4.390850663185119629e-01 -1.172848790884017944e-01 -2.502651214599609375e-01
2.300418913364410400e-01 2.448829412460327148e-01 5.970101058483123779e-02
2.925879955291748047e-01 1.767846941947937012e-01 1.741101741790771484e-01
8.366557955741882324e-02 9.537049382925033569e-02 -1.549456864595413208e-01
2.546214461326599121e-01 3.167843818664550781e-01 -1.571475267410278320e-01
3.227181434631347656e-01 -1.592096090316772461e-01 -3.464950919151306152e-01
6.010404229164123535e-02 2.455496042966842651e-02 -1.847400963306427002e-01
4.512676894664764404e-01 7.227236032485961914e-02 2.121479511260986328e-01
6.117404699325561523e-01 2.074167877435684204e-01 8.841989934444427490e-02
1.276237666606903076e-01 -1.053618192672729492e-01 -3.963218927383422852e-01
8.587828278541564941e-02 1.154021918773651123e-02 -3.390114307403564453e-01
4.791584908962249756e-01 -6.845116615295410156e-02 -2.390311360359191895e-01
4.856377243995666504e-01 -1.077195554971694946e-01 -1.364825665950775146e-01
3.079171776771545410e-01 3.055169582366943359e-01 -2.565235793590545654e-01
2.612270116806030273e-01 2.629233300685882568e-01 8.604605495929718018e-02
2.554319202899932861e-01 -1.014278829097747803e-01 1.049212217330932617e-01
5.784277915954589844e-01 2.240803241729736328e-01 -1.617530435323715210e-01
1.784528344869613647e-01 -2.517673373222351074e-02 -4.304744899272918701e-01
1.488102376461029053e-01 -1.371125429868698120e-01 -3.954369425773620605e-01
6.226724386215209961e-02 -3.062644600868225098e-02 -1.228359565138816833e-01
5.635659694671630859e-01 3.588654696941375732e-01 1.262784004211425781e-02
