7.187881469726562500e-01 -2.300643920898437500e-02 -3.238634020090103149e-02
8.120598196983337402e-01 3.822161816060543060e-03 8.882234990596771240e-02
7.746722698211669922e-01 3.923148661851882935e-02 6.592683494091033936e-02
8.959758877754211426e-01 4.111768305301666260e-02 2.910728938877582550e-02
7.581668496131896973e-01 -9.303460270166397095e-02 -6.646196357905864716e-03
9.132618308067321777e-01 -1.135503407567739487e-02 8.081302046775817871e-03
7.253756523132324219e-01 -3.311276808381080627e-02 -4.329916089773178101e-02
8.508448004722595215e-01 -8.807364106178283691e-02 -4.060384631156921387e-02
8.896116614341735840e-01 3.960362076759338379e-02 4.309534654021263123e-02
8.538995385169982910e-01 -1.003516912460327148e-01 -6.808080943301320076e-04
7.436063289642333984e-01 -6.884590536355972290e-02 3.215773031115531921e-02
8.279240727424621582e-01 -3.273955360054969788e-02 -8.741758763790130615e-02
8.908334970474243164e-01 -8.028591051697731018e-03 6.198283657431602478e-02
7.627204656600952148e-01 6.565953046083450317e-02 3.131452947854995728e-02
8.420211076736450195e-01 4.421722888946533203e-02 7.240822911262512207e-02
8.420380353927612305e-01 -5.182475969195365906e-02 8.036302030086517334e-02
8.180412650108337402e-01 -9.841942042112350464e-02 4.332951083779335022e-02
7.592476606369018555e-01 -8.571032434701919556e-02 3.007115423679351807e-02
7.510045766830444336e-01 -6.366409361362457275e-04 6.447352468967437744e-02
7.864105105400085449e-01 -2.588866278529167175e-03 8.423697948455810547e-02
8.699348568916320801e-01 5.700454115867614746e-02 4.741795361042022705e-02
8.700361251831054688e-01 -3.881167992949485779e-02 7.368646562099456787e-02
8.307905793190002441e-01 9.034731239080429077e-02 1.419019186869263649e-03
7.364152073860168457e-01 -7.238059490919113159e-02 -1.463638152927160263e-02
8.171464204788208008e-01 8.665869385004043579e-02 -3.269866108894348145e-02
8.797711730003356934e-01 -8.015362918376922607e-02 2.551781572401523590e-02
7.640278935432434082e-01 -9.210288524627685547e-02 2.334154956042766571e-02
7.310091257095336914e-01 3.743762150406837463e-03 -5.680722370743751526e-02
7.664107084274291992e-01 3.532681241631507874e-02 -7.536278665065765381e-02
8.928664326667785645e-01 2.467449754476547241e-02 -4.385200887918472290e-02
8.967368602752685547e-01 -3.263103216886520386e-02 -4.002833366394042969e-02
7.561750411987304688e-01 3.061811998486518860e-02 5.834548920392990112e-02
7.829015254974365234e-01 -8.129275590181350708e-02 5.605494976043701172e-02
7.272341847419738770e-01 3.772883489727973938e-02 3.731233533471822739e-03
8.461337089538574219e-01 2.113127708435058594e-02 8.217939734458923340e-02
7.876247763633728027e-01 -3.825221583247184753e-02 -8.644266426563262939e-02
8.313295245170593262e-01 -6.696102768182754517e-02 -7.106082141399383545e-02
7.537606358528137207e-01 4.244956001639366150e-02 4.830238968133926392e-02
8.882690668106079102e-01 -3.687374666333198547e-02 -4.989993944764137268e-02
8.920361399650573730e-01 3.499725833535194397e-02 -3.817906603217124939e-02
8.349330425262451172e-01 8.708981424570083618e-02 -2.335372380912303925e-02
7.626334428787231445e-01 -7.570147514343261719e-02 4.764222353696823120e-02
8.076498508453369141e-01 -1.231895014643669128e-02 -9.285175800323486328e-02
8.536602854728698730e-01 -8.187740296125411987e-02 5.439097434282302856e-02
8.030768632888793945e-01 -5.687022209167480469e-02 7.926978170871734619e-02
8.904693126678466797e-01 -4.849445074796676636e-02 5.050074681639671326e-02
8.902341127395629883e-01 4.729338362812995911e-02 3.259061649441719055e-02
7.733080983161926270e-01 -5.341568589210510254e-02 -7.615409791469573975e-02
8.469324111938476562e-01 6.053471937775611877e-03 8.572834730148315430e-02
7.487623691558837891e-01 6.116552650928497314e-02 -3.342483565211296082e-02
7.774329185485839844e-01 -1.343492418527603149e-02 8.128920197486877441e-02
8.990103006362915039e-01 -3.005322068929672241e-02 4.807563871145248413e-02
8.121790289878845215e-01 -4.117646068334579468e-02 8.616448938846588135e-02
9.047889113426208496e-01 -1.349374186247587204e-02 4.196125641465187073e-02
9.040135741233825684e-01 -4.945632815361022949e-02 -1.411735429428517818e-03
8.199096322059631348e-01 1.988558843731880188e-02 8.564151823520660400e-02
8.753946423530578613e-01 1.066930871456861496e-02 -6.737381219863891602e-02
7.402603626251220703e-01 -5.732886493206024170e-02 3.912113234400749207e-02
7.324537634849548340e-01 -6.737840920686721802e-02 2.942812629044055939e-03
7.704088687896728516e-01 -6.326937675476074219e-02 -6.891387701034545898e-02
7.837869524955749512e-01 -8.103359490633010864e-02 -5.912286788225173950e-02
7.290438413619995117e-01 -1.604407653212547302e-02 4.063301533460617065e-02
8.207904100418090820e-01 5.044629052281379700e-02 7.091560959815979004e-02
7.319885492324829102e-01 2.365144714713096619e-02 3.413246199488639832e-02
8.808496594429016113e-01 -3.883180767297744751e-02 6.584681570529937744e-02
8.804109096527099609e-01 6.659373641014099121e-02 5.621299613267183304e-03
8.933329582214355469e-01 -5.647568032145500183e-02 3.854985162615776062e-02
7.190016508102416992e-01 7.222723215818405151e-04 -3.451989218592643738e-02
7.873040437698364258e-01 -9.066468477249145508e-02 4.734788089990615845e-02
7.178268432617187500e-01 1.162594649940729141e-02 5.553285591304302216e-03
7.822367548942565918e-01 5.964592099189758301e-02 -6.563453376293182373e-02
9.069171547889709473e-01 -3.959092870354652405e-02 2.059117518365383148e-02
7.546091079711914062e-01 1.084691565483808517e-02 -7.722920179367065430e-02
9.053707122802734375e-01 2.837757021188735962e-02 -1.066410262137651443e-02
8.181807398796081543e-01 -3.327968716621398926e-02 -8.885616064071655273e-02
8.206673860549926758e-01 8.294873684644699097e-02 -4.071812704205513000e-02
7.744193673133850098e-01 -5.745859816670417786e-04 -8.794684708118438721e-02
7.359869480133056641e-01 3.682041168212890625e-02 -4.633191972970962524e-02
7.802661061286926270e-01 -9.445936232805252075e-02 3.691012039780616760e-02
8.443686366081237793e-01 7.723014801740646362e-02 3.691225871443748474e-02
8.175692558288574219e-01 9.119863808155059814e-02 -1.339804474264383316e-02
9.064519405364990234e-01 -5.513432435691356659e-03 -2.831897139549255371e-02
8.822406530380249023e-01 -3.219483792781829834e-02 -5.843731760978698730e-02
8.326460719108581543e-01 -7.473859190940856934e-02 6.882457435131072998e-02
7.458826303482055664e-01 -4.326988756656646729e-02 -6.460376083850860596e-02
8.411823511123657227e-01 4.303845018148422241e-02 -7.538223266601562500e-02
7.742448449134826660e-01 4.996677860617637634e-02 -7.020321488380432129e-02
7.385059595108032227e-01 5.340405553579330444e-02 7.955447770655155182e-03
8.341675996780395508e-01 9.520501829683780670e-03 8.748121559619903564e-02
8.738200068473815918e-01 -7.039441168308258057e-02 -4.123954102396965027e-02
8.588576316833496094e-01 -9.462287276983261108e-02 2.693455480039119720e-02
8.110188245773315430e-01 -8.456459641456604004e-02 6.114514917135238647e-02
7.827861309051513672e-01 -6.001639366149902344e-02 -7.559254765510559082e-02
7.381169199943542480e-01 -7.130806893110275269e-02 -2.528642304241657257e-02
8.617709279060363770e-01 3.792253509163856506e-02 -6.764793395996093750e-02
7.294534444808959961e-01 -3.947873413562774658e-02 3.429684042930603027e-02
9.088244438171386719e-01 4.863020963966846466e-03 2.973255328834056854e-02
9.016203880310058594e-01 3.675426170229911804e-02 -1.142460387200117111e-02
7.953211069107055664e-01 5.981086753308773041e-03 -9.187008440494537354e-02
8.513103723526000977e-01 -8.961418271064758301e-02 4.547294229269027710e-02
7.256337404251098633e-01 -5.519348010420799255e-02 -1.749114133417606354e-02
8.022152185440063477e-01 8.644605427980422974e-02 -3.192020207643508911e-02
8.085950613021850586e-01 -3.926913067698478699e-02 -8.780114352703094482e-02
7.259264588356018066e-01 -4.485969990491867065e-02 2.284011617302894592e-02
7.947640419006347656e-01 5.056575685739517212e-02 6.694887578487396240e-02
8.066240549087524414e-01 -7.676682621240615845e-02 6.758488714694976807e-02
8.079506754875183105e-01 -9.594974666833877563e-02 4.673038795590400696e-02
7.964119315147399902e-01 -1.060283333063125610e-01 1.950869522988796234e-02
8.381226658821105957e-01 -9.275807440280914307e-02 -4.189267754554748535e-02
8.047242164611816406e-01 5.661778897047042847e-02 -7.280653715133666992e-02
8.503471612930297852e-01 4.922509565949440002e-02 -6.756785511970520020e-02
7.875585556030273438e-01 8.349996060132980347e-02 -3.211192041635513306e-02
8.579986095428466797e-01 -6.907872855663299561e-02 6.421925127506256104e-02
8.235939741134643555e-01 -7.392254471778869629e-02 -6.772391498088836670e-02
8.034772276878356934e-01 8.974549174308776855e-02 -1.980218105018138885e-02
8.637795448303222656e-01 6.481889635324478149e-02 4.284455627202987671e-02
8.169206380844116211e-01 6.404855847358703613e-02 5.955494567751884460e-02
7.390285134315490723e-01 -4.063399508595466614e-02 -5.915943160653114319e-02
7.583311796188354492e-01 2.769435755908489227e-03 6.949448585510253906e-02
8.113335371017456055e-01 1.609548553824424744e-02 8.623434603214263916e-02
7.661190629005432129e-01 -6.603207439184188843e-02 5.884340777993202209e-02
7.218319177627563477e-01 -4.099488258361816406e-02 1.431792043149471283e-02
9.034598469734191895e-01 1.719240471720695496e-02 -2.850198559463024139e-02
8.835907578468322754e-01 -2.345156297087669373e-02 -5.962859466671943665e-02
8.478498458862304688e-01 6.526304781436920166e-02 5.255331471562385559e-02
7.300226688385009766e-01 -5.782086029648780823e-02 1.797838881611824036e-02
9.118531346321105957e-01 -2.337186038494110107e-02 1.288192532956600189e-02
8.170749545097351074e-01 -1.045320779085159302e-01 3.020090982317924500e-02
8.382157087326049805e-01 2.867779880762100220e-02 -8.269046247005462646e-02
7.296005487442016602e-01 4.092963039875030518e-02 -2.434647828340530396e-02
7.627804875373840332e-01 4.337514564394950867e-02 -6.860344111919403076e-02
8.480637073516845703e-01 -9.890322387218475342e-02 2.881834097206592560e-02
8.383352160453796387e-01 5.874454975128173828e-02 6.238422170281410217e-02
7.813392877578735352e-01 -1.025683954358100891e-01 1.671884208917617798e-02
8.308591842651367188e-01 2.284271270036697388e-02 8.427192270755767822e-02
8.184618949890136719e-01 1.051521580666303635e-02 8.800317347049713135e-02
7.589289546012878418e-01 -7.768496125936508179e-02 -4.779391735792160034e-02
7.184299230575561523e-01 -3.011489287018775940e-02 -2.651496976613998413e-02
8.240252733230590820e-01 -3.407436981797218323e-02 8.816975355148315430e-02
7.859597206115722656e-01 -9.166305512189865112e-02 -4.661232605576515198e-02
7.256650328636169434e-01 -1.646048016846179962e-02 -4.947582632303237915e-02
7.580503821372985840e-01 -3.331135958433151245e-02 -7.713894546031951904e-02
8.538441061973571777e-01 -9.393835812807083130e-02 3.527026996016502380e-02
8.072223067283630371e-01 7.870434969663619995e-02 3.990735858678817749e-02
7.283422946929931641e-01 2.790623530745506287e-02 -4.036212339997291565e-02
8.063421249389648438e-01 -1.063839942216873169e-01 2.336585149168968201e-02
7.761743664741516113e-01 -9.692090004682540894e-02 -3.037403896450996399e-02
8.219873905181884766e-01 -9.151379764080047607e-02 -4.973532631993293762e-02
8.927211165428161621e-01 1.025518868118524551e-02 -4.961479455232620239e-02
8.991273641586303711e-01 1.853822171688079834e-02 4.440385103225708008e-02
8.916167020797729492e-01 -1.685728877782821655e-02 6.084021553397178650e-02
8.241188526153564453e-01 7.166087627410888672e-02 -5.724361538887023926e-02
8.581465482711791992e-01 -9.691302478313446045e-02 -1.050910260528326035e-02
8.768404126167297363e-01 4.887037724256515503e-02 4.957715049386024475e-02
8.410466909408569336e-01 -3.817062452435493469e-02 -8.220955729484558105e-02
7.187667489051818848e-01 -3.542922064661979675e-02 7.719605229794979095e-03
9.072787761688232422e-01 1.599170267581939697e-02 -1.850113458931446075e-02
7.267745137214660645e-01 -6.605927832424640656e-03 -5.187069252133369446e-02
7.573605775833129883e-01 6.789905577898025513e-02 1.895621977746486664e-02
8.408298492431640625e-01 -2.708917856216430664e-02 8.750665187835693359e-02
7.399350404739379883e-01 1.795900985598564148e-02 4.849667474627494812e-02
8.973963260650634766e-01 3.649260848760604858e-02 -2.595002762973308563e-02
8.348119854927062988e-01 -1.717668026685714722e-02 8.943493664264678955e-02
7.421395778656005859e-01 4.076242819428443909e-02 3.585067391395568848e-02
8.483977317810058594e-01 -2.438119798898696899e-02 -8.290143311023712158e-02
8.630210757255554199e-01 2.709022909402847290e-02 -7.167449593544006348e-02
8.073654174804687500e-01 6.261117756366729736e-02 5.995048582553863525e-02
9.019868373870849609e-01 -3.917582333087921143e-02 -2.557625994086265564e-02
8.048868775367736816e-01 1.628148183226585388e-02 -9.084610641002655029e-02
8.882527947425842285e-01 -5.440232157707214355e-02 -3.828246518969535828e-02
9.095560908317565918e-01 -2.290794998407363892e-02 2.670585177838802338e-02
7.320732474327087402e-01 4.526259377598762512e-02 5.725134164094924927e-03
7.523684501647949219e-01 6.889109313488006592e-02 7.726924959570169449e-04
8.493678569793701172e-01 -3.543430566787719727e-02 8.380001783370971680e-02
8.434149622917175293e-01 -6.251613050699234009e-02 -6.977149844169616699e-02
9.107822775840759277e-01 -2.681634947657585144e-02 -5.086103454232215881e-03
9.027902483940124512e-01 2.909103408455848694e-02 -1.994696632027626038e-02
8.674138188362121582e-01 -8.223357796669006348e-02 -3.286001086235046387e-02
8.289256691932678223e-01 -7.933013141155242920e-02 -6.171501055359840393e-02
7.165567278861999512e-01 -2.702080458402633667e-02 4.916486330330371857e-03
8.275554776191711426e-01 -1.013232246041297913e-01 -3.104070201516151428e-02
8.916121721267700195e-01 5.402268469333648682e-02 -7.320938631892204285e-03
8.280100822448730469e-01 -3.591033164411783218e-03 8.987092971801757812e-02
8.769351243972778320e-01 1.734365895390510559e-02 6.910227239131927490e-02
9.073866605758666992e-01 -3.410531952977180481e-02 -1.388237159699201584e-02
8.794989585876464844e-01 -2.826808765530586243e-02 7.009191811084747314e-02
7.862167358398437500e-01 7.735916227102279663e-02 -4.500394687056541443e-02
7.863993644714355469e-01 -9.814986586570739746e-02 -3.527029603719711304e-02
7.713218927383422852e-01 7.924556732177734375e-02 1.144963037222623825e-02
8.340107798576354980e-01 -1.072024777531623840e-01 1.860094955191016197e-03
7.726595401763916016e-01 -8.543965220451354980e-02 -4.842379316687583923e-02
8.158620595932006836e-01 8.418327569961547852e-02 3.065289184451103210e-02
7.166757583618164062e-01 -1.215557102113962173e-03 1.010570675134658813e-02
7.956991195678710938e-01 -6.684113293886184692e-02 -7.384924590587615967e-02
8.190052509307861328e-01 -5.292536690831184387e-03 -9.231270849704742432e-02
7.642862796783447266e-01 7.597260922193527222e-02 -2.343396842479705811e-02
7.511589527130126953e-01 -8.273425698280334473e-02 2.223342284560203552e-02
8.004662394523620605e-01 6.782131642103195190e-02 -6.234986707568168640e-02
8.031851649284362793e-01 -6.889805942773818970e-02 7.267226278781890869e-02
7.665655016899108887e-01 7.872529327869415283e-02 -2.967355540022253990e-04
8.166407346725463867e-01 -8.171726018190383911e-03 9.023247659206390381e-02
7.149497270584106445e-01 -1.442362461239099503e-02 -1.858858764171600342e-02
8.534793257713317871e-01 -1.000845730304718018e-01 1.406299788504838943e-02
7.343546748161315918e-01 5.061087757349014282e-02 -1.221891213208436966e-02
8.282682895660400391e-01 -9.864865988492965698e-02 4.137656837701797485e-02
9.123165607452392578e-01 -9.709062054753303528e-03 -7.452305871993303299e-03
7.972697615623474121e-01 2.489825710654258728e-03 8.668814599514007568e-02
8.814955353736877441e-01 2.822009474039077759e-02 -5.611776560544967651e-02
8.388683199882507324e-01 -9.549524635076522827e-02 4.311421513557434082e-02
8.940528631210327148e-01 -6.438069790601730347e-02 -1.102684065699577332e-02
9.085474014282226562e-01 2.125315740704536438e-02 1.434609852731227875e-02
7.266811132431030273e-01 -5.773941427469253540e-02 3.501291852444410324e-03
8.694948554039001465e-01 -1.970890164375305176e-02 7.798077166080474854e-02
7.875740528106689453e-01 3.320311009883880615e-02 -8.380417525768280029e-02
8.876230716705322266e-01 -6.991878151893615723e-02 3.015055879950523376e-02
8.921167850494384766e-01 -6.008952856063842773e-02 -2.483806945383548737e-02
8.412693738937377930e-01 -1.048903688788414001e-01 1.173652987927198410e-02
8.693624138832092285e-01 -2.455918863415718079e-02 -7.131277024745941162e-02
7.202646732330322266e-01 -1.373419165611267090e-02 2.347390167415142059e-02
8.250766396522521973e-01 7.120135426521301270e-02 5.149723589420318604e-02
7.699871063232421875e-01 8.085477352142333984e-02 -9.613766334950923920e-03
8.070236444473266602e-01 3.140028566122055054e-03 -9.272150695323944092e-02
7.524102926254272461e-01 -8.830963820219039917e-02 -1.265279669314622879e-02
8.927263617515563965e-01 -6.241858005523681641e-02 3.142204135656356812e-02
7.341300845146179199e-01 4.338127560913562775e-03 4.595085233449935913e-02
8.300781846046447754e-01 -8.650068938732147217e-02 -5.380571633577346802e-02
7.959212064743041992e-01 -9.835128486156463623e-02 -3.885808214545249939e-02
7.907611727714538574e-01 -4.415039438754320145e-03 -9.192624688148498535e-02
7.965253591537475586e-01 -2.312109991908073425e-02 8.704221248626708984e-02
8.724269866943359375e-01 -5.846128240227699280e-02 6.240962073206901550e-02
7.559730410575866699e-01 5.984780192375183105e-02 3.184619545936584473e-02
7.239316701889038086e-01 -3.947461396455764771e-02 -3.570728003978729248e-02
7.585061788558959961e-01 -6.501468271017074585e-02 5.358318239450454712e-02
8.701502084732055664e-01 3.017535805702209473e-02 -6.541761755943298340e-02
7.159515023231506348e-01 -6.525374017655849457e-03 -2.499308064579963684e-02
7.773942947387695312e-01 7.278773188591003418e-02 -4.729454964399337769e-02
8.862935900688171387e-01 6.098491698503494263e-02 -6.567951641045510769e-04
8.719111084938049316e-01 6.651933491230010986e-02 -2.976997569203376770e-02
7.799651026725769043e-01 7.470852881669998169e-02 3.319828957319259644e-02
9.023569226264953613e-01 3.825045377016067505e-02 3.568663261830806732e-03
7.391713261604309082e-01 -1.250985264778137207e-02 -6.696341931819915771e-02
8.892409205436706543e-01 -1.623933576047420502e-02 -5.496435984969139099e-02
8.991784453392028809e-01 -4.795727133750915527e-02 -2.377251908183097839e-02
9.122740030288696289e-01 1.893769949674606323e-03 -5.090059712529182434e-03
7.312925457954406738e-01 1.514867600053548813e-02 -5.370831862092018127e-02
7.785392403602600098e-01 8.417841792106628418e-02 -1.612503454089164734e-02
7.818791270256042480e-01 -6.750184297561645508e-02 6.688901782035827637e-02
9.106561541557312012e-01 -1.375444699078798294e-02 2.607278712093830109e-02
7.519097924232482910e-01 -1.105693168938159943e-03 -7.712645828723907471e-02
7.722321748733520508e-01 -7.449099421501159668e-02 -6.064241752028465271e-02
8.853455185890197754e-01 -7.748340070247650146e-02 1.333258487284183502e-02
7.818089723587036133e-01 -1.044271290302276611e-01 -6.799966562539339066e-03
7.384845614433288574e-01 -7.221233844757080078e-02 1.479005068540573120e-02
9.057305455207824707e-01 -3.580078482627868652e-02 3.008829057216644287e-02
7.152539491653442383e-01 -2.374134957790374756e-02 -1.272357162088155746e-02
7.314088940620422363e-01 3.445052728056907654e-02 2.325398847460746765e-02
7.218334674835205078e-01 -7.449814584106206894e-03 -4.284895211458206177e-02
8.669578433036804199e-01 -9.109143912792205811e-02 2.256967499852180481e-02
7.221261262893676758e-01 2.897717803716659546e-02 -5.176158621907234192e-03
9.033859372138977051e-01 3.081317991018295288e-02 2.284463681280612946e-02
8.729691505432128906e-01 7.228058576583862305e-02 8.693711832165718079e-03
7.650015354156494141e-01 -8.561757951974868774e-02 3.740387037396430969e-02
7.354149222373962402e-01 4.554633423686027527e-02 1.673575304448604584e-02
8.176610469818115234e-01 2.985437959432601929e-02 8.204226195812225342e-02
7.773958444595336914e-01 7.757622003555297852e-02 2.503584884107112885e-02
7.703829407691955566e-01 -7.617250829935073853e-02 5.342697724699974060e-02
8.251252770423889160e-01 -1.494630798697471619e-02 9.031346440315246582e-02
8.717774748802185059e-01 -1.046078652143478394e-02 -7.148678600788116455e-02
8.215418457984924316e-01 -4.297074675559997559e-02 -8.542039990425109863e-02
7.507753968238830566e-01 -1.645737886428833008e-02 -7.605656981468200684e-02
9.123743772506713867e-01 -2.948114182800054550e-03 1.755832321941852570e-02
7.918434143066406250e-01 1.047023851424455643e-02 8.388626575469970703e-02
7.448689341545104980e-01 6.265319138765335083e-02 -1.286942884325981140e-02
7.626548409461975098e-01 5.056870356202125549e-02 4.949604347348213196e-02
8.809302449226379395e-01 -6.760692596435546875e-02 -3.513977304100990295e-02
8.600258827209472656e-01 -8.410669863224029541e-02 -3.833911195397377014e-02
8.333748579025268555e-01 7.459544390439987183e-02 -5.068686604499816895e-02
8.782003521919250488e-01 -8.125038444995880127e-02 -1.556871831417083740e-02
8.604931831359863281e-01 -3.019909188151359558e-02 8.087940514087677002e-02
7.649789452552795410e-01 7.386884093284606934e-02 1.728247664868831635e-02
7.249326109886169434e-01 -5.549927800893783569e-02 -7.963817566633224487e-03
8.706403374671936035e-01 1.266227569431066513e-02 7.463048398494720459e-02
8.545166254043579102e-01 -1.394707150757312775e-02 8.496764302253723145e-02
7.810592055320739746e-01 -7.364050298929214478e-02 -6.521672010421752930e-02
8.547940254211425781e-01 8.147320896387100220e-02 -1.801285333931446075e-02
7.975119352340698242e-01 3.178294003009796143e-02 -8.592508733272552490e-02
8.433797955513000488e-01 8.363486081361770630e-02 -2.688535675406455994e-02
8.996819257736206055e-01 -1.878402568399906158e-02 5.018305405974388123e-02
7.306516170501708984e-01 -3.101027384400367737e-02 -5.306365340948104858e-02
8.287518024444580078e-01 4.552046209573745728e-02 -7.775196433067321777e-02
8.686266541481018066e-01 -9.162227809429168701e-02 -3.901756135746836662e-03
9.040641188621520996e-01 -4.532245546579360962e-02 -1.178231090307235718e-02
8.628200888633728027e-01 7.280055433511734009e-02 -3.058393858373165131e-02
7.492856383323669434e-01 -6.046717613935470581e-02 -5.652143061161041260e-02
8.808043599128723145e-01 2.743904292583465576e-02 6.169930472970008850e-02
7.929439544677734375e-01 -3.462827578186988831e-02 8.437263965606689453e-02
7.512272596359252930e-01 -3.452578186988830566e-02 6.254750490188598633e-02
7.945567965507507324e-01 -7.229920476675033569e-02 6.829211115837097168e-02
7.426578402519226074e-01 -2.024146914482116699e-02 5.730540305376052856e-02
7.218016386032104492e-01 -2.769856527447700500e-02 2.396428026258945465e-02
7.392612099647521973e-01 2.992650493979454041e-03 -6.643784046173095703e-02
8.764916062355041504e-01 -7.459080219268798828e-02 4.249927029013633728e-02
8.981729745864868164e-01 -2.142518293112516403e-03 -4.386047273874282837e-02
7.740986347198486328e-01 2.762344665825366974e-03 7.862485945224761963e-02
7.765947580337524414e-01 6.825271248817443848e-02 4.071240499615669250e-02
8.266791701316833496e-01 8.926759660243988037e-02 -2.057864144444465637e-02
7.885752916336059570e-01 6.646332144737243652e-02 -6.106982007622718811e-02
7.433472275733947754e-01 4.284873232245445251e-02 -5.131410807371139526e-02
7.161233425140380859e-01 7.759355939924716949e-03 -1.593531668186187744e-02
7.142971754074096680e-01 -6.221211515367031097e-03 -7.058216724544763565e-03
7.668046951293945312e-01 -1.553013175725936890e-02 -8.485150337219238281e-02
7.975279092788696289e-01 7.513906061649322510e-02 4.260478541254997253e-02
7.794729471206665039e-01 3.619666397571563721e-02 -8.033508062362670898e-02
8.607325553894042969e-01 -8.867066353559494019e-02 3.870147094130516052e-02
7.455802559852600098e-01 5.051240697503089905e-02 2.987333573400974274e-02
8.881521821022033691e-01 -3.625418990850448608e-02 5.985200405120849609e-02
7.972055673599243164e-01 -2.331269346177577972e-02 -9.126673638820648193e-02
7.531442046165466309e-01 -6.964118778705596924e-02 -5.162427946925163269e-02
7.677653431892395020e-01 -1.887551695108413696e-02 7.637348771095275879e-02
8.328196406364440918e-01 3.100685775279998779e-02 8.094522356986999512e-02
9.116787314414978027e-01 7.497041486203670502e-03 1.462792791426181793e-02
7.583261728286743164e-01 6.875096261501312256e-02 -3.400006517767906189e-02
7.216305136680603027e-01 -2.108134329319000244e-02 -4.061565920710563660e-02
8.082209229469299316e-01 -2.280703186988830566e-02 -9.169802069664001465e-02
8.602340221405029297e-01 7.864230871200561523e-02 1.660123281180858612e-02
8.233054876327514648e-01 -6.186646968126296997e-02 -7.619073987007141113e-02
8.455944657325744629e-01 3.457285836338996887e-02 -7.774473726749420166e-02
7.669290304183959961e-01 1.458885613828897476e-02 7.227300107479095459e-02
9.008356332778930664e-01 -3.853531554341316223e-02 4.022025316953659058e-02
8.804303407669067383e-01 6.098134070634841919e-02 -2.498318441212177277e-02
8.489796519279479980e-01 -9.492004662752151489e-02 -3.002350032329559326e-02
9.075471162796020508e-01 -2.433571964502334595e-02 -2.106028981506824493e-02
8.767626285552978516e-01 -8.603619784116744995e-02 7.160171866416931152e-03
8.995522856712341309e-01 3.987741097807884216e-02 2.002188377082347870e-02
8.059722781181335449e-01 9.121715277433395386e-02 -9.030759683810174465e-04
7.586594223976135254e-01 6.398577243089675903e-02 -4.386240243911743164e-02
8.144569993019104004e-01 7.463786751031875610e-02 4.708362370729446411e-02
9.098044037818908691e-01 8.743675425648689270e-04 -1.782857812941074371e-02
9.033809900283813477e-01 2.774489112198352814e-03 4.335037991404533386e-02
7.870275378227233887e-01 8.739379048347473145e-02 4.924898967146873474e-04
8.435022234916687012e-01 7.009042054414749146e-02 -5.185442045331001282e-02
8.372104763984680176e-01 -1.037862971425056458e-01 2.385990135371685028e-02
8.409183621406555176e-01 7.585830986499786377e-02 -4.517593234777450562e-02
7.239620685577392578e-01 2.894283831119537354e-02 8.457260206341743469e-03
7.702399492263793945e-01 -9.909214824438095093e-02 -1.332843396812677383e-02
8.100355863571166992e-01 -4.859203472733497620e-02 -8.432202041149139404e-02
7.713228464126586914e-01 -2.355396002531051636e-02 -8.555871248245239258e-02
7.483906745910644531e-01 3.521428629755973816e-02 4.821030050516128540e-02
7.925380468368530273e-01 5.725622177124023438e-02 -7.072396576404571533e-02
7.347779870033264160e-01 -2.393687143921852112e-02 -6.059986352920532227e-02
8.525751829147338867e-01 -7.787860184907913208e-02 -5.219410359859466553e-02
8.986784219741821289e-01 -1.914213411509990692e-02 -4.169327765703201294e-02
7.709906101226806641e-01 -4.489650949835777283e-02 7.281424105167388916e-02
7.905736565589904785e-01 -2.968715503811836243e-02 -8.925206959247589111e-02
7.311350107192993164e-01 -4.606437683105468750e-02 -4.507651180028915405e-02
8.998171091079711914e-01 -5.767126381397247314e-02 -1.879266812466084957e-03
8.538545370101928711e-01 1.803680881857872009e-02 -7.952865958213806152e-02
7.244014143943786621e-01 1.950066536664962769e-02 -3.851646184921264648e-02
7.519319653511047363e-01 -7.987803220748901367e-02 -3.625529631972312927e-02
7.927738428115844727e-01 -1.051945611834526062e-01 -1.940028369426727295e-02
8.825532197952270508e-01 5.623064003884792328e-03 6.800797581672668457e-02
7.442834377288818359e-01 5.650323629379272461e-02 1.732688397169113159e-02
7.565221786499023438e-01 -8.981446921825408936e-02 1.440943591296672821e-02
7.764387726783752441e-01 8.377183973789215088e-02 -2.582141896709799767e-03
7.482207417488098145e-01 -6.351764500141143799e-02 4.428016394376754761e-02
7.963109016418457031e-01 -1.011208444833755493e-01 3.384647145867347717e-02
8.395153880119323730e-01 -2.147070877254009247e-02 -8.666209876537322998e-02
7.551952600479125977e-01 -7.536028325557708740e-02 4.030871763825416565e-02
8.128956556320190430e-01 6.471845507621765137e-02 -6.600123643875122070e-02
8.138244152069091797e-01 -1.024847403168678284e-01 -3.211088478565216064e-02
7.315317392349243164e-01 -6.673460453748703003e-02 -6.442128680646419525e-03
7.444202899932861328e-01 4.950678348541259766e-02 -4.540966451168060303e-02
8.705498576164245605e-01 -7.217698544263839722e-02 5.221127346158027649e-02
8.930785655975341797e-01 -5.766426678746938705e-03 -5.111463740468025208e-02
8.899728655815124512e-01 5.519159883260726929e-02 1.545652933418750763e-02
8.989189267158508301e-01 4.352983832359313965e-02 -5.687364377081394196e-03
8.764582872390747070e-01 -1.285316422581672668e-02 7.411845028400421143e-02
7.906820178031921387e-01 8.716473728418350220e-02 9.625517763197422028e-03
8.179695606231689453e-01 -8.852308988571166992e-02 5.721639096736907959e-02
8.348445296287536621e-01 1.508076954632997513e-02 -8.731335401535034180e-02
7.855788469314575195e-01 6.269390136003494263e-02 5.285899341106414795e-02
8.748669624328613281e-01 4.300003871321678162e-02 -5.395179986953735352e-02
7.453553676605224609e-01 -3.854415938258171082e-02 5.586459115147590637e-02
8.196687102317810059e-01 -6.054438650608062744e-02 7.895746827125549316e-02
7.242015600204467773e-01 -1.089049503207206726e-02 3.234302625060081482e-02
8.852249979972839355e-01 6.062822043895721436e-02 -1.164976879954338074e-02
7.467934489250183105e-01 2.024589478969573975e-02 5.493146181106567383e-02
7.207121253013610840e-01 -4.383349418640136719e-02 4.206465091556310654e-03
7.609043121337890625e-01 -2.621513232588768005e-02 7.147812843322753906e-02
8.582317829132080078e-01 -4.374665394425392151e-02 7.811234891414642334e-02
8.407060503959655762e-01 8.736141026020050049e-02 -1.493310276418924332e-02
7.230300903320312500e-01 8.717057295143604279e-03 -4.177203774452209473e-02
8.699682950973510742e-01 7.164662331342697144e-02 -2.089040540158748627e-02
9.026096463203430176e-01 -1.263478398323059082e-02 -3.604512661695480347e-02
8.770233392715454102e-01 6.783581525087356567e-02 -1.452060323208570480e-02
8.614266514778137207e-01 -1.696337759494781494e-02 -7.761543989181518555e-02
8.496457338333129883e-01 8.102968335151672363e-02 2.425555512309074402e-02
7.841603755950927734e-01 -5.077690258622169495e-02 7.663851976394653320e-02
7.174215912818908691e-01 -3.546906262636184692e-02 -5.215471610426902771e-03
8.968149423599243164e-01 -6.286039948463439941e-02 1.314830407500267029e-02
8.119196891784667969e-01 4.860740154981613159e-02 -7.824112474918365479e-02
8.012596964836120605e-01 8.969617635011672974e-02 7.955103181302547455e-03
8.978852629661560059e-01 2.491879463195800781e-02 -3.536196798086166382e-02
8.539339900016784668e-01 6.296717375516891479e-02 -5.365420877933502197e-02
8.419255018234252930e-01 6.189193576574325562e-02 -6.153850257396697998e-02
8.560773134231567383e-01 6.592778116464614868e-02 4.723979160189628601e-02
8.650264739990234375e-01 3.721712157130241394e-02 6.746840476989746094e-02
7.167828083038330078e-01 1.243837829679250717e-02 -6.897209677845239639e-03
7.462671399116516113e-01 -8.379083126783370972e-02 -2.496398985385894775e-03
8.289079666137695312e-01 6.276545673608779907e-02 6.033793836832046509e-02
7.988177537918090820e-01 -9.678842127323150635e-02 4.313694685697555542e-02
8.400338888168334961e-01 -7.059712894260883331e-03 -8.771629631519317627e-02
7.539943456649780273e-01 -5.308183655142784119e-02 -6.574401259422302246e-02
8.635246753692626953e-01 -7.811101526021957397e-02 5.175197124481201172e-02
8.103823065757751465e-01 7.313504070043563843e-02 -5.692977830767631531e-02
7.429398298263549805e-01 6.039888411760330200e-02 -1.064860261976718903e-03
8.316878080368041992e-01 4.655344784259796143e-02 7.283385097980499268e-02
8.948363065719604492e-01 -2.395978197455406189e-02 5.590293556451797485e-02
7.378964424133300781e-01 -6.748028844594955444e-02 2.293836884200572968e-02
7.750806212425231934e-01 8.095166832208633423e-02 -2.571986243128776550e-02
8.614299297332763672e-01 -9.667505323886871338e-02 5.455436650663614273e-03
9.021664261817932129e-01 -5.152510479092597961e-02 2.012662962079048157e-02
7.192522287368774414e-01 2.017642930150032043e-02 -7.986428681761026382e-04
8.988173007965087891e-01 -4.850280284881591797e-02 3.583726659417152405e-02
8.248355388641357422e-01 3.997233137488365173e-02 7.725943624973297119e-02
8.286763429641723633e-01 5.776724219322204590e-02 -6.962494552135467529e-02
9.038084149360656738e-01 1.106117386370897293e-02 3.953651711344718933e-02
8.644131422042846680e-01 -1.578783150762319565e-03 -7.648448646068572998e-02
7.204849720001220703e-01 6.008376367390155792e-03 2.001203037798404694e-02
7.802333831787109375e-01 2.685417607426643372e-02 7.473306357860565186e-02
8.067862391471862793e-01 4.219675436615943909e-02 7.502251863479614258e-02
7.716103196144104004e-01 -9.942375123500823975e-02 1.215385459363460541e-02
7.425099611282348633e-01 2.718568220734596252e-02 4.677918180823326111e-02
8.502712845802307129e-01 -5.097769573330879211e-02 -7.322745025157928467e-02
7.809929847717285156e-01 6.882187724113464355e-02 -5.515459552407264709e-02
8.734279274940490723e-01 6.498240679502487183e-02 3.137487918138504028e-02
9.057741761207580566e-01 -2.559370175004005432e-02 3.667516633868217468e-02
7.676752805709838867e-01 6.156715005636215210e-02 -5.572164431214332581e-02
7.558561563491821289e-01 7.079114764928817749e-02 -2.153566293418407440e-02
7.194769978523254395e-01 -4.170202091336250305e-02 -1.336406823247671127e-02
8.790199756622314453e-01 -1.692815124988555908e-02 -6.508661806583404541e-02
7.743901014328002930e-01 6.105316430330276489e-02 4.802332818508148193e-02
8.749858140945434570e-01 7.094462960958480835e-02 -6.237049587070941925e-03
8.681191205978393555e-01 1.669711992144584656e-02 -7.150436937808990479e-02
8.146684765815734863e-01 -1.091426536440849304e-01 -6.482913624495267868e-03
8.552669882774353027e-01 3.023669123649597168e-02 -7.498456537723541260e-02
7.937042713165283203e-01 8.013216406106948853e-02 3.237381950020790100e-02
8.296566605567932129e-01 9.050302952527999878e-02 -8.337778970599174500e-03
9.011818766593933105e-01 2.877299487590789795e-02 3.225446492433547974e-02
8.577326536178588867e-01 4.307218641042709351e-02 6.758914887905120850e-02
8.672602176666259766e-01 5.722333490848541260e-02 -4.877837747335433960e-02
7.199324369430541992e-01 1.992001757025718689e-02 -2.250040881335735321e-02
8.084420561790466309e-01 -3.050658479332923889e-02 8.814695477485656738e-02
8.378378152847290039e-01 -6.748066842555999756e-02 7.298450171947479248e-02
7.438894510269165039e-01 1.315325219184160233e-02 -6.861086189746856689e-02
7.354178428649902344e-01 -2.837028354406356812e-02 4.763494059443473816e-02
9.090029597282409668e-01 -1.224961131811141968e-02 -2.095244638621807098e-02
7.622005939483642578e-01 4.200396127998828888e-03 -8.255548775196075439e-02
8.495473265647888184e-01 3.650429472327232361e-02 7.468810677528381348e-02
7.786532044410705566e-01 -1.025882177054882050e-02 -8.929793536663055420e-02
8.080645799636840820e-01 2.652290090918540955e-02 -8.821766078472137451e-02
7.607686519622802734e-01 -4.232737794518470764e-02 -7.547469437122344971e-02
8.234315514564514160e-01 -1.079533770680427551e-01 -1.053095236420631409e-02
8.312535285949707031e-01 -9.279119223356246948e-02 5.013100057840347290e-02
8.794851899147033691e-01 5.503851175308227539e-02 3.919082134962081909e-02
8.373461365699768066e-01 7.171329110860824585e-02 4.847978800535202026e-02
7.933297157287597656e-01 -8.094333857297897339e-02 6.079396232962608337e-02
8.873885869979858398e-01 5.111902207136154175e-02 -2.825114689767360687e-02
8.854939937591552734e-01 -4.754274711012840271e-02 -4.734068363904953003e-02
8.657642006874084473e-01 -7.587327808141708374e-02 -4.360026121139526367e-02
8.672657012939453125e-01 4.773847758769989014e-02 -5.734097585082054138e-02
7.423529624938964844e-01 -5.829542502760887146e-02 -5.088210105895996094e-02
7.733012437820434570e-01 -3.532832488417625427e-02 7.680280506610870361e-02
7.604386806488037109e-01 3.975689783692359924e-02 5.622135475277900696e-02
8.370977044105529785e-01 5.288863182067871094e-02 -7.075457274913787842e-02
7.545978426933288574e-01 -5.413879826664924622e-02 5.737694352865219116e-02
8.824849724769592285e-01 1.096369698643684387e-03 -6.246682256460189819e-02
7.779431939125061035e-01 -1.032443195581436157e-01 2.250833902508020401e-03
8.810039162635803223e-01 6.478318572044372559e-02 1.435058377683162689e-02
-4.960632026195526123e-01 -4.741718247532844543e-02 -7.196108251810073853e-02
-6.239959001541137695e-01 1.473598480224609375e-01 -1.552005298435688019e-02
-5.473610758781433105e-01 6.930110603570938110e-02 -1.285046339035034180e-01
-4.372372627258300781e-01 -4.360158368945121765e-02 -5.839795246720314026e-02
-3.474702239036560059e-01 3.675373643636703491e-02 6.608465313911437988e-02
-4.440593421459197998e-01 -3.338089212775230408e-02 4.991945251822471619e-02
-7.515900135040283203e-01 1.198447197675704956e-01 1.850100979208946228e-02
-4.803059101104736328e-01 1.339843720197677612e-01 -7.645387947559356689e-02
-3.840903639793395996e-01 -7.975846529006958008e-03 5.556628853082656860e-02
-2.664437890052795410e-01 5.593400448560714722e-02 -4.359648376703262329e-02
-3.423105180263519287e-01 8.512262254953384399e-03 4.768376797437667847e-02
-3.374617993831634521e-01 1.258377134799957275e-01 -1.447982247918844223e-02
-4.264095127582550049e-01 7.126774638891220093e-02 9.459651261568069458e-02
-8.288661241531372070e-01 5.746333301067352295e-02 -4.372633248567581177e-02
-8.161102533340454102e-01 -8.095826953649520874e-03 5.290257930755615234e-02
-6.537579894065856934e-01 9.392492473125457764e-02 1.004197373986244202e-01
-4.571006000041961670e-01 4.713877290487289429e-02 1.037737354636192322e-01
-7.425878047943115234e-01 5.886965990066528320e-02 -9.401354193687438965e-02
-5.818644762039184570e-01 -6.390786170959472656e-02 -3.752711787819862366e-02
-8.527046442031860352e-01 2.793068438768386841e-02 -2.629086002707481384e-02
-4.087105691432952881e-01 1.344115734100341797e-01 -6.012389436364173889e-02
-3.214185833930969238e-01 1.130883842706680298e-01 1.407545804977416992e-02
-3.507179915904998779e-01 9.691777825355529785e-02 5.595030635595321655e-02
-8.607001304626464844e-01 2.086761035025119781e-02 -6.794329732656478882e-03
-4.078756570816040039e-01 -3.887512907385826111e-02 -5.171576142311096191e-02
-8.401597142219543457e-01 7.257185131311416626e-02 2.072464302182197571e-02
-5.506977438926696777e-01 4.660900309681892395e-02 1.164602488279342651e-01
-3.147215545177459717e-01 -7.508762180805206299e-03 -2.512876316905021667e-02
-2.884632349014282227e-01 1.002938598394393921e-01 -2.159741520881652832e-02
-2.647888958454132080e-01 4.318561777472496033e-02 -2.996559627354145050e-02
-7.296810746192932129e-01 1.010743975639343262e-01 7.616193592548370361e-02
-5.163819193840026855e-01 -4.521604254841804504e-02 -7.989146560430526733e-02
-4.532640278339385986e-01 7.580020278692245483e-02 9.965126216411590576e-02
-5.962377786636352539e-01 1.039208322763442993e-01 9.824541956186294556e-02
-4.002699851989746094e-01 5.388724431395530701e-02 -1.203144937753677368e-01
-4.911756217479705811e-01 -1.667494699358940125e-02 8.396354317665100098e-02
-7.461513280868530273e-01 1.180713772773742676e-01 -2.645126171410083771e-02
-6.095469594001770020e-01 -3.888863697648048401e-02 -9.021079540252685547e-02
-5.380461215972900391e-01 -6.336861848831176758e-02 -3.046680614352226257e-02
-7.190448045730590820e-01 4.384297132492065430e-02 1.068788543343544006e-01
-7.708089947700500488e-01 6.796601414680480957e-02 -7.746128737926483154e-02
-6.756756305694580078e-01 -6.130528822541236877e-02 1.528445072472095490e-02
-4.735468029975891113e-01 -2.438326552510261536e-02 7.206498831510543823e-02
-5.637564659118652344e-01 1.518867313861846924e-01 1.432182639837265015e-02
-8.075390458106994629e-01 -3.066993132233619690e-02 8.468909189105033875e-03
-4.003103375434875488e-01 1.422851234674453735e-01 -1.928104087710380554e-03
-2.941435277462005615e-01 1.603648066520690918e-02 -5.622451007366180420e-02
-5.139059424400329590e-01 -2.962096408009529114e-02 -1.006758511066436768e-01
-4.778920412063598633e-01 3.141519799828529358e-02 -1.304432004690170288e-01
-7.107847332954406738e-01 -5.559702590107917786e-02 2.240470238029956818e-02
-8.106075525283813477e-01 4.834591224789619446e-02 -6.290882080793380737e-02
-5.851472616195678711e-01 -4.745704308152198792e-02 -7.975362241268157959e-02
-7.951259613037109375e-01 4.243188351392745972e-02 -7.399798184633255005e-02
-4.784267842769622803e-01 2.715107053518295288e-03 -1.215767860412597656e-01
-4.963845312595367432e-01 -6.378851830959320068e-04 -1.214943677186965942e-01
-6.798114776611328125e-01 1.325021237134933472e-01 -4.007430374622344971e-02
-3.742122650146484375e-01 3.025095537304878235e-02 -1.116296499967575073e-01
-3.845183849334716797e-01 1.359024047851562500e-01 -4.191996529698371887e-02
-6.561377644538879395e-01 8.828893303871154785e-03 1.094203218817710876e-01
-4.313833713531494141e-01 -4.889212176203727722e-02 -7.966146804392337799e-03
-7.126588225364685059e-01 1.076409369707107544e-01 7.483246177434921265e-02
-8.157880306243896484e-01 6.187675520777702332e-02 -5.240664631128311157e-02
-5.615410804748535156e-01 1.322453469038009644e-01 -7.770936191082000732e-02
-7.752588987350463867e-01 4.752560704946517944e-02 -8.327089995145797729e-02
-5.752145051956176758e-01 -3.236806765198707581e-02 8.084879815578460693e-02
-7.703848481178283691e-01 -4.258113726973533630e-02 -2.081974409520626068e-02
-7.576409578323364258e-01 7.860410213470458984e-02 -7.721056044101715088e-02
-7.655737400054931641e-01 1.157053112983703613e-01 6.762212608009576797e-03
-5.039910078048706055e-01 1.299983114004135132e-01 -8.388370275497436523e-02
-4.980589449405670166e-01 1.057242155075073242e-01 -1.099241673946380615e-01
-6.293282508850097656e-01 8.538201451301574707e-02 1.077778339385986328e-01
-4.679505228996276855e-01 -3.438228741288185120e-02 5.750082433223724365e-02
-5.096595287322998047e-01 -4.331913962960243225e-02 5.570638179779052734e-02
-7.917817831039428711e-01 1.038453131914138794e-01 1.914399117231369019e-02
-6.832803487777709961e-01 -5.390683189034461975e-02 4.060699418187141418e-02
-4.759810268878936768e-01 1.414077877998352051e-01 -6.131688505411148071e-02
-7.081103324890136719e-01 9.002305567264556885e-02 9.280341863632202148e-02
-5.698629021644592285e-01 -6.160340830683708191e-02 2.526398748159408569e-02
-8.552597761154174805e-01 5.649738386273384094e-02 1.260492950677871704e-02
-6.330630183219909668e-01 -4.813087359070777893e-02 6.027763336896896362e-02
-6.414358615875244141e-01 1.683949306607246399e-02 1.130376383662223816e-01
-4.388696253299713135e-01 6.165101379156112671e-02 9.927511215209960938e-02
-7.948115468025207520e-01 -3.482821956276893616e-02 1.833247020840644836e-02
-5.371235609054565430e-01 -1.106875762343406677e-02 -1.173815429210662842e-01
-8.494982123374938965e-01 5.319587886333465576e-03 3.029834851622581482e-02
-7.063094377517700195e-01 -3.835989907383918762e-02 -7.052794098854064941e-02
-5.671238899230957031e-01 8.766779303550720215e-02 1.081878170371055603e-01
-4.226674139499664307e-01 3.062123619019985199e-02 -1.232741773128509521e-01
-7.274987101554870605e-01 -3.300952538847923279e-02 6.667097657918930054e-02
-6.241226792335510254e-01 -3.298295661807060242e-02 -9.531602263450622559e-02
-5.597576498985290527e-01 1.466743350028991699e-01 3.827515617012977600e-02
-4.485752880573272705e-01 -8.666776120662689209e-03 7.994069159030914307e-02
-7.234779596328735352e-01 -2.139428630471229553e-02 -8.351519703865051270e-02
-7.374688386917114258e-01 9.417831897735595703e-02 -7.356915622949600220e-02
-3.296068608760833740e-01 -6.539523601531982422e-03 1.734098605811595917e-02
-5.588680505752563477e-01 -6.683617830276489258e-03 1.012212410569190979e-01
-5.373747944831848145e-01 1.416021138429641724e-01 -6.247083097696304321e-02
-4.868417382240295410e-01 -3.586832061409950256e-02 -8.946343511343002319e-02
-6.242719888687133789e-01 7.229313999414443970e-02 -1.199167892336845398e-01
-2.878250777721405029e-01 4.542736336588859558e-02 2.739388495683670044e-02
-5.024440288543701172e-01 7.700788974761962891e-02 1.074258089065551758e-01
-7.421448230743408203e-01 -4.832242056727409363e-02 2.822834253311157227e-02
-5.774376392364501953e-01 -6.608183681964874268e-02 -2.119627967476844788e-02
-6.687944531440734863e-01 1.339720636606216431e-01 4.492545127868652344e-02
-6.554965376853942871e-01 4.530251771211624146e-02 1.157830879092216492e-01
-5.486862063407897949e-01 2.953631430864334106e-02 1.146544069051742554e-01
-7.724372148513793945e-01 -1.081305742263793945e-02 7.471941411495208740e-02
-4.578114151954650879e-01 -3.841416165232658386e-02 -7.849204540252685547e-02
-5.617635846138000488e-01 -6.583967804908752441e-02 -5.990408360958099365e-03
-5.177535414695739746e-01 1.017819494009017944e-01 -1.130713596940040588e-01
-7.053037881851196289e-01 -4.930244758725166321e-02 4.506887868046760559e-02
-5.664877891540527344e-01 -5.234857276082038879e-02 -7.104676216840744019e-02
-6.850420236587524414e-01 1.311579495668411255e-01 4.425504058599472046e-02
-4.843358397483825684e-01 1.464308649301528931e-01 3.270673751831054688e-02
-6.605923771858215332e-01 -4.214571043848991394e-02 -7.812841236591339111e-02
-4.672549068927764893e-01 1.489544510841369629e-01 -3.508788347244262695e-02
-5.895856618881225586e-01 2.487031556665897369e-02 1.157822906970977783e-01
-5.180789828300476074e-01 4.825690388679504395e-02 -1.327919661998748779e-01
-3.678016066551208496e-01 7.224399596452713013e-02 -1.086345091462135315e-01
-8.380036354064941406e-01 -1.232358813285827637e-02 -2.403796650469303131e-03
-5.042707324028015137e-01 1.311850547790527344e-01 6.706116348505020142e-02
-5.692324042320251465e-01 7.513590157032012939e-02 -1.252331286668777466e-01
-4.858082830905914307e-01 -3.413357213139533997e-02 6.339200586080551147e-02
-6.554604172706604004e-01 -6.380243599414825439e-02 -2.184112183749675751e-02
-6.179020404815673828e-01 -6.003422662615776062e-02 -5.003558099269866943e-02
-4.866078794002532959e-01 1.498441994190216064e-01 -3.613442927598953247e-02
-7.895655632019042969e-01 8.416750282049179077e-02 -5.277883633971214294e-02
-4.581504166126251221e-01 9.917719662189483643e-02 -1.123316735029220581e-01
-3.650931715965270996e-01 1.332387924194335938e-01 2.622348722070455551e-03
-6.738947629928588867e-01 -4.840849712491035461e-02 5.509677529335021973e-02
-7.940865159034729004e-01 2.858184278011322021e-02 8.362219482660293579e-02
-7.590427994728088379e-01 1.041895151138305664e-01 -4.753911867737770081e-02
-7.248421907424926758e-01 8.846130967140197754e-02 8.930583298206329346e-02
-8.581897020339965820e-01 2.023755945265293121e-02 2.793132886290550232e-02
-4.397791326045989990e-01 -2.283482626080513000e-02 6.302019208669662476e-02
-6.241315007209777832e-01 6.729483604431152344e-03 -1.211634576320648193e-01
-4.627957940101623535e-01 1.269359141588211060e-01 6.579224020242691040e-02
-7.591150403022766113e-01 3.869090974330902100e-02 -9.179387241601943970e-02
-6.665299534797668457e-01 -6.372724473476409912e-02 -1.508685294538736343e-03
-4.195570647716522217e-01 1.231217533349990845e-01 5.875036120414733887e-02
-8.509756326675415039e-01 3.369176760315895081e-02 4.308120906352996826e-02
-3.994637429714202881e-01 -2.939423546195030212e-02 -6.992960721254348755e-02
-3.008662164211273193e-01 9.691681712865829468e-02 -5.753481015563011169e-02
-2.794065773487091064e-01 3.127094730734825134e-02 -5.351337417960166931e-02
-5.667948722839355469e-01 1.168092191219329834e-01 8.766318857669830322e-02
-8.530636429786682129e-01 1.346989348530769348e-02 -1.975439302623271942e-02
-6.404278874397277832e-01 -1.090215891599655151e-02 1.001601740717887878e-01
-7.196257710456848145e-01 -4.139383509755134583e-02 -6.063624471426010132e-02
-6.054730415344238281e-01 -5.211143568158149719e-02 5.336367338895797729e-02
-6.927035450935363770e-01 1.234309524297714233e-01 5.833312124013900757e-02
