7.325184345245361328e-02 -1.184348911046981812e-01 4.525810480117797852e-02
-6.425500661134719849e-02 -1.198283880949020386e-01 -3.810096532106399536e-02
3.711184859275817871e-01 -6.451882421970367432e-02 -5.853532999753952026e-02
2.439094483852386475e-01 -5.303755402565002441e-03 8.572427555918693542e-03
4.045450985431671143e-01 -6.295416504144668579e-02 -6.325703579932451248e-03
2.476620972156524658e-01 -1.890177279710769653e-02 3.051427192986011505e-02
-1.784731447696685791e-01 -9.900929033756256104e-02 4.986015707254409790e-02
4.146752059459686279e-01 -5.707228928804397583e-02 -1.408122666180133820e-02
3.142885565757751465e-01 -6.371542066335678101e-02 -7.823655009269714355e-02
1.642326638102531433e-02 -1.051875948905944824e-01 -6.758868694305419922e-02
1.953872144222259521e-01 -1.150429174304008484e-01 2.094120346009731293e-02
2.372186779975891113e-01 4.222966730594635010e-03 -3.656558692455291748e-02
7.801030576229095459e-02 2.443552017211914062e-03 -4.530379921197891235e-02
-1.348554342985153198e-02 -1.302642673254013062e-01 7.460901513695716858e-03
-1.699441671371459961e-01 -4.447159916162490845e-02 3.175128996372222900e-02
3.264485895633697510e-01 -9.341748803853988647e-02 -2.615107223391532898e-02
6.788565963506698608e-02 -1.254681646823883057e-01 2.766507305204868317e-02
1.254456639289855957e-01 -1.230715215206146240e-01 1.991917751729488373e-02
2.520572841167449951e-01 -1.096576526761054993e-01 4.879506304860115051e-04
-6.181746721267700195e-03 -7.445304840803146362e-02 7.345832884311676025e-02
-2.666292190551757812e-01 -7.605504989624023438e-02 -6.267629563808441162e-03
-1.336250603199005127e-01 -7.793959230184555054e-02 -7.212707400321960449e-02
6.098903343081474304e-02 -1.014830470085144043e-01 -7.248178869485855103e-02
-1.117808371782302856e-02 -1.243448406457901001e-01 3.892035037279129028e-02
7.659466564655303955e-02 -3.515773266553878784e-02 -9.832985699176788330e-02
1.370959132909774780e-01 -9.896159172058105469e-02 6.050053983926773071e-02
1.984847187995910645e-01 -8.210171014070510864e-02 6.091185659170150757e-02
-1.194252818822860718e-02 -9.565663337707519531e-02 -7.661997526884078979e-02
1.723442971706390381e-01 3.746353089809417725e-03 -5.356718599796295166e-02
-9.918422251939773560e-02 -1.277680397033691406e-01 6.067918613553047180e-03
-1.509527266025543213e-01 -8.811597526073455811e-02 5.938426405191421509e-02
2.259200513362884521e-01 -1.008950322866439819e-01 4.076675325632095337e-02
1.577297449111938477e-01 4.114702343940734863e-03 -5.138500779867172241e-02
2.320404946804046631e-01 -2.333533018827438354e-03 -6.819207966327667236e-02
1.763798892498016357e-01 -1.048824936151504517e-02 2.575867064297199249e-02
-2.167176008224487305e-01 -6.328698992729187012e-02 3.393223136663436890e-02
7.639802247285842896e-02 -1.447300985455513000e-02 -8.437085151672363281e-02
4.984432086348533630e-02 -9.218447655439376831e-02 7.109114527702331543e-02
3.659335672855377197e-01 -1.128881797194480896e-02 -3.156065940856933594e-02
3.354432284832000732e-01 -6.894160062074661255e-02 -6.827958673238754272e-02
9.890492260456085205e-02 -4.430988430976867676e-02 -1.011125519871711731e-01
-2.149461507797241211e-01 -1.111647710204124451e-01 -5.605486221611499786e-03
-5.748618394136428833e-02 -7.978823781013488770e-02 7.116297632455825806e-02
2.580607831478118896e-01 -8.928306400775909424e-03 -7.642780244350433350e-02
2.841542959213256836e-01 -5.699358880519866943e-03 -6.634198129177093506e-02
2.987394928932189941e-01 -1.703846082091331482e-02 1.835674606263637543e-02
1.653170436620712280e-01 -4.509980976581573486e-02 6.080499291419982910e-02
-1.065097972750663757e-01 -1.091590896248817444e-01 -5.094987154006958008e-02
2.671508491039276123e-01 -5.703351646661758423e-02 -9.044180065393447876e-02
-1.064248383045196533e-03 -6.647861003875732422e-02 -9.395755827426910400e-02
5.244173854589462280e-02 -3.693304955959320068e-03 6.633114069700241089e-03
2.355732023715972900e-01 -2.516631409525871277e-02 -9.270095825195312500e-02
-1.688251495361328125e-01 -1.126398891210556030e-01 -2.954905666410923004e-02
2.170393168926239014e-01 -3.399398922920227051e-02 -9.722802042961120605e-02
-1.821195185184478760e-01 -5.169515684247016907e-02 -5.730659514665603638e-02
2.329004928469657898e-02 -6.659917533397674561e-02 -9.564118832349777222e-02
4.544037580490112305e-02 -4.973863065242767334e-02 6.679789721965789795e-02
-3.906094282865524292e-02 -4.783872514963150024e-02 -9.055103361606597900e-02
1.517712920904159546e-01 -9.087938815355300903e-03 -8.226355910301208496e-02
9.699898213148117065e-02 -9.023144841194152832e-02 6.936036795377731323e-02
1.068756133317947388e-01 -1.199773177504539490e-01 3.632047027349472046e-02
4.134258627891540527e-01 -2.999825775623321533e-02 -2.678202278912067413e-02
-5.469366163015365601e-02 -1.296885609626770020e-01 3.771163523197174072e-03
2.000755518674850464e-01 -6.714665889739990234e-02 -9.371320158243179321e-02
3.907944262027740479e-01 -7.353979349136352539e-02 -1.949905231595039368e-02
2.703585922718048096e-01 1.649752259254455566e-03 -2.430430054664611816e-02
-6.664202362298965454e-02 -1.287898421287536621e-02 8.394448086619377136e-04
2.910728156566619873e-01 -7.554306089878082275e-02 4.385916143655776978e-02
-2.333375513553619385e-01 -7.843722403049468994e-02 -3.957618772983551025e-02
1.658718883991241455e-01 -2.565500512719154358e-02 4.620033502578735352e-02
-1.077064052224159241e-01 -1.940447092056274414e-02 3.117164596915245056e-03
-5.010912567377090454e-02 -1.914451643824577332e-02 -6.783030182123184204e-02
2.195742353796958923e-02 -1.296940743923187256e-01 1.164874620735645294e-02
-1.298357546329498291e-01 -3.200840577483177185e-02 2.607383765280246735e-02
3.288031518459320068e-01 -9.350684285163879395e-02 -9.846091270446777344e-04
3.444331586360931396e-01 -6.858017295598983765e-03 -3.124210983514785767e-02
3.578912615776062012e-01 -1.831447705626487732e-02 5.161007866263389587e-04
3.548611402511596680e-01 -7.711748033761978149e-02 -4.999204725027084351e-02
-2.163468897342681885e-01 -8.015294373035430908e-02 -4.706393182277679443e-02
3.008662462234497070e-01 -9.932882338762283325e-02 5.932169035077095032e-03
1.928288638591766357e-01 -1.112121716141700745e-02 2.567260153591632843e-02
3.051426410675048828e-01 -1.567397266626358032e-03 -4.317102581262588501e-02
-2.626886367797851562e-01 -7.311587780714035034e-02 8.286418393254280090e-03
-2.053499966859817505e-02 -7.912464439868927002e-02 7.318766415119171143e-02
5.863235145807266235e-02 1.898877322673797607e-03 -1.927373372018337250e-02
6.651563942432403564e-02 -8.146624267101287842e-02 -9.036537259817123413e-02
-6.083723157644271851e-02 -1.461878418922424316e-02 -5.510066449642181396e-02
-1.650045812129974365e-02 -1.155337095260620117e-01 -5.074166506528854370e-02
-6.271851807832717896e-02 -3.543308377265930176e-02 -8.156654238700866699e-02
4.157801270484924316e-01 -4.687885567545890808e-02 -4.200281947851181030e-02
-8.851151913404464722e-02 -3.059317171573638916e-02 3.559012711048126221e-02
2.959565222263336182e-01 -3.514192998409271240e-03 -9.838867932558059692e-03
-2.600019425153732300e-02 -6.087858229875564575e-03 -4.131678864359855652e-02
2.331061959266662598e-01 -1.126458719372749329e-01 -1.001625694334506989e-02
-4.228053987026214600e-02 -1.111875027418136597e-01 -5.613151937723159790e-02
-7.149689644575119019e-02 -2.700115367770195007e-02 -7.234196364879608154e-02
1.437263637781143188e-01 -2.433282136917114258e-02 -9.566231817007064819e-02
3.832147121429443359e-01 -4.118061065673828125e-02 -6.507544219493865967e-02
-7.009274512529373169e-02 -1.291325986385345459e-01 1.084106229245662689e-02
1.862775087356567383e-01 -1.086514443159103394e-03 5.054464563727378845e-03
-3.081245720386505127e-02 -1.264733970165252686e-01 -2.243393659591674805e-02
3.257645368576049805e-01 -3.295018896460533142e-02 -8.215118199586868286e-02
-1.151705309748649597e-01 -1.263743042945861816e-01 1.436874084174633026e-02
3.869734108448028564e-01 -6.906118243932723999e-02 4.272246733307838440e-03
-9.967855364084243774e-02 -1.023901104927062988e-01 6.170206516981124878e-02
7.129187136888504028e-02 -1.278403103351593018e-01 -5.950715392827987671e-03
-1.418132483959197998e-01 -1.234241351485252380e-01 -5.122410133481025696e-03
-1.463098526000976562e-01 -9.878168255090713501e-02 -5.557820945978164673e-02
3.736434131860733032e-02 -9.795126318931579590e-02 6.889139860868453979e-02
-2.460252046585083008e-01 -1.000328287482261658e-01 -8.193858899176120758e-03
1.211810857057571411e-02 -1.022284030914306641e-01 6.691531091928482056e-02
-1.934111714363098145e-01 -1.041772812604904175e-01 4.156471043825149536e-02
1.283626854419708252e-01 -1.208717823028564453e-01 -2.799766510725021362e-02
-1.141951009631156921e-01 -8.280725777149200439e-02 -7.371014356613159180e-02
1.783452928066253662e-01 -7.605622708797454834e-02 -9.030037373304367065e-02
1.280905753374099731e-01 -1.245471984148025513e-01 -1.544189639389514923e-03
2.148297131061553955e-01 4.361569881439208984e-03 -4.624125361442565918e-02
3.478941917419433594e-01 -8.493635058403015137e-02 -3.735713660717010498e-02
9.626112133264541626e-02 -1.185129582881927490e-01 -4.139042273163795471e-02
2.336950004100799561e-01 -5.035833269357681274e-02 5.561892688274383545e-02
3.193769156932830811e-01 -4.006773233413696289e-03 -4.733685404062271118e-02
-9.304020553827285767e-02 -1.264583766460418701e-01 -1.134195923805236816e-02
-1.258417963981628418e-03 -1.300175040960311890e-01 -1.581500284373760223e-03
-5.632575601339340210e-02 -1.235499531030654907e-01 3.942068666219711304e-02
2.838831841945648193e-01 -1.041926443576812744e-01 -7.875179871916770935e-03
5.195089429616928101e-02 -2.834562584757804871e-02 -9.354165941476821899e-02
3.064733371138572693e-02 -8.296903967857360840e-02 -8.851817250251770020e-02
1.755623519420623779e-01 -1.171938478946685791e-01 2.267528884112834930e-02
1.700544953346252441e-01 -3.108309954404830933e-02 -9.851559996604919434e-02
-1.015876159071922302e-01 -1.180034577846527100e-01 -3.628057986497879028e-02
9.277749061584472656e-02 -2.988620474934577942e-02 5.245865881443023682e-02
1.185486465692520142e-02 -7.575371861457824707e-02 -9.153519570827484131e-02
6.224125623703002930e-03 -5.206951126456260681e-02 6.687007099390029907e-02
-9.372032433748245239e-02 -1.130882352590560913e-01 -4.697740823030471802e-02
2.280057370662689209e-01 -2.006943896412849426e-02 3.457672894001007080e-02
3.775739073753356934e-01 -1.506626978516578674e-02 -4.178110510110855103e-02
2.068549990653991699e-01 -7.422443479299545288e-03 -7.911638915538787842e-02
2.211619317531585693e-01 -1.076845452189445496e-01 -4.149218648672103882e-02
-8.811540901660919189e-03 -8.982895314693450928e-02 7.223495095968246460e-02
1.814130693674087524e-01 5.610182881355285645e-03 -3.927694261074066162e-02
3.989743590354919434e-01 -2.380868047475814819e-02 -1.822379603981971741e-02
-9.761413186788558960e-02 -7.463136315345764160e-02 6.685221940279006958e-02
1.311610043048858643e-01 -1.122145652770996094e-01 4.680968075990676880e-02
-9.269947558641433716e-02 -4.657070338726043701e-02 5.329596996307373047e-02
-9.408078342676162720e-02 -5.054993182420730591e-02 -8.184815198183059692e-02
-1.668651998043060303e-01 -9.023427963256835938e-02 -5.787058919668197632e-02
-9.317364543676376343e-02 -3.623098134994506836e-02 -7.522647082805633545e-02
5.326565727591514587e-02 -6.716696918010711670e-02 -4.344701766967773438e-03
-1.030565202236175537e-01 -4.876363649964332581e-02 -3.244012594223022461e-01
-2.196378819644451141e-02 -5.423266813158988953e-02 -1.037532091140747070e-02
-5.679549649357795715e-02 -6.535905599594116211e-02 -6.292082071304321289e-01
-5.812418833374977112e-02 -5.909578129649162292e-02 -6.495609879493713379e-02
2.078441902995109558e-02 -6.790236383676528931e-02 -5.339208245277404785e-02
-1.205253154039382935e-01 -5.904317647218704224e-02 -3.337836265563964844e-01
-8.366477489471435547e-02 -4.633842408657073975e-02 -3.436998724937438965e-01
-5.000822618603706360e-02 -4.379005357623100281e-02 -6.870350837707519531e-01
-2.539364248514175415e-02 -4.345897585153579712e-02 -5.566828250885009766e-01
5.579339340329170227e-02 -4.754365235567092896e-02 -4.410141706466674805e-01
-4.970647394657135010e-02 -6.783568859100341797e-02 -3.553408086299896240e-01
3.930204734206199646e-02 -4.615775495767593384e-02 -4.455377757549285889e-01
8.230617642402648926e-02 -5.097079649567604065e-02 -1.465833783149719238e-01
-4.068256169557571411e-02 -4.581290483474731445e-02 -7.819666862487792969e-01
-1.893389038741588593e-02 -6.835940480232238770e-02 -1.841618418693542480e-01
1.787243410944938660e-03 -4.450029879808425903e-02 -5.649940371513366699e-01
-5.987811461091041565e-02 -4.615525156259536743e-02 -8.194263577461242676e-01
-1.067179441452026367e-01 -4.450800642371177673e-02 -6.101946234703063965e-01
-8.238378167152404785e-02 -5.333332717418670654e-02 -1.624245494604110718e-01
-1.421100348234176636e-01 -5.656251683831214905e-02 -7.383527755737304688e-01
2.968088909983634949e-02 -6.567397713661193848e-02 -5.529510974884033203e-01
2.574055269360542297e-02 -4.631910845637321472e-02 -5.827562212944030762e-01
-1.011338531970977783e-01 -6.084129214286804199e-02 -2.522504031658172607e-01
6.354270502924919128e-03 -5.162164568901062012e-02 -2.494397759437561035e-02
-1.033594161272048950e-01 -4.524256289005279541e-02 -4.880394339561462402e-01
3.929207846522331238e-02 -6.622830033302307129e-02 -5.063106417655944824e-01
-2.992311306297779083e-02 -4.353304579854011536e-02 -6.015415191650390625e-01
-9.864504635334014893e-02 -5.898997187614440918e-02 -2.119316458702087402e-01
-1.423781737685203552e-02 -6.652133166790008545e-02 -5.798509716987609863e-01
6.170786544680595398e-02 -6.873011589050292969e-02 -1.515662372112274170e-01
3.086448460817337036e-02 -6.847797334194183350e-02 -3.952277004718780518e-01
7.317321002483367920e-02 -6.735572218894958496e-02 -4.082494974136352539e-02
1.727801933884620667e-02 -4.483591765165328979e-02 -4.592548906803131104e-01
9.539373219013214111e-02 -5.335051193833351135e-02 -9.046712517738342285e-02
8.371976017951965332e-02 -6.612797081470489502e-02 -3.338153362274169922e-01
-5.087919160723686218e-02 -6.778080016374588013e-02 -3.826340734958648682e-01
-4.457761347293853760e-02 -6.799917668104171753e-02 -3.125355541706085205e-01
8.456220850348472595e-03 -6.942137330770492554e-02 -2.985620498657226562e-01
5.351321771740913391e-03 -4.732023552060127258e-02 -7.145069837570190430e-01
7.427480816841125488e-02 -4.900142550468444824e-02 -3.452215492725372314e-01
7.245822250843048096e-02 -6.420654803514480591e-02 -4.691748619079589844e-01
-2.032190002501010895e-02 -4.456503689289093018e-02 -3.340265452861785889e-01
-4.096606373786926270e-02 -6.774848699569702148e-02 -4.710514545440673828e-01
-4.017741233110427856e-02 -6.647848337888717651e-02 -5.800949335098266602e-01
-3.945028036832809448e-02 -4.497566819190979004e-02 -3.160004019737243652e-01
-3.210854157805442810e-02 -6.257254630327224731e-02 -7.418229579925537109e-01
-1.308645308017730713e-01 -5.984355881810188293e-02 -6.658310890197753906e-01
3.820744156837463379e-02 -6.865686923265457153e-02 -3.585082590579986572e-01
-1.062384843826293945e-01 -4.550492763519287109e-02 -7.799127101898193359e-01
-5.121638625860214233e-02 -6.423355638980865479e-02 -6.881674528121948242e-01
-1.500232703983783722e-02 -4.411667957901954651e-02 -3.832537829875946045e-01
-7.035875692963600159e-03 -4.590569436550140381e-02 -2.410107553005218506e-01
7.514069974422454834e-02 -5.453626066446304321e-02 -5.633405447006225586e-01
-7.397183775901794434e-02 -6.165070831775665283e-02 -1.415244042873382568e-01
-2.672480791807174683e-02 -6.796169281005859375e-02 -4.792465865612030029e-01
-4.413533955812454224e-02 -4.797799140214920044e-02 -1.856766790151596069e-01
7.001763582229614258e-02 -6.835264712572097778e-02 -1.362969577312469482e-01
-6.225868314504623413e-02 -6.470547616481781006e-02 -6.574056744575500488e-01
-1.348832100629806519e-01 -4.686454311013221741e-02 -6.796890497207641602e-01
-9.838281571865081787e-02 -5.332838743925094604e-02 -8.998266458511352539e-01
-2.825565822422504425e-02 -4.996840655803680420e-02 -1.014479994773864746e-01
-1.201773136854171753e-01 -4.562755301594734192e-02 -7.236770391464233398e-01
9.065164625644683838e-02 -5.127495154738426208e-02 -1.964205503463745117e-01
-5.541977658867835999e-02 -6.698986887931823730e-02 -5.074751973152160645e-01
-2.001282572746276855e-02 -4.366399720311164856e-02 -4.464907646179199219e-01
-1.427643150091171265e-01 -5.702998861670494080e-02 -4.872498810291290283e-01
-5.071576684713363647e-02 -5.608805641531944275e-02 -5.006077885627746582e-02
-9.686693549156188965e-02 -4.463213309645652771e-02 -7.438642978668212891e-01
-1.786080561578273773e-02 -6.896416842937469482e-02 -2.725061476230621338e-01
-1.129099130630493164e-01 -5.159599706530570984e-02 -3.013080060482025146e-01
-7.714831084012985229e-02 -4.414104297757148743e-02 -7.323931455612182617e-01
1.941538229584693909e-02 -6.916652619838714600e-02 -3.454598486423492432e-01
-1.921632140874862671e-02 -4.560245946049690247e-02 -2.611479163169860840e-01
-6.647503376007080078e-02 -6.503815203905105591e-02 -2.019971609115600586e-01
3.202984482049942017e-02 -6.862325966358184814e-02 -8.671879768371582031e-02
7.629001140594482422e-02 -5.082792788743972778e-02 -1.230536699295043945e-01
6.348547339439392090e-02 -4.800125956535339355e-02 -3.011324703693389893e-01
-2.606918103992938995e-02 -4.501964896917343140e-02 -7.165912389755249023e-01
8.230790495872497559e-02 -5.340234190225601196e-02 -3.365123271942138672e-02
-7.581624388694763184e-02 -4.556478559970855713e-02 -3.577071428298950195e-01
5.583119764924049377e-02 -5.314851179718971252e-02 7.133394479751586914e-03
-1.158308610320091248e-02 -4.375242441892623901e-02 -4.731469154357910156e-01
-8.492958545684814453e-02 -4.385144636034965515e-02 -6.921125650405883789e-01
-1.409888267517089844e-03 -6.934833526611328125e-02 -2.755043208599090576e-01
-6.970815360546112061e-02 -4.894607514142990112e-02 -2.113170772790908813e-01
-1.177370697259902954e-01 -4.921641945838928223e-02 -8.664101362228393555e-01
7.055491209030151367e-03 -6.938875466585159302e-02 -2.248214036226272583e-01
-1.233355104923248291e-01 -6.131246685981750488e-02 -6.199399828910827637e-01
-5.464765429496765137e-02 -5.019870400428771973e-02 -1.434721946716308594e-01
-4.362080991268157959e-02 -4.989121109247207642e-02 -1.287101209163665771e-01
-2.040055394172668457e-02 -6.587730348110198975e-02 -6.147575378417968750e-01
-3.165920823812484741e-02 -6.314705312252044678e-02 -7.244938611984252930e-01
-2.690071240067481995e-03 -6.797294318675994873e-02 -4.840006232261657715e-01
4.709188267588615417e-02 -4.815849661827087402e-02 -1.767443567514419556e-01
8.521583676338195801e-02 -6.715427339076995850e-02 -2.408975064754486084e-01
1.464678533375263214e-02 -4.498996958136558533e-02 -5.336240530014038086e-01
-1.191992014646530151e-01 -4.678333550691604614e-02 -4.816318154335021973e-01
-8.144450187683105469e-02 -6.587252020835876465e-02 -3.975761830806732178e-01
4.960815981030464172e-02 -6.626857817173004150e-02 -4.745525121688842773e-01
-4.106707870960235596e-02 -4.323580488562583923e-02 -5.152112245559692383e-01
-4.811208322644233704e-02 -6.754616647958755493e-02 -2.678031623363494873e-01
-1.153658777475357056e-01 -6.087217852473258972e-02 -7.089581489562988281e-01
-4.650884866714477539e-02 -4.445073381066322327e-02 -7.297394275665283203e-01
-8.807581663131713867e-02 -4.367776215076446533e-02 -6.214928627014160156e-01
-2.444046363234519958e-02 -4.789485037326812744e-02 -1.603894829750061035e-01
-1.956623606383800507e-02 -5.549601092934608459e-02 7.829487323760986328e-03
-8.940634131431579590e-02 -4.643881320953369141e-02 -8.380367755889892578e-01
-4.890951141715049744e-02 -6.680300831794738770e-02 -2.066768854856491089e-01
-1.222640275955200195e-01 -6.182795017957687378e-02 -5.533280372619628906e-01
-9.733945131301879883e-02 -4.627294838428497314e-02 -3.967234790325164795e-01
-5.725343525409698486e-02 -4.444621130824089050e-02 -3.810259401798248291e-01
4.539651051163673401e-02 -6.762996315956115723e-02 -2.349701523780822754e-02
5.945416912436485291e-02 -6.598702073097229004e-02 -4.535649716854095459e-01
-9.258967638015747070e-02 -5.107345804572105408e-02 -2.306593656539916992e-01
-4.465031437575817108e-03 -6.927774846553802490e-02 -3.111526072025299072e-01
4.692229256033897400e-02 -6.879548728466033936e-02 -3.108454048633575439e-01
1.055520027875900269e-02 -6.617236137390136719e-02 -2.981692552566528320e-03
-1.027937829494476318e-01 -4.630930721759796143e-02 -8.225817680358886719e-01
-8.768567815423011780e-03 -6.715501844882965088e-02 -7.678326964378356934e-02
-9.690508246421813965e-02 -4.400144517421722412e-02 -6.409161686897277832e-01
-6.280412524938583374e-02 -5.591775476932525635e-02 -8.224996924400329590e-02
4.562976583838462830e-02 -4.952551797032356262e-02 -1.014142930507659912e-01
-1.135720759630203247e-01 -6.254801154136657715e-02 -4.228144288063049316e-01
-9.370143711566925049e-02 -6.074744462966918945e-02 -7.753159999847412109e-01
-4.411984980106353760e-02 -4.347630590200424194e-02 -4.590458869934082031e-01
1.686479151248931885e-02 -6.934871524572372437e-02 -3.174725472927093506e-01
-6.594137847423553467e-02 -6.691882014274597168e-02 -4.370572865009307861e-01
9.649947285652160645e-02 -6.623610854148864746e-02 -2.147600650787353516e-01
-2.320117317140102386e-03 -4.509426653385162354e-02 -3.000593185424804688e-01
-9.496177732944488525e-02 -6.342472881078720093e-02 -2.996707558631896973e-01
2.854698151350021362e-02 -5.070304125547409058e-02 -4.443687200546264648e-02
-5.963082239031791687e-02 -4.558809846639633179e-02 -3.152887821197509766e-01
-3.561556339263916016e-02 -5.952719226479530334e-02 -8.143251538276672363e-01
1.834723725914955139e-02 -4.803165793418884277e-02 -6.905649900436401367e-01
1.000320911407470703e-01 -5.544901266694068909e-02 -4.203023612499237061e-01
1.719417050480842590e-02 -4.725182056427001953e-02 -1.767440736293792725e-01
-2.645923197269439697e-02 -4.342628270387649536e-02 -4.907217621803283691e-01
7.639425992965698242e-02 -4.982250556349754333e-02 -4.224058687686920166e-01
5.477473512291908264e-02 -6.747730821371078491e-02 -3.927985131740570068e-01
-5.935731343924999237e-03 -4.724155366420745850e-02 -1.726470142602920532e-01
-1.175192147493362427e-01 -4.614961147308349609e-02 -5.103513002395629883e-01
6.821495294570922852e-02 -5.884644016623497009e-02 -5.885734558105468750e-01
5.203709378838539124e-02 -4.699847474694252014e-02 -3.963899910449981689e-01
7.727320492267608643e-02 -5.316812172532081604e-02 -5.356962680816650391e-01
1.457081735134124756e-02 -4.548883810639381409e-02 -2.949465513229370117e-01
-7.787381112575531006e-02 -6.192265078425407410e-02 -7.567900419235229492e-01
-7.796664535999298096e-02 -4.358933120965957642e-02 -6.688272953033447266e-01
-7.983087003231048584e-02 -6.501554697751998901e-02 -2.808519005775451660e-01
7.394300401210784912e-02 -6.577179580926895142e-02 -4.035806357860565186e-01
3.451607376337051392e-02 -6.693539023399353027e-02 8.989572525024414062e-04
-8.712324500083923340e-02 -4.369838535785675049e-02 -5.809642076492309570e-01
-6.648443639278411865e-02 -4.337777197360992432e-02 -6.478853821754455566e-01
1.156575232744216919e-01 -5.591722577810287476e-02 -2.302195131778717041e-01
9.516254067420959473e-06 -4.432519525289535522e-02 -3.941417634487152100e-01
-7.302922010421752930e-02 -5.938257277011871338e-02 -8.298584222793579102e-01
-3.655117005109786987e-02 -6.404259055852890015e-02 -6.964523792266845703e-01
1.116306520998477936e-02 -6.179014965891838074e-02 -7.048261165618896484e-01
1.814232021570205688e-02 -4.624379426240921021e-02 -2.398076206445693970e-01
-4.178515821695327759e-02 -4.357466101646423340e-02 -4.427597224712371826e-01
-2.156319841742515564e-02 -4.752623289823532104e-02 -7.932742238044738770e-01
-1.208194345235824585e-02 -4.478923231363296509e-02 -3.177542686462402344e-01
-7.428607344627380371e-02 -6.499395519495010376e-02 -2.430837154388427734e-01
-3.194371610879898071e-02 -6.810764968395233154e-02 -2.239120006561279297e-01
8.726759254932403564e-02 -5.047706514596939087e-02 -2.804249823093414307e-01
-1.404983401298522949e-01 -5.339722335338592529e-02 -4.387557208538055420e-01
1.254534907639026642e-02 -4.465835541486740112e-02 -4.123979210853576660e-01
1.216856092214584351e-01 -5.890339612960815430e-02 -1.685217171907424927e-01
3.808654472231864929e-02 -6.586916744709014893e-02 -5.245988965034484863e-01
-3.229784220457077026e-02 -6.727346032857894897e-02 -5.320187211036682129e-01
7.055705785751342773e-02 -6.570418924093246460e-02 -4.217330217361450195e-01
8.070279657840728760e-02 -6.763132661581039429e-02 -2.241657376289367676e-01
-4.313270747661590576e-02 -6.039633601903915405e-02 -2.987658977508544922e-02
-3.994487598538398743e-02 -6.674319505691528320e-02 -5.627883672714233398e-01
-1.080277115106582642e-01 -5.185106396675109863e-02 -2.760019302368164062e-01
-1.339296400547027588e-01 -6.007412821054458618e-02 -5.677819252014160156e-01
5.529316142201423645e-02 -4.723908752202987671e-02 -3.803179860115051270e-01
-1.015060245990753174e-01 -6.412711739540100098e-02 -4.335167109966278076e-01
4.333214834332466125e-02 -6.362901628017425537e-02 -5.852880477905273438e-01
-6.246585771441459656e-02 -6.114639341831207275e-02 -7.891738414764404297e-01
-9.884585440158843994e-02 -4.739042371511459351e-02 -3.540868163108825684e-01
-7.004295289516448975e-02 -6.413705646991729736e-02 -1.845752000808715820e-01
-7.174608111381530762e-02 -6.302184611558914185e-02 -7.224350571632385254e-01
9.969177842140197754e-02 -5.279749631881713867e-02 -1.615597158670425415e-01
6.246031448245048523e-02 -5.054292827844619751e-02 -9.038937091827392578e-02
1.135874092578887939e-01 -6.339454650878906250e-02 -7.404252886772155762e-02
9.429365396499633789e-02 -6.435099989175796509e-02 -3.527685999870300293e-01
7.761546969413757324e-02 -5.231405049562454224e-02 -5.856829881668090820e-02
3.736037388443946838e-02 -4.629078879952430725e-02 -4.937434494495391846e-01
-4.027599468827247620e-03 -4.699732363224029541e-02 -7.338638305664062500e-01
5.109218880534172058e-02 -6.011269614100456238e-02 9.604972600936889648e-02
-8.612133562564849854e-03 -4.784178733825683594e-02 -1.489173173904418945e-01
-7.340224087238311768e-02 -6.628050655126571655e-02 -4.922924339771270752e-01
1.130316555500030518e-01 -6.312264502048492432e-02 -5.544018745422363281e-02
5.972735211253166199e-02 -5.788874998688697815e-02 -6.282374858856201172e-01
1.708930358290672302e-02 -4.532380774617195129e-02 -5.554407835006713867e-01
-1.288259178400039673e-01 -5.906037241220474243e-02 -7.261754870414733887e-01
-9.394269436597824097e-03 -4.502341151237487793e-02 -6.647077798843383789e-01
1.191360875964164734e-02 -6.882080435752868652e-02 -3.979776799678802490e-01
1.478894054889678955e-02 -6.808233261108398438e-02 -4.573470056056976318e-01
1.698129624128341675e-02 -4.759804159402847290e-02 -1.590201407670974731e-01
-2.695295400917530060e-02 -6.384270638227462769e-02 -2.848914265632629395e-02
1.523075625300407410e-02 -5.097962915897369385e-02 -7.571865916252136230e-01
7.024258375167846680e-02 -6.606723368167877197e-02 2.194610238075256348e-02
-1.490793377161026001e-01 -5.458784848451614380e-02 -5.240550041198730469e-01
-1.477182358503341675e-01 -5.315076187252998352e-02 -5.071899890899658203e-01
1.199902594089508057e-01 -6.006950512528419495e-02 -8.868271112442016602e-02
1.033845543861389160e-01 -5.992349609732627869e-02 -4.000325202941894531e-01
8.735840022563934326e-02 -5.088807269930839539e-02 -3.693523108959197998e-01
1.379314437508583069e-02 -6.869511306285858154e-02 -1.144806444644927979e-01
-6.851804256439208984e-02 -4.633308574557304382e-02 -3.003483414649963379e-01
-1.317882984876632690e-01 -4.649741202592849731e-02 -6.469075083732604980e-01
2.735414728522300720e-02 -5.530241876840591431e-02 5.363899469375610352e-02
-1.134740188717842102e-03 -6.925447285175323486e-02 -3.335395753383636475e-01
-6.044021993875503540e-02 -6.712476909160614014e-02 -3.256567418575286865e-01
1.166477203369140625e-01 -5.936513468623161316e-02 -2.879404425621032715e-01
5.468601360917091370e-02 -4.717776179313659668e-02 -3.617310523986816406e-01
1.794922724366188049e-02 -4.524680972099304199e-02 -3.344107270240783691e-01
-5.075326934456825256e-02 -4.317480325698852539e-02 -5.394927263259887695e-01
-1.025742143392562866e-01 -6.386248022317886353e-02 -4.085401594638824463e-01
3.639301657676696777e-02 -4.690154641866683960e-02 -2.346403449773788452e-01
-2.614704519510269165e-02 -6.876798719167709351e-02 -3.108097612857818604e-01
1.050531715154647827e-01 -5.409319698810577393e-02 -3.341494202613830566e-01
2.951595559716224670e-02 -4.729375243186950684e-02 -1.899940371513366699e-01
-2.781614847481250763e-02 -4.367926344275474548e-02 -4.286930859088897705e-01
-1.204190403223037720e-02 -5.112888664007186890e-02 -8.258320093154907227e-01
2.272665873169898987e-02 -4.608024284243583679e-02 -2.626038789749145508e-01
3.034469485282897949e-02 -5.399220809340476990e-02 -7.329919338226318359e-01
-9.386630356311798096e-02 -4.423505440354347229e-02 -7.137991189956665039e-01
-3.052875399589538574e-04 -6.595423072576522827e-02 -1.608821749687194824e-02
-1.068931631743907928e-02 -4.531653225421905518e-02 -6.862274408340454102e-01
-1.349005009979009628e-02 -6.834935396909713745e-02 -4.532475173473358154e-01
-5.412514507770538330e-02 -6.602345407009124756e-02 -5.923770070075988770e-01
5.839354917407035828e-02 -6.445459276437759399e-02 -5.143406987190246582e-01
8.078156039118766785e-03 -5.708152800798416138e-02 5.821996927261352539e-02
-1.497062891721725464e-01 -5.059254914522171021e-02 -5.860482454299926758e-01
5.060091987252235413e-02 -4.816218838095664978e-02 -5.377736687660217285e-01
1.497536338865756989e-02 -6.949932128190994263e-02 -2.615823149681091309e-01
-5.259441584348678589e-02 -4.392515867948532104e-02 -4.162732958793640137e-01
-1.329855918884277344e-01 -5.586215481162071228e-02 -8.069550991058349609e-01
9.341259300708770752e-02 -6.103605777025222778e-02 -4.454890191555023193e-01
-8.274084329605102539e-02 -4.352672025561332703e-02 -6.062448024749755859e-01
-6.088130176067352295e-02 -4.371730238199234009e-02 -4.555074870586395264e-01
7.661191746592521667e-03 -6.476683914661407471e-02 2.540668845176696777e-02
2.945291623473167419e-02 -4.561322927474975586e-02 -3.528636693954467773e-01
-3.907914459705352783e-02 -4.823101311922073364e-02 -1.687685102224349976e-01
-6.096739694476127625e-02 -6.604167819023132324e-02 -5.769690275192260742e-01
-1.029514428228139877e-02 -6.573125720024108887e-02 -3.100994229316711426e-02
-3.825283423066139221e-02 -6.485056132078170776e-02 -6.647505760192871094e-01
-1.577938906848430634e-03 -6.344112008810043335e-02 -6.848655939102172852e-01
6.164610758423805237e-02 -4.819985479116439819e-02 -2.443603128194808960e-01
1.418032124638557434e-02 -5.997151136398315430e-02 -7.326788902282714844e-01
-1.184559017419815063e-01 -6.234376877546310425e-02 -5.335122942924499512e-01
4.083845764398574829e-02 -6.822760403156280518e-02 -5.644154548645019531e-02
-1.527646742761135101e-02 -6.760742515325546265e-02 -1.173180639743804932e-01
-4.025524854660034180e-02 -4.529471322894096375e-02 -2.975401282310485840e-01
-6.764823198318481445e-02 -6.639257073402404785e-02 -5.187885761260986328e-01
-7.979157567024230957e-02 -6.603600829839706421e-02 -4.478394389152526855e-01
5.144529417157173157e-02 -5.454176291823387146e-02 -6.644380092620849609e-01
-1.028227806091308594e-01 -6.153107061982154846e-02 -7.247821688652038574e-01
-8.613550662994384766e-02 -6.480391323566436768e-02 -3.155128657817840576e-01
-2.576254308223724365e-03 -4.677839949727058411e-02 -1.936824917793273926e-01
-6.615366041660308838e-02 -4.355400800704956055e-02 -4.914622902870178223e-01
-1.358183100819587708e-02 -6.877202540636062622e-02 -2.057103514671325684e-01
8.618229627609252930e-02 -6.682755798101425171e-02 -5.611097812652587891e-02
-5.571570992469787598e-02 -6.427799910306930542e-02 -1.281778514385223389e-01
-4.273100569844245911e-02 -4.566772282123565674e-02 -2.803615927696228027e-01
6.681953370571136475e-02 -4.847742989659309387e-02 -2.600201368331909180e-01
-1.343291252851486206e-01 -5.984724685549736023e-02 -5.170152783393859863e-01
6.740641593933105469e-02 -4.905689507722854614e-02 -4.590530097484588623e-01
6.372740864753723145e-02 -6.848646700382232666e-02 -2.538001835346221924e-01
-7.915130257606506348e-02 -6.503212451934814453e-02 -5.975900888442993164e-01
-1.534829754382371902e-02 -6.757321953773498535e-02 -5.170723199844360352e-01
3.855725005269050598e-02 -6.915425509214401245e-02 -2.942249178886413574e-01
-3.006285429000854492e-02 -4.570671170949935913e-02 -7.569646835327148438e-01
-5.626712366938591003e-02 -4.492558166384696960e-02 -3.462266623973846436e-01
4.204307124018669128e-02 -6.499462574720382690e-02 5.589908361434936523e-02
-3.078725375235080719e-02 -6.832576543092727661e-02 -4.259070158004760742e-01
1.083509996533393860e-03 -4.493293166160583496e-02 -6.136722564697265625e-01
-7.274332642555236816e-02 -4.463890939950942993e-02 -7.659582495689392090e-01
-2.621749415993690491e-02 -4.553157091140747070e-02 -7.409393787384033203e-01
-4.555409774184226990e-02 -4.337772727012634277e-02 -4.771287739276885986e-01
-8.961237967014312744e-02 -6.427350640296936035e-02 -6.125960350036621094e-01
-3.432751446962356567e-02 -6.566437333822250366e-02 -9.489601850509643555e-02
-1.298763416707515717e-02 -6.332377344369888306e-02 -7.030203342437744141e-01
1.836637035012245178e-02 -4.885807260870933533e-02 -1.051097214221954346e-01
-1.131139993667602539e-01 -4.486697167158126831e-02 -6.676126122474670410e-01
-8.579064905643463135e-02 -6.528835743665695190e-02 -3.595372140407562256e-01
3.810655698180198669e-02 -6.926642358303070068e-02 -1.635874509811401367e-01
-4.472506791353225708e-02 -6.688918918371200562e-02 -1.910465508699417114e-01
-2.382175438106060028e-02 -5.190763622522354126e-02 -5.096006393432617188e-02
1.182958483695983887e-03 -4.418003186583518982e-02 -4.413054883480072021e-01
8.194392919540405273e-02 -6.749051064252853394e-02 -9.374049305915832520e-02
-3.712556511163711548e-02 -5.167287588119506836e-02 -7.725790143013000488e-02
7.801191508769989014e-02 -5.878896638751029968e-02 7.476997375488281250e-02
-1.047114431858062744e-01 -6.365094333887100220e-02 -5.627080202102661133e-01
8.678261935710906982e-02 -5.046175420284271240e-02 -2.571263611316680908e-01
-7.101959735155105591e-02 -4.379085451364517212e-02 -7.029818296432495117e-01
-1.696172542870044708e-02 -5.233250930905342102e-02 -8.419126272201538086e-01
-1.022856235504150391e-01 -6.397031247615814209e-02 -5.447891354560852051e-01
8.575351536273956299e-02 -5.104824155569076538e-02 -4.033001363277435303e-01
8.755792677402496338e-02 -5.831346288323402405e-02 5.525127053260803223e-02
-1.274219341576099396e-02 -4.447349905967712402e-02 -6.379914283752441406e-01
4.291201382875442505e-02 -4.652682691812515259e-02 -3.127561211585998535e-01
1.875860244035720825e-02 -6.899785250425338745e-02 -1.335906982421875000e-01
4.912192746996879578e-02 -4.715652018785476685e-02 -2.727981805801391602e-01
4.951746389269828796e-02 -5.139956623315811157e-02 -6.425890326499938965e-01
3.668311983346939087e-04 -4.870153963565826416e-02 -7.641845941543579102e-01
1.432843878865242004e-02 -6.733804941177368164e-02 -3.695237636566162109e-02
-5.609276704490184784e-03 -4.949799925088882446e-02 -8.983051776885986328e-02
1.339635252952575684e-02 -4.566059261560440063e-02 -2.766197323799133301e-01
-4.008910804986953735e-02 -6.735147535800933838e-02 -5.148684382438659668e-01
8.342696726322174072e-02 -5.001227185130119324e-02 -3.141504526138305664e-01
3.959392756223678589e-02 -6.935922056436538696e-02 -2.147147059440612793e-01
-1.797457598149776459e-02 -4.372223466634750366e-02 -5.720257163047790527e-01
-3.155265748500823975e-02 -4.378492385149002075e-02 -6.422637701034545898e-01
7.133510708808898926e-02 -5.080707371234893799e-02 -1.043525338172912598e-01
-6.038089469075202942e-02 -4.335530474781990051e-02 -5.076106786727905273e-01
5.148279294371604919e-02 -6.910235434770584106e-02 -1.868863552808761597e-01
-6.400059908628463745e-02 -4.530506208539009094e-02 -7.930901646614074707e-01
3.984353318810462952e-02 -4.613833501935005188e-02 -4.271355271339416504e-01
3.408878296613693237e-02 -6.934797763824462891e-02 -2.715625464916229248e-01
-1.076747030019760132e-01 -6.269293278455734253e-02 -6.364712715148925781e-01
-7.975313067436218262e-02 -6.011498346924781799e-02 -8.093867301940917969e-01
8.612492680549621582e-02 -6.526575982570648193e-02 1.685592532157897949e-02
3.110360726714134216e-02 -6.361903995275497437e-02 -6.173048019409179688e-01
-3.059105947613716125e-02 -4.448017477989196777e-02 -6.972019672393798828e-01
-7.819966971874237061e-02 -6.439312547445297241e-02 -6.446514129638671875e-01
4.526710137724876404e-02 -6.747154891490936279e-02 -4.258968532085418701e-01
-4.647600650787353516e-02 -4.329831898212432861e-02 -4.944744110107421875e-01
-2.774879336357116699e-02 -6.867935508489608765e-02 -3.625799715518951416e-01
-1.093992441892623901e-01 -5.989119783043861389e-02 -7.707524895668029785e-01
7.969532161951065063e-04 -4.419479146599769592e-02 -5.147979855537414551e-01
-1.436216980218887329e-01 -5.488160252571105957e-02 -7.735409736633300781e-01
4.596600309014320374e-02 -6.616490334272384644e-02 -4.902632236480712891e-01
-2.314517460763454437e-02 -4.391363635659217834e-02 -3.997254967689514160e-01
1.531764492392539978e-02 -6.819686293601989746e-02 -7.759246230125427246e-02
-3.429704532027244568e-02 -6.768302619457244873e-02 -4.945817589759826660e-01
-1.153788715600967407e-01 -4.729311913251876831e-02 -4.337914884090423584e-01
-2.917588315904140472e-02 -6.553881615400314331e-02 -6.333863139152526855e-01
8.288945257663726807e-02 -5.924478173255920410e-02 -5.217940211296081543e-01
-1.337145417928695679e-01 -4.682212322950363159e-02 -6.240465044975280762e-01
1.078746467828750610e-01 -5.893458053469657898e-02 -1.383483409881591797e-03
-4.798892512917518616e-02 -6.768598407506942749e-02 -2.864945530891418457e-01
-5.528658628463745117e-03 -4.437265545129776001e-02 -3.685024380683898926e-01
4.442023113369941711e-02 -5.012901127338409424e-02 -7.497462630271911621e-02
3.772457689046859741e-02 -6.887819617986679077e-02 -3.363392949104309082e-01
4.546507447957992554e-02 -6.488815695047378540e-02 -5.407463908195495605e-01
8.139115571975708008e-02 -5.090474709868431091e-02 -4.400783181190490723e-01
-7.552793622016906738e-02 -6.523894518613815308e-02 -2.650787830352783203e-01
5.800959095358848572e-02 -4.834140837192535400e-02 -4.931271970272064209e-01
3.323703259229660034e-02 -6.040769442915916443e-02 -6.810915470123291016e-01
-1.477339863777160645e-01 -5.693885684013366699e-02 -6.285033226013183594e-01
-3.010916523635387421e-03 -6.679210066795349121e-02 -5.571508407592773438e-01
-8.158253133296966553e-02 -4.494047537446022034e-02 -7.817354202270507812e-01
5.879123136401176453e-02 -6.771236658096313477e-02 -3.605120778083801270e-01
-3.722972050309181213e-02 -4.789021611213684082e-02 -8.311157226562500000e-01
-1.982050947844982147e-02 -6.428121775388717651e-02 -6.788965463638305664e-01
-1.518839504569768906e-02 -4.889410734176635742e-02 -1.167622208595275879e-01
-1.124719381332397461e-01 -6.231703609228134155e-02 -3.897885382175445557e-01
-3.508370369672775269e-02 -6.627455353736877441e-02 -5.954410433769226074e-01
-1.467885375022888184e-01 -5.634325742721557617e-02 -6.998369693756103516e-01
9.006612002849578857e-02 -6.615911424160003662e-02 -2.879121303558349609e-01
9.165768325328826904e-02 -5.516244843602180481e-02 -1.044276356697082520e-02
-5.574009194970130920e-02 -6.234132871031761169e-02 -7.553675174713134766e-01
3.316535055637359619e-02 -6.602478027343750000e-02 2.761545777320861816e-02
1.176225990056991577e-01 -6.281044334173202515e-02 -1.280324161052703857e-01
-5.046011880040168762e-02 -4.500603675842285156e-02 -7.650687694549560547e-01
5.504639819264411926e-02 -4.927678778767585754e-02 -5.610503554344177246e-01
-8.185974322259426117e-03 -6.768576055765151978e-02 -1.008465588092803955e-01
-7.722827792167663574e-02 -6.555734574794769287e-02 -3.009074926376342773e-01
-7.125116884708404541e-02 -6.585367769002914429e-02 -5.588060617446899414e-01
2.358880639076232910e-02 -4.514598101377487183e-02 -4.402859508991241455e-01
3.666958212852478027e-02 -6.158358231186866760e-02 -6.511457562446594238e-01
8.541823923587799072e-02 -5.219972878694534302e-02 -4.593695402145385742e-01
4.910361021757125854e-03 -5.038178339600563049e-02 -5.743938684463500977e-02
-5.733912810683250427e-02 -5.267845839262008667e-02 -1.020491421222686768e-01
1.060090810060501099e-01 -5.523862689733505249e-02 -3.626314997673034668e-01
-1.069044917821884155e-01 -6.269288808107376099e-02 -3.577045202255249023e-01
5.279746279120445251e-02 -4.892979189753532410e-02 -1.462997496128082275e-01
1.491373218595981598e-02 -4.653701931238174438e-02 -6.487001776695251465e-01
9.056277573108673096e-03 -4.486083611845970154e-02 -3.487306535243988037e-01
-1.155258864164352417e-01 -5.296407639980316162e-02 -8.836257457733154297e-01
-1.926236785948276520e-03 -6.917689740657806396e-02 -3.506547212600708008e-01
2.473508939146995544e-03 -6.849890202283859253e-02 -4.377114474773406982e-01
3.316440433263778687e-02 -4.829495772719383240e-02 -6.383628249168395996e-01
-1.887698844075202942e-02 -4.399529099464416504e-02 -6.173796653747558594e-01
-1.205879151821136475e-01 -4.965475946664810181e-02 -3.792128264904022217e-01
-8.331604301929473877e-02 -6.541768461465835571e-02 -5.359604954719543457e-01
-1.892284490168094635e-02 -5.073953047394752502e-02 -6.966319680213928223e-02
-9.445644915103912354e-02 -6.281510740518569946e-02 -2.699428796768188477e-01
-5.631916970014572144e-02 -4.381444677710533142e-02 -4.345593154430389404e-01
8.893829584121704102e-02 -5.389620363712310791e-02 -4.759534597396850586e-01
5.775589868426322937e-02 -5.142635479569435120e-02 -4.620581865310668945e-02
-4.702033102512359619e-02 -6.595348566770553589e-02 -1.524189114570617676e-01
1.225492730736732483e-02 -6.925057619810104370e-02 -1.783000528812408447e-01
5.618047341704368591e-02 -6.369838863611221313e-02 7.811984419822692871e-02
-7.948227226734161377e-02 -4.434122890233993530e-02 -4.514295756816864014e-01
-5.930404365062713623e-02 -4.318821802735328674e-02 -5.557351112365722656e-01
9.907540678977966309e-02 -6.066842004656791687e-02 4.099193215370178223e-02
-1.229144483804702759e-01 -4.882827028632164001e-02 -4.161662161350250244e-01
-8.217740058898925781e-02 -4.361714795231819153e-02 -5.575538873672485352e-01
-3.724347054958343506e-02 -6.801538169384002686e-02 -4.486765265464782715e-01
9.389374405145645142e-03 -6.502594053745269775e-02 -6.168836355209350586e-01
-1.103933751583099365e-01 -4.625266045331954956e-02 -8.065442442893981934e-01
9.227004647254943848e-02 -6.563327461481094360e-02 -3.049667179584503174e-01
7.345975935459136963e-02 -5.153144896030426025e-02 -7.777827978134155273e-02
-1.474056690931320190e-01 -5.028003826737403870e-02 -7.569739818572998047e-01
6.317003071308135986e-02 -6.718351691961288452e-02 -3.771656751632690430e-01
-1.336430609226226807e-01 -5.211925134062767029e-02 -8.447631597518920898e-01
6.161276623606681824e-02 -4.778110235929489136e-02 -3.245868384838104248e-01
-9.306217730045318604e-02 -4.429604113101959229e-02 -5.186262726783752441e-01
-4.208566248416900635e-02 -4.644768685102462769e-02 -2.416740506887435913e-01
-5.138608068227767944e-02 -4.347664862871170044e-02 -6.545952558517456055e-01
-1.275903172791004181e-02 -6.722951680421829224e-02 -5.390934944152832031e-01
1.131443530321121216e-01 -5.548854544758796692e-02 -1.434177756309509277e-01
-7.569824345409870148e-03 -4.385595768690109253e-02 -4.992085993289947510e-01
-5.683453753590583801e-02 -4.324162378907203674e-02 -6.179023981094360352e-01
-2.369085140526294708e-02 -6.742402911186218262e-02 -1.350671648979187012e-01
-6.773918867111206055e-02 -5.760751664638519287e-02 -8.627424836158752441e-01
5.677468702197074890e-02 -6.891490519046783447e-02 -2.212255001068115234e-01
6.360734999179840088e-02 -6.824070215225219727e-02 -2.886070013046264648e-01
-3.929901868104934692e-04 -6.874855607748031616e-02 -4.138865172863006592e-01
1.111244708299636841e-01 -6.307402998208999634e-02 -3.631269931793212891e-02
-1.755338162183761597e-02 -4.656533896923065186e-02 -2.093206495046615601e-01
4.616459459066390991e-02 -6.919725984334945679e-02 -2.377581000328063965e-01
5.595458671450614929e-02 -4.830121621489524841e-02 -1.994865983724594116e-01
-8.424599468708038330e-02 -6.568176299333572388e-02 -4.691130518913269043e-01
-5.157588981091976166e-03 -6.819225847721099854e-02 -4.679897427558898926e-01
3.622088581323623657e-03 -4.536359757184982300e-02 -6.333508491516113281e-01
-1.190007776021957397e-01 -6.216052919626235962e-02 -4.746266603469848633e-01
-2.593103982508182526e-02 -6.874916702508926392e-02 -2.938924431800842285e-01
-9.934338927268981934e-02 -5.759176984429359436e-02 -8.487316370010375977e-01
-4.589162021875381470e-02 -6.593821942806243896e-02 -6.079211831092834473e-01
-8.541931398212909698e-03 -6.281480193138122559e-02 2.669095993041992188e-02
2.226958051323890686e-02 -6.711991876363754272e-02 -5.031032562255859375e-01
7.953223586082458496e-02 -6.774216890335083008e-02 -1.098040640354156494e-01
-5.254054069519042969e-02 -6.058878451585769653e-02 -8.024642467498779297e-01
-5.724726244807243347e-02 -6.375322490930557251e-02 -7.049447298049926758e-01
-6.073820963501930237e-02 -6.289905309677124023e-02 -7.354004979133605957e-01
-4.307443276047706604e-02 -6.763879209756851196e-02 -2.422148287296295166e-01
4.918963834643363953e-02 -6.902951002120971680e-02 -2.611821293830871582e-01
3.092344850301742554e-04 -4.479471594095230103e-02 -3.319828510284423828e-01
6.561326980590820312e-02 -6.861926615238189697e-02 -1.739756464958190918e-01
-5.714865028858184814e-02 -6.536838412284851074e-02 -1.714152544736862183e-01
5.533171817660331726e-02 -4.737298190593719482e-02 -4.204991757869720459e-01
-3.849712014198303223e-02 -4.670807719230651855e-02 -2.249572426080703735e-01
-8.428458869457244873e-02 -4.701059311628341675e-02 -3.171454071998596191e-01
8.751860260963439941e-02 -6.731872260570526123e-02 -1.494225859642028809e-01
6.246557459235191345e-02 -6.463152170181274414e-02 -4.942207336425781250e-01
5.152608826756477356e-02 -6.177348271012306213e-02 -6.046352386474609375e-01
5.610197409987449646e-02 -6.825324892997741699e-02 -6.777089834213256836e-02
-8.245958387851715088e-02 -4.737988114356994629e-02 -8.626161813735961914e-01
1.528231054544448853e-02 -6.668309122323989868e-02 -5.380396842956542969e-01
-1.312579400837421417e-02 -6.043587252497673035e-02 -7.721581459045410156e-01
3.241940587759017944e-02 -6.734975427389144897e-02 -4.683874249458312988e-01
-6.726105511188507080e-02 -4.771187528967857361e-02 -2.433904409408569336e-01
8.607520163059234619e-02 -6.689231097698211670e-02 -2.610072791576385498e-01
2.695783227682113647e-02 -6.832683831453323364e-02 -4.166435599327087402e-01
7.889063656330108643e-02 -4.967292025685310364e-02 -2.416445463895797729e-01
-1.540560275316238403e-01 -5.269826948642730713e-02 -6.841056346893310547e-01
-1.665450632572174072e-02 -6.886479258537292480e-02 -3.794306516647338867e-01
-1.355000287294387817e-01 -4.717405140399932861e-02 -6.074661016464233398e-01
-8.142988383769989014e-02 -4.392787069082260132e-02 -5.017216205596923828e-01
-8.464373648166656494e-02 -6.546966731548309326e-02 -5.152119994163513184e-01
8.281128481030464172e-03 -4.965263977646827698e-02 -7.772940397262573242e-02
-1.176188439130783081e-01 -6.245709583163261414e-02 -5.170546174049377441e-01
-1.291342973709106445e-01 -5.639929324388504028e-02 -3.577671647071838379e-01
-1.221864819526672363e-01 -4.676108062267303467e-02 -7.923321127891540527e-01
-1.091000437736511230e-01 -4.498816281557083130e-02 -5.511915683746337891e-01
-1.543353945016860962e-01 -5.344586446881294250e-02 -6.479460000991821289e-01
-1.284806057810783386e-03 -5.026623979210853577e-02 -7.930855751037597656e-01
-5.508616939187049866e-02 -5.246665701270103455e-02 -8.938746452331542969e-01
