6.842469573020935059e-01 2.598815858364105225e-01 3.796837478876113892e-02
6.039385795593261719e-01 3.705662488937377930e-02 -2.605010755360126495e-02
6.537276506423950195e-01 6.237593293190002441e-02 -3.221067413687705994e-02
3.622295260429382324e-01 6.203716248273849487e-02 -1.940357498824596405e-02
4.847322702407836914e-01 7.517444342374801636e-02 4.200950637459754944e-02
6.161063909530639648e-01 2.840461730957031250e-01 -2.692735195159912109e-02
7.614020109176635742e-01 2.458960860967636108e-01 -1.119730528444051743e-02
7.672936320304870605e-01 2.003657519817352295e-01 -2.416157163679599762e-02
5.085737109184265137e-01 2.806700766086578369e-01 -2.411458827555179596e-02
4.366668462753295898e-01 1.868869066238403320e-01 -4.730704054236412048e-02
4.752302169799804688e-01 1.424296200275421143e-01 5.434007197618484497e-02
4.425608217716217041e-01 1.365463435649871826e-01 -5.188262835144996643e-02
4.852188825607299805e-01 1.805832982063293457e-02 1.786152133718132973e-03
5.470503568649291992e-01 2.612988352775573730e-01 4.639951139688491821e-02
6.718294620513916016e-01 2.918824553489685059e-01 2.271164581179618835e-02
6.833710670471191406e-01 1.353904753923416138e-01 4.329663887619972229e-02
3.456096053123474121e-01 2.113505452871322632e-01 -9.852227754890918732e-03
7.801196575164794922e-01 2.231518477201461792e-01 1.068970002233982086e-02
3.546453714370727539e-01 2.231711596250534058e-01 -7.144729141145944595e-03
6.906276941299438477e-01 9.525310248136520386e-02 -3.729057684540748596e-02
6.630482077598571777e-01 2.009081244468688965e-01 5.089506879448890686e-02
3.696679472923278809e-01 1.222087144851684570e-01 3.683660179376602173e-02
6.421088576316833496e-01 2.326176464557647705e-01 -4.531139880418777466e-02
7.432267069816589355e-01 1.395213901996612549e-01 -3.214129060506820679e-02
5.440798401832580566e-01 1.776371896266937256e-02 -3.752302844077348709e-03
6.680352687835693359e-01 2.877349853515625000e-01 -1.811325177550315857e-02
3.151158392429351807e-01 1.552205234766006470e-01 -1.058132294565439224e-02
6.324219107627868652e-01 2.146578133106231689e-01 -4.981578886508941650e-02
7.602701187133789062e-01 1.799802035093307495e-01 2.775744348764419556e-02
7.008201479911804199e-01 1.247578263282775879e-01 -4.221158102154731750e-02
3.306937515735626221e-01 1.386041194200515747e-01 -2.390641905367374420e-02
5.839886069297790527e-01 1.793046444654464722e-01 -5.650895833969116211e-02
6.307682991027832031e-01 1.298983097076416016e-01 5.003181844949722290e-02
4.466627836227416992e-01 1.577135324478149414e-01 5.262638628482818604e-02
5.738772153854370117e-01 2.913250029087066650e-02 1.281062234193086624e-02
4.981829524040222168e-01 3.239192068576812744e-02 -3.143534809350967407e-02
6.665014028549194336e-01 1.198553368449211121e-01 -4.810843244194984436e-02
4.771901071071624756e-01 3.738167881965637207e-02 2.374267205595970154e-02
4.098640680313110352e-01 3.313331305980682373e-02 -1.451007649302482605e-02
6.220749616622924805e-01 2.603687942028045654e-01 4.548288509249687195e-02
4.341134428977966309e-01 2.301371991634368896e-01 4.314699396491050720e-02
7.270939350128173828e-01 2.191661894321441650e-01 -3.491519391536712646e-02
5.252906680107116699e-01 1.474048644304275513e-01 -5.777958035469055176e-02
3.948833346366882324e-01 2.163232117891311646e-01 -3.130865842103958130e-02
5.919525623321533203e-01 2.691859006881713867e-02 3.849208587780594826e-03
6.812987923622131348e-01 2.454049289226531982e-01 4.259482026100158691e-02
7.674411535263061523e-01 1.983387768268585205e-01 2.471679635345935822e-02
4.131553769111633301e-01 8.360085636377334595e-02 -4.243157804012298584e-02
3.921087682247161865e-01 5.835576355457305908e-02 2.251137234270572662e-02
6.906896829605102539e-01 2.648113071918487549e-01 -2.794197574257850647e-02
5.635293722152709961e-01 1.414288282394409180e-01 5.601258575916290283e-02
6.113447546958923340e-01 2.523429691791534424e-01 4.836255684494972229e-02
4.844216406345367432e-01 2.969838678836822510e-02 -2.857483923435211182e-02
6.488033533096313477e-01 1.309593915939331055e-01 4.803676530718803406e-02
7.750685214996337891e-01 1.347443014383316040e-01 1.018104143440723419e-03
4.640920758247375488e-01 2.876630127429962158e-01 -2.088647568598389626e-03
5.325787067413330078e-01 1.721057295799255371e-02 -1.046400796622037888e-02
4.934231340885162354e-01 2.515348196029663086e-01 4.568638280034065247e-02
6.837286949157714844e-01 1.441710442304611206e-01 -4.792688414454460144e-02
6.544610261917114258e-01 1.927420794963836670e-01 -5.092035606503486633e-02
5.244314074516296387e-01 2.524546980857849121e-01 4.803666844964027405e-02
7.392914295196533203e-01 2.271892130374908447e-01 -2.951405383646488190e-02
4.410379528999328613e-01 1.190416514873504639e-01 -5.112249031662940979e-02
5.760725140571594238e-01 2.632932364940643311e-02 -2.027106471359729767e-02
5.756129622459411621e-01 3.074968457221984863e-01 1.500059291720390320e-02
7.446801066398620605e-01 1.145535036921501160e-01 -2.366225421428680420e-02
7.324434518814086914e-01 1.495448201894760132e-01 3.391426056623458862e-02
7.251305580139160156e-01 2.563299536705017090e-01 -2.309406735002994537e-02
7.478958964347839355e-01 1.751934587955474854e-01 -3.360315039753913879e-02
5.305423736572265625e-01 2.189292758703231812e-01 5.522431805729866028e-02
6.021368503570556641e-01 2.254814952611923218e-01 -4.926913604140281677e-02
6.554785966873168945e-01 1.044231206178665161e-01 -4.708860442042350769e-02
6.609484553337097168e-01 9.261130541563034058e-02 -4.323171451687812805e-02
3.866509795188903809e-01 1.963325142860412598e-01 3.992736339569091797e-02
7.456326484680175781e-01 9.845409542322158813e-02 -3.397340886294841766e-03
6.673918366432189941e-01 1.770428419113159180e-01 5.038793012499809265e-02
4.988931417465209961e-01 2.231409698724746704e-01 -4.719642549753189087e-02
5.673323273658752441e-01 2.621094882488250732e-01 4.658865183591842651e-02
5.761175751686096191e-01 9.604899585247039795e-02 4.733577370643615723e-02
4.547638595104217529e-01 2.434256523847579956e-01 4.291133582592010498e-02
6.126687526702880859e-01 1.297598928213119507e-01 5.176255479454994202e-02
7.652635574340820312e-01 2.327016890048980713e-01 -1.629421487450599670e-02
5.875950455665588379e-01 4.405993968248367310e-02 2.401874214410781860e-02
7.312172651290893555e-01 2.745971679687500000e-01 -5.101044196635484695e-03
3.660293519496917725e-01 2.204850316047668457e-01 2.507090754806995392e-02
6.821658015251159668e-01 1.268005818128585815e-01 -4.641193896532058716e-02
4.755414128303527832e-01 2.144843786954879761e-01 -4.698487371206283569e-02
3.838800489902496338e-01 1.126226484775543213e-01 3.874031454324722290e-02
4.897933006286621094e-01 5.460608750581741333e-02 -4.257571324706077576e-02
5.468702912330627441e-01 2.933604717254638672e-01 3.014022670686244965e-02
6.125366687774658203e-01 2.789161503314971924e-01 3.913110122084617615e-02
3.221938610076904297e-01 1.836899518966674805e-01 -5.020071286708116531e-03
7.877311706542968750e-01 1.826122403144836426e-01 -1.037512626498937607e-02
6.310018897056579590e-01 2.415204644203186035e-01 -4.381531849503517151e-02
6.342003941535949707e-01 2.732552886009216309e-01 -3.166117519140243530e-02
5.373027324676513672e-01 3.008903264999389648e-01 2.104284614324569702e-02
7.187902331352233887e-01 1.189834922552108765e-01 3.037379123270511627e-02
5.351210236549377441e-01 1.900625079870223999e-01 -5.530534684658050537e-02
6.550883054733276367e-01 1.901273429393768311e-01 5.213876813650131226e-02
6.333210468292236328e-01 7.843045890331268311e-02 3.542983904480934143e-02
6.748817563056945801e-01 7.193065434694290161e-02 2.229992859065532684e-02
7.235678434371948242e-01 8.574993908405303955e-02 8.671289309859275818e-03
7.354747653007507324e-01 9.095580875873565674e-02 2.268439158797264099e-03
4.128762483596801758e-01 2.557276785373687744e-01 2.554955706000328064e-02
4.026271104812622070e-01 4.507130384445190430e-02 1.642198860645294189e-02
4.293484389781951904e-01 2.110462933778762817e-01 4.658516868948936462e-02
4.377564191818237305e-01 1.892642676830291748e-01 5.068290978670120239e-02
5.947354435920715332e-01 1.943607926368713379e-01 5.684193223714828491e-02
6.336720585823059082e-01 1.566259711980819702e-01 -5.466243997216224670e-02
7.384956479072570801e-01 2.500423789024353027e-01 -2.136644162237644196e-02
4.780535399913787842e-01 2.429854273796081543e-01 -3.883792459964752197e-02
5.305569171905517578e-01 1.847016364336013794e-01 5.787355452775955200e-02
5.547604560852050781e-01 3.962732851505279541e-02 -3.515049070119857788e-02
6.870996952056884766e-01 1.079010516405105591e-01 -4.186522215604782104e-02
6.114365458488464355e-01 3.879509866237640381e-02 1.457964070141315460e-02
7.352887988090515137e-01 1.918303519487380981e-01 -3.673071041703224182e-02
5.512287616729736328e-01 2.484124600887298584e-01 -4.303606599569320679e-02
6.025435328483581543e-01 2.673047780990600586e-01 -3.611564636230468750e-02
4.949696362018585205e-01 2.724316716194152832e-01 -2.736307494342327118e-02
6.875383853912353516e-01 2.520476579666137695e-01 -3.392612189054489136e-02
4.454445242881774902e-01 5.136524885892868042e-02 -3.720534220337867737e-02
6.693329215049743652e-01 7.093393802642822266e-02 -3.265274688601493835e-02
5.473679304122924805e-01 3.071755766868591309e-01 6.296741310507059097e-03
7.183747291564941406e-01 1.362131088972091675e-01 3.533177077770233154e-02
5.797068476676940918e-01 2.572952508926391602e-01 -4.043111205101013184e-02
6.485502719879150391e-01 8.885908126831054688e-02 3.692143037915229797e-02
3.962777256965637207e-01 2.577362954616546631e-01 1.002990361303091049e-02
4.676104187965393066e-01 2.219626307487487793e-02 7.425359450280666351e-03
4.419746100902557373e-01 2.621677517890930176e-02 7.562744431197643280e-03
5.627431869506835938e-01 1.973325610160827637e-01 5.756744369864463806e-02
6.512345671653747559e-01 2.871335744857788086e-01 -2.152162790298461914e-02
4.731294512748718262e-01 1.005374938249588013e-01 -5.248400196433067322e-02
3.960286378860473633e-01 5.161103606224060059e-02 -2.686999179422855377e-02
5.143656730651855469e-01 1.611287891864776611e-02 -6.760999560356140137e-03
7.066613435745239258e-01 2.854594290256500244e-01 1.539742201566696167e-02
6.921119689941406250e-01 7.398089766502380371e-02 -2.624310739338397980e-02
4.192772209644317627e-01 2.699787020683288574e-01 -6.852786755189299583e-04
4.005453586578369141e-01 1.451470404863357544e-01 4.557744413614273071e-02
4.906911253929138184e-01 2.857990860939025879e-01 -1.629869826138019562e-02
6.746397614479064941e-01 1.508634239435195923e-01 4.722856730222702026e-02
7.676395177841186523e-01 1.256907731294631958e-01 -1.025551743805408478e-02
4.469972252845764160e-01 1.798689663410186768e-01 5.245818197727203369e-02
5.855910181999206543e-01 2.223467081785202026e-01 -5.034702643752098083e-02
5.008202195167541504e-01 7.475245743989944458e-02 4.244972020387649536e-02
4.384251832962036133e-01 8.156785368919372559e-02 4.030101001262664795e-02
7.130653262138366699e-01 2.465720027685165405e-01 3.574316948652267456e-02
6.104226708412170410e-01 2.910043299198150635e-02 -6.332530640065670013e-03
4.956674575805664062e-01 1.177867054939270020e-01 5.251790210604667664e-02
6.163521409034729004e-01 2.141714245080947876e-01 5.442747846245765686e-02
7.610694169998168945e-01 2.153696566820144653e-01 2.614402212202548981e-02
4.289987385272979736e-01 1.619628071784973145e-01 5.052364617586135864e-02
4.537922143936157227e-01 2.258581519126892090e-01 -4.103895649313926697e-02
6.971222162246704102e-01 2.395694255828857422e-01 -3.632722422480583191e-02
6.069222092628479004e-01 3.091930150985717773e-01 7.660741917788982391e-03
3.964397311210632324e-01 2.412613332271575928e-01 2.810842916369438171e-02
6.919323205947875977e-01 2.916921973228454590e-01 1.476090215146541595e-02
3.828012943267822266e-01 2.314539253711700439e-01 -1.976434513926506042e-02
6.197978258132934570e-01 1.892338842153549194e-01 -5.411289259791374207e-02
5.906644463539123535e-01 2.076671868562698364e-01 5.626771971583366394e-02
4.345204830169677734e-01 9.321895986795425415e-02 -4.748633131384849548e-02
6.361010074615478516e-01 2.004158496856689453e-01 5.383881926536560059e-02
5.771009325981140137e-01 1.827799677848815918e-01 5.771411582827568054e-02
5.523974895477294922e-01 1.738657206296920776e-01 -5.719585716724395752e-02
5.550217032432556152e-01 1.911002248525619507e-01 -5.556165799498558044e-02
5.891612172126770020e-01 2.738996148109436035e-01 4.218962043523788452e-02
6.522726416587829590e-01 2.227924466133117676e-01 5.041023343801498413e-02
5.947444438934326172e-01 1.444903016090393066e-01 -5.710273608565330505e-02
6.451251506805419922e-01 2.450682222843170166e-01 4.745253175497055054e-02
5.478541254997253418e-01 1.957085877656936646e-01 5.767884850502014160e-02
6.472872495651245117e-01 2.070954740047454834e-01 -4.982887953519821167e-02
3.794710040092468262e-01 1.443595886230468750e-01 -4.068741202354431152e-02
3.683016300201416016e-01 1.934005618095397949e-01 3.497321158647537231e-02
4.367893934249877930e-01 2.680096030235290527e-01 2.573063969612121582e-02
5.807340145111083984e-01 1.271203458309173584e-01 -5.688177421689033508e-02
5.909363627433776855e-01 1.162959635257720947e-01 -5.544204637408256531e-02
5.032632946968078613e-01 1.827211827039718628e-01 -5.473035946488380432e-02
3.288482725620269775e-01 1.666632443666458130e-01 2.214647457003593445e-02
6.985765099525451660e-01 1.979095041751861572e-01 -4.428884387016296387e-02
5.709688663482666016e-01 1.710473746061325073e-01 -5.732055753469467163e-02
5.127998590469360352e-01 1.741947531700134277e-01 5.750873312354087830e-02
7.154780626296997070e-01 2.693321704864501953e-01 -1.875651068985462189e-02
7.095382213592529297e-01 1.002006679773330688e-01 2.604482881724834442e-02
7.436047792434692383e-01 1.852334141731262207e-01 3.426920995116233826e-02
6.432231664657592773e-01 2.653808593750000000e-01 4.203020036220550537e-02
5.172582268714904785e-01 2.060867547988891602e-01 5.618802085518836975e-02
6.419077515602111816e-01 5.220442265272140503e-02 1.821987144649028778e-02
4.239483773708343506e-01 2.141311615705490112e-01 -3.914641588926315308e-02
5.769537091255187988e-01 2.362999320030212402e-01 5.296101421117782593e-02
4.507082998752593994e-01 3.400115668773651123e-02 -2.790419571101665497e-02
5.445486903190612793e-01 8.068648725748062134e-02 -5.114828050136566162e-02
6.378715038299560547e-01 4.612124711275100708e-02 -2.465489134192466736e-02
6.078137755393981934e-01 2.499829828739166260e-01 -4.247191175818443298e-02
5.980956554412841797e-01 4.836410284042358398e-02 -3.559379279613494873e-02
5.181294083595275879e-01 1.491937488317489624e-01 5.678085237741470337e-02
5.681298971176147461e-01 4.157303273677825928e-02 2.477427013218402863e-02
7.615855932235717773e-01 2.381555438041687012e-01 1.971682347357273102e-02
4.970625340938568115e-01 1.138757765293121338e-01 -5.540902167558670044e-02
6.681703925132751465e-01 3.011665940284729004e-01 4.814189858734607697e-03
4.679193496704101562e-01 2.342748939990997314e-01 -4.047914966940879822e-02
6.791601777076721191e-01 2.231583148241043091e-01 4.684461280703544617e-02
5.070204734802246094e-01 9.198579192161560059e-02 -5.304849892854690552e-02
7.159333229064941406e-01 2.466245889663696289e-01 -2.992470562458038330e-02
5.274540185928344727e-01 1.619772911071777344e-01 5.766219273209571838e-02
5.358830690383911133e-01 6.246007978916168213e-02 3.789462521672248840e-02
4.609546065330505371e-01 1.327947825193405151e-01 5.237387865781784058e-02
6.316250562667846680e-01 9.314984828233718872e-02 -4.796976223587989807e-02
4.940015673637390137e-01 2.104035317897796631e-01 -4.968804866075515747e-02
3.815203309059143066e-01 1.295553743839263916e-01 -4.132374003529548645e-02
4.199383258819580078e-01 5.728170275688171387e-02 2.826096490025520325e-02
4.444901645183563232e-01 1.436882019042968750e-01 5.174260959029197693e-02
6.375470161437988281e-01 1.707276254892349243e-01 -5.406409874558448792e-02
4.891281723976135254e-01 1.467485129833221436e-01 5.550752952694892883e-02
3.594954013824462891e-01 1.222424954175949097e-01 -3.510641679167747498e-02
6.709181070327758789e-01 1.751293092966079712e-01 -5.024039000272750854e-02
5.031107068061828613e-01 1.508987993001937866e-01 5.642928555607795715e-02
5.233286023139953613e-01 1.051126271486282349e-01 5.082404240965843201e-02
5.187074542045593262e-01 4.053161293268203735e-02 -3.692318126559257507e-02
5.362744331359863281e-01 2.022036314010620117e-01 5.711616203188896179e-02
3.510456681251525879e-01 6.543391197919845581e-02 8.622740395367145538e-03
3.417308926582336426e-01 7.556272298097610474e-02 -1.537275407463312149e-02
5.727001428604125977e-01 2.332773208618164062e-01 -4.787559807300567627e-02
5.951930880546569824e-01 2.004031538963317871e-01 -5.393183976411819458e-02
5.620338320732116699e-01 2.373062670230865479e-01 5.284170061349868774e-02
6.959511637687683105e-01 2.170516997575759888e-01 -4.190099611878395081e-02
4.081926047801971436e-01 1.073636859655380249e-01 -4.535258188843727112e-02
4.710856676101684570e-01 1.488467603921890259e-01 -5.470414087176322937e-02
6.223964691162109375e-01 9.117569774389266968e-02 4.169904440641403198e-02
6.243087053298950195e-01 2.943156957626342773e-01 -1.891529187560081482e-02
4.285495281219482422e-01 1.235476136207580566e-01 -4.974288865923881531e-02
5.324724316596984863e-01 1.190621033310890198e-01 -5.690657719969749451e-02
3.309043645858764648e-01 2.009880095720291138e-01 2.456294139847159386e-03
4.119426012039184570e-01 1.548536419868469238e-01 4.788069427013397217e-02
4.771656990051269531e-01 5.152717977762222290e-02 3.205864503979682922e-02
3.769018650054931641e-01 2.055477499961853027e-01 -2.936476096510887146e-02
4.767925441265106201e-01 1.793823242187500000e-01 -5.310164019465446472e-02
5.602187514305114746e-01 6.739582121372222900e-02 -4.707555472850799561e-02
6.822704076766967773e-01 1.028625071048736572e-01 3.500889986753463745e-02
3.851544260978698730e-01 1.410719007253646851e-01 4.230465739965438843e-02
6.502749919891357422e-01 7.424065470695495605e-02 3.027703985571861267e-02
7.363662719726562500e-01 1.531658619642257690e-01 -3.638773411512374878e-02
6.514998674392700195e-01 3.034458458423614502e-01 -1.478966325521469116e-03
5.683942437171936035e-01 1.493039578199386597e-01 -5.799213424324989319e-02
3.529279828071594238e-01 7.940322160720825195e-02 -2.430110424757003784e-02
6.015146970748901367e-01 1.398310959339141846e-01 5.404657870531082153e-02
7.183643579483032227e-01 1.619820147752761841e-01 3.970551863312721252e-02
5.499206781387329102e-01 7.893752306699752808e-02 4.355457425117492676e-02
4.340614676475524902e-01 2.638528347015380859e-01 -1.807501912117004395e-02
4.284006357192993164e-01 2.900508046150207520e-02 7.230365648865699768e-03
5.740759968757629395e-01 2.856542170047760010e-01 -2.651039510965347290e-02
4.073114395141601562e-01 5.744201689958572388e-02 -3.298096358776092529e-02
4.370635747909545898e-01 2.202941477298736572e-01 -3.987231105566024780e-02
5.198717117309570312e-01 2.715434432029724121e-01 4.071762785315513611e-02
6.895205974578857422e-01 2.854325771331787109e-01 -1.454453542828559875e-02
3.567567765712738037e-01 1.025267243385314941e-01 2.935500815510749817e-02
6.707246303558349609e-01 1.103088557720184326e-01 3.982215002179145813e-02
3.856588900089263916e-01 6.754412502050399780e-02 -3.159905225038528442e-02
6.908618211746215820e-01 1.540461331605911255e-01 4.477129876613616943e-02
4.804293215274810791e-01 2.613997459411621094e-01 4.032703489065170288e-02
4.828837513923645020e-01 4.196131974458694458e-02 -3.648416697978973389e-02
5.056910514831542969e-01 5.236665159463882446e-02 -4.232082143425941467e-02
4.109164178371429443e-01 1.645804941654205322e-01 -4.590718820691108704e-02
3.898375630378723145e-01 3.797185420989990234e-02 -4.636351019144058228e-03
4.494160115718841553e-01 1.972051262855529785e-01 5.148644000291824341e-02
7.192695140838623047e-01 2.233321070671081543e-01 3.898077830672264099e-02
5.400082468986511230e-01 9.134386479854583740e-02 4.747840017080307007e-02
5.627833604812622070e-01 9.991026669740676880e-02 4.897131770849227905e-02
6.985493898391723633e-01 2.773745954036712646e-01 2.640011534094810486e-02
6.823827028274536133e-01 5.990798771381378174e-02 -1.784940250217914581e-02
4.973379373550415039e-01 2.978419661521911621e-01 1.157563179731369019e-02
6.492966413497924805e-01 2.687043547630310059e-01 -3.241375461220741272e-02
5.751911401748657227e-01 2.097019106149673462e-01 5.653215572237968445e-02
6.053182482719421387e-01 1.713024228811264038e-01 5.628221854567527771e-02
6.173435449600219727e-01 1.403180807828903198e-01 -5.560173839330673218e-02
4.395697414875030518e-01 2.431192249059677124e-01 4.011055827140808105e-02
7.298362255096435547e-01 9.371674805879592896e-02 -1.997853443026542664e-02
7.189748287200927734e-01 1.888819187879562378e-01 4.120473563671112061e-02
5.997296571731567383e-01 2.838990986347198486e-01 -2.764361724257469177e-02
3.252111375331878662e-01 1.012092828750610352e-01 1.335007324814796448e-02
5.067593455314636230e-01 7.835785299539566040e-02 -5.034067481756210327e-02
4.688104093074798584e-01 7.061757892370223999e-02 -4.632434248924255371e-02
3.127879798412322998e-01 1.383077949285507202e-01 -1.047220360487699509e-02
4.644438624382019043e-01 2.352178692817687988e-01 4.680290445685386658e-02
5.582965016365051270e-01 2.260388433933258057e-02 6.563522387295961380e-03
6.732051968574523926e-01 2.713914215564727783e-01 -2.786063030362129211e-02
7.466707825660705566e-01 2.387253344058990479e-01 -2.309331297874450684e-02
4.539386630058288574e-01 1.659589856863021851e-01 -5.207326635718345642e-02
7.788068652153015137e-01 2.185159623622894287e-01 -1.225977763533592224e-02
5.607461929321289062e-01 8.055249601602554321e-02 -5.069486051797866821e-02
5.242403149604797363e-01 2.168275415897369385e-02 -2.128238789737224579e-02
6.058223247528076172e-01 7.422602176666259766e-02 -4.577710852026939392e-02
4.586511552333831787e-01 1.950107514858245850e-02 -6.515861488878726959e-03
5.736988782882690430e-01 1.154831424355506897e-01 -5.611527338624000549e-02
5.666511654853820801e-01 2.724266052246093750e-01 -3.377640992403030396e-02
5.695276260375976562e-01 2.832163274288177490e-01 3.785209357738494873e-02
5.314820408821105957e-01 4.981959611177444458e-02 3.209410607814788818e-02
7.053273320198059082e-01 1.689807921648025513e-01 -4.474386200308799744e-02
5.194566845893859863e-01 1.962639540433883667e-01 -5.385596677660942078e-02
5.751036405563354492e-01 4.462344944477081299e-02 -3.633564710617065430e-02
4.584066867828369141e-01 2.043531537055969238e-01 -4.715085402131080627e-02
4.787369072437286377e-01 2.926965355873107910e-01 1.237065345048904419e-02
7.431944012641906738e-01 2.178055644035339355e-01 3.284953162074089050e-02
6.704588532447814941e-01 1.946520209312438965e-01 -4.887806996703147888e-02
6.871693134307861328e-01 1.810006648302078247e-01 4.746929556131362915e-02
4.613582193851470947e-01 2.541903853416442871e-01 -3.134401515126228333e-02
3.703526258468627930e-01 7.592023164033889771e-02 2.478305250406265259e-02
5.149428844451904297e-01 2.898969054222106934e-01 2.887012809514999390e-02
3.934742212295532227e-01 2.394446283578872681e-01 -1.951969973742961884e-02
4.123141765594482422e-01 3.428044915199279785e-02 8.437743410468101501e-03
4.034439325332641602e-01 2.326195091009140015e-01 -2.712088450789451599e-02
5.185261368751525879e-01 1.689311414957046509e-01 -5.674955621361732483e-02
2.952422499656677246e-01 1.243384405970573425e-01 -8.228132873773574829e-02
2.474381625652313232e-01 1.725400537252426147e-01 -9.852900356054306030e-02
3.286166787147521973e-01 2.009596228599548340e-01 6.817135959863662720e-02
2.864096164703369141e-01 1.477022618055343628e-01 9.297648817300796509e-02
1.687826812267303467e-01 1.007618010044097900e-01 6.544962525367736816e-02
1.789616793394088745e-01 1.170775070786476135e-01 -8.529260754585266113e-02
1.267226040363311768e-01 1.913470476865768433e-01 -2.892293594777584076e-02
1.329932957887649536e-01 8.966397494077682495e-02 -1.601003296673297882e-02
2.339946180582046509e-01 1.993847936391830444e-01 -9.463602304458618164e-02
3.207248449325561523e-01 1.370454728603363037e-01 -6.825374811887741089e-02
3.510451018810272217e-01 1.820534765720367432e-01 -3.282925114035606384e-02
2.593803703784942627e-01 8.631585538387298584e-02 -8.256656676530838013e-02
3.503023982048034668e-01 1.134679913520812988e-01 -5.320494994521141052e-03
3.257752656936645508e-01 1.692436784505844116e-01 7.428235560655593872e-02
2.217889279127120972e-01 3.910110890865325928e-02 -4.837702214717864990e-02
2.876569032669067383e-01 3.979843109846115112e-02 9.400516748428344727e-03
3.032967448234558105e-01 2.469926774501800537e-01 -5.490286648273468018e-02
1.480917930603027344e-01 1.602577120065689087e-01 6.179539859294891357e-02
2.231640368700027466e-01 1.758269667625427246e-01 9.802886098623275757e-02
3.031809926033020020e-01 5.814870446920394897e-02 -3.336402401328086853e-02
1.899088919162750244e-01 3.363619744777679443e-02 1.067343167960643768e-03
2.253576666116714478e-01 9.337878227233886719e-02 8.371977508068084717e-02
1.583232879638671875e-01 2.365802228450775146e-01 -4.614378511905670166e-02
1.186309009790420532e-01 1.616245657205581665e-01 3.387937089428305626e-03
1.311814486980438232e-01 1.289797574281692505e-01 3.586893901228904724e-02
1.578806638717651367e-01 2.212049663066864014e-01 -5.800431221723556519e-02
3.038888871669769287e-01 2.273764312267303467e-01 7.618914544582366943e-02
2.292808592319488525e-01 4.051847755908966064e-02 4.296048358082771301e-02
2.070049494504928589e-01 1.208817213773727417e-01 8.953973650932312012e-02
2.842495739459991455e-01 3.711525350809097290e-02 -8.669590461067855358e-04
2.112069725990295410e-01 6.986958533525466919e-02 -7.563463598489761353e-02
3.238427639007568359e-01 8.476537466049194336e-02 -3.842196613550186157e-02
3.237070441246032715e-01 1.571705341339111328e-01 -6.807888299226760864e-02
1.783760040998458862e-01 2.259911894798278809e-01 -7.062822580337524414e-02
3.132504522800445557e-01 2.666382193565368652e-01 3.552491590380668640e-02
1.368252933025360107e-01 2.073968052864074707e-01 3.374839201569557190e-02
3.267635405063629150e-01 2.210901677608489990e-01 -5.133081972599029541e-02
1.838842332363128662e-01 2.728609442710876465e-01 -2.623634599149227142e-02
2.266868352890014648e-01 2.421907186508178711e-01 8.100154250860214233e-02
1.208613216876983643e-01 1.400822103023529053e-01 1.374783366918563843e-02
1.376051008701324463e-01 2.196269035339355469e-01 -2.873368747532367706e-02
2.742537558078765869e-01 3.585354983806610107e-02 1.912173070013523102e-02
1.797366738319396973e-01 2.717117667198181152e-01 2.375964634120464325e-02
1.631731390953063965e-01 7.526104897260665894e-02 4.459975659847259521e-02
1.659254878759384155e-01 2.639124989509582520e-01 -1.038398034870624542e-02
3.450661897659301758e-01 1.670408844947814941e-01 -4.466789960861206055e-02
1.218144223093986511e-01 1.651202440261840820e-01 1.856002956628799438e-02
2.989874184131622314e-01 4.688779264688491821e-02 1.018342282623052597e-02
2.569034397602081299e-01 4.322829842567443848e-02 4.404997080564498901e-02
2.751987278461456299e-01 1.127759665250778198e-01 8.810306340456008911e-02
2.719463109970092773e-01 1.882836669683456421e-01 9.668071568012237549e-02
2.000187039375305176e-01 3.446188569068908691e-02 2.063759416341781616e-02
1.688425242900848389e-01 1.050149202346801758e-01 -7.660900056362152100e-02
2.105265259742736816e-01 2.855192422866821289e-01 3.161595016717910767e-02
1.429329514503479004e-01 8.309890329837799072e-02 2.399052307009696960e-02
2.296317368745803833e-01 7.990667968988418579e-02 -8.295571058988571167e-02
2.050613462924957275e-01 2.798154056072235107e-01 -3.423164784908294678e-02
2.026248127222061157e-01 1.357906162738800049e-01 -9.590210020542144775e-02
3.317201733589172363e-01 1.873949468135833740e-01 -5.846158042550086975e-02
1.733784973621368408e-01 7.005523145198822021e-02 4.920636862516403198e-02
2.071116268634796143e-01 1.414256244897842407e-01 9.343951940536499023e-02
1.955281943082809448e-01 1.337425410747528076e-01 8.868414908647537231e-02
1.562224626541137695e-01 2.410829365253448486e-01 3.596534952521324158e-02
3.539554476737976074e-01 1.308223903179168701e-01 -1.509600598365068436e-02
1.636702120304107666e-01 2.575046420097351074e-01 2.377551235258579254e-02
3.416008055210113525e-01 1.118656098842620850e-01 3.854370117187500000e-02
1.862359493970870972e-01 2.665564715862274170e-01 4.203141480684280396e-02
2.185905277729034424e-01 1.496576666831970215e-01 9.688097983598709106e-02
2.472920268774032593e-01 2.749325037002563477e-01 5.889061465859413147e-02
2.227868884801864624e-01 3.095328807830810547e-02 2.489213459193706512e-02
2.660045921802520752e-01 1.233426034450531006e-01 9.312578290700912476e-02
3.551461398601531982e-01 1.858319938182830811e-01 -2.217066846787929535e-02
1.529422253370285034e-01 1.300620436668395996e-01 6.299758702516555786e-02
3.542173504829406738e-01 2.113515734672546387e-01 -3.534370567649602890e-03
1.505698859691619873e-01 2.329234778881072998e-01 -3.903751447796821594e-02
3.169823288917541504e-01 2.201334685087203979e-01 7.107863575220108032e-02
2.077559530735015869e-01 1.677553653717041016e-01 -9.723705053329467773e-02
3.031091392040252686e-01 1.836895346641540527e-01 8.742881566286087036e-02
2.696277499198913574e-01 1.130104959011077881e-01 -8.958887308835983276e-02
2.471663802862167358e-01 3.760105371475219727e-02 3.795248270034790039e-02
2.720261216163635254e-01 6.433225423097610474e-02 6.200009211897850037e-02
1.235521435737609863e-01 1.630730479955673218e-01 -3.396532312035560608e-02
2.042294442653656006e-01 2.980694174766540527e-02 -2.027902752161026001e-02
2.309723347425460815e-01 1.711206734180450439e-01 -9.926687180995941162e-02
3.256213963031768799e-01 2.386728525161743164e-01 5.275003984570503235e-02
2.695237994194030762e-01 5.447654426097869873e-02 -5.705655738711357117e-02
3.029942214488983154e-01 2.116052210330963135e-01 -7.372563332319259644e-02
2.199119478464126587e-01 2.855312228202819824e-01 -3.220529109239578247e-02
3.318971395492553711e-01 1.238120496273040771e-01 5.952850729227066040e-02
2.240340113639831543e-01 1.274535804986953735e-01 9.449221938848495483e-02
2.844409644603729248e-01 2.167116403579711914e-01 8.796607702970504761e-02
1.999996304512023926e-01 2.853037118911743164e-01 1.929885894060134888e-02
1.781154274940490723e-01 1.089576631784439087e-01 7.451386004686355591e-02
1.553452312946319580e-01 1.853876411914825439e-01 6.581125408411026001e-02
1.228497177362442017e-01 1.172331497073173523e-01 2.867051633074879646e-03
1.760136783123016357e-01 4.102821648120880127e-02 1.132960198447108269e-03
1.316181421279907227e-01 2.156577855348587036e-01 6.038461811840534210e-03
1.487873196601867676e-01 2.335282564163208008e-01 3.185258805751800537e-02
1.426460295915603638e-01 2.291035354137420654e-01 2.393959090113639832e-02
1.503454148769378662e-01 6.253926455974578857e-02 -6.132478825747966766e-03
1.576893627643585205e-01 1.280598044395446777e-01 -7.542160898447036743e-02
3.443044424057006836e-01 1.027571931481361389e-01 -1.409040577709674835e-02
2.266812771558761597e-01 1.896538287401199341e-01 -9.652580320835113525e-02
2.630606293678283691e-01 9.660004824399948120e-02 8.435779064893722534e-02
2.226492762565612793e-01 2.181845754384994507e-01 9.023060649633407593e-02
1.447484493255615234e-01 2.099851220846176147e-01 4.523005336523056030e-02
3.254753351211547852e-01 1.869706809520721436e-01 7.347801327705383301e-02
1.626746505498886108e-01 2.140832543373107910e-01 6.299066543579101562e-02
1.841066628694534302e-01 4.574850946664810181e-02 -4.059388488531112671e-02
2.732138931751251221e-01 1.892424374818801880e-01 -9.163459390401840210e-02
3.015148341655731201e-01 1.050776019692420959e-01 7.483528554439544678e-02
3.198440670967102051e-01 1.994476765394210815e-01 7.549143582582473755e-02
1.500914096832275391e-01 1.814832240343093872e-01 -6.799941509962081909e-02
3.075511753559112549e-01 5.247591435909271240e-02 -2.651030197739601135e-03
1.666639447212219238e-01 9.188348054885864258e-02 5.939992144703865051e-02
2.312638461589813232e-01 2.618442475795745850e-02 1.176301110535860062e-02
2.410927563905715942e-01 2.961271703243255615e-01 -1.010724622756242752e-02
3.007051944732666016e-01 2.581213414669036865e-01 5.842003598809242249e-02
3.002758026123046875e-01 2.690133750438690186e-01 4.680647328495979309e-02
3.464239835739135742e-01 1.244096606969833374e-01 -3.157523274421691895e-02
1.954242438077926636e-01 1.483086347579956055e-01 9.053359925746917725e-02
2.361441552639007568e-01 1.062973365187644958e-01 8.974654227495193481e-02
1.380472779273986816e-01 1.108885407447814941e-01 -5.056856572628021240e-02
3.112468719482421875e-01 7.971742004156112671e-02 5.105825141072273254e-02
2.804848551750183105e-01 7.608726620674133301e-02 6.800391525030136108e-02
2.846031486988067627e-01 1.549856215715408325e-01 -9.063123911619186401e-02
1.781409680843353271e-01 1.809976249933242798e-01 -8.634115010499954224e-02
1.317652463912963867e-01 1.475469768047332764e-01 -5.092965811491012573e-02
2.906821966171264648e-01 2.649142742156982422e-01 5.807799473404884338e-02
1.968457698822021484e-01 2.478483915328979492e-01 -6.581158190965652466e-02
2.344795018434524536e-01 1.580041795969009399e-01 9.946791082620620728e-02
2.626863420009613037e-01 6.567419320344924927e-02 -6.943037360906600952e-02
2.703167796134948730e-01 5.445305258035659790e-02 5.307981744408607483e-02
3.007683157920837402e-01 5.095493048429489136e-02 2.100812457501888275e-02
1.984375417232513428e-01 2.719241976737976074e-01 4.543221741914749146e-02
3.265069127082824707e-01 9.899613261222839355e-02 -4.707413911819458008e-02
1.321312040090560913e-01 1.925092786550521851e-01 3.376822918653488159e-02
3.143948316574096680e-01 1.567448973655700684e-01 8.147238940000534058e-02
1.980540603399276733e-01 1.601255685091018677e-01 9.208117425441741943e-02
1.483713686466217041e-01 2.393109500408172607e-01 -2.534158714115619659e-02
3.575295507907867432e-01 1.909421235322952271e-01 2.333959005773067474e-02
1.788377761840820312e-01 4.187949001789093018e-02 -2.541116811335086823e-02
1.641392409801483154e-01 1.548521667718887329e-01 7.495156675577163696e-02
1.899634599685668945e-01 2.773928642272949219e-01 2.693898417055606842e-02
3.428605198860168457e-01 9.820419549942016602e-02 1.558272354304790497e-02
1.537714898586273193e-01 8.866120874881744385e-02 4.538162425160408020e-02
2.338595241308212280e-01 2.741697430610656738e-02 -2.500747516751289368e-02
3.067764937877655029e-01 1.357157677412033081e-01 -7.803708314895629883e-02
2.570878863334655762e-01 1.853208839893341064e-01 9.884063154458999634e-02
1.517316102981567383e-01 1.958027482032775879e-01 5.970922857522964478e-02
2.015361487865447998e-01 2.675209641456604004e-01 -4.973107203841209412e-02
2.538678348064422607e-01 2.972129881381988525e-01 -5.919929244555532932e-04
1.705472469329833984e-01 1.681118756532669067e-01 7.907667756080627441e-02
2.593967616558074951e-01 3.144250810146331787e-02 1.995757967233657837e-02
1.879656165838241577e-01 2.808986306190490723e-01 -5.184534471482038498e-03
2.273904681205749512e-01 2.952536046504974365e-01 -6.668036803603172302e-03
3.315725922584533691e-01 7.798162847757339478e-02 2.638627542182803154e-03
2.804285287857055664e-01 2.837202250957489014e-01 -2.795283868908882141e-02
1.970464587211608887e-01 2.166723906993865967e-01 -8.330225199460983276e-02
2.616369128227233887e-01 2.867687940597534180e-01 -3.210281953215599060e-02
2.350174486637115479e-01 9.532193839550018311e-02 -8.959507197141647339e-02
2.655415236949920654e-01 1.368758827447891235e-01 -9.518083184957504272e-02
3.181908726692199707e-01 1.110972613096237183e-01 -6.257035583257675171e-02
3.440643250942230225e-01 2.364654839038848877e-01 1.473216526210308075e-02
1.773968786001205444e-01 1.566531956195831299e-01 8.306898176670074463e-02
1.994845122098922729e-01 8.801461011171340942e-02 -8.274591714143753052e-02
1.821590960025787354e-01 4.138371348381042480e-02 1.748680323362350464e-02
2.350179255008697510e-01 2.930484116077423096e-01 -2.019773423671722412e-02
1.664496362209320068e-01 7.626994699239730835e-02 -5.977616086602210999e-02
3.556465804576873779e-01 2.053930014371871948e-01 1.804095320403575897e-02
2.837626338005065918e-01 1.698560863733291626e-01 9.508179128170013428e-02
2.763971686363220215e-01 2.078997939825057983e-01 -8.631626516580581665e-02
3.400714993476867676e-01 1.365891844034194946e-01 5.490352213382720947e-02
2.454831004142761230e-01 1.345136314630508423e-01 9.726168215274810791e-02
2.954353690147399902e-01 1.720386445522308350e-01 9.123993664979934692e-02
1.921716928482055664e-01 1.809184849262237549e-01 -9.176807105541229248e-02
3.527010977268218994e-01 1.649939417839050293e-01 -3.118265606462955475e-02
2.710620462894439697e-01 2.401173710823059082e-01 8.195451647043228149e-02
3.017491102218627930e-01 1.846328675746917725e-01 -8.108091354370117188e-02
1.677525788545608521e-01 1.235514283180236816e-01 -8.104005455970764160e-02
3.137732148170471191e-01 1.437768787145614624e-01 8.007394522428512573e-02
2.636297643184661865e-01 2.065533250570297241e-01 9.484041482210159302e-02
1.371478438377380371e-01 1.709287017583847046e-01 4.841817170381546021e-02
3.317870795726776123e-01 2.409651279449462891e-01 -2.949502691626548767e-02
2.631290256977081299e-01 2.789727449417114258e-01 -4.368027299642562866e-02
1.315476000308990479e-01 1.610400378704071045e-01 -5.015133693814277649e-02
2.279554009437561035e-01 6.985483318567276001e-02 7.098235934972763062e-02
1.715891659259796143e-01 5.088387429714202881e-02 -3.555529564619064331e-02
3.381500244140625000e-01 2.402113378047943115e-01 -1.702789589762687683e-02
3.443737030029296875e-01 2.250242382287979126e-01 -2.166413888335227966e-02
3.312655687332153320e-01 8.806813508272171021e-02 3.262298181653022766e-02
2.047128975391387939e-01 2.058415263891220093e-01 -8.932131528854370117e-02
1.910234093666076660e-01 5.016834288835525513e-02 4.121736809611320496e-02
2.749947905540466309e-01 3.462222218513488770e-02 -1.775214821100234985e-02
3.316741883754730225e-01 8.623222261667251587e-02 -2.537081390619277954e-02
2.211834192276000977e-01 2.044302523136138916e-01 9.369326382875442505e-02
2.957370579242706299e-01 2.209244221448898315e-01 8.258675783872604370e-02
1.236255392432212830e-01 1.924781799316406250e-01 -1.372438017278909683e-02
1.725548654794692993e-01 2.630366981029510498e-01 -2.952504158020019531e-02
1.991614997386932373e-01 1.048607081174850464e-01 8.227628469467163086e-02
1.365236937999725342e-01 8.940283209085464478e-02 1.701992191374301910e-02
1.380694508552551270e-01 2.283623516559600830e-01 -1.227962225675582886e-02
2.689338028430938721e-01 3.523382544517517090e-02 -2.783428505063056946e-02
2.994508743286132812e-01 2.783905565738677979e-01 3.149179741740226746e-02
2.907960712909698486e-01 7.731404900550842285e-02 6.404876708984375000e-02
3.439063727855682373e-01 2.359206974506378174e-01 -4.376008640974760056e-03
3.434106707572937012e-01 1.695675253868103027e-01 5.652223527431488037e-02
1.429332196712493896e-01 2.200209945440292358e-01 -3.966982290148735046e-02
1.246664598584175110e-01 1.569748967885971069e-01 2.762362733483314514e-02
1.379686594009399414e-01 1.971605271100997925e-01 4.187780991196632385e-02
1.258131414651870728e-01 1.262702494859695435e-01 -3.491932526230812073e-02
2.063211798667907715e-01 1.795438230037689209e-01 -9.563784301280975342e-02
2.295788377523422241e-01 2.864932417869567871e-01 4.053618758916854858e-02
1.371319293975830078e-01 1.258362084627151489e-01 -5.497062951326370239e-02
2.841604351997375488e-01 2.883714437484741211e-01 2.378355152904987335e-02
2.596144974231719971e-01 1.612365990877151489e-01 -9.750065207481384277e-02
2.952761948108673096e-01 1.571790575981140137e-01 -8.616682887077331543e-02
3.070943355560302734e-01 2.145758122205734253e-01 7.930007576942443848e-02
2.620373666286468506e-01 2.942452430725097656e-01 2.302029356360435486e-02
1.301739513874053955e-01 2.092445045709609985e-01 -1.946977712213993073e-02
2.484868615865707397e-01 3.134845197200775146e-02 2.527177333831787109e-02
2.020157277584075928e-01 5.712623149156570435e-02 -6.381806731224060059e-02
1.328928172588348389e-01 8.935157954692840576e-02 5.835989140905439854e-04
1.699101030826568604e-01 2.679376304149627686e-01 7.323712576180696487e-03
3.353087902069091797e-01 1.726507395505905151e-01 6.580035388469696045e-02
2.019419521093368530e-01 1.883334815502166748e-01 9.166591614484786987e-02
1.341935396194458008e-01 1.155149564146995544e-01 3.520885109901428223e-02
2.448447197675704956e-01 2.600696682929992676e-01 7.200027257204055786e-02
2.984879314899444580e-01 2.637776136398315430e-01 -4.308354482054710388e-02
1.808008551597595215e-01 2.097579091787338257e-01 -7.950505614280700684e-02
2.926601469516754150e-01 2.870885133743286133e-01 3.610493848100304604e-03
3.429409861564636230e-01 2.225961089134216309e-01 3.999857604503631592e-02
1.623072326183319092e-01 1.802260875701904297e-01 -7.772115617990493774e-02
1.726731956005096436e-01 2.149174958467483521e-01 7.046601921319961548e-02
3.326185941696166992e-01 1.042115390300750732e-01 4.707090556621551514e-02
2.835352420806884766e-01 1.681894212961196899e-01 -9.080919623374938965e-02
3.212364912033081055e-01 2.304943948984146118e-01 -5.137849971652030945e-02
3.500176668167114258e-01 1.943101435899734497e-01 -3.105239942669868469e-02
2.604875564575195312e-01 2.658710181713104248e-01 -5.861970409750938416e-02
2.243624627590179443e-01 2.516188919544219971e-01 7.503753900527954102e-02
1.590580642223358154e-01 2.481756806373596191e-01 -3.291505947709083557e-02
2.246679514646530151e-01 2.807835340499877930e-01 -4.186492040753364563e-02
1.518205702304840088e-01 1.966680586338043213e-01 -6.480515003204345703e-02
3.564337193965911865e-01 1.541816592216491699e-01 -2.016828954219818115e-02
3.253850042819976807e-01 7.708355784416198730e-02 -2.513656206429004669e-02
3.226820826530456543e-01 7.170721888542175293e-02 2.315146289765834808e-02
1.604853570461273193e-01 5.921760201454162598e-02 2.096915245056152344e-02
2.035782039165496826e-01 2.567875385284423828e-01 -6.141050532460212708e-02
2.597970366477966309e-01 2.216164916753768921e-01 9.107655286788940430e-02
2.442705482244491577e-01 2.644061148166656494e-01 -6.192040443420410156e-02
2.522768676280975342e-01 1.985631585121154785e-01 -9.382911771535873413e-02
2.933802902698516846e-01 1.590755283832550049e-01 9.169698506593704224e-02
1.293526589870452881e-01 9.869037568569183350e-02 5.699957255274057388e-03
1.263889968395233154e-01 1.772344410419464111e-01 -3.652925044298171997e-02
1.867363750934600830e-01 8.476985991001129150e-02 -7.689367979764938354e-02
2.931246459484100342e-01 5.841049551963806152e-02 4.398658871650695801e-02
1.843633800745010376e-01 1.716891825199127197e-01 8.635592460632324219e-02
1.188899725675582886e-01 1.649096012115478516e-01 -1.389981433749198914e-02
2.182054370641708374e-01 1.176316812634468079e-01 9.119589626789093018e-02
2.361441105604171753e-01 2.447304129600524902e-02 -2.610508119687438011e-03
3.165923655033111572e-01 2.664442062377929688e-01 -1.702716574072837830e-02
2.101459503173828125e-01 2.302937656641006470e-01 -8.080736547708511353e-02
2.814866602420806885e-01 1.260049194097518921e-01 -8.867762237787246704e-02
3.135615587234497070e-01 6.355011463165283203e-02 -2.536697313189506531e-02
2.144146412611007690e-01 2.700251340866088867e-01 -5.241798236966133118e-02
2.793221771717071533e-01 2.647996544837951660e-01 6.325846165418624878e-02
3.590444326400756836e-01 1.442426294088363647e-01 5.096672102808952332e-03
1.708004474639892578e-01 2.092713117599487305e-01 -7.420805096626281738e-02
2.079616338014602661e-01 2.954724431037902832e-02 1.272535137832164764e-02
2.488263398408889771e-01 1.467486321926116943e-01 9.896103292703628540e-02
3.442528843879699707e-01 9.870007634162902832e-02 4.237839020788669586e-03
3.242745399475097656e-01 9.566731005907058716e-02 5.101662129163742065e-02
1.769121885299682617e-01 2.364374101161956787e-01 -6.315208226442337036e-02
1.680951714515686035e-01 1.387301981449127197e-01 7.606719434261322021e-02
3.119522631168365479e-01 1.237952709197998047e-01 -7.196089625358581543e-02
2.499738037586212158e-01 2.775017321109771729e-01 -4.807306826114654541e-02
2.318865656852722168e-01 2.934460937976837158e-01 2.524049952626228333e-02
2.081315219402313232e-01 2.906227707862854004e-01 -2.168594859540462494e-03
1.672636568546295166e-01 1.232057660818099976e-01 7.236044853925704956e-02
1.877709329128265381e-01 1.502007097005844116e-01 -9.264014661312103271e-02
2.057717889547348022e-01 4.076197743415832520e-02 -4.655961319804191589e-02
1.818922609090805054e-01 7.299982011318206787e-02 -6.764374673366546631e-02
3.538330197334289551e-01 2.017181217670440674e-01 -1.730353757739067078e-02
1.222667694091796875e-01 1.278097182512283325e-01 1.255218312144279480e-02
2.162349224090576172e-01 4.965011775493621826e-02 5.173578858375549316e-02
1.551965773105621338e-01 6.200432032346725464e-02 -2.848385274410247803e-02
3.108389377593994141e-01 2.458803206682205200e-01 6.117764115333557129e-02
1.404765546321868896e-01 8.388905972242355347e-02 -3.240991011261940002e-02
2.414709925651550293e-01 2.009582966566085815e-01 9.679323434829711914e-02
1.492950916290283203e-01 7.070676237344741821e-02 -3.208374977111816406e-02
1.697772890329360962e-01 6.386344134807586670e-02 3.988208994269371033e-02
3.180957436561584473e-01 1.676081568002700806e-01 -7.248631119728088379e-02
2.400655150413513184e-01 2.687837779521942139e-01 6.452897191047668457e-02
3.029019534587860107e-01 2.802643179893493652e-01 -6.078776903450489044e-03
3.227955698966979980e-01 2.518511116504669189e-01 -3.073881939053535461e-02
3.266853392124176025e-01 1.793818622827529907e-01 -6.455633789300918579e-02
3.219545483589172363e-01 1.221849843859672546e-01 -6.336002051830291748e-02
1.304411143064498901e-01 1.077317297458648682e-01 -3.444647789001464844e-02
1.327310502529144287e-01 1.526402086019515991e-01 4.291393980383872986e-02
3.150987029075622559e-01 9.239421039819717407e-02 -5.540553480386734009e-02
1.561239361763000488e-01 2.546800076961517334e-01 -5.328139290213584900e-03
1.482126116752624512e-01 2.435646057128906250e-01 -1.379925105720758438e-02
3.379399776458740234e-01 2.438367009162902832e-01 2.402075752615928650e-02
2.361249178647994995e-01 5.228761583566665649e-02 -6.372620165348052979e-02
3.436131775379180908e-01 1.903934925794601440e-01 -4.334309324622154236e-02
1.906127035617828369e-01 2.542683184146881104e-01 5.882955342531204224e-02
1.633658707141876221e-01 1.968458294868469238e-01 -7.400797307491302490e-02
1.494474112987518311e-01 1.094701439142227173e-01 -6.343141198158264160e-02
2.976480722427368164e-01 1.377698630094528198e-01 8.725341409444808960e-02
3.580604195594787598e-01 1.966933310031890869e-01 -1.617595786228775978e-03
1.980819404125213623e-01 2.850560545921325684e-01 -1.248645689338445663e-02
3.418127000331878662e-01 2.063284963369369507e-01 -4.002807289361953735e-02
1.293957680463790894e-01 2.006542384624481201e-01 2.133954688906669617e-02
2.726043462753295898e-01 2.823418378829956055e-01 4.533835127949714661e-02
3.167611360549926758e-01 2.546183466911315918e-01 4.781164228916168213e-02
1.684235334396362305e-01 2.468001544475555420e-01 -4.715466499328613281e-02
2.567339539527893066e-01 2.968084216117858887e-01 1.209240499883890152e-02
3.404646813869476318e-01 9.300177544355392456e-02 -8.040594868361949921e-03
3.143119812011718750e-01 7.952594757080078125e-02 -4.599299281835556030e-02
3.150942027568817139e-01 6.112939119338989258e-02 1.539990399032831192e-02
3.558424711227416992e-01 1.304091960191726685e-01 1.137464679777622223e-02
2.232910096645355225e-01 1.412392854690551758e-01 -9.919081628322601318e-02
1.721496284008026123e-01 2.557851970195770264e-01 4.052609205245971680e-02
1.937414705753326416e-01 5.264200270175933838e-02 -5.612124502658843994e-02
3.265747427940368652e-01 2.239696681499481201e-01 6.126470118761062622e-02
