-4.322923123836517334e-01 -5.108126401901245117e-01 -4.155914485454559326e-01
-3.957820534706115723e-01 -5.616565346717834473e-01 -3.659783601760864258e-01
-3.956156671047210693e-01 -4.160540699958801270e-01 -3.841167688369750977e-01
-4.080083668231964111e-01 -4.684671759605407715e-01 -3.569880723953247070e-01
-4.136770665645599365e-01 -5.122650265693664551e-01 -4.286571145057678223e-01
-4.177903532981872559e-01 -3.818787336349487305e-01 -4.274787306785583496e-01
-3.929346799850463867e-01 -4.276313483715057373e-01 -4.323325455188751221e-01
-3.783580958843231201e-01 -5.019089579582214355e-01 -3.765139579772949219e-01
-3.957818150520324707e-01 -4.937471449375152588e-01 -3.556138277053833008e-01
-3.848699927330017090e-01 -4.265848696231842041e-01 -3.985247611999511719e-01
-3.795690834522247314e-01 -4.846648573875427246e-01 -3.759607970714569092e-01
-3.981504142284393311e-01 -3.941137194633483887e-01 -4.205793738365173340e-01
-3.782602548599243164e-01 -4.582405686378479004e-01 -4.008621573448181152e-01
-4.041233360767364502e-01 -4.941461384296417236e-01 -3.529950082302093506e-01
-4.159865081310272217e-01 -5.645520091056823730e-01 -3.819137513637542725e-01
-4.001608788967132568e-01 -4.104183018207550049e-01 -3.837344646453857422e-01
-3.787631690502166748e-01 -5.281248092651367188e-01 -3.843413293361663818e-01
-3.813464343547821045e-01 -4.405689537525177002e-01 -3.977673947811126709e-01
-3.770162463188171387e-01 -5.067673325538635254e-01 -3.824595212936401367e-01
-4.067054986953735352e-01 -3.905107975006103516e-01 -4.309578537940979004e-01
-3.927539288997650146e-01 -4.169908761978149414e-01 -4.286317527294158936e-01
-4.262178540229797363e-01 -5.089664459228515625e-01 -4.237023591995239258e-01
-3.991253674030303955e-01 -4.853693842887878418e-01 -4.349096715450286865e-01
-4.119443893432617188e-01 -4.204557240009307861e-01 -4.429716467857360840e-01
-4.320848882198333740e-01 -4.858452975749969482e-01 -3.662246465682983398e-01
-4.299060106277465820e-01 -4.649382531642913818e-01 -3.663417696952819824e-01
-3.993332087993621826e-01 -5.406424403190612793e-01 -4.141365885734558105e-01
-4.364541769027709961e-01 -4.165084362030029297e-01 -4.284214377403259277e-01
-3.782192170619964600e-01 -4.725137948989868164e-01 -3.845442831516265869e-01
-4.349305331707000732e-01 -4.354898035526275635e-01 -3.799721598625183105e-01
-3.921494483947753906e-01 -5.273776650428771973e-01 -3.566840589046478271e-01
-3.940228521823883057e-01 -4.435549676418304443e-01 -4.355490803718566895e-01
-4.411758780479431152e-01 -4.208177328109741211e-01 -4.150419235229492188e-01
-4.385032951831817627e-01 -4.704886376857757568e-01 -3.772051334381103516e-01
-4.245076775550842285e-01 -4.293017089366912842e-01 -4.414310455322265625e-01
-4.067429006099700928e-01 -5.699182152748107910e-01 -3.747600317001342773e-01
-4.380193948745727539e-01 -4.053670763969421387e-01 -4.146779477596282959e-01
-4.380312263965606689e-01 -4.077052772045135498e-01 -4.192188084125518799e-01
-3.904484510421752930e-01 -4.502676427364349365e-01 -4.321240186691284180e-01
-3.981723487377166748e-01 -5.040392875671386719e-01 -3.535446524620056152e-01
-3.828096389770507812e-01 -5.239203572273254395e-01 -4.068345129489898682e-01
-4.165131151676177979e-01 -4.534793198108673096e-01 -3.615549504756927490e-01
-3.829041719436645508e-01 -4.788802564144134521e-01 -4.205057621002197266e-01
-4.246550500392913818e-01 -4.077181220054626465e-01 -4.388552606105804443e-01
-3.993647098541259766e-01 -5.636731982231140137e-01 -3.950048983097076416e-01
-4.139012098312377930e-01 -4.812880456447601318e-01 -3.550656139850616455e-01
-3.866076469421386719e-01 -4.680286943912506104e-01 -3.686573505401611328e-01
-4.083240330219268799e-01 -4.545139968395233154e-01 -3.605705499649047852e-01
-4.188046455383300781e-01 -5.362967252731323242e-01 -4.143411219120025635e-01
-4.165591299533843994e-01 -5.226081013679504395e-01 -4.232489466667175293e-01
-4.321348667144775391e-01 -4.724865555763244629e-01 -3.674409091472625732e-01
-4.120421409606933594e-01 -5.495546460151672363e-01 -3.586319088935852051e-01
-4.250016212463378906e-01 -3.816631436347961426e-01 -4.197514653205871582e-01
-4.137218892574310303e-01 -3.785982728004455566e-01 -4.190976023674011230e-01
-4.050455987453460693e-01 -4.880615174770355225e-01 -3.536465764045715332e-01
-4.001202881336212158e-01 -3.893914818763732910e-01 -4.149428009986877441e-01
-4.092437922954559326e-01 -3.838891088962554932e-01 -4.265452623367309570e-01
-4.289530217647552490e-01 -5.426300168037414551e-01 -3.900902271270751953e-01
-3.768699467182159424e-01 -4.885773062705993652e-01 -4.024749696254730225e-01
-4.069554805755615234e-01 -4.935520291328430176e-01 -4.351383447647094727e-01
-3.844162821769714355e-01 -5.304199457168579102e-01 -4.061193168163299561e-01
-4.341473877429962158e-01 -5.266063809394836426e-01 -3.815965056419372559e-01
-3.915773928165435791e-01 -4.564042091369628906e-01 -3.673418760299682617e-01
-4.124557375907897949e-01 -4.643034040927886963e-01 -3.580850064754486084e-01
-3.892734348773956299e-01 -5.600762367248535156e-01 -3.841204941272735596e-01
-4.361091256141662598e-01 -4.032594561576843262e-01 -4.030150175094604492e-01
-4.441826641559600830e-01 -4.570352733135223389e-01 -4.016433358192443848e-01
-3.971622884273529053e-01 -3.994894623756408691e-01 -3.978000283241271973e-01
-4.176019728183746338e-01 -4.770533740520477295e-01 -3.567409515380859375e-01
-4.396673738956451416e-01 -5.003208518028259277e-01 -3.845143318176269531e-01
-3.805336654186248779e-01 -5.087437629699707031e-01 -4.089775383472442627e-01
-3.761954903602600098e-01 -4.891691207885742188e-01 -3.968327045440673828e-01
-3.975037932395935059e-01 -5.200165510177612305e-01 -3.534098565578460693e-01
-4.271170198917388916e-01 -4.535024166107177734e-01 -3.665609955787658691e-01
-3.977326452732086182e-01 -5.164301395416259766e-01 -4.250594079494476318e-01
-4.408926665782928467e-01 -4.515092670917510986e-01 -4.215146005153656006e-01
-3.817932009696960449e-01 -4.428674876689910889e-01 -3.918226659297943115e-01
-4.339139163494110107e-01 -4.081180095672607422e-01 -4.300802946090698242e-01
-4.419410526752471924e-01 -4.525463581085205078e-01 -3.886389732360839844e-01
-3.842245340347290039e-01 -5.454537868499755859e-01 -3.931489288806915283e-01
-4.069475531578063965e-01 -5.251682400703430176e-01 -4.237090349197387695e-01
-3.890541195869445801e-01 -5.542050004005432129e-01 -3.945008516311645508e-01
-3.952404856681823730e-01 -4.877030253410339355e-01 -3.567843437194824219e-01
-4.159147441387176514e-01 -4.967779219150543213e-01 -4.336775839328765869e-01
-3.777758479118347168e-01 -4.690759181976318359e-01 -3.887680768966674805e-01
-4.258529543876647949e-01 -5.243436098098754883e-01 -3.621785342693328857e-01
-4.340204298496246338e-01 -4.588532149791717529e-01 -4.318890571594238281e-01
-4.110075235366821289e-01 -3.941834568977355957e-01 -3.905945718288421631e-01
-3.820499479770660400e-01 -4.852728247642517090e-01 -3.706128597259521484e-01
-4.432246685028076172e-01 -4.773882627487182617e-01 -3.949834704399108887e-01
-4.187022745609283447e-01 -5.264222025871276855e-01 -3.562568426132202148e-01
-4.209462404251098633e-01 -5.422551035881042480e-01 -4.081843197345733643e-01
-4.370602071285247803e-01 -4.197767376899719238e-01 -3.910125792026519775e-01
-3.913075923919677734e-01 -4.774763286113739014e-01 -4.312157034873962402e-01
-4.106886386871337891e-01 -4.329403638839721680e-01 -4.436100721359252930e-01
-4.055257439613342285e-01 -5.560857653617858887e-01 -4.043256342411041260e-01
-4.299586415290832520e-01 -5.387653112411499023e-01 -3.786617517471313477e-01
-3.764505982398986816e-01 -4.997171461582183838e-01 -3.968825340270996094e-01
-3.796295821666717529e-01 -5.195419788360595703e-01 -3.739319145679473877e-01
-4.393805265426635742e-01 -4.268826842308044434e-01 -3.920596837997436523e-01
-4.288448691368103027e-01 -4.123526811599731445e-01 -3.841266334056854248e-01
-4.270716011524200439e-01 -4.710777401924133301e-01 -3.628726005554199219e-01
-3.793847560882568359e-01 -4.939445555210113525e-01 -3.744873404502868652e-01
-4.232629239559173584e-01 -5.303020477294921875e-01 -3.608263134956359863e-01
-4.157618582248687744e-01 -4.183249175548553467e-01 -3.746960759162902832e-01
-3.768936097621917725e-01 -5.047256350517272949e-01 -3.978581130504608154e-01
-3.976041078567504883e-01 -4.189343154430389404e-01 -3.801501393318176270e-01
-4.376890957355499268e-01 -4.825530052185058594e-01 -4.201139807701110840e-01
-4.323349595069885254e-01 -5.339196920394897461e-01 -3.840882480144500732e-01
-4.410729408264160156e-01 -4.363671839237213135e-01 -3.918048143386840820e-01
-4.229229986667633057e-01 -5.062798857688903809e-01 -4.273083209991455078e-01
-3.853457570075988770e-01 -5.005544424057006836e-01 -3.633016645908355713e-01
-4.202764332294464111e-01 -5.540919899940490723e-01 -3.965988457202911377e-01
-3.885256052017211914e-01 -4.281256794929504395e-01 -4.254866540431976318e-01
-4.366001188755035400e-01 -4.416928887367248535e-01 -3.801936507225036621e-01
-3.865135610103607178e-01 -5.371620059013366699e-01 -3.640234172344207764e-01
-4.276717603206634521e-01 -5.127356648445129395e-01 -4.204895198345184326e-01
-3.899296522140502930e-01 -4.320085346698760986e-01 -4.291471540927886963e-01
-4.400267899036407471e-01 -4.447309076786041260e-01 -4.241530001163482666e-01
-3.888739347457885742e-01 -5.069885253906250000e-01 -3.590369522571563721e-01
-3.905584514141082764e-01 -4.412952661514282227e-01 -4.316223263740539551e-01
-4.272798001766204834e-01 -5.470089912414550781e-01 -3.859228193759918213e-01
-4.355949461460113525e-01 -4.839904308319091797e-01 -3.712496459484100342e-01
-4.031438529491424561e-01 -4.141110181808471680e-01 -3.792761564254760742e-01
-3.815340399742126465e-01 -5.397256612777709961e-01 -3.782732784748077393e-01
-4.420056641101837158e-01 -4.303956329822540283e-01 -4.165376424789428711e-01
-4.268737733364105225e-01 -3.838110566139221191e-01 -4.108901023864746094e-01
-4.080092608928680420e-01 -4.137348532676696777e-01 -3.775822520256042480e-01
-4.241979718208312988e-01 -3.807759284973144531e-01 -4.146269857883453369e-01
-3.970150351524353027e-01 -3.941857814788818359e-01 -4.110381603240966797e-01
-4.003745615482330322e-01 -5.272839665412902832e-01 -3.529125154018402100e-01
-3.826847076416015625e-01 -4.632794559001922607e-01 -4.207048714160919189e-01
-4.126712977886199951e-01 -5.669610500335693359e-01 -3.757092058658599854e-01
-4.203148782253265381e-01 -4.111132323741912842e-01 -3.795947134494781494e-01
-3.810521960258483887e-01 -4.493332803249359131e-01 -3.888107836246490479e-01
-3.818264007568359375e-01 -4.575956463813781738e-01 -4.182317256927490234e-01
-3.839546740055084229e-01 -4.467620253562927246e-01 -3.823022544384002686e-01
-4.177334904670715332e-01 -5.459315776824951172e-01 -3.609569370746612549e-01
-4.301238059997558594e-01 -4.758148789405822754e-01 -4.321244359016418457e-01
-3.792491555213928223e-01 -4.511018991470336914e-01 -3.996379673480987549e-01
-4.233757853507995605e-01 -5.545350909233093262e-01 -3.842419385910034180e-01
-3.863570392131805420e-01 -4.336891174316406250e-01 -4.229332804679870605e-01
-3.917926549911499023e-01 -4.892594814300537109e-01 -4.294491410255432129e-01
-3.812243342399597168e-01 -5.243701338768005371e-01 -3.706319928169250488e-01
-4.381523132324218750e-01 -4.797210097312927246e-01 -3.760058283805847168e-01
-4.092383384704589844e-01 -4.480682015419006348e-01 -3.624926209449768066e-01
-4.092788100242614746e-01 -5.350139141082763672e-01 -3.536945581436157227e-01
-4.346978068351745605e-01 -5.268494486808776855e-01 -3.888692259788513184e-01
-4.350859224796295166e-01 -4.761500954627990723e-01 -3.708576560020446777e-01
-4.378964304924011230e-01 -4.609079062938690186e-01 -3.773813545703887939e-01
-4.392220973968505859e-01 -4.671888947486877441e-01 -4.221588075160980225e-01
-4.102208018302917480e-01 -5.209190249443054199e-01 -4.255411028861999512e-01
-4.364880919456481934e-01 -5.163921117782592773e-01 -4.004901945590972900e-01
-3.959946632385253906e-01 -4.032944440841674805e-01 -4.262191355228424072e-01
-4.411458969116210938e-01 -4.675523638725280762e-01 -4.174657762050628662e-01
-4.032508730888366699e-01 -5.554064512252807617e-01 -3.591942787170410156e-01
-4.309371113777160645e-01 -5.206487178802490234e-01 -4.114043712615966797e-01
-4.228759109973907471e-01 -4.209561347961425781e-01 -4.416772127151489258e-01
-4.158305823802947998e-01 -4.906305074691772461e-01 -3.544113337993621826e-01
-3.992101848125457764e-01 -3.941423892974853516e-01 -4.016072154045104980e-01
-4.040647149085998535e-01 -4.178077280521392822e-01 -4.400219321250915527e-01
-4.042812883853912354e-01 -5.081668496131896973e-01 -4.302038252353668213e-01
-3.986386954784393311e-01 -4.091604053974151611e-01 -4.333761632442474365e-01
-3.791198134422302246e-01 -5.256932973861694336e-01 -3.947471976280212402e-01
-3.810003101825714111e-01 -4.516944885253906250e-01 -4.143343865871429443e-01
-4.435200691223144531e-01 -4.725368916988372803e-01 -4.041375815868377686e-01
-4.029511213302612305e-01 -5.648012757301330566e-01 -3.655219078063964844e-01
-3.990171551704406738e-01 -4.982354640960693359e-01 -3.537486195564270020e-01
-4.329647719860076904e-01 -5.238960981369018555e-01 -3.745259642601013184e-01
-4.281514585018157959e-01 -4.421775937080383301e-01 -3.706025481224060059e-01
-3.966537117958068848e-01 -4.371095597743988037e-01 -3.711239099502563477e-01
-4.321481883525848389e-01 -4.602144360542297363e-01 -3.695213794708251953e-01
-4.361821711063385010e-01 -5.076836347579956055e-01 -3.755519092082977295e-01
-4.201706349849700928e-01 -4.041566848754882812e-01 -3.837404251098632812e-01
-4.181498885154724121e-01 -4.569451212882995605e-01 -4.419771432876586914e-01
-4.252933561801910400e-01 -4.005862176418304443e-01 -4.364377856254577637e-01
-4.047643542289733887e-01 -4.327989518642425537e-01 -4.420107603073120117e-01
-4.334004223346710205e-01 -4.842236042022705078e-01 -4.261312782764434814e-01
-4.320189356803894043e-01 -4.484233558177947998e-01 -3.722482323646545410e-01
-4.248087406158447266e-01 -5.272570252418518066e-01 -4.151211977005004883e-01
-3.878441452980041504e-01 -4.873602688312530518e-01 -3.624341189861297607e-01
-4.355313479900360107e-01 -4.282086789608001709e-01 -3.838891386985778809e-01
-4.329520463943481445e-01 -5.021614432334899902e-01 -3.679229319095611572e-01
-4.398944675922393799e-01 -4.858850240707397461e-01 -4.134907126426696777e-01
-4.172499179840087891e-01 -3.901424407958984375e-01 -4.345793724060058594e-01
-3.952473402023315430e-01 -3.994216322898864746e-01 -4.198393821716308594e-01
-3.761808574199676514e-01 -4.845531582832336426e-01 -3.939125239849090576e-01
-3.891589045524597168e-01 -5.564548969268798828e-01 -3.705137968063354492e-01
-4.291480183601379395e-01 -5.027450919151306152e-01 -3.629004657268524170e-01
-4.350611865520477295e-01 -5.239523649215698242e-01 -3.959492743015289307e-01
-4.262349605560302734e-01 -4.331294596195220947e-01 -3.723900914192199707e-01
-3.845234513282775879e-01 -5.110521912574768066e-01 -4.153786003589630127e-01
-4.360956549644470215e-01 -5.132639408111572266e-01 -4.054905176162719727e-01
-4.153277277946472168e-01 -4.058736264705657959e-01 -3.816182017326354980e-01
-3.882984220981597900e-01 -4.626957476139068604e-01 -4.295390546321868896e-01
-4.247985482215881348e-01 -4.451275765895843506e-01 -4.408511817455291748e-01
-3.836457133293151855e-01 -4.791145920753479004e-01 -3.694995045661926270e-01
-3.807090520858764648e-01 -4.428132176399230957e-01 -4.048528373241424561e-01
-4.375203847885131836e-01 -5.160396099090576172e-01 -3.910671770572662354e-01
-4.053402841091156006e-01 -5.651147365570068359e-01 -3.944725692272186279e-01
-4.030849635601043701e-01 -5.436917543411254883e-01 -3.550929725170135498e-01
-4.026899039745330811e-01 -5.024085640907287598e-01 -4.317218661308288574e-01
-4.361262619495391846e-01 -5.020147562026977539e-01 -3.738263249397277832e-01
-3.808514177799224854e-01 -5.353178381919860840e-01 -3.925588130950927734e-01
-4.314768910408020020e-01 -4.327239096164703369e-01 -4.366964697837829590e-01
-4.094752073287963867e-01 -4.310857951641082764e-01 -3.687703609466552734e-01
-4.310242235660552979e-01 -4.126160144805908203e-01 -4.350780844688415527e-01
-3.803896009922027588e-01 -5.143787860870361328e-01 -4.062756896018981934e-01
-3.948022127151489258e-01 -4.737179875373840332e-01 -3.598459362983703613e-01
-4.284742474555969238e-01 -5.359103679656982422e-01 -4.028234481811523438e-01
-4.218692183494567871e-01 -4.178625047206878662e-01 -3.766444921493530273e-01
-4.406954050064086914e-01 -4.657538235187530518e-01 -3.826957941055297852e-01
-3.885836005210876465e-01 -5.466467738151550293e-01 -4.012936651706695557e-01
-3.774258494377136230e-01 -5.152460336685180664e-01 -3.826361596584320068e-01
-4.146223664283752441e-01 -5.597584247589111328e-01 -3.965287804603576660e-01
-3.870066404342651367e-01 -5.551394820213317871e-01 -3.871717154979705811e-01
-4.016713201999664307e-01 -5.691365599632263184e-01 -3.717298805713653564e-01
-3.820227086544036865e-01 -5.197492241859436035e-01 -3.681314289569854736e-01
-3.921920657157897949e-01 -5.355923175811767578e-01 -4.127146601676940918e-01
-4.003042578697204590e-01 -4.599143862724304199e-01 -4.393890500068664551e-01
-3.816581070423126221e-01 -5.134317874908447266e-01 -3.683823049068450928e-01
-3.861969709396362305e-01 -4.229846596717834473e-01 -4.153965413570404053e-01
-4.439580440521240234e-01 -4.496006965637207031e-01 -4.002119600772857666e-01
-4.306665658950805664e-01 -4.405993223190307617e-01 -4.372467100620269775e-01
-3.839980959892272949e-01 -4.295704960823059082e-01 -4.116937816143035889e-01
-4.165650606155395508e-01 -5.535125136375427246e-01 -3.639557361602783203e-01
-4.263534247875213623e-01 -4.636614322662353516e-01 -4.376097619533538818e-01
-4.407627284526824951e-01 -4.785640835762023926e-01 -3.825257718563079834e-01
-3.831633329391479492e-01 -4.412894845008850098e-01 -4.174167811870574951e-01
-4.005966186523437500e-01 -4.679769277572631836e-01 -3.585290908813476562e-01
-4.317157864570617676e-01 -5.353630781173706055e-01 -3.918245434761047363e-01
-4.156836569309234619e-01 -4.290477335453033447e-01 -3.697900474071502686e-01
-4.233426749706268311e-01 -4.927283227443695068e-01 -4.320261478424072266e-01
-3.812144696712493896e-01 -4.744389057159423828e-01 -3.752426505088806152e-01
-4.149685502052307129e-01 -5.558750033378601074e-01 -4.009042084217071533e-01
-3.882390558719635010e-01 -4.189612269401550293e-01 -3.952568769454956055e-01
-3.777558803558349609e-01 -4.627803564071655273e-01 -3.961078226566314697e-01
-3.993428349494934082e-01 -5.475004315376281738e-01 -4.097439348697662354e-01
-4.085145294666290283e-01 -5.397705435752868652e-01 -4.159684181213378906e-01
-3.998151421546936035e-01 -5.702260732650756836e-01 -3.781933784484863281e-01
-4.366829097270965576e-01 -4.419732391834259033e-01 -4.303640723228454590e-01
-4.150849282741546631e-01 -5.427309274673461914e-01 -3.578059375286102295e-01
-3.771372735500335693e-01 -4.732781052589416504e-01 -4.027537703514099121e-01
-3.786374926567077637e-01 -5.148408412933349609e-01 -4.007672965526580811e-01
-4.309033155441284180e-01 -4.503673613071441650e-01 -4.362375736236572266e-01
-4.216244518756866455e-01 -5.449936389923095703e-01 -3.647094964981079102e-01
-3.784538507461547852e-01 -5.082834362983703613e-01 -3.761970102787017822e-01
-4.021494090557098389e-01 -4.060125946998596191e-01 -4.355485439300537109e-01
-4.379625618457794189e-01 -5.008822083473205566e-01 -4.099121689796447754e-01
-3.850002884864807129e-01 -4.919284880161285400e-01 -4.215801954269409180e-01
-4.161028265953063965e-01 -4.653682410717010498e-01 -4.411382675170898438e-01
-4.028286039829254150e-01 -5.352296829223632812e-01 -3.534176647663116455e-01
-3.916277289390563965e-01 -4.357760846614837646e-01 -4.322322905063629150e-01
-4.291618466377258301e-01 -3.943306505680084229e-01 -3.981655240058898926e-01
-4.236661195755004883e-01 -4.681964516639709473e-01 -4.382335841655731201e-01
-3.859677910804748535e-01 -5.200545787811279297e-01 -3.620245754718780518e-01
-3.943773508071899414e-01 -5.225411653518676758e-01 -4.207105040550231934e-01
-4.214345216751098633e-01 -5.547770857810974121e-01 -3.729182779788970947e-01
-4.094909727573394775e-01 -4.659458398818969727e-01 -4.412495493888854980e-01
-3.907972872257232666e-01 -4.069850444793701172e-01 -4.115446507930755615e-01
-4.124403893947601318e-01 -4.743983149528503418e-01 -3.559684455394744873e-01
-4.428353607654571533e-01 -4.719739556312561035e-01 -4.095334708690643311e-01
-4.023960828781127930e-01 -4.818305075168609619e-01 -4.369378089904785156e-01
-3.964678347110748291e-01 -5.356496572494506836e-01 -3.552258610725402832e-01
-3.929071724414825439e-01 -5.034902095794677734e-01 -4.266122877597808838e-01
-4.303479492664337158e-01 -5.106579065322875977e-01 -3.652358353137969971e-01
-3.900759518146514893e-01 -4.261787831783294678e-01 -3.844227194786071777e-01
-4.420340061187744141e-01 -4.244771599769592285e-01 -4.067842066287994385e-01
-3.916729986667633057e-01 -4.288091361522674561e-01 -3.803213536739349365e-01
-4.422629475593566895e-01 -4.830922782421112061e-01 -3.897812664508819580e-01
-3.862113654613494873e-01 -4.982880651950836182e-01 -4.216283261775970459e-01
-4.188434779644012451e-01 -4.806027710437774658e-01 -4.374077320098876953e-01
-4.396629035472869873e-01 -4.417774081230163574e-01 -3.858977556228637695e-01
-4.166387617588043213e-01 -3.876149058341979980e-01 -3.964699208736419678e-01
-4.075860977172851562e-01 -3.814194798469543457e-01 -4.152323007583618164e-01
-3.804320096969604492e-01 -5.320435166358947754e-01 -3.762024044990539551e-01
-4.283757507801055908e-01 -5.347129106521606445e-01 -3.700441122055053711e-01
-4.070280194282531738e-01 -4.991015195846557617e-01 -4.335449635982513428e-01
-4.096187055110931396e-01 -4.056465327739715576e-01 -4.396719336509704590e-01
-4.431818425655364990e-01 -4.388884902000427246e-01 -3.997911214828491211e-01
-4.075607657432556152e-01 -5.207209587097167969e-01 -3.519312143325805664e-01
-4.389708042144775391e-01 -4.279018938541412354e-01 -4.257174432277679443e-01
-3.947408795356750488e-01 -5.403129458427429199e-01 -4.119050204753875732e-01
-4.375862777233123779e-01 -4.877442717552185059e-01 -3.750336468219757080e-01
-4.362640678882598877e-01 -5.181351304054260254e-01 -3.823140263557434082e-01
-4.385603368282318115e-01 -4.943800568580627441e-01 -3.782672882080078125e-01
-4.302599132061004639e-01 -5.263663530349731445e-01 -3.694856762886047363e-01
-4.240828752517700195e-01 -4.555864334106445312e-01 -4.401066303253173828e-01
-3.971495628356933594e-01 -4.597710967063903809e-01 -3.623009026050567627e-01
-4.050752818584442139e-01 -4.352923333644866943e-01 -3.678470849990844727e-01
-4.019000232219696045e-01 -5.349837541580200195e-01 -4.181359112262725830e-01
-4.039802253246307373e-01 -4.000109434127807617e-01 -3.889741301536560059e-01
-3.945643603801727295e-01 -4.958540499210357666e-01 -4.299045801162719727e-01
-4.398829936981201172e-01 -5.045337677001953125e-01 -3.944895863533020020e-01
-4.137980937957763672e-01 -4.803653359413146973e-01 -4.385015368461608887e-01
-4.201768934726715088e-01 -5.137452483177185059e-01 -3.558327257633209229e-01
-3.941581547260284424e-01 -5.422911047935485840e-01 -3.578260838985443115e-01
-4.071139395236968994e-01 -4.396230280399322510e-01 -4.429383873939514160e-01
-3.791568279266357422e-01 -4.852418899536132812e-01 -4.115667045116424561e-01
-4.102345407009124756e-01 -3.858593702316284180e-01 -3.998626768589019775e-01
-4.312542974948883057e-01 -4.192125499248504639e-01 -3.827788531780242920e-01
-4.328379034996032715e-01 -4.552440047264099121e-01 -3.713839054107666016e-01
-4.144335091114044189e-01 -5.336905121803283691e-01 -4.181858301162719727e-01
-3.844855725765228271e-01 -4.930641651153564453e-01 -3.653801679611206055e-01
-4.440847039222717285e-01 -4.637564122676849365e-01 -4.008605778217315674e-01
-4.438962340354919434e-01 -4.687383472919464111e-01 -3.997308611869812012e-01
-3.874040544033050537e-01 -4.863525927066802979e-01 -4.257501661777496338e-01
-4.358096718788146973e-01 -4.929562211036682129e-01 -4.191205501556396484e-01
-3.849835991859436035e-01 -5.456144213676452637e-01 -3.707164824008941650e-01
-4.017361104488372803e-01 -4.525074660778045654e-01 -4.406082630157470703e-01
-3.912856578826904297e-01 -4.900750517845153809e-01 -3.589398860931396484e-01
-4.373901784420013428e-01 -4.522796273231506348e-01 -4.283541440963745117e-01
-4.066157341003417969e-01 -4.250171482563018799e-01 -4.421448409557342529e-01
-4.116171300411224365e-01 -3.805995285511016846e-01 -4.083173274993896484e-01
-4.149679243564605713e-01 -4.074964821338653564e-01 -4.410871565341949463e-01
-3.959853649139404297e-01 -5.677859783172607422e-01 -3.830116689205169678e-01
-4.115717709064483643e-01 -5.429668426513671875e-01 -4.133679866790771484e-01
-4.214330315589904785e-01 -3.931462168693542480e-01 -3.925278186798095703e-01
-4.425024986267089844e-01 -4.670483171939849854e-01 -3.884621858596801758e-01
-4.074702858924865723e-01 -3.841479718685150146e-01 -4.050854444503784180e-01
-4.390305280685424805e-01 -4.722397327423095703e-01 -4.210856854915618896e-01
-3.911236822605133057e-01 -4.828769862651824951e-01 -4.301554560661315918e-01
-4.400400221347808838e-01 -4.546071887016296387e-01 -3.829872608184814453e-01
-4.031416177749633789e-01 -3.928096592426300049e-01 -3.971034288406372070e-01
-4.010125994682312012e-01 -3.965603411197662354e-01 -4.292563498020172119e-01
-4.418596625328063965e-01 -4.597341418266296387e-01 -4.174222052097320557e-01
-3.874172568321228027e-01 -5.489255189895629883e-01 -3.676795959472656250e-01
-3.904154896736145020e-01 -4.722268283367156982e-01 -3.634396195411682129e-01
-3.782317638397216797e-01 -5.050334930419921875e-01 -4.039346873760223389e-01
-4.276284277439117432e-01 -5.452879071235656738e-01 -3.794439733028411865e-01
-4.337373375892639160e-01 -4.210546612739562988e-01 -4.334809780120849609e-01
-3.879961967468261719e-01 -4.696249067783355713e-01 -4.287419617176055908e-01
-4.053918123245239258e-01 -4.043345451354980469e-01 -3.846657872200012207e-01
-3.904540240764617920e-01 -4.124062955379486084e-01 -3.969472050666809082e-01
-3.886132538318634033e-01 -4.535962045192718506e-01 -3.714827597141265869e-01
-4.439809322357177734e-01 -4.493318200111389160e-01 -4.078206121921539307e-01
-3.799468278884887695e-01 -4.751759171485900879e-01 -4.144553840160369873e-01
-4.331706762313842773e-01 -5.076309442520141602e-01 -3.691161870956420898e-01
-4.216538965702056885e-01 -3.869289755821228027e-01 -3.989553451538085938e-01
-3.909993469715118408e-01 -5.120544433593750000e-01 -4.222920238971710205e-01
-4.329806864261627197e-01 -5.132992863655090332e-01 -3.700937926769256592e-01
-4.177898764610290527e-01 -3.797450065612792969e-01 -4.085772335529327393e-01
-3.956270813941955566e-01 -4.285872876644134521e-01 -3.761999011039733887e-01
-3.977612853050231934e-01 -5.548751950263977051e-01 -3.603205978870391846e-01
-4.354991316795349121e-01 -4.126563966274261475e-01 -3.926911056041717529e-01
-3.878550231456756592e-01 -5.297440290451049805e-01 -4.114905595779418945e-01
-4.148501455783843994e-01 -5.138752460479736328e-01 -3.532413542270660400e-01
-3.833041489124298096e-01 -4.133571982383728027e-01 4.089182913303375244e-01
-4.378360211849212646e-01 -3.661526143550872803e-01 4.257223010063171387e-01
-4.416955709457397461e-01 -3.823936283588409424e-01 4.239089787006378174e-01
-4.111534059047698975e-01 -4.125822186470031738e-01 3.973209857940673828e-01
-4.200308918952941895e-01 -4.035706222057342529e-01 4.621232151985168457e-01
-4.175000190734863281e-01 -3.311413228511810303e-01 4.421077668666839600e-01
-4.400317668914794922e-01 -3.890881240367889404e-01 4.529540240764617920e-01
-4.430296719074249268e-01 -4.313217997550964355e-01 4.217761456966400146e-01
-4.083497822284698486e-01 -3.625829517841339111e-01 4.594303369522094727e-01
-3.787797987461090088e-01 -3.589718937873840332e-01 4.060271084308624268e-01
-4.181490838527679443e-01 -4.216623306274414062e-01 4.001505970954895020e-01
-4.051003754138946533e-01 -4.493406713008880615e-01 4.120119810104370117e-01
-4.399400353431701660e-01 -3.670921623706817627e-01 4.369537234306335449e-01
-4.354927539825439453e-01 -4.569546282291412354e-01 4.281732439994812012e-01
-3.827609419822692871e-01 -4.160378575325012207e-01 4.325595498085021973e-01
-4.339656531810760498e-01 -3.526635468006134033e-01 4.384592175483703613e-01
-4.284850060939788818e-01 -3.466382026672363281e-01 4.451614618301391602e-01
-3.770749270915985107e-01 -3.532140552997589111e-01 4.363302588462829590e-01
-4.391028881072998047e-01 -4.447263181209564209e-01 4.212022423744201660e-01
-4.303948283195495605e-01 -4.245597720146179199e-01 4.580288231372833252e-01
-4.316189885139465332e-01 -4.577336311340332031e-01 4.404243230819702148e-01
-3.730950653553009033e-01 -3.805292546749114990e-01 4.206685125827789307e-01
-4.313193857669830322e-01 -4.181797206401824951e-01 4.589323103427886963e-01
-4.226754307746887207e-01 -3.905082643032073975e-01 4.009990692138671875e-01
-3.902354836463928223e-01 -4.369788765907287598e-01 4.248464703559875488e-01
-4.436675906181335449e-01 -4.247546792030334473e-01 4.213613271713256836e-01
-4.264035522937774658e-01 -3.405472934246063232e-01 4.270838797092437744e-01
-4.047158062458038330e-01 -3.944289684295654297e-01 4.598796069622039795e-01
-3.877043128013610840e-01 -4.297397434711456299e-01 4.149083197116851807e-01
-4.172351658344268799e-01 -3.365561962127685547e-01 4.480400979518890381e-01
-4.430989921092987061e-01 -3.950670659542083740e-01 4.218957126140594482e-01
-3.832418024539947510e-01 -4.223707914352416992e-01 4.204976856708526611e-01
-4.040885567665100098e-01 -3.229916095733642578e-01 4.191182553768157959e-01
-4.155671298503875732e-01 -4.082619845867156982e-01 4.612829089164733887e-01
-4.442234635353088379e-01 -3.823582231998443604e-01 4.360391497611999512e-01
-4.354070425033569336e-01 -4.181655645370483398e-01 4.098218977451324463e-01
-4.243373870849609375e-01 -4.219765067100524902e-01 4.025924801826477051e-01
-4.161358773708343506e-01 -3.856413364410400391e-01 3.983420431613922119e-01
-4.373978376388549805e-01 -4.041705429553985596e-01 4.570038616657257080e-01
-4.031872153282165527e-01 -4.024292528629302979e-01 4.583596289157867432e-01
-4.457714557647705078e-01 -4.292210936546325684e-01 4.277592599391937256e-01
-4.247641563415527344e-01 -4.541125297546386719e-01 4.459621310234069824e-01
-3.976003527641296387e-01 -3.507305681705474854e-01 4.541844427585601807e-01
-4.155758321285247803e-01 -3.394908010959625244e-01 4.124203920364379883e-01
-3.941270709037780762e-01 -4.340847730636596680e-01 4.397036731243133545e-01
-3.770652711391448975e-01 -3.670555055141448975e-01 4.381230175495147705e-01
-4.375900328159332275e-01 -3.924268186092376709e-01 4.135387539863586426e-01
-4.176311790943145752e-01 -3.486542701721191406e-01 4.549057185649871826e-01
-3.739208877086639404e-01 -3.782090544700622559e-01 4.137600958347320557e-01
-4.389741718769073486e-01 -4.267553687095642090e-01 4.534054696559906006e-01
-3.939943015575408936e-01 -4.080787897109985352e-01 4.515343904495239258e-01
-3.879801630973815918e-01 -3.517925739288330078e-01 4.018137753009796143e-01
-3.901771903038024902e-01 -3.338064551353454590e-01 4.085721671581268311e-01
-4.207263886928558350e-01 -4.088505506515502930e-01 3.996953964233398438e-01
-4.384755194187164307e-01 -3.790091276168823242e-01 4.188817441463470459e-01
-4.450742900371551514e-01 -4.351586997509002686e-01 4.414291977882385254e-01
-4.041877985000610352e-01 -3.598163127899169922e-01 4.581669270992279053e-01
-4.446630179882049561e-01 -4.396812319755554199e-01 4.376343488693237305e-01
-3.966990113258361816e-01 -4.415093958377838135e-01 4.121860265731811523e-01
-4.319505989551544189e-01 -4.484946727752685547e-01 4.485021531581878662e-01
-4.384702742099761963e-01 -4.118307530879974365e-01 4.559983015060424805e-01
-3.869325816631317139e-01 -3.712900280952453613e-01 4.501849114894866943e-01
-4.017458260059356689e-01 -3.938557207584381104e-01 3.953596353530883789e-01
-3.972577154636383057e-01 -4.465738832950592041e-01 4.188085794448852539e-01
-4.463983178138732910e-01 -3.946591913700103760e-01 4.343715012073516846e-01
-3.755464553833007812e-01 -3.891808688640594482e-01 4.125361442565917969e-01
-4.382590949535369873e-01 -3.951534032821655273e-01 4.558071792125701904e-01
-4.328530430793762207e-01 -4.443067908287048340e-01 4.505174160003662109e-01
-3.902102112770080566e-01 -4.142274856567382812e-01 4.019118547439575195e-01
-4.403248429298400879e-01 -3.937554955482482910e-01 4.171562790870666504e-01
-4.434970617294311523e-01 -3.848799169063568115e-01 4.276419878005981445e-01
-3.948882520198822021e-01 -3.913632929325103760e-01 4.551846683025360107e-01
-4.389650523662567139e-01 -3.667336702346801758e-01 4.428351521492004395e-01
-4.347163438796997070e-01 -4.240886867046356201e-01 4.565757513046264648e-01
-4.290287792682647705e-01 -4.544041156768798828e-01 4.169496595859527588e-01
-4.438622295856475830e-01 -4.384920299053192139e-01 4.271768927574157715e-01
-3.797725141048431396e-01 -3.979397714138031006e-01 4.371688961982727051e-01
-3.809081017971038818e-01 -4.158537685871124268e-01 4.247675240039825439e-01
-4.248678684234619141e-01 -4.204776585102081299e-01 4.597498774528503418e-01
-4.349610507488250732e-01 -4.577721953392028809e-01 4.355927109718322754e-01
-3.911542296409606934e-01 -3.367164731025695801e-01 4.462755024433135986e-01
-3.806552290916442871e-01 -3.773838877677917480e-01 4.027442336082458496e-01
-4.169950783252716064e-01 -4.586295783519744873e-01 4.396274387836456299e-01
-3.756377100944519043e-01 -3.610998392105102539e-01 4.098960757255554199e-01
-4.470927715301513672e-01 -4.053062200546264648e-01 4.419046938419342041e-01
-4.434901177883148193e-01 -3.887312710285186768e-01 4.470649361610412598e-01
-4.313600063323974609e-01 -3.721503317356109619e-01 4.116314351558685303e-01
-3.944171369075775146e-01 -3.816259503364562988e-01 3.960896432399749756e-01
-4.119350314140319824e-01 -3.415631949901580811e-01 4.086180031299591064e-01
-4.385009706020355225e-01 -4.537058770656585693e-01 4.305744767189025879e-01
-4.400200247764587402e-01 -4.275766015052795410e-01 4.161533415317535400e-01
-4.064188301563262939e-01 -4.295707643032073975e-01 4.530707001686096191e-01
-3.983205556869506836e-01 -3.409724235534667969e-01 4.043653011322021484e-01
-4.441143572330474854e-01 -4.150916039943695068e-01 4.212667346000671387e-01
-4.065932929515838623e-01 -4.380027055740356445e-01 4.493946433067321777e-01
-3.811398148536682129e-01 -3.868566155433654785e-01 4.426298737525939941e-01
-3.880466520786285400e-01 -4.269508421421051025e-01 4.351072311401367188e-01
-4.450535476207733154e-01 -3.915514945983886719e-01 4.439540505409240723e-01
-4.041380882263183594e-01 -3.271975815296173096e-01 4.144293963909149170e-01
-4.431469738483428955e-01 -3.929163515567779541e-01 4.492695629596710205e-01
-4.220090806484222412e-01 -4.156516492366790771e-01 4.007572829723358154e-01
-4.093931615352630615e-01 -3.216464817523956299e-01 4.302361309528350830e-01
-3.895367980003356934e-01 -3.829293549060821533e-01 3.974328637123107910e-01
-3.852101266384124756e-01 -3.315562009811401367e-01 4.125189781188964844e-01
-4.149771332740783691e-01 -3.705372214317321777e-01 4.610996246337890625e-01
-3.787987828254699707e-01 -3.882004916667938232e-01 4.059171378612518311e-01
-3.986206650733947754e-01 -3.345752358436584473e-01 4.076041579246520996e-01
-4.365306496620178223e-01 -3.614226877689361572e-01 4.269213378429412842e-01
-4.013684391975402832e-01 -4.457163512706756592e-01 4.114240705966949463e-01
-4.239544868469238281e-01 -4.635714888572692871e-01 4.308900535106658936e-01
-3.784953057765960693e-01 -3.456236124038696289e-01 4.363735318183898926e-01
-3.753402531147003174e-01 -3.941824436187744141e-01 4.256523251533508301e-01
-4.234118461608886719e-01 -3.348371386528015137e-01 4.357371926307678223e-01
-3.948274850845336914e-01 -4.375880062580108643e-01 4.106965363025665283e-01
-4.372734129428863525e-01 -3.828871548175811768e-01 4.545032978057861328e-01
-4.391305744647979736e-01 -4.322046339511871338e-01 4.517482817173004150e-01
-4.464136660099029541e-01 -4.298085570335388184e-01 4.403243064880371094e-01
-3.818100988864898682e-01 -3.436188995838165283e-01 4.405460953712463379e-01
-3.878692984580993652e-01 -4.224074780941009521e-01 4.384689629077911377e-01
-4.191815853118896484e-01 -3.548765480518341064e-01 4.071118533611297607e-01
-3.734973371028900146e-01 -3.697247803211212158e-01 4.140956699848175049e-01
-4.368997812271118164e-01 -3.832802772521972656e-01 4.148850142955780029e-01
-3.735636174678802490e-01 -3.847877085208892822e-01 4.218451678752899170e-01
-4.048411846160888672e-01 -3.233609795570373535e-01 4.406119585037231445e-01
-3.916912972927093506e-01 -3.227378726005554199e-01 4.178020656108856201e-01
-3.805517256259918213e-01 -3.907356858253479004e-01 4.409007132053375244e-01
-4.070046544075012207e-01 -4.537152945995330811e-01 4.154711365699768066e-01
-4.413511753082275391e-01 -4.234235286712646484e-01 4.172991812229156494e-01
-4.259978830814361572e-01 -3.464370965957641602e-01 4.189908802509307861e-01
-4.016584455966949463e-01 -3.190315365791320801e-01 4.328604340553283691e-01
-4.087030887603759766e-01 -4.197797477245330811e-01 4.572396278381347656e-01
-3.860013782978057861e-01 -3.268883526325225830e-01 4.349679946899414062e-01
-4.119020700454711914e-01 -3.333674073219299316e-01 4.139924049377441406e-01
-4.127611815929412842e-01 -3.661443293094635010e-01 4.603984057903289795e-01
-4.021012485027313232e-01 -4.146197438240051270e-01 4.554035067558288574e-01
-3.779713213443756104e-01 -4.067145884037017822e-01 4.231186211109161377e-01
-4.229353964328765869e-01 -4.630308151245117188e-01 4.250998497009277344e-01
-4.331851303577423096e-01 -3.557808697223663330e-01 4.459798932075500488e-01
-3.952648341655731201e-01 -4.250151813030242920e-01 4.466108977794647217e-01
-4.317151010036468506e-01 -3.484007120132446289e-01 4.308079481124877930e-01
-4.255039691925048828e-01 -3.430459499359130859e-01 4.459584355354309082e-01
-4.105956256389617920e-01 -4.080125987529754639e-01 4.602515995502471924e-01
-4.278530478477478027e-01 -3.568170070648193359e-01 4.532077312469482422e-01
-4.141008853912353516e-01 -4.054828882217407227e-01 3.972888886928558350e-01
-3.978564739227294922e-01 -3.876675665378570557e-01 3.955140709877014160e-01
-3.984438776969909668e-01 -3.259938955307006836e-01 4.137266576290130615e-01
-3.925621509552001953e-01 -3.397669792175292969e-01 4.050105214118957520e-01
-4.092313051223754883e-01 -3.361322581768035889e-01 4.505554139614105225e-01
-4.229466617107391357e-01 -4.337515830993652344e-01 4.563444554805755615e-01
-4.227599501609802246e-01 -3.640921413898468018e-01 4.063717126846313477e-01
-4.235910475254058838e-01 -4.538269937038421631e-01 4.136542379856109619e-01
-4.361146390438079834e-01 -3.685153722763061523e-01 4.200316965579986572e-01
-4.236554205417633057e-01 -3.419678807258605957e-01 4.194819927215576172e-01
-4.465479254722595215e-01 -3.960223197937011719e-01 4.393162131309509277e-01
-4.086579382419586182e-01 -3.730226755142211914e-01 3.974640965461730957e-01
-4.293532967567443848e-01 -4.535717666149139404e-01 4.457682669162750244e-01
-3.965432643890380859e-01 -3.563352227210998535e-01 3.991947770118713379e-01
-4.179396331310272217e-01 -4.008661806583404541e-01 3.983598649501800537e-01
-3.874042332172393799e-01 -3.262998163700103760e-01 4.158645570278167725e-01
-4.379951953887939453e-01 -3.995982706546783447e-01 4.564060866832733154e-01
-3.895418643951416016e-01 -3.899809122085571289e-01 4.513416588306427002e-01
-4.058284461498260498e-01 -3.874735832214355469e-01 3.955923318862915039e-01
-3.826120793819427490e-01 -3.490298986434936523e-01 4.432356655597686768e-01
-4.209453165531158447e-01 -3.326019644737243652e-01 4.276714622974395752e-01
-3.749189376831054688e-01 -3.901079297065734863e-01 4.273526966571807861e-01
-3.893876671791076660e-01 -3.492178618907928467e-01 4.493438005447387695e-01
-3.752318024635314941e-01 -3.662118613719940186e-01 4.343904256820678711e-01
-4.205011725425720215e-01 -3.345999121665954590e-01 4.228088855743408203e-01
-3.758789002895355225e-01 -3.784196972846984863e-01 4.089566767215728760e-01
-4.237808883190155029e-01 -3.961328566074371338e-01 4.012109339237213135e-01
-3.898404836654663086e-01 -3.303170204162597656e-01 4.109855592250823975e-01
-4.022486209869384766e-01 -4.078162014484405518e-01 4.569991528987884521e-01
-3.725519180297851562e-01 -3.640118837356567383e-01 4.201943874359130859e-01
-4.095880687236785889e-01 -4.383990466594696045e-01 4.037938117980957031e-01
-4.085835218429565430e-01 -4.494830071926116943e-01 4.432312250137329102e-01
-4.081864058971405029e-01 -3.916967511177062988e-01 4.611609876155853271e-01
-4.337689280509948730e-01 -3.841779828071594238e-01 4.576659500598907471e-01
-3.820248246192932129e-01 -3.771375119686126709e-01 4.450101256370544434e-01
-3.796627521514892578e-01 -3.729061186313629150e-01 4.036821722984313965e-01
-4.147749245166778564e-01 -3.273177444934844971e-01 4.243499934673309326e-01
-3.990356028079986572e-01 -4.273361265659332275e-01 4.018628001213073730e-01
-3.912347555160522461e-01 -4.112334847450256348e-01 4.481104612350463867e-01
-3.872523903846740723e-01 -3.221198618412017822e-01 4.268294572830200195e-01
-4.171092808246612549e-01 -3.340485692024230957e-01 4.184261858463287354e-01
-3.878607749938964844e-01 -3.996660113334655762e-01 4.479843676090240479e-01
-4.411641359329223633e-01 -4.489289224147796631e-01 4.369195103645324707e-01
-4.000256955623626709e-01 -3.947437107563018799e-01 4.577950835227966309e-01
-3.725652694702148438e-01 -3.706382513046264648e-01 4.194649457931518555e-01
-3.837944269180297852e-01 -3.735977709293365479e-01 4.003987908363342285e-01
-3.943784832954406738e-01 -4.063329994678497314e-01 3.978486657142639160e-01
-4.085861146450042725e-01 -4.458659291267395020e-01 4.459988474845886230e-01
-4.113840758800506592e-01 -4.575778543949127197e-01 4.366761445999145508e-01
-4.370612204074859619e-01 -4.531266689300537109e-01 4.250864088535308838e-01
-4.289909899234771729e-01 -3.934893310070037842e-01 4.609571099281311035e-01
-4.197745621204376221e-01 -3.753384649753570557e-01 4.614350795745849609e-01
-3.945648670196533203e-01 -4.036693871021270752e-01 4.530212581157684326e-01
-3.888880610466003418e-01 -3.616830408573150635e-01 4.511575996875762939e-01
-4.182553589344024658e-01 -4.277420341968536377e-01 4.013631641864776611e-01
-4.236797988414764404e-01 -4.603852629661560059e-01 4.393318295478820801e-01
-3.956049978733062744e-01 -3.934530317783355713e-01 3.960293233394622803e-01
-4.249788224697113037e-01 -3.761425018310546875e-01 4.604490995407104492e-01
-3.825315833091735840e-01 -3.960572481155395508e-01 4.032193422317504883e-01
-3.963238596916198730e-01 -3.204496800899505615e-01 4.358484745025634766e-01
-4.212655723094940186e-01 -4.434770345687866211e-01 4.071667790412902832e-01
-3.819611370563507080e-01 -4.166481792926788330e-01 4.149170815944671631e-01
-4.378735721111297607e-01 -4.398047626018524170e-01 4.497681260108947754e-01
-4.472692310810089111e-01 -4.138689041137695312e-01 4.301972091197967529e-01
-4.267053306102752686e-01 -3.395503163337707520e-01 4.313557147979736328e-01
-4.423689842224121094e-01 -4.208869934082031250e-01 4.513665437698364258e-01
-4.409792125225067139e-01 -3.759737908840179443e-01 4.262539744377136230e-01
-4.216893613338470459e-01 -3.487885594367980957e-01 4.121474921703338623e-01
-3.906863331794738770e-01 -4.352642297744750977e-01 4.151572287082672119e-01
-3.780917227268218994e-01 -3.513329029083251953e-01 4.088270068168640137e-01
-4.144138693809509277e-01 -4.584478437900543213e-01 4.173969924449920654e-01
-4.161845147609710693e-01 -4.332935810089111328e-01 4.555410742759704590e-01
-4.290744364261627197e-01 -3.843109607696533203e-01 4.601705372333526611e-01
-3.795102834701538086e-01 -4.019631147384643555e-01 4.346455037593841553e-01
-4.461770057678222656e-01 -3.969376385211944580e-01 4.304876327514648438e-01
-4.153728783130645752e-01 -4.507440030574798584e-01 4.463575184345245361e-01
-4.105767607688903809e-01 -3.725316524505615234e-01 4.610912203788757324e-01
-4.051895141601562500e-01 -3.201241493225097656e-01 4.261010885238647461e-01
-4.461097121238708496e-01 -4.084755480289459229e-01 4.263940453529357910e-01
-3.794221282005310059e-01 -3.685088753700256348e-01 4.418752789497375488e-01
-3.766592741012573242e-01 -3.700592517852783203e-01 4.073480367660522461e-01
-4.062699079513549805e-01 -3.822983801364898682e-01 3.959372043609619141e-01
-4.099285900592803955e-01 -3.896029293537139893e-01 3.961947262287139893e-01
-3.764513731002807617e-01 -3.485145270824432373e-01 4.334345757961273193e-01
-3.940670490264892578e-01 -4.118183851242065430e-01 3.991115689277648926e-01
-4.174448549747467041e-01 -3.485596179962158203e-01 4.086741209030151367e-01
-3.725259602069854736e-01 -3.674503862857818604e-01 4.234676659107208252e-01
-3.951961994171142578e-01 -3.625689744949340820e-01 3.979469239711761475e-01
-4.041258096694946289e-01 -4.323573112487792969e-01 4.505277872085571289e-01
-4.455927312374114990e-01 -4.040624499320983887e-01 4.256663918495178223e-01
-4.268096089363098145e-01 -3.801076114177703857e-01 4.604624211788177490e-01
-4.162609875202178955e-01 -3.814235031604766846e-01 3.988558948040008545e-01
-3.806676268577575684e-01 -4.151632487773895264e-01 4.189756512641906738e-01
-3.879474103450775146e-01 -4.024679362773895264e-01 4.002361297607421875e-01
-3.741474449634552002e-01 -3.518014848232269287e-01 4.169501960277557373e-01
-4.351478219032287598e-01 -3.931363821029663086e-01 4.579674899578094482e-01
-4.023454785346984863e-01 -4.040974974632263184e-01 3.959879577159881592e-01
-4.082231819629669189e-01 -3.297025263309478760e-01 4.144607186317443848e-01
-3.747656643390655518e-01 -3.927537798881530762e-01 4.212180376052856445e-01
-4.458452761173248291e-01 -4.234313070774078369e-01 4.261398613452911377e-01
-4.405847191810607910e-01 -4.116170704364776611e-01 4.154842793941497803e-01
-3.994627594947814941e-01 -3.468194305896759033e-01 4.538037180900573730e-01
-4.112898111343383789e-01 -3.815829157829284668e-01 3.970938622951507568e-01
-4.231904447078704834e-01 -3.581573665142059326e-01 4.089328050613403320e-01
-4.339128732681274414e-01 -4.076469838619232178e-01 4.081037938594818115e-01
-4.002338051795959473e-01 -4.353848099708557129e-01 4.049598574638366699e-01
-4.289786219596862793e-01 -4.074280858039855957e-01 4.607756137847900391e-01
-3.766771256923675537e-01 -3.434398770332336426e-01 4.151772856712341309e-01
-4.203232824802398682e-01 -3.456607460975646973e-01 4.523277878761291504e-01
-3.988829255104064941e-01 -3.513166010379791260e-01 4.006173908710479736e-01
-4.350957870483398438e-01 -3.689688444137573242e-01 4.519454836845397949e-01
-3.998253643512725830e-01 -4.399550259113311768e-01 4.424580633640289307e-01
-4.451438784599304199e-01 -4.197443127632141113e-01 4.474254548549652100e-01
-3.812931180000305176e-01 -3.566418290138244629e-01 4.433064162731170654e-01
-4.138216674327850342e-01 -4.367522001266479492e-01 4.534936845302581787e-01
-3.753164708614349365e-01 -3.442462086677551270e-01 4.264948368072509766e-01
-4.349633753299713135e-01 -3.981529176235198975e-01 4.096749722957611084e-01
-4.472773075103759766e-01 -4.130838513374328613e-01 4.422271251678466797e-01
-3.992588222026824951e-01 -4.500994682312011719e-01 4.257257878780364990e-01
-4.115987122058868408e-01 -4.463711678981781006e-01 4.075837731361389160e-01
-4.307760596275329590e-01 -4.327182471752166748e-01 4.558137655258178711e-01
-4.110237658023834229e-01 -3.834943771362304688e-01 4.618524909019470215e-01
-3.860478103160858154e-01 -4.066646695137023926e-01 4.437746405601501465e-01
-4.000717103481292725e-01 -3.424803614616394043e-01 4.525634646415710449e-01
-4.039567112922668457e-01 -4.308303892612457275e-01 4.016640186309814453e-01
-4.157561659812927246e-01 -3.267227411270141602e-01 4.285483360290527344e-01
-3.737421631813049316e-01 -3.544988930225372314e-01 4.274759590625762939e-01
-3.905855715274810791e-01 -4.372303485870361328e-01 4.198213219642639160e-01
