5.210620164871215820e-01 3.500067293643951416e-01 1.537871360778808594e-01
-2.461901009082794189e-01 -2.440112680196762085e-01 -5.568562150001525879e-01
-1.078672111034393311e-01 -3.354747593402862549e-01 -1.081260144710540771e-01
2.646777927875518799e-01 6.323008332401514053e-03 7.219083905220031738e-01
4.818428754806518555e-01 1.998594701290130615e-01 -8.204898834228515625e-01
8.327629566192626953e-01 -1.221847161650657654e-01 6.058081388473510742e-01
3.075253665447235107e-01 3.816535770893096924e-01 -3.982724249362945557e-01
8.227238655090332031e-01 1.800404787063598633e-01 -4.367919862270355225e-01
-2.864021062850952148e-02 -2.791377902030944824e-01 3.275706171989440918e-01
9.882534742355346680e-01 1.082458347082138062e-01 2.810089290142059326e-01
-4.010714590549468994e-01 7.175593078136444092e-02 -6.341271996498107910e-01
4.676937162876129150e-01 -7.880059629678726196e-02 -8.414589762687683105e-01
-1.302260160446166992e-01 2.401150017976760864e-01 7.205972075462341309e-02
2.941727936267852783e-01 -3.819421231746673584e-01 -1.182233914732933044e-01
4.916825890541076660e-01 -3.638917207717895508e-01 5.370597541332244873e-02
1.993986666202545166e-01 2.979289591312408447e-01 2.833252251148223877e-01
-6.307008862495422363e-02 1.208316301926970482e-03 -1.015817284584045410e+00
6.093478202819824219e-01 -1.725943535566329956e-01 -6.022953987121582031e-01
2.367662340402603149e-01 3.834041953086853027e-01 -1.675950139760971069e-01
-3.578064739704132080e-01 6.876557320356369019e-02 -3.438182175159454346e-02
3.555327653884887695e-03 -2.231289893388748169e-01 4.640672206878662109e-01
4.198665916919708252e-02 3.481807410717010498e-01 -1.356563419103622437e-01
2.106141746044158936e-01 3.838103711605072021e-01 -2.749070525169372559e-01
6.055855154991149902e-01 -2.368135303258895874e-01 -4.730331599712371826e-01
-3.251429498195648193e-01 -7.745568454265594482e-02 1.159688830375671387e-01
3.030306100845336914e-02 2.301879674196243286e-01 3.134565353393554688e-01
-5.196580290794372559e-02 3.185575008392333984e-01 -5.819814801216125488e-01
-2.784119546413421631e-01 -1.619170159101486206e-01 1.467671394348144531e-01
7.311006188392639160e-01 3.216776549816131592e-01 -1.146353781223297119e-01
8.729910850524902344e-01 -1.903085559606552124e-01 -6.593243032693862915e-02
-2.685206234455108643e-01 -2.553770244121551514e-01 -4.410182237625122070e-01
2.471639662981033325e-01 3.469755053520202637e-01 1.298462450504302979e-01
-1.770761609077453613e-02 -1.315121203660964966e-01 -9.345493316650390625e-01
-1.373617351055145264e-01 2.925290763378143311e-01 -1.919848620891571045e-01
1.526135802268981934e-01 3.524504005908966064e-01 1.583774387836456299e-02
-1.995614171028137207e-02 -3.477755486965179443e-01 6.215415894985198975e-02
1.668113470077514648e-02 2.489673495292663574e-01 -8.678730726242065430e-01
-3.600471913814544678e-01 -7.755048573017120361e-02 3.146906197071075439e-02
-3.414610922336578369e-01 -2.109446078538894653e-01 -1.886587142944335938e-01
7.659336924552917480e-02 2.775126099586486816e-01 -8.246863484382629395e-01
6.585762500762939453e-01 -1.862762719392776489e-01 -5.186804533004760742e-01
7.491962909698486328e-01 -2.802274227142333984e-01 2.041582763195037842e-02
4.093011021614074707e-01 3.340629935264587402e-01 -6.095290184020996094e-01
1.693409681320190430e-01 -3.024940192699432373e-01 -6.017990112304687500e-01
9.627172946929931641e-01 -6.466566771268844604e-02 4.306105971336364746e-01
-2.319056093692779541e-01 1.024639457464218140e-01 -9.071089625358581543e-01
-4.377612173557281494e-01 -7.753068208694458008e-02 -4.355309307575225830e-01
-3.653806746006011963e-01 -1.504709422588348389e-01 -5.953071713447570801e-01
-3.058802783489227295e-01 2.016625106334686279e-01 -2.708656787872314453e-01
1.018702268600463867e+00 3.224222734570503235e-02 8.277423679828643799e-02
2.371042072772979736e-01 3.686952888965606689e-01 -5.106202363967895508e-01
9.433287382125854492e-02 -3.556462824344635010e-01 -3.723922967910766602e-01
-5.469635128974914551e-02 2.992075681686401367e-01 -6.806623935699462891e-01
1.890107691287994385e-01 -2.556143999099731445e-01 -7.223670482635498047e-01
4.954620599746704102e-01 1.718336939811706543e-01 6.405610442161560059e-01
-3.236442506313323975e-01 3.817883506417274475e-02 -8.341826200485229492e-01
-2.980212867259979248e-01 1.042446196079254150e-01 -8.282593488693237305e-01
9.522086381912231445e-01 1.619384735822677612e-01 -1.042933687567710876e-01
9.760584831237792969e-01 -2.864934038370847702e-03 -1.482439041137695312e-01
5.639190673828125000e-01 3.319734036922454834e-01 2.275385558605194092e-01
-2.462353408336639404e-01 2.490538954734802246e-01 -3.377670943737030029e-01
1.185294091701507568e-01 -3.287182450294494629e-01 3.326854109764099121e-01
7.761993408203125000e-01 6.068884208798408508e-02 -5.871934294700622559e-01
-5.306622385978698730e-02 -3.500555157661437988e-01 -2.290160506963729858e-01
-2.346008121967315674e-01 4.523898661136627197e-02 2.479203343391418457e-01
-1.018050611019134521e-01 3.144042491912841797e-01 -2.706106901168823242e-01
-1.364685893058776855e-01 -2.117880433797836304e-01 -7.671138048171997070e-01
1.013197898864746094e+00 7.961058616638183594e-02 1.410287022590637207e-01
5.219279527664184570e-01 3.603698909282684326e-01 -3.733919262886047363e-01
-4.175643026828765869e-01 -1.286616176366806030e-01 -3.444406986236572266e-01
7.926753759384155273e-01 6.907240301370620728e-02 6.603964567184448242e-01
-3.422304987907409668e-02 -3.242684900760650635e-02 5.301896929740905762e-01
-1.720499992370605469e-01 5.674113705754280090e-02 3.312723040580749512e-01
4.547936916351318359e-01 -2.932117581367492676e-01 5.358332991600036621e-01
-4.025507271289825439e-01 -1.257495731115341187e-01 -1.766560375690460205e-01
3.874783515930175781e-01 2.032760679721832275e-01 5.778491497039794922e-01
-1.936190128326416016e-01 2.456808090209960938e-01 -8.588856458663940430e-02
-2.204522788524627686e-01 2.486142218112945557e-01 -6.104733943939208984e-01
5.324768424034118652e-01 2.901749610900878906e-01 3.949529528617858887e-01
-2.848692834377288818e-01 -4.492101073265075684e-02 -8.677802085876464844e-01
-1.184577643871307373e-01 2.892865836620330811e-01 -1.105395182967185974e-01
-3.985873162746429443e-01 6.247559562325477600e-03 -9.141194820404052734e-02
4.580969810485839844e-01 3.753623664379119873e-01 -3.400112986564636230e-01
-2.069967389106750488e-01 -2.730244994163513184e-01 -5.018346309661865234e-01
9.811064004898071289e-01 -6.043784320354461670e-02 3.716096282005310059e-01
2.657726407051086426e-01 -2.216818630695343018e-01 -7.677226662635803223e-01
9.961358308792114258e-01 -3.784518688917160034e-02 -1.489920169115066528e-02
4.566559195518493652e-01 1.498507261276245117e-01 -8.783239126205444336e-01
-1.941559910774230957e-01 -3.052179217338562012e-01 -2.497595697641372681e-01
1.828315556049346924e-01 -3.736192882061004639e-01 -2.549728751182556152e-01
2.412638962268829346e-01 3.837498426437377930e-01 -3.555961847305297852e-01
1.189052909612655640e-01 -1.956142783164978027e-01 -8.497246503829956055e-01
6.066017150878906250e-01 2.813797891139984131e-01 3.991549015045166016e-01
9.491908550262451172e-01 -1.119301468133926392e-01 3.874877691268920898e-01
-1.659137010574340820e-02 -1.911465376615524292e-01 -8.520132303237915039e-01
1.603665947914123535e-01 3.231753706932067871e-01 -7.131213545799255371e-01
4.558295607566833496e-01 3.505745828151702881e-01 1.713213920593261719e-01
6.295899152755737305e-01 9.441238641738891602e-02 7.148957252502441406e-01
7.011241316795349121e-01 -1.280257403850555420e-01 -5.607117414474487305e-01
5.747061967849731445e-01 3.555845916271209717e-01 6.676483154296875000e-02
8.735428750514984131e-02 2.400990873575210571e-01 3.456866443157196045e-01
-1.754998266696929932e-01 -2.162026911973953247e-01 2.525268495082855225e-01
4.041701555252075195e-01 3.856274485588073730e-01 -1.308185458183288574e-01
2.759483456611633301e-01 -3.675346672534942627e-01 2.440911829471588135e-01
8.607714176177978516e-01 2.167130559682846069e-01 3.364932239055633545e-01
1.000225305557250977e+00 6.424710899591445923e-02 -5.023232102394104004e-02
7.042399644851684570e-01 -2.939636111259460449e-01 -5.117935687303543091e-02
-9.703579545021057129e-02 -3.239279985427856445e-01 5.183938145637512207e-02
2.797235250473022461e-01 2.676313817501068115e-01 4.116337895393371582e-01
2.913187444210052490e-01 3.880282640457153320e-01 -2.072760909795761108e-01
9.098101854324340820e-01 2.596056088805198669e-02 -3.464792966842651367e-01
3.089619576930999756e-01 3.864157199859619141e-01 -1.419629752635955811e-01
9.017730951309204102e-01 2.313182801008224487e-01 2.190271019935607910e-02
7.671133279800415039e-01 -2.304400354623794556e-01 4.813410043716430664e-01
-3.650886118412017822e-01 5.575330927968025208e-03 1.090545952320098877e-02
7.121977806091308594e-01 -1.841679811477661133e-01 -4.480070769786834717e-01
2.027516961097717285e-01 -2.066345214843750000e-01 -8.155022263526916504e-01
7.292554378509521484e-01 2.100254297256469727e-01 5.120781064033508301e-01
3.280751407146453857e-01 -3.302763402462005615e-01 -4.429599642753601074e-01
3.414814472198486328e-01 -3.748284578323364258e-01 1.840066611766815186e-01
4.024963974952697754e-01 1.899677664041519165e-01 -8.809788823127746582e-01
2.008515149354934692e-01 -3.838427960872650146e-01 3.828831017017364502e-02
1.067614555358886719e-01 2.842426002025604248e-01 2.493028938770294189e-01
1.145292222499847412e-01 1.987454891204833984e-01 4.495019316673278809e-01
5.255457162857055664e-01 2.412003427743911743e-01 5.194519758224487305e-01
8.825578689575195312e-01 -1.382128149271011353e-01 5.070865154266357422e-01
2.970860302448272705e-01 -3.463180363178253174e-01 -3.902262747287750244e-01
3.167964518070220947e-01 -3.841414153575897217e-01 -2.114806324243545532e-02
-1.405277550220489502e-01 -1.001646965742111206e-01 4.094590544700622559e-01
6.183242797851562500e-01 1.321042031049728394e-01 -7.556759715080261230e-01
1.559978276491165161e-01 -1.376739144325256348e-01 -9.238199591636657715e-01
7.743200063705444336e-01 -2.442511767148971558e-01 -1.410160809755325317e-01
9.169863462448120117e-01 -1.395159661769866943e-01 -9.912614524364471436e-02
1.843345165252685547e-02 1.711212843656539917e-01 4.124212861061096191e-01
8.246796131134033203e-01 2.766831815242767334e-01 -1.094955652952194214e-01
1.335070580244064331e-01 3.683072626590728760e-01 -4.555699527263641357e-01
-1.033498644828796387e-01 -2.568511366844177246e-01 -6.774000525474548340e-01
-4.227324426174163818e-01 7.205761224031448364e-02 -5.008299350738525391e-01
2.632935345172882080e-01 3.727924227714538574e-01 -1.641898602247238159e-02
-1.506124734878540039e-01 1.363820284605026245e-01 -9.425911307334899902e-01
4.296557307243347168e-01 3.536516726016998291e-01 -5.153612494468688965e-01
7.760466337203979492e-01 -2.297423332929611206e-01 -1.998173594474792480e-01
-1.464537382125854492e-01 -2.720388770103454590e-01 -5.930562019348144531e-01
-1.645291745662689209e-01 -2.121788263320922852e-02 3.827837109565734863e-01
5.940337777137756348e-01 -3.136502206325531006e-01 -2.100802063941955566e-01
1.969901621341705322e-01 -3.853273689746856689e-01 -2.850318700075149536e-02
9.794301986694335938e-01 1.410382539033889771e-01 2.084535956382751465e-01
-9.323939681053161621e-02 8.467324823141098022e-02 4.047009348869323730e-01
5.432670116424560547e-01 -1.355702877044677734e-01 -7.222219109535217285e-01
1.699579954147338867e-01 3.760533630847930908e-01 -1.693629026412963867e-01
-9.579771757125854492e-02 2.742104232311248779e-01 1.330865919589996338e-02
3.139557838439941406e-01 1.814019680023193359e-01 5.892999768257141113e-01
1.653843522071838379e-01 -3.576313257217407227e-01 2.461375594139099121e-01
6.748737096786499023e-01 2.049884796142578125e-01 -6.301013827323913574e-01
3.573732972145080566e-01 3.880410790443420410e-01 -2.640050351619720459e-01
3.871630728244781494e-01 -3.283410370349884033e-01 4.362371563911437988e-01
1.985944211483001709e-01 -3.206280171871185303e-01 4.125608205795288086e-01
4.652841091156005859e-01 -2.388407438993453979e-01 6.465845704078674316e-01
-9.920766949653625488e-02 -3.118863701820373535e-01 1.135074049234390259e-01
5.315563678741455078e-01 -2.465087771415710449e-01 -5.331496000289916992e-01
-3.268757760524749756e-01 -2.088652402162551880e-01 -9.609176218509674072e-02
-1.383913755416870117e-01 3.032658100128173828e-01 -3.478112816810607910e-01
8.065332174301147461e-01 -2.498378753662109375e-01 2.378693222999572754e-02
-4.101380705833435059e-02 -2.438367307186126709e-01 -7.412142753601074219e-01
6.305054426193237305e-01 2.880933284759521484e-01 -5.281839966773986816e-01
-4.215195477008819580e-01 -6.039721891283988953e-02 -1.749914735555648804e-01
-3.235144913196563721e-01 -2.288957238197326660e-01 -3.744916319847106934e-01
9.129461050033569336e-01 -1.815129071474075317e-01 1.624505519866943359e-01
1.850140690803527832e-01 -3.253763914108276367e-01 -5.201821327209472656e-01
7.176952362060546875e-01 -2.686870396137237549e-01 4.210706949234008789e-01
-2.596518695354461670e-01 2.407374382019042969e-01 -4.851951003074645996e-01
9.745087623596191406e-01 -1.131280362606048584e-01 1.774055659770965576e-01
-1.603467464447021484e-01 -2.593409717082977295e-01 1.846104562282562256e-01
1.291221678256988525e-01 1.351003199815750122e-01 5.517923235893249512e-01
-3.804558217525482178e-01 -8.715835213661193848e-02 -6.812174916267395020e-01
-3.512856066226959229e-01 1.728154867887496948e-01 -4.434556365013122559e-01
4.023216664791107178e-01 -3.567594587802886963e-01 3.024604022502899170e-01
6.747523546218872070e-01 2.929878830909729004e-01 -4.474524259567260742e-01
2.383595705032348633e-02 3.289392888545989990e-01 -3.251666575670242310e-02
4.680505394935607910e-01 -2.219883352518081665e-01 -6.461827754974365234e-01
9.305200576782226562e-01 1.749141216278076172e-01 -1.622502803802490234e-01
9.200903177261352539e-01 -6.801999360322952271e-02 -2.467161715030670166e-01
9.924112260341644287e-02 -3.218230307102203369e-01 -5.382869243621826172e-01
7.469259500503540039e-01 -2.780100107192993164e-01 2.920171618461608887e-01
7.938623428344726562e-01 1.104672774672508240e-01 -5.484088063240051270e-01
7.151631116867065430e-01 -2.552243173122406006e-01 -2.392686903476715088e-01
6.227693557739257812e-01 -3.162994682788848877e-01 3.326631188392639160e-01
9.523717164993286133e-01 -1.394315622746944427e-02 -2.173278629779815674e-01
3.898759186267852783e-02 2.904467284679412842e-01 1.576562523841857910e-01
3.783583641052246094e-02 3.564229607582092285e-01 -3.984720408916473389e-01
5.575832128524780273e-01 1.288201287388801575e-02 7.732941508293151855e-01
5.397419333457946777e-01 -3.057351112365722656e-01 4.683935046195983887e-01
-5.074292421340942383e-03 -3.412261307239532471e-01 1.350730061531066895e-01
7.768290042877197266e-01 1.605893112719058990e-02 6.985744237899780273e-01
5.295391380786895752e-02 1.535802334547042847e-01 -9.963256716728210449e-01
2.316595613956451416e-01 -1.761335581541061401e-01 6.692380309104919434e-01
-1.325099766254425049e-01 3.056354224681854248e-01 -4.175242483615875244e-01
1.994775533676147461e-01 -2.864796817302703857e-01 4.998000860214233398e-01
1.117238402366638184e-02 3.147423267364501953e-01 -6.799929738044738770e-01
1.499538123607635498e-01 2.824207544326782227e-01 -8.229295611381530762e-01
7.327982187271118164e-01 3.007665090262889862e-02 -6.433817744255065918e-01
8.672341108322143555e-01 -1.988033503293991089e-01 3.668606579303741455e-01
7.188647985458374023e-03 4.353411868214607239e-02 5.384156107902526855e-01
-5.173829197883605957e-02 1.886628121137619019e-01 3.079647421836853027e-01
-3.356290161609649658e-01 1.298627555370330811e-01 -7.223997116088867188e-01
1.844271421432495117e-01 -3.813046813011169434e-01 -1.639516651630401611e-01
7.646069526672363281e-01 2.142503261566162109e-01 -4.874688386917114258e-01
5.974212884902954102e-01 2.311060577630996704e-01 -6.816634535789489746e-01
3.653507232666015625e-01 3.828015029430389404e-01 -6.754307448863983154e-02
3.183158040046691895e-01 2.075518071651458740e-01 -9.041272401809692383e-01
6.678407192230224609e-01 -2.898550927639007568e-01 -1.838829219341278076e-01
7.426460087299346924e-02 3.454467356204986572e-01 -5.786496400833129883e-01
8.536796569824218750e-01 2.641249001026153564e-01 -1.957137137651443481e-02
4.923238754272460938e-01 3.531118035316467285e-01 -4.573426544666290283e-01
5.821629762649536133e-01 3.417692780494689941e-01 -3.939643800258636475e-01
-2.420522868633270264e-01 2.081530541181564331e-01 -6.357255578041076660e-02
3.709332942962646484e-01 -2.267460227012634277e-01 -7.055701017379760742e-01
6.871373653411865234e-01 3.363865017890930176e-01 -4.243768751621246338e-03
4.031699597835540771e-01 -3.767360150814056396e-01 -2.157479524612426758e-03
2.826591432094573975e-01 1.399758011102676392e-01 6.311231255531311035e-01
5.640237331390380859e-01 1.993070691823959351e-01 -7.543108463287353516e-01
9.491407871246337891e-01 1.849333643913269043e-01 1.504714787006378174e-01
9.572998285293579102e-01 -1.212307736277580261e-01 2.441310882568359375e-02
-2.655344903469085693e-01 -9.688598662614822388e-02 2.259554266929626465e-01
-6.549996137619018555e-02 3.234425485134124756e-01 -2.146652638912200928e-01
6.210616230964660645e-01 -2.370126545429229736e-01 6.059620380401611328e-01
3.525064587593078613e-01 1.484028846025466919e-01 -9.380632638931274414e-01
-8.930778503417968750e-02 -3.364053964614868164e-01 -2.895919978618621826e-02
4.009370207786560059e-01 2.368579953908920288e-01 -8.282465338706970215e-01
9.801433086395263672e-01 9.637267887592315674e-02 3.432571887969970703e-01
2.398447096347808838e-01 -4.772402346134185791e-02 -9.793878793716430664e-01
-1.317602396011352539e-01 -2.941828034818172455e-02 -9.827567338943481445e-01
-2.178282439708709717e-01 2.522719800472259521e-01 -2.006068825721740723e-01
-2.454964220523834229e-01 -1.490636467933654785e-01 -7.965346574783325195e-01
3.070651590824127197e-01 -3.295271992683410645e-01 4.256189465522766113e-01
-2.073209583759307861e-01 5.764118582010269165e-02 -9.494065642356872559e-01
6.716957688331604004e-02 -3.592934310436248779e-01 1.325778961181640625e-01
7.639263272285461426e-01 -2.781527042388916016e-01 1.445735096931457520e-01
5.080375075340270996e-01 2.293822765350341797e-01 -7.655836343765258789e-01
-3.085759580135345459e-01 -1.472159475088119507e-01 -7.211722731590270996e-01
-1.760498583316802979e-01 -1.562253236770629883e-01 -8.421486020088195801e-01
-2.401440441608428955e-01 2.545183300971984863e-01 -4.087577164173126221e-01
3.116780519485473633e-01 3.138055205345153809e-01 2.952542006969451904e-01
6.259878277778625488e-01 -1.985441446304321289e-01 6.685739159584045410e-01
7.800356745719909668e-01 2.645806372165679932e-01 3.021717667579650879e-01
5.239512920379638672e-01 -2.450729906558990479e-01 6.275689601898193359e-01
7.702306509017944336e-01 2.624593079090118408e-01 -3.637610673904418945e-01
7.674041986465454102e-01 -2.637929022312164307e-01 -4.740796238183975220e-02
8.912463188171386719e-01 2.354675084352493286e-01 1.284271478652954102e-01
8.011070489883422852e-01 2.240021079778671265e-01 -4.010415375232696533e-01
2.715221047401428223e-01 -2.539159953594207764e-01 -6.992971301078796387e-01
-2.794382274150848389e-01 -7.002138998359441757e-03 2.030204832553863525e-01
6.677602529525756836e-01 2.478056848049163818e-01 4.625868201255798340e-01
7.798025608062744141e-01 1.495873034000396729e-01 5.827267765998840332e-01
8.230400085449218750e-01 2.673465907573699951e-01 1.924899816513061523e-01
6.889035701751708984e-01 3.124084770679473877e-01 -3.425767421722412109e-01
-1.840344965457916260e-01 -7.999772578477859497e-02 3.581774532794952393e-01
-2.826960980892181396e-01 -2.362647354602813721e-01 -5.068614482879638672e-01
-2.803858220577239990e-01 -2.059609740972518921e-01 -6.270712614059448242e-01
5.080720782279968262e-02 -6.927631050348281860e-02 6.049141883850097656e-01
2.492288649082183838e-01 7.447385787963867188e-02 6.783270835876464844e-01
2.153939306735992432e-01 4.764705523848533630e-02 -1.015613555908203125e+00
6.387689709663391113e-02 -1.723516285419464111e-01 -8.882846832275390625e-01
7.324279844760894775e-02 -3.431248664855957031e-01 -4.378517866134643555e-01
1.367970108985900879e-01 2.020179331302642822e-01 -9.521262645721435547e-01
2.103951871395111084e-01 -3.644924163818359375e-01 -3.231581747531890869e-01
4.417645931243896484e-01 3.641889393329620361e-01 9.219121932983398438e-02
9.902280569076538086e-02 3.645534217357635498e-01 -1.745212376117706299e-01
4.837253093719482422e-01 1.157279871404170990e-02 -8.800110816955566406e-01
8.788828849792480469e-01 8.341020345687866211e-02 5.654726028442382812e-01
6.160629987716674805e-01 -3.334467411041259766e-01 4.701714217662811279e-02
5.591549873352050781e-01 3.124187290668487549e-01 -5.456454753875732422e-01
1.010958194732666016e+00 3.095208667218685150e-02 4.769042134284973145e-03
3.278024196624755859e-01 -3.068744838237762451e-01 -5.284163951873779297e-01
5.601254105567932129e-01 1.175085976719856262e-01 7.041878104209899902e-01
9.990260601043701172e-01 -6.109987571835517883e-02 2.613835036754608154e-01
-1.139837861061096191e+00 1.241154819726943970e-01 8.810370415449142456e-02
1.418547928333282471e-01 -1.405991464853286743e-01 -3.449105322360992432e-01
-9.903624653816223145e-02 1.525475829839706421e-01 9.736189842224121094e-01
-9.275057315826416016e-01 -1.718028634786605835e-01 -3.926132321357727051e-01
-9.089254140853881836e-01 3.457448184490203857e-01 -9.605392813682556152e-02
-4.454922676086425781e-01 4.086629152297973633e-01 4.896614253520965576e-01
-3.560084104537963867e-02 2.956602573394775391e-01 3.436988592147827148e-01
-3.574187755584716797e-01 -4.179774224758148193e-01 -2.194268703460693359e-01
5.165186524391174316e-02 6.796272844076156616e-02 9.293097257614135742e-01
-3.828397989273071289e-01 -1.234057918190956116e-01 -7.256136536598205566e-01
3.372364342212677002e-01 -1.546491533517837524e-01 4.265468120574951172e-01
-9.583950042724609375e-02 -2.251461744308471680e-01 -5.724245309829711914e-01
1.666560769081115723e-02 -4.110847413539886475e-01 -7.829689979553222656e-02
-6.351970434188842773e-01 3.373541831970214844e-01 -2.508966922760009766e-01
1.627720296382904053e-01 1.648429632186889648e-01 5.629291534423828125e-01
-7.890302538871765137e-01 3.654041588306427002e-01 5.783858299255371094e-01
-7.025532722473144531e-01 1.469594985246658325e-01 -6.085545420646667480e-01
1.607193052768707275e-01 -8.764375746250152588e-02 -2.966499328613281250e-01
-4.005658626556396484e-01 4.077536165714263916e-01 3.874775767326354980e-01
2.025798261165618896e-01 7.982824742794036865e-02 2.862023562192916870e-02
1.620999276638031006e-01 1.759562641382217407e-01 3.550425767898559570e-01
-9.107335805892944336e-01 -2.191630005836486816e-01 -2.176125347614288330e-01
8.829301595687866211e-02 -2.388198822736740112e-01 -3.936823010444641113e-01
-1.107933044433593750e+00 1.993574649095535278e-01 2.326515614986419678e-01
-6.625503301620483398e-02 -4.269082248210906982e-01 1.468772441148757935e-01
-9.030476808547973633e-01 3.570625558495521545e-02 -5.969821810722351074e-01
-5.758048892021179199e-01 -1.061622649431228638e-01 8.338314890861511230e-01
-1.215628683567047119e-01 -3.050168454647064209e-01 -5.186223983764648438e-01
-6.206659078598022461e-01 -2.986597120761871338e-01 -5.166778564453125000e-01
-1.032439947128295898e+00 -3.704591467976570129e-02 3.061971068382263184e-01
-1.156041026115417480e-02 2.352567166090011597e-01 1.028402149677276611e-02
-5.611085295677185059e-01 1.673718541860580444e-02 9.482785463333129883e-01
-1.883801519870758057e-01 9.094265103340148926e-02 -5.132669806480407715e-01
-6.358295083045959473e-01 -2.725104093551635742e-01 4.558728933334350586e-01
1.240362226963043213e-01 -4.123006016016006470e-02 -3.191949725151062012e-01
3.468319475650787354e-01 -9.617643803358078003e-02 2.974092364311218262e-01
-7.952196598052978516e-01 3.260889649391174316e-01 -2.592521607875823975e-01
-7.267479896545410156e-01 -3.089746534824371338e-01 1.218758895993232727e-01
-1.392439007759094238e-02 -2.081561386585235596e-01 -5.155804753303527832e-01
1.574873030185699463e-01 3.536447137594223022e-02 -1.705118715763092041e-01
-3.311381936073303223e-01 2.881388068199157715e-01 -2.515147030353546143e-01
-8.950947523117065430e-01 3.740865588188171387e-01 5.351632833480834961e-02
-1.354326605796813965e-01 -4.288806915283203125e-01 1.691452562808990479e-01
1.347967982292175293e-02 -4.185799658298492432e-01 4.292714595794677734e-02
2.585640251636505127e-01 -1.472636014223098755e-01 6.696062088012695312e-01
-1.060369729995727539e+00 -5.503750964999198914e-02 1.593932956457138062e-01
-5.985804796218872070e-01 3.754732012748718262e-01 6.831754446029663086e-01
-6.999472379684448242e-01 -1.638929992914199829e-01 6.372259855270385742e-01
-7.721035480499267578e-01 -2.097128890454769135e-02 -6.874203681945800781e-01
-9.976795911788940430e-01 -1.062539592385292053e-01 2.306876629590988159e-01
-1.977507621049880981e-01 -5.737469717860221863e-02 1.004266977310180664e+00
7.763662934303283691e-02 2.034945189952850342e-01 1.054335907101631165e-01
-1.093330144882202148e+00 1.502317190170288086e-01 3.244565427303314209e-01
-7.618067860603332520e-01 -1.504580974578857422e-01 5.884205102920532227e-01
-4.444059431552886963e-01 1.112164631485939026e-01 1.018530726432800293e+00
-3.878721594810485840e-01 3.463931381702423096e-01 -1.075915694236755371e-01
-1.069954395294189453e+00 1.591475307941436768e-01 -3.106136322021484375e-01
1.983990967273712158e-01 -9.267517924308776855e-02 -2.356138527393341064e-01
-5.151250362396240234e-01 7.579159736633300781e-02 -6.747246980667114258e-01
-5.510604977607727051e-01 -3.726998865604400635e-01 1.376023143529891968e-01
3.151291906833648682e-01 -1.848409771919250488e-01 4.844985902309417725e-01
9.354349970817565918e-02 -3.436022996902465820e-01 4.827838242053985596e-01
-2.695652842521667480e-02 1.728621125221252441e-01 9.023487567901611328e-01
-9.366923570632934570e-01 3.269426822662353516e-01 4.658887088298797607e-01
-6.448602080345153809e-01 -1.207541450858116150e-01 7.608790993690490723e-01
-5.165359377861022949e-01 -3.535935580730438232e-01 3.125337958335876465e-01
2.363327145576477051e-02 1.942827552556991577e-01 -6.079843640327453613e-02
-1.010143756866455078e+00 -1.421753019094467163e-01 -1.533382833003997803e-01
-2.128711491823196411e-01 1.333050727844238281e-01 -4.747008085250854492e-01
2.227058112621307373e-01 -3.322931230068206787e-01 2.626518905162811279e-01
2.642842233180999756e-01 -2.129545807838439941e-01 -1.020166873931884766e-01
-3.066530823707580566e-02 2.943970635533332825e-02 9.922735691070556641e-01
-4.616390466690063477e-01 -2.465310096740722656e-01 6.854940056800842285e-01
-2.635411620140075684e-01 -3.951577842235565186e-01 3.551633954048156738e-01
-6.905559301376342773e-01 -2.646247148513793945e-01 -5.347264409065246582e-01
1.735314726829528809e-02 -3.882777690887451172e-01 3.633807301521301270e-01
2.797724902629852295e-01 1.431608013808727264e-02 1.182050853967666626e-01
-1.049273848533630371e+00 -8.642305433750152588e-02 8.527858555316925049e-02
1.654275357723236084e-01 -2.385128736495971680e-01 -2.853465676307678223e-01
-3.107154667377471924e-01 -3.317424356937408447e-01 5.639266967773437500e-01
-5.259411334991455078e-01 2.308956831693649292e-01 -4.781920313835144043e-01
-5.550916194915771484e-01 3.070414662361145020e-01 -3.211874663829803467e-01
-1.970133036375045776e-01 -4.158084392547607422e-01 2.685225903987884521e-01
-5.032325387001037598e-01 3.077256381511688232e-01 8.625704646110534668e-01
-7.843582034111022949e-01 -1.987003386020660400e-01 -5.665848851203918457e-01
-4.877381324768066406e-01 -2.918746769428253174e-01 -6.008787751197814941e-01
-1.405484378337860107e-01 -4.264704883098602295e-01 -1.735578775405883789e-01
-7.975878119468688965e-01 -2.723531424999237061e-01 1.329318284988403320e-01
8.257910609245300293e-02 2.234250307083129883e-01 2.478302270174026489e-01
-4.575665295124053955e-01 -1.124011352658271790e-01 8.962076902389526367e-01
-8.345279097557067871e-01 3.797429203987121582e-01 4.567803740501403809e-01
-7.344418764114379883e-01 7.813055813312530518e-02 -6.631774306297302246e-01
1.051683127880096436e-01 -3.602956533432006836e-01 4.030198752880096436e-01
-7.772606611251831055e-01 4.104503691196441650e-01 2.039609104394912720e-01
-1.145619153976440430e-01 -4.053289592266082764e-01 3.356106281280517578e-01
-4.801822602748870850e-01 -3.302001655101776123e-01 -5.255341529846191406e-01
1.855302155017852783e-01 1.538229733705520630e-01 4.939889311790466309e-01
2.690711915493011475e-01 6.809098180383443832e-03 5.722449719905853271e-02
9.904304146766662598e-02 3.681889548897743225e-02 -2.686142325401306152e-01
-4.543938040733337402e-01 -4.035143554210662842e-01 -2.202207148075103760e-01
-7.545238733291625977e-01 4.038681983947753906e-01 7.476209849119186401e-02
-5.263186097145080566e-01 -3.909174203872680664e-01 1.041817665100097656e-02
-9.441822767257690430e-01 -1.867211312055587769e-01 7.609849423170089722e-02
-3.773810565471649170e-01 1.727661043405532837e-01 -5.184111595153808594e-01
1.323205232620239258e-02 -3.377355039119720459e-01 5.586692690849304199e-01
-8.267402648925781250e-01 2.834120988845825195e-01 7.047088742256164551e-01
-9.286229610443115234e-01 3.680438101291656494e-01 1.152322664856910706e-01
-4.540456533432006836e-01 -3.740890026092529297e-01 2.945551574230194092e-01
-9.377771615982055664e-02 -2.755441665649414062e-01 7.356435060501098633e-01
-6.107753515243530273e-02 3.280499950051307678e-02 -4.698583483695983887e-01
-6.744537353515625000e-01 -2.993754744529724121e-01 -4.581970572471618652e-01
-6.310728788375854492e-01 1.703211292624473572e-02 9.055700898170471191e-01
2.089127600193023682e-01 -3.119033873081207275e-01 4.255410432815551758e-01
-7.494832873344421387e-01 3.065705895423889160e-01 7.451397776603698730e-01
-6.283864378929138184e-01 -2.290206551551818848e-01 5.801573991775512695e-01
-3.813300132751464844e-01 2.747535109519958496e-01 -3.225942254066467285e-01
-4.779349565505981445e-01 -3.040774166584014893e-01 5.323876142501831055e-01
-1.380455493927001953e-01 2.378735840320587158e-01 -1.905183196067810059e-01
-5.167787075042724609e-01 -1.928072571754455566e-01 7.494530677795410156e-01
1.671240031719207764e-01 -3.266804516315460205e-01 -1.491529345512390137e-01
-4.400364160537719727e-01 -3.659413158893585205e-01 -4.403729438781738281e-01
-8.340176343917846680e-01 3.595343232154846191e-01 -1.178569197654724121e-01
-6.168494820594787598e-01 -3.667073547840118408e-01 -1.041436493396759033e-01
3.384400308132171631e-01 -1.947806328535079956e-01 2.469257861375808716e-01
-6.485739350318908691e-01 4.239076077938079834e-01 2.902283072471618652e-01
1.007021963596343994e-01 1.696251779794692993e-01 7.367411851882934570e-01
-2.343790382146835327e-01 3.577137291431427002e-01 1.709175258874893188e-01
-1.572529226541519165e-01 -2.049533426761627197e-01 8.571709394454956055e-01
-1.068333983421325684e+00 2.606428414583206177e-02 3.131542205810546875e-01
-7.801397442817687988e-01 -1.108126863837242126e-01 6.347428560256958008e-01
3.407992422580718994e-01 -1.813267469406127930e-01 3.308968245983123779e-01
-4.792813658714294434e-01 1.093895137310028076e-01 -6.360576152801513672e-01
-1.099870085716247559e+00 3.061882685869932175e-03 1.455438435077667236e-01
3.095364272594451904e-01 -3.346831724047660828e-02 5.479015111923217773e-01
-9.174870252609252930e-01 -1.335912793874740601e-01 3.659439682960510254e-01
-8.982211351394653320e-01 2.801911830902099609e-01 6.221984624862670898e-01
-5.981632471084594727e-01 3.959338068962097168e-01 6.045522689819335938e-01
-8.780363202095031738e-01 -3.255894780158996582e-02 6.156519055366516113e-01
-6.813299655914306641e-01 3.656227290630340576e-01 6.718678474426269531e-01
-4.702878594398498535e-01 -3.863977193832397461e-01 1.992659717798233032e-01
-2.580336034297943115e-01 -4.064375758171081543e-01 -3.265425562858581543e-01
-2.120155841112136841e-01 3.257168531417846680e-01 1.878124475479125977e-02
-7.727169990539550781e-01 -2.809905409812927246e-01 -3.567507266998291016e-01
-4.659476280212402344e-01 4.148247838020324707e-01 2.631228566169738770e-01
-9.330329298973083496e-02 1.244785338640213013e-01 -3.804931044578552246e-01
1.905009448528289795e-01 1.397134810686111450e-01 2.242427319288253784e-01
-2.564285397529602051e-01 3.290369808673858643e-01 -3.339989483356475830e-02
-5.975404381752014160e-01 -1.558738052845001221e-01 -7.160688042640686035e-01
2.912064492702484131e-01 -4.657417908310890198e-02 6.242136955261230469e-01
-2.699617743492126465e-01 -3.804318010807037354e-01 -4.244170188903808594e-01
-4.245599210262298584e-01 4.113589823246002197e-01 3.293699324131011963e-01
-6.926719546318054199e-01 -2.877751588821411133e-01 3.146638870239257812e-01
-1.104587554931640625e+00 -2.456086874008178711e-02 -6.912121176719665527e-02
-1.763135045766830444e-01 2.053330689668655396e-01 -3.134519457817077637e-01
-9.973889589309692383e-01 6.310214102268218994e-02 -4.922349452972412109e-01
-1.127330422401428223e+00 1.048618331551551819e-01 1.744667142629623413e-01
-2.557394206523895264e-01 -3.624884784221649170e-01 4.903703629970550537e-01
2.779859006404876709e-01 -2.828876972198486328e-01 8.773755282163619995e-02
3.179244697093963623e-01 -1.085235998034477234e-01 5.478376150131225586e-01
-3.001583814620971680e-01 3.375888168811798096e-01 7.616055011749267578e-01
-1.323592066764831543e-01 -2.979332022368907928e-02 1.012583494186401367e+00
2.612215578556060791e-01 4.176773503422737122e-02 6.096681356430053711e-01
7.872119545936584473e-02 -3.800468444824218750e-01 3.394408822059631348e-01
-6.253485679626464844e-01 3.832620084285736084e-01 -7.860794663429260254e-02
-3.125000000000000000e-01 2.668724060058593750e-01 9.221341013908386230e-01
-3.609499335289001465e-01 -2.027094960212707520e-01 8.181749582290649414e-01
-1.059084773063659668e+00 2.899568080902099609e-01 1.693418323993682861e-01
1.576795279979705811e-01 9.941470623016357422e-02 7.688185572624206543e-01
2.667049467563629150e-01 -6.813282519578933716e-02 6.894060969352722168e-01
-1.093697428703308105e+00 2.451924383640289307e-01 -3.322999179363250732e-02
-3.411302566528320312e-01 -2.893261425197124481e-02 1.006481409072875977e+00
-2.110006213188171387e-01 3.293124735355377197e-01 7.132045030593872070e-01
-7.353632450103759766e-01 3.885624408721923828e-01 -3.970243036746978760e-02
-3.787571191787719727e-01 1.446561068296432495e-01 1.025374412536621094e+00
-4.568563997745513916e-01 -1.940774172544479370e-01 7.854038476943969727e-01
-1.101255655288696289e+00 1.167973875999450684e-01 -2.735535800457000732e-01
-7.443031668663024902e-01 -2.897908985614776611e-01 1.913350820541381836e-01
-2.320763319730758667e-01 -2.267906069755554199e-01 8.167082071304321289e-01
-9.613901376724243164e-01 1.237556487321853638e-01 6.076434254646301270e-01
-9.099404811859130859e-01 4.720984026789665222e-02 6.477625370025634766e-01
-1.168166697025299072e-01 2.986890971660614014e-01 7.086448073387145996e-01
8.967065811157226562e-02 2.283049672842025757e-01 3.941451609134674072e-01
5.987742543220520020e-02 -4.027608931064605713e-01 1.978074312210083008e-01
-4.771861135959625244e-01 3.358852267265319824e-01 8.111422061920166016e-01
-9.753025770187377930e-01 7.388380914926528931e-02 5.644079446792602539e-01
-4.221379756927490234e-02 -2.869385182857513428e-01 -4.841145873069763184e-01
-1.633010953664779663e-01 -2.850262224674224854e-01 7.172145843505859375e-01
-1.074287533760070801e+00 8.112177997827529907e-02 3.567754030227661133e-01
-6.428682804107666016e-01 2.698583602905273438e-01 -4.212533235549926758e-01
-4.658248424530029297e-01 4.064607918262481689e-01 1.526348292827606201e-01
9.218841791152954102e-03 -1.386612802743911743e-01 9.035586714744567871e-01
-1.623654067516326904e-01 3.383997976779937744e-01 2.130061537027359009e-01
-3.222463130950927734e-01 1.869792044162750244e-01 1.007209777832031250e+00
-7.413666248321533203e-01 -1.050979197025299072e-01 6.887084245681762695e-01
-2.774336338043212891e-01 4.938303306698799133e-02 -6.148623228073120117e-01
-7.176596522331237793e-01 4.079667925834655762e-01 4.572780728340148926e-01
-3.504130840301513672e-01 3.848467469215393066e-01 1.425481289625167847e-01
1.258572041988372803e-01 1.813239008188247681e-01 6.321877241134643555e-01
2.889524400234222412e-01 -2.782358527183532715e-01 2.651512622833251953e-01
-1.072378873825073242e+00 2.068225890398025513e-01 3.589459061622619629e-01
-8.444782495498657227e-01 -1.307142227888107300e-01 -5.929528474807739258e-01
-7.078778743743896484e-01 -2.606820166110992432e-01 3.880250453948974609e-01
6.789156794548034668e-02 -2.989801764488220215e-01 -3.598342537879943848e-01
1.845746338367462158e-01 1.122270897030830383e-01 6.846011877059936523e-01
9.993538260459899902e-02 -3.866456449031829834e-01 -5.355201661586761475e-02
-4.214440882205963135e-01 -3.483130633831024170e-01 -5.002418756484985352e-01
-1.798058599233627319e-01 3.442136943340301514e-01 5.754467248916625977e-01
-8.984140157699584961e-01 -2.183501124382019043e-01 -2.915437817573547363e-01
-8.333683013916015625e-01 -7.812764495611190796e-02 6.161045432090759277e-01
-7.431543469429016113e-01 -1.904540508985519409e-01 5.293867588043212891e-01
-7.081304192543029785e-01 3.999035358428955078e-01 1.715412735939025879e-02
-5.150822997093200684e-01 -3.885066211223602295e-01 -2.425961792469024658e-01
-7.685098052024841309e-01 4.124647974967956543e-01 2.825564146041870117e-01
3.022266924381256104e-01 -1.183978021144866943e-01 -2.549707889556884766e-03
-2.980627119541168213e-01 2.991864085197448730e-01 -1.898708641529083252e-01
-7.731956243515014648e-01 -3.031979501247406006e-01 -8.306092023849487305e-02
2.755756080150604248e-01 5.411411821842193604e-02 4.958193600177764893e-01
-9.208142757415771484e-03 -8.564544469118118286e-02 -5.065650343894958496e-01
-6.553332209587097168e-01 4.153937995433807373e-01 1.269805729389190674e-01
-2.324522137641906738e-01 -3.016556501388549805e-01 6.696246862411499023e-01
-2.181046009063720703e-01 -4.274411499500274658e-01 1.709208786487579346e-01
-8.623233437538146973e-02 3.137713074684143066e-01 2.697064876556396484e-01
-1.085732817649841309e+00 -3.614291921257972717e-02 -2.202539145946502686e-01
-3.712796270847320557e-01 -4.169940054416656494e-01 1.102230697870254517e-01
-6.390108466148376465e-01 1.594298928976058960e-01 -5.990996360778808594e-01
-3.958815336227416992e-01 2.354206442832946777e-01 -4.181795716285705566e-01
-6.086766719818115234e-01 4.191226363182067871e-01 1.701804697513580322e-01
-4.574530720710754395e-01 -2.415970712900161743e-01 -6.723051071166992188e-01
-5.540363192558288574e-01 -3.224272727966308594e-01 -5.052832365036010742e-01
2.621490657329559326e-01 6.201798841357231140e-02 2.045838236808776855e-01
-5.261964797973632812e-01 -3.711425140500068665e-02 9.321637749671936035e-01
-1.703781634569168091e-01 -3.659009039402008057e-01 5.004642009735107422e-01
-1.919413506984710693e-01 2.956889569759368896e-01 8.060140609741210938e-01
-3.193491697311401367e-02 -2.595722675323486328e-01 7.550141811370849609e-01
-5.779720544815063477e-01 -5.764292925596237183e-02 8.841382861137390137e-01
-9.920134544372558594e-01 3.368197381496429443e-01 2.346098423004150391e-01
-5.125641226768493652e-01 -3.127027153968811035e-01 4.737276434898376465e-01
-3.134600222110748291e-01 3.051742315292358398e-01 8.533744215965270996e-01
-6.139665842056274414e-02 -3.282466232776641846e-01 6.100144386291503906e-01
-3.258108496665954590e-01 3.934877514839172363e-01 4.159798920154571533e-01
-1.135839700698852539e+00 1.180152297019958496e-01 -1.234547495841979980e-01
-8.468420505523681641e-01 2.479370534420013428e-01 -4.189369678497314453e-01
-7.274919748306274414e-01 -3.145080208778381348e-01 -2.781692743301391602e-01
-8.456045389175415039e-01 -1.102073639631271362e-01 5.461981296539306641e-01
-6.870503425598144531e-01 -1.821802258491516113e-01 -6.623744368553161621e-01
-9.965993165969848633e-01 3.341291248798370361e-01 7.066772878170013428e-02
-5.296680927276611328e-01 1.945894509553909302e-01 9.692911505699157715e-01
-8.483572006225585938e-01 -2.634530365467071533e-01 -1.039865314960479736e-01
-3.904326856136322021e-01 4.034532308578491211e-01 2.619062066078186035e-01
-2.523905038833618164e-01 9.268639981746673584e-02 1.041696786880493164e+00
1.394771039485931396e-01 -3.804523944854736328e-01 1.533266305923461914e-01
1.222519576549530029e-01 6.387750059366226196e-02 8.604554533958435059e-01
2.579632103443145752e-01 -2.576900124549865723e-01 4.902522861957550049e-01
-5.833082199096679688e-01 -3.764280676841735840e-01 -3.462006151676177979e-02
-5.802311301231384277e-01 -2.350391298532485962e-01 -6.532542705535888672e-01
-7.740416526794433594e-01 -3.857487440109252930e-02 7.372371554374694824e-01
-1.118924021720886230e+00 3.530662506818771362e-02 -1.915579438209533691e-01
-1.051244378089904785e+00 -6.189795583486557007e-02 -3.100804984569549561e-01
4.343956708908081055e-02 -2.996339797973632812e-01 6.436758041381835938e-01
1.189406216144561768e-01 1.412358731031417847e-01 -1.580481231212615967e-02
1.111883223056793213e-01 2.134474962949752808e-01 4.552426040172576904e-01
-6.125730872154235840e-01 -8.986124396324157715e-02 -7.349217534065246582e-01
-9.743307828903198242e-01 3.494480550289154053e-01 1.627339124679565430e-01
-1.835109442472457886e-01 3.548564016819000244e-01 3.504279255867004395e-01
-9.285652637481689453e-01 3.682354688644409180e-01 2.585231661796569824e-01
-2.363077402114868164e-01 3.534035086631774902e-01 6.284572482109069824e-01
2.028515636920928955e-01 1.187028288841247559e-01 6.057416796684265137e-01
-1.182178556919097900e-01 3.215038776397705078e-01 5.847502946853637695e-01
-2.310249209403991699e-02 2.910983860492706299e-01 4.167511761188507080e-01
-9.040840864181518555e-01 -1.146685481071472168e-01 -5.405577421188354492e-01
-1.016594529151916504e+00 2.555814683437347412e-01 4.457412064075469971e-01
-8.498386740684509277e-01 -2.040288895368576050e-01 -4.678846597671508789e-01
3.288716077804565430e-02 2.620117962360382080e-01 3.909423351287841797e-01
-3.253645598888397217e-01 -4.264039993286132812e-01 -1.590622067451477051e-01
-3.988800346851348877e-01 -4.781169444322586060e-02 9.787136912345886230e-01
2.956122159957885742e-03 2.215860038995742798e-01 7.757819294929504395e-01
-1.001884102821350098e+00 1.651174128055572510e-01 -4.138261675834655762e-01
-4.739949107170104980e-02 3.011098206043243408e-01 4.748178124427795410e-01
-1.108983457088470459e-01 -1.674997434020042419e-02 -5.571487545967102051e-01
-7.235312461853027344e-01 -4.304906353354454041e-02 7.833936214447021484e-01
-1.212450563907623291e-01 1.737485229969024658e-01 -3.213128745555877686e-01
-9.486590623855590820e-01 -1.777582168579101562e-01 -3.035620152950286865e-01
-1.850968152284622192e-01 -2.458174526691436768e-01 -6.116454601287841797e-01
-2.737856507301330566e-01 3.615919351577758789e-01 1.128704175353050232e-01
-5.375933647155761719e-02 2.922571897506713867e-01 2.014141827821731567e-01
-8.356600999832153320e-01 3.611306548118591309e-01 5.326545834541320801e-01
2.836841344833374023e-02 1.691631823778152466e-01 8.506531715393066406e-01
-7.112511992454528809e-02 -1.224182099103927612e-01 -5.715591907501220703e-01
-5.695909261703491211e-01 -2.840109467506408691e-01 -5.830683708190917969e-01
-1.094659924507141113e+00 -3.831778094172477722e-02 -4.278317093849182129e-03
-1.123320579528808594e+00 9.865844994783401489e-02 -2.027683556079864502e-01
-7.739155292510986328e-01 -2.096043378114700317e-01 4.351810216903686523e-01
-7.785304784774780273e-01 8.448367565870285034e-02 8.186363577842712402e-01
-2.516182661056518555e-01 3.107912540435791016e-01 -1.003067195415496826e-01
-6.420194506645202637e-01 4.229575991630554199e-01 3.619295358657836914e-01
3.276941180229187012e-02 -2.595635652542114258e-01 7.320976853370666504e-01
-5.026386976242065430e-01 -7.790043205022811890e-02 -7.420422434806823730e-01
-9.043413400650024414e-02 5.346068739891052246e-02 1.014745831489562988e+00
2.420499920845031738e-02 -2.590336501598358154e-01 -4.502201080322265625e-01
-7.480753660202026367e-01 -9.322403371334075928e-02 -6.885958313941955566e-01
-6.540806293487548828e-01 4.166857302188873291e-01 4.442039132118225098e-01
-1.520349681377410889e-01 6.472622603178024292e-02 1.031221508979797363e+00
-2.182610332965850830e-01 -1.702134460210800171e-01 8.998047709465026855e-01
-2.915579080581665039e-01 -2.032892405986785889e-01 8.404636979103088379e-01
-9.684305191040039062e-01 3.305569291114807129e-01 -6.057848036289215088e-02
1.431631743907928467e-01 -3.003962337970733643e-01 -2.504948973655700684e-01
-4.398369789123535156e-02 -4.191987812519073486e-01 -1.259575486183166504e-01
5.668222904205322266e-02 4.077824205160140991e-02 -3.246790766716003418e-01
-5.302652716636657715e-02 2.861157953739166260e-01 6.396762132644653320e-01
1.019876003265380859e-01 -2.138624936342239380e-01 7.675865888595581055e-01
-9.962114095687866211e-01 -1.552998423576354980e-01 -4.219247400760650635e-02
-2.895799577236175537e-01 1.746344566345214844e-01 -4.650166034698486328e-01
3.099958002567291260e-01 -8.008584380149841309e-02 5.766996741294860840e-02
2.505042850971221924e-01 -3.169973492622375488e-01 1.867171674966812134e-01
-1.054153084754943848e+00 1.745007000863552094e-02 -3.957455754280090332e-01
-9.236246347427368164e-01 2.943885922431945801e-01 5.627750158309936523e-01
-8.383550047874450684e-01 -1.880147010087966919e-01 3.807242512702941895e-01
-9.554557800292968750e-01 -1.286330968141555786e-01 2.870411872863769531e-01
-9.478265047073364258e-02 -3.677488565444946289e-01 4.945822954177856445e-01
-3.110330700874328613e-01 3.730854392051696777e-01 6.148841381072998047e-01
-4.124273359775543213e-01 1.277958601713180542e-01 -5.946615338325500488e-01
-9.178879857063293457e-02 3.209301829338073730e-01 3.551324605941772461e-01
-3.647787868976593018e-01 -3.640861809253692627e-01 -4.698235392570495605e-01
1.903362572193145752e-01 2.207623049616813660e-02 7.955733537673950195e-01
-4.910874962806701660e-01 4.164634644985198975e-01 4.391857981681823730e-01
-8.708536624908447266e-01 -2.384193800389766693e-02 -6.263883709907531738e-01
-1.093967795372009277e+00 4.515201598405838013e-02 -3.043311536312103271e-01
1.949228942394256592e-01 -7.014383375644683838e-02 8.047236204147338867e-01
3.281306326389312744e-01 -2.927948161959648132e-02 3.973169624805450439e-01
7.962977886199951172e-02 1.541543751955032349e-01 8.071868419647216797e-01
-9.469336271286010742e-02 2.325389087200164795e-01 -1.463425159454345703e-01
-4.228267371654510498e-01 -3.934460282325744629e-01 -3.334962725639343262e-01
-1.662420630455017090e-01 -4.004286527633666992e-01 -3.283487260341644287e-01
-7.060249447822570801e-01 3.674860298633575439e-01 -1.447293162345886230e-01
-1.013014912605285645e-01 -1.774245500564575195e-01 8.905870914459228516e-01
-9.497199058532714844e-01 2.715218439698219299e-02 -5.548177361488342285e-01
-1.825576126575469971e-01 -3.352451324462890625e-01 5.935589075088500977e-01
-5.090839266777038574e-01 -3.668771982192993164e-01 -3.878079652786254883e-01
-1.131244003772735596e-01 -3.498635590076446533e-01 5.546650886535644531e-01
-8.454611301422119141e-01 -2.424943447113037109e-01 -3.478510379791259766e-01
-2.641205191612243652e-01 3.791077435016632080e-01 4.070227742195129395e-01
-2.878421843051910400e-01 -4.334737360477447510e-01 -6.819252669811248779e-02
-6.655609607696533203e-01 -1.466748118400573730e-01 7.027789950370788574e-01
-5.798941254615783691e-01 -3.722809851169586182e-01 5.537956207990646362e-02
-8.005777597427368164e-01 2.862890362739562988e-01 -3.606398701667785645e-01
-1.927372813224792480e-02 2.834376394748687744e-01 2.754131853580474854e-01
-6.569366455078125000e-01 3.064638376235961914e-01 -3.379202485084533691e-01
-3.748332858085632324e-01 -4.049215912818908691e-01 2.096698433160781860e-01
-3.954863548278808594e-01 -3.123318254947662354e-01 5.712494850158691406e-01
-1.135401964187622070e+00 5.650584772229194641e-02 -8.408138155937194824e-02
-5.153012275695800781e-01 3.894759714603424072e-01 6.449368000030517578e-01
