4.420045316219329834e-01 -1.345247477293014526e-01 -3.474447131156921387e-01
4.467852711677551270e-01 -1.817298233509063721e-01 -3.419598042964935303e-01
4.599002599716186523e-01 -6.632218509912490845e-02 -2.910006046295166016e-01
5.602585077285766602e-01 -1.604916006326675415e-01 -2.885155379772186279e-01
5.401594638824462891e-01 -1.797722429037094116e-01 -3.143456280231475830e-01
5.608711838722229004e-01 -1.981856226921081543e-01 -2.667506635189056396e-01
4.784124493598937988e-01 -5.803964287042617798e-02 -2.770338058471679688e-01
4.523136913776397705e-01 -1.467973440885543823e-01 -3.531703948974609375e-01
4.454936087131500244e-01 -1.438997983932495117e-01 -2.737692594528198242e-01
4.974940121173858643e-01 -1.699450612068176270e-01 -3.466667234897613525e-01
5.347788333892822266e-01 -2.178960144519805908e-01 -2.459703832864761353e-01
5.499305725097656250e-01 -1.188581213355064392e-01 -2.238507419824600220e-01
4.429320693016052246e-01 -1.905417293310165405e-01 -3.266549706459045410e-01
5.123003125190734863e-01 -1.701444834470748901e-01 -2.241368293762207031e-01
5.049962997436523438e-01 -1.432031691074371338e-01 -2.233088016510009766e-01
4.418146014213562012e-01 -1.157355755567550659e-01 -3.428029417991638184e-01
4.466754794120788574e-01 -9.989465773105621338e-02 -2.786290645599365234e-01
5.344644188880920410e-01 -1.373496800661087036e-01 -3.206251859664916992e-01
5.214518308639526367e-01 -1.459545195102691650e-01 -3.329312503337860107e-01
5.645239353179931641e-01 -1.185490936040878296e-01 -2.470709383487701416e-01
5.009301304817199707e-01 -5.438355356454849243e-02 -2.857216596603393555e-01
5.374066829681396484e-01 -1.060167551040649414e-01 -2.236189544200897217e-01
4.788589179515838623e-01 -2.309813946485519409e-01 -3.009924292564392090e-01
4.364580214023590088e-01 -1.779762506484985352e-01 -3.208222389221191406e-01
4.454885721206665039e-01 -9.055665880441665649e-02 -3.302668929100036621e-01
4.401121735572814941e-01 -8.964164555072784424e-02 -3.139200210571289062e-01
5.173277258872985840e-01 -2.116174846887588501e-01 -3.225178122520446777e-01
5.395898818969726562e-01 -1.506617367267608643e-01 -3.169319033622741699e-01
5.435505509376525879e-01 -1.878902614116668701e-01 -2.268956601619720459e-01
5.043407082557678223e-01 -1.854936182498931885e-01 -3.406787216663360596e-01
5.162279009819030762e-01 -5.862755328416824341e-02 -2.772527337074279785e-01
4.803723096847534180e-01 -1.927973031997680664e-01 -3.462790250778198242e-01
4.421847462654113770e-01 -9.732837975025177002e-02 -2.889855504035949707e-01
5.478520989418029785e-01 -1.743572205305099487e-01 -3.062312304973602295e-01
5.318347215652465820e-01 -8.507816493511199951e-02 -2.338779270648956299e-01
4.999664723873138428e-01 -2.377063781023025513e-01 -2.892009615898132324e-01
5.297495126724243164e-01 -2.327416986227035522e-01 -2.749950289726257324e-01
5.507733225822448730e-01 -2.023727744817733765e-01 -2.395128309726715088e-01
5.129216313362121582e-01 -5.882928520441055298e-02 -2.860795557498931885e-01
5.403838753700256348e-01 -2.191763818264007568e-01 -2.916752398014068604e-01
4.595770835876464844e-01 -1.932069659233093262e-01 -2.727256715297698975e-01
4.855551123619079590e-01 -8.507286012172698975e-02 -2.444619834423065186e-01
5.373181104660034180e-01 -1.264328360557556152e-01 -3.153040111064910889e-01
4.375438094139099121e-01 -1.308409571647644043e-01 -3.428198397159576416e-01
4.649497568607330322e-01 -2.079977095127105713e-01 -2.776607275009155273e-01
5.053589344024658203e-01 -8.851315826177597046e-02 -3.263262510299682617e-01
4.339979887008666992e-01 -1.665361970663070679e-01 -3.290983438491821289e-01
4.402154982089996338e-01 -9.137693792581558228e-02 -3.019525408744812012e-01
5.351934432983398438e-01 -1.658646613359451294e-01 -3.213384747505187988e-01
4.947872757911682129e-01 -1.771893650293350220e-01 -2.340694665908813477e-01
4.589054584503173828e-01 -1.494593173265457153e-01 -2.571937441825866699e-01
5.576594471931457520e-01 -1.012221872806549072e-01 -2.493453919887542725e-01
4.342155456542968750e-01 -1.191539764404296875e-01 -2.974991798400878906e-01
4.545675516128540039e-01 -1.332537680864334106e-01 -2.610212564468383789e-01
5.249249935150146484e-01 -2.253683209419250488e-01 -3.046090304851531982e-01
4.955061674118041992e-01 -5.713614076375961304e-02 -2.994958460330963135e-01
4.956792294979095459e-01 -7.616620510816574097e-02 -2.440509349107742310e-01
5.400741696357727051e-01 -7.982511818408966064e-02 -2.794577181339263916e-01
4.293999671936035156e-01 -1.339597553014755249e-01 -3.203414976596832275e-01
4.774282872676849365e-01 -1.555202901363372803e-01 -2.408477514982223511e-01
5.196169018745422363e-01 -2.009462565183639526e-01 -2.335247993469238281e-01
4.779159128665924072e-01 -2.136122882366180420e-01 -2.669512331485748291e-01
4.689346849918365479e-01 -5.962696671485900879e-02 -3.007082939147949219e-01
4.779555797576904297e-01 -5.829699337482452393e-02 -3.051843643188476562e-01
4.383073151111602783e-01 -1.827637255191802979e-01 -3.149455785751342773e-01
5.487518310546875000e-01 -9.315608441829681396e-02 -2.792557477951049805e-01
4.718089401721954346e-01 -1.712945997714996338e-01 -2.491471767425537109e-01
5.055964589118957520e-01 -2.378488779067993164e-01 -2.940243184566497803e-01
5.258960723876953125e-01 -1.795891076326370239e-01 -3.278427720069885254e-01
4.471060037612915039e-01 -1.996713429689407349e-01 -3.201844692230224609e-01
4.809071421623229980e-01 -1.799881607294082642e-01 -2.443645596504211426e-01
4.716019034385681152e-01 -6.748170405626296997e-02 -2.692233622074127197e-01
4.367055594921112061e-01 -1.183462738990783691e-01 -2.911013066768646240e-01
4.886201024055480957e-01 -8.599512279033660889e-02 -3.332298398017883301e-01
4.633869826793670654e-01 -2.067201137542724609e-01 -3.359387516975402832e-01
5.180301666259765625e-01 -2.283104360103607178e-01 -3.073672056198120117e-01
4.301429390907287598e-01 -1.331368535757064819e-01 -3.100695312023162842e-01
5.263630151748657227e-01 -1.767954081296920776e-01 -2.223896086215972900e-01
4.448451101779937744e-01 -8.577346801757812500e-02 -2.942406237125396729e-01
5.681021809577941895e-01 -1.665114760398864746e-01 -2.418019771575927734e-01
4.599378407001495361e-01 -2.067373394966125488e-01 -2.844336926937103271e-01
4.972898364067077637e-01 -2.088703066110610962e-01 -2.475533783435821533e-01
5.590689778327941895e-01 -1.245239973068237305e-01 -2.294751256704330444e-01
4.899348616600036621e-01 -1.944751441478729248e-01 -3.436696231365203857e-01
5.288360118865966797e-01 -1.710249632596969604e-01 -3.266718983650207520e-01
5.307777523994445801e-01 -2.263822257518768311e-01 -2.560433149337768555e-01
5.094400048255920410e-01 -1.319718658924102783e-01 -3.393880426883697510e-01
4.531389474868774414e-01 -7.624030858278274536e-02 -3.213162422180175781e-01
4.514172077178955078e-01 -8.630767464637756348e-02 -2.792599797248840332e-01
5.404556393623352051e-01 -9.500895440578460693e-02 -2.303451001644134521e-01
4.300786256790161133e-01 -1.261567473411560059e-01 -3.134381473064422607e-01
5.630685687065124512e-01 -1.687075346708297729e-01 -2.323038876056671143e-01
5.061219930648803711e-01 -6.323198229074478149e-02 -3.027856051921844482e-01
4.546653032302856445e-01 -6.960099190473556519e-02 -3.007960915565490723e-01
4.910042285919189453e-01 -7.214137166738510132e-02 -2.493873834609985352e-01
5.075107216835021973e-01 -2.256326377391815186e-01 -2.569994926452636719e-01
5.564936399459838867e-01 -1.589451283216476440e-01 -2.951821982860565186e-01
5.382857322692871094e-01 -1.334058344364166260e-01 -3.159615695476531982e-01
5.181155204772949219e-01 -1.343095302581787109e-01 -3.339759409427642822e-01
4.787023365497589111e-01 -2.239682674407958984e-01 -2.786315083503723145e-01
5.488998889923095703e-01 -9.941243380308151245e-02 -2.857711911201477051e-01
5.234559774398803711e-01 -1.136767417192459106e-01 -2.207310497760772705e-01
5.531139373779296875e-01 -2.022005915641784668e-01 -2.860831618309020996e-01
5.005267262458801270e-01 -2.168347090482711792e-01 -3.284063935279846191e-01
4.608862400054931641e-01 -2.152751386165618896e-01 -2.967967987060546875e-01
5.626296997070312500e-01 -1.936233341693878174e-01 -2.509297132492065430e-01
5.558955669403076172e-01 -1.303899884223937988e-01 -2.915274500846862793e-01
5.226461291313171387e-01 -1.855938434600830078e-01 -2.259017229080200195e-01
5.470919013023376465e-01 -9.342451393604278564e-02 -2.367280423641204834e-01
4.962282478809356689e-01 -1.468824595212936401e-01 -3.479568362236022949e-01
4.915232956409454346e-01 -2.354516983032226562e-01 -2.885192036628723145e-01
4.482249617576599121e-01 -9.901432693004608154e-02 -3.393076658248901367e-01
4.500778913497924805e-01 -1.885132193565368652e-01 -2.844057083129882812e-01
5.245648622512817383e-01 -2.334560602903366089e-01 -2.689221501350402832e-01
5.615196228027343750e-01 -1.935171037912368774e-01 -2.720153629779815674e-01
5.589566230773925781e-01 -1.974959224462509155e-01 -2.455522269010543823e-01
5.025417208671569824e-01 -8.063174784183502197e-02 -3.228918313980102539e-01
4.937991499900817871e-01 -6.667818129062652588e-02 -2.528322041034698486e-01
5.555438995361328125e-01 -1.301553547382354736e-01 -2.244268655776977539e-01
5.468002557754516602e-01 -1.823165714740753174e-01 -3.058629930019378662e-01
4.889861345291137695e-01 -1.115534529089927673e-01 -3.445827960968017578e-01
5.013976097106933594e-01 -1.789880692958831787e-01 -2.310954630374908447e-01
5.693582296371459961e-01 -1.487264484167098999e-01 -2.619115412235260010e-01
5.381077527999877930e-01 -2.277163714170455933e-01 -2.749597132205963135e-01
5.226537585258483887e-01 -7.004577666521072388e-02 -2.948235869407653809e-01
4.517146050930023193e-01 -8.615958690643310547e-02 -3.319777846336364746e-01
4.975659549236297607e-01 -2.014324963092803955e-01 -2.427614480257034302e-01
4.846638441085815430e-01 -6.958010047674179077e-02 -2.554875016212463379e-01
4.871501624584197998e-01 -5.665203183889389038e-02 -3.015484809875488281e-01
4.550088047981262207e-01 -1.403492540121078491e-01 -3.537049293518066406e-01
4.809210598468780518e-01 -1.116844564676284790e-01 -2.387824803590774536e-01
5.331813693046569824e-01 -1.702356040477752686e-01 -2.201022058725357056e-01
5.641184449195861816e-01 -1.818453967571258545e-01 -2.408196479082107544e-01
5.249238610267639160e-01 -1.556461006402969360e-01 -2.184228897094726562e-01
4.593451321125030518e-01 -2.144154012203216553e-01 -3.198792040348052979e-01
4.385270774364471436e-01 -1.802452504634857178e-01 -3.287103176116943359e-01
5.555331110954284668e-01 -9.636029601097106934e-02 -2.557944655418395996e-01
5.673974752426147461e-01 -1.773985326290130615e-01 -2.634506821632385254e-01
4.656707048416137695e-01 -1.825425773859024048e-01 -2.593767940998077393e-01
4.538159668445587158e-01 -1.411916017532348633e-01 -2.622082233428955078e-01
4.623152017593383789e-01 -1.654662191867828369e-01 -3.537008166313171387e-01
5.088440775871276855e-01 -2.365483343601226807e-01 -2.762157320976257324e-01
4.303576946258544922e-01 -1.516240388154983521e-01 -3.233659267425537109e-01
4.398916363716125488e-01 -1.815131604671478271e-01 -3.027641475200653076e-01
5.302186608314514160e-01 -1.231602057814598083e-01 -3.215159177780151367e-01
5.164826512336730957e-01 -6.316429376602172852e-02 -2.541303932666778564e-01
5.396600961685180664e-01 -1.273891180753707886e-01 -2.184128463268280029e-01
5.519911050796508789e-01 -9.051020443439483643e-02 -2.597620487213134766e-01
4.799899756908416748e-01 -1.594911366701126099e-01 -3.532186746597290039e-01
4.740002155303955078e-01 -1.924364715814590454e-01 -2.557694911956787109e-01
5.031902790069580078e-01 -1.019370108842849731e-01 -3.343925178050994873e-01
5.359909534454345703e-01 -2.220211923122406006e-01 -2.517414093017578125e-01
5.180572867393493652e-01 -2.311925590038299561e-01 -2.620085477828979492e-01
5.114555358886718750e-01 -2.074873745441436768e-01 -3.286677002906799316e-01
5.476436018943786621e-01 -1.110202223062515259e-01 -2.255193591117858887e-01
4.826353490352630615e-01 -2.227853238582611084e-01 -2.721073031425476074e-01
5.359292030334472656e-01 -7.999663800001144409e-02 -2.881910800933837891e-01
4.742549955844879150e-01 -1.285154819488525391e-01 -2.418444454669952393e-01
4.376779794692993164e-01 -9.511712938547134399e-02 -3.085355460643768311e-01
5.463320016860961914e-01 -1.998693943023681641e-01 -2.346098721027374268e-01
5.578104257583618164e-01 -1.804327964782714844e-01 -2.894496619701385498e-01
5.423568487167358398e-01 -1.154613271355628967e-01 -3.056681752204895020e-01
5.350810885429382324e-01 -2.053772658109664917e-01 -3.103679120540618896e-01
4.356240034103393555e-01 -1.614855527877807617e-01 -2.984453439712524414e-01
4.662913382053375244e-01 -1.072733774781227112e-01 -3.477129936218261719e-01
4.697123169898986816e-01 -1.255217939615249634e-01 -3.526046276092529297e-01
5.135130286216735840e-01 -1.691328734159469604e-01 -3.382456600666046143e-01
4.889882504940032959e-01 -7.459342479705810547e-02 -3.248901665210723877e-01
5.433844327926635742e-01 -1.611570864915847778e-01 -2.190974652767181396e-01
4.506107270717620850e-01 -7.510279864072799683e-02 -3.138248920440673828e-01
5.599377155303955078e-01 -1.767734140157699585e-01 -2.315821498632431030e-01
4.560764431953430176e-01 -1.966545283794403076e-01 -3.396874964237213135e-01
4.344431161880493164e-01 -1.136779412627220154e-01 -3.315629363059997559e-01
5.510122179985046387e-01 -2.153462916612625122e-01 -2.638905346393585205e-01
5.241743922233581543e-01 -2.251477837562561035e-01 -2.528244853019714355e-01
5.157811045646667480e-01 -2.208267450332641602e-01 -2.490243762731552124e-01
5.022079944610595703e-01 -1.864312291145324707e-01 -2.332844436168670654e-01
4.846725165843963623e-01 -2.166665494441986084e-01 -2.632040083408355713e-01
5.251857042312622070e-01 -6.512557715177536011e-02 -2.809094190597534180e-01
5.490498542785644531e-01 -1.306521147489547729e-01 -3.022074401378631592e-01
4.583481252193450928e-01 -1.395983546972274780e-01 -2.568573951721191406e-01
5.286375284194946289e-01 -2.285902798175811768e-01 -2.955031991004943848e-01
5.273763537406921387e-01 -2.073474824428558350e-01 -2.362654209136962891e-01
5.122276544570922852e-01 -1.819537281990051270e-01 -2.274900674819946289e-01
4.718427360057830811e-01 -1.619824767112731934e-01 -2.466969043016433716e-01
4.505218863487243652e-01 -2.042080909013748169e-01 -3.053250908851623535e-01
4.978248476982116699e-01 -1.259602159261703491e-01 -2.268891036510467529e-01
4.336045384407043457e-01 -1.076873540878295898e-01 -3.220708072185516357e-01
4.412941038608551025e-01 -8.989843726158142090e-02 -3.213429749011993408e-01
5.486749410629272461e-01 -1.102314740419387817e-01 -2.941116094589233398e-01
5.031645298004150391e-01 -2.340992093086242676e-01 -2.723704278469085693e-01
5.531955957412719727e-01 -1.000658050179481506e-01 -2.768060266971588135e-01
5.069236159324645996e-01 -1.573726832866668701e-01 -2.237820625305175781e-01
5.468781590461730957e-01 -8.319031447172164917e-02 -2.578981220722198486e-01
4.434205293655395508e-01 -1.801932007074356079e-01 -2.914348244667053223e-01
4.539387524127960205e-01 -2.069096565246582031e-01 -3.250404298305511475e-01
5.613590478897094727e-01 -1.864808201789855957e-01 -2.788434922695159912e-01
4.452559947967529297e-01 -1.439051032066345215e-01 -3.501084446907043457e-01
5.580247640609741211e-01 -1.840153038501739502e-01 -2.331253290176391602e-01
5.616252422332763672e-01 -1.724408566951751709e-01 -2.841316163539886475e-01
5.247302055358886719e-01 -1.472972035408020020e-01 -2.177702784538269043e-01
5.584800839424133301e-01 -1.364590376615524292e-01 -2.256314754486083984e-01
5.154782533645629883e-01 -7.591691613197326660e-02 -3.093265593051910400e-01
4.914370477199554443e-01 -1.006328761577606201e-01 -2.348440289497375488e-01
5.391287207603454590e-01 -2.117724120616912842e-01 -3.012140691280364990e-01
4.825891256332397461e-01 -2.315038144588470459e-01 -3.096183836460113525e-01
4.692123234272003174e-01 -1.113287806510925293e-01 -2.481575012207031250e-01
4.562833309173583984e-01 -1.633679568767547607e-01 -2.631226480007171631e-01
4.776771068572998047e-01 -6.226437538862228394e-02 -2.696803808212280273e-01
5.422004461288452148e-01 -1.178951933979988098e-01 -2.209262847900390625e-01
5.509416460990905762e-01 -1.479130238294601440e-01 -3.029498457908630371e-01
4.638175368309020996e-01 -1.734097599983215332e-01 -3.523526489734649658e-01
4.877815246582031250e-01 -1.759155541658401489e-01 -3.492891788482666016e-01
4.521866738796234131e-01 -7.921434938907623291e-02 -2.848937213420867920e-01
4.938627779483795166e-01 -5.647160112857818604e-02 -2.678395509719848633e-01
5.318172574043273926e-01 -9.594582766294479370e-02 -2.270286530256271362e-01
5.212917923927307129e-01 -2.027773261070251465e-01 -3.242497146129608154e-01
5.521435141563415527e-01 -1.040191799402236938e-01 -2.331435382366180420e-01
5.650101304054260254e-01 -1.207332760095596313e-01 -2.604387700557708740e-01
4.670391976833343506e-01 -9.009338170289993286e-02 -2.570444345474243164e-01
4.388659596443176270e-01 -1.009871214628219604e-01 -2.946076393127441406e-01
4.459878206253051758e-01 -1.661849915981292725e-01 -2.785731554031372070e-01
4.316354393959045410e-01 -1.572260260581970215e-01 -3.273098468780517578e-01
4.659689068794250488e-01 -2.217395603656768799e-01 -3.011818230152130127e-01
5.524378418922424316e-01 -2.124279737472534180e-01 -2.725280821323394775e-01
4.961240887641906738e-01 -1.146518588066101074e-01 -3.425561487674713135e-01
4.808084070682525635e-01 -6.385672837495803833e-02 -3.155647814273834229e-01
4.983115196228027344e-01 -2.370980679988861084e-01 -2.984031736850738525e-01
4.885113537311553955e-01 -1.578890979290008545e-01 -3.509935140609741211e-01
4.989531636238098145e-01 -2.287428230047225952e-01 -2.657201886177062988e-01
4.416050910949707031e-01 -1.903465241193771362e-01 -3.162131011486053467e-01
5.460387468338012695e-01 -1.981479823589324951e-01 -3.007713556289672852e-01
5.063793659210205078e-01 -2.141248136758804321e-01 -2.465777546167373657e-01
5.447360277175903320e-01 -1.477698683738708496e-01 -2.181562334299087524e-01
5.075438022613525391e-01 -1.732359677553176880e-01 -3.413113951683044434e-01
5.257634520530700684e-01 -2.135791033506393433e-01 -2.410039901733398438e-01
4.384528994560241699e-01 -1.679595410823822021e-01 -3.391433656215667725e-01
4.811032712459564209e-01 -7.871462404727935791e-02 -3.305345475673675537e-01
5.132393836975097656e-01 -9.211070835590362549e-02 -2.294741570949554443e-01
5.679323077201843262e-01 -1.426293700933456421e-01 -2.665933072566986084e-01
5.532794594764709473e-01 -9.349690377712249756e-02 -2.498304843902587891e-01
5.475979447364807129e-01 -8.584435284137725830e-02 -2.492840886116027832e-01
5.685306787490844727e-01 -1.682596653699874878e-01 -2.642877101898193359e-01
5.433070063591003418e-01 -1.658953130245208740e-01 -3.127788603305816650e-01
5.019865036010742188e-01 -5.738596618175506592e-02 -2.954206466674804688e-01
5.398606657981872559e-01 -8.375644683837890625e-02 -2.398153543472290039e-01
4.429825246334075928e-01 -1.913243532180786133e-01 -3.072194457054138184e-01
5.222511887550354004e-01 -2.356301546096801758e-01 -2.774104177951812744e-01
4.746793210506439209e-01 -1.060710474848747253e-01 -2.446933090686798096e-01
5.290151238441467285e-01 -7.147961109876632690e-02 -2.472982704639434814e-01
5.648164153099060059e-01 -1.407745927572250366e-01 -2.327508330345153809e-01
5.138266682624816895e-01 -8.030467480421066284e-02 -2.358475625514984131e-01
5.108766555786132812e-01 -6.670309603214263916e-02 -2.481256723403930664e-01
4.872186481952667236e-01 -6.378895044326782227e-02 -2.597668766975402832e-01
4.323465824127197266e-01 -1.323003619909286499e-01 -3.346747159957885742e-01
4.633823633193969727e-01 -2.135970592498779297e-01 -2.874253094196319580e-01
4.869915246963500977e-01 -5.437231063842773438e-02 -2.794153690338134766e-01
4.544196426868438721e-01 -2.101584076881408691e-01 -3.075419366359710693e-01
5.148817300796508789e-01 -1.956050992012023926e-01 -2.320835739374160767e-01
4.367183446884155273e-01 -1.453602910041809082e-01 -2.899426221847534180e-01
4.901426732540130615e-01 -2.152724266052246094e-01 -3.326173126697540283e-01
5.210185647010803223e-01 -2.216961085796356201e-01 -3.121312558650970459e-01
5.675225257873535156e-01 -1.555533558130264282e-01 -2.372926175594329834e-01
4.635088741779327393e-01 -1.443109363317489624e-01 -2.517800927162170410e-01
4.314816594123840332e-01 -1.536257565021514893e-01 -3.092744648456573486e-01
5.191353559494018555e-01 -1.809835433959960938e-01 -3.327190279960632324e-01
4.740868508815765381e-01 -8.901554346084594727e-02 -2.510820031166076660e-01
5.499733686447143555e-01 -2.149266004562377930e-01 -2.563963830471038818e-01
5.590990781784057617e-01 -1.395937055349349976e-01 -2.884898185729980469e-01
4.565388858318328857e-01 -8.578045666217803955e-02 -2.717496454715728760e-01
4.448146820068359375e-01 -1.096186339855194092e-01 -2.777969241142272949e-01
5.387476682662963867e-01 -2.056580483913421631e-01 -2.360217273235321045e-01
5.653533339500427246e-01 -1.872195005416870117e-01 -2.527984976768493652e-01
5.346149802207946777e-01 -7.012479752302169800e-02 -2.656436264514923096e-01
5.450956821441650391e-01 -2.172906100749969482e-01 -2.851673364639282227e-01
5.678086876869201660e-01 -1.311726272106170654e-01 -2.474031746387481689e-01
5.493729114532470703e-01 -1.699669212102890015e-01 -2.224856764078140259e-01
5.085480809211730957e-01 -6.955239921808242798e-02 -3.088521957397460938e-01
5.305488705635070801e-01 -2.232806384563446045e-01 -3.007904589176177979e-01
4.802376627922058105e-01 -2.042407393455505371e-01 -3.409806489944458008e-01
5.485270023345947266e-01 -1.663287878036499023e-01 -3.063746690750122070e-01
5.606681704521179199e-01 -1.208004206418991089e-01 -2.768908441066741943e-01
5.572967529296875000e-01 -1.074870228767395020e-01 -2.741715013980865479e-01
5.253997445106506348e-01 -1.971461027860641479e-01 -3.233345746994018555e-01
5.561252832412719727e-01 -1.042802482843399048e-01 -2.388983517885208130e-01
5.061296224594116211e-01 -1.927227675914764404e-01 -2.340574860572814941e-01
4.671992361545562744e-01 -1.905624568462371826e-01 -3.472245633602142334e-01
4.336731433868408203e-01 -1.088827848434448242e-01 -3.065700531005859375e-01
5.079342722892761230e-01 -1.640797108411788940e-01 -3.420047760009765625e-01
5.073895454406738281e-01 -5.527117103338241577e-02 -2.776343524456024170e-01
4.379150271415710449e-01 -1.568758040666580200e-01 -3.424723148345947266e-01
4.475541114807128906e-01 -1.961833536624908447e-01 -3.298527598381042480e-01
4.501206278800964355e-01 -1.316836625337600708e-01 -3.514178991317749023e-01
5.338132381439208984e-01 -1.878472417593002319e-01 -3.188802599906921387e-01
5.024580359458923340e-01 -1.106491386890411377e-01 -3.380956947803497314e-01
5.290737152099609375e-01 -2.013516724109649658e-01 -2.324042171239852905e-01
4.603505134582519531e-01 -1.585928946733474731e-01 -2.572416365146636963e-01
4.940287768840789795e-01 -6.797302514314651489e-02 -3.164540529251098633e-01
5.046064853668212891e-01 -9.537637233734130859e-02 -2.305943071842193604e-01
4.922741353511810303e-01 -1.867272853851318359e-01 -2.389337420463562012e-01
4.556213617324829102e-01 -2.039225995540618896e-01 -2.893449068069458008e-01
4.325454831123352051e-01 -1.351694017648696899e-01 -2.998063266277313232e-01
4.788909852504730225e-01 -1.874977052211761475e-01 -2.490006238222122192e-01
5.114794373512268066e-01 -5.853892117738723755e-02 -2.624632716178894043e-01
4.642854630947113037e-01 -1.666411012411117554e-01 -2.550717592239379883e-01
4.983275234699249268e-01 -1.942255795001983643e-01 -3.408536612987518311e-01
5.162746310234069824e-01 -1.519076079130172729e-01 -3.369953036308288574e-01
5.070368051528930664e-01 -1.243548467755317688e-01 -2.230824679136276245e-01
4.349159896373748779e-01 -1.718345582485198975e-01 -3.117232024669647217e-01
4.622063636779785156e-01 -1.220427304506301880e-01 -2.532183825969696045e-01
4.818615913391113281e-01 -2.201927602291107178e-01 -3.288139104843139648e-01
5.286382436752319336e-01 -1.062362939119338989e-01 -3.168612718582153320e-01
4.372990131378173828e-01 -9.911322593688964844e-02 -3.243365883827209473e-01
5.579177141189575195e-01 -1.138280853629112244e-01 -2.335975617170333862e-01
5.657086372375488281e-01 -1.716255545616149902e-01 -2.739763855934143066e-01
4.867232441902160645e-01 -1.511694043874740601e-01 -3.516505658626556396e-01
4.470037817955017090e-01 -1.640140414237976074e-01 -3.489492535591125488e-01
4.951721727848052979e-01 -2.329726517200469971e-01 -2.760852277278900146e-01
4.866631031036376953e-01 -1.271758824586868286e-01 -3.493053913116455078e-01
5.049620866775512695e-01 -1.362596452236175537e-01 -2.232236862182617188e-01
4.354652166366577148e-01 -1.478483825922012329e-01 -3.407161235809326172e-01
4.935977160930633545e-01 -8.077432215213775635e-02 -3.277532160282135010e-01
5.476311445236206055e-01 -2.190175056457519531e-01 -2.719065845012664795e-01
4.851536154747009277e-01 -2.086186558008193970e-01 -2.559983134269714355e-01
4.338675141334533691e-01 -1.466215103864669800e-01 -2.973869144916534424e-01
4.622814059257507324e-01 -1.857870817184448242e-01 -2.647957205772399902e-01
5.142518877983093262e-01 -1.559156477451324463e-01 -2.209782600402832031e-01
5.105980634689331055e-01 -1.031905561685562134e-01 -3.302987515926361084e-01
4.972943961620330811e-01 -2.193968594074249268e-01 -2.560184001922607422e-01
5.087983012199401855e-01 -1.140848845243453979e-01 -2.239578068256378174e-01
4.970849752426147461e-01 -9.649543464183807373e-02 -3.352116942405700684e-01
5.396749377250671387e-01 -1.614486873149871826e-01 -3.170153498649597168e-01
4.739291667938232422e-01 -6.667849421501159668e-02 -3.194272816181182861e-01
5.259478688240051270e-01 -1.887986212968826294e-01 -3.256442844867706299e-01
5.414081215858459473e-01 -2.229579687118530273e-01 -2.588341832160949707e-01
5.022809505462646484e-01 -2.220558822154998779e-01 -3.234666585922241211e-01
4.752881228923797607e-01 -9.251251816749572754e-02 -3.404030203819274902e-01
5.326805114746093750e-01 -8.145060390233993530e-02 -2.950669527053833008e-01
5.035624504089355469e-01 -2.372714281082153320e-01 -2.818216383457183838e-01
4.352594614028930664e-01 -1.106365174055099487e-01 -2.984677553176879883e-01
5.008931756019592285e-01 -1.619941443204879761e-01 -3.458060324192047119e-01
5.399606823921203613e-01 -7.527434080839157104e-02 -2.650709152221679688e-01
4.460652470588684082e-01 -1.980760395526885986e-01 -3.101803362369537354e-01
4.502644538879394531e-01 -7.423803210258483887e-02 -3.038121163845062256e-01
5.050715804100036621e-01 -7.242944091558456421e-02 -2.434123456478118896e-01
4.731126129627227783e-01 -6.158345192670822144e-02 -3.110291659832000732e-01
4.639874994754791260e-01 -1.340961456298828125e-01 -3.541631102561950684e-01
5.149519443511962891e-01 -1.618692129850387573e-01 -3.378312289714813232e-01
4.312483370304107666e-01 -1.165478676557540894e-01 -3.140234351158142090e-01
5.216145515441894531e-01 -1.630058437585830688e-01 -3.330983221530914307e-01
4.513163864612579346e-01 -1.699120700359344482e-01 -2.718492746353149414e-01
4.647978246212005615e-01 -1.175236031413078308e-01 -3.509661853313446045e-01
5.447102189064025879e-01 -1.493248343467712402e-01 -3.110764622688293457e-01
4.889808297157287598e-01 -1.401599049568176270e-01 -3.503270149230957031e-01
4.578970074653625488e-01 -2.008083313703536987e-01 -2.815257906913757324e-01
4.855798482894897461e-01 -1.755656301975250244e-01 -2.394424825906753540e-01
4.847273826599121094e-01 -1.578736901283264160e-01 -2.358835190534591675e-01
5.499688982963562012e-01 -1.984840482473373413e-01 -2.946219146251678467e-01
5.362933278083801270e-01 -1.994936764240264893e-01 -2.315433621406555176e-01
4.796772003173828125e-01 -7.590122520923614502e-02 -2.541073858737945557e-01
4.343507587909698486e-01 -1.580320447683334351e-01 -3.360783159732818604e-01
5.055162310600280762e-01 -2.065012753009796143e-01 -2.416434139013290405e-01
5.649999380111694336e-01 -1.413215398788452148e-01 -2.758097350597381592e-01
5.632928013801574707e-01 -1.138252317905426025e-01 -2.558446228504180908e-01
4.653510749340057373e-01 -1.343753784894943237e-01 -2.495289444923400879e-01
5.575858354568481445e-01 -2.005544453859329224e-01 -2.765309810638427734e-01
5.422622561454772949e-01 -2.046040594577789307e-01 -3.021937906742095947e-01
4.791156947612762451e-01 -2.239330261945724487e-01 -3.236190676689147949e-01
4.417860805988311768e-01 -1.378735750913619995e-01 -2.792412638664245605e-01
4.294798374176025391e-01 -1.424882560968399048e-01 -3.204694986343383789e-01
4.956197738647460938e-01 -8.586644381284713745e-02 -2.384290546178817749e-01
4.710318148136138916e-01 -1.127416789531707764e-01 -3.492849469184875488e-01
4.423255622386932373e-01 -1.617609858512878418e-01 -2.832791805267333984e-01
5.362931489944458008e-01 -1.115556657314300537e-01 -3.112118840217590332e-01
5.698168277740478516e-01 -1.654281318187713623e-01 -2.535519003868103027e-01
4.621390700340270996e-01 -1.996526122093200684e-01 -2.740071713924407959e-01
5.409697294235229492e-01 -7.805391401052474976e-02 -2.512127757072448730e-01
4.769696891307830811e-01 -9.887555986642837524e-02 -2.449267804622650146e-01
4.620085954666137695e-01 -8.108931034803390503e-02 -2.678833901882171631e-01
4.576706290245056152e-01 -1.284509450197219849e-01 -3.528189063072204590e-01
5.153023600578308105e-01 -2.361555397510528564e-01 -2.941349446773529053e-01
5.573961138725280762e-01 -1.696884781122207642e-01 -2.928009927272796631e-01
4.612523317337036133e-01 -6.562881171703338623e-02 -3.099457919597625732e-01
5.299746990203857422e-01 -6.692071259021759033e-02 -2.727788388729095459e-01
5.642447471618652344e-01 -1.305190175771713257e-01 -2.349595725536346436e-01
4.726511240005493164e-01 -5.763587355613708496e-02 -2.905872464179992676e-01
5.340381860733032227e-01 -1.559197604656219482e-01 -3.227163851261138916e-01
4.570630192756652832e-01 -1.702657490968704224e-01 -3.518062829971313477e-01
4.693705439567565918e-01 -8.008795231580734253e-02 -3.327346742153167725e-01
5.612680912017822266e-01 -1.574967354536056519e-01 -2.277796268463134766e-01
4.885627031326293945e-01 -1.666353642940521240e-01 -3.503679931163787842e-01
5.008130669593811035e-01 -1.331587284803390503e-01 -3.443999290466308594e-01
5.121113061904907227e-01 -8.701543509960174561e-02 -3.207126557826995850e-01
4.728465676307678223e-01 -1.376105695962905884e-01 -2.428983151912689209e-01
4.703224301338195801e-01 -2.174524962902069092e-01 -2.810280323028564453e-01
4.772070050239562988e-01 -1.158984079957008362e-01 -3.492534756660461426e-01
4.860272705554962158e-01 -1.861616820096969604e-01 -3.473939001560211182e-01
4.575342237949371338e-01 -1.593943238258361816e-01 -3.537572324275970459e-01
4.737563729286193848e-01 -1.536020487546920776e-01 -3.545201420783996582e-01
5.050275325775146484e-01 -4.906639158725738525e-01 3.072501122951507568e-01
4.059252142906188965e-01 -6.292656660079956055e-01 3.394879698753356934e-01
5.053011178970336914e-01 -7.897008061408996582e-01 3.003128170967102051e-01
4.241171479225158691e-01 -5.303915739059448242e-01 3.364303708076477051e-01
5.035459995269775391e-01 -7.004131078720092773e-01 2.614826560020446777e-01
4.600720107555389404e-01 -4.894131124019622803e-01 3.094443976879119873e-01
4.235394895076751709e-01 -6.613576412200927734e-01 2.964615523815155029e-01
4.447383880615234375e-01 -6.044732928276062012e-01 2.826696038246154785e-01
4.439419806003570557e-01 -5.771383047103881836e-01 3.584758639335632324e-01
4.156261086463928223e-01 -5.578565001487731934e-01 3.231097161769866943e-01
4.598121047019958496e-01 -5.196011662483215332e-01 2.924700975418090820e-01
4.745238125324249268e-01 -5.289742350578308105e-01 3.481507599353790283e-01
4.484456181526184082e-01 -5.861579179763793945e-01 3.592968285083770752e-01
4.761405587196350098e-01 -6.836214661598205566e-01 3.521516919136047363e-01
4.920044243335723877e-01 -6.111177206039428711e-01 2.638271152973175049e-01
5.295392870903015137e-01 -5.251464843750000000e-01 2.953116297721862793e-01
5.016604661941528320e-01 -6.190945506095886230e-01 2.617858946323394775e-01
4.223926067352294922e-01 -5.573698878288269043e-01 3.487077653408050537e-01
4.667611122131347656e-01 -4.810056090354919434e-01 3.225626051425933838e-01
5.102148056030273438e-01 -6.958969235420227051e-01 3.364793658256530762e-01
4.601101875305175781e-01 -5.011233091354370117e-01 3.411276340484619141e-01
5.474386811256408691e-01 -6.278800964355468750e-01 3.081136345863342285e-01
4.407912790775299072e-01 -7.721794843673706055e-01 3.211138546466827393e-01
4.435704350471496582e-01 -5.002007484436035156e-01 3.168715536594390869e-01
4.090156257152557373e-01 -6.661043763160705566e-01 3.414408564567565918e-01
4.984906315803527832e-01 -7.930041551589965820e-01 2.921268045902252197e-01
5.466098785400390625e-01 -6.577273011207580566e-01 2.707239687442779541e-01
5.302419662475585938e-01 -6.135195493698120117e-01 3.278077542781829834e-01
5.241944789886474609e-01 -5.659133195877075195e-01 3.284829556941986084e-01
4.765298366546630859e-01 -5.232741832733154297e-01 2.843207418918609619e-01
5.107544660568237305e-01 -6.002566814422607422e-01 3.413185179233551025e-01
4.906635284423828125e-01 -5.706682205200195312e-01 3.491945266723632812e-01
5.306637287139892578e-01 -6.916018724441528320e-01 2.634650468826293945e-01
4.783842563629150391e-01 -7.849110960960388184e-01 3.227280676364898682e-01
4.798840880393981934e-01 -6.107852458953857422e-01 2.666921913623809814e-01
5.388247966766357422e-01 -6.496208906173706055e-01 3.190595507621765137e-01
5.020083189010620117e-01 -7.386907935142517090e-01 3.320301473140716553e-01
4.049905836582183838e-01 -6.451088190078735352e-01 3.297318816184997559e-01
4.701505899429321289e-01 -5.524517297744750977e-01 3.534357547760009766e-01
5.009273886680603027e-01 -6.040365695953369141e-01 3.467147052288055420e-01
4.916647970676422119e-01 -7.514587640762329102e-01 2.706956267356872559e-01
4.894076287746429443e-01 -7.923878431320190430e-01 3.126269578933715820e-01
5.019409656524658203e-01 -5.723618865013122559e-01 2.676778435707092285e-01
4.777140319347381592e-01 -7.117037177085876465e-01 3.474929928779602051e-01
5.337551236152648926e-01 -5.367230772972106934e-01 3.056569397449493408e-01
5.358133912086486816e-01 -7.104564905166625977e-01 3.127889633178710938e-01
4.057288467884063721e-01 -6.526614427566528320e-01 3.359177112579345703e-01
4.264734387397766113e-01 -6.513450741767883301e-01 2.935251593589782715e-01
4.511071741580963135e-01 -5.636461377143859863e-01 3.571708500385284424e-01
4.981312453746795654e-01 -5.980374217033386230e-01 2.642540335655212402e-01
4.425117671489715576e-01 -5.520723462104797363e-01 2.931269407272338867e-01
4.897853434085845947e-01 -5.254297256469726562e-01 3.420759439468383789e-01
4.712013304233551025e-01 -4.999927282333374023e-01 2.958990633487701416e-01
4.742435514926910400e-01 -7.739254832267761230e-01 3.298307359218597412e-01
4.589160382747650146e-01 -5.219344496726989746e-01 3.488738238811492920e-01
4.843210875988006592e-01 -5.631165504455566406e-01 3.507845103740692139e-01
4.695798754692077637e-01 -5.171441435813903809e-01 2.889056801795959473e-01
4.141967296600341797e-01 -5.572266578674316406e-01 3.313136994838714600e-01
4.447952508926391602e-01 -6.656438112258911133e-01 2.800140678882598877e-01
4.195228219032287598e-01 -6.922717094421386719e-01 3.038049936294555664e-01
4.973972737789154053e-01 -7.507876157760620117e-01 3.307498097419738770e-01
4.806076288223266602e-01 -7.450258731842041016e-01 2.718073725700378418e-01
4.892188012599945068e-01 -5.052775740623474121e-01 3.358448147773742676e-01
4.137813448905944824e-01 -7.023450136184692383e-01 3.166363537311553955e-01
4.219480156898498535e-01 -7.353121638298034668e-01 3.170325458049774170e-01
5.075185298919677734e-01 -7.568185329437255859e-01 2.713355720043182373e-01
4.801892042160034180e-01 -6.700358390808105469e-01 2.644279897212982178e-01
4.531186819076538086e-01 -5.776021480560302734e-01 2.814627289772033691e-01
4.740945100784301758e-01 -6.718087196350097656e-01 3.539691865444183350e-01
5.372107625007629395e-01 -5.873973965644836426e-01 3.186529874801635742e-01
4.307376146316528320e-01 -5.551847219467163086e-01 3.527933061122894287e-01
4.583700597286224365e-01 -7.299106121063232422e-01 3.469085097312927246e-01
5.236217975616455078e-01 -6.589928865432739258e-01 2.604495882987976074e-01
4.289275705814361572e-01 -5.209875702857971191e-01 3.365662693977355957e-01
4.845800399780273438e-01 -6.529592871665954590e-01 2.632364928722381592e-01
4.291752278804779053e-01 -7.045274972915649414e-01 3.490602374076843262e-01
4.971421062946319580e-01 -5.571920871734619141e-01 3.447670340538024902e-01
4.501730203628540039e-01 -7.009121179580688477e-01 2.787789404392242432e-01
4.051369428634643555e-01 -6.390949487686157227e-01 3.358418047428131104e-01
4.792078733444213867e-01 -5.760156512260437012e-01 2.711769640445709229e-01
4.213904440402984619e-01 -7.294408679008483887e-01 3.333373963832855225e-01
4.325338006019592285e-01 -6.773742437362670898e-01 3.550648093223571777e-01
4.906612038612365723e-01 -4.839252233505249023e-01 3.053967356681823730e-01
4.447398781776428223e-01 -5.267063975334167480e-01 3.494229614734649658e-01
4.214043915271759033e-01 -6.469604372978210449e-01 3.546177148818969727e-01
4.926505684852600098e-01 -4.978301823139190674e-01 3.305241763591766357e-01
5.476653575897216797e-01 -7.001619935035705566e-01 2.954978048801422119e-01
4.478944838047027588e-01 -5.184720754623413086e-01 3.472400903701782227e-01
4.930752813816070557e-01 -6.983036398887634277e-01 2.626450359821319580e-01
5.049927830696105957e-01 -5.426614880561828613e-01 2.742914855480194092e-01
5.438340902328491211e-01 -5.912138819694519043e-01 3.100444972515106201e-01
5.110127329826354980e-01 -7.249565720558166504e-01 2.642420530319213867e-01
4.630424678325653076e-01 -6.070110201835632324e-01 3.588736057281494141e-01
5.267436504364013672e-01 -6.756991147994995117e-01 3.279224336147308350e-01
4.305179715156555176e-01 -6.150487065315246582e-01 2.917007803916931152e-01
4.130399823188781738e-01 -6.029026508331298828e-01 3.491913974285125732e-01
5.461465120315551758e-01 -6.751067638397216797e-01 3.066717684268951416e-01
5.300485491752624512e-01 -5.864298343658447266e-01 3.260734677314758301e-01
4.485083222389221191e-01 -5.107362866401672363e-01 3.442419469356536865e-01
4.148740768432617188e-01 -6.081459522247314453e-01 3.086965084075927734e-01
5.151722431182861328e-01 -5.033237338066101074e-01 2.978879511356353760e-01
4.565983116626739502e-01 -6.500886678695678711e-01 3.587433695793151855e-01
4.307518601417541504e-01 -5.579689145088195801e-01 3.012227714061737061e-01
4.983341395854949951e-01 -5.090903043746948242e-01 2.865011394023895264e-01
5.294027924537658691e-01 -7.398927211761474609e-01 2.726618945598602295e-01
4.191718995571136475e-01 -7.264093160629272461e-01 3.171535432338714600e-01
4.612760841846466064e-01 -6.755068898200988770e-01 3.560227453708648682e-01
4.501384496688842773e-01 -6.829967498779296875e-01 3.559833467006683350e-01
4.357285797595977783e-01 -7.659054398536682129e-01 3.169687092304229736e-01
4.544804096221923828e-01 -7.201584577560424805e-01 2.786256968975067139e-01
5.031078457832336426e-01 -6.285576224327087402e-01 3.457914292812347412e-01
4.706708788871765137e-01 -6.487231254577636719e-01 3.565675616264343262e-01
4.659036099910736084e-01 -7.426077127456665039e-01 3.427855372428894043e-01
5.425620079040527344e-01 -6.212788224220275879e-01 3.150750398635864258e-01
4.754682481288909912e-01 -6.334156990051269531e-01 3.560768663883209229e-01
4.496459662914276123e-01 -6.958492994308471680e-01 3.541067838668823242e-01
5.023015141487121582e-01 -6.826378107070922852e-01 3.425182998180389404e-01
4.238263964653015137e-01 -6.001707315444946289e-01 2.993813157081604004e-01
4.099054932594299316e-01 -5.768072009086608887e-01 3.345763683319091797e-01
4.328582882881164551e-01 -6.165946722030639648e-01 3.590589761734008789e-01
5.104921460151672363e-01 -7.726147770881652832e-01 2.784664332866668701e-01
4.051182866096496582e-01 -6.367381215095520020e-01 3.274154365062713623e-01
4.704476296901702881e-01 -7.249498367309570312e-01 3.465134799480438232e-01
4.667004048824310303e-01 -6.199899911880493164e-01 3.583064377307891846e-01
5.409487485885620117e-01 -5.984635949134826660e-01 3.154343068599700928e-01
4.551363885402679443e-01 -4.969330132007598877e-01 3.069403171539306641e-01
4.559430181980133057e-01 -7.488415241241455078e-01 2.834790647029876709e-01
4.896369874477386475e-01 -7.469063401222229004e-01 3.353632092475891113e-01
4.652569293975830078e-01 -5.642392635345458984e-01 3.558622598648071289e-01
4.781227111816406250e-01 -5.651265978813171387e-01 2.733676433563232422e-01
4.742632508277893066e-01 -6.609341502189636230e-01 3.548932373523712158e-01
5.062436461448669434e-01 -7.301839590072631836e-01 3.319382965564727783e-01
4.073081910610198975e-01 -6.068496704101562500e-01 3.408547043800354004e-01
4.815530478954315186e-01 -4.992630481719970703e-01 2.930924892425537109e-01
4.965822994709014893e-01 -7.108712196350097656e-01 2.632018625736236572e-01
4.952352046966552734e-01 -7.238044142723083496e-01 3.389431834220886230e-01
4.483956396579742432e-01 -6.644358038902282715e-01 3.580843508243560791e-01
5.427876114845275879e-01 -6.656957268714904785e-01 2.677326798439025879e-01
4.316735863685607910e-01 -6.078474521636962891e-01 3.586778044700622559e-01
5.283918380737304688e-01 -5.295320749282836914e-01 3.117818534374237061e-01
4.598540067672729492e-01 -4.845349192619323730e-01 3.167222440242767334e-01
5.056827068328857422e-01 -7.136766910552978516e-01 2.626809775829315186e-01
5.445777773857116699e-01 -5.663270950317382812e-01 2.916682064533233643e-01
4.551639258861541748e-01 -6.254656910896301270e-01 3.598518669605255127e-01
4.890086054801940918e-01 -7.409714460372924805e-01 2.689038813114166260e-01
5.040972232818603516e-01 -5.001242160797119141e-01 2.927712500095367432e-01
4.097319245338439941e-01 -6.472973227500915527e-01 3.456428647041320801e-01
4.664352238178253174e-01 -6.434684991836547852e-01 2.693297564983367920e-01
4.691315889358520508e-01 -4.812095165252685547e-01 3.137443661689758301e-01
4.301489889621734619e-01 -7.237917780876159668e-01 3.439838290214538574e-01
4.140555262565612793e-01 -5.950130224227905273e-01 3.121472895145416260e-01
5.145797133445739746e-01 -6.117771267890930176e-01 2.620328664779663086e-01
4.112678170204162598e-01 -6.962794661521911621e-01 3.336865305900573730e-01
4.125742912292480469e-01 -5.759062767028808594e-01 3.431128561496734619e-01
4.182277321815490723e-01 -6.790571808815002441e-01 3.036186397075653076e-01
5.014249086380004883e-01 -5.753102898597717285e-01 3.447405993938446045e-01
5.448040962219238281e-01 -7.189811468124389648e-01 2.860167622566223145e-01
4.162902235984802246e-01 -7.201489210128784180e-01 3.270966410636901855e-01
4.870867431163787842e-01 -6.140410304069519043e-01 3.527050316333770752e-01
4.270926415920257568e-01 -7.299790382385253906e-01 3.035752475261688232e-01
5.507208108901977539e-01 -6.153917908668518066e-01 3.000873327255249023e-01
5.041572451591491699e-01 -6.389678716659545898e-01 2.603629529476165771e-01
5.449955463409423828e-01 -6.895852088928222656e-01 3.054277300834655762e-01
4.810015261173248291e-01 -6.768029332160949707e-01 3.515635132789611816e-01
4.841084182262420654e-01 -4.817357659339904785e-01 3.216007053852081299e-01
5.437373518943786621e-01 -5.746099352836608887e-01 2.818388938903808594e-01
5.152399539947509766e-01 -6.757249236106872559e-01 2.598912119865417480e-01
5.214959979057312012e-01 -6.392352581024169922e-01 3.345884978771209717e-01
5.055065155029296875e-01 -5.631671547889709473e-01 2.693051397800445557e-01
5.381366610527038574e-01 -6.382883787155151367e-01 3.202902674674987793e-01
4.569002687931060791e-01 -5.913211107254028320e-01 3.591399490833282471e-01
4.661312401294708252e-01 -5.741640925407409668e-01 2.759675383567810059e-01
4.662312865257263184e-01 -7.572194933891296387e-01 2.802278697490692139e-01
4.831549227237701416e-01 -7.916145324707031250e-01 2.895258367061614990e-01
4.307179450988769531e-01 -6.938552856445312500e-01 2.920700311660766602e-01
4.835470020771026611e-01 -7.681763768196105957e-01 2.772375345230102539e-01
4.562194347381591797e-01 -7.110060453414916992e-01 2.764924466609954834e-01
4.645081162452697754e-01 -6.966465711593627930e-01 3.527987003326416016e-01
5.014028549194335938e-01 -6.674404740333557129e-01 3.445488512516021729e-01
5.480622649192810059e-01 -6.384524106979370117e-01 3.071085512638092041e-01
4.187540411949157715e-01 -6.454331874847412109e-01 3.013520538806915283e-01
4.068159461021423340e-01 -6.003341674804687500e-01 3.285056948661804199e-01
4.479553401470184326e-01 -6.034466028213500977e-01 3.601031601428985596e-01
4.842540323734283447e-01 -5.463016033172607422e-01 2.757427692413330078e-01
4.273684918880462646e-01 -7.010581493377685547e-01 2.962102890014648438e-01
4.451380670070648193e-01 -7.785642743110656738e-01 3.117437362670898438e-01
4.921170175075531006e-01 -7.659855484962463379e-01 2.747877836227416992e-01
4.226062893867492676e-01 -5.708180665969848633e-01 3.063864111900329590e-01
5.090897083282470703e-01 -5.247506499290466309e-01 3.307991027832031250e-01
5.523346662521362305e-01 -6.478498578071594238e-01 2.970677018165588379e-01
4.112538099288940430e-01 -6.250784397125244141e-01 3.484684526920318604e-01
5.296645760536193848e-01 -7.324923872947692871e-01 3.127607405185699463e-01
4.413678050041198730e-01 -6.264724135398864746e-01 3.600423038005828857e-01
5.214812755584716797e-01 -5.431672334671020508e-01 2.767841219902038574e-01
4.129378795623779297e-01 -6.124823093414306641e-01 3.498007357120513916e-01
4.312305748462677002e-01 -7.510343790054321289e-01 3.080663681030273438e-01
5.211067795753479004e-01 -6.507443189620971680e-01 3.343276381492614746e-01
4.411011338233947754e-01 -5.759068131446838379e-01 2.890029549598693848e-01
4.877842962741851807e-01 -4.923548400402069092e-01 2.964797019958496094e-01
5.292373299598693848e-01 -7.158975601196289062e-01 2.662590146064758301e-01
4.204611480236053467e-01 -5.454793572425842285e-01 3.418312966823577881e-01
4.126064479351043701e-01 -5.946874022483825684e-01 3.477129340171813965e-01
4.839452207088470459e-01 -7.690174579620361328e-01 3.295321762561798096e-01
5.374503731727600098e-01 -5.580613017082214355e-01 2.811595499515533447e-01
4.661378264427185059e-01 -5.271992087364196777e-01 3.494730889797210693e-01
5.064297914505004883e-01 -5.347698926925659180e-01 2.767249345779418945e-01
5.428007245063781738e-01 -5.630353689193725586e-01 3.012848496437072754e-01
4.644448161125183105e-01 -7.478781342506408691e-01 2.786493301391601562e-01
5.506117939949035645e-01 -6.897400617599487305e-01 2.870288789272308350e-01
4.888887703418731689e-01 -6.803355216979980469e-01 3.485298156738281250e-01
4.342057704925537109e-01 -7.107245922088623047e-01 2.913322150707244873e-01
4.314027130603790283e-01 -5.220237970352172852e-01 3.159724473953247070e-01
4.516997039318084717e-01 -6.340680122375488281e-01 2.765051126480102539e-01
4.271831512451171875e-01 -6.282923221588134766e-01 3.576008677482604980e-01
4.593718647956848145e-01 -7.680944800376892090e-01 2.876696586608886719e-01
4.470529854297637939e-01 -5.678992867469787598e-01 2.866322696208953857e-01
4.089522957801818848e-01 -6.410371065139770508e-01 3.156917989253997803e-01
4.758598506450653076e-01 -5.632723569869995117e-01 3.534156084060668945e-01
4.884500503540039062e-01 -5.433633327484130859e-01 3.464276492595672607e-01
4.352323710918426514e-01 -5.075408220291137695e-01 3.261978030204772949e-01
5.450274348258972168e-01 -5.732268691062927246e-01 3.012048304080963135e-01
5.511123538017272949e-01 -6.331308484077453613e-01 2.775659263134002686e-01
4.061701893806457520e-01 -6.619828939437866211e-01 3.265027701854705811e-01
4.232466518878936768e-01 -6.717340946197509766e-01 2.972480356693267822e-01
4.498878717422485352e-01 -6.565867662429809570e-01 2.769559621810913086e-01
4.815343022346496582e-01 -7.775580286979675293e-01 3.262288868427276611e-01
5.524908304214477539e-01 -6.489312052726745605e-01 2.798826694488525391e-01
