5.156674385070800781e-01 -3.538778126239776611e-01 -3.421581387519836426e-01
5.480319857597351074e-01 9.932300448417663574e-02 -4.628699421882629395e-01
7.549278140068054199e-01 -2.163435518741607666e-02 -3.785842955112457275e-01
7.598425149917602539e-01 3.822632133960723877e-02 -4.153079688549041748e-01
4.203196167945861816e-01 -7.437876611948013306e-02 -3.234000504016876221e-01
5.558177232742309570e-01 -2.133089303970336914e-01 -3.081947565078735352e-01
5.944558978080749512e-01 -1.499717235565185547e-01 -4.664312005043029785e-01
2.460089325904846191e-02 -4.368379116058349609e-01 -3.359384834766387939e-01
1.164171397686004639e-01 -3.988214731216430664e-01 -4.297312498092651367e-01
1.636974066495895386e-01 -2.285348474979400635e-01 -4.749014079570770264e-01
4.404422044754028320e-01 -1.731247305870056152e-01 -3.005708456039428711e-01
5.878103971481323242e-01 -1.725440472364425659e-01 -4.614570140838623047e-01
6.871458292007446289e-01 -2.451106905937194824e-02 -3.516413569450378418e-01
4.548115432262420654e-01 -2.912315130233764648e-01 -4.483146369457244873e-01
1.348699331283569336e-01 -2.239572107791900635e-01 -3.223440349102020264e-01
1.487799882888793945e-01 -1.952439099550247192e-01 -3.274018168449401855e-01
5.731170773506164551e-01 -2.664710581302642822e-02 -3.364062309265136719e-01
6.105867028236389160e-01 -2.357814908027648926e-01 -3.256282806396484375e-01
4.116193950176239014e-01 -1.406026184558868408e-01 -4.931380152702331543e-01
4.804410934448242188e-01 -3.805872201919555664e-01 -3.558914363384246826e-01
6.267801523208618164e-01 -1.129689663648605347e-01 -3.245698809623718262e-01
6.071996688842773438e-01 -1.635370552539825439e-01 -3.177343308925628662e-01
1.646387875080108643e-01 -1.763953864574432373e-01 -4.773079454898834229e-01
4.688051342964172363e-02 -2.493911981582641602e-01 -4.476087987422943115e-01
7.249785661697387695e-01 -4.596526920795440674e-02 -4.480880796909332275e-01
6.031387448310852051e-01 6.543070077896118164e-02 -3.770857453346252441e-01
3.994255661964416504e-01 -4.076314568519592285e-01 -3.880273997783660889e-01
7.444378137588500977e-01 -5.966614186763763428e-02 -3.672560155391693115e-01
7.027521729469299316e-01 -1.895351260900497437e-01 -3.826840519905090332e-01
3.012180328369140625e-03 -2.434510439634323120e-01 -4.210769236087799072e-01
4.062818586826324463e-01 -3.936086595058441162e-02 -4.970050156116485596e-01
1.279574483633041382e-01 -2.159897238016128540e-01 -4.699397087097167969e-01
1.508082151412963867e-01 -3.149899840354919434e-01 -4.591885209083557129e-01
3.370527327060699463e-01 -2.811223864555358887e-01 -4.680867493152618408e-01
5.622416734695434570e-01 3.638400137424468994e-02 -3.607484996318817139e-01
6.240707039833068848e-01 -1.210647821426391602e-02 -4.815132319927215576e-01
3.814899921417236328e-01 -1.714325845241546631e-01 -3.015111088752746582e-01
-2.303868532180786133e-03 -2.780287563800811768e-01 -4.245625436305999756e-01
5.667502284049987793e-01 -2.440511286258697510e-01 -4.396795630455017090e-01
2.335397601127624512e-01 -4.063292145729064941e-01 -2.982182800769805908e-01
-2.513229846954345703e-03 -4.352170825004577637e-01 -3.799595236778259277e-01
1.136695146560668945e-01 -4.056921601295471191e-01 -3.072834610939025879e-01
3.933533728122711182e-01 -2.226983010768890381e-01 -2.941873073577880859e-01
3.619859218597412109e-01 -8.251003921031951904e-02 -3.259916901588439941e-01
3.803040981292724609e-01 -2.814762294292449951e-01 -4.638948738574981689e-01
6.568266153335571289e-01 7.930451631546020508e-02 -3.909867703914642334e-01
4.523498117923736572e-01 -1.140984967350959778e-01 -4.939664602279663086e-01
6.227981448173522949e-01 -2.259721606969833374e-01 -4.264750480651855469e-01
4.493731856346130371e-01 -2.719413638114929199e-01 -2.954647243022918701e-01
2.871395349502563477e-01 -2.210979014635086060e-01 -2.985828816890716553e-01
5.914214253425598145e-02 -1.508861780166625977e-01 -4.178875386714935303e-01
-2.514243125915527344e-03 -2.352577596902847290e-01 -4.003679454326629639e-01
4.094793498516082764e-01 -4.108628034591674805e-01 -3.317200243473052979e-01
3.465006947517395020e-01 -7.780486345291137695e-02 -4.962394237518310547e-01
4.843762516975402832e-01 9.162941575050354004e-02 -4.104068875312805176e-01
1.089469194412231445e-01 -1.139508113265037537e-01 -4.437759220600128174e-01
5.912208557128906250e-01 -1.429916620254516602e-01 -3.158337175846099854e-01
3.937681913375854492e-01 2.252805233001708984e-02 -3.704781830310821533e-01
2.267431318759918213e-01 -4.441205263137817383e-01 -4.026709198951721191e-01
5.434435606002807617e-01 -2.751487493515014648e-01 -3.124967217445373535e-01
2.569773793220520020e-01 -4.577472507953643799e-01 -3.843227922916412354e-01
9.920772910118103027e-02 -2.131743133068084717e-01 -4.633485376834869385e-01
3.844340443611145020e-01 -1.370063275098800659e-01 -4.944949746131896973e-01
2.307949215173721313e-01 -2.876897156238555908e-01 -4.694808423519134521e-01
4.984928369522094727e-01 -3.228540122509002686e-01 -4.191806614398956299e-01
3.632296323776245117e-01 -3.400949835777282715e-01 -2.931339740753173828e-01
1.845765411853790283e-01 -4.286569654941558838e-01 -3.042383790016174316e-01
3.517549633979797363e-01 -3.473594784736633301e-01 -4.417189657688140869e-01
4.835014343261718750e-01 2.871708571910858154e-02 -3.606582880020141602e-01
3.484220802783966064e-01 -2.940669655799865723e-01 -2.900146842002868652e-01
4.938984811305999756e-01 2.353362739086151123e-02 -4.912930130958557129e-01
5.584943294525146484e-01 1.096871793270111084e-01 -4.217974245548248291e-01
5.033107995986938477e-01 -1.830415278673171997e-01 -4.759081304073333740e-01
6.081498861312866211e-01 -2.611613273620605469e-01 -4.106074869632720947e-01
2.412614971399307251e-01 -2.570899426937103271e-01 -4.764046967029571533e-01
5.726621150970458984e-01 -2.683797776699066162e-01 -4.241536855697631836e-01
6.707801222801208496e-01 -2.187539041042327881e-01 -3.974045217037200928e-01
4.225882291793823242e-01 -1.515185832977294922e-02 -4.954016506671905518e-01
3.708626925945281982e-01 -1.703980267047882080e-01 -4.907034039497375488e-01
1.823363751173019409e-01 -1.130526512861251831e-01 -3.509931564331054688e-01
2.833189964294433594e-01 -2.740499675273895264e-01 -2.922118008136749268e-01
3.129161000251770020e-01 -2.798813581466674805e-01 -2.906120717525482178e-01
3.424862027168273926e-02 -3.324616551399230957e-01 -3.284479975700378418e-01
7.014358043670654297e-02 -3.472455739974975586e-01 -3.157756030559539795e-01
5.213277339935302734e-01 -2.569665014743804932e-01 -3.046692013740539551e-01
6.229002475738525391e-01 -7.021415978670120239e-02 -3.302044868469238281e-01
3.093713521957397461e-02 -4.104281663894653320e-01 -3.275401592254638672e-01
3.403100371360778809e-02 -2.397860288619995117e-01 -3.541660308837890625e-01
4.545329213142395020e-01 8.568581938743591309e-02 -4.123608171939849854e-01
2.426423132419586182e-01 -4.487335681915283203e-02 -3.696461021900177002e-01
1.629068106412887573e-01 -3.176736831665039062e-01 -3.001541793346405029e-01
1.351712644100189209e-01 -4.136736690998077393e-01 -4.241785407066345215e-01
1.164870560169219971e-01 -2.649998366832733154e-01 -3.167626559734344482e-01
2.646670341491699219e-01 -1.562294214963912964e-01 -4.901325702667236328e-01
7.300901412963867188e-01 -1.715639233589172363e-02 -3.665552139282226562e-01
2.285874783992767334e-01 -3.819126486778259277e-01 -4.382380247116088867e-01
7.232210040092468262e-02 -4.605435729026794434e-01 -3.890919983386993408e-01
1.138758361339569092e-01 -1.402663290500640869e-01 -3.642717301845550537e-01
6.692352294921875000e-01 -9.333425015211105347e-02 -4.597749710083007812e-01
1.092312037944793701e-01 -3.559643030166625977e-01 -4.442993402481079102e-01
3.026705384254455566e-01 -3.904567360877990723e-01 -2.971596717834472656e-01
4.923791289329528809e-01 -8.650597184896469116e-02 -3.178229629993438721e-01
2.941554784774780273e-01 -1.066497340798377991e-01 -4.932571053504943848e-01
-2.524140477180480957e-02 -3.400034606456756592e-01 -4.071503877639770508e-01
-2.945065498352050781e-04 -3.211524486541748047e-01 -4.250941872596740723e-01
6.659531593322753906e-01 1.122103631496429443e-02 -4.727807343006134033e-01
5.992892384529113770e-02 -2.063269466161727905e-01 -4.493121206760406494e-01
1.078791022300720215e-01 -1.638183742761611938e-01 -3.539048135280609131e-01
4.896960258483886719e-01 -3.100202977657318115e-01 -3.065876960754394531e-01
4.775807559490203857e-01 -2.688512802124023438e-01 -2.986340522766113281e-01
5.158604383468627930e-01 -4.189895093441009521e-02 -4.944030642509460449e-01
1.210742294788360596e-01 -4.348998069763183594e-01 -4.122754633426666260e-01
2.575103342533111572e-01 -2.018487602472305298e-01 -4.857817292213439941e-01
1.432968080043792725e-01 -4.691258668899536133e-01 -3.228850662708282471e-01
1.584362983703613281e-02 -2.939811050891876221e-01 -4.346139729022979736e-01
3.454475998878479004e-01 -2.408432960510253906e-02 -3.532894849777221680e-01
1.990557909011840820e-01 -5.031737685203552246e-02 -3.859123885631561279e-01
7.712349891662597656e-01 3.441989421844482422e-03 -4.094395339488983154e-01
3.028931021690368652e-01 -1.795877665281295776e-01 -3.051272332668304443e-01
1.945908665657043457e-01 -2.063039690256118774e-01 -3.139883279800415039e-01
6.699867844581604004e-01 -1.500759720802307129e-01 -3.347282409667968750e-01
6.327766180038452148e-01 -1.494255512952804565e-01 -3.236765563488006592e-01
5.310031771659851074e-01 1.076708137989044189e-01 -4.490562081336975098e-01
7.034343481063842773e-02 -3.073757588863372803e-01 -3.207402825355529785e-01
6.544849872589111328e-01 -1.971089094877243042e-01 -4.267587065696716309e-01
3.197458982467651367e-01 -2.064051479101181030e-01 -2.985693514347076416e-01
2.920918464660644531e-01 -3.721111118793487549e-01 -4.378097355365753174e-01
3.499709069728851318e-01 -2.267314046621322632e-01 -4.813075661659240723e-01
8.212238550186157227e-02 -4.792407453060150146e-01 -3.673518300056457520e-01
1.475694775581359863e-01 -3.587744534015655518e-01 -3.003393113613128662e-01
6.620987653732299805e-01 -1.609323173761367798e-01 -4.406767487525939941e-01
2.570378184318542480e-01 -2.621298432350158691e-01 -2.952761054039001465e-01
4.894614219665527344e-02 -1.699693500995635986e-01 -4.276232719421386719e-01
1.024055778980255127e-01 -1.056947112083435059e-01 -4.148755073547363281e-01
6.634061932563781738e-01 -1.088926792144775391e-01 -3.329548835754394531e-01
4.657300114631652832e-01 9.247130155563354492e-02 -4.543769061565399170e-01
1.201497316360473633e-01 -3.109233975410461426e-01 -4.569960236549377441e-01
4.578418731689453125e-01 6.159892678260803223e-02 -3.855959773063659668e-01
4.470925331115722656e-01 1.385501027107238770e-02 -3.566964268684387207e-01
3.233141303062438965e-01 -9.268969297409057617e-04 -4.807644486427307129e-01
1.997167468070983887e-01 -1.300359666347503662e-01 -4.817391932010650635e-01
-3.205684423446655273e-01 -4.173630103468894958e-02 3.834947347640991211e-01
-3.106190562248229980e-01 -8.023664355278015137e-03 3.940264284610748291e-01
-4.581213593482971191e-01 -1.023674011230468750e-01 3.161380589008331299e-01
-4.247256219387054443e-01 2.970406226813793182e-02 3.266707062721252441e-01
-3.179424405097961426e-01 -5.244038254022598267e-02 3.903835713863372803e-01
-4.403409361839294434e-01 -1.713379621505737305e-01 3.451382815837860107e-01
-4.347601532936096191e-01 -6.415557861328125000e-02 3.146989345550537109e-01
-3.283736705780029297e-01 1.262656599283218384e-01 4.614781141281127930e-01
-4.320615530014038086e-01 5.551422759890556335e-02 4.257830381393432617e-01
-3.344690203666687012e-01 -1.002302579581737518e-02 3.660892844200134277e-01
-3.977075517177581787e-01 2.884235233068466187e-02 4.462168812751770020e-01
-4.150685071945190430e-01 8.056844025850296021e-02 3.408342599868774414e-01
-3.168327510356903076e-01 -7.008698582649230957e-02 4.124504923820495605e-01
-3.504410684108734131e-01 8.717816323041915894e-02 3.675638437271118164e-01
-3.443844020366668701e-01 -5.211587995290756226e-02 4.439903199672698975e-01
-4.018103182315826416e-01 -8.656781166791915894e-02 3.242128491401672363e-01
-4.233261942863464355e-01 -1.610018163919448853e-01 3.801017701625823975e-01
-3.502816259860992432e-01 1.323692798614501953e-01 3.822506368160247803e-01
-3.440543115139007568e-01 1.517677754163742065e-01 4.563926160335540771e-01
-3.567994534969329834e-01 2.680359780788421631e-02 4.593166708946228027e-01
-3.525715470314025879e-01 -4.470805078744888306e-02 4.463494718074798584e-01
-4.265880584716796875e-01 8.537424355745315552e-02 3.416830301284790039e-01
-4.007993042469024658e-01 -4.801866132766008377e-03 3.271479308605194092e-01
-3.114777207374572754e-01 -1.168155670166015625e-02 4.454873204231262207e-01
-4.793025255203247070e-01 -1.458457857370376587e-02 3.730037808418273926e-01
-3.939473330974578857e-01 1.564644575119018555e-01 3.768888115882873535e-01
-4.418842494487762451e-01 -6.371881347149610519e-03 3.190212547779083252e-01
-3.376010358333587646e-01 -2.278025262057781219e-02 4.516640901565551758e-01
-4.036191701889038086e-01 1.750604808330535889e-01 3.995243906974792480e-01
-4.518107771873474121e-01 1.135402992367744446e-01 3.774357736110687256e-01
-4.432566165924072266e-01 -4.450565204024314880e-02 4.100069403648376465e-01
-4.653581380844116211e-01 4.660262912511825562e-02 3.381652235984802246e-01
-2.978880107402801514e-01 4.705388471484184265e-02 4.185676276683807373e-01
-4.654519557952880859e-01 -1.883027330040931702e-02 3.204925060272216797e-01
-3.301786184310913086e-01 -8.742833137512207031e-02 3.828189373016357422e-01
-3.587617874145507812e-01 -9.772407263517379761e-02 4.278409183025360107e-01
-3.338119387626647949e-01 1.669740825891494751e-01 4.483702480792999268e-01
-4.157252907752990723e-01 1.458086520433425903e-01 4.222816526889801025e-01
-4.706111550331115723e-01 -3.139425069093704224e-02 3.852352201938629150e-01
-3.529449403285980225e-01 -1.089666262269020081e-01 4.212383031845092773e-01
-3.719809353351593018e-01 -1.458148807287216187e-01 4.005578160285949707e-01
-3.775420784950256348e-01 4.529228433966636658e-02 4.554785192012786865e-01
-4.070895314216613770e-01 2.722251042723655701e-02 4.414320588111877441e-01
-4.443928003311157227e-01 -8.280283212661743164e-02 4.007133543491363525e-01
-3.577604591846466064e-01 -7.342308759689331055e-02 3.490370213985443115e-01
-4.419481158256530762e-01 3.769662603735923767e-02 4.179944396018981934e-01
-4.750897884368896484e-01 4.302313551306724548e-02 3.489717543125152588e-01
-3.909764587879180908e-01 -1.151713356375694275e-01 4.170201122760772705e-01
-3.344660997390747070e-01 6.109065189957618713e-02 3.734046816825866699e-01
-3.548160493373870850e-01 1.288287341594696045e-02 4.578648805618286133e-01
-3.116558790206909180e-01 1.404829770326614380e-01 4.289629161357879639e-01
-3.353410363197326660e-01 9.061364084482192993e-02 3.792429268360137939e-01
-3.128482401371002197e-01 -5.140871927142143250e-02 4.016733169555664062e-01
-4.759154617786407471e-01 -1.182416155934333801e-01 3.352378606796264648e-01
-4.179827272891998291e-01 4.873767867684364319e-02 3.318077623844146729e-01
-3.589454889297485352e-01 -1.291983723640441895e-01 3.621750175952911377e-01
-4.217500388622283936e-01 -1.743884980678558350e-01 3.670203983783721924e-01
-4.258844554424285889e-01 -7.194758951663970947e-02 3.161829411983489990e-01
-4.061741530895233154e-01 1.339451968669891357e-01 4.349120855331420898e-01
-4.481807351112365723e-01 -4.840830713510513306e-02 3.145325183868408203e-01
-3.875069320201873779e-01 7.468434423208236694e-02 3.461140096187591553e-01
-4.352878332138061523e-01 1.291137635707855225e-01 4.066829085350036621e-01
-4.865547418594360352e-01 -5.316792801022529602e-02 3.390388786792755127e-01
-4.195965528488159180e-01 9.842231124639511108e-02 4.318604171276092529e-01
-3.956829905509948730e-01 1.712765544652938843e-01 3.888668119907379150e-01
-3.347302079200744629e-01 1.021322607994079590e-01 3.829436600208282471e-01
-4.217202663421630859e-01 1.484135538339614868e-01 4.135587513446807861e-01
-3.905638456344604492e-01 4.898034036159515381e-02 3.391707539558410645e-01
-2.981969714164733887e-01 6.309249997138977051e-02 4.200828075408935547e-01
-3.930910527706146240e-01 1.612650156021118164e-01 4.346654117107391357e-01
-3.893334567546844482e-01 3.875830024480819702e-02 4.505858719348907471e-01
-3.257302641868591309e-01 1.259956657886505127e-01 3.993731439113616943e-01
-3.418108820915222168e-01 -6.364349275827407837e-02 3.618620634078979492e-01
-4.576670229434967041e-01 1.730676367878913879e-02 3.253065943717956543e-01
-4.650318622589111328e-01 -4.413675516843795776e-02 3.901385664939880371e-01
-3.017890751361846924e-01 1.138591617345809937e-01 4.368963837623596191e-01
-4.486923217773437500e-01 -1.653134971857070923e-01 3.468789160251617432e-01
-3.737854659557342529e-01 -1.941979490220546722e-02 3.378894031047821045e-01
-4.009728729724884033e-01 9.473606199026107788e-02 4.446383714675903320e-01
-4.102841317653656006e-01 -2.028431929647922516e-02 3.225477337837219238e-01
-3.981046378612518311e-01 -1.497447639703750610e-01 3.380679190158843994e-01
-3.213158249855041504e-01 1.562891714274883270e-02 4.571583271026611328e-01
-3.636514544486999512e-01 -1.108746454119682312e-01 4.219328463077545166e-01
-4.167450070381164551e-01 3.831959143280982971e-02 3.297121822834014893e-01
-3.796160519123077393e-01 -1.167390495538711548e-01 3.398568034172058105e-01
-3.916637301445007324e-01 -1.715495586395263672e-01 3.609677255153656006e-01
-3.826741278171539307e-01 -1.609152704477310181e-01 3.569955229759216309e-01
-4.622834920883178711e-01 8.034396171569824219e-02 3.850551247596740723e-01
-4.236307740211486816e-01 1.521974802017211914e-01 3.812657296657562256e-01
-3.230261802673339844e-01 -6.202826648950576782e-02 3.846626281738281250e-01
-3.797138035297393799e-01 -6.184946745634078979e-02 4.377255141735076904e-01
-4.645238518714904785e-01 7.612614333629608154e-02 3.549546003341674805e-01
-3.010068535804748535e-01 -1.175000332295894623e-03 4.352491497993469238e-01
-3.966514170169830322e-01 1.119363531470298767e-01 4.453030228614807129e-01
-4.567210376262664795e-01 9.946680814027786255e-02 3.645122647285461426e-01
-2.963012456893920898e-01 4.266623780131340027e-02 4.397145509719848633e-01
-3.260675370693206787e-01 5.432597175240516663e-02 3.795792460441589355e-01
-4.508038759231567383e-01 -8.889351785182952881e-02 3.938236236572265625e-01
-3.327674269676208496e-01 -4.992595314979553223e-02 3.695123195648193359e-01
-3.340738415718078613e-01 1.749639809131622314e-01 4.257930219173431396e-01
-3.207506537437438965e-01 1.543622314929962158e-01 4.483820796012878418e-01
-4.679174125194549561e-01 -1.068528220057487488e-01 3.696824908256530762e-01
-4.039597809314727783e-01 6.172199919819831848e-02 3.378310799598693848e-01
-4.453980624675750732e-01 6.323968619108200073e-02 3.358592391014099121e-01
-3.103776276111602783e-01 -5.016656219959259033e-02 4.120891988277435303e-01
-4.675793647766113281e-01 6.084983423352241516e-02 3.829193711280822754e-01
-3.091959953308105469e-01 7.661582529544830322e-02 4.027594625949859619e-01
-3.629367649555206299e-01 9.495735913515090942e-02 4.606892466545104980e-01
-4.509862363338470459e-01 -1.705902256071567535e-02 3.177950680255889893e-01
-4.869957566261291504e-01 -3.700589761137962341e-02 3.433002829551696777e-01
-3.711841404438018799e-01 -3.918766975402832031e-02 3.386301100254058838e-01
-4.378108978271484375e-01 -1.535213142633438110e-01 3.757650554180145264e-01
-4.462086260318756104e-01 8.693687617778778076e-02 4.085579812526702881e-01
-4.495966136455535889e-01 -1.547598838806152344e-01 3.631774783134460449e-01
-4.754979610443115234e-01 1.135021448135375977e-02 3.789805769920349121e-01
-3.946373462677001953e-01 1.313333772122859955e-02 4.462066888809204102e-01
-3.316253423690795898e-01 -1.010641083121299744e-01 4.105561971664428711e-01
-3.187653422355651855e-01 -5.153134837746620178e-02 4.343731403350830078e-01
-3.907929956912994385e-01 1.042066887021064758e-01 4.492958486080169678e-01
-3.083152472972869873e-01 -2.248455211520195007e-02 4.377335309982299805e-01
-3.707463741302490234e-01 1.845501363277435303e-01 4.060106873512268066e-01
-4.784318506717681885e-01 -1.981722656637430191e-03 3.325162231922149658e-01
-3.012563288211822510e-01 3.487877547740936279e-04 4.127896726131439209e-01
-3.159367442131042480e-01 9.085210412740707397e-02 4.618918895721435547e-01
-4.108951985836029053e-01 1.219662949442863464e-01 4.343043267726898193e-01
-3.528371751308441162e-01 1.296894699335098267e-01 4.599814116954803467e-01
-3.552179932594299316e-01 1.089590862393379211e-01 3.708409368991851807e-01
-3.835414052009582520e-01 1.264962255954742432e-01 3.641225993633270264e-01
-4.083656370639801025e-01 -2.689711377024650574e-02 4.345122873783111572e-01
-4.591135978698730469e-01 6.701201945543289185e-02 3.961174190044403076e-01
-3.488944470882415771e-01 8.077017962932586670e-03 3.554301261901855469e-01
-3.646935224533081055e-01 1.228236332535743713e-01 3.704510331153869629e-01
-4.571415483951568604e-01 2.396316081285476685e-02 4.034631252288818359e-01
-3.912442326545715332e-01 -1.044843792915344238e-01 4.211798906326293945e-01
-4.137867093086242676e-01 1.250725984573364258e-01 3.582323789596557617e-01
-4.544952809810638428e-01 8.321312814950942993e-02 3.984126150608062744e-01
-3.472737371921539307e-01 1.623767763376235962e-01 4.524719119071960449e-01
-3.370611667633056641e-01 1.348864436149597168e-01 3.928479254245758057e-01
-3.280053436756134033e-01 1.242788042873144150e-03 3.725115060806274414e-01
-3.784461915493011475e-01 1.486677527427673340e-01 4.477063119411468506e-01
-4.612002372741699219e-01 -2.107475884258747101e-04 3.987296521663665771e-01
-3.169266581535339355e-01 7.671537995338439941e-02 4.623480141162872314e-01
-4.094497859477996826e-01 2.178361825644969940e-02 3.282272517681121826e-01
-3.634430170059204102e-01 -1.217182874679565430e-01 4.160073995590209961e-01
-4.623510837554931641e-01 -9.746872633695602417e-02 3.800272941589355469e-01
-4.665255248546600342e-01 -8.176037669181823730e-02 3.802391588687896729e-01
-4.748259782791137695e-01 -6.367872655391693115e-02 3.207898139953613281e-01
-4.217431843280792236e-01 -7.344046235084533691e-02 4.179281592369079590e-01
-3.257780373096466064e-01 3.884939104318618774e-02 3.776344358921051025e-01
-3.719448149204254150e-01 8.146508038043975830e-02 3.542760610580444336e-01
-3.543506860733032227e-01 8.763113617897033691e-02 4.629138708114624023e-01
-4.769241809844970703e-01 -3.848156705498695374e-02 3.238884806632995605e-01
-3.279726505279541016e-01 1.656746566295623779e-01 4.226321578025817871e-01
-4.074878990650177002e-01 -1.063750311732292175e-01 3.236483931541442871e-01
-3.552406728267669678e-01 -1.095087751746177673e-01 3.581845760345458984e-01
-4.545846879482269287e-01 -7.251887768507003784e-02 3.948568403720855713e-01
-3.954922854900360107e-01 7.808540016412734985e-02 4.484789967536926270e-01
-3.683305382728576660e-01 -9.491480141878128052e-02 3.437788188457489014e-01
-3.611434102058410645e-01 1.420449018478393555e-01 4.557751119136810303e-01
-3.694611489772796631e-01 1.811379343271255493e-01 4.365659654140472412e-01
-3.741709887981414795e-01 3.018248267471790314e-02 3.429069817066192627e-01
-4.330524206161499023e-01 1.440367251634597778e-01 3.836768269538879395e-01
-4.652703404426574707e-01 4.674705862998962402e-02 3.911284208297729492e-01
-3.370771408081054688e-01 3.562506288290023804e-02 4.621070623397827148e-01
-4.429942965507507324e-01 -1.294991374015808105e-01 3.852392733097076416e-01
-3.072841763496398926e-01 3.984532877802848816e-02 3.994362652301788330e-01
-3.187682032585144043e-01 -6.710820645093917847e-02 3.955365717411041260e-01
-3.376675248146057129e-01 -9.594229608774185181e-02 4.224404692649841309e-01
-3.847294449806213379e-01 7.525678724050521851e-02 4.535106122493743896e-01
-3.673505783081054688e-01 -4.802704229950904846e-02 4.439196586608886719e-01
-4.224956035614013672e-01 -1.486211717128753662e-01 3.888857066631317139e-01
-4.397959709167480469e-01 -1.111810058355331421e-01 3.951876461505889893e-01
-3.636882603168487549e-01 1.358171999454498291e-01 3.760906159877777100e-01
-4.559364616870880127e-01 -1.396528184413909912e-01 3.672969937324523926e-01
-4.747093021869659424e-01 -1.118395254015922546e-01 3.556025624275207520e-01
-3.345294296741485596e-01 1.123200953006744385e-01 3.863129615783691406e-01
-3.718772828578948975e-01 6.565036624670028687e-02 3.505698442459106445e-01
-4.226419627666473389e-01 8.691277354955673218e-02 4.309355914592742920e-01
-4.191644489765167236e-01 -9.147538989782333374e-02 3.184553682804107666e-01
-3.485570549964904785e-01 -7.681146729737520218e-03 3.546132445335388184e-01
-3.987642228603363037e-01 1.791156083345413208e-01 4.090117514133453369e-01
-4.822186827659606934e-01 -7.644714321941137314e-03 3.662056624889373779e-01
-4.680538773536682129e-01 -1.166376173496246338e-01 3.226991295814514160e-01
-3.480264544486999512e-01 1.819625496864318848e-01 4.169871211051940918e-01
-4.570933580398559570e-01 -3.648096695542335510e-02 3.994578123092651367e-01
-4.510129690170288086e-01 3.758866712450981140e-02 3.290003240108489990e-01
-3.926336765289306641e-01 -1.387112960219383240e-02 3.293292224407196045e-01
-4.807258248329162598e-01 -9.460849314928054810e-02 3.313583731651306152e-01
-3.133096098899841309e-01 5.747852381318807602e-03 3.894363641738891602e-01
-3.884680271148681641e-01 -1.321061104536056519e-01 4.096519947052001953e-01
-3.276627063751220703e-01 -7.639719545841217041e-02 3.821470737457275391e-01
-3.770810961723327637e-01 -2.596951276063919067e-02 4.466357231140136719e-01
-2.977110743522644043e-01 2.961968071758747101e-02 4.190187454223632812e-01
-3.901578783988952637e-01 -1.690117418766021729e-01 3.791641592979431152e-01
-3.035930693149566650e-01 1.054869033396244049e-02 4.450073540210723877e-01
-3.826397955417633057e-01 1.546518206596374512e-01 3.779286444187164307e-01
-3.997864127159118652e-01 -1.471257954835891724e-01 3.987390995025634766e-01
-3.556745648384094238e-01 6.733972579240798950e-02 4.624774158000946045e-01
-4.702398777008056641e-01 -1.221924126148223877e-01 3.576694726943969727e-01
-3.418920338153839111e-01 1.755386143922805786e-01 4.443880319595336914e-01
-3.658026158809661865e-01 6.884880363941192627e-02 4.601009190082550049e-01
-4.798232018947601318e-01 1.066017895936965942e-02 3.697327077388763428e-01
-3.156906962394714355e-01 5.484392866492271423e-02 3.904150426387786865e-01
-3.829465210437774658e-01 -7.733313739299774170e-02 4.325085878372192383e-01
-4.837175011634826660e-01 -2.463999576866626740e-02 3.342878818511962891e-01
-2.976025044918060303e-01 3.036542609333992004e-02 4.404569566249847412e-01
-4.791250228881835938e-01 -7.076543569564819336e-02 3.652029633522033691e-01
-4.089272618293762207e-01 9.605144150555133820e-03 4.390221536159515381e-01
-3.203793764114379883e-01 1.177101805806159973e-01 4.017243087291717529e-01
-3.762838840484619141e-01 -1.040020398795604706e-02 4.496384859085083008e-01
-4.216510057449340820e-01 5.936021357774734497e-02 4.333751499652862549e-01
-4.229194521903991699e-01 -6.260411441326141357e-02 4.198674261569976807e-01
-3.016387820243835449e-01 4.156326130032539368e-02 4.092333614826202393e-01
-4.835698008537292480e-01 -6.903155148029327393e-02 3.309407234191894531e-01
-3.644307255744934082e-01 -8.117597550153732300e-03 4.529021084308624268e-01
-2.978188991546630859e-01 1.289202086627483368e-02 4.234783351421356201e-01
-3.472044467926025391e-01 -1.312347128987312317e-02 4.540897011756896973e-01
-4.266039133071899414e-01 1.523265391588211060e-01 3.991613686084747314e-01
-3.674353361129760742e-01 1.697039008140563965e-01 4.447407126426696777e-01
-3.550814390182495117e-01 -9.911088645458221436e-02 3.555009365081787109e-01
-4.593430459499359131e-01 6.196171417832374573e-02 3.407804071903228760e-01
-4.046915173530578613e-01 8.015757799148559570e-02 3.425529301166534424e-01
-3.870159983634948730e-01 2.882644999772310257e-03 3.333643972873687744e-01
-3.917871415615081787e-01 -1.409859359264373779e-01 3.385899960994720459e-01
-4.216414690017700195e-01 -4.229347035288810730e-02 4.247747957706451416e-01
-3.411132097244262695e-01 -1.187556609511375427e-01 3.848156034946441650e-01
-4.274294078350067139e-01 1.415560543537139893e-01 3.723143935203552246e-01
-3.361942768096923828e-01 -7.945986092090606689e-02 3.709962368011474609e-01
-3.235282897949218750e-01 -8.007660508155822754e-02 4.197577536106109619e-01
-4.400311112403869629e-01 -6.798772513866424561e-02 4.076544642448425293e-01
-3.937042951583862305e-01 5.998320132493972778e-02 3.404360711574554443e-01
-3.770492076873779297e-01 -1.479741185903549194e-01 3.530173599720001221e-01
-3.549168407917022705e-01 -4.796982277184724808e-03 4.550348818302154541e-01
-3.496897816658020020e-01 2.891494333744049072e-02 3.570768833160400391e-01
-4.136386215686798096e-01 1.111514121294021606e-01 4.343679547309875488e-01
-3.242305517196655273e-01 1.442121416330337524e-01 4.100653529167175293e-01
-4.261054396629333496e-01 -9.585177153348922729e-02 4.091698527336120605e-01
-3.276519775390625000e-01 8.180329948663711548e-02 3.835928142070770264e-01
-4.252248108386993408e-01 9.997569024562835693e-03 4.294998645782470703e-01
-4.780574738979339600e-01 -7.776965945959091187e-02 3.238496780395507812e-01
-4.033651351928710938e-01 1.013155374675989151e-02 3.281797766685485840e-01
-4.298964738845825195e-01 -9.506137669086456299e-02 3.161489367485046387e-01
-4.777017831802368164e-01 -2.726539969444274902e-02 3.752995431423187256e-01
-4.701392352581024170e-01 5.359502509236335754e-02 3.469147086143493652e-01
-3.530299067497253418e-01 3.907356411218643188e-02 3.562628924846649170e-01
-4.437186717987060547e-01 7.570032030344009399e-02 4.135024547576904297e-01
-4.135798513889312744e-01 -6.430580466985702515e-02 4.244468808174133301e-01
-3.805748522281646729e-01 -1.607740074396133423e-01 3.875296711921691895e-01
-4.648385643959045410e-01 8.244266360998153687e-02 3.734763860702514648e-01
-3.842069804668426514e-01 1.835670471191406250e-01 4.034585654735565186e-01
-3.594183921813964844e-01 5.456367507576942444e-02 3.549469113349914551e-01
-4.204217195510864258e-01 2.312108501791954041e-02 4.334754645824432373e-01
-3.074420094490051270e-01 -3.629707172513008118e-02 4.260166585445404053e-01
-4.352873563766479492e-01 1.177536994218826294e-01 3.582212626934051514e-01
-4.320878982543945312e-01 1.143675595521926880e-01 4.172092676162719727e-01
-3.940141201019287109e-01 1.681152544915676117e-02 3.323433399200439453e-01
-3.595367372035980225e-01 1.855500638484954834e-01 4.127785563468933105e-01
-4.352672100067138672e-01 1.013229712843894958e-01 3.491893410682678223e-01
-4.615369439125061035e-01 -1.488474011421203613e-01 3.365418910980224609e-01
-4.169305562973022461e-01 -6.514716148376464844e-02 3.184077143669128418e-01
-4.349900484085083008e-01 2.601418644189834595e-02 4.235251545906066895e-01
-3.155972063541412354e-01 9.741771966218948364e-02 4.001830816268920898e-01
-3.314423859119415283e-01 -5.307881161570549011e-02 4.410410523414611816e-01
-4.058411419391632080e-01 3.927708044648170471e-02 4.427588284015655518e-01
-3.240253329277038574e-01 -8.768609166145324707e-02 4.003126025199890137e-01
-4.456464648246765137e-01 -3.454466816037893295e-03 4.133536517620086670e-01
-2.964321374893188477e-01 2.495611831545829773e-02 4.282253086566925049e-01
-4.353235661983489990e-01 7.324902713298797607e-02 3.378478884696960449e-01
-3.004638850688934326e-01 7.862221449613571167e-02 4.183827042579650879e-01
-4.440306127071380615e-01 9.610443562269210815e-02 3.494709730148315430e-01
-4.864367842674255371e-01 -2.052051201462745667e-02 3.469628393650054932e-01
-3.004670739173889160e-01 9.050758928060531616e-02 4.493884146213531494e-01
-3.871764242649078369e-01 2.749219909310340881e-02 3.366236388683319092e-01
-4.251317679882049561e-01 -1.638881862163543701e-01 3.337554037570953369e-01
-3.029002547264099121e-01 2.903391234576702118e-02 4.061179757118225098e-01
-4.451470375061035156e-01 -1.462191790342330933e-01 3.743600249290466309e-01
-4.740769863128662109e-01 5.418970435857772827e-02 3.611030876636505127e-01
-4.760882258415222168e-01 -8.959823846817016602e-02 3.232917785644531250e-01
-4.018568098545074463e-01 -1.764857321977615356e-01 3.658817410469055176e-01
-3.202611505985260010e-01 -1.827220618724822998e-02 4.486250877380371094e-01
-3.267167508602142334e-01 9.184552729129791260e-02 4.643687307834625244e-01
-4.681175649166107178e-01 7.387371361255645752e-02 3.676471114158630371e-01
-4.591059088706970215e-01 9.757578372955322266e-02 3.751922547817230225e-01
-3.236744701862335205e-01 2.661815099418163300e-02 3.783929347991943359e-01
-3.226957917213439941e-01 -7.176949083805084229e-02 4.257442355155944824e-01
-4.707662165164947510e-01 -7.121367007493972778e-02 3.778563737869262695e-01
-3.780111670494079590e-01 -1.119314730167388916e-01 4.208890795707702637e-01
-3.649892807006835938e-01 -2.607342228293418884e-02 3.426940143108367920e-01
-3.239933848381042480e-01 1.419854536652565002e-02 3.771461546421051025e-01
-3.744237124919891357e-01 -3.679223731160163879e-02 4.450975060462951660e-01
-3.087146580219268799e-01 1.277941614389419556e-01 4.244006574153900146e-01
-4.408951103687286377e-01 -2.754243835806846619e-02 4.144587218761444092e-01
-3.152013719081878662e-01 6.849960889667272568e-03 4.530489444732666016e-01
-4.792425334453582764e-01 -4.611203074455261230e-02 3.704270124435424805e-01
-3.568025827407836914e-01 -1.980933733284473419e-02 3.482351899147033691e-01
-4.589230120182037354e-01 -1.139657646417617798e-01 3.180011212825775146e-01
-3.520753979682922363e-01 -3.048004209995269775e-02 4.499978423118591309e-01
-4.402549266815185547e-01 -1.237120926380157471e-01 3.181389868259429932e-01
-4.379456043243408203e-01 -1.538658291101455688e-01 3.271842002868652344e-01
-3.691117167472839355e-01 -1.334060430526733398e-01 3.532897830009460449e-01
-4.061575531959533691e-01 8.229655772447586060e-02 4.424517154693603516e-01
-3.382828831672668457e-01 5.438931286334991455e-03 4.577195048332214355e-01
-4.687926173210144043e-01 -1.349107921123504639e-01 3.338544070720672607e-01
-4.030359387397766113e-01 -5.177173763513565063e-02 3.231484889984130859e-01
-3.647748529911041260e-01 -6.741067022085189819e-02 3.433721363544464111e-01
-3.605086207389831543e-01 -4.492883756756782532e-02 3.454185724258422852e-01
-4.862375855445861816e-01 -3.497983515262603760e-02 3.538253605365753174e-01
-2.971346080303192139e-01 8.370140939950942993e-02 4.319715797901153564e-01
-3.281816542148590088e-01 -1.625108346343040466e-02 3.721826076507568359e-01
-4.077148139476776123e-01 1.717170327901840210e-01 4.087705612182617188e-01
-4.097218811511993408e-01 1.370139569044113159e-01 3.644662201404571533e-01
-3.892106711864471436e-01 1.815648227930068970e-01 4.217148423194885254e-01
-3.494473099708557129e-01 3.890594467520713806e-03 4.571070075035095215e-01
-3.088212609291076660e-01 1.200848668813705444e-01 4.534618556499481201e-01
-4.408723115921020508e-01 1.332544535398483276e-01 3.854166865348815918e-01
-3.862963318824768066e-01 -5.796391516923904419e-02 3.303599059581756592e-01
-4.317523837089538574e-01 -4.788590222597122192e-02 3.157080113887786865e-01
-3.679573833942413330e-01 2.648087451234459877e-03 3.428062796592712402e-01
-3.795997798442840576e-01 5.153208225965499878e-02 3.440861105918884277e-01
-4.029986560344696045e-01 1.492475867271423340e-01 4.323452115058898926e-01
-4.065260589122772217e-01 -6.239369511604309082e-02 3.217374086380004883e-01
-3.246239423751831055e-01 -3.216372430324554443e-02 3.769498467445373535e-01
-3.935723304748535156e-01 -9.162569791078567505e-02 4.249900281429290771e-01
-4.445225596427917480e-01 -1.089643836021423340e-01 3.157612383365631104e-01
-3.479569852352142334e-01 7.288962602615356445e-02 3.658076226711273193e-01
-4.584190249443054199e-01 -1.539079546928405762e-01 3.475300073623657227e-01
-4.650627672672271729e-01 -3.244160488247871399e-02 3.185023665428161621e-01
-3.168350458145141602e-01 5.253262817859649658e-02 4.609935581684112549e-01
-4.792852103710174561e-01 -8.638916164636611938e-02 3.594027757644653320e-01
-3.294049203395843506e-01 1.182007342576980591e-01 3.927959501743316650e-01
-4.814906418323516846e-01 2.084891311824321747e-02 3.565666079521179199e-01
-4.387103021144866943e-01 -3.379052504897117615e-02 3.159172832965850830e-01
-3.831125795841217041e-01 -1.411340683698654175e-01 3.445874750614166260e-01
-3.679446578025817871e-01 1.027012541890144348e-01 3.621024787425994873e-01
-3.742753565311431885e-01 1.173372790217399597e-01 4.552899897098541260e-01
-3.915221393108367920e-01 -5.574795976281166077e-02 4.357452392578125000e-01
-4.241987168788909912e-01 -1.730130314826965332e-01 3.414819240570068359e-01
-3.500325083732604980e-01 1.599056869745254517e-01 3.959800899028778076e-01
-3.874121010303497314e-01 -7.835221290588378906e-02 3.304292261600494385e-01
-3.218649923801422119e-01 -2.114167064428329468e-02 3.794271945953369141e-01
-3.938069343566894531e-01 1.133744642138481140e-01 3.560536205768585205e-01
-4.226622879505157471e-01 -2.896865084767341614e-02 3.186576664447784424e-01
-4.023436903953552246e-01 1.593153923749923706e-01 4.282315373420715332e-01
-4.740716218948364258e-01 -2.002079039812088013e-02 3.815131783485412598e-01
-4.119195044040679932e-01 -1.167783327400684357e-02 4.349858760833740234e-01
-3.945139348506927490e-01 -1.013434901833534241e-01 3.287914395332336426e-01
-4.564171135425567627e-01 -1.311254352331161499e-01 3.213877081871032715e-01
-3.256399035453796387e-01 9.215880930423736572e-02 3.880722820758819580e-01
-3.363276720046997070e-01 1.517736762762069702e-01 4.019095599651336670e-01
-4.746898412704467773e-01 -6.079798191785812378e-02 3.749231398105621338e-01
-3.363721668720245361e-01 -1.126079857349395752e-01 3.915599584579467773e-01
-3.559129834175109863e-01 -1.353642493486404419e-01 3.707327544689178467e-01
-3.338897526264190674e-01 -6.262170523405075073e-02 3.700971603393554688e-01
-3.168086707592010498e-01 -7.284874562174081802e-03 3.850740194320678711e-01
-3.417022228240966797e-01 1.607879996299743652e-01 4.028057754039764404e-01
-4.497527182102203369e-01 6.195915117859840393e-02 4.089121818542480469e-01
-3.706684112548828125e-01 1.493734121322631836e-01 3.791889548301696777e-01
-4.402056336402893066e-01 6.463180482387542725e-02 4.182668030261993408e-01
-3.648611009120941162e-01 1.105572190135717392e-02 4.557554125785827637e-01
-3.811942338943481445e-01 1.140688359737396240e-01 3.602256476879119873e-01
-3.607667684555053711e-01 -1.458115279674530029e-01 3.737918436527252197e-01
-3.797651529312133789e-01 1.259699091315269470e-02 4.518115222454071045e-01
-3.533045649528503418e-01 6.488946825265884399e-02 3.606568872928619385e-01
-3.379403054714202881e-01 -1.109264194965362549e-01 4.094210267066955566e-01
-4.725986123085021973e-01 -8.784024044871330261e-03 3.841866254806518555e-01
-3.055164217948913574e-01 1.102485954761505127e-01 4.203014373779296875e-01
-4.315851628780364990e-01 9.307072311639785767e-02 4.226251840591430664e-01
-3.938202559947967529e-01 2.949347952380776405e-03 4.453943967819213867e-01
-4.465648531913757324e-01 -1.617961376905441284e-01 3.342232406139373779e-01
-3.533729910850524902e-01 -1.281282454729080200e-01 4.076599776744842529e-01
-3.990453183650970459e-01 9.197056293487548828e-02 3.474339842796325684e-01
-4.504103362560272217e-01 5.084284767508506775e-02 4.093413949012756348e-01
-3.030745089054107666e-01 5.930641293525695801e-02 4.087801575660705566e-01
-4.629637002944946289e-01 -8.804644644260406494e-02 3.160737752914428711e-01
-4.517976343631744385e-01 -7.839921116828918457e-02 3.139228820800781250e-01
-4.055432975292205811e-01 -1.276234090328216553e-01 3.278322815895080566e-01
-3.037701249122619629e-01 1.741535402834415436e-02 4.044707715511322021e-01
-3.925749361515045166e-01 -2.347806654870510101e-02 4.419808685779571533e-01
-3.447259962558746338e-01 -1.122524440288543701e-01 3.721349537372589111e-01
-3.199477195739746094e-01 1.597246378660202026e-01 4.375934004783630371e-01
-3.534972667694091797e-01 1.444616764783859253e-01 3.855434656143188477e-01
-4.072499871253967285e-01 -1.733148247003555298e-01 3.483191430568695068e-01
-3.843125104904174805e-01 -1.462977826595306396e-01 4.015769362449645996e-01
-3.185959458351135254e-01 1.488915830850601196e-01 4.216067492961883545e-01
-4.285205304622650146e-01 -1.677512228488922119e-01 3.708377778530120850e-01
-3.525602221488952637e-01 1.847418248653411865e-01 4.360850751399993896e-01
-3.639381229877471924e-01 -2.427712269127368927e-02 4.499453902244567871e-01
-3.883397281169891357e-01 9.257506579160690308e-02 3.507484495639801025e-01
-3.530506789684295654e-01 -1.198726594448089600e-01 4.142508208751678467e-01
-3.994738161563873291e-01 -1.609033942222595215e-01 3.427994251251220703e-01
-2.957968711853027344e-01 6.818348169326782227e-02 4.384133219718933105e-01
-4.098375439643859863e-01 -1.781605631113052368e-01 3.570156991481781006e-01
-3.890386521816253662e-01 4.924368485808372498e-02 4.512503147125244141e-01
-4.477965533733367920e-01 2.889715880155563354e-02 4.127938747406005859e-01
-4.338341951370239258e-01 -1.064376533031463623e-01 3.164271116256713867e-01
-4.541524052619934082e-01 -1.410057395696640015e-01 3.242120444774627686e-01
-2.960199117660522461e-01 5.598173663020133972e-02 4.406991899013519287e-01
-4.817272126674652100e-01 1.454690285027027130e-02 3.463827967643737793e-01
-3.987287878990173340e-01 -1.357815861701965332e-01 3.330374956130981445e-01
-3.713026046752929688e-01 1.670370623469352722e-02 3.425169587135314941e-01
-4.253093600273132324e-01 -8.623158559203147888e-03 3.203001320362091064e-01
-3.487230241298675537e-01 -9.097920358180999756e-02 4.295933544635772705e-01
-4.338071942329406738e-01 -9.385969489812850952e-03 4.218710660934448242e-01
-4.557415544986724854e-01 -6.753009278327226639e-03 3.199783861637115479e-01
-4.135632812976837158e-01 -1.699948310852050781e-01 3.765804767608642578e-01
-4.451977908611297607e-01 8.564304560422897339e-03 4.145502448081970215e-01
-3.446506857872009277e-01 -1.009723693132400513e-01 3.672028779983520508e-01
-3.210456371307373047e-01 1.097161471843719482e-01 4.621862769126892090e-01
-4.501661062240600586e-01 1.130437403917312622e-01 3.891415297985076904e-01
-4.495674967765808105e-01 -5.924030393362045288e-02 4.021710157394409180e-01
-4.501325786113739014e-01 -1.324387490749359131e-01 3.776380419731140137e-01
-4.116387963294982910e-01 -4.603034630417823792e-02 3.204226493835449219e-01
-3.119416236877441406e-01 2.791200764477252960e-02 3.919523358345031738e-01
-4.252263903617858887e-01 1.330670267343521118e-01 4.178714156150817871e-01
-4.505662024021148682e-01 5.467477068305015564e-02 3.341723680496215820e-01
-3.245643377304077148e-01 -3.645906969904899597e-02 4.445331692695617676e-01
-3.434299826622009277e-01 1.742441505193710327e-01 4.120826423168182373e-01
-4.817412495613098145e-01 -5.924776196479797363e-02 3.273808360099792480e-01
-3.556685149669647217e-01 -6.063456833362579346e-02 3.495707809925079346e-01
-4.832891225814819336e-01 -7.215068489313125610e-02 3.552632331848144531e-01
-3.026064038276672363e-01 6.482238322496414185e-02 4.535012841224670410e-01
-4.712290763854980469e-01 -9.724921733140945435e-02 3.690073788166046143e-01
-3.348844051361083984e-01 5.628730729222297668e-02 4.639790654182434082e-01
-3.648596704006195068e-01 1.650419235229492188e-01 3.907411992549896240e-01
-3.815966248512268066e-01 -4.396542161703109741e-02 3.328126668930053711e-01
-3.258696794509887695e-01 3.465393558144569397e-02 4.611237645149230957e-01
-3.642445802688598633e-01 1.780599951744079590e-01 4.011698067188262939e-01
-4.619390368461608887e-01 3.856551647186279297e-02 3.969781100749969482e-01
-4.285400211811065674e-01 -1.437013000249862671e-01 3.243866562843322754e-01
-4.826681613922119141e-01 -5.581888183951377869e-02 3.617232441902160645e-01
-4.734534621238708496e-01 -1.378718763589859009e-02 3.252977728843688965e-01
-4.307521581649780273e-01 -7.888409495353698730e-02 4.112173318862915039e-01
-3.434605300426483154e-01 -1.696764305233955383e-02 3.582255840301513672e-01
-3.485661149024963379e-01 -4.353310167789459229e-02 3.542908728122711182e-01
-3.395289182662963867e-01 7.284557819366455078e-02 3.717810809612274170e-01
-3.190447390079498291e-01 -7.847802713513374329e-03 4.510745704174041748e-01
-4.372352063655853271e-01 -1.427739709615707397e-01 3.828911185264587402e-01
-4.480356574058532715e-01 -9.042953699827194214e-02 3.141912817955017090e-01
-4.808205366134643555e-01 -3.525774553418159485e-02 3.689092993736267090e-01
-4.227025806903839111e-01 7.070036232471466064e-02 3.370477259159088135e-01
-4.590126574039459229e-01 9.178113937377929688e-02 3.851524293422698975e-01
-4.135137796401977539e-01 -5.243746191263198853e-02 4.271452128887176514e-01
-3.142524957656860352e-01 -2.239658497273921967e-02 3.898958265781402588e-01
-3.013468682765960693e-01 -1.138092391192913055e-02 4.193841516971588135e-01
-4.098016917705535889e-01 9.629690647125244141e-02 4.390746355056762695e-01
-3.474512696266174316e-01 4.265278205275535583e-02 4.622550308704376221e-01
-3.958143591880798340e-01 1.361795216798782349e-01 3.652646541595458984e-01
-3.679687380790710449e-01 4.975559562444686890e-02 4.587295949459075928e-01
-3.587389588356018066e-01 1.782021112740039825e-02 3.498403429985046387e-01
-3.726845681667327881e-01 1.367624849081039429e-01 4.529469907283782959e-01
-4.236242175102233887e-01 7.401749491691589355e-02 4.313083291053771973e-01
-4.283383786678314209e-01 -1.766649335622787476e-01 3.556350767612457275e-01
-4.575962722301483154e-01 -6.415546685457229614e-02 3.145898282527923584e-01
-3.427455127239227295e-01 -8.201086521148681641e-02 4.323320686817169189e-01
-4.125691056251525879e-01 -1.034116074442863464e-01 4.137136936187744141e-01
-4.741043150424957275e-01 4.118960723280906677e-02 3.753868341445922852e-01
-3.357137441635131836e-01 1.926198042929172516e-02 3.666336536407470703e-01
-4.737782478332519531e-01 -4.565766453742980957e-02 3.790580332279205322e-01
-3.783923983573913574e-01 -3.129738569259643555e-02 3.348434865474700928e-01
-4.640559852123260498e-01 -1.510091312229633331e-02 3.946597576141357422e-01
-3.107448816299438477e-01 -3.329961001873016357e-02 3.985272645950317383e-01
-4.612331390380859375e-01 -1.300263553857803345e-01 3.667283654212951660e-01
-4.030035734176635742e-01 4.615001752972602844e-02 3.345673978328704834e-01
-3.819694817066192627e-01 3.854670375585556030e-02 3.406474590301513672e-01
-4.218480587005615234e-01 -1.107733920216560364e-01 3.194251358509063721e-01
-3.686787486076354980e-01 1.891770362854003906e-01 4.245270490646362305e-01
-4.593275487422943115e-01 8.562795817852020264e-02 3.547766506671905518e-01
-4.208093583583831787e-01 9.436426311731338501e-02 3.450173735618591309e-01
-4.292486011981964111e-01 5.889132618904113770e-02 3.332719504833221436e-01
-3.013637065887451172e-01 1.017049774527549744e-01 4.258837103843688965e-01
-4.255217313766479492e-01 -2.756417915225028992e-02 4.249518811702728271e-01
-4.263842403888702393e-01 1.369998604059219360e-02 3.234567642211914062e-01
-3.650636970996856689e-01 -7.231685798615217209e-03 3.436600863933563232e-01
-3.741811513900756836e-01 2.477727830410003662e-02 4.549171328544616699e-01
-4.219146668910980225e-01 -1.307031959295272827e-01 3.226499557495117188e-01
-4.707975387573242188e-01 -1.010757684707641602e-01 3.209538757801055908e-01
-3.306856155395507812e-01 1.143883466720581055e-01 4.633397161960601807e-01
-3.077533841133117676e-01 -2.359072305262088776e-02 4.022696018218994141e-01
-4.429469704627990723e-01 -1.454394161701202393e-01 3.238274455070495605e-01
-3.498338162899017334e-01 1.182473227381706238e-01 3.772242367267608643e-01
-3.561017215251922607e-01 -5.977181345224380493e-02 4.418619871139526367e-01
-4.184063076972961426e-01 1.052240207791328430e-01 3.493004143238067627e-01
-3.768207132816314697e-01 -6.441782694309949875e-03 3.372292816638946533e-01
-4.109756052494049072e-01 -1.161039993166923523e-01 4.097747504711151123e-01
-4.216060638427734375e-01 3.977493569254875183e-02 4.333993494510650635e-01
