2.627613544464111328e-01 1.551163345575332642e-01 4.729325175285339355e-01
-9.789340198040008545e-02 1.620964109897613525e-01 -1.442959904670715332e-02
-4.992836713790893555e-02 1.694936901330947876e-01 -8.480104804039001465e-02
-2.648458071053028107e-02 1.945520192384719849e-01 -5.849236249923706055e-02
-2.991071343421936035e-01 1.872778385877609253e-01 5.855898559093475342e-02
3.544377982616424561e-01 1.836532056331634521e-01 5.675841569900512695e-01
-1.257647871971130371e-01 1.603350192308425903e-01 1.123997569084167480e-02
1.712872684001922607e-01 1.817918866872787476e-01 6.554251909255981445e-01
2.048877328634262085e-01 1.536380499601364136e-01 4.249166846275329590e-01
1.658774614334106445e-01 1.920617818832397461e-01 4.518336653709411621e-01
6.634578108787536621e-02 1.966779232025146484e-01 2.441079020500183105e-01
5.547565966844558716e-02 1.971364021301269531e-01 1.527744680643081665e-01
8.529541641473770142e-02 1.882790625095367432e-01 5.144504904747009277e-01
-8.103336393833160400e-02 1.977433115243911743e-01 4.953911900520324707e-02
-2.405250072479248047e-01 1.599980443716049194e-01 1.038431227207183838e-01
-7.349026948213577271e-02 1.537057459354400635e-01 2.239675074815750122e-01
-8.719364181160926819e-03 1.905913650989532471e-01 4.048522710800170898e-01
2.794531583786010742e-01 1.888477355241775513e-01 4.973971843719482422e-01
3.116642236709594727e-01 1.875224411487579346e-01 4.836079478263854980e-01
-3.096854984760284424e-01 1.666757017374038696e-01 -4.554590582847595215e-02
-3.328795433044433594e-01 1.684170961380004883e-01 -2.849590778350830078e-02
1.004814952611923218e-01 1.508355140686035156e-01 4.474319815635681152e-01
7.161821424961090088e-02 1.554190218448638916e-01 6.356937885284423828e-01
3.213297128677368164e-01 1.584919989109039307e-01 4.936867356300354004e-01
3.739596605300903320e-01 1.600407958030700684e-01 6.047544479370117188e-01
-1.794310361146926880e-01 1.601848751306533813e-01 1.565423607826232910e-02
-1.219494491815567017e-01 1.656817346811294556e-01 -7.899978756904602051e-02
-2.503634989261627197e-01 1.616156846284866333e-01 2.729871869087219238e-02
-2.871740758419036865e-01 1.635363548994064331e-01 1.086343824863433838e-01
-2.471901178359985352e-01 1.934992372989654541e-01 -1.205004751682281494e-01
2.706483900547027588e-01 1.685361117124557495e-01 2.571932971477508545e-01
3.416139781475067139e-01 1.759311556816101074e-01 3.449942469596862793e-01
7.706396281719207764e-02 1.518676131963729858e-01 3.496437668800354004e-01
1.400642395019531250e-01 1.615984588861465454e-01 1.703169494867324829e-01
1.179760172963142395e-01 1.557547152042388916e-01 6.780947446823120117e-01
-2.111627161502838135e-01 1.608212143182754517e-01 1.152908802032470703e-02
1.931160837411880493e-01 1.541487425565719604e-01 6.943832635879516602e-01
2.900023758411407471e-01 1.702221482992172241e-01 2.743957340717315674e-01
-1.635074019432067871e-01 1.959758698940277100e-01 -8.401849865913391113e-02
1.330099552869796753e-01 1.872026920318603516e-01 5.579375624656677246e-01
1.303252875804901123e-01 1.908194720745086670e-01 6.803658604621887207e-02
3.585828244686126709e-01 1.713116765022277832e-01 3.943516910076141357e-01
-8.033395558595657349e-02 1.938731521368026733e-01 2.616572380065917969e-01
1.242107376456260681e-01 1.955582499504089355e-01 2.951577603816986084e-01
3.026590645313262939e-01 1.546995192766189575e-01 6.321049928665161133e-01
-2.897831611335277557e-02 1.910936385393142700e-01 3.772565424442291260e-01
2.767899036407470703e-01 1.577900797128677368e-01 4.221946597099304199e-01
3.510319292545318604e-01 1.605069339275360107e-01 5.147808194160461426e-01
-1.365931779146194458e-01 1.929933577775955200e-01 -1.547766923904418945e-01
-1.483712643384933472e-01 1.584536731243133545e-01 5.742108821868896484e-02
2.224691957235336304e-01 1.921537667512893677e-01 4.070624411106109619e-01
-1.801878213882446289e-01 1.940463781356811523e-01 -1.460886597633361816e-01
3.204034268856048584e-01 1.815416961908340454e-01 3.160122931003570557e-01
2.184348702430725098e-01 1.916132867336273193e-01 4.455693066120147705e-01
-4.518968611955642700e-02 1.524545252323150635e-01 3.948212563991546631e-01
3.539878875017166138e-02 1.968488842248916626e-01 2.349529713392257690e-01
9.697363525629043579e-02 1.957317441701889038e-01 1.328945755958557129e-01
3.778243809938430786e-02 1.575845479965209961e-01 6.283295154571533203e-01
2.809775769710540771e-01 1.701065003871917725e-01 7.902730703353881836e-01
1.676424741744995117e-01 1.936360448598861694e-01 1.956405341625213623e-01
-2.065798342227935791e-01 1.942499130964279175e-01 6.179741024971008301e-02
-2.703877389430999756e-01 1.881061941385269165e-01 1.069111377000808716e-01
3.070699870586395264e-01 1.550802737474441528e-01 6.710118055343627930e-01
-3.598921597003936768e-01 1.764253526926040649e-01 7.035106420516967773e-03
-8.624914288520812988e-02 1.791317313909530640e-01 -1.701363623142242432e-01
-7.011955603957176208e-03 1.945155858993530273e-01 3.106787800788879395e-01
-7.185246795415878296e-02 1.559844613075256348e-01 1.317300498485565186e-01
-8.881580084562301636e-02 1.581465452909469604e-01 6.914199888706207275e-02
-4.671068862080574036e-03 1.816635727882385254e-01 5.384635925292968750e-01
-6.283067166805267334e-02 1.973100006580352783e-01 -1.470953226089477539e-03
2.985594868659973145e-01 1.571451723575592041e-01 4.811196327209472656e-01
3.640941381454467773e-01 1.606252491474151611e-01 5.483719706535339355e-01
3.399256244301795959e-02 1.922772228717803955e-01 4.000504314899444580e-01
-5.508082360029220581e-02 1.978534311056137085e-01 7.790279388427734375e-02
-2.169040739536285400e-01 6.738889217376708984e-02 5.962272286415100098e-01
-3.437385857105255127e-01 6.764873862266540527e-02 5.770447850227355957e-01
-4.970037937164306641e-01 1.080678105354309082e-01 5.902417898178100586e-01
-1.098029613494873047e-01 2.471978962421417236e-01 8.629342913627624512e-01
-5.417546629905700684e-01 1.768109351396560669e-01 7.201904654502868652e-01
-4.336361885070800781e-01 1.946429312229156494e-01 6.205132603645324707e-01
-4.658613204956054688e-01 1.968459188938140869e-01 8.063178658485412598e-01
-2.339908480644226074e-01 9.429745376110076904e-02 9.212406873703002930e-01
-2.716554701328277588e-01 2.387281954288482666e-01 8.596178293228149414e-01
-4.492481946945190430e-01 1.357032954692840576e-01 8.601607680320739746e-01
-3.952494263648986816e-01 3.210142254829406738e-03 7.755889892578125000e-01
-2.711176872253417969e-01 2.472186088562011719e-02 6.222531795501708984e-01
-4.850030839443206787e-01 1.729239523410797119e-01 6.184232234954833984e-01
-1.012843251228332520e-01 1.980722993612289429e-01 6.428229212760925293e-01
-1.639095097780227661e-01 1.117080897092819214e-01 9.317964315414428711e-01
-5.069264173507690430e-01 4.849225282669067383e-02 7.854084968566894531e-01
-5.440106391906738281e-01 4.128500819206237793e-02 6.839698553085327148e-01
-5.568690299987792969e-01 5.990901589393615723e-02 7.382309436798095703e-01
-4.546638429164886475e-01 1.285909116268157959e-02 6.569882631301879883e-01
-2.125786840915679932e-01 -3.527313470840454102e-03 7.729879021644592285e-01
-3.001200854778289795e-01 2.585719525814056396e-01 7.857357263565063477e-01
-3.517560660839080811e-01 7.921557128429412842e-02 8.900429010391235352e-01
-1.625221371650695801e-01 4.509948194026947021e-03 7.866154313087463379e-01
-5.082668364048004150e-02 3.224831819534301758e-02 7.595496177673339844e-01
-1.329491138458251953e-01 1.737356930971145630e-02 8.223571777343750000e-01
-2.350498735904693604e-02 1.039061695337295532e-01 9.057147502899169922e-01
-4.556585550308227539e-01 4.013445973396301270e-02 6.085493564605712891e-01
-7.931742072105407715e-02 5.253093689680099487e-02 6.702749729156494141e-01
-2.180280834436416626e-01 1.055143103003501892e-01 5.823067426681518555e-01
-1.510402560234069824e-01 2.664259672164916992e-01 7.875472903251647949e-01
-4.676423966884613037e-01 4.519805312156677246e-02 8.118759989738464355e-01
-2.610723972320556641e-01 2.097604423761367798e-01 6.159778833389282227e-01
-9.480623900890350342e-02 1.485207974910736084e-01 6.221271157264709473e-01
-2.651526331901550293e-01 2.644644975662231445e-01 7.582630515098571777e-01
-2.093237638473510742e-01 2.504438459873199463e-01 8.538320064544677734e-01
-1.070664972066879272e-01 1.494245231151580811e-02 7.817780375480651855e-01
-3.490047454833984375e-01 3.431061655282974243e-02 8.531342744827270508e-01
-2.745661139488220215e-01 -7.865592837333679199e-03 7.049477100372314453e-01
-1.809018552303314209e-01 7.473081350326538086e-04 7.783540487289428711e-01
-2.172568440437316895e-01 1.498910784721374512e-02 8.396128416061401367e-01
-5.842013359069824219e-01 1.096608489751815796e-01 7.215951681137084961e-01
-5.299942493438720703e-01 1.207482516765594482e-01 8.036471605300903320e-01
-3.566701710224151611e-02 2.273086607456207275e-01 7.112775444984436035e-01
-4.644226431846618652e-01 6.021493673324584961e-02 8.289400935173034668e-01
-4.557929933071136475e-02 5.885628610849380493e-02 6.882976889610290527e-01
1.129861176013946533e-02 2.326704263687133789e-01 8.199180960655212402e-01
-2.591246962547302246e-01 1.784069985151290894e-01 5.908698439598083496e-01
3.664569556713104248e-02 1.930639743804931641e-01 8.769208788871765137e-01
-9.702236950397491455e-02 2.271022796630859375e-01 8.941154479980468750e-01
-2.718068361282348633e-01 -3.636360168457031250e-03 7.887903451919555664e-01
-1.071791499853134155e-01 7.322469353675842285e-02 6.336147189140319824e-01
-3.710452318191528320e-01 1.739373654127120972e-01 8.856213092803955078e-01
2.723617851734161377e-02 7.176064699888229370e-02 8.153930306434631348e-01
-1.092263460159301758e-01 2.552585899829864502e-01 8.410953283309936523e-01
-4.759951829910278320e-01 2.062723487615585327e-01 7.746599316596984863e-01
-5.130017995834350586e-01 1.385732442140579224e-01 8.149325251579284668e-01
-5.570627450942993164e-01 1.379361450672149658e-01 6.415609121322631836e-01
-5.651755332946777344e-01 1.557221114635467529e-01 7.094079852104187012e-01
-1.302052289247512817e-01 2.464336752891540527e-01 6.956249475479125977e-01
-4.171088933944702148e-01 1.941603422164916992e-02 6.271334886550903320e-01
-4.003354907035827637e-01 2.404808551073074341e-01 7.501526474952697754e-01
-4.337433874607086182e-01 8.077271282672882080e-03 7.638155221939086914e-01
-4.555141925811767578e-01 2.211832106113433838e-01 7.012410759925842285e-01
-5.153536796569824219e-02 3.626853972673416138e-02 8.171855807304382324e-01
-3.801158666610717773e-01 4.049511253833770752e-02 5.959637165069580078e-01
-2.463551312685012817e-01 2.388427406549453735e-02 8.564364910125732422e-01
-2.028393745422363281e-01 6.589099764823913574e-03 8.158773183822631836e-01
2.400256693363189697e-02 1.027638092637062073e-01 7.075945138931274414e-01
-3.651426732540130615e-01 5.904033780097961426e-02 8.726998567581176758e-01
-1.739962548017501831e-01 2.366801351308822632e-02 8.516950011253356934e-01
-2.784940600395202637e-02 2.213319540023803711e-01 8.835375308990478516e-01
-5.710856318473815918e-01 6.411209702491760254e-02 7.033582329750061035e-01
-1.689872145652770996e-02 6.459254026412963867e-02 8.585119843482971191e-01
5.508731305599212646e-02 1.956633627414703369e-01 8.540244102478027344e-01
-5.185119509696960449e-01 2.667548507452011108e-02 6.958430409431457520e-01
-1.793772876262664795e-01 2.208714932203292847e-01 6.404554843902587891e-01
-5.231274962425231934e-01 1.889024674892425537e-01 7.319228053092956543e-01
-7.614666223526000977e-02 6.736069917678833008e-02 6.557888388633728027e-01
-1.920803636312484741e-01 1.572305560111999512e-01 9.341745972633361816e-01
-1.717409193515777588e-01 2.650153636932373047e-01 7.439856529235839844e-01
-1.677557826042175293e-03 1.747370958328247070e-01 6.818290352821350098e-01
-1.052538454532623291e-01 2.600268721580505371e-01 8.184707760810852051e-01
-4.780584573745727539e-01 2.137040793895721436e-01 7.288159132003784180e-01
-2.021138370037078857e-01 2.663394212722778320e-01 7.475290894508361816e-01
-3.159747719764709473e-01 -5.743727087974548340e-03 6.833120584487915039e-01
-5.336394309997558594e-01 5.477330088615417480e-02 7.656794190406799316e-01
-8.118082582950592041e-02 2.176747471094131470e-02 7.798580527305603027e-01
-5.112760663032531738e-01 7.125058770179748535e-02 6.050525903701782227e-01
-8.970060944557189941e-02 1.006206870079040527e-01 6.279913783073425293e-01
-1.085230708122253418e-01 1.558871567249298096e-02 7.374039292335510254e-01
6.409077346324920654e-02 1.021128147840499878e-01 8.189390897750854492e-01
-3.505710959434509277e-01 1.840085834264755249e-01 8.883579969406127930e-01
-5.260125398635864258e-01 1.774014234542846680e-01 7.635189294815063477e-01
-2.697229087352752686e-01 2.565975487232208252e-01 7.025744318962097168e-01
-6.055949628353118896e-02 4.541555047035217285e-02 8.518952727317810059e-01
-3.822990655899047852e-01 -5.615085363388061523e-03 6.958000659942626953e-01
-7.425148785114288330e-02 1.857253760099411011e-01 6.458230018615722656e-01
-5.053539276123046875e-01 1.958808451890945435e-01 7.534573078155517578e-01
-6.780523061752319336e-02 2.280702143907546997e-01 6.917569041252136230e-01
-7.957231998443603516e-02 2.120993435382843018e-01 6.651938557624816895e-01
-3.671982288360595703e-01 1.743443310260772705e-02 6.239492297172546387e-01
-4.715998768806457520e-01 1.112605482339859009e-01 5.817387104034423828e-01
-6.665229797363281250e-02 2.462784647941589355e-01 7.304173111915588379e-01
-1.777435094118118286e-01 2.614753842353820801e-01 7.237989902496337891e-01
-2.704787552356719971e-01 1.318362355232238770e-01 9.244761466979980469e-01
-3.847848773002624512e-01 2.353715896606445312e-01 6.779481172561645508e-01
-3.314366042613983154e-01 -2.171382308006286621e-03 6.683869957923889160e-01
-1.427486836910247803e-01 1.044664531946182251e-01 9.287930727005004883e-01
-2.273904681205749512e-01 2.645508646965026855e-01 8.001497983932495117e-01
-4.060068130493164062e-01 1.111748591065406799e-01 5.691133737564086914e-01
-1.445310264825820923e-01 1.260887831449508667e-02 7.039311528205871582e-01
-2.954429388046264648e-02 1.728798300027847290e-01 9.191064238548278809e-01
-4.447683691978454590e-02 1.617182940244674683e-01 9.252356886863708496e-01
-2.610231637954711914e-01 1.080863773822784424e-01 9.223860502243041992e-01
-4.437177777290344238e-01 8.912098407745361328e-02 8.576636314392089844e-01
-4.484761655330657959e-01 6.675247848033905029e-02 8.430354595184326172e-01
-5.577239394187927246e-01 1.542683839797973633e-01 6.646647453308105469e-01
-3.090369701385498047e-02 2.475180029869079590e-01 7.817258834838867188e-01
-2.362719178199768066e-02 2.451718896627426147e-01 8.161895275115966797e-01
-2.426064312458038330e-01 4.416246712207794189e-02 8.836986422538757324e-01
-7.695190608501434326e-02 4.283831268548965454e-02 6.871855258941650391e-01
-1.154568642377853394e-01 2.354478538036346436e-01 8.847802281379699707e-01
4.755873978137969971e-02 8.466935902833938599e-02 7.857258915901184082e-01
-1.330530196428298950e-01 2.648463845252990723e-01 7.677389383316040039e-01
-3.634332418441772461e-01 9.500005841255187988e-02 8.932354450225830078e-01
-3.343275487422943115e-01 5.234635621309280396e-02 5.866472721099853516e-01
-4.148498177528381348e-01 -1.674965023994445801e-03 7.333238124847412109e-01
-4.809399247169494629e-01 1.805850118398666382e-02 7.476878762245178223e-01
-1.594394445419311523e-02 2.066978365182876587e-01 8.952224254608154297e-01
-1.466884315013885498e-01 1.325582712888717651e-01 6.007782220840454102e-01
-1.950560510158538818e-01 1.214129477739334106e-02 6.702418327331542969e-01
-2.486808001995086670e-01 1.589186489582061768e-01 5.827020406723022461e-01
-4.855187535285949707e-01 4.380769282579421997e-02 6.156591176986694336e-01
3.251104056835174561e-02 1.238449662923812866e-01 7.048788666725158691e-01
-4.438615441322326660e-01 2.885575592517852783e-02 6.192749738693237305e-01
-4.262915849685668945e-01 9.404040127992630005e-02 5.728429555892944336e-01
-2.162907123565673828e-01 2.096520662307739258e-01 9.074513912200927734e-01
-1.182895302772521973e-01 2.351865768432617188e-01 6.789851188659667969e-01
-4.138358831405639648e-01 8.821326494216918945e-02 8.714508414268493652e-01
-2.085208445787429810e-01 1.044079661369323730e-03 7.971857786178588867e-01
-1.832564771175384521e-01 1.027010977268218994e-01 9.282892942428588867e-01
-2.394353896379470825e-01 7.423500716686248779e-02 5.871937870979309082e-01
2.527992427349090576e-02 6.971594691276550293e-02 7.702147960662841797e-01
-8.458842337131500244e-02 7.067269086837768555e-02 8.981257081031799316e-01
-3.471214771270751953e-01 2.515144050121307373e-01 7.733777761459350586e-01
-4.749374389648437500e-01 1.863333284854888916e-01 6.293687224388122559e-01
-5.318096876144409180e-01 1.568196415901184082e-01 7.843065857887268066e-01
2.972944080829620361e-02 9.051434695720672607e-02 8.586996197700500488e-01
-2.160401046276092529e-01 2.631486356258392334e-01 7.258701920509338379e-01
-5.068622231483459473e-01 1.729486286640167236e-01 6.327939033508300781e-01
-4.245170950889587402e-01 5.312114953994750977e-04 6.877673864364624023e-01
-4.106763601303100586e-01 1.815491467714309692e-01 5.994799137115478516e-01
-2.085592895746231079e-01 2.675154209136962891e-01 7.735660672187805176e-01
-3.721630275249481201e-01 1.244160383939743042e-01 8.959656357765197754e-01
-5.237349867820739746e-01 1.014375686645507812e-01 6.027759909629821777e-01
-5.121290087699890137e-01 2.458932995796203613e-02 7.157261371612548828e-01
-3.294682800769805908e-01 2.562145292758941650e-01 7.561001777648925781e-01
-3.534242808818817139e-01 1.158934906125068665e-01 9.016187787055969238e-01
-2.471422851085662842e-01 2.642039358615875244e-01 7.916069030761718750e-01
-2.201752215623855591e-01 1.571279168128967285e-01 5.867669582366943359e-01
-2.673536241054534912e-01 2.601519227027893066e-01 8.035237789154052734e-01
-2.925385236740112305e-01 2.613471746444702148e-01 7.677880525588989258e-01
-3.455948233604431152e-01 4.769185930490493774e-02 8.687642812728881836e-01
-2.849344313144683838e-01 4.600368440151214600e-02 5.968536734580993652e-01
-2.202054858207702637e-01 2.268646955490112305e-01 8.897378444671630859e-01
-3.248004317283630371e-01 1.664719581604003906e-01 5.804280638694763184e-01
-4.420107603073120117e-01 2.073467373847961426e-01 6.444045901298522949e-01
-5.839111208915710449e-01 8.629152178764343262e-02 6.837911009788513184e-01
-5.022521615028381348e-01 1.811166107654571533e-01 7.909271121025085449e-01
-1.513996869325637817e-01 2.955351024866104126e-02 6.590253114700317383e-01
-1.178878098726272583e-01 2.201519906520843506e-01 9.037917852401733398e-01
-6.689709424972534180e-02 1.491876244544982910e-01 9.305340647697448730e-01
-2.683313190937042236e-01 8.758713304996490479e-02 5.766672492027282715e-01
-4.290561079978942871e-01 -1.841038465499877930e-04 7.156388759613037109e-01
-4.798823595046997070e-01 1.580738127231597900e-01 6.024718284606933594e-01
-3.959284424781799316e-01 -5.076035857200622559e-03 7.263233065605163574e-01
-4.842835068702697754e-01 1.715362221002578735e-01 8.195586204528808594e-01
-5.349209308624267578e-01 9.682765603065490723e-02 7.967348098754882812e-01
-3.407366573810577393e-01 2.057497203350067139e-01 6.125376820564270020e-01
-5.551075935363769531e-01 4.917993396520614624e-02 7.079123258590698242e-01
-3.283175528049468994e-01 2.544313073158264160e-01 7.203997373580932617e-01
-4.376181364059448242e-01 1.146916821599006653e-01 5.739179849624633789e-01
-1.680957078933715820e-01 2.036973834037780762e-02 6.666565537452697754e-01
-1.691025197505950928e-01 1.001700758934020996e-03 7.528503537178039551e-01
-4.114679694175720215e-01 2.263124585151672363e-01 6.687492132186889648e-01
-4.395368099212646484e-01 5.506381392478942871e-03 6.735305786132812500e-01
-3.839428424835205078e-01 7.854010164737701416e-02 5.727084279060363770e-01
-4.534533619880676270e-01 2.227013409137725830e-01 7.477152943611145020e-01
-5.288725495338439941e-01 4.940343648195266724e-02 6.367930173873901367e-01
-3.472372293472290039e-01 -9.500116109848022461e-03 7.180458307266235352e-01
-4.323559999465942383e-01 1.413919627666473389e-01 5.790160894393920898e-01
-6.937514245510101318e-02 2.567501664161682129e-01 7.814890742301940918e-01
5.089427530765533447e-02 1.885432898998260498e-01 7.424811124801635742e-01
-3.898078203201293945e-01 4.757240414619445801e-02 8.538661599159240723e-01
-5.063238143920898438e-01 2.450459450483322144e-02 6.712599992752075195e-01
-5.025662183761596680e-01 1.970319896936416626e-01 6.792525649070739746e-01
-9.165179729461669922e-02 1.709076315164566040e-01 9.311246871948242188e-01
7.384167611598968506e-02 1.574062407016754150e-01 8.556879758834838867e-01
-8.489337563514709473e-02 2.580770850181579590e-01 7.642887830734252930e-01
-2.513087987899780273e-01 4.047414660453796387e-02 6.084166169166564941e-01
-1.571967154741287231e-01 2.125061750411987305e-01 6.368577480316162109e-01
-3.363091647624969482e-01 1.009035184979438782e-01 9.035004973411560059e-01
-4.202230870723724365e-01 2.326078563928604126e-01 7.649553418159484863e-01
-5.757637023925781250e-01 7.674799859523773193e-02 7.228478789329528809e-01
-1.351055204868316650e-01 7.742151618003845215e-03 7.683119773864746094e-01
-3.287316858768463135e-01 2.121260166168212891e-01 8.740522861480712891e-01
-3.998512625694274902e-01 2.370282411575317383e-01 6.975371837615966797e-01
-5.801000595092773438e-01 1.294110119342803955e-01 6.775816082954406738e-01
-3.540718257427215576e-01 -2.526760101318359375e-03 6.704908013343811035e-01
-5.566698312759399414e-01 1.000590622425079346e-01 7.734413146972656250e-01
-2.771025300025939941e-01 2.337273061275482178e-01 6.474976539611816406e-01
-3.926989436149597168e-01 1.213985681533813477e-02 8.009673357009887695e-01
-3.448922932147979736e-01 2.012371718883514404e-01 8.779315948486328125e-01
-2.886989116668701172e-01 2.533657252788543701e-01 6.949825286865234375e-01
-2.969403266906738281e-01 2.620010077953338623e-02 8.544365763664245605e-01
-2.354309260845184326e-01 2.665657401084899902e-01 7.673738598823547363e-01
-1.945509761571884155e-01 2.617546319961547852e-01 8.232871294021606445e-01
1.097019016742706299e-02 1.466383039951324463e-01 6.829995512962341309e-01
-4.020609855651855469e-01 1.367688924074172974e-01 8.835752010345458984e-01
1.772929728031158447e-02 8.287040889263153076e-02 7.215496897697448730e-01
-2.539827823638916016e-01 -5.029216408729553223e-03 7.806228399276733398e-01
-3.077768385410308838e-01 1.935493797063827515e-01 5.989633202552795410e-01
-1.955596804618835449e-01 2.239964008331298828e-01 8.968213796615600586e-01
-5.214661359786987305e-01 7.996026426553726196e-02 8.016561269760131836e-01
-6.648004055023193359e-04 1.987956613302230835e-01 7.001167535781860352e-01
-2.696828842163085938e-01 2.547655701637268066e-01 8.235064744949340820e-01
-3.633853793144226074e-01 2.012947499752044678e-01 6.103544831275939941e-01
-5.543596744537353516e-01 1.662761569023132324e-01 6.960531473159790039e-01
-3.284861147403717041e-01 2.546547651290893555e-01 7.784017324447631836e-01
-3.994622230529785156e-01 1.761606931686401367e-01 8.713383078575134277e-01
-1.656600832939147949e-01 6.755861639976501465e-02 6.122475862503051758e-01
-3.457958996295928955e-01 1.728800535202026367e-01 5.845493674278259277e-01
-3.510147035121917725e-01 1.185533404350280762e-01 5.665191411972045898e-01
-1.930198073387145996e-01 1.078376322984695435e-01 5.881304740905761719e-01
4.627422988414764404e-02 8.727181702852249146e-02 8.246794939041137695e-01
-3.066309690475463867e-01 7.317729294300079346e-02 8.983633518218994141e-01
7.289586961269378662e-02 1.763508617877960205e-01 7.669571638107299805e-01
-2.908823490142822266e-01 2.064697295427322388e-01 6.112625598907470703e-01
-2.768133580684661865e-02 2.340857386589050293e-01 7.315825223922729492e-01
-3.987039327621459961e-01 1.320445537567138672e-02 6.349232792854309082e-01
1.301179826259613037e-02 1.436507403850555420e-01 9.056190252304077148e-01
2.739913761615753174e-02 6.951849162578582764e-02 7.901147603988647461e-01
-1.877261996269226074e-01 5.499787628650665283e-03 6.939396858215332031e-01
-4.663254618644714355e-01 2.079653143882751465e-01 6.643946170806884766e-01
6.097753345966339111e-02 1.087807863950729370e-01 8.434908390045166016e-01
-2.979076802730560303e-01 1.134562864899635315e-01 5.688763260841369629e-01
-2.216639667749404907e-01 4.171945899724960327e-02 6.149613857269287109e-01
-2.787779867649078369e-01 1.825595200061798096e-01 5.917253494262695312e-01
-4.763543605804443359e-03 2.399536669254302979e-01 8.037877678871154785e-01
-2.521547973155975342e-01 2.069834768772125244e-01 9.027032256126403809e-01
-7.854096591472625732e-02 2.562627792358398438e-01 8.208979964256286621e-01
-2.490297257900238037e-01 2.597807049751281738e-01 8.149040937423706055e-01
-6.208600103855133057e-02 2.362594902515411377e-01 8.729320764541625977e-01
-1.519237160682678223e-01 8.732093125581741333e-02 6.067197322845458984e-01
-3.895913660526275635e-01 1.816538572311401367e-01 5.954135060310363770e-01
-5.003495216369628906e-01 1.557454168796539307e-01 6.106178760528564453e-01
-2.750716805458068848e-01 -8.927538990974426270e-03 7.572026252746582031e-01
-2.688088119029998779e-01 2.204842269420623779e-01 8.856683969497680664e-01
4.160687327384948730e-03 5.711349844932556152e-02 8.053546547889709473e-01
-5.276691317558288574e-01 4.198418557643890381e-02 7.507053017616271973e-01
-4.882008135318756104e-01 2.837118506431579590e-02 7.685613632202148438e-01
-4.262003302574157715e-01 1.934063434600830078e-02 7.980166673660278320e-01
4.072023928165435791e-02 2.187096476554870605e-01 8.059390783309936523e-01
-3.032781481742858887e-01 9.174637496471405029e-03 6.419739723205566406e-01
-1.998233944177627563e-01 2.589809894561767578e-01 7.099478840827941895e-01
-2.465304583311080933e-01 2.317558825016021729e-01 8.777698278427124023e-01
6.408213078975677490e-02 1.077559664845466614e-01 7.649706602096557617e-01
-1.799872368574142456e-01 4.228651523590087891e-03 7.984007596969604492e-01
6.816150248050689697e-02 1.327593922615051270e-01 8.576298356056213379e-01
-2.040101587772369385e-01 1.359872072935104370e-01 5.851662755012512207e-01
8.171029388904571533e-02 1.254259943962097168e-01 8.044695258140563965e-01
-4.057033658027648926e-01 3.241936117410659790e-02 8.298096656799316406e-01
-2.098779380321502686e-02 2.348420023918151855e-01 8.552957773208618164e-01
-2.576104104518890381e-01 1.307404488325119019e-01 5.744946599006652832e-01
-4.503774046897888184e-01 2.664110064506530762e-02 7.963575720787048340e-01
-1.817836165428161621e-01 1.389865875244140625e-01 9.359386563301086426e-01
-1.801890432834625244e-01 3.060663491487503052e-02 6.432496309280395508e-01
-2.571634948253631592e-02 2.067779600620269775e-01 6.900358796119689941e-01
-4.055775701999664307e-02 1.424961537122726440e-01 6.480601429939270020e-01
-1.904165446758270264e-01 2.662577033042907715e-01 7.985976934432983398e-01
-7.557116448879241943e-02 1.297139078378677368e-01 6.293488144874572754e-01
-3.022764921188354492e-01 1.717077642679214478e-01 5.837726593017578125e-01
-3.529382646083831787e-01 3.611508756875991821e-02 5.998251438140869141e-01
-1.773180812597274780e-01 2.167188376188278198e-01 9.060748219490051270e-01
-6.806507706642150879e-03 2.359124124050140381e-01 7.617312669754028320e-01
-5.265042185783386230e-03 7.485498487949371338e-02 7.052919864654541016e-01
-1.931554228067398071e-01 2.527574002742767334e-01 6.924348473548889160e-01
-7.965029776096343994e-02 3.938342630863189697e-02 8.504493236541748047e-01
-4.672054946422576904e-02 3.371702879667282104e-02 7.903592586517333984e-01
-5.011472105979919434e-02 2.526054978370666504e-01 7.819441556930541992e-01
-2.363283038139343262e-01 1.193253546953201294e-01 9.286238551139831543e-01
-4.420658349990844727e-01 2.279565632343292236e-01 7.277975082397460938e-01
-3.617435693740844727e-03 2.280900627374649048e-01 7.420845031738281250e-01
-3.418910205364227295e-01 1.636723577976226807e-01 9.010558724403381348e-01
-3.581503629684448242e-01 2.370982766151428223e-01 8.189700245857238770e-01
-1.476506888866424561e-01 5.296526849269866943e-02 8.913632631301879883e-01
-1.800312846899032593e-01 5.376062542200088501e-02 6.174317598342895508e-01
-5.659108161926269531e-01 6.178825348615646362e-02 6.709815263748168945e-01
-4.755885899066925049e-02 9.969898313283920288e-02 6.515551209449768066e-01
4.223242402076721191e-03 6.872031092643737793e-02 7.272834181785583496e-01
-5.116879940032958984e-01 3.690252453088760376e-02 7.610225677490234375e-01
-1.566872000694274902e-02 4.625526070594787598e-02 7.904399037361145020e-01
-4.364455044269561768e-01 2.880200743675231934e-03 7.358674407005310059e-01
-1.733542680740356445e-01 2.650503218173980713e-01 8.084377646446228027e-01
-1.987276822328567505e-01 2.347702533006668091e-02 6.462926864624023438e-01
-4.551944732666015625e-01 7.594501972198486328e-02 5.831508636474609375e-01
-2.953053712844848633e-01 1.966795325279235840e-01 8.991484642028808594e-01
-1.581760942935943604e-01 1.362327039241790771e-01 9.366123080253601074e-01
-9.842748939990997314e-02 8.888684213161468506e-02 9.160535931587219238e-01
-3.327665030956268311e-01 2.293074131011962891e-01 6.451843976974487305e-01
-6.269426643848419189e-02 1.163380742073059082e-01 6.374431252479553223e-01
-3.721093833446502686e-01 1.976890563964843750e-01 8.688241243362426758e-01
-1.951456069946289062e-04 9.695996344089508057e-02 8.894097805023193359e-01
-5.556551218032836914e-01 7.650159299373626709e-02 7.619694471359252930e-01
-1.506291925907135010e-01 2.443680167198181152e-02 8.478549122810363770e-01
-4.154741764068603516e-01 5.019026249647140503e-02 8.456430435180664062e-01
-5.028852820396423340e-02 2.485738992691040039e-01 8.344426751136779785e-01
-4.089949131011962891e-01 6.302297115325927734e-04 7.553434967994689941e-01
7.243941724300384521e-02 1.916187107563018799e-01 8.164433240890502930e-01
-2.636697292327880859e-01 -3.351196646690368652e-03 6.857784986495971680e-01
-2.459955811500549316e-01 2.382338941097259521e-01 6.558392643928527832e-01
-2.755320072174072266e-01 2.612298727035522461e-01 7.274500131607055664e-01
-4.194375276565551758e-01 3.227163106203079224e-02 6.089627742767333984e-01
-1.437936276197433472e-01 7.297384738922119141e-02 6.172390580177307129e-01
-1.370250135660171509e-01 2.636677026748657227e-01 8.108178973197937012e-01
-2.017914950847625732e-01 2.353269010782241821e-01 8.818251490592956543e-01
-1.024594604969024658e-01 4.028963297605514526e-02 6.719170808792114258e-01
-3.644288182258605957e-01 2.493717670440673828e-01 7.538623213768005371e-01
-2.894851267337799072e-01 2.442923486232757568e-01 6.693860292434692383e-01
-4.844862520694732666e-01 9.103815257549285889e-02 5.869636535644531250e-01
-3.012266755104064941e-01 2.600411772727966309e-01 7.405154109001159668e-01
-5.303108692169189453e-01 1.707687973976135254e-01 6.525638699531555176e-01
-1.607156842947006226e-01 6.782435625791549683e-02 9.071368575096130371e-01
-2.304851263761520386e-01 2.652636468410491943e-01 7.405595183372497559e-01
-1.993291378021240234e-01 -3.506228327751159668e-03 7.441489100456237793e-01
-3.403752744197845459e-01 2.216430306434631348e-01 8.573741912841796875e-01
-4.613172709941864014e-01 1.823084354400634766e-01 8.282869458198547363e-01
-1.543312966823577881e-01 2.368510067462921143e-01 6.693096756935119629e-01
-1.112179607152938843e-01 2.036333382129669189e-01 9.174542427062988281e-01
-3.258670270442962646e-01 1.858983784914016724e-01 5.929621458053588867e-01
-3.184283971786499023e-01 1.746573895215988159e-01 9.045259356498718262e-01
-3.991725146770477295e-01 2.151967287063598633e-01 6.383540630340576172e-01
-1.338821500539779663e-01 2.501317113637924194e-02 6.783837080001831055e-01
-5.324751138687133789e-02 1.993955373764038086e-01 9.124372601509094238e-01
-6.405752897262573242e-02 2.536510825157165527e-01 7.627734541893005371e-01
-2.989691495895385742e-01 -8.967056870460510254e-03 7.048456072807312012e-01
5.311593413352966309e-03 6.178306043148040771e-02 7.473490834236145020e-01
-5.545096397399902344e-01 1.362966150045394897e-01 7.702672481536865234e-01
-4.175099730491638184e-01 2.050161957740783691e-01 6.288102269172668457e-01
-1.217521727085113525e-01 1.416649073362350464e-01 6.103579998016357422e-01
-3.465956747531890869e-01 9.312955290079116821e-02 5.682841539382934570e-01
-1.749130338430404663e-01 8.127965033054351807e-02 6.014128923416137695e-01
-1.467099338769912720e-01 2.351700067520141602e-01 8.864163756370544434e-01
-3.078833222389221191e-01 2.260643243789672852e-01 6.365848183631896973e-01
8.028553426265716553e-02 1.780562549829483032e-01 7.936857342720031738e-01
-2.362818568944931030e-01 2.480965554714202881e-01 8.526805043220520020e-01
-3.591637611389160156e-01 8.866131305694580078e-03 8.076868653297424316e-01
-2.332925796508789062e-02 1.560132652521133423e-01 6.604752540588378906e-01
-7.916311919689178467e-02 1.957125961780548096e-01 9.193838238716125488e-01
-3.280420303344726562e-01 2.463875114917755127e-01 6.841117739677429199e-01
-2.883227169513702393e-01 2.554328143596649170e-01 8.110115528106689453e-01
-3.230330646038055420e-01 -1.043447852134704590e-02 7.246856689453125000e-01
-3.663611412048339844e-01 2.403715252876281738e-01 6.828949451446533203e-01
-3.870095610618591309e-01 2.241927385330200195e-01 6.506986618041992188e-01
-2.983997762203216553e-01 2.354027479887008667e-01 6.516949534416198730e-01
-2.104270160198211670e-01 2.348080873489379883e-01 6.536933779716491699e-01
-5.804690718650817871e-02 2.001404166221618652e-01 6.644481420516967773e-01
-4.845400452613830566e-01 1.298472583293914795e-01 5.895308256149291992e-01
-5.736029148101806641e-01 1.163253337144851685e-01 7.476364374160766602e-01
-1.367839276790618896e-01 2.275834381580352783e-01 6.608738899230957031e-01
-2.357437163591384888e-01 -7.273152470588684082e-03 7.520220875740051270e-01
7.195498049259185791e-02 1.609773337841033936e-01 7.540017366409301758e-01
-1.659158468246459961e-01 3.573436290025711060e-02 8.711466789245605469e-01
-1.929329335689544678e-01 6.912261247634887695e-02 9.089157581329345703e-01
-1.603786051273345947e-01 9.308519214391708374e-02 9.240853786468505859e-01
-3.033688962459564209e-01 9.150929749011993408e-02 5.711748003959655762e-01
-2.792572975158691406e-01 1.687052100896835327e-02 8.418373465538024902e-01
-1.334423720836639404e-01 5.354677140712738037e-02 6.372745037078857422e-01
-1.393231749534606934e-01 7.776628434658050537e-02 9.134280681610107422e-01
-2.180036902427673340e-01 1.353275030851364136e-02 6.566033959388732910e-01
7.859550416469573975e-02 1.365179717540740967e-01 8.413048982620239258e-01
-1.908245682716369629e-01 1.766568422317504883e-02 8.422159552574157715e-01
-3.745931684970855713e-01 5.767112970352172852e-02 5.824654102325439453e-01
-5.417219996452331543e-01 1.563834995031356812e-01 6.437914967536926270e-01
-3.416621088981628418e-01 2.370846569538116455e-01 8.300679922103881836e-01
-3.124034404754638672e-01 1.488164663314819336e-01 5.732219219207763672e-01
-1.477307528257369995e-01 1.549362987279891968e-01 6.042166948318481445e-01
-6.982564926147460938e-03 1.517244130373001099e-01 9.147574901580810547e-01
-1.558325439691543579e-01 2.665694355964660645e-01 7.687047719955444336e-01
-3.983795940876007080e-01 2.303074300289154053e-01 8.026462793350219727e-01
-1.742598414421081543e-01 2.424281239509582520e-01 6.738051176071166992e-01
-5.492554903030395508e-01 1.540114730596542358e-01 7.621310353279113770e-01
-4.217630624771118164e-01 7.550838589668273926e-02 5.772308707237243652e-01
-1.266146302223205566e-01 5.947273969650268555e-02 8.954720497131347656e-01
-3.703464865684509277e-01 6.496056914329528809e-03 6.455199122428894043e-01
-8.199545741081237793e-02 2.454498410224914551e-02 7.333987951278686523e-01
1.170875132083892822e-02 2.203366458415985107e-01 8.607617020606994629e-01
-1.238134503364562988e-01 8.767838776111602783e-02 6.176570653915405273e-01
-8.021126687526702881e-02 3.107126802206039429e-02 7.109611034393310547e-01
3.427709639072418213e-02 1.724552512168884277e-01 8.911056518554687500e-01
-8.469748497009277344e-02 1.083578467369079590e-01 9.245022535324096680e-01
-2.479772865772247314e-01 2.536237835884094238e-01 6.904680132865905762e-01
-2.462330311536788940e-01 9.399235248565673828e-03 6.549696326255798340e-01
-4.354843497276306152e-02 4.793801158666610718e-02 7.098358869552612305e-01
-3.708140254020690918e-01 4.067551344633102417e-02 8.536140918731689453e-01
-1.918001919984817505e-01 1.848195940256118774e-01 6.058681607246398926e-01
-3.467012047767639160e-01 2.463082969188690186e-01 6.927284002304077148e-01
-2.278357744216918945e-01 2.738127857446670532e-02 8.624366521835327148e-01
-1.954273581504821777e-01 1.544725596904754639e-01 5.911119580268859863e-01
-4.936110973358154297e-01 8.105821907520294189e-02 8.241164088249206543e-01
-1.145590990781784058e-01 2.861776202917098999e-02 8.439644575119018555e-01
-1.149998903274536133e-01 2.635597586631774902e-01 7.920592427253723145e-01
-3.620862662792205811e-01 6.518810987472534180e-04 7.842541337013244629e-01
-4.941829442977905273e-01 1.236883178353309631e-01 8.329635262489318848e-01
-2.902234196662902832e-01 2.131810486316680908e-01 8.868801593780517578e-01
-3.553332686424255371e-01 2.502459585666656494e-01 7.224954962730407715e-01
-3.004775047302246094e-01 -1.057577133178710938e-02 7.335703969001770020e-01
1.875869929790496826e-02 9.620606899261474609e-02 8.760688900947570801e-01
-5.325372815132141113e-01 1.832712888717651367e-01 6.978055238723754883e-01
-2.141416221857070923e-01 6.604722142219543457e-02 9.058927297592163086e-01
-3.679423332214355469e-01 2.431392073631286621e-01 7.915924191474914551e-01
-3.756776750087738037e-01 2.121740281581878662e-01 8.515309095382690430e-01
-5.127654075622558594e-01 1.041134297847747803e-01 8.179547786712646484e-01
-4.123104512691497803e-01 2.307153046131134033e-01 7.859761714935302734e-01
-3.997088670730590820e-01 3.387925028800964355e-02 6.042507290840148926e-01
7.929578423500061035e-03 1.147586479783058167e-01 6.853309869766235352e-01
-4.411702156066894531e-01 3.355163335800170898e-02 8.131363391876220703e-01
-5.798261761665344238e-01 1.307619214057922363e-01 7.191467881202697754e-01
-4.221166074275970459e-01 1.125117391347885132e-02 6.452727317810058594e-01
-4.369549155235290527e-01 2.253883481025695801e-01 6.903237104415893555e-01
-2.675039470195770264e-01 6.181426346302032471e-03 8.201110363006591797e-01
-3.000531196594238281e-01 -5.711495876312255859e-03 7.780138850212097168e-01
-1.406939029693603516e-01 1.772028952836990356e-01 6.152590513229370117e-01
-4.645813703536987305e-01 1.316120922565460205e-01 5.835394263267517090e-01
-3.069509863853454590e-01 1.099305003881454468e-01 9.135820269584655762e-01
-1.585116088390350342e-01 2.470143735408782959e-01 6.872064471244812012e-01
-9.844493865966796875e-02 1.652367413043975830e-02 7.626954317092895508e-01
-1.731671392917633057e-01 2.546850442886352539e-01 8.483636379241943359e-01
7.207988202571868896e-02 1.347586214542388916e-01 7.545551657676696777e-01
-1.917441189289093018e-02 4.715794324874877930e-02 8.111306428909301758e-01
-3.086022734642028809e-01 2.409055829048156738e-03 8.054265379905700684e-01
-4.529643654823303223e-01 1.856302022933959961e-01 6.172430515289306641e-01
-1.012484878301620483e-01 2.434999346733093262e-01 7.021417021751403809e-01
-9.579105675220489502e-02 1.460431814193725586e-01 9.344356060028076172e-01
-1.338098794221878052e-01 1.127833202481269836e-01 6.061935424804687500e-01
-1.377353668212890625e-01 2.111199200153350830e-01 9.125971794128417969e-01
-5.650045871734619141e-01 1.079941987991333008e-01 6.358917355537414551e-01
-2.802901268005371094e-01 8.732408285140991211e-03 6.470760107040405273e-01
-6.988099217414855957e-02 6.229840219020843506e-02 8.840452432632446289e-01
-8.120419085025787354e-02 2.389000654220581055e-01 7.032697796821594238e-01
-4.229207038879394531e-01 1.911839544773101807e-01 8.466597199440002441e-01
-3.654441237449645996e-02 6.083389371633529663e-02 8.658422827720642090e-01
-5.516151785850524902e-01 9.963094443082809448e-02 6.221995353698730469e-01
-4.416692256927490234e-01 1.683198064565658569e-01 5.965409278869628906e-01
-2.161537259817123413e-01 -3.272742033004760742e-03 7.132952809333801270e-01
-5.044353604316711426e-01 2.005710005760192871e-01 7.059341073036193848e-01
-5.431441068649291992e-01 6.583502143621444702e-02 6.305723786354064941e-01
-1.586833298206329346e-01 2.546929121017456055e-01 7.061003446578979492e-01
-1.019315868616104126e-01 2.252279520034790039e-01 6.708880662918090820e-01
-1.106448322534561157e-01 1.238658130168914795e-01 9.330008029937744141e-01
-1.915268599987030029e-01 2.450025975704193115e-01 8.676432371139526367e-01
-5.675210356712341309e-01 1.365338712930679321e-01 7.476595640182495117e-01
-4.114742875099182129e-01 2.376869171857833862e-01 7.309402823448181152e-01
-2.872122824192047119e-02 5.338496714830398560e-02 8.451617360115051270e-01
-2.677269577980041504e-01 2.496978044509887695e-01 6.806539297103881836e-01
-5.790415406227111816e-01 1.366304308176040649e-01 6.989812254905700684e-01
-4.752359092235565186e-01 1.973040848970413208e-01 6.478422880172729492e-01
-3.405966758728027344e-01 -2.598032355308532715e-03 7.811572551727294922e-01
-9.427371621131896973e-02 2.590802311897277832e-02 8.240321874618530273e-01
-3.218421638011932373e-01 1.487529873847961426e-01 9.110891819000244141e-01
-1.397658884525299072e-02 1.307111382484436035e-01 6.647725105285644531e-01
-3.075977265834808350e-01 -9.132221341133117676e-03 7.558619379997253418e-01
-4.757966995239257812e-01 9.493233263492584229e-02 8.416238427162170410e-01
-5.109403133392333984e-01 1.367019265890121460e-01 6.040319204330444336e-01
-1.711327731609344482e-01 1.926300823688507080e-01 6.160296797752380371e-01
-3.228176832199096680e-01 1.268304884433746338e-01 5.678506493568420410e-01
6.112320721149444580e-02 2.035618722438812256e-01 8.023127317428588867e-01
-3.939870595932006836e-01 1.360405683517456055e-01 5.715156793594360352e-01
-1.593115329742431641e-01 4.352315515279769897e-02 6.359044909477233887e-01
-2.010198384523391724e-01 2.100527584552764893e-01 6.241495609283447266e-01
-2.997764945030212402e-02 4.800306260585784912e-02 7.274587750434875488e-01
-4.176515340805053711e-01 1.758558303117752075e-01 8.619542717933654785e-01
-2.851743400096893311e-01 4.962521791458129883e-02 8.841610550880432129e-01
-4.492157697677612305e-01 1.663942188024520874e-01 8.490200638771057129e-01
5.040796101093292236e-02 1.272997558116912842e-01 8.750868439674377441e-01
-2.086615115404129028e-01 1.777737140655517578e-01 5.981971621513366699e-01
-5.705547332763671875e-01 8.628346025943756104e-02 7.460147738456726074e-01
-4.508107900619506836e-01 2.016966789960861206e-02 6.366361975669860840e-01
-4.385799765586853027e-01 2.129740864038467407e-01 8.042299747467041016e-01
-6.776727735996246338e-02 1.200016140937805176e-01 9.259114861488342285e-01
-2.447344213724136353e-01 -2.710998058319091797e-03 6.913269162178039551e-01
-5.345393419265747070e-01 1.228970885276794434e-01 6.124877929687500000e-01
-2.277599275112152100e-02 1.751861572265625000e-01 6.678236722946166992e-01
5.325950682163238525e-02 1.616954356431961060e-01 7.268542051315307617e-01
8.207233250141143799e-02 1.324397325515747070e-01 7.836478948593139648e-01
-5.218554735183715820e-01 3.722365945577621460e-02 6.522262096405029297e-01
-3.552244305610656738e-01 2.159124165773391724e-01 6.275994181632995605e-01
-2.648442387580871582e-01 1.905770897865295410e-01 9.110947847366333008e-01
-4.795793890953063965e-01 1.202873885631561279e-02 6.993228197097778320e-01
1.878552138805389404e-02 1.951346397399902344e-01 7.132052779197692871e-01
2.016750127077102661e-01 9.949377179145812988e-02 7.788471579551696777e-01
1.861064285039901733e-01 9.521532058715820312e-02 8.043085336685180664e-01
2.646875977516174316e-01 1.185150146484375000e-01 7.595276236534118652e-01
1.329728364944458008e-01 1.030477136373519897e-01 8.327614068984985352e-01
1.353911757469177246e-01 1.390121132135391235e-01 7.784503698348999023e-01
1.010516285896301270e-01 1.394660025835037231e-01 7.952877879142761230e-01
1.914286911487579346e-01 1.672515273094177246e-01 7.911769151687622070e-01
1.364479660987854004e-01 1.123018488287925720e-01 7.750795483589172363e-01
8.736265450716018677e-02 1.236527860164642334e-01 7.929358482360839844e-01
1.240201592445373535e-01 1.279403269290924072e-01 8.454025983810424805e-01
1.118989214301109314e-01 1.348708271980285645e-01 7.857789993286132812e-01
1.713020652532577515e-01 1.518896371126174927e-01 8.385257124900817871e-01
2.785197198390960693e-01 1.720069497823715210e-01 7.770086526870727539e-01
2.807717323303222656e-01 1.747668236494064331e-01 7.958583235740661621e-01
2.359500676393508911e-01 1.740568578243255615e-01 7.953763604164123535e-01
3.313341736793518066e-01 1.426425874233245850e-01 7.995259165763854980e-01
9.099812805652618408e-02 1.216782256960868835e-01 8.421270847320556641e-01
3.174485266208648682e-01 1.621687412261962891e-01 7.636278867721557617e-01
3.069082796573638916e-01 1.228756532073020935e-01 7.966252565383911133e-01
3.030197024345397949e-01 1.734346449375152588e-01 7.868272066116333008e-01
3.031381964683532715e-01 1.421115845441818237e-01 7.540585994720458984e-01
2.259856164455413818e-01 1.093943268060684204e-01 8.200851082801818848e-01
2.731067538261413574e-01 1.124043390154838562e-01 7.689208984375000000e-01
3.002868592739105225e-01 1.445456743240356445e-01 8.158325552940368652e-01
1.996071785688400269e-01 1.030731573700904846e-01 7.725260853767395020e-01
1.652039587497711182e-01 1.489352434873580933e-01 7.748259902000427246e-01
1.549120992422103882e-01 1.170580014586448669e-01 7.691590189933776855e-01
2.912580668926239014e-01 1.693328917026519775e-01 7.711641192436218262e-01
2.558372318744659424e-01 1.349278986454010010e-01 7.533542513847351074e-01
3.117234110832214355e-01 1.225620359182357788e-01 7.911142706871032715e-01
9.559171646833419800e-02 1.364624053239822388e-01 8.391489982604980469e-01
1.311008334159851074e-01 1.085411235690116882e-01 8.381198644638061523e-01
2.911834120750427246e-01 1.316960006952285767e-01 7.547330856323242188e-01
1.376230120658874512e-01 1.077459678053855896e-01 8.370339274406433105e-01
2.368724048137664795e-01 1.279203295707702637e-01 8.313044309616088867e-01
2.758859992027282715e-01 1.652244031429290771e-01 7.660382986068725586e-01
1.729826629161834717e-01 1.148822680115699768e-01 8.379268646240234375e-01
2.310801446437835693e-01 1.367523670196533203e-01 8.351134061813354492e-01
3.521676063537597656e-01 1.505334675312042236e-01 7.733477950096130371e-01
1.945523470640182495e-01 1.079509407281875610e-01 7.675259709358215332e-01
1.665677130222320557e-01 9.970547258853912354e-02 8.233451247215270996e-01
3.050469756126403809e-01 1.184610128402709961e-01 7.761621475219726562e-01
2.048199921846389771e-01 1.383498907089233398e-01 7.595596313476562500e-01
8.028279244899749756e-02 9.969000518321990967e-02 8.113875985145568848e-01
2.277389615774154663e-01 1.648695468902587891e-01 7.734305858612060547e-01
6.580121815204620361e-02 1.131251752376556396e-01 8.321397900581359863e-01
1.568470299243927002e-01 1.026123911142349243e-01 8.294308185577392578e-01
1.083502918481826782e-01 1.365202218294143677e-01 8.421293497085571289e-01
2.022584378719329834e-01 1.492266654968261719e-01 7.647131681442260742e-01
1.740443706512451172e-01 1.669694632291793823e-01 8.066794276237487793e-01
2.640351057052612305e-01 1.747460961341857910e-01 8.006455898284912109e-01
2.163773477077484131e-01 9.841544926166534424e-02 7.988503575325012207e-01
2.052563577890396118e-01 1.711749136447906494e-01 7.986932396888732910e-01
3.057837188243865967e-01 1.286900043487548828e-01 7.588593959808349609e-01
1.781392544507980347e-01 1.657694131135940552e-01 8.202234506607055664e-01
1.159644797444343567e-01 1.533307433128356934e-01 8.197796344757080078e-01
1.705808341503143311e-01 1.094557195901870728e-01 8.343090415000915527e-01
1.692298501729965210e-01 1.648646891117095947e-01 8.192846179008483887e-01
