3.563864827156066895e-01 2.721236646175384521e-02 -2.170614153146743774e-02
1.954475492238998413e-01 1.219291090965270996e-01 2.269591987133026123e-01
2.599535882472991943e-01 1.515583321452140808e-02 2.088390141725540161e-01
2.782211303710937500e-01 -1.770676299929618835e-02 1.099700480699539185e-01
1.282640397548675537e-01 -1.097018644213676453e-02 9.158316999673843384e-02
2.756919860839843750e-01 -5.662083625793457031e-03 1.538842916488647461e-01
2.004200369119644165e-01 1.375524550676345825e-01 8.305511623620986938e-02
7.971072196960449219e-02 4.765608161687850952e-02 1.845928430557250977e-01
3.054757118225097656e-01 1.297228634357452393e-01 -4.301043599843978882e-02
8.857119083404541016e-02 1.744922250509262085e-02 2.740939855575561523e-01
1.439747214317321777e-01 -2.526576444506645203e-02 9.658657014369964600e-02
3.303439319133758545e-01 7.361929118633270264e-02 1.454345136880874634e-01
1.246063262224197388e-01 1.062438786029815674e-01 1.796001493930816650e-01
1.828530579805374146e-01 -1.737187430262565613e-02 3.371651470661163330e-02
1.473496407270431519e-01 -3.669131919741630554e-02 1.690037995576858521e-01
2.003479897975921631e-01 1.398040950298309326e-01 9.748010337352752686e-02
1.230560615658760071e-01 3.527704626321792603e-02 6.886142492294311523e-02
1.426276862621307373e-01 7.574800401926040649e-03 2.852042019367218018e-01
3.336303532123565674e-01 6.256704032421112061e-02 1.374131441116333008e-01
2.770141959190368652e-01 2.154101803898811340e-02 1.941454410552978516e-01
2.451497316360473633e-01 -3.120386973023414612e-02 5.655308812856674194e-02
2.961252331733703613e-01 7.788127660751342773e-02 1.936479508876800537e-01
3.041041791439056396e-01 1.212431639432907104e-01 1.553238034248352051e-01
3.719184398651123047e-01 5.541527271270751953e-02 3.761279582977294922e-02
1.599939763545989990e-01 -3.146716579794883728e-02 9.342791140079498291e-02
3.498903512954711914e-01 2.214986458420753479e-02 3.886812180280685425e-02
1.328339874744415283e-01 -2.082158252596855164e-02 2.427384853363037109e-01
2.192658334970474243e-01 7.003302872180938721e-02 2.665106654167175293e-01
2.865621447563171387e-01 8.032249659299850464e-02 -8.422634750604629517e-02
2.560923993587493896e-01 -2.982262894511222839e-02 8.351018279790878296e-02
3.364655971527099609e-01 1.413550972938537598e-01 4.430835321545600891e-02
3.891471624374389648e-01 2.026043534278869629e-01 1.231172755360603333e-01
4.140219688415527344e-01 2.098574787378311157e-01 2.172836661338806152e-02
7.626388967037200928e-02 2.165319174528121948e-01 3.551845550537109375e-01
3.703711032867431641e-01 1.216301694512367249e-01 1.061390191316604614e-01
1.107888966798782349e-01 2.200643420219421387e-01 2.763526141643524170e-01
1.752884387969970703e-01 9.994562715291976929e-02 2.823650240898132324e-01
4.498369991779327393e-02 2.038615047931671143e-01 4.036242961883544922e-01
2.365885823965072632e-01 2.388872057199478149e-01 2.037193477153778076e-01
2.948243021965026855e-01 1.836839616298675537e-01 2.730604410171508789e-01
3.344262838363647461e-01 1.148435696959495544e-01 1.528469771146774292e-01
1.145715117454528809e-01 1.149686872959136963e-01 2.524789869785308838e-01
2.153740823268890381e-02 1.546170562505722046e-01 4.591999650001525879e-01
3.379851579666137695e-01 1.569950282573699951e-01 -1.998272538185119629e-02
3.435921669006347656e-01 1.125535368919372559e-01 6.021663546562194824e-02
9.167598187923431396e-02 1.109519228339195251e-01 3.615261316299438477e-01
1.259783804416656494e-01 2.232639044523239136e-01 3.634189367294311523e-01
3.611271381378173828e-01 1.927262544631958008e-01 1.802618652582168579e-01
8.389702439308166504e-02 2.047585844993591309e-01 4.250249266624450684e-01
1.894687861204147339e-01 2.360232621431350708e-01 2.722432315349578857e-01
3.488757610321044922e-01 1.174118369817733765e-01 1.353174149990081787e-01
1.643792092800140381e-01 1.120826452970504761e-01 3.462259769439697266e-01
4.190912842750549316e-01 1.379860490560531616e-01 3.388652205467224121e-02
3.588786423206329346e-01 2.192583233118057251e-01 2.211225032806396484e-02
1.583751142024993896e-01 2.088843435049057007e-01 1.756644248962402344e-01
3.109043538570404053e-01 1.046550124883651733e-01 1.234172061085700989e-01
1.418452262878417969e-01 1.459461897611618042e-01 1.697042286396026611e-01
3.296579718589782715e-01 1.814416348934173584e-01 2.301948219537734985e-01
4.463572800159454346e-02 1.807328015565872192e-01 3.186051845550537109e-01
9.136065840721130371e-02 1.604838371276855469e-01 4.529184103012084961e-01
1.597014069557189941e-02 1.842353343963623047e-01 4.251375198364257812e-01
2.792192399501800537e-01 1.535983979701995850e-01 2.889758944511413574e-01
1.649250686168670654e-01 1.732811629772186279e-01 1.370485723018646240e-01
1.286331564188003540e-01 1.032110527157783508e-01 3.050721287727355957e-01
2.849767208099365234e-01 1.221212744712829590e-01 5.171297490596771240e-02
1.400921046733856201e-01 1.882077008485794067e-01 4.174268245697021484e-01
3.087501525878906250e-01 2.354027926921844482e-01 1.379476487636566162e-01
4.124568998813629150e-01 2.029623687267303467e-01 -1.892687380313873291e-02
4.302626848220825195e-01 2.003940939903259277e-01 1.429036259651184082e-02
3.904210329055786133e-01 1.784186512231826782e-01 1.412725448608398438e-01
1.726961135864257812e-01 2.120854109525680542e-01 3.674060702323913574e-01
2.330974787473678589e-01 1.149289831519126892e-01 2.912969589233398438e-01
3.772186040878295898e-01 1.807800531387329102e-01 1.621091812849044800e-01
3.814719319343566895e-01 2.199633568525314331e-01 8.684577047824859619e-02
5.319061875343322754e-02 1.252510696649551392e-01 3.432971537113189697e-01
2.650341689586639404e-01 1.123966872692108154e-01 2.482122182846069336e-01
4.949493706226348877e-02 1.748449057340621948e-01 3.047593235969543457e-01
1.061284691095352173e-01 1.862970739603042603e-01 2.200447916984558105e-01
1.494207978248596191e-02 1.683583855628967285e-01 3.817167580127716064e-01
2.118935585021972656e-01 1.530305296182632446e-01 8.659275621175765991e-02
1.110330522060394287e-01 2.132017910480499268e-01 2.533264756202697754e-01
1.667344719171524048e-01 2.045760303735733032e-01 3.828372061252593994e-01
1.454212963581085205e-01 2.320238649845123291e-01 2.891634404659271240e-01
1.759064644575119019e-01 1.787200868129730225e-01 1.259494125843048096e-01
9.251651167869567871e-02 2.095499336719512939e-01 4.127796888351440430e-01
2.643806636333465576e-01 2.384691536426544189e-01 1.812505573034286499e-01
2.005830109119415283e-01 1.202641874551773071e-01 3.347174525260925293e-01
2.290412336587905884e-01 2.218576073646545410e-01 1.188396587967872620e-01
1.308803856372833252e-01 1.052755564451217651e-01 3.350180983543395996e-01
4.102025628089904785e-01 1.667156070470809937e-01 1.055168956518173218e-01
2.193213999271392822e-01 1.065586283802986145e-01 2.813715934753417969e-01
3.978312015533447266e-02 1.952304840087890625e-01 4.377102255821228027e-01
1.272550523281097412e-01 1.772449314594268799e-01 4.312545359134674072e-01
9.774594008922576904e-02 1.110505983233451843e-01 3.008115887641906738e-01
5.271969735622406006e-02 1.424158513545989990e-01 3.069092333316802979e-01
9.363991022109985352e-02 1.194946542382240295e-01 4.021756649017333984e-01
2.221886366605758667e-01 1.025127023458480835e-01 1.591557264328002930e-01
2.063209265470504761e-01 2.349138110876083374e-01 2.740832269191741943e-01
1.212223991751670837e-01 1.851285994052886963e-01 1.979168057441711426e-01
3.289475142955780029e-01 2.329495698213577271e-01 1.087745353579521179e-01
2.855808138847351074e-01 1.106209158897399902e-01 7.984448969364166260e-02
1.468031108379364014e-01 2.008967697620391846e-01 4.014823436737060547e-01
3.580390512943267822e-01 2.275588512420654297e-01 7.159869372844696045e-02
1.075890064239501953e-01 1.329916268587112427e-01 4.233463406562805176e-01
3.529638648033142090e-01 1.241663247346878052e-01 1.504055112600326538e-01
2.193499207496643066e-01 1.327465772628784180e-01 9.354930371046066284e-02
3.749563694000244141e-01 2.235546410083770752e-01 5.544984340667724609e-02
1.922799646854400635e-01 1.341427266597747803e-01 3.628401160240173340e-01
3.613865971565246582e-01 2.034086883068084717e-01 1.686662733554840088e-01
3.502990603446960449e-01 2.078539431095123291e-01 1.791285127401351929e-01
2.121725231409072876e-01 1.616578251123428345e-01 3.624881803989410400e-01
3.194354176521301270e-01 1.650516241788864136e-01 -9.812518954277038574e-03
2.160720527172088623e-02 1.388907134532928467e-01 4.012247920036315918e-01
3.147276043891906738e-01 2.097864001989364624e-01 2.267207205295562744e-02
1.227886527776718140e-01 1.530745476484298706e-01 4.320480227470397949e-01
3.623752295970916748e-01 1.578108370304107666e-01 -3.365236520767211914e-02
1.755793392658233643e-01 2.292076647281646729e-01 2.053050696849822998e-01
2.583207488059997559e-01 2.345103472471237183e-01 2.288947552442550659e-01
2.053467929363250732e-02 1.763009130954742432e-01 4.569119513034820557e-01
2.465973943471908569e-01 1.549742668867111206e-01 5.195969343185424805e-02
2.211096882820129395e-02 1.898150146007537842e-01 4.046394824981689453e-01
3.710846602916717529e-02 1.788843423128128052e-01 3.327009379863739014e-01
2.197458148002624512e-01 2.017036825418472290e-01 9.497649967670440674e-02
2.016625851392745972e-01 9.819348156452178955e-02 2.464174032211303711e-01
3.200711905956268311e-01 2.122025042772293091e-01 2.150354534387588501e-01
1.205313354730606079e-01 1.177514120936393738e-01 2.356053143739700317e-01
1.004788428544998169e-01 1.137629896402359009e-01 3.814091086387634277e-01
1.853421777486801147e-01 1.529463976621627808e-01 3.838982582092285156e-01
1.202003657817840576e-01 1.340239644050598145e-01 4.175637066364288330e-01
1.842625439167022705e-01 1.108198091387748718e-01 1.692223995923995972e-01
2.337143719196319580e-01 1.101941615343093872e-01 2.781227231025695801e-01
1.450807303190231323e-01 2.318282723426818848e-01 3.032889962196350098e-01
2.206269204616546631e-01 2.330924868583679199e-01 2.730624675750732422e-01
1.887964904308319092e-01 1.570094227790832520e-01 1.099215447902679443e-01
2.083256393671035767e-01 1.872420310974121094e-01 9.441684931516647339e-02
3.852018117904663086e-01 2.120822370052337646e-01 -1.363724470138549805e-03
2.616260647773742676e-01 2.379805147647857666e-01 1.970558762550354004e-01
1.192543730139732361e-01 1.565308719873428345e-01 1.945126354694366455e-01
4.101232588291168213e-01 1.353556513786315918e-01 5.648860335350036621e-02
2.625678777694702148e-01 2.116447389125823975e-01 2.853668034076690674e-01
7.160335779190063477e-02 1.460731029510498047e-01 4.536416530609130859e-01
2.596029639244079590e-01 1.814022064208984375e-01 4.104569554328918457e-02
1.443440318107604980e-01 1.416354477405548096e-01 4.094052314758300781e-01
3.464576601982116699e-01 1.941881626844406128e-01 -1.645201444625854492e-02
8.802421391010284424e-02 1.489896774291992188e-01 2.420624494552612305e-01
1.485713422298431396e-01 1.112551689147949219e-01 3.543162345886230469e-01
2.202728837728500366e-01 2.274530827999114990e-01 1.434057354927062988e-01
3.532378077507019043e-01 1.603847146034240723e-01 1.967638432979583740e-01
7.009434700012207031e-02 1.161230206489562988e-01 3.470154404640197754e-01
1.917118579149246216e-01 2.220656573772430420e-01 1.610872447490692139e-01
4.278355240821838379e-01 1.543324738740921021e-01 5.647295713424682617e-02
5.589069426059722900e-02 1.787574589252471924e-01 4.629994630813598633e-01
4.042739272117614746e-01 1.490934491157531738e-01 1.031985580921173096e-01
6.952436268329620361e-02 2.109222710132598877e-01 4.034553766250610352e-01
2.129594832658767700e-01 2.382414191961288452e-01 2.203681468963623047e-01
2.994973659515380859e-01 1.191703006625175476e-01 2.207688242197036743e-01
2.934693396091461182e-01 1.512861549854278564e-01 2.708108723163604736e-01
3.670739233493804932e-01 1.290543973445892334e-01 -1.520678400993347168e-03
3.885959088802337646e-01 1.249414235353469849e-01 7.178768515586853027e-02
2.526147961616516113e-01 1.042951270937919617e-01 2.344806790351867676e-01
5.620647966861724854e-02 1.955104172229766846e-01 4.439331889152526855e-01
1.413823962211608887e-01 2.038407921791076660e-01 1.902595609426498413e-01
2.391806244850158691e-01 1.435076296329498291e-01 6.479416787624359131e-02
4.043474793434143066e-02 1.289517134428024292e-01 4.160933494567871094e-01
4.483662545680999756e-02 1.352828741073608398e-01 3.344591856002807617e-01
3.370841741561889648e-01 1.217843443155288696e-01 2.353954315185546875e-02
3.335041999816894531e-01 2.169325798749923706e-01 2.503100037574768066e-02
1.056162714958190918e-01 1.069915294647216797e-01 3.286765813827514648e-01
3.119441270828247070e-01 1.327816843986511230e-01 1.653672754764556885e-02
3.779167532920837402e-01 1.207433193922042847e-01 3.553181886672973633e-02
1.586107015609741211e-01 1.685387939214706421e-01 4.098401665687561035e-01
3.246333003044128418e-01 1.084780022501945496e-01 1.369333565235137939e-01
3.305575847625732422e-01 1.892443150281906128e-01 -1.062704622745513916e-02
2.663962543010711670e-01 1.881611347198486328e-01 3.035756051540374756e-01
1.594580262899398804e-01 2.235638648271560669e-01 2.077149748802185059e-01
4.426521360874176025e-01 1.798561066389083862e-01 2.484981715679168701e-02
2.767497897148132324e-01 1.216350346803665161e-01 2.555736303329467773e-01
2.916104793548583984e-01 2.161264121532440186e-01 5.054917931556701660e-02
3.417561054229736328e-01 2.218800634145736694e-01 3.497332334518432617e-02
8.773252367973327637e-03 1.696174740791320801e-01 4.085967540740966797e-01
2.578361332416534424e-02 1.738709956407546997e-01 3.547847568988800049e-01
1.671337634325027466e-01 1.451773941516876221e-01 3.946125805377960205e-01
1.807122081518173218e-01 1.146251559257507324e-01 3.401463031768798828e-01
3.829745054244995117e-01 1.359600424766540527e-01 -1.784199476242065430e-02
4.356027245521545410e-01 1.747956871986389160e-01 4.971356689929962158e-02
2.121496200561523438e-01 2.075273990631103516e-01 3.413615822792053223e-01
1.375277489423751831e-01 2.145859897136688232e-01 2.152657806873321533e-01
2.303947806358337402e-01 1.380925923585891724e-01 7.744392752647399902e-02
9.622609615325927734e-02 2.079082876443862915e-01 2.657324075698852539e-01
1.325868666172027588e-01 1.093604937195777893e-01 3.558065593242645264e-01
6.707227230072021484e-02 1.402923166751861572e-01 2.830798029899597168e-01
1.336819529533386230e-01 1.310582011938095093e-01 4.051175117492675781e-01
4.136339426040649414e-01 1.883817166090011597e-01 -4.322110116481781006e-02
2.700791954994201660e-01 2.299131304025650024e-01 2.352833598852157593e-01
3.163717985153198242e-01 2.326934486627578735e-01 1.550371795892715454e-01
1.823278069496154785e-01 1.749248653650283813e-01 3.899115324020385742e-01
2.157344073057174683e-01 9.764865785837173462e-02 2.123670130968093872e-01
3.666901588439941406e-02 1.575540602207183838e-01 3.276869654655456543e-01
2.668595314025878906e-01 1.061456725001335144e-01 2.241694331169128418e-01
2.502071857452392578e-01 2.382338196039199829e-01 2.082574814558029175e-01
2.581078410148620605e-01 1.108256876468658447e-01 9.792879223823547363e-02
1.216116771101951599e-01 2.231467366218566895e-01 2.687354087829589844e-01
4.489423334598541260e-02 1.504296064376831055e-01 3.147476315498352051e-01
1.970221698284149170e-01 2.158342003822326660e-01 3.417020440101623535e-01
2.920305728912353516e-01 1.574459820985794067e-01 1.213972270488739014e-02
1.574766933917999268e-01 1.006107181310653687e-01 2.558902502059936523e-01
2.648401856422424316e-01 1.713106930255889893e-01 3.366319835186004639e-02
3.801231384277343750e-01 1.296823322772979736e-01 1.135697290301322937e-01
3.118929862976074219e-01 2.110800892114639282e-01 2.276370674371719360e-01
2.691164612770080566e-02 1.363185346126556396e-01 3.856034874916076660e-01
2.355615347623825073e-01 2.191599458456039429e-01 1.061704754829406738e-01
1.720305979251861572e-01 1.232320144772529602e-01 3.648058176040649414e-01
4.171722531318664551e-01 1.965995132923126221e-01 7.510714232921600342e-02
3.783473372459411621e-01 2.006826251745223999e-01 1.449170410633087158e-01
2.436937242746353149e-01 2.388329803943634033e-01 1.901197582483291626e-01
2.533551752567291260e-01 1.693547368049621582e-01 4.382078349590301514e-02
2.383453696966171265e-01 1.837074905633926392e-01 3.351727426052093506e-01
1.449122130870819092e-01 1.015536859631538391e-01 2.730736732482910156e-01
1.756089031696319580e-01 1.080309003591537476e-01 3.252859115600585938e-01
4.140098392963409424e-02 1.266374737024307251e-01 3.984509706497192383e-01
2.756592631340026855e-01 2.113864868879318237e-01 2.711712419986724854e-01
1.505120396614074707e-01 1.224509179592132568e-01 3.798136115074157715e-01
2.019516527652740479e-01 1.080973893404006958e-01 3.034158051013946533e-01
1.872199177742004395e-01 9.962072968482971191e-02 2.731163501739501953e-01
2.700762152671813965e-01 1.535195857286453247e-01 2.993818819522857666e-01
3.363736867904663086e-01 2.304853498935699463e-01 1.294002979993820190e-01
1.480224579572677612e-01 2.302063703536987305e-01 3.244119286537170410e-01
1.691894680261611938e-01 1.010955870151519775e-01 2.299355268478393555e-01
1.087565049529075623e-01 1.518166363239288330e-01 2.105024307966232300e-01
3.664179742336273193e-01 2.148589342832565308e-01 7.675558328628540039e-03
4.349306225776672363e-02 1.987691223621368408e-01 3.551539182662963867e-01
3.619547486305236816e-01 1.151398941874504089e-01 6.467023491859436035e-02
2.929886281490325928e-01 1.844649761915206909e-01 1.398104429244995117e-02
2.933433949947357178e-01 2.201510369777679443e-01 2.343361973762512207e-01
3.472508490085601807e-01 1.291545182466506958e-01 3.623872995376586914e-03
4.372219443321228027e-01 1.946510970592498779e-01 -4.180788993835449219e-03
1.477105617523193359e-01 2.222508341073989868e-01 3.602385520935058594e-01
6.741751730442047119e-02 1.191208660602569580e-01 3.963662087917327881e-01
4.472297430038452148e-01 1.806074380874633789e-01 -6.859660148620605469e-03
1.879969984292984009e-01 1.904803663492202759e-01 3.788649737834930420e-01
2.400230020284652710e-01 2.284124344587326050e-01 2.728235423564910889e-01
9.531043469905853271e-02 1.796279996633529663e-01 2.314179837703704834e-01
3.812389373779296875e-01 1.435633450746536255e-01 1.389036774635314941e-01
1.984384953975677490e-01 1.689898669719696045e-01 9.851947426795959473e-02
1.628385782241821289e-01 2.333236932754516602e-01 2.526839673519134521e-01
6.015667319297790527e-02 2.060178220272064209e-01 3.352958559989929199e-01
2.606867253780364990e-01 1.378909200429916382e-01 4.993894696235656738e-02
3.955815434455871582e-01 2.089216411113739014e-01 9.708346426486968994e-02
3.599681854248046875e-01 2.140218913555145264e-01 1.521786749362945557e-01
3.025637269020080566e-01 2.355342507362365723e-01 1.205980777740478516e-01
3.674930334091186523e-01 1.398054808378219604e-01 1.569956243038177490e-01
1.770228147506713867e-01 2.352755665779113770e-01 2.442115098237991333e-01
2.656632661819458008e-01 2.259178161621093750e-01 9.467996656894683838e-02
3.738913536071777344e-01 1.456787586212158203e-01 -2.976666390895843506e-02
2.056642621755599976e-01 9.767864644527435303e-02 2.232553064823150635e-01
9.807416796684265137e-02 1.937019228935241699e-01 2.392715215682983398e-01
2.206170558929443359e-01 9.949807077646255493e-02 2.433624118566513062e-01
1.388739943504333496e-01 1.074553132057189941e-01 2.408602535724639893e-01
1.272445321083068848e-01 2.215286642313003540e-01 2.515292763710021973e-01
2.906495332717895508e-01 1.367745250463485718e-01 2.615611255168914795e-01
4.177466928958892822e-01 1.368160843849182129e-01 4.719123244285583496e-03
4.150577783584594727e-01 2.063561975955963135e-01 5.404984951019287109e-02
1.618061959743499756e-01 1.064850017428398132e-01 2.113706618547439575e-01
4.438567459583282471e-01 1.591657251119613647e-01 4.580378532409667969e-03
9.782852232456207275e-02 1.607675552368164062e-01 2.236048877239227295e-01
1.312405765056610107e-01 1.295298784971237183e-01 1.990404874086380005e-01
4.021546244621276855e-02 1.327572464942932129e-01 4.318163990974426270e-01
1.881693005561828613e-01 9.821214526891708374e-02 2.354117333889007568e-01
2.899038195610046387e-01 2.367593348026275635e-01 1.650540530681610107e-01
3.952561020851135254e-01 1.983081549406051636e-01 -3.049889206886291504e-02
3.343637883663177490e-01 2.125722020864486694e-01 1.945795118808746338e-01
3.038243055343627930e-01 1.768507659435272217e-01 2.640159130096435547e-01
1.855119913816452026e-01 1.242211237549781799e-01 3.551582694053649902e-01
2.447606176137924194e-01 1.491500288248062134e-01 3.245119452476501465e-01
2.144253253936767578e-01 1.021957322955131531e-01 2.674331665039062500e-01
3.982527554035186768e-01 2.052811980247497559e-01 -1.771177351474761963e-02
3.053904175758361816e-01 2.233082950115203857e-01 2.111150324344635010e-01
9.625983238220214844e-02 2.206560969352722168e-01 3.686646223068237305e-01
1.853393614292144775e-01 2.057545036077499390e-01 3.667926192283630371e-01
3.945052027702331543e-01 1.646925806999206543e-01 -4.802848398685455322e-02
2.444914728403091431e-01 2.200931757688522339e-01 2.895629405975341797e-01
1.896102428436279297e-01 1.089272350072860718e-01 3.169826865196228027e-01
3.319266438484191895e-01 1.379015445709228516e-01 -1.963272690773010254e-03
7.313635945320129395e-02 1.292320638895034790e-01 4.298354387283325195e-01
2.001544684171676636e-01 2.072999179363250732e-01 3.523243367671966553e-01
1.354530453681945801e-02 1.775844842195510864e-01 4.436062276363372803e-01
2.730918228626251221e-01 1.173711642622947693e-01 7.001283764839172363e-02
2.129064202308654785e-01 1.295738816261291504e-01 3.379472792148590088e-01
1.599836051464080811e-01 1.199368834495544434e-01 1.774592995643615723e-01
2.784703075885772705e-01 1.775543838739395142e-01 2.937775850296020508e-01
1.556616127490997314e-01 2.142712920904159546e-01 1.892075240612030029e-01
3.390579223632812500e-01 1.836580932140350342e-01 2.168382108211517334e-01
2.548709213733673096e-01 1.001631319522857666e-01 1.508684754371643066e-01
2.892359793186187744e-01 2.275085002183914185e-01 8.115576207637786865e-02
1.861417144536972046e-01 2.282459288835525513e-01 1.869818568229675293e-01
1.236152797937393188e-01 1.216172575950622559e-01 3.952587246894836426e-01
2.516445815563201904e-01 9.877964109182357788e-02 1.885830909013748169e-01
3.283993899822235107e-01 2.018426656723022461e-01 2.180568724870681763e-01
2.728828787803649902e-01 1.991017162799835205e-01 2.887201309204101562e-01
2.260107547044754028e-01 9.797322750091552734e-02 1.945016831159591675e-01
2.793073058128356934e-01 1.630497127771377563e-01 2.124889194965362549e-02
1.033083051443099976e-01 1.716548502445220947e-01 2.165181636810302734e-01
2.097412794828414917e-01 2.362098246812820435e-01 1.970425099134445190e-01
1.610298305749893188e-01 9.967795759439468384e-02 2.713957428932189941e-01
1.323280632495880127e-01 2.269973307847976685e-01 3.442051708698272705e-01
3.061352670192718506e-02 1.680840402841567993e-01 3.404114246368408203e-01
1.005873233079910278e-01 1.374599486589431763e-01 2.325833588838577271e-01
1.470506787300109863e-01 2.229054123163223267e-01 2.240087240934371948e-01
2.816748619079589844e-01 2.359117567539215088e-01 1.275207549333572388e-01
2.814899086952209473e-01 2.305765151977539062e-01 2.188529670238494873e-01
4.336491227149963379e-01 1.473424881696701050e-01 1.216767728328704834e-02
4.014569520950317383e-01 1.800916641950607300e-01 1.215881556272506714e-01
2.273314446210861206e-01 2.262285947799682617e-01 2.915459871292114258e-01
6.792522966861724854e-02 1.948588043451309204e-01 2.914352715015411377e-01
2.080482244491577148e-01 1.139012426137924194e-01 3.140757381916046143e-01
3.933544754981994629e-01 1.288503408432006836e-01 4.989147186279296875e-03
2.874661982059478760e-01 1.063897684216499329e-01 9.596995264291763306e-02
2.842272222042083740e-01 1.181352883577346802e-01 2.386797964572906494e-01
2.979779243469238281e-02 1.950690150260925293e-01 3.925027549266815186e-01
1.586130708456039429e-01 1.501503884792327881e-01 4.046626389026641846e-01
3.860084116458892822e-01 1.260588616132736206e-01 8.646421134471893311e-02
4.268463850021362305e-01 1.637389957904815674e-01 -4.757009446620941162e-02
9.365931153297424316e-02 1.411816179752349854e-01 4.400954842567443848e-01
3.783658146858215332e-01 2.017783522605895996e-01 -2.184608578681945801e-02
2.584316134452819824e-01 1.463149189949035645e-01 3.078644871711730957e-01
2.174860835075378418e-01 2.141113132238388062e-01 3.267912268638610840e-01
2.748581767082214355e-01 1.008296385407447815e-01 1.417680084705352783e-01
1.036682873964309692e-01 1.149901449680328369e-01 2.709583342075347900e-01
1.328545957803726196e-01 1.469539552927017212e-01 4.217150509357452393e-01
3.240764141082763672e-02 1.958813518285751343e-01 4.235288202762603760e-01
3.658390641212463379e-01 1.211861371994018555e-01 2.269785106182098389e-02
2.818697690963745117e-01 1.821226775646209717e-01 2.197395265102386475e-02
1.131519451737403870e-01 2.158778756856918335e-01 3.917373120784759521e-01
2.440795004367828369e-01 2.370185554027557373e-01 1.637234091758728027e-01
2.813334763050079346e-01 1.020850166678428650e-01 1.759471148252487183e-01
4.221343398094177246e-01 1.682485789060592651e-01 8.157560229301452637e-02
1.144278943538665771e-01 2.258168458938598633e-01 3.050771355628967285e-01
8.289869129657745361e-02 1.657879948616027832e-01 2.457633912563323975e-01
1.622367203235626221e-01 1.819172501564025879e-01 4.044016003608703613e-01
2.407041043043136597e-01 2.098881304264068604e-01 8.456228673458099365e-02
2.415086776018142700e-01 2.111845314502716064e-01 3.081477284431457520e-01
4.172199964523315430e-01 1.756905615329742432e-01 -5.078478157520294189e-02
3.036413490772247314e-01 1.049477010965347290e-01 1.558461487293243408e-01
3.911075294017791748e-01 1.242930218577384949e-01 5.145832896232604980e-02
4.001582264900207520e-01 1.348967254161834717e-01 8.343009650707244873e-02
2.350618243217468262e-01 1.135134026408195496e-01 1.102507039904594421e-01
2.631594538688659668e-01 1.224925518035888672e-01 2.734815776348114014e-01
3.884434700012207031e-01 2.189148962497711182e-01 7.076278328895568848e-02
4.020842909812927246e-02 1.996117532253265381e-01 3.701518476009368896e-01
2.482259720563888550e-01 1.061964556574821472e-01 1.210110783576965332e-01
1.275430172681808472e-01 1.971268057823181152e-01 2.003523260354995728e-01
7.024325430393218994e-02 1.873295605182647705e-01 2.774753570556640625e-01
2.496179938316345215e-01 1.204838305711746216e-01 8.273896574974060059e-02
3.157586753368377686e-01 1.243900656700134277e-01 2.767673134803771973e-02
5.812443792819976807e-02 1.515398174524307251e-01 2.894294559955596924e-01
2.699793279170989990e-01 1.355589330196380615e-01 2.847923040390014648e-01
2.512309253215789795e-01 1.147712990641593933e-01 2.708947360515594482e-01
1.546993553638458252e-01 1.920336484909057617e-01 1.595973521471023560e-01
1.697830557823181152e-01 1.602600812911987305e-01 1.307493597269058228e-01
3.271501064300537109e-01 1.164119094610214233e-01 1.715412437915802002e-01
3.843628764152526855e-01 1.237863600254058838e-01 2.252385020256042480e-02
4.111416935920715332e-01 1.493777632713317871e-01 8.923252671957015991e-02
3.403413295745849609e-01 1.105741560459136963e-01 1.112302467226982117e-01
3.111604452133178711e-01 1.261264383792877197e-01 2.193187773227691650e-01
2.464067190885543823e-01 1.702062040567398071e-01 3.293731212615966797e-01
8.716839551925659180e-02 1.124842762947082520e-01 3.189941644668579102e-01
2.778775393962860107e-01 2.362733781337738037e-01 1.920709162950515747e-01
2.794511318206787109e-01 1.354307234287261963e-01 2.735350430011749268e-01
5.234527587890625000e-02 2.035161405801773071e-01 4.209246635437011719e-01
1.538561880588531494e-01 1.341832578182220459e-01 3.947299718856811523e-01
2.443664669990539551e-01 2.340884953737258911e-01 2.461568266153335571e-01
3.662360906600952148e-01 2.237712144851684570e-01 4.340627789497375488e-02
1.016435027122497559e-01 2.139869630336761475e-01 3.994770050048828125e-01
3.144903779029846191e-01 1.132600754499435425e-01 1.814239174127578735e-01
3.777430951595306396e-02 1.609679609537124634e-01 4.677321314811706543e-01
2.237209975719451904e-01 1.594644188880920410e-01 7.278849184513092041e-02
2.165302336215972900e-01 2.352617532014846802e-01 1.814025640487670898e-01
6.206819415092468262e-02 2.116589993238449097e-01 3.725518286228179932e-01
2.302030771970748901e-01 1.028943061828613281e-01 2.544082403182983398e-01
3.979294896125793457e-01 2.119933664798736572e-01 8.147449791431427002e-02
3.697601556777954102e-01 2.088707983493804932e-01 -7.003098726272583008e-03
1.985197216272354126e-01 1.185905113816261292e-01 1.356465220451354980e-01
2.560307979583740234e-01 1.729885935783386230e-01 3.191177845001220703e-01
1.671271026134490967e-01 2.181052118539810181e-01 1.824116408824920654e-01
6.500153243541717529e-02 1.292539685964584351e-01 3.043273091316223145e-01
2.140844464302062988e-01 2.262718230485916138e-01 3.033165335655212402e-01
3.014388084411621094e-01 2.005220502614974976e-01 2.539707720279693604e-01
3.677948713302612305e-01 1.576540172100067139e-01 1.737598180770874023e-01
4.391767978668212891e-01 1.661292314529418945e-01 3.701438009738922119e-02
3.410833775997161865e-01 2.283467054367065430e-01 6.362387537956237793e-02
4.216755032539367676e-01 1.385238915681838989e-01 1.865437626838684082e-02
3.464218974113464355e-01 2.160916477441787720e-01 1.704806089401245117e-02
1.583603173494338989e-01 2.158659696578979492e-01 3.702982068061828613e-01
2.048530727624893188e-01 2.258833348751068115e-01 1.560174375772476196e-01
2.802730798721313477e-01 2.373913526535034180e-01 1.747433990240097046e-01
1.866860985755920410e-01 2.367059439420700073e-01 2.556785643100738525e-01
3.439671993255615234e-01 2.007187157869338989e-01 1.977821439504623413e-01
2.922148406505584717e-01 1.065822243690490723e-01 1.886977106332778931e-01
2.417793124914169312e-01 1.329033970832824707e-01 3.129016757011413574e-01
4.464802145957946777e-02 1.486954092979431152e-01 4.608154892921447754e-01
2.565723061561584473e-01 1.019810289144515991e-01 1.356485337018966675e-01
2.472356855869293213e-01 1.304942220449447632e-01 6.975588202476501465e-02
1.198187470436096191e-02 1.580591201782226562e-01 3.926098644733428955e-01
4.310275614261627197e-02 1.297997534275054932e-01 3.544031381607055664e-01
2.492202520370483398e-01 2.235559225082397461e-01 1.030851528048515320e-01
1.920154094696044922e-01 1.019892394542694092e-01 1.936514079570770264e-01
2.302876263856887817e-01 2.357983589172363281e-01 1.689089089632034302e-01
4.257738590240478516e-01 1.830407381057739258e-01 7.097840309143066406e-02
3.066034615039825439e-01 2.249246537685394287e-01 6.146670877933502197e-02
2.449260354042053223e-01 2.277556657791137695e-01 1.190377622842788696e-01
4.034235179424285889e-01 1.908192187547683716e-01 1.113543584942817688e-01
2.167385369539260864e-01 1.412563920021057129e-01 3.470586538314819336e-01
4.019227325916290283e-01 1.319518238306045532e-01 6.748740375041961670e-02
8.743605017662048340e-02 1.917823851108551025e-01 2.537612020969390869e-01
2.724381387233734131e-01 1.043815985321998596e-01 2.077814340591430664e-01
2.172414511442184448e-01 2.366403192281723022e-01 2.541641592979431152e-01
2.501890063285827637e-01 1.900772154331207275e-01 3.199038505554199219e-01
6.934487819671630859e-02 2.073971033096313477e-01 4.174249470233917236e-01
1.712988317012786865e-01 2.350475192070007324e-01 2.796401977539062500e-01
1.311900615692138672e-01 1.637671589851379395e-01 1.777510792016983032e-01
1.502702832221984863e-01 2.262378036975860596e-01 3.450601100921630859e-01
2.368996143341064453e-01 1.957603394985198975e-01 7.168862223625183105e-02
4.381850659847259521e-01 1.708742380142211914e-01 -4.264931380748748779e-02
4.299173951148986816e-01 1.914059519767761230e-01 -3.273054957389831543e-02
3.825919032096862793e-01 1.886821240186691284e-01 -3.789404034614562988e-02
2.577681839466094971e-01 1.273568570613861084e-01 2.878140807151794434e-01
5.892260372638702393e-02 1.585823297500610352e-01 4.648212790489196777e-01
3.561159968376159668e-01 2.273416817188262939e-01 1.041023880243301392e-01
2.873909771442413330e-01 2.134867608547210693e-01 2.542375028133392334e-01
3.493241369724273682e-01 2.168963104486465454e-01 1.628700196743011475e-01
3.730068504810333252e-01 1.191160231828689575e-01 8.193385601043701172e-02
6.189525127410888672e-02 1.254614293575286865e-01 4.199860692024230957e-01
1.744746267795562744e-01 1.997524499893188477e-01 1.431898176670074463e-01
3.447198867797851562e-01 1.167252957820892334e-01 3.812107443809509277e-02
4.370669722557067871e-01 1.854002475738525391e-01 3.833997249603271484e-02
2.953587770462036133e-01 1.977845430374145508e-01 2.182713150978088379e-02
7.372498512268066406e-02 1.957205235958099365e-01 4.426536560058593750e-01
1.732333004474639893e-01 2.187208831310272217e-01 3.541721403598785400e-01
3.122466504573822021e-01 1.505580544471740723e-01 2.223253250122070312e-05
3.177321553230285645e-01 2.230269312858581543e-01 4.929859936237335205e-02
3.293125331401824951e-01 1.353813707828521729e-01 2.089215070009231567e-01
9.410929679870605469e-02 2.183174192905426025e-01 3.820426464080810547e-01
1.948321610689163208e-01 1.948504298925399780e-01 1.148276850581169128e-01
1.605406403541564941e-01 1.037686765193939209e-01 3.169886171817779541e-01
9.493860602378845215e-02 1.156782880425453186e-01 2.847076654434204102e-01
3.092843294143676758e-02 1.494655907154083252e-01 3.453938066959381104e-01
2.125440686941146851e-01 1.076633483171463013e-01 1.480289697647094727e-01
1.142246499657630920e-01 2.042610943317413330e-01 2.296010851860046387e-01
2.792354226112365723e-01 2.014188766479492188e-01 3.870856761932373047e-02
3.106644749641418457e-01 1.925732493400573730e-01 5.630031228065490723e-03
2.916424870491027832e-01 1.107147783041000366e-01 2.073372453451156616e-01
2.994374930858612061e-01 2.336280941963195801e-01 1.784743666648864746e-01
6.012217700481414795e-02 2.101938128471374512e-01 3.929459452629089355e-01
3.850490748882293701e-01 2.132232487201690674e-01 1.074548214673995972e-01
1.470692753791809082e-01 1.602328568696975708e-01 4.176216125488281250e-01
3.034519553184509277e-01 1.127099692821502686e-01 6.351180374622344971e-02
4.179685413837432861e-01 1.452060639858245850e-01 6.538480520248413086e-02
3.822374343872070312e-01 1.617864966392517090e-01 1.529748141765594482e-01
1.920837461948394775e-01 2.228668928146362305e-01 3.304579555988311768e-01
3.237100541591644287e-01 1.728412955999374390e-01 2.393787652254104614e-01
8.520874381065368652e-02 2.159173786640167236e-01 3.146308064460754395e-01
2.592021226882934570e-02 1.452313065528869629e-01 3.635812997817993164e-01
2.146166115999221802e-01 1.965029239654541016e-01 3.506553769111633301e-01
3.054945766925811768e-01 1.169598400592803955e-01 4.999329149723052979e-02
3.857036530971527100e-01 2.202941179275512695e-01 4.153716564178466797e-02
7.532238960266113281e-02 1.627772897481918335e-01 4.605252742767333984e-01
2.249358296394348145e-01 1.066637784242630005e-01 1.393541842699050903e-01
4.013544917106628418e-01 1.635431498289108276e-01 1.208925247192382812e-01
2.692198753356933594e-01 9.988504648208618164e-02 1.663849353790283203e-01
2.145469188690185547e-02 1.613404303789138794e-01 3.619039058685302734e-01
1.973422765731811523e-01 1.812732666730880737e-01 3.751862645149230957e-01
3.667873144149780273e-01 2.223426401615142822e-01 1.116611063480377197e-01
1.737018227577209473e-01 2.101962268352508545e-01 1.585335731506347656e-01
2.386813014745712280e-01 1.008548587560653687e-01 1.547961831092834473e-01
2.171413153409957886e-01 1.811495572328567505e-01 8.199937641620635986e-02
1.556046903133392334e-01 1.036466434597969055e-01 2.338141351938247681e-01
3.726202845573425293e-01 2.192168086767196655e-01 2.191726863384246826e-02
2.875884771347045898e-01 2.373243570327758789e-01 1.510710418224334717e-01
1.112705692648887634e-01 1.262008547782897949e-01 4.106882214546203613e-01
2.314166724681854248e-01 1.559363603591918945e-01 3.417897224426269531e-01
7.424004375934600830e-02 1.766730546951293945e-01 2.625708580017089844e-01
8.483093976974487305e-02 1.115265339612960815e-01 3.448854088783264160e-01
3.955923318862915039e-01 1.379219889640808105e-01 1.017588526010513306e-01
4.317305982112884521e-02 2.031677961349487305e-01 3.838750123977661133e-01
6.627336144447326660e-03 1.641065031290054321e-01 4.212773442268371582e-01
1.032045483589172363e-02 1.657135635614395142e-01 4.495544731616973877e-01
2.585624456405639648e-01 1.598269492387771606e-01 3.147399425506591797e-01
2.059887647628784180e-01 1.056312322616577148e-01 1.618465185165405273e-01
2.801204323768615723e-01 2.317250072956085205e-01 1.037639603018760681e-01
3.395724296569824219e-01 1.696419566869735718e-01 2.182057201862335205e-01
2.016540616750717163e-01 9.939695149660110474e-02 2.606000602245330811e-01
2.506582736968994141e-01 1.852855384349822998e-01 5.111132562160491943e-02
3.181467354297637939e-01 2.209576219320297241e-01 1.997083574533462524e-01
1.783120632171630859e-01 1.026903316378593445e-01 3.004348278045654297e-01
2.186238616704940796e-01 2.117309421300888062e-01 1.098283752799034119e-01
3.232716321945190430e-01 2.275967746973037720e-01 6.260465085506439209e-02
2.779651284217834473e-01 2.103024423122406006e-01 5.142502486705780029e-02
1.296826004981994629e-01 2.289324104785919189e-01 2.919750809669494629e-01
3.679776191711425781e-01 1.805432289838790894e-01 -3.663322329521179199e-02
2.653895616531372070e-01 2.357260137796401978e-01 2.131626605987548828e-01
1.646366268396377563e-01 2.333676666021347046e-01 2.996571660041809082e-01
3.953333199024200439e-01 2.138341367244720459e-01 8.572190999984741211e-03
1.177184358239173889e-01 2.097651362419128418e-01 4.046321511268615723e-01
3.566370606422424316e-01 1.137092188000679016e-01 8.299702405929565430e-02
3.082944750785827637e-01 2.320317029953002930e-01 8.990627527236938477e-02
3.185020685195922852e-01 1.069055497646331787e-01 9.183172881603240967e-02
6.795135140419006348e-02 1.162358373403549194e-01 3.653579354286193848e-01
4.424913227558135986e-02 1.872091889381408691e-01 4.553036391735076904e-01
3.001459240913391113e-01 2.293716222047805786e-01 1.986798495054244995e-01
1.071093827486038208e-01 1.077646017074584961e-01 3.467722535133361816e-01
1.356879770755767822e-01 2.198660224676132202e-01 2.319735586643218994e-01
2.707332968711853027e-01 1.050581708550453186e-01 1.105659008026123047e-01
1.294991970062255859e-01 1.433234661817550659e-01 1.873028427362442017e-01
1.318474113941192627e-01 2.292163819074630737e-01 3.248658180236816406e-01
8.291995525360107422e-02 1.256907135248184204e-01 2.786022424697875977e-01
1.720366179943084717e-01 9.892111271619796753e-02 2.557205855846405029e-01
3.405975103378295898e-01 2.306104451417922974e-01 8.393274247646331787e-02
2.010159194469451904e-01 2.375476062297821045e-01 2.482143491506576538e-01
2.261108011007308960e-01 1.753644049167633057e-01 7.091599702835083008e-02
5.797101557254791260e-02 1.760068088769912720e-01 2.898669242858886719e-01
2.341417372226715088e-01 9.954229742288589478e-02 2.279620766639709473e-01
2.052847594022750854e-01 1.037728711962699890e-01 2.838450074195861816e-01
2.238520234823226929e-01 1.842301189899444580e-01 3.493516147136688232e-01
4.464556574821472168e-01 1.667381823062896729e-01 -2.430804073810577393e-02
2.720868289470672607e-01 1.373749226331710815e-01 4.080972075462341309e-02
3.348714113235473633e-01 2.231010347604751587e-01 1.686783730983734131e-01
1.848399937152862549e-01 2.328616380691528320e-01 2.987222373485565186e-01
8.364649116992950439e-02 2.149413228034973145e-01 3.936790823936462402e-01
3.178826570510864258e-01 1.560668051242828369e-01 2.429885417222976685e-01
1.645511537790298462e-01 1.303738355636596680e-01 1.559640318155288696e-01
4.018118977546691895e-01 2.148447036743164062e-01 4.892583191394805908e-02
3.845739066600799561e-01 1.778410822153091431e-01 -9.631946682929992676e-02
3.869342803955078125e-01 1.907205581665039062e-01 -2.564975023269653320e-01
2.410167157649993896e-01 2.509539127349853516e-01 -1.070140898227691650e-01
2.521024644374847412e-01 9.345927834510803223e-02 1.683875471353530884e-01
3.234544396400451660e-01 1.643284857273101807e-01 -3.822665810585021973e-01
2.959381043910980225e-01 2.482523024082183838e-01 -2.769750356674194336e-02
2.951151728630065918e-01 7.806044071912765503e-02 -1.244530826807022095e-02
3.211750686168670654e-01 2.541868090629577637e-01 -1.791922748088836670e-01
3.889719843864440918e-01 1.911874413490295410e-01 -1.729304492473602295e-01
1.784786880016326904e-01 2.138583511114120483e-01 -3.649271279573440552e-02
2.507194876670837402e-01 1.148907020688056946e-01 -2.704783976078033447e-01
2.922442853450775146e-01 1.120985448360443115e-01 1.611757427453994751e-01
1.653656959533691406e-01 1.333309412002563477e-01 1.602716445922851562e-01
2.308197617530822754e-01 7.711508870124816895e-02 9.146456420421600342e-02
3.354021012783050537e-01 1.036914438009262085e-01 -2.093887925148010254e-01
3.568101525306701660e-01 1.316584199666976929e-01 1.592409610748291016e-02
2.714999914169311523e-01 1.336930096149444580e-01 -3.300235867500305176e-01
1.719233542680740356e-01 1.127450838685035706e-01 1.459531635046005249e-01
3.639212846755981445e-01 1.627430915832519531e-01 1.776780188083648682e-02
2.432641088962554932e-01 7.207301259040832520e-02 8.018568158149719238e-03
2.487095743417739868e-01 2.212271392345428467e-01 -3.110670149326324463e-01
2.868703305721282959e-01 9.462089091539382935e-02 1.274977326393127441e-01
2.772414684295654297e-01 2.388214021921157837e-01 -3.062533140182495117e-01
2.447931170463562012e-01 1.524216681718826294e-01 -3.275171518325805664e-01
2.617973685264587402e-01 2.171459794044494629e-01 1.301933974027633667e-01
2.666570842266082764e-01 8.354353159666061401e-02 1.149623990058898926e-01
3.171987235546112061e-01 2.213088572025299072e-01 5.636575818061828613e-02
2.420666664838790894e-01 8.830534666776657104e-02 1.564445495605468750e-01
3.175507783889770508e-01 2.502185702323913574e-01 -2.624008357524871826e-01
3.036663532257080078e-01 1.530498564243316650e-01 -3.723920583724975586e-01
3.064896762371063232e-01 1.843798309564590454e-01 1.482259631156921387e-01
1.823875010013580322e-01 2.151188552379608154e-01 -8.909013122320175171e-02
2.144636958837509155e-01 2.360320687294006348e-01 5.461007356643676758e-03
2.396315932273864746e-01 2.429973334074020386e-01 1.074843853712081909e-02
1.594385206699371338e-01 1.827132999897003174e-01 -4.917339235544204712e-02
2.021937519311904907e-01 9.403412044048309326e-02 1.587804704904556274e-01
2.389159798622131348e-01 1.651041954755783081e-01 2.272446751594543457e-01
1.782350391149520874e-01 1.350440829992294312e-01 1.967422068119049072e-01
1.800743341445922852e-01 1.958218663930892944e-01 -1.586169600486755371e-01
3.831411004066467285e-01 1.457379013299942017e-01 -1.533073484897613525e-01
3.455448150634765625e-01 2.426412105560302734e-01 -1.331028491258621216e-01
3.823195099830627441e-01 1.661583185195922852e-01 -7.806548476219177246e-02
2.433644980192184448e-01 1.307481825351715088e-01 -2.957707047462463379e-01
2.766722738742828369e-01 1.822384297847747803e-01 -3.778492510318756104e-01
3.420886695384979248e-01 1.214242503046989441e-01 5.273240804672241211e-02
2.748148143291473389e-01 1.225516498088836670e-01 -3.096978366374969482e-01
1.991455554962158203e-01 8.416873961687088013e-02 8.296500146389007568e-02
2.489918917417526245e-01 1.977463513612747192e-01 -3.416672050952911377e-01
3.560169041156768799e-01 1.113320589065551758e-01 -7.560057193040847778e-02
2.560182213783264160e-01 2.332124412059783936e-01 7.507385313510894775e-02
3.596673607826232910e-01 1.239051520824432373e-01 -2.165144681930541992e-02
1.704437732696533203e-01 1.461435556411743164e-01 -1.364152133464813232e-01
2.553817033767700195e-01 7.218232750892639160e-02 2.160598337650299072e-02
3.553904592990875244e-01 1.149108409881591797e-01 -2.037142664194107056e-01
3.224303126335144043e-01 9.727805107831954956e-02 -2.016960382461547852e-01
2.988701462745666504e-01 1.306880861520767212e-01 -3.355484306812286377e-01
2.358296960592269897e-01 8.001435548067092896e-02 1.165014654397964478e-01
3.223161995410919189e-01 1.461254209280014038e-01 -3.600245416164398193e-01
3.688632547855377197e-01 1.238712891936302185e-01 -1.098350957036018372e-01
2.721810936927795410e-01 7.657635211944580078e-02 5.706590414047241211e-02
2.300360947847366333e-01 1.484047770500183105e-01 -3.008457422256469727e-01
1.681492030620574951e-01 2.000167369842529297e-01 -5.157045274972915649e-02
2.894836068153381348e-01 7.619113475084304810e-02 -5.323164910078048706e-02
2.517096400260925293e-01 2.431474328041076660e-01 -2.458448708057403564e-01
3.899751603603363037e-01 1.703515350818634033e-01 -2.048494368791580200e-01
2.699536681175231934e-01 1.482181549072265625e-01 2.163909673690795898e-01
2.937148809432983398e-01 2.324496805667877197e-01 5.470722913742065430e-02
3.151385486125946045e-01 1.033196672797203064e-01 -2.457041293382644653e-01
3.017176687717437744e-01 1.131391525268554688e-01 -2.904081344604492188e-01
3.055104911327362061e-01 9.182022511959075928e-02 7.190214097499847412e-02
2.830615341663360596e-01 7.665924727916717529e-02 -9.177081286907196045e-02
1.843629479408264160e-01 1.255119889974594116e-01 -1.556097567081451416e-01
1.857467591762542725e-01 1.570580899715423584e-01 -2.030911445617675781e-01
2.037329673767089844e-01 2.230276316404342651e-01 -1.807959079742431641e-01
1.636103689670562744e-01 1.864937692880630493e-01 8.204005658626556396e-02
3.814805150032043457e-01 1.833627820014953613e-01 -7.881630212068557739e-02
2.483071982860565186e-01 2.468577027320861816e-01 -8.865490555763244629e-03
3.494570851325988770e-01 1.238286644220352173e-01 2.950474619865417480e-02
2.891501486301422119e-01 2.375298142433166504e-01 -3.214095830917358398e-01
2.785257697105407715e-01 2.577004134654998779e-01 -1.331945061683654785e-01
3.497869372367858887e-01 1.087624728679656982e-01 -1.856765747070312500e-01
2.336353063583374023e-01 8.694478869438171387e-02 -1.439602673053741455e-01
1.892105042934417725e-01 1.996746063232421875e-01 -1.911731958389282227e-01
2.658283114433288574e-01 7.662640511989593506e-02 -1.046235412359237671e-01
1.509943157434463501e-01 1.462249159812927246e-01 6.738318502902984619e-02
1.974623501300811768e-01 9.469553828239440918e-02 -9.082466363906860352e-02
3.629326820373535156e-01 1.361374258995056152e-01 -3.689751029014587402e-03
1.962702274322509766e-01 2.149511724710464478e-01 8.937750756740570068e-02
3.652950525283813477e-01 2.053667455911636353e-01 -3.700562193989753723e-02
3.651665449142456055e-01 1.205669492483139038e-01 -8.951340615749359131e-02
3.690973222255706787e-01 2.282463610172271729e-01 -1.838916093111038208e-01
1.709586977958679199e-01 1.579093933105468750e-01 -1.474539488554000854e-01
2.446640133857727051e-01 2.519419789314270020e-01 -1.235543638467788696e-01
3.825243413448333740e-01 2.065343856811523438e-01 -2.550947070121765137e-01
2.029531896114349365e-01 2.314886450767517090e-01 -6.229989230632781982e-03
3.853660821914672852e-01 2.029646784067153931e-01 -2.354973703622817993e-01
3.688994050025939941e-01 1.336405575275421143e-01 -2.436707913875579834e-01
1.764668822288513184e-01 1.711174398660659790e-01 -1.714023649692535400e-01
3.455352187156677246e-01 1.135403588414192200e-01 1.383280754089355469e-02
3.534762561321258545e-01 2.142596095800399780e-01 -3.496931493282318115e-01
3.542451858520507812e-01 2.387329041957855225e-01 -2.461004108190536499e-01
2.692028582096099854e-01 2.472193092107772827e-01 -1.282103359699249268e-03
2.173951566219329834e-01 1.846734732389450073e-01 -2.899820804595947266e-01
2.223383039236068726e-01 2.426638007164001465e-01 -3.991006314754486084e-02
3.607447147369384766e-01 1.931772381067276001e-01 5.835510790348052979e-03
2.918946146965026855e-01 8.119906485080718994e-02 4.547160863876342773e-02
3.763075172901153564e-01 1.457344591617584229e-01 -6.313025206327438354e-02
