5.803449153900146484e-01 -3.324701786041259766e-01 4.063404202461242676e-01
6.550605893135070801e-01 -3.881619870662689209e-01 4.995177090167999268e-01
6.297825574874877930e-01 -3.768329918384552002e-01 5.115841627120971680e-01
6.650298833847045898e-01 -2.663730978965759277e-01 4.387336373329162598e-01
6.082895994186401367e-01 -2.447283715009689331e-01 5.158847570419311523e-01
5.365719199180603027e-01 -4.710582196712493896e-01 3.987517058849334717e-01
6.201761364936828613e-01 -4.512773752212524414e-01 3.945023715496063232e-01
6.863327622413635254e-01 -2.790979743003845215e-01 4.893710017204284668e-01
5.411112308502197266e-01 -4.580417871475219727e-01 3.969007432460784912e-01
5.414118766784667969e-01 -5.973724722862243652e-01 4.382999837398529053e-01
6.087844967842102051e-01 -3.246252238750457764e-01 4.047206342220306396e-01
5.495074987411499023e-01 -6.276125907897949219e-01 4.326470494270324707e-01
6.879838109016418457e-01 -1.732773929834365845e-01 4.959432780742645264e-01
5.515511631965637207e-01 -6.400600075721740723e-01 3.848225772380828857e-01
6.502991914749145508e-01 -4.632680118083953857e-01 4.278316199779510498e-01
6.118699908256530762e-01 -1.918111890554428101e-01 4.463036358356475830e-01
6.300919055938720703e-01 -5.301205515861511230e-01 4.142444133758544922e-01
6.736349463462829590e-01 -1.962483674287796021e-01 4.595584273338317871e-01
5.770372748374938965e-01 -6.099074482917785645e-01 3.832065165042877197e-01
6.586459279060363770e-01 -4.396619200706481934e-01 4.711586534976959229e-01
6.431211233139038086e-01 -3.689134418964385986e-01 5.105133652687072754e-01
6.299921274185180664e-01 -5.404880642890930176e-01 4.198174476623535156e-01
5.584593415260314941e-01 -3.044569492340087891e-01 4.461417794227600098e-01
6.388306617736816406e-01 -4.747212529182434082e-01 4.803501367568969727e-01
6.311351656913757324e-01 -1.301463842391967773e-01 4.770104289054870605e-01
6.024120450019836426e-01 -2.626959681510925293e-01 4.209997355937957764e-01
6.814749836921691895e-01 -3.110463023185729980e-01 4.913376569747924805e-01
6.562781333923339844e-01 -4.194728732109069824e-01 4.276216328144073486e-01
6.713743209838867188e-01 -3.667742311954498291e-01 4.468209445476531982e-01
6.693426966667175293e-01 -2.930161058902740479e-01 5.133436322212219238e-01
6.169608235359191895e-01 -5.088692903518676758e-01 3.944931626319885254e-01
6.669195294380187988e-01 -1.134755611419677734e-01 5.095267891883850098e-01
6.030685305595397949e-01 -1.744655668735504150e-01 4.894527494907379150e-01
6.208413243293762207e-01 -3.167775869369506836e-01 5.192763805389404297e-01
5.519910454750061035e-01 -6.521642208099365234e-01 3.899528384208679199e-01
6.774595975875854492e-01 -3.542234599590301514e-01 4.760429263114929199e-01
6.740657687187194824e-01 -1.860038191080093384e-01 5.217622518539428711e-01
6.592032313346862793e-01 -3.196724057197570801e-01 4.281345903873443604e-01
5.887686610221862793e-01 -3.019452095031738281e-01 4.124204218387603760e-01
6.672022342681884766e-01 -2.558369636535644531e-01 4.421536028385162354e-01
5.517259836196899414e-01 -5.457126498222351074e-01 4.596989452838897705e-01
5.806729197502136230e-01 -4.305820763111114502e-01 4.945377707481384277e-01
5.911109447479248047e-01 -2.614075839519500732e-01 4.255371689796447754e-01
6.000555157661437988e-01 -3.344437181949615479e-01 5.117564201354980469e-01
6.032567620277404785e-01 -4.513235688209533691e-01 4.971347451210021973e-01
6.203731298446655273e-01 -4.989083409309387207e-01 4.820010960102081299e-01
6.098478436470031738e-01 -5.809074640274047852e-01 4.032672941684722900e-01
5.583873987197875977e-01 -4.871101379394531250e-01 4.745471775531768799e-01
5.381135940551757812e-01 -4.953032433986663818e-01 3.913848996162414551e-01
6.373460292816162109e-01 -1.498170197010040283e-01 4.604109823703765869e-01
5.978967547416687012e-01 -2.187152057886123657e-01 4.408061206340789795e-01
5.589941740036010742e-01 -5.751740932464599609e-01 4.563872218132019043e-01
5.430712699890136719e-01 -4.125738739967346191e-01 4.091517925262451172e-01
5.953063964843750000e-01 -6.116368770599365234e-01 3.982041180133819580e-01
5.839585661888122559e-01 -5.159422159194946289e-01 4.798601865768432617e-01
6.153246760368347168e-01 -3.809791505336761475e-01 5.108332037925720215e-01
5.901758074760437012e-01 -4.577910602092742920e-01 3.832682669162750244e-01
5.700494050979614258e-01 -2.668707072734832764e-01 4.727152585983276367e-01
6.662028431892395020e-01 -3.870796561241149902e-01 4.875102639198303223e-01
6.551814079284667969e-01 -3.240595459938049316e-01 5.152671933174133301e-01
5.518807172775268555e-01 -4.204706847667694092e-01 4.738826155662536621e-01
5.739789605140686035e-01 -2.981336116790771484e-01 4.219010770320892334e-01
5.917737483978271484e-01 -3.820422589778900146e-01 5.046858787536621094e-01
5.244027376174926758e-01 -5.388125181198120117e-01 4.203389883041381836e-01
5.659247040748596191e-01 -2.767311036586761475e-01 4.508811235427856445e-01
5.753675699234008789e-01 -2.738675475120544434e-01 4.323022365570068359e-01
5.744395852088928223e-01 -2.657426893711090088e-01 4.834773838520050049e-01
5.441368222236633301e-01 -3.839158415794372559e-01 4.211130440235137939e-01
6.750050783157348633e-01 -2.801487445831298828e-01 5.111272931098937988e-01
5.796418190002441406e-01 -5.851380825042724609e-01 4.580496549606323242e-01
5.423135757446289062e-01 -6.146707534790039062e-01 3.821936547756195068e-01
5.817088484764099121e-01 -3.113253712654113770e-01 5.005846023559570312e-01
5.711203813552856445e-01 -3.260694742202758789e-01 4.131177365779876709e-01
5.984036922454833984e-01 -5.158008337020874023e-01 3.836792111396789551e-01
6.332801580429077148e-01 -4.630803465843200684e-01 4.045952856540679932e-01
6.518457531929016113e-01 -2.579145729541778564e-01 5.252607464790344238e-01
6.280001997947692871e-01 -1.374334543943405151e-01 5.061490535736083984e-01
5.629716515541076660e-01 -6.459546089172363281e-01 4.268823266029357910e-01
6.004197597503662109e-01 -3.678745031356811523e-01 5.092757940292358398e-01
6.010940074920654297e-01 -1.876648068428039551e-01 4.959388077259063721e-01
6.370394229888916016e-01 -4.104250669479370117e-01 5.027329921722412109e-01
6.832469105720520020e-01 -3.096415996551513672e-01 4.700043201446533203e-01
6.660796999931335449e-01 -2.616429924964904785e-01 5.205001235008239746e-01
5.765351653099060059e-01 -4.800622165203094482e-01 3.800438344478607178e-01
5.516055226325988770e-01 -4.689683914184570312e-01 4.712577462196350098e-01
5.720562338829040527e-01 -2.540366649627685547e-01 4.622597694396972656e-01
5.962554812431335449e-01 -1.863860636949539185e-01 4.778032004833221436e-01
5.356367826461791992e-01 -6.231586337089538574e-01 3.883662819862365723e-01
6.514777541160583496e-01 -4.339944422245025635e-01 4.859193563461303711e-01
6.819842457771301270e-01 -3.245886564254760742e-01 4.767681658267974854e-01
5.629941225051879883e-01 -5.076378583908081055e-01 4.740595817565917969e-01
6.547974348068237305e-01 -4.599212110042572021e-01 4.385729134082794189e-01
6.677218079566955566e-01 -3.279619812965393066e-01 4.371200501918792725e-01
5.335523486137390137e-01 -4.620649218559265137e-01 4.459627866744995117e-01
6.054721474647521973e-01 -5.042843222618103027e-01 3.868034183979034424e-01
6.218078732490539551e-01 -4.866934716701507568e-01 3.964976072311401367e-01
5.258599519729614258e-01 -5.007283687591552734e-01 4.166388213634490967e-01
5.723720788955688477e-01 -4.585528075695037842e-01 3.825604319572448730e-01
5.454555749893188477e-01 -3.729847073554992676e-01 4.248838424682617188e-01
5.754116773605346680e-01 -2.832621335983276367e-01 4.903460741043090820e-01
6.874358654022216797e-01 -1.888941675424575806e-01 5.054201483726501465e-01
6.821154952049255371e-01 -1.986923664808273315e-01 4.695957899093627930e-01
5.944375991821289062e-01 -6.268355846405029297e-01 4.227170944213867188e-01
5.579063296318054199e-01 -4.552744925022125244e-01 4.779058098793029785e-01
5.852841138839721680e-01 -2.173004597425460815e-01 4.606328010559082031e-01
5.276827216148376465e-01 -4.795543551445007324e-01 4.263645410537719727e-01
6.489590406417846680e-01 -4.220610260963439941e-01 4.178076386451721191e-01
5.246663093566894531e-01 -5.227450728416442871e-01 4.203335344791412354e-01
6.082045435905456543e-01 -1.878141164779663086e-01 5.061380267143249512e-01
5.858799815177917480e-01 -4.192801117897033691e-01 3.873260617256164551e-01
6.040711998939514160e-01 -6.052864789962768555e-01 4.087774157524108887e-01
5.555118918418884277e-01 -6.622477173805236816e-01 4.066829681396484375e-01
6.750070452690124512e-01 -3.596425652503967285e-01 4.553488194942474365e-01
5.841180682182312012e-01 -5.989901423454284668e-01 3.846309185028076172e-01
6.100076436996459961e-01 -1.692814975976943970e-01 4.622293710708618164e-01
6.216986179351806641e-01 -2.374392002820968628e-01 4.269173145294189453e-01
6.419983506202697754e-01 -5.122393369674682617e-01 4.458219110965728760e-01
5.903611779212951660e-01 -3.560897409915924072e-01 5.060210227966308594e-01
6.454075574874877930e-01 -5.010463595390319824e-01 4.410224854946136475e-01
5.287234187126159668e-01 -5.337877273559570312e-01 4.350022077560424805e-01
6.498168706893920898e-01 -4.772925376892089844e-01 4.626128077507019043e-01
5.283536911010742188e-01 -5.904499292373657227e-01 3.935179710388183594e-01
5.739521980285644531e-01 -3.441931605339050293e-01 4.951473772525787354e-01
6.812713146209716797e-01 -1.648735553026199341e-01 4.783383905887603760e-01
6.092730760574340820e-01 -2.589281797409057617e-01 5.171576738357543945e-01
5.941659808158874512e-01 -3.364412188529968262e-01 4.022355973720550537e-01
5.567460656166076660e-01 -3.327706456184387207e-01 4.710324406623840332e-01
5.249558687210083008e-01 -5.667467117309570312e-01 4.192113578319549561e-01
5.857739448547363281e-01 -6.180532574653625488e-01 4.410167038440704346e-01
6.370497941970825195e-01 -4.183868467807769775e-01 4.061518907546997070e-01
5.713796019554138184e-01 -6.428662538528442383e-01 3.910239636898040771e-01
5.565287470817565918e-01 -4.332062005996704102e-01 3.913748860359191895e-01
5.999931097030639648e-01 -1.822155565023422241e-01 4.659146666526794434e-01
5.500485301017761230e-01 -5.771117806434631348e-01 3.774688839912414551e-01
6.300568580627441406e-01 -2.489663809537887573e-01 4.246372282505035400e-01
6.406325101852416992e-01 -4.322143793106079102e-01 4.949423074722290039e-01
5.690664052963256836e-01 -4.108145534992218018e-01 4.898031651973724365e-01
5.929391980171203613e-01 -2.029862105846405029e-01 4.575079679489135742e-01
5.948888659477233887e-01 -2.398691326379776001e-01 5.048688054084777832e-01
6.575989723205566406e-01 -4.556456208229064941e-01 4.535331130027770996e-01
6.851492524147033691e-01 -1.790379285812377930e-01 4.807149171829223633e-01
6.208779811859130859e-01 -1.564837992191314697e-01 4.622492194175720215e-01
5.895717740058898926e-01 -5.454288721084594727e-01 4.721234738826751709e-01
5.833135247230529785e-01 -6.387665271759033203e-01 4.004165530204772949e-01
5.464993715286254883e-01 -5.062487721443176270e-01 4.623870551586151123e-01
6.741271018981933594e-01 -3.727800846099853516e-01 4.750621616840362549e-01
5.839356780052185059e-01 -4.979719519615173340e-01 3.795171380043029785e-01
6.305091977119445801e-01 -5.478180646896362305e-01 4.332223534584045410e-01
5.538105368614196777e-01 -5.631514787673950195e-01 4.569459557533264160e-01
5.991670489311218262e-01 -5.590815544128417969e-01 4.661110639572143555e-01
5.607873797416687012e-01 -3.593642711639404297e-01 4.091242551803588867e-01
5.927769541740417480e-01 -5.972237586975097656e-01 4.503825902938842773e-01
5.735142230987548828e-01 -4.049206376075744629e-01 3.910680413246154785e-01
6.153324842453002930e-01 -4.779168963432312012e-01 3.917322456836700439e-01
5.777684450149536133e-01 -2.837640047073364258e-01 4.250161647796630859e-01
5.691884756088256836e-01 -3.252570629119873047e-01 4.890684783458709717e-01
5.630141496658325195e-01 -3.909915387630462646e-01 3.980761468410491943e-01
6.567280888557434082e-01 -3.043370842933654785e-01 4.273328483104705811e-01
5.352740287780761719e-01 -4.180080294609069824e-01 4.295381307601928711e-01
6.762728691101074219e-01 -3.636869490146636963e-01 4.677834808826446533e-01
5.639044046401977539e-01 -4.300255775451660156e-01 4.846755564212799072e-01
5.688599944114685059e-01 -4.439182579517364502e-01 3.851678967475891113e-01
5.959964394569396973e-01 -3.128638863563537598e-01 5.105395317077636719e-01
5.687953829765319824e-01 -4.709205329418182373e-01 3.814067244529724121e-01
6.494962573051452637e-01 -1.991726458072662354e-01 4.433453679084777832e-01
5.994454026222229004e-01 -4.874253273010253906e-01 3.840880393981933594e-01
5.425192713737487793e-01 -5.682517290115356445e-01 4.474042057991027832e-01
6.380133628845214844e-01 -2.448564618825912476e-01 5.262149572372436523e-01
5.908415913581848145e-01 -2.948604822158813477e-01 5.070253014564514160e-01
5.771017074584960938e-01 -3.588091135025024414e-01 4.003903269767761230e-01
5.662425756454467773e-01 -6.370949149131774902e-01 4.329991936683654785e-01
6.415382623672485352e-01 -3.835426568984985352e-01 5.077655911445617676e-01
6.202949881553649902e-01 -5.258444547653198242e-01 3.997814357280731201e-01
5.331392288208007812e-01 -4.370925426483154297e-01 4.377624392509460449e-01
5.400791168212890625e-01 -3.929913341999053955e-01 4.458701610565185547e-01
6.681564450263977051e-01 -3.763125836849212646e-01 4.415727257728576660e-01
6.454699039459228516e-01 -4.885254502296447754e-01 4.277745783329010010e-01
6.128986477851867676e-01 -1.560374945402145386e-01 4.955099225044250488e-01
5.661541819572448730e-01 -2.798626422882080078e-01 4.695825576782226562e-01
6.556115150451660156e-01 -4.376223981380462646e-01 4.305299520492553711e-01
5.256680250167846680e-01 -5.941205024719238281e-01 4.107680916786193848e-01
5.280964374542236328e-01 -5.771349072456359863e-01 3.934771120548248291e-01
6.149314045906066895e-01 -4.646319746971130371e-01 3.914401829242706299e-01
6.214448809623718262e-01 -1.614307314157485962e-01 5.107870697975158691e-01
5.882239341735839844e-01 -3.551295697689056396e-01 3.987495303153991699e-01
6.339563131332397461e-01 -2.193511724472045898e-01 4.333796501159667969e-01
6.674100160598754883e-01 -1.964328885078430176e-01 5.248355269432067871e-01
5.605756044387817383e-01 -4.096281528472900391e-01 4.830115139484405518e-01
6.013538241386413574e-01 -5.314627885818481445e-01 4.758752286434173584e-01
5.384147763252258301e-01 -5.117107033729553223e-01 3.882100582122802734e-01
5.428953766822814941e-01 -4.960779249668121338e-01 4.599016010761260986e-01
5.655311346054077148e-01 -4.775820970535278320e-01 4.804177284240722656e-01
6.176988482475280762e-01 -3.188211619853973389e-01 4.070909321308135986e-01
6.126621961593627930e-01 -5.907714366912841797e-01 4.331471323966979980e-01
5.769086480140686035e-01 -2.386996895074844360e-01 4.649077653884887695e-01
5.583095550537109375e-01 -3.216611146926879883e-01 4.706647098064422607e-01
6.862792372703552246e-01 -2.838477492332458496e-01 4.773025512695312500e-01
6.729638576507568359e-01 -2.701548337936401367e-01 4.465114474296569824e-01
6.366781592369079590e-01 -2.634539008140563965e-01 4.229686856269836426e-01
5.488231182098388672e-01 -3.880918025970458984e-01 4.108769595623016357e-01
6.229686141014099121e-01 -3.654839098453521729e-01 5.136859416961669922e-01
5.910097360610961914e-01 -2.137594819068908691e-01 4.916512370109558105e-01
6.150124669075012207e-01 -2.008764743804931641e-01 5.153198838233947754e-01
6.603668928146362305e-01 -1.758684515953063965e-01 4.553545713424682617e-01
5.908492803573608398e-01 -5.073907971382141113e-01 3.808478116989135742e-01
6.548879742622375488e-01 -1.094056069850921631e-01 5.074340105056762695e-01
5.985500216484069824e-01 -2.772877216339111328e-01 5.115849971771240234e-01
5.450342297554016113e-01 -5.381689071655273438e-01 3.807871937751770020e-01
6.180424094200134277e-01 -5.254616737365722656e-01 4.727236032485961914e-01
5.666605830192565918e-01 -5.183917284011840820e-01 4.737904369831085205e-01
5.859307050704956055e-01 -3.429201841354370117e-01 5.040649175643920898e-01
5.787839293479919434e-01 -6.269335150718688965e-01 4.378221631050109863e-01
6.015154719352722168e-01 -1.984226256608963013e-01 4.496010541915893555e-01
5.867140293121337891e-01 -5.240390300750732422e-01 3.795114755630493164e-01
5.492777824401855469e-01 -5.220362544059753418e-01 4.624192714691162109e-01
6.730179190635681152e-01 -1.308341324329376221e-01 5.151526927947998047e-01
5.313686728477478027e-01 -4.596623778343200684e-01 4.132722914218902588e-01
6.483527421951293945e-01 -1.082396507263183594e-01 4.980968236923217773e-01
6.622292995452880859e-01 -3.789111971855163574e-01 4.961524009704589844e-01
5.854044556617736816e-01 -2.856748402118682861e-01 5.019595026969909668e-01
6.469019055366516113e-01 -4.327323138713836670e-01 4.163506627082824707e-01
6.125138998031616211e-01 -3.701897263526916504e-01 5.119859576225280762e-01
6.327494382858276367e-01 -1.416068971157073975e-01 4.663487672805786133e-01
6.024662852287292480e-01 -5.501310229301452637e-01 3.883639872074127197e-01
6.065639853477478027e-01 -1.823016107082366943e-01 4.557228386402130127e-01
6.198197007179260254e-01 -2.229590862989425659e-01 5.206302404403686523e-01
5.448014140129089355e-01 -3.632538914680480957e-01 4.415346980094909668e-01
5.283500552177429199e-01 -6.080395579338073730e-01 4.143666028976440430e-01
6.306341290473937988e-01 -1.660447716712951660e-01 5.188224315643310547e-01
6.152393817901611328e-01 -5.415536761283874512e-01 4.670864939689636230e-01
6.632377505302429199e-01 -3.471868336200714111e-01 5.051828026771545410e-01
6.585381627082824707e-01 -2.421985864639282227e-01 5.252447128295898438e-01
6.200882196426391602e-01 -5.721772909164428711e-01 4.390489161014556885e-01
6.740856170654296875e-01 -2.521890997886657715e-01 5.168330669403076172e-01
5.836677551269531250e-01 -2.306496351957321167e-01 4.495546817779541016e-01
6.686275601387023926e-01 -3.676339685916900635e-01 4.923713505268096924e-01
5.918121933937072754e-01 -2.871672213077545166e-01 4.160511493682861328e-01
6.019985079765319824e-01 -3.858655095100402832e-01 5.077266097068786621e-01
6.166056394577026367e-01 -3.386068642139434814e-01 5.164154171943664551e-01
5.307677984237670898e-01 -6.025235652923583984e-01 3.906887173652648926e-01
5.363793373107910156e-01 -4.189675748348236084e-01 4.440709948539733887e-01
6.686341762542724609e-01 -3.912948966026306152e-01 4.469783306121826172e-01
5.676367878913879395e-01 -4.913612902164459229e-01 3.792878985404968262e-01
5.268805027008056641e-01 -5.621839761734008789e-01 3.963769078254699707e-01
5.587379932403564453e-01 -3.108522891998291016e-01 4.664632081985473633e-01
6.603943705558776855e-01 -4.037292599678039551e-01 4.885034561157226562e-01
6.685466170310974121e-01 -2.221354097127914429e-01 5.233188867568969727e-01
5.946167111396789551e-01 -5.593374967575073242e-01 3.845539093017578125e-01
6.624963283538818359e-01 -4.197729825973510742e-01 4.761912822723388672e-01
6.695273518562316895e-01 -3.955168128013610840e-01 4.736483097076416016e-01
6.766681671142578125e-01 -2.218480259180068970e-01 4.574567973613739014e-01
6.744363903999328613e-01 -3.633379042148590088e-01 4.821187853813171387e-01
6.803771257400512695e-01 -2.867670655250549316e-01 4.572049975395202637e-01
6.761773824691772461e-01 -3.455981612205505371e-01 4.544270336627960205e-01
5.667036175727844238e-01 -2.956340014934539795e-01 4.793769121170043945e-01
6.075928807258605957e-01 -1.614473164081573486e-01 4.819482862949371338e-01
6.054915785789489746e-01 -3.578101098537445068e-01 3.982371687889099121e-01
6.092530488967895508e-01 -1.687784641981124878e-01 4.987373948097229004e-01
5.776664018630981445e-01 -2.468811720609664917e-01 4.473490715026855469e-01
6.381833553314208984e-01 -3.548496663570404053e-01 4.098714888095855713e-01
6.456876993179321289e-01 -4.005971550941467285e-01 4.134037494659423828e-01
6.853688359260559082e-01 -2.182824164628982544e-01 4.718208014965057373e-01
5.775908231735229492e-01 -2.420146018266677856e-01 4.770217537879943848e-01
6.026098132133483887e-01 -5.158949494361877441e-01 4.807340502738952637e-01
5.777156949043273926e-01 -5.638887882232666016e-01 4.653311967849731445e-01
5.823231935501098633e-01 -3.924625217914581299e-01 3.919288516044616699e-01
6.265417337417602539e-01 -2.015421390533447266e-01 5.219975709915161133e-01
5.872365832328796387e-01 -5.472304821014404297e-01 3.802089095115661621e-01
6.066637039184570312e-01 -4.560801982879638672e-01 3.878634870052337646e-01
5.343580842018127441e-01 -4.344563782215118408e-01 4.178472161293029785e-01
6.766394972801208496e-01 -3.225549757480621338e-01 4.972607195377349854e-01
5.359447598457336426e-01 -6.338566541671752930e-01 4.158201813697814941e-01
5.548643469810485840e-01 -4.787210226058959961e-01 3.837687075138092041e-01
6.043334007263183594e-01 -4.981080293655395508e-01 4.858166277408599854e-01
5.732324123382568359e-01 -5.759976506233215332e-01 4.606407582759857178e-01
6.238164901733398438e-01 -2.462867796421051025e-01 5.230679512023925781e-01
6.320437788963317871e-01 -1.737184524536132812e-01 4.494419097900390625e-01
5.984141230583190918e-01 -2.491312026977539062e-01 4.269897341728210449e-01
6.456189155578613281e-01 -2.928307652473449707e-01 4.214712083339691162e-01
6.165243387222290039e-01 -5.679314732551574707e-01 4.504989087581634521e-01
5.267927646636962891e-01 -5.526613593101501465e-01 4.279853403568267822e-01
6.690872311592102051e-01 -2.352195680141448975e-01 5.219932198524475098e-01
5.340753793716430664e-01 -4.473876357078552246e-01 4.115307927131652832e-01
5.844623446464538574e-01 -5.285036563873291016e-01 4.766967594623565674e-01
6.734757423400878906e-01 -3.547683358192443848e-01 4.895581007003784180e-01
6.806129813194274902e-01 -1.372815221548080444e-01 4.924899637699127197e-01
5.370447039604187012e-01 -6.164511442184448242e-01 4.267426729202270508e-01
5.300558209419250488e-01 -4.585428535938262939e-01 4.314203262329101562e-01
6.316493749618530273e-01 -2.911181449890136719e-01 4.158211648464202881e-01
6.281134486198425293e-01 -5.299556851387023926e-01 4.623756110668182373e-01
6.156108379364013672e-01 -4.082203209400177002e-01 3.944159448146820068e-01
6.573308706283569336e-01 -1.383725702762603760e-01 4.688351452350616455e-01
5.524567365646362305e-01 -3.745055794715881348e-01 4.117923378944396973e-01
5.686544179916381836e-01 -5.484695434570312500e-01 4.675612449645996094e-01
5.627683997154235840e-01 -6.580319404602050781e-01 3.967962265014648438e-01
5.841252207756042480e-01 -2.473814934492111206e-01 4.373406767845153809e-01
6.787300705909729004e-01 -3.134275674819946289e-01 4.552592039108276367e-01
6.518469452857971191e-01 -4.025757014751434326e-01 4.973212778568267822e-01
6.613308787345886230e-01 -2.331524342298507690e-01 4.413329362869262695e-01
5.471848249435424805e-01 -3.568985760211944580e-01 4.327697157859802246e-01
6.376698017120361328e-01 -3.117024302482604980e-01 5.209742784500122070e-01
5.554253458976745605e-01 -3.483099341392517090e-01 4.195128679275512695e-01
6.791562438011169434e-01 -1.422960311174392700e-01 5.127460956573486328e-01
6.583967804908752441e-01 -2.460454553365707397e-01 4.368757903575897217e-01
6.034749150276184082e-01 -5.926918387413024902e-01 3.996896743774414062e-01
6.505442857742309570e-01 -4.818139076232910156e-01 4.419647753238677979e-01
6.126245260238647461e-01 -3.749066889286041260e-01 3.970502316951751709e-01
5.446008443832397461e-01 -6.525880694389343262e-01 4.125764369964599609e-01
6.383379101753234863e-01 -5.245082974433898926e-01 4.380308985710144043e-01
6.200520992279052734e-01 -4.627966284751892090e-01 4.934523403644561768e-01
6.512774229049682617e-01 -3.668656945228576660e-01 4.187327921390533447e-01
6.126275658607482910e-01 -2.948575913906097412e-01 4.114389121532440186e-01
6.482710242271423340e-01 -4.905945062637329102e-01 4.504144191741943359e-01
6.884099245071411133e-01 -2.273734956979751587e-01 4.997004866600036621e-01
6.296491622924804688e-01 -3.100412487983703613e-01 4.118012189865112305e-01
6.077529788017272949e-01 -2.092730998992919922e-01 5.111434459686279297e-01
6.365641355514526367e-01 -5.070407986640930176e-01 4.659378528594970703e-01
6.099103093147277832e-01 -5.590617060661315918e-01 3.961278498172760010e-01
5.307034254074096680e-01 -6.270930767059326172e-01 4.061372280120849609e-01
6.251798272132873535e-01 -1.853860169649124146e-01 4.451830387115478516e-01
5.673968195915222168e-01 -4.439493417739868164e-01 4.858122766017913818e-01
6.059324145317077637e-01 -3.419622778892517090e-01 4.011013209819793701e-01
6.013243198394775391e-01 -4.665019214153289795e-01 4.937183558940887451e-01
6.258602738380432129e-01 -5.489473342895507812e-01 4.517099857330322266e-01
6.836579442024230957e-01 -2.586182355880737305e-01 5.045001506805419922e-01
6.228151917457580566e-01 -2.195133268833160400e-01 4.325649738311767578e-01
5.424675941467285156e-01 -5.627803802490234375e-01 3.804825246334075928e-01
6.866737604141235352e-01 -1.944153606891632080e-01 4.798220098018646240e-01
6.366803646087646484e-01 -5.216082334518432617e-01 4.246215820312500000e-01
5.858802199363708496e-01 -3.186533451080322266e-01 4.084029495716094971e-01
5.902031660079956055e-01 -2.361046373844146729e-01 4.377111494541168213e-01
6.601099371910095215e-01 -1.702303439378738403e-01 5.258235931396484375e-01
5.804098248481750488e-01 -3.711614012718200684e-01 3.965781629085540771e-01
5.763101577758789062e-01 -6.207523941993713379e-01 3.854819536209106445e-01
6.338361501693725586e-01 -3.732791841030120850e-01 4.058324992656707764e-01
5.420324802398681641e-01 -4.139881432056427002e-01 4.586885571479797363e-01
5.523342490196228027e-01 -4.505257010459899902e-01 3.899660706520080566e-01
6.324129700660705566e-01 -1.521320641040802002e-01 5.164149403572082520e-01
5.377392768859863281e-01 -4.042268693447113037e-01 4.287721514701843262e-01
6.554166078567504883e-01 -1.538183093070983887e-01 5.242582559585571289e-01
5.779435634613037109e-01 -4.654429554939270020e-01 4.883469641208648682e-01
5.915185213088989258e-01 -4.549120962619781494e-01 4.945171475410461426e-01
6.736865043640136719e-01 -1.482731401920318604e-01 4.752518832683563232e-01
6.309616565704345703e-01 -1.243697106838226318e-01 4.966725111007690430e-01
6.251251101493835449e-01 -3.539577126502990723e-01 4.037345349788665771e-01
6.188896298408508301e-01 -4.378714561462402344e-01 4.999846220016479492e-01
6.844429969787597656e-01 -3.029331564903259277e-01 4.823067784309387207e-01
6.265968680381774902e-01 -4.749603271484375000e-01 4.877367913722991943e-01
6.629357933998107910e-01 -2.812265157699584961e-01 4.350340664386749268e-01
5.371429920196533203e-01 -5.428718328475952148e-01 4.470364749431610107e-01
6.437409520149230957e-01 -4.933082163333892822e-01 4.634886085987091064e-01
5.865119099617004395e-01 -5.805777907371520996e-01 3.828307390213012695e-01
5.499922037124633789e-01 -3.710185885429382324e-01 4.670255184173583984e-01
6.004689335823059082e-01 -5.704470276832580566e-01 3.901305198669433594e-01
6.618500351905822754e-01 -3.956506252288818359e-01 4.330034852027893066e-01
6.825122833251953125e-01 -2.473421543836593628e-01 5.087311863899230957e-01
5.428401827812194824e-01 -5.531819462776184082e-01 4.510743319988250732e-01
6.205128431320190430e-01 -4.022925794124603271e-01 5.073992609977722168e-01
6.285910606384277344e-01 -5.135856270790100098e-01 4.709794223308563232e-01
5.489785671234130859e-01 -3.459447920322418213e-01 4.527132809162139893e-01
5.626425147056579590e-01 -2.868944406509399414e-01 4.539605081081390381e-01
5.540248155593872070e-01 -3.246084451675415039e-01 4.581445455551147461e-01
5.253360867500305176e-01 -5.164988040924072266e-01 4.103063344955444336e-01
6.102120876312255859e-01 -2.188962101936340332e-01 4.347330331802368164e-01
6.336483359336853027e-01 -4.372576475143432617e-01 4.036711156368255615e-01
5.588574409484863281e-01 -3.138740062713623047e-01 4.341255426406860352e-01
6.451981663703918457e-01 -3.170733749866485596e-01 4.179553687572479248e-01
5.912276506423950195e-01 -5.059580802917480469e-01 4.834446907043457031e-01
5.458993315696716309e-01 -4.832102060317993164e-01 4.643748402595520020e-01
6.895502209663391113e-01 -2.156760394573211670e-01 4.957004785537719727e-01
6.618027687072753906e-01 -3.027148246765136719e-01 5.161850452423095703e-01
5.293574929237365723e-01 -5.816026926040649414e-01 4.272852838039398193e-01
5.413964390754699707e-01 -4.309941530227661133e-01 4.047093987464904785e-01
6.515966653823852539e-01 -3.576959669589996338e-01 5.097621083259582520e-01
5.340156555175781250e-01 -5.217750668525695801e-01 3.908705413341522217e-01
5.547156929969787598e-01 -3.179727196693420410e-01 4.492289721965789795e-01
5.516682267189025879e-01 -3.553860485553741455e-01 4.666922986507415771e-01
5.618876218795776367e-01 -5.407136082649230957e-01 3.763532638549804688e-01
6.178866028785705566e-01 -5.447366833686828613e-01 4.012672901153564453e-01
6.194591522216796875e-01 -3.837236464023590088e-01 3.981781005859375000e-01
6.660770177841186523e-01 -2.078067362308502197e-01 4.502304196357727051e-01
6.039046049118041992e-01 -4.867335557937622070e-01 4.889119863510131836e-01
6.305212378501892090e-01 -3.552041351795196533e-01 5.152175426483154297e-01
6.154862046241760254e-01 -1.762262135744094849e-01 4.529066085815429688e-01
5.899894833564758301e-01 -2.057242691516876221e-01 4.828644692897796631e-01
6.251996755599975586e-01 -1.761667728424072266e-01 5.176596641540527344e-01
6.752293705940246582e-01 -2.111389487981796265e-01 5.202771425247192383e-01
5.994642376899719238e-01 -6.186031699180603027e-01 4.137522578239440918e-01
5.731434822082519531e-01 -5.070590972900390625e-01 4.788160920143127441e-01
5.794832110404968262e-01 -5.105192661285400391e-01 3.782601952552795410e-01
6.106069684028625488e-01 -5.243172049522399902e-01 3.911952376365661621e-01
6.494110226631164551e-01 -2.616989910602569580e-01 4.286870360374450684e-01
5.324598550796508789e-01 -5.719577074050903320e-01 4.350079298019409180e-01
5.925401449203491211e-01 -2.276946008205413818e-01 4.994472265243530273e-01
6.044034361839294434e-01 -3.088901042938232422e-01 4.080042541027069092e-01
5.918015241622924805e-01 -3.271631300449371338e-01 5.079368352890014648e-01
6.291058659553527832e-01 -4.288185834884643555e-01 5.003830194473266602e-01
6.553668379783630371e-01 -1.339630782604217529e-01 5.202428102493286133e-01
6.245748996734619141e-01 -5.600144863128662109e-01 4.425922036170959473e-01
5.810710787773132324e-01 -2.300817370414733887e-01 4.774771630764007568e-01
5.920083522796630859e-01 -2.143741548061370850e-01 4.492566585540771484e-01
6.447932124137878418e-01 -1.290273368358612061e-01 4.721290767192840576e-01
5.512413382530212402e-01 -6.213315725326538086e-01 3.805406689643859863e-01
6.423710584640502930e-01 -1.891665160655975342e-01 4.443983137607574463e-01
5.331204533576965332e-01 -5.463076829910278320e-01 3.885985016822814941e-01
6.852217912673950195e-01 -2.371911257505416870e-01 4.691761136054992676e-01
6.664089560508728027e-01 -1.652018725872039795e-01 4.626285135746002197e-01
6.002722382545471191e-01 -6.090407371520996094e-01 4.363476634025573730e-01
5.332600474357604980e-01 -4.910886287689208984e-01 4.464974701404571533e-01
6.199398636817932129e-01 -5.594905614852905273e-01 4.094474315643310547e-01
6.655569076538085938e-01 -3.583270013332366943e-01 4.996840953826904297e-01
6.814082264900207520e-01 -1.798255294561386108e-01 5.156151652336120605e-01
6.400194764137268066e-01 -1.173290312290191650e-01 5.039790272712707520e-01
6.103101968765258789e-01 -2.058283686637878418e-01 4.402535557746887207e-01
5.647655129432678223e-01 -6.194318532943725586e-01 3.808853328227996826e-01
5.785642266273498535e-01 -4.956432282924652100e-01 4.830484390258789062e-01
6.665649414062500000e-01 -4.019061923027038574e-01 4.450379908084869385e-01
5.380386710166931152e-01 -4.736475050449371338e-01 4.549676775932312012e-01
5.712108612060546875e-01 -3.672026097774505615e-01 4.930361807346343994e-01
6.262152194976806641e-01 -4.218820631504058838e-01 3.986973166465759277e-01
6.698318123817443848e-01 -1.803048700094223022e-01 4.603979885578155518e-01
5.702565908432006836e-01 -5.879459381103515625e-01 3.778374493122100830e-01
5.551285147666931152e-01 -3.644435405731201172e-01 4.748590886592864990e-01
5.883409976959228516e-01 -5.744470357894897461e-01 4.618909657001495361e-01
5.416452288627624512e-01 -6.327611804008483887e-01 3.860043883323669434e-01
6.656131148338317871e-01 -3.099561333656311035e-01 4.351550042629241943e-01
6.635723710060119629e-01 -3.529820740222930908e-01 4.320028424263000488e-01
5.501312017440795898e-01 -3.415167927742004395e-01 4.370018839836120605e-01
6.472381353378295898e-01 -1.201418638229370117e-01 4.786383211612701416e-01
6.514823436737060547e-01 -3.415944874286651611e-01 4.200391173362731934e-01
6.001079678535461426e-01 -3.840616643428802490e-01 3.933979868888854980e-01
6.142238974571228027e-01 -2.786563634872436523e-01 5.195035934448242188e-01
6.112642884254455566e-01 -2.711645960807800293e-01 4.173758029937744141e-01
5.686696171760559082e-01 -5.229393243789672852e-01 3.769077956676483154e-01
6.306814551353454590e-01 -5.050159096717834473e-01 4.075149595737457275e-01
6.806920766830444336e-01 -3.275764286518096924e-01 4.650855064392089844e-01
5.642933845520019531e-01 -3.782349824905395508e-01 4.008195996284484863e-01
6.025576591491699219e-01 -1.994464546442031860e-01 5.033451318740844727e-01
5.824570059776306152e-01 -5.694338679313659668e-01 3.798568546772003174e-01
6.049229502677917480e-01 -4.019072651863098145e-01 5.061802864074707031e-01
6.537218689918518066e-01 -4.702130258083343506e-01 4.545304179191589355e-01
5.768111944198608398e-01 -6.493871212005615234e-01 4.023215770721435547e-01
5.764503479003906250e-01 -4.767960906028747559e-01 4.858389794826507568e-01
5.558605194091796875e-01 -3.782675862312316895e-01 4.773303866386413574e-01
5.797568559646606445e-01 -3.925850689411163330e-01 4.978996813297271729e-01
5.790962576866149902e-01 -4.355800747871398926e-01 3.851582407951354980e-01
6.112743020057678223e-01 -2.998538613319396973e-01 5.178068280220031738e-01
6.277053356170654297e-01 -2.733471393585205078e-01 4.183944165706634521e-01
6.396880745887756348e-01 -2.287959158420562744e-01 5.267424583435058594e-01
5.589041709899902344e-01 -6.211321353912353516e-01 4.398885667324066162e-01
6.603279113769531250e-01 -4.413587450981140137e-01 4.470336139202117920e-01
6.326322555541992188e-01 -5.392301082611083984e-01 4.447467625141143799e-01
6.614997386932373047e-01 -3.378615081310272217e-01 4.295690655708312988e-01
6.212490200996398926e-01 -2.635340690612792969e-01 4.197047948837280273e-01
5.889676809310913086e-01 -4.418907761573791504e-01 4.960505962371826172e-01
6.097293496131896973e-01 -5.992058515548706055e-01 4.250147044658660889e-01
6.414469480514526367e-01 -1.927288770675659180e-01 5.261728763580322266e-01
5.730530619621276855e-01 -4.251762032508850098e-01 3.874543011188507080e-01
5.376082658767700195e-01 -5.176141262054443359e-01 4.512617886066436768e-01
5.978605151176452637e-01 -5.302828550338745117e-01 3.839600980281829834e-01
6.633060574531555176e-01 -1.458565443754196167e-01 5.225759744644165039e-01
5.762729644775390625e-01 -5.545884370803833008e-01 3.772858977317810059e-01
6.089271903038024902e-01 -4.122786521911621094e-01 5.051003694534301758e-01
5.668104290962219238e-01 -6.012736558914184570e-01 3.785141110420227051e-01
6.875400543212890625e-01 -2.286431044340133667e-01 4.762125909328460693e-01
6.059501171112060547e-01 -5.917274951934814453e-01 4.447188675403594971e-01
6.354695558547973633e-01 -5.288962125778198242e-01 4.493626654148101807e-01
6.082811951637268066e-01 -2.212893366813659668e-01 5.135176777839660645e-01
6.480833888053894043e-01 -2.389430105686187744e-01 5.268600583076477051e-01
5.572752952575683594e-01 -4.677651822566986084e-01 3.845747709274291992e-01
5.455812811851501465e-01 -6.173092126846313477e-01 4.345187544822692871e-01
6.830633878707885742e-01 -1.546783596277236938e-01 5.100714564323425293e-01
6.016863584518432617e-01 -4.228450655937194824e-01 3.887950479984283447e-01
6.287396550178527832e-01 -4.761012196540832520e-01 4.014804959297180176e-01
5.305191278457641602e-01 -6.002651453018188477e-01 4.233572185039520264e-01
6.563654541969299316e-01 -4.236347973346710205e-01 4.847697615623474121e-01
5.414956212043762207e-01 -4.014818072319030762e-01 4.171667695045471191e-01
6.582594513893127441e-01 -2.262385636568069458e-01 5.263359546661376953e-01
5.434864759445190430e-01 -4.577419161796569824e-01 4.630774557590484619e-01
6.442914009094238281e-01 -2.275566756725311279e-01 4.338182806968688965e-01
6.682085394859313965e-01 -4.058173298835754395e-01 4.680021703243255615e-01
6.607610583305358887e-01 -1.092198491096496582e-01 4.918140470981597900e-01
6.838157773017883301e-01 -1.520707160234451294e-01 4.901818931102752686e-01
-1.649748086929321289e-01 5.213079452514648438e-01 -3.719891607761383057e-02
-4.045623838901519775e-01 5.782274603843688965e-01 2.722491025924682617e-01
-3.788380026817321777e-01 5.742459297180175781e-01 3.527610301971435547e-01
-4.354644715785980225e-01 5.635311603546142578e-01 3.493799269199371338e-02
-4.084197878837585449e-01 5.438295006752014160e-01 -7.098487019538879395e-02
-4.194880127906799316e-01 5.360915660858154297e-01 3.469270467758178711e-01
-2.343032807111740112e-01 4.779616296291351318e-01 9.456604719161987305e-03
-1.895844042301177979e-01 5.892075896263122559e-01 1.474422514438629150e-01
-2.274740040302276611e-01 4.410723745822906494e-01 3.633503317832946777e-01
-1.713596582412719727e-01 5.794383883476257324e-01 3.553956747055053711e-02
-4.326098263263702393e-01 5.329069495201110840e-01 8.116802573204040527e-02
-3.860694766044616699e-01 4.804860651493072510e-01 2.063902467489242554e-01
-2.859333157539367676e-01 4.775946140289306641e-01 7.687687873840332031e-03
-2.579000592231750488e-01 5.964955091476440430e-01 2.779248952865600586e-01
-3.510829806327819824e-01 6.025324463844299316e-01 -1.673280000686645508e-01
-3.675025105476379395e-01 4.848226606845855713e-01 4.825971722602844238e-01
-1.937768161296844482e-01 4.748861491680145264e-01 6.668017059564590454e-02
-3.454594016075134277e-01 4.800145626068115234e-01 5.264195799827575684e-01
-4.208838343620300293e-01 5.897970199584960938e-01 8.322767168283462524e-02
-2.599696218967437744e-01 5.242826342582702637e-01 5.747941732406616211e-01
-3.637597262859344482e-01 5.815434455871582031e-01 -1.912851929664611816e-01
-2.127666026353836060e-01 5.643730759620666504e-01 4.097225666046142578e-01
-4.033715724945068359e-01 5.933167934417724609e-01 -8.062341809272766113e-02
-2.909961342811584473e-01 5.036842226982116699e-01 -1.050625741481781006e-01
-2.211548835039138794e-01 5.323295593261718750e-01 -1.519739329814910889e-01
-4.075762331485748291e-01 5.088400244712829590e-01 3.891022801399230957e-01
-2.140633910894393921e-01 5.904180407524108887e-01 2.449407875537872314e-01
-2.544744908809661865e-01 6.054289340972900391e-01 -1.246222555637359619e-01
-3.842939734458923340e-01 6.063821911811828613e-01 -7.481712102890014648e-02
-1.380992084741592407e-01 5.252581238746643066e-01 5.225756764411926270e-02
-2.311116456985473633e-01 5.717877149581909180e-01 3.984923362731933594e-01
-2.053612619638442993e-01 5.935512185096740723e-01 1.796815097332000732e-01
-4.116541147232055664e-01 5.105208754539489746e-01 7.501545548439025879e-02
-2.687550187110900879e-01 5.537416934967041016e-01 4.988801777362823486e-01
-2.586445212364196777e-01 6.143875122070312500e-01 4.962030053138732910e-02
-1.835609972476959229e-01 5.097156167030334473e-01 5.363098382949829102e-01
-2.123782634735107422e-01 5.494272112846374512e-01 4.720818698406219482e-01
-2.160845696926116943e-01 4.468547701835632324e-01 2.564161121845245361e-01
-3.041618466377258301e-01 4.768936634063720703e-01 2.298943698406219482e-02
-4.354270696640014648e-01 5.699272751808166504e-01 1.365280449390411377e-01
-2.854295372962951660e-01 4.443227648735046387e-01 4.324778318405151367e-01
-3.237645626068115234e-01 5.678922533988952637e-01 -2.237349152565002441e-01
-3.263650536537170410e-01 4.519952833652496338e-01 3.438906073570251465e-01
-2.152155041694641113e-01 4.420729875564575195e-01 3.842679262161254883e-01
-3.145646750926971436e-01 4.502570033073425293e-01 2.923498153686523438e-01
-2.703587114810943604e-01 5.719529390335083008e-01 4.283056259155273438e-01
-1.631062030792236328e-01 5.717064142227172852e-01 2.001753151416778564e-01
-4.087476134300231934e-01 5.947242379188537598e-01 -4.482756555080413818e-02
-2.481944710016250610e-01 4.618158936500549316e-01 9.815031290054321289e-02
-2.451567947864532471e-01 5.051333308219909668e-01 -1.047750413417816162e-01
-1.764510869979858398e-01 4.507485926151275635e-01 3.757889270782470703e-01
-1.252575814723968506e-01 5.308831930160522461e-01 2.311719655990600586e-01
-1.837379634380340576e-01 5.697265863418579102e-01 3.162103295326232910e-01
-1.826078593730926514e-01 5.506501793861389160e-01 4.159687161445617676e-01
-2.972867786884307861e-01 4.870699644088745117e-01 -3.450435400009155273e-02
-3.926198482513427734e-01 5.886546969413757324e-01 -1.300786733627319336e-01
-2.127352803945541382e-01 4.689502120018005371e-01 7.521595060825347900e-02
-2.767113745212554932e-01 4.556078910827636719e-01 1.519057005643844604e-01
-1.432133615016937256e-01 4.707535803318023682e-01 3.909691572189331055e-01
-2.586408257484436035e-01 4.407080411911010742e-01 3.707389235496520996e-01
-2.415370196104049683e-01 4.487127959728240967e-01 5.235801935195922852e-01
-1.991058439016342163e-01 4.526731967926025391e-01 2.185873389244079590e-01
-3.023728728294372559e-01 4.464069604873657227e-01 3.373029530048370361e-01
-2.481899410486221313e-01 4.505944848060607910e-01 1.903751194477081299e-01
-3.056506216526031494e-01 4.671234190464019775e-01 8.694940805435180664e-02
-2.785657644271850586e-01 5.449424982070922852e-01 -2.067446112632751465e-01
-2.718529105186462402e-01 5.891667008399963379e-01 3.393578529357910156e-01
-2.794963419437408447e-01 4.427134990692138672e-01 4.070169329643249512e-01
-2.555199563503265381e-01 4.986640214920043945e-01 -8.681097626686096191e-02
-2.513083219528198242e-01 6.108890771865844727e-01 -6.173282861709594727e-02
-1.809192448854446411e-01 4.556752145290374756e-01 4.802924990653991699e-01
-4.032818675041198730e-01 5.170804858207702637e-01 4.161261916160583496e-01
-2.473533302545547485e-01 6.079996228218078613e-01 1.425223648548126221e-01
-2.462681084871292114e-01 6.120145320892333984e-01 1.858265697956085205e-02
-2.759538590908050537e-01 4.513142108917236328e-01 1.927806138992309570e-01
-2.960139513015747070e-01 5.720241069793701172e-01 4.322181344032287598e-01
-2.291461527347564697e-01 6.007409691810607910e-01 1.825110316276550293e-01
-3.127708137035369873e-01 6.002346277236938477e-01 2.761614620685577393e-01
-2.028405666351318359e-01 4.637736678123474121e-01 1.201389282941818237e-01
-1.435376256704330444e-01 5.480448007583618164e-01 2.875912785530090332e-01
-2.178523540496826172e-01 4.831403493881225586e-01 -2.765581011772155762e-03
-1.666957139968872070e-01 5.509527325630187988e-01 3.723716735839843750e-01
-3.106633722782135010e-01 5.267057418823242188e-01 -1.677618622779846191e-01
-2.247752100229263306e-01 6.052966713905334473e-01 7.677194476127624512e-02
-3.382194340229034424e-01 5.394972562789916992e-01 5.149672031402587891e-01
-4.177892804145812988e-01 5.928172469139099121e-01 3.577706217765808105e-02
-4.310500621795654297e-01 5.221925377845764160e-01 1.425655782222747803e-01
-3.168318569660186768e-01 5.042954087257385254e-01 -9.488037228584289551e-02
-3.774476349353790283e-01 6.117140054702758789e-01 -3.499180078506469727e-02
-1.527400016784667969e-01 4.897898733615875244e-01 8.913568407297134399e-02
-2.272353172302246094e-01 5.803164243698120117e-01 -1.674775183200836182e-01
-1.378327757120132446e-01 5.501221418380737305e-01 1.056143641471862793e-01
-2.555157840251922607e-01 6.140199303627014160e-01 -3.276467323303222656e-03
-2.972466945648193359e-01 6.169874072074890137e-01 1.020716354250907898e-01
-2.360300123691558838e-01 5.846453905105590820e-01 3.320883810520172119e-01
-2.391973286867141724e-01 4.845525324344635010e-01 6.073076725006103516e-01
-1.273073703050613403e-01 4.881099462509155273e-01 3.339238166809082031e-01
-2.390052527189254761e-01 4.412161111831665039e-01 4.335646033287048340e-01
-1.498943269252777100e-01 5.632597804069519043e-01 7.888129353523254395e-02
-3.246048390865325928e-01 6.072181463241577148e-01 2.174345552921295166e-01
-4.403512775897979736e-01 5.531337261199951172e-01 1.105609312653541565e-01
-3.048233985900878906e-01 6.024160385131835938e-01 -1.877537667751312256e-01
-3.710985183715820312e-01 5.146461129188537598e-01 -6.718173623085021973e-02
-3.443683683872222900e-01 4.923273921012878418e-01 -1.312175393104553223e-02
-1.580838263034820557e-01 5.390590429306030273e-01 -3.493089973926544189e-02
-1.246311515569686890e-01 4.983666539192199707e-01 2.075196504592895508e-01
-3.030806481838226318e-01 5.623292922973632812e-01 4.693665206432342529e-01
-3.874809741973876953e-01 5.869121551513671875e-01 2.718741595745086670e-01
-3.260253667831420898e-01 5.212806463241577148e-01 -1.445193886756896973e-01
-1.959033906459808350e-01 4.553049206733703613e-01 1.989533305168151855e-01
-2.910678684711456299e-01 6.135725975036621094e-01 1.480003744363784790e-01
-3.015385270118713379e-01 5.935786366462707520e-01 3.213176727294921875e-01
-1.609616130590438843e-01 5.386118292808532715e-01 4.098710119724273682e-01
-3.537579774856567383e-01 5.575187802314758301e-01 4.506111145019531250e-01
-3.238034844398498535e-01 5.767490267753601074e-01 4.036077260971069336e-01
-2.086581289768218994e-01 5.966172218322753906e-01 1.522385776042938232e-01
-3.522498011589050293e-01 6.072373986244201660e-01 1.911410242319107056e-01
-1.436281353235244751e-01 4.814661145210266113e-01 1.683101952075958252e-01
-1.372729986906051636e-01 5.455231070518493652e-01 8.139891177415847778e-02
-1.448711752891540527e-01 5.310963988304138184e-01 1.748579740524291992e-02
-2.502823472023010254e-01 4.656930863857269287e-01 5.896204113960266113e-01
-1.725106090307235718e-01 4.887526333332061768e-01 5.350164771080017090e-01
-2.128154933452606201e-01 5.716133713722229004e-01 -1.549830734729766846e-01
-2.553426623344421387e-01 5.900620222091674805e-01 3.205340504646301270e-01
-1.418541669845581055e-01 4.776909053325653076e-01 2.046904861927032471e-01
-1.891950964927673340e-01 4.874889254570007324e-01 1.427412033081054688e-02
-3.295463323593139648e-01 4.530852138996124268e-01 3.751909732818603516e-01
-3.292332887649536133e-01 4.560014605522155762e-01 2.482932060956954956e-01
-2.716124951839447021e-01 4.605599045753479004e-01 1.091342344880104065e-01
-4.340881109237670898e-01 5.729209184646606445e-01 5.112925171852111816e-02
-3.905385136604309082e-01 4.804086089134216309e-01 2.755649387836456299e-01
-4.159394502639770508e-01 5.807421207427978516e-01 2.140350341796875000e-01
-2.543702423572540283e-01 5.262639522552490234e-01 -1.654887795448303223e-01
-4.064017832279205322e-01 5.933126211166381836e-01 1.629766821861267090e-01
-2.277384102344512939e-01 4.738662242889404297e-01 3.461843729019165039e-02
-3.662397265434265137e-01 6.024536490440368652e-01 2.095626890659332275e-01
-1.855341196060180664e-01 5.274219512939453125e-01 -9.251943230628967285e-02
-3.521685004234313965e-01 5.083315372467041016e-01 5.386604666709899902e-01
-2.639654278755187988e-01 4.452976584434509277e-01 2.579308748245239258e-01
-2.330433875322341919e-01 5.985408425331115723e-01 -1.173904836177825928e-01
-3.964540958404541016e-01 5.251491665840148926e-01 -4.942232370376586914e-02
-4.361677169799804688e-01 5.328873395919799805e-01 2.238035500049591064e-01
-3.847860097885131836e-01 6.101586222648620605e-01 2.733154594898223877e-02
-1.382608115673065186e-01 5.488855242729187012e-01 2.358237355947494507e-01
-2.494285255670547485e-01 5.665451884269714355e-01 -2.068750858306884766e-01
-1.920223534107208252e-01 5.839576721191406250e-01 2.302122414112091064e-01
-3.519381880760192871e-01 5.700067281723022461e-01 4.089084267616271973e-01
-3.090200424194335938e-01 4.502811729907989502e-01 2.671884894371032715e-01
