-8.108264207839965820e-01 7.840669155120849609e-02 -3.123732805252075195e-01
-8.508027791976928711e-01 7.163587212562561035e-02 -8.623600751161575317e-02
-7.549947500228881836e-01 1.263252347707748413e-01 -2.717312574386596680e-01
-9.254149794578552246e-01 -2.060789763927459717e-01 -1.259917318820953369e-01
-9.519076943397521973e-01 1.144997030496597290e-02 -7.550980150699615479e-02
-6.456177234649658203e-01 -4.437202587723731995e-02 -1.207228600978851318e-01
-8.651931285858154297e-01 -8.352299779653549194e-02 -5.375012755393981934e-03
-7.973438501358032227e-01 -1.430451124906539917e-02 -4.002039134502410889e-02
-9.292813539505004883e-01 -1.968845129013061523e-01 -6.740854680538177490e-02
-6.662456989288330078e-01 -1.324464380741119385e-01 -8.135060966014862061e-02
-5.710412859916687012e-01 -2.521265745162963867e-01 -3.364679813385009766e-01
-9.195641875267028809e-01 -1.636800915002822876e-02 -2.409099191427230835e-01
-6.920306086540222168e-01 -8.732993900775909424e-02 -7.030406594276428223e-02
-5.419858694076538086e-01 -2.363897114992141724e-01 -3.217043280601501465e-01
-8.249359130859375000e-01 1.139856874942779541e-02 -4.445309937000274658e-02
-7.367162108421325684e-01 -3.914811089634895325e-02 -5.749902129173278809e-02
-7.806460857391357422e-01 7.910811901092529297e-02 -1.124454811215400696e-01
-9.570219516754150391e-01 -9.703227877616882324e-02 -1.672966778278350830e-01
-7.747681140899658203e-01 -2.456823438405990601e-01 -2.953376471996307373e-01
-7.781068682670593262e-01 5.758816003799438477e-02 -9.291296452283859253e-02
-7.462244033813476562e-01 -2.298499941825866699e-01 -4.732313752174377441e-02
-6.706510782241821289e-01 -3.802678361535072327e-02 -4.118114411830902100e-01
-7.285037636756896973e-01 -7.911065220832824707e-02 -3.926930427551269531e-01
-5.776175260543823242e-01 -7.285988330841064453e-02 -1.822913289070129395e-01
-7.965093255043029785e-01 4.632517695426940918e-03 -3.529226183891296387e-01
-9.270688295364379883e-01 -7.476741075515747070e-02 -2.282658219337463379e-01
-6.837187409400939941e-01 -1.549097299575805664e-01 -6.803196668624877930e-02
-8.073763847351074219e-01 -1.701810061931610107e-01 -1.318596303462982178e-02
-9.049745202064514160e-01 -1.964516937732696533e-01 -3.335763514041900635e-02
-7.287849187850952148e-01 1.227043271064758301e-01 -2.814145684242248535e-01
-8.439557552337646484e-01 -2.824039459228515625e-01 -1.577711254358291626e-01
-6.754177212715148926e-01 -7.306244224309921265e-02 -8.585312962532043457e-02
-6.061484813690185547e-01 1.353942602872848511e-02 -2.017916589975357056e-01
-9.182705879211425781e-01 -1.011485680937767029e-01 -2.337967455387115479e-01
-8.338284492492675781e-01 -2.518354058265686035e-01 -4.612049460411071777e-02
-8.191098570823669434e-01 -2.284647822380065918e-01 -2.950756251811981201e-02
-9.263143539428710938e-01 -1.379522830247879028e-01 -1.998277008533477783e-02
-7.789500951766967773e-01 -3.077121973037719727e-01 -1.125855669379234314e-01
-5.288187265396118164e-01 -7.728727161884307861e-02 -2.665393948554992676e-01
-8.848909139633178711e-01 -1.597239822149276733e-01 -2.503545582294464111e-01
-8.750891685485839844e-01 5.161297321319580078e-02 -2.723399102687835693e-01
-6.249135136604309082e-01 -2.080682516098022461e-01 -3.831160962581634521e-01
-6.756856441497802734e-01 -3.069849312305450439e-01 -2.760635614395141602e-01
-6.252179741859436035e-01 -2.917116284370422363e-01 -3.035561442375183105e-01
-8.582593202590942383e-01 -2.738484144210815430e-01 -1.005061641335487366e-01
-6.318569779396057129e-01 -8.894927054643630981e-02 -1.174825355410575867e-01
-7.534886002540588379e-01 -2.533612847328186035e-01 -3.035764098167419434e-01
-9.182063341140747070e-01 -5.739974230527877808e-02 -1.679688692092895508e-02
-5.328488945960998535e-01 -4.805181175470352173e-02 -2.836577296257019043e-01
-6.550138592720031738e-01 -2.040976285934448242e-01 -9.352600574493408203e-02
-5.818062424659729004e-01 1.192428171634674072e-02 -2.396084517240524292e-01
-9.156209230422973633e-01 -2.211112827062606812e-01 -8.824170380830764771e-02
-8.015934824943542480e-01 -1.796851605176925659e-01 -3.197492361068725586e-01
-8.577742576599121094e-01 1.076107025146484375e-01 -2.330332100391387939e-01
-5.138707756996154785e-01 -1.624765694141387939e-01 -3.403936624526977539e-01
-7.072842121124267578e-01 -3.163259029388427734e-01 -2.447538077831268311e-01
-7.934978008270263672e-01 1.293190866708755493e-01 -2.417598664760589600e-01
-8.609067201614379883e-01 5.264787375926971436e-02 -2.864310741424560547e-01
-9.442092180252075195e-01 -1.323658376932144165e-01 -3.373253345489501953e-02
-9.577233791351318359e-01 2.138931304216384888e-02 -1.087622344493865967e-01
-6.286190748214721680e-01 6.159070134162902832e-02 -3.599672913551330566e-01
-7.808907032012939453e-01 -2.164634466171264648e-01 -3.133833408355712891e-01
-8.365738987922668457e-01 -1.659710109233856201e-01 -7.912978529930114746e-03
-5.495733618736267090e-01 -2.329613417387008667e-01 -3.400509357452392578e-01
-5.701148509979248047e-01 -1.512962281703948975e-01 -4.027813076972961426e-01
-6.720620989799499512e-01 -1.124854534864425659e-01 -7.947687804698944092e-02
-8.234350085258483887e-01 8.518283069133758545e-02 -1.049237623810768127e-01
-8.759728670120239258e-01 1.012948304414749146e-01 -1.384743899106979370e-01
-5.149077177047729492e-01 -1.816984415054321289e-01 -3.190398216247558594e-01
-6.400874257087707520e-01 -1.107394024729728699e-01 -1.052500084042549133e-01
-9.019408822059631348e-01 -1.245229691267013550e-01 -2.466939985752105713e-01
-7.957595586776733398e-01 -6.118705496191978455e-02 -3.571959733963012695e-01
-8.162468671798706055e-01 -2.895187139511108398e-01 -1.951763480901718140e-01
-8.914576768875122070e-01 -2.387476861476898193e-01 -1.574748754501342773e-01
-5.905814766883850098e-01 -1.222494915127754211e-01 -1.521985083818435669e-01
-7.205941677093505859e-01 -2.666737437248229980e-01 -7.711511850357055664e-02
-6.697145700454711914e-01 7.742911577224731445e-03 -1.279101669788360596e-01
-7.117376923561096191e-01 1.170443445444107056e-01 -2.948638796806335449e-01
-5.108747482299804688e-01 -1.170606315135955811e-01 -3.375005722045898438e-01
-8.563948273658752441e-01 -2.775304317474365234e-01 -1.216586381196975708e-01
-8.022177815437316895e-01 -2.820889353752136230e-01 -7.269343733787536621e-02
-6.062846183776855469e-01 -4.539323598146438599e-02 -1.600109934806823730e-01
-8.728306293487548828e-01 1.396909356117248535e-03 -3.261372447013854980e-02
-6.983542442321777344e-01 -4.858784377574920654e-02 -4.052238166332244873e-01
-7.743810415267944336e-01 -3.170118331909179688e-01 -1.634932607412338257e-01
-8.934379816055297852e-01 2.911598980426788330e-02 -2.622487843036651611e-01
-9.137490987777709961e-01 7.695725560188293457e-02 -1.863287836313247681e-01
-6.144548654556274414e-01 -3.072303533554077148e-01 -2.421075105667114258e-01
-6.070017814636230469e-01 -1.793244332075119019e-01 -1.325429677963256836e-01
-5.981617569923400879e-01 -1.318466663360595703e-01 -4.127894043922424316e-01
-6.875898241996765137e-01 -2.290855199098587036e-01 -3.559454679489135742e-01
-6.935679316520690918e-01 -3.073602616786956787e-01 -1.312569677829742432e-01
-8.274635672569274902e-01 -2.746548056602478027e-01 -2.085812538862228394e-01
-7.860648036003112793e-01 -3.843094781041145325e-02 -3.458900749683380127e-02
-7.802909612655639648e-01 1.270446926355361938e-02 -6.037358939647674561e-02
-7.828868627548217773e-01 -7.891312241554260254e-02 -2.441269159317016602e-02
-5.915824770927429199e-01 -2.802008390426635742e-01 -3.081056475639343262e-01
-8.516477346420288086e-01 1.185754239559173584e-01 -1.821891069412231445e-01
-9.716014862060546875e-01 -4.221995919942855835e-02 -7.626640796661376953e-02
-8.112096190452575684e-01 -2.740558385848999023e-01 -2.303077429533004761e-01
-8.012370467185974121e-01 6.388457119464874268e-02 -3.283785283565521240e-01
-9.167769551277160645e-01 -2.407144010066986084e-02 -2.707235515117645264e-02
-8.531616330146789551e-01 -8.980283141136169434e-02 -3.089165389537811279e-01
-8.173897862434387207e-01 -2.962512969970703125e-01 -1.081549897789955139e-01
-9.603938460350036621e-01 -8.167761564254760742e-02 -4.443489015102386475e-02
-5.811633467674255371e-01 3.705218434333801270e-03 -3.865715861320495605e-01
-6.414511203765869141e-01 -2.450360208749771118e-01 -1.179911419749259949e-01
-6.238452196121215820e-01 -8.806040883064270020e-02 -4.189107120037078857e-01
-5.335627198219299316e-01 -2.198852598667144775e-01 -2.597324550151824951e-01
-6.132947206497192383e-01 6.754070520401000977e-02 -3.244911432266235352e-01
-5.430554747581481934e-01 -6.837390363216400146e-02 -2.397404909133911133e-01
-8.926919102668762207e-01 -9.323025494813919067e-02 -2.681250274181365967e-01
-7.845543026924133301e-01 1.223245561122894287e-01 -2.736803889274597168e-01
-6.561371088027954102e-01 -6.650109589099884033e-02 -1.030874326825141907e-01
-7.841255068778991699e-01 3.513649106025695801e-02 -7.292439043521881104e-02
-5.779083371162414551e-01 3.584158420562744141e-02 -3.121391534805297852e-01
-5.785176753997802734e-01 -2.810152769088745117e-01 -2.364977300167083740e-01
-6.878595948219299316e-01 2.627814561128616333e-02 -3.926502466201782227e-01
-6.704531311988830566e-01 -3.204097151756286621e-01 -1.780807822942733765e-01
-6.021113991737365723e-01 -2.334858924150466919e-01 -1.514282226562500000e-01
-7.669734358787536621e-01 -1.711459308862686157e-01 -2.538216114044189453e-02
-9.723739027976989746e-01 -9.927109628915786743e-02 -1.053820028901100159e-01
-6.308860182762145996e-01 -3.139478266239166260e-01 -2.229484170675277710e-01
-8.066937327384948730e-01 -7.550275325775146484e-02 -3.483825325965881348e-01
-7.566781044006347656e-01 8.164355158805847168e-02 -3.403482735157012939e-01
-7.036290764808654785e-01 -2.675747275352478027e-01 -3.179934918880462646e-01
-7.083047628402709961e-01 6.164346635341644287e-02 -1.398018598556518555e-01
-8.696894645690917969e-01 9.389318525791168213e-02 -1.184220984578132629e-01
-9.068205356597900391e-01 2.565253525972366333e-02 -2.468281537294387817e-01
-7.788342833518981934e-01 4.218199849128723145e-02 -3.523789048194885254e-01
-9.337493777275085449e-01 -1.381086409091949463e-01 -1.919877976179122925e-01
-9.573055505752563477e-01 -1.421852558851242065e-01 -1.283388286828994751e-01
-9.128452539443969727e-01 6.086869537830352783e-02 -9.102626889944076538e-02
-8.366382122039794922e-01 -1.067227572202682495e-01 -3.194589614868164062e-01
-6.797719597816467285e-01 1.016932129859924316e-01 -3.204240798950195312e-01
-6.451293826103210449e-01 5.834293365478515625e-02 -2.000712305307388306e-01
-6.247417330741882324e-01 -1.819989681243896484e-01 -1.156703531742095947e-01
-5.911926031112670898e-01 -9.907788038253784180e-02 -4.165949225425720215e-01
-7.425585985183715820e-01 -2.411618977785110474e-01 -3.207727670669555664e-01
-7.630330324172973633e-01 -2.593765258789062500e-01 -5.645504593849182129e-02
-8.482615947723388672e-01 7.091988623142242432e-02 -2.872020900249481201e-01
-6.507660150527954102e-01 8.559070527553558350e-03 -4.035790264606475830e-01
-6.470381021499633789e-01 -1.291664540767669678e-01 -9.673091769218444824e-02
-8.280770778656005859e-01 1.151318103075027466e-01 -2.543926239013671875e-01
-9.063894748687744141e-01 -1.415834277868270874e-01 -2.327913939952850342e-01
-7.292420268058776855e-01 -1.902921497821807861e-02 -3.916253745555877686e-01
-7.637229561805725098e-01 1.223428696393966675e-01 -1.916763782501220703e-01
-5.184326171875000000e-01 -1.287044286727905273e-01 -3.653735220432281494e-01
-5.730847120285034180e-01 2.739922702312469482e-02 -2.937910556793212891e-01
-7.703927755355834961e-01 -1.979193389415740967e-01 -3.321985602378845215e-01
-8.892843723297119141e-01 4.419223964214324951e-02 -6.269983947277069092e-02
-5.518192052841186523e-01 -9.714588522911071777e-03 -3.618838787078857422e-01
-8.234710693359375000e-01 -1.958035677671432495e-02 -3.375784456729888916e-01
-8.812415003776550293e-01 -2.140022963285446167e-01 -2.129448503255844116e-01
-6.559593081474304199e-01 -2.839116752147674561e-01 -1.316309273242950439e-01
-7.772292494773864746e-01 6.999777257442474365e-02 -3.388852477073669434e-01
-7.487733960151672363e-01 1.267442107200622559e-02 -7.568217813968658447e-02
-7.716983556747436523e-01 7.904447615146636963e-03 -3.668779432773590088e-01
-6.697835326194763184e-01 -2.036029100418090820e-01 -3.771851360797882080e-01
-8.285346627235412598e-01 -2.345067113637924194e-01 -2.576982378959655762e-01
-6.795387268066406250e-01 -2.317321300506591797e-01 -8.355344831943511963e-02
-6.540518403053283691e-01 -1.799836903810501099e-01 -9.067334979772567749e-02
-7.806526422500610352e-01 -1.241986602544784546e-01 -3.560966253280639648e-01
-6.456548571586608887e-01 -3.225751966238021851e-02 -4.146516025066375732e-01
-7.044953703880310059e-01 4.589895904064178467e-02 -3.800761103630065918e-01
-7.545410394668579102e-01 -1.859621703624725342e-01 -3.484994769096374512e-01
-8.825092911720275879e-01 -2.259435355663299561e-01 -1.970559358596801758e-01
-6.239404678344726562e-01 -1.360263973474502563e-01 -1.162421852350234985e-01
-7.608218789100646973e-01 2.755804359912872314e-02 -3.671483695507049561e-01
-8.816410303115844727e-01 -4.040334746241569519e-02 -2.870008945465087891e-01
-9.254136085510253906e-01 3.218466043472290039e-02 -2.156212925910949707e-01
-7.739591598510742188e-01 1.292786300182342529e-01 -2.126940190792083740e-01
-6.899803876876831055e-01 1.059785336256027222e-01 -2.269223034381866455e-01
-5.354808568954467773e-01 -2.850507944822311401e-02 -3.397459685802459717e-01
-8.994474411010742188e-01 -2.521701157093048096e-03 -3.277023136615753174e-02
-5.508304238319396973e-01 -6.783679127693176270e-04 -3.346436619758605957e-01
-6.668412685394287109e-01 -9.313163161277770996e-02 -8.709169179201126099e-02
-5.482143163681030273e-01 -1.371979415416717529e-01 -2.066298127174377441e-01
-9.197843074798583984e-01 -1.509422659873962402e-01 -2.074346393346786499e-01
-8.908946514129638672e-01 -2.538298070430755615e-02 -2.768234312534332275e-01
-7.178385853767395020e-01 -5.514782294631004333e-02 -6.279756128787994385e-02
-5.170984268188476562e-01 -8.290413022041320801e-02 -3.469037115573883057e-01
-8.654893636703491211e-01 -4.015661403536796570e-02 -3.029584288597106934e-01
-5.565490722656250000e-01 -4.283157736063003540e-02 -2.318096756935119629e-01
-8.322122693061828613e-01 1.042344868183135986e-01 -1.309799551963806152e-01
-5.856990218162536621e-01 4.215759038925170898e-02 -3.334482312202453613e-01
-8.658754229545593262e-01 1.105621010065078735e-01 -2.092265486717224121e-01
-9.047025442123413086e-01 -2.109541147947311401e-01 -1.762752830982208252e-01
-9.702118635177612305e-01 -6.470494717359542847e-02 -1.407777070999145508e-01
-7.586594223976135254e-01 -4.554795846343040466e-02 -4.392689466476440430e-02
-9.498108625411987305e-01 -3.664389252662658691e-03 -1.870648711919784546e-01
-9.746565222740173340e-01 -3.916725143790245056e-02 -1.112680211663246155e-01
-6.530923843383789062e-01 2.730983495712280273e-02 -1.582550704479217529e-01
-5.552697777748107910e-01 -9.554633498191833496e-02 -4.048765301704406738e-01
-6.466716527938842773e-01 -2.766859531402587891e-01 -3.249637484550476074e-01
-7.185112833976745605e-01 8.332423865795135498e-03 -3.904106020927429199e-01
-7.380795478820800781e-01 -3.080410361289978027e-01 -1.128696724772453308e-01
-5.514650940895080566e-01 -4.380211606621742249e-02 -3.905420899391174316e-01
-8.341290950775146484e-01 -1.665438562631607056e-01 -2.993982136249542236e-01
-8.055694103240966797e-01 1.294468790292739868e-01 -2.117324769496917725e-01
-5.337200760841369629e-01 -4.949150234460830688e-02 -3.683171570301055908e-01
-7.339206933975219727e-01 -2.680054903030395508e-01 -3.018389344215393066e-01
-7.327238321304321289e-01 -1.026486232876777649e-01 -3.875623345375061035e-01
-9.271664619445800781e-01 -1.893880516290664673e-01 -1.554785370826721191e-01
-8.921477198600769043e-01 -2.467485666275024414e-01 -1.277925074100494385e-01
-9.498289227485656738e-01 -1.165097951889038086e-02 -5.390179157257080078e-02
-7.368296384811401367e-01 -1.762627959251403809e-01 -3.629520833492279053e-01
-9.362806081771850586e-01 -1.853819042444229126e-01 -1.338651031255722046e-01
-8.377642631530761719e-01 -2.553816735744476318e-01 -2.239775359630584717e-01
-6.728796362876892090e-01 -2.737111449241638184e-01 -1.101139336824417114e-01
-8.837268352508544922e-01 -1.788057386875152588e-01 -1.424051821231842041e-02
-7.662765383720397949e-01 -3.172885179519653320e-01 -1.395461857318878174e-01
-7.149766087532043457e-01 -2.460299581289291382e-01 -3.318493366241455078e-01
-9.470632672309875488e-01 -7.347498834133148193e-02 -2.992925047874450684e-02
-7.151613235473632812e-01 2.595957368612289429e-02 -1.049165874719619751e-01
-8.952187299728393555e-01 -2.362117469310760498e-01 -7.018749415874481201e-02
-6.387092471122741699e-01 -3.037179708480834961e-01 -1.737361550331115723e-01
-5.659902691841125488e-01 -2.612719535827636719e-01 -3.172291815280914307e-01
-6.370238065719604492e-01 -3.127125501632690430e-01 -2.571950852870941162e-01
-5.099121928215026855e-01 -1.496099084615707397e-01 -3.194600343704223633e-01
-8.542786836624145508e-01 -1.130549013614654541e-01 -3.021337985992431641e-01
-9.115755558013916016e-01 -2.156264185905456543e-01 -1.522177457809448242e-01
-5.783305168151855469e-01 -2.419938743114471436e-01 -3.521688580513000488e-01
-6.875299811363220215e-01 7.716536521911621094e-02 -1.762029528617858887e-01
-7.077013850212097168e-01 -2.151328325271606445e-01 -3.567776679992675781e-01
-9.393479228019714355e-01 -4.285272583365440369e-02 -3.092598915100097656e-02
-6.495545506477355957e-01 -3.182255923748016357e-01 -2.421619147062301636e-01
-5.118910074234008789e-01 -1.352154165506362915e-01 -3.452589511871337891e-01
-8.878725171089172363e-01 6.825476884841918945e-05 -2.770070731639862061e-01
-7.855588197708129883e-01 -2.998634427785873413e-02 -3.639231920242309570e-01
-9.460086226463317871e-01 -3.579411655664443970e-02 -2.010880112648010254e-01
-5.934015512466430664e-01 -1.709920018911361694e-01 -1.463325619697570801e-01
-8.479202389717102051e-01 -1.158532723784446716e-01 -3.665760159492492676e-03
-5.616645812988281250e-01 -2.493439465761184692e-01 -2.207039147615432739e-01
-6.935245990753173828e-01 4.318322241306304932e-02 -1.346164345741271973e-01
-6.413213610649108887e-01 -2.926248311996459961e-01 -1.543902456760406494e-01
-8.114825487136840820e-01 1.135899275541305542e-01 -2.727437019348144531e-01
-6.181681156158447266e-01 -2.946316003799438477e-01 -1.849747747182846069e-01
-5.770049691200256348e-01 -5.317204445600509644e-02 -1.926731020212173462e-01
-9.314677715301513672e-01 -2.010507583618164062e-01 -9.706269204616546631e-02
-6.902198195457458496e-01 -2.641772925853729248e-01 -9.215366095304489136e-02
-9.753690958023071289e-01 -6.346401572227478027e-02 -8.830053359270095825e-02
-6.377382278442382812e-01 -1.629199832677841187e-01 -4.022607207298278809e-01
-6.047440767288208008e-01 -2.757167816162109375e-01 -3.225620090961456299e-01
-8.612897992134094238e-01 -6.791926920413970947e-03 -3.047826588153839111e-01
-5.143165588378906250e-01 -1.652080714702606201e-01 -2.879419326782226562e-01
-9.494570493698120117e-01 3.916934132575988770e-02 -1.335564404726028442e-01
-7.387843132019042969e-01 -2.593874931335449219e-01 -6.463564932346343994e-02
-6.592984199523925781e-01 8.957287669181823730e-02 -2.342576235532760620e-01
-7.355827093124389648e-01 1.142021268606185913e-01 -1.932447254657745361e-01
-8.024592995643615723e-01 -2.939682006835937500e-01 -9.120345860719680786e-02
-7.170957326889038086e-01 1.049354672431945801e-01 -3.243342339992523193e-01
-5.616779327392578125e-01 -2.692986726760864258e-01 -2.752550840377807617e-01
-6.135886311531066895e-01 -1.530207842588424683e-01 -4.076328575611114502e-01
-7.356290221214294434e-01 -4.556204751133918762e-02 -3.908065557479858398e-01
-7.923322319984436035e-01 1.226340085268020630e-01 -1.779396533966064453e-01
-7.108629345893859863e-01 -1.408092677593231201e-01 -5.127739906311035156e-02
-6.543338894844055176e-01 6.767053902149200439e-02 -3.646321892738342285e-01
-8.740930557250976562e-01 -1.275676935911178589e-01 -2.776491343975067139e-01
-8.339937329292297363e-01 -6.945984810590744019e-02 -3.284986615180969238e-01
-8.277341723442077637e-01 9.825599193572998047e-02 -2.808051407337188721e-01
-5.237323641777038574e-01 -6.107983365654945374e-02 -3.030858039855957031e-01
-8.956834077835083008e-01 -1.623562276363372803e-01 -1.234900951385498047e-02
-5.732412934303283691e-01 1.725864410400390625e-02 -3.629221320152282715e-01
-9.176757335662841797e-01 2.920792996883392334e-02 -5.968208611011505127e-02
-5.777360200881958008e-01 -2.114429473876953125e-01 -3.767539858818054199e-01
-6.539878845214843750e-01 -1.185077056288719177e-01 -4.114255607128143311e-01
-7.188540697097778320e-01 1.215199828147888184e-01 -2.394976466894149780e-01
-9.559122323989868164e-01 -6.790031492710113525e-02 -1.793140172958374023e-01
-9.181562662124633789e-01 -1.185011565685272217e-01 -1.224072277545928955e-02
-5.976443886756896973e-01 -2.326943278312683105e-01 -3.659052550792694092e-01
-6.007035970687866211e-01 2.903029322624206543e-02 -3.788085579872131348e-01
-5.779755711555480957e-01 -2.832964062690734863e-02 -2.071025967597961426e-01
-5.571835041046142578e-01 -2.211396098136901855e-01 -2.068506628274917603e-01
-8.728586435317993164e-01 -1.105934455990791321e-01 -2.870321273803710938e-03
-9.060797691345214844e-01 -1.931377500295639038e-01 -1.949971020221710205e-01
-6.022118330001831055e-01 -2.096726298332214355e-01 -1.429189443588256836e-01
-5.384310483932495117e-01 -1.303313374519348145e-01 -3.910730183124542236e-01
-5.267530083656311035e-01 -2.126682400703430176e-01 -2.776323258876800537e-01
-8.332035541534423828e-01 -5.485844239592552185e-02 -1.546421647071838379e-02
-8.238086700439453125e-01 1.138129532337188721e-01 -1.502226293087005615e-01
-8.723375797271728516e-01 -1.820401847362518311e-01 -2.513850927352905273e-01
-7.574127316474914551e-01 -3.045737147331237793e-01 -1.038327440619468689e-01
-8.018693327903747559e-01 -7.035467028617858887e-02 -1.972225308418273926e-02
-6.581641435623168945e-01 7.561555504798889160e-02 -2.082021534442901611e-01
-5.487848520278930664e-01 -1.095189079642295837e-01 -2.112468332052230835e-01
-5.474370121955871582e-01 -2.075865864753723145e-02 -2.757351398468017578e-01
-6.025191545486450195e-01 -1.721722781658172607e-01 -4.008014798164367676e-01
-8.153125047683715820e-01 4.387499392032623291e-02 -6.811457872390747070e-02
-6.275674700736999512e-01 -6.396932154893875122e-02 -1.295942366123199463e-01
-6.852968931198120117e-01 -1.342849731445312500e-01 -6.769043207168579102e-02
-7.543308138847351074e-01 -3.196463882923126221e-01 -1.934314221143722534e-01
-7.178460955619812012e-01 -3.235454559326171875e-01 -1.564463675022125244e-01
-6.291877031326293945e-01 1.870521903038024902e-02 -1.770136952400207520e-01
-8.338384032249450684e-01 -2.129222601652145386e-01 -2.707177698612213135e-01
-8.227331638336181641e-01 -2.860346436500549316e-01 -8.631087839603424072e-02
-5.587772130966186523e-01 -2.165986299514770508e-01 -3.644461035728454590e-01
-8.844047784805297852e-01 -5.538659915328025818e-02 -1.108358800411224365e-02
-6.993373036384582520e-01 4.364155232906341553e-03 -1.021799445152282715e-01
-7.257790565490722656e-01 -1.403271108865737915e-01 -3.817937970161437988e-01
-5.755445957183837891e-01 -9.615515172481536865e-02 -1.764919757843017578e-01
-7.551565170288085938e-01 -8.955720067024230957e-02 -3.783834874629974365e-01
-8.760731816291809082e-01 -1.514363288879394531e-02 -2.915673553943634033e-01
-8.236824274063110352e-01 -2.006068825721740723e-01 -2.891423702239990234e-01
-6.766321063041687012e-01 8.483093976974487305e-02 -1.996571868658065796e-01
-8.753602504730224609e-01 2.145421504974365234e-02 -2.849290966987609863e-01
-8.392221331596374512e-01 -1.364596635103225708e-01 -4.657521843910217285e-03
-7.795656323432922363e-01 -5.684424191713333130e-02 -3.122334182262420654e-02
-6.163171529769897461e-01 -4.725247621536254883e-03 -1.733522415161132812e-01
-8.027583956718444824e-01 -1.448033154010772705e-01 -3.342449069023132324e-01
-5.896522998809814453e-01 -1.902655065059661865e-01 -3.915522098541259766e-01
-7.593463659286499023e-01 -1.528758853673934937e-01 -3.599245548248291016e-01
-8.761913180351257324e-01 -9.215782582759857178e-02 -2.862193584442138672e-01
-6.367222070693969727e-01 8.211901783943176270e-02 -3.262794613838195801e-01
-7.372328639030456543e-01 2.660711109638214111e-02 -9.110642224550247192e-02
-8.198996186256408691e-01 -2.973461151123046875e-01 -1.608628928661346436e-01
-9.622075557708740234e-01 -1.295396685600280762e-01 -6.665092706680297852e-02
-6.414080262184143066e-01 -2.235130667686462402e-01 -1.095830351114273071e-01
-6.749826669692993164e-01 1.072404235601425171e-01 -2.883921265602111816e-01
-8.752220273017883301e-01 -2.564172148704528809e-01 -1.563157588243484497e-01
-7.703871726989746094e-01 9.413738548755645752e-02 -1.354209780693054199e-01
-5.280904173851013184e-01 -2.206316292285919189e-01 -2.995300292968750000e-01
-8.263712525367736816e-01 -2.015542984008789062e-01 -1.765613257884979248e-02
-9.650808572769165039e-01 -9.012903273105621338e-02 -1.488554179668426514e-01
-5.942807197570800781e-01 -7.093620300292968750e-02 -1.623394340276718140e-01
-7.411649227142333984e-01 3.658488392829895020e-02 -3.726775050163269043e-01
-8.997083306312561035e-01 -1.616445779800415039e-01 -2.301690280437469482e-01
-6.520367860794067383e-01 8.429832756519317627e-03 -1.446070075035095215e-01
-5.640006065368652344e-01 -1.754943877458572388e-01 -1.830330491065979004e-01
-7.936161160469055176e-01 1.070827990770339966e-01 -1.441319286823272705e-01
-5.760866403579711914e-01 -2.114852666854858398e-01 -1.745019406080245972e-01
-9.693853259086608887e-01 -6.875212490558624268e-02 -6.216223537921905518e-02
-9.187043309211730957e-01 6.622113287448883057e-03 -4.362450540065765381e-02
-6.233141422271728516e-01 4.331451654434204102e-02 -2.105300724506378174e-01
-9.234865903854370117e-01 -1.231722682714462280e-01 -2.174231559038162231e-01
-5.135776996612548828e-01 -1.012611165642738342e-01 -3.045953512191772461e-01
-7.089989185333251953e-01 -1.848554313182830811e-01 -5.432295799255371094e-02
-6.834968924522399902e-01 -3.178561925888061523e-01 -1.583188772201538086e-01
-5.231069326400756836e-01 -1.361845433712005615e-01 -2.562404870986938477e-01
-9.535573720932006836e-01 -1.549765765666961670e-01 -6.949050724506378174e-02
-8.453375697135925293e-01 3.588266670703887939e-02 -5.581262707710266113e-02
-6.882767677307128906e-01 7.087229192256927490e-02 -3.653493225574493408e-01
-8.983772993087768555e-01 7.736405730247497559e-02 -1.053624674677848816e-01
-6.580460071563720703e-01 -6.548665463924407959e-02 -4.156501889228820801e-01
-8.655285835266113281e-01 -1.493078470230102539e-01 -4.587456583976745605e-03
-7.506384849548339844e-01 1.163066178560256958e-01 -3.000864982604980469e-01
-7.371044158935546875e-01 -2.809474468231201172e-01 -8.090527355670928955e-02
-7.849596738815307617e-01 -1.004023924469947815e-01 -3.589932918548583984e-01
-9.266712069511413574e-01 -1.707846522331237793e-01 -1.790891140699386597e-01
-7.663676738739013672e-01 -2.782592475414276123e-01 -2.678921520709991455e-01
-9.407814741134643555e-01 3.469488024711608887e-02 -1.820880919694900513e-01
-7.451924681663513184e-01 -7.288828492164611816e-03 -6.676366925239562988e-02
-9.121806025505065918e-01 4.608403146266937256e-02 -2.279349714517593384e-01
-8.493481278419494629e-01 9.612856805324554443e-02 -2.623715400695800781e-01
-9.395740032196044922e-01 -1.555616855621337891e-01 -1.661173403263092041e-01
-6.336910128593444824e-01 -2.004807591438293457e-01 -1.103778928518295288e-01
-7.233504056930541992e-01 5.505421757698059082e-02 -1.223062500357627869e-01
-6.653094887733459473e-01 -2.357906848192214966e-01 -3.583122491836547852e-01
-9.469281435012817383e-01 -1.179166436195373535e-01 -1.787982583045959473e-01
-8.551408052444458008e-01 1.316359639167785645e-02 -3.065942525863647461e-01
-9.406164884567260742e-01 -1.840022951364517212e-01 -7.919766008853912354e-02
-7.521809339523315430e-01 1.053324192762374878e-01 -1.628926247358322144e-01
-5.519515872001647949e-01 -3.381751477718353271e-03 -2.940778732299804688e-01
-6.369243860244750977e-01 -2.729560136795043945e-01 -1.393396407365798950e-01
-6.562136411666870117e-01 4.006406664848327637e-02 -3.879993557929992676e-01
-8.987046480178833008e-01 -7.839849591255187988e-02 -8.045166730880737305e-03
-7.203143239021301270e-01 -1.622922867536544800e-01 -4.606468975543975830e-02
-5.533909201622009277e-01 -3.057352453470230103e-02 -2.488157600164413452e-01
-7.582776546478271484e-01 -2.927650511264801025e-01 -2.543932497501373291e-01
-9.606944322586059570e-01 -3.238290548324584961e-02 -5.638444423675537109e-02
-7.373439669609069824e-01 -1.563921123743057251e-01 -3.707408905029296875e-01
-8.829782605171203613e-01 -2.565572857856750488e-01 -1.123699694871902466e-01
-9.346909523010253906e-01 -3.458040207624435425e-02 -2.202257364988327026e-01
-7.354410886764526367e-01 1.085853427648544312e-01 -3.168722093105316162e-01
-8.398310542106628418e-01 -2.860780358314514160e-01 -1.079179197549819946e-01
-7.785070538520812988e-01 -3.099821209907531738e-01 -1.965567767620086670e-01
-7.157011032104492188e-01 -1.125758141279220581e-02 -8.233511447906494141e-02
-6.118489503860473633e-01 -1.063648760318756104e-01 -4.175513684749603271e-01
-7.979775071144104004e-01 -2.697656154632568359e-01 -2.502970993518829346e-01
-7.451283931732177734e-01 -1.619729399681091309e-01 -3.368374705314636230e-02
-6.931999325752258301e-01 -4.919756576418876648e-02 -8.093656599521636963e-02
-7.294706106185913086e-01 -2.218605279922485352e-01 -3.420152962207794189e-01
-9.511798024177551270e-01 -1.345096528530120850e-01 -1.570876389741897583e-01
-8.129251599311828613e-01 9.953096508979797363e-03 -3.408555984497070312e-01
-7.081683278083801270e-01 1.078839302062988281e-01 -2.070820182561874390e-01
-6.730478405952453613e-01 -1.880006790161132812e-01 -7.752439379692077637e-02
-9.417291879653930664e-01 -1.695348620414733887e-01 -5.558118224143981934e-02
-9.427241683006286621e-01 -1.121157258749008179e-01 -2.697044610977172852e-02
-7.343723773956298828e-01 -3.248658776283264160e-01 -1.889000535011291504e-01
-5.490968227386474609e-01 -1.866406798362731934e-01 -2.074962854385375977e-01
-8.077061176300048828e-01 2.096135169267654419e-02 -5.494566261768341064e-02
-6.968184709548950195e-01 -2.920969128608703613e-01 -2.926847338676452637e-01
-8.664951920509338379e-01 -2.182983309030532837e-01 -2.895395457744598389e-02
-6.845036149024963379e-01 -1.613826304674148560e-01 -3.914088606834411621e-01
-7.058150768280029297e-01 -1.441228091716766357e-01 -3.893120586872100830e-01
-7.911083102226257324e-01 -1.663837581872940063e-01 -3.338788449764251709e-01
-5.738828778266906738e-01 -1.890392601490020752e-01 -1.716913878917694092e-01
-7.124627232551574707e-01 -8.826345205307006836e-02 -5.702148377895355225e-02
-8.658260107040405273e-01 -2.287023961544036865e-01 -2.190304398536682129e-01
-6.447002887725830078e-01 9.030114114284515381e-02 -3.091210722923278809e-01
-5.487143397331237793e-01 -2.539802789688110352e-01 -2.745686769485473633e-01
-7.309734821319580078e-01 -1.400670111179351807e-01 -4.025456309318542480e-02
-9.522507190704345703e-01 -1.603413969278335571e-01 -1.169514283537864685e-01
-5.268005132675170898e-01 -1.609598994255065918e-01 -2.468701601028442383e-01
-7.745768427848815918e-01 -9.962330013513565063e-02 -2.393928170204162598e-02
-7.704329490661621094e-01 -2.614611983299255371e-01 -2.836783230304718018e-01
-7.101386785507202148e-01 1.206412911415100098e-01 -2.616900205612182617e-01
-5.335776209831237793e-01 -1.917625069618225098e-01 -2.390130758285522461e-01
-6.600059866905212402e-01 -1.588162183761596680e-01 -3.993667960166931152e-01
-6.766899824142456055e-01 -6.864219903945922852e-05 -4.036563038825988770e-01
-6.450299024581909180e-01 3.705906867980957031e-02 -1.758624911308288574e-01
-6.246528029441833496e-01 1.477517932653427124e-02 -3.987355828285217285e-01
-9.599821567535400391e-01 -1.021693870425224304e-01 -4.616017639636993408e-02
-6.707854866981506348e-01 -2.780979871749877930e-01 -3.187666535377502441e-01
-8.852605819702148438e-01 -2.199433743953704834e-01 -3.864653408527374268e-02
-8.754701018333435059e-01 2.383797615766525269e-02 -4.582899808883666992e-02
-7.381933331489562988e-01 -7.665042579174041748e-02 -4.513870179653167725e-02
-5.395958423614501953e-01 -2.489744126796722412e-02 -2.973917722702026367e-01
-7.809496521949768066e-01 -1.568466126918792725e-01 -1.917950809001922607e-02
-5.578592419624328613e-01 9.862206876277923584e-03 -3.102462589740753174e-01
-8.932145833969116211e-01 -1.024619117379188538e-01 -4.938304424285888672e-03
-7.761529088020324707e-01 -2.348109334707260132e-01 -3.945066034793853760e-02
-6.413825750350952148e-01 -3.066948950290679932e-01 -2.773870527744293213e-01
-8.124112486839294434e-01 1.265013813972473145e-01 -1.902063637971878052e-01
-7.756738066673278809e-01 -1.192063763737678528e-01 -2.134589850902557373e-02
-8.480947613716125488e-01 -2.222968190908432007e-01 -2.476988285779953003e-01
-9.714473485946655273e-01 -2.549690753221511841e-02 -1.278325021266937256e-01
-5.919585227966308594e-01 -1.297987997531890869e-02 -1.984413564205169678e-01
-6.171143054962158203e-01 -2.498313039541244507e-01 -1.434873938560485840e-01
-9.121294021606445312e-01 -2.161677628755569458e-01 -6.357233226299285889e-02
-8.841660022735595703e-01 8.457499742507934570e-02 -2.328127175569534302e-01
-8.565848469734191895e-01 1.099910289049148560e-01 -1.483760178089141846e-01
-5.774586200714111328e-01 -1.725435853004455566e-01 -3.972452878952026367e-01
-8.235304355621337891e-01 -2.660745978355407715e-01 -5.782745778560638428e-02
-9.614184498786926270e-01 -2.602543681859970093e-02 -1.663177311420440674e-01
-6.365223526954650879e-01 -5.246594548225402832e-03 -4.084325134754180908e-01
-6.122565269470214844e-01 5.833874642848968506e-02 -3.493431210517883301e-01
-7.957848906517028809e-01 9.500961005687713623e-02 -3.081039786338806152e-01
-5.357961058616638184e-01 -1.294527947902679443e-01 -2.295074611902236938e-01
-6.804578900337219238e-01 5.261403322219848633e-02 -3.797034621238708496e-01
-7.646649479866027832e-01 1.304752975702285767e-01 -2.369885444641113281e-01
-6.029790639877319336e-01 6.072603166103363037e-02 -3.013317883014678955e-01
-8.457635045051574707e-01 -1.404690146446228027e-01 -3.005202412605285645e-01
-8.137261867523193359e-01 -2.246124744415283203e-01 -2.806625962257385254e-01
-8.329789042472839355e-01 -2.920526266098022461e-01 -1.254577338695526123e-01
-8.272864222526550293e-01 -9.477517008781433105e-02 -8.627206087112426758e-03
-5.508776903152465820e-01 -1.599801927804946899e-01 -2.013711929321289062e-01
-9.632737636566162109e-01 -8.010871708393096924e-03 -7.866959273815155029e-02
-6.223909258842468262e-01 -3.006752729415893555e-01 -2.845508456230163574e-01
-7.309764027595520020e-01 9.432397782802581787e-02 -3.368211686611175537e-01
-5.941487550735473633e-01 -2.958251535892486572e-01 -2.565988004207611084e-01
-6.759673357009887695e-01 1.069368124008178711e-01 -2.620415687561035156e-01
-8.345380425453186035e-01 3.470437228679656982e-02 -3.176314234733581543e-01
-7.264964580535888672e-01 1.002913266420364380e-01 -1.740177422761917114e-01
-6.144309043884277344e-01 -5.722346901893615723e-02 -4.182953536510467529e-01
-9.236945509910583496e-01 -9.196528792381286621e-02 -1.401974260807037354e-02
-5.439756512641906738e-01 -2.123553454875946045e-01 -2.266901433467864990e-01
-5.837315320968627930e-01 -2.529677003622055054e-02 -4.044229388236999512e-01
-6.301310062408447266e-01 8.125156164169311523e-02 -2.827255129814147949e-01
-8.913156986236572266e-01 6.030669808387756348e-02 -2.472785264253616333e-01
-7.957255244255065918e-01 -2.479672729969024658e-01 -4.260727763175964355e-02
-7.891947627067565918e-01 -2.941790223121643066e-01 -2.219797223806381226e-01
-5.179301500320434570e-01 -1.853693425655364990e-01 -2.848369479179382324e-01
-6.685638427734375000e-01 -4.010854288935661316e-02 -1.030263081192970276e-01
-8.891071677207946777e-01 -1.366743743419647217e-01 -5.535349249839782715e-03
-7.221059799194335938e-01 2.652120590209960938e-02 -3.835589885711669922e-01
-6.242679357528686523e-01 -2.322376817464828491e-01 -3.675428628921508789e-01
-6.443534493446350098e-01 -2.613075822591781616e-02 -1.306803077459335327e-01
-5.216792225837707520e-01 -1.003059372305870056e-01 -2.718893587589263916e-01
-5.853936076164245605e-01 -1.473043709993362427e-01 -1.553710252046585083e-01
-6.215208768844604492e-01 -3.500230610370635986e-02 -1.486972421407699585e-01
-7.509049177169799805e-01 -3.052061796188354492e-01 -2.389350980520248413e-01
-7.412678599357604980e-01 -1.078694835305213928e-01 -3.768225014209747314e-02
-5.863333344459533691e-01 -2.360313236713409424e-01 -1.716309785842895508e-01
-5.953690409660339355e-01 4.213093221187591553e-02 -2.598036825656890869e-01
-8.969340324401855469e-01 2.054518461227416992e-02 -4.606027901172637939e-02
-9.148761630058288574e-01 3.802470862865447998e-03 -2.433788776397705078e-01
-6.509613990783691406e-01 7.942382991313934326e-02 -3.473025560379028320e-01
-5.664878487586975098e-01 -1.778525859117507935e-02 -2.352159321308135986e-01
-5.966328382492065430e-01 -2.915362715721130371e-01 -2.863691151142120361e-01
-8.504491448402404785e-01 -1.693664789199829102e-01 -2.825778126716613770e-01
-8.753862380981445312e-01 6.996124982833862305e-02 -8.586905896663665771e-02
-6.379315257072448730e-01 -2.626243531703948975e-01 -3.408473134040832520e-01
-7.233904600143432617e-01 -3.020387291908264160e-01 -2.644607424736022949e-01
-8.715060949325561523e-01 -1.572746038436889648e-01 -2.670887112617492676e-01
-9.129571318626403809e-01 6.226706504821777344e-02 -2.120879143476486206e-01
-7.432087063789367676e-01 -3.240827322006225586e-01 -1.695556938648223877e-01
-7.139003276824951172e-01 -9.405041486024856567e-02 -3.971391320228576660e-01
5.354204177856445312e-01 -2.129867970943450928e-01 -2.450508177280426025e-01
8.641412258148193359e-01 -3.574648499488830566e-02 -2.668145895004272461e-01
7.557093501091003418e-01 -7.880098372697830200e-02 -3.373204767704010010e-01
6.361360549926757812e-01 -2.237209081649780273e-01 -2.131876349449157715e-01
7.356727719306945801e-01 -5.116488784551620483e-02 -2.738662958145141602e-01
8.483577966690063477e-01 -5.319443345069885254e-02 -3.085687458515167236e-01
6.255069971084594727e-01 -1.382984369993209839e-01 -2.357880771160125732e-01
9.352235794067382812e-01 -1.365845203399658203e-01 -2.370321452617645264e-01
7.206597924232482910e-01 -1.120898574590682983e-01 -3.491259813308715820e-01
6.572994589805603027e-01 -7.165339589118957520e-02 -2.933090031147003174e-01
7.120082378387451172e-01 -1.888649165630340576e-01 -3.404303789138793945e-01
7.861399054527282715e-01 -1.469116657972335815e-01 -3.331670463085174561e-01
6.785006523132324219e-01 -2.789118289947509766e-01 -2.677569091320037842e-01
9.098770022392272949e-01 -1.564107835292816162e-01 -2.616255283355712891e-01
8.864035606384277344e-01 -7.910835742950439453e-02 -3.038712143898010254e-01
9.368155002593994141e-01 -6.089837849140167236e-02 -2.582720518112182617e-01
6.940428018569946289e-01 -2.572689950466156006e-01 -2.197271883487701416e-01
6.491249203681945801e-01 -1.403393447399139404e-01 -2.262126654386520386e-01
7.785492539405822754e-01 -7.373896241188049316e-02 -2.296171039342880249e-01
7.826570272445678711e-01 -1.735240370035171509e-01 -1.952507644891738892e-01
8.155174255371093750e-01 -2.085084766149520874e-01 -2.873296737670898438e-01
7.347138524055480957e-01 -9.193811565637588501e-02 -2.274625301361083984e-01
4.963632225990295410e-01 -1.828550547361373901e-01 -3.406066894531250000e-01
4.896718263626098633e-01 -2.053617238998413086e-01 -3.422856628894805908e-01
5.876063704490661621e-01 -2.533999085426330566e-01 -3.325351774692535400e-01
9.150351285934448242e-01 -4.750467836856842041e-02 -2.671566903591156006e-01
8.199547529220581055e-01 -2.133875489234924316e-01 -2.127239257097244263e-01
7.484206557273864746e-01 -2.270342260599136353e-01 -3.064392805099487305e-01
5.169137716293334961e-01 -2.438352406024932861e-01 -2.511252164840698242e-01
5.089008808135986328e-01 -2.871448993682861328e-01 -2.927619516849517822e-01
8.613626956939697266e-01 -1.363627761602401733e-01 -3.079090714454650879e-01
4.895952343940734863e-01 -2.202782183885574341e-01 -3.416396975517272949e-01
4.807178676128387451e-01 -1.808524280786514282e-01 -3.199371099472045898e-01
6.750171184539794922e-01 -1.669708937406539917e-01 -2.098716497421264648e-01
7.464597821235656738e-01 -4.730564355850219727e-02 -3.080594837665557861e-01
7.243971228599548340e-01 -2.432779669761657715e-01 -3.020763993263244629e-01
6.190416812896728516e-01 -1.982138156890869141e-01 -3.534052073955535889e-01
6.496328115463256836e-01 -1.310906112194061279e-01 -3.562694489955902100e-01
7.305040955543518066e-01 -1.533260047435760498e-01 -2.022368758916854858e-01
8.073274493217468262e-01 -1.228406876325607300e-01 -3.312224745750427246e-01
5.844542980194091797e-01 -2.603696584701538086e-01 -2.314453423023223877e-01
7.571172118186950684e-01 -1.002798080444335938e-01 -3.425821959972381592e-01
6.215875148773193359e-01 -1.924093067646026611e-01 -2.182241678237915039e-01
5.431599617004394531e-01 -2.501113414764404297e-01 -3.377425670623779297e-01
7.715564370155334473e-01 -2.254568040370941162e-01 -2.077576518058776855e-01
7.990865707397460938e-01 -2.196824103593826294e-01 -2.860276997089385986e-01
7.290034294128417969e-01 -2.008669227361679077e-01 -3.306475281715393066e-01
6.936176419258117676e-01 -9.470351785421371460e-02 -2.386433184146881104e-01
5.235164761543273926e-01 -2.228642702102661133e-01 -2.489224970340728760e-01
6.834683418273925781e-01 -1.861009299755096436e-01 -2.049554586410522461e-01
8.398039937019348145e-01 -8.262668550014495850e-02 -3.214326500892639160e-01
7.061367034912109375e-01 -1.330637186765670776e-01 -2.132074087858200073e-01
4.874050021171569824e-01 -1.927157193422317505e-01 -3.388113081455230713e-01
7.161864042282104492e-01 -2.559331953525543213e-01 -2.214290648698806763e-01
6.057037115097045898e-01 -1.204218789935112000e-01 -3.500069975852966309e-01
6.196328997611999512e-01 -1.758250296115875244e-01 -3.576373457908630371e-01
7.570358514785766602e-01 -1.536626070737838745e-01 -3.396798968315124512e-01
9.196498990058898926e-01 -5.435283482074737549e-02 -2.433244884014129639e-01
7.279213666915893555e-01 -2.322681397199630737e-01 -2.068492174148559570e-01
5.381870865821838379e-01 -2.748992741107940674e-01 -3.190822601318359375e-01
9.143653512001037598e-01 -5.963248759508132935e-02 -2.831066846847534180e-01
5.970664620399475098e-01 -9.686718881130218506e-02 -3.032507300376892090e-01
5.381628274917602539e-01 -2.304219007492065430e-01 -3.466530740261077881e-01
8.880703449249267578e-01 -1.838197559118270874e-01 -2.437774538993835449e-01
8.594269156455993652e-01 -7.669474184513092041e-02 -2.170847207307815552e-01
7.628392577171325684e-01 -6.644228100776672363e-02 -2.401688098907470703e-01
7.667602896690368652e-01 -2.508470714092254639e-01 -2.555591166019439697e-01
6.184364557266235352e-01 -2.906895279884338379e-01 -2.720001935958862305e-01
6.040695905685424805e-01 -1.345111131668090820e-01 -2.473976165056228638e-01
5.933985114097595215e-01 -1.018842160701751709e-01 -3.274012804031372070e-01
5.564325451850891113e-01 -1.337608993053436279e-01 -2.774893641471862793e-01
5.404753684997558594e-01 -1.412685513496398926e-01 -3.404254317283630371e-01
9.135766625404357910e-01 -9.220319241285324097e-02 -2.148482352495193481e-01
8.788897395133972168e-01 -6.047670543193817139e-02 -2.284645736217498779e-01
6.639784574508666992e-01 -2.241678833961486816e-01 -3.359270989894866943e-01
7.852767109870910645e-01 -9.249365329742431641e-02 -3.363995254039764404e-01
6.279140710830688477e-01 -8.223966509103775024e-02 -3.042704463005065918e-01
7.036376595497131348e-01 -7.543817907571792603e-02 -3.365339040756225586e-01
7.358375787734985352e-01 -2.567926645278930664e-01 -2.764113247394561768e-01
7.187563776969909668e-01 -2.437321096658706665e-01 -2.122585326433181763e-01
8.643671274185180664e-01 -1.638253927230834961e-01 -2.013067454099655151e-01
7.119559049606323242e-01 -1.764064282178878784e-01 -2.012863457202911377e-01
9.167081117630004883e-01 -6.423593312501907349e-02 -2.310888767242431641e-01
5.325897932052612305e-01 -2.448312938213348389e-01 -2.443823963403701782e-01
6.210010051727294922e-01 -2.781797051429748535e-01 -2.368867248296737671e-01
6.979190111160278320e-01 -1.852852553129196167e-01 -2.025929391384124756e-01
5.038821697235107422e-01 -2.064264416694641113e-01 -2.636199891567230225e-01
6.410037279129028320e-01 -7.698076963424682617e-02 -3.010208010673522949e-01
6.521677374839782715e-01 -2.565184831619262695e-01 -2.194430828094482422e-01
7.699350118637084961e-01 -4.355255514383316040e-02 -2.714354991912841797e-01
8.329730629920959473e-01 -2.196863591670989990e-01 -2.477732151746749878e-01
7.832620143890380859e-01 -2.241245061159133911e-01 -2.911395728588104248e-01
9.470433592796325684e-01 -8.352552354335784912e-02 -2.596783339977264404e-01
4.934836626052856445e-01 -2.608078420162200928e-01 -3.263036608695983887e-01
6.972674727439880371e-01 -2.073293328285217285e-01 -3.363518714904785156e-01
7.951321601867675781e-01 -2.390750646591186523e-01 -2.410792410373687744e-01
5.819311738014221191e-01 -1.834704279899597168e-01 -3.576952815055847168e-01
5.860374569892883301e-01 -1.984531283378601074e-01 -3.554578125476837158e-01
9.366320371627807617e-01 -8.133024722337722778e-02 -2.726601660251617432e-01
5.064252614974975586e-01 -2.504726052284240723e-01 -3.352661728858947754e-01
9.231680035591125488e-01 -1.429216861724853516e-01 -2.214244604110717773e-01
7.602768540382385254e-01 -2.417616546154022217e-01 -2.838253676891326904e-01
6.061549186706542969e-01 -2.394140809774398804e-01 -2.212391048669815063e-01
6.855972409248352051e-01 -1.461428403854370117e-01 -3.542910218238830566e-01
7.955577969551086426e-01 -1.154922097921371460e-01 -3.351313173770904541e-01
7.390648126602172852e-01 -2.540053129196166992e-01 -2.255572378635406494e-01
5.855367183685302734e-01 -2.749023437500000000e-01 -2.386296987533569336e-01
8.709799051284790039e-01 -1.947998702526092529e-01 -2.284521162509918213e-01
6.107410788536071777e-01 -1.865522265434265137e-01 -2.225763350725173950e-01
8.297874331474304199e-01 -1.049369871616363525e-01 -3.257473111152648926e-01
9.459220170974731445e-01 -9.488730132579803467e-02 -2.306507229804992676e-01
7.284365296363830566e-01 -8.304849267005920410e-02 -3.410528898239135742e-01
5.616356134414672852e-01 -2.854964435100555420e-01 -3.044452071189880371e-01
5.560703873634338379e-01 -2.779213190078735352e-01 -3.150576353073120117e-01
5.125911831855773926e-01 -2.292078435420989990e-01 -3.448349237442016602e-01
7.708583474159240723e-01 -8.608112484216690063e-02 -2.224801480770111084e-01
7.720429897308349609e-01 -8.916017413139343262e-02 -3.381943106651306152e-01
6.381347775459289551e-01 -2.644769847393035889e-01 -3.129883408546447754e-01
8.634382486343383789e-01 -1.359805464744567871e-01 -1.989617198705673218e-01
8.458509445190429688e-01 -1.380680948495864868e-01 -3.142761588096618652e-01
5.506466031074523926e-01 -1.249553859233856201e-01 -3.271926343441009521e-01
8.102121949195861816e-01 -5.727071315050125122e-02 -3.196519017219543457e-01
7.906984686851501465e-01 -8.021152764558792114e-02 -3.327773809432983398e-01
7.227991223335266113e-01 -5.378466844558715820e-02 -3.139847218990325928e-01
6.764329075813293457e-01 -6.383346021175384521e-02 -3.053211271762847900e-01
5.991521477699279785e-01 -2.857425212860107422e-01 -2.965013980865478516e-01
9.121353030204772949e-01 -1.590703576803207397e-01 -2.246137112379074097e-01
9.193586111068725586e-01 -1.435932219028472900e-01 -2.640433609485626221e-01
7.762939333915710449e-01 -1.381635814905166626e-01 -3.377213478088378906e-01
5.674720406532287598e-01 -2.920247316360473633e-01 -2.631561756134033203e-01
