-6.332741975784301758e-01 6.392012536525726318e-02 -1.179490983486175537e-01
-5.860135555267333984e-01 2.633642964065074921e-02 -1.073551550507545471e-02
-5.825172066688537598e-01 4.818896204233169556e-02 -2.235893607139587402e-01
-5.425378680229187012e-01 2.472179941833019257e-02 4.952362179756164551e-02
-6.805630922317504883e-01 4.618105292320251465e-02 7.012622058391571045e-02
-6.758042573928833008e-01 4.575701057910919189e-02 1.109960079193115234e-01
-5.420113205909729004e-01 5.161263048648834229e-02 -6.564524769783020020e-02
-5.337277054786682129e-01 2.552495524287223816e-02 -4.318068176507949829e-02
-6.362740397453308105e-01 3.482894971966743469e-02 1.132453009486198425e-01
-6.371912956237792969e-01 3.582188114523887634e-02 -9.553540498018264771e-02
-5.941898822784423828e-01 5.722307413816452026e-02 -1.705702096223831177e-01
-5.365511775016784668e-01 4.970380291342735291e-02 9.291911870241165161e-02
-5.516569614410400391e-01 2.513676881790161133e-02 7.913634926080703735e-02
-5.950691699981689453e-01 2.973720803856849670e-02 1.464142501354217529e-01
-6.783686876296997070e-01 6.541536748409271240e-02 -3.623028844594955444e-02
-5.584998130798339844e-01 2.759209275245666504e-02 -1.170823723077774048e-01
-5.974707007408142090e-01 5.632787570357322693e-02 2.141698449850082397e-01
-5.090776681900024414e-01 3.805020451545715332e-02 4.625274986028671265e-02
-5.449067354202270508e-01 2.506064251065254211e-02 -4.540492594242095947e-02
-5.507382750511169434e-01 5.221636965870857239e-02 -1.106900125741958618e-01
-6.244964599609375000e-01 3.129462152719497681e-02 3.239899873733520508e-02
-5.203759074211120605e-01 3.453760594129562378e-02 1.405118405818939209e-01
-6.687529683113098145e-01 4.150151461362838745e-02 3.981738165020942688e-02
-6.064828634262084961e-01 3.002948500216007233e-02 1.177754923701286316e-01
-6.849884986877441406e-01 4.772819206118583679e-02 5.108546465635299683e-02
-5.622963905334472656e-01 4.683675616979598999e-02 -2.020295858383178711e-01
-5.964254736900329590e-01 5.057289078831672668e-02 -2.249448597431182861e-01
-5.417426228523254395e-01 5.207711085677146912e-02 6.419593840837478638e-02
-5.732330083847045898e-01 5.966934561729431152e-02 2.657338790595531464e-02
-5.767927169799804688e-01 2.676389180123806000e-02 -7.586657255887985229e-02
-6.485131382942199707e-01 6.749122589826583862e-02 8.966412395238876343e-03
-5.839252471923828125e-01 5.451466888189315796e-02 -1.831465363502502441e-01
-5.219098329544067383e-01 2.681657485663890839e-02 -3.761590272188186646e-02
-6.899695992469787598e-01 5.006071925163269043e-02 2.495135739445686340e-02
-6.712297797203063965e-01 4.222514480352401733e-02 2.404268272221088409e-02
-5.999617576599121094e-01 3.963347896933555603e-02 2.522459626197814941e-01
-5.991403460502624512e-01 2.791188657283782959e-02 -2.776264213025569916e-02
-5.567315816879272461e-01 5.418571457266807556e-02 -1.006678119301795959e-01
-5.274958610534667969e-01 2.684311009943485260e-02 -6.478617340326309204e-02
-6.100117564201354980e-01 6.192801147699356079e-02 1.541683375835418701e-01
-5.219624042510986328e-01 4.591564089059829712e-02 -1.555346511304378510e-02
-5.851982831954956055e-01 5.277757719159126282e-02 -2.009752541780471802e-01
-5.390906929969787598e-01 5.090676993131637573e-02 8.025702834129333496e-02
-5.872771143913269043e-01 2.689383737742900848e-02 -4.426348954439163208e-02
-6.655789613723754883e-01 6.519794464111328125e-02 1.187601089477539062e-01
-5.635600090026855469e-01 3.171698376536369324e-02 2.021753042936325073e-01
-6.302734613418579102e-01 3.413606807589530945e-02 1.273279637098312378e-01
-6.119288802146911621e-01 2.941095083951950073e-02 4.692150279879570007e-02
-6.270061135292053223e-01 6.293019652366638184e-02 1.629410237073898315e-01
-6.006208658218383789e-01 2.853804640471935272e-02 -5.367753654718399048e-02
-6.219791769981384277e-01 6.142821162939071655e-02 1.822409182786941528e-01
-5.539216995239257812e-01 5.432082712650299072e-02 1.003586798906326294e-01
-5.848526954650878906e-01 3.848078101873397827e-02 -2.200333476066589355e-01
-5.298539996147155762e-01 4.401336982846260071e-02 -1.248230636119842529e-01
-5.660760402679443359e-01 5.733580142259597778e-02 -6.789509207010269165e-02
-5.831239819526672363e-01 6.120435893535614014e-02 -2.422541938722133636e-02
-6.554660201072692871e-01 6.754405796527862549e-02 1.892633736133575439e-02
-5.714252591133117676e-01 2.800123021006584167e-02 1.476870775222778320e-01
-5.644435286521911621e-01 5.360568314790725708e-02 -1.449366062879562378e-01
-6.506419777870178223e-01 3.667938709259033203e-02 4.977816343307495117e-02
-6.132416725158691406e-01 6.504940986633300781e-02 5.861049890518188477e-02
-6.486077308654785156e-01 6.218312308192253113e-02 1.815407723188400269e-01
-6.603193879127502441e-01 6.693344563245773315e-02 7.220543920993804932e-02
-6.357620358467102051e-01 3.767248615622520447e-02 1.765196770429611206e-01
-6.171033978462219238e-01 3.263336420059204102e-02 -1.093261241912841797e-01
-5.821233987808227539e-01 6.048124283552169800e-02 8.343677222728729248e-02
-6.422316431999206543e-01 6.675386428833007812e-02 7.686854898929595947e-02
-6.136382818222045898e-01 6.462085247039794922e-02 -5.687034130096435547e-02
-5.519984960556030273e-01 2.808464691042900085e-02 1.525220721960067749e-01
-6.681199073791503906e-01 6.301099807024002075e-02 -1.125964373350143433e-01
-6.682030558586120605e-01 6.459496915340423584e-02 -8.807893097400665283e-02
-5.774580240249633789e-01 2.558344788849353790e-02 3.786802291870117188e-02
-5.537588596343994141e-01 5.436280369758605957e-02 -7.650980353355407715e-02
-6.194053292274475098e-01 3.837115317583084106e-02 2.235922068357467651e-01
-6.532266736030578613e-01 4.624591395258903503e-02 2.133071273565292358e-01
-5.258290767669677734e-01 3.085425123572349548e-02 -1.189436465501785278e-01
-5.569458603858947754e-01 2.683096937835216522e-02 -1.014581918716430664e-01
-5.138694643974304199e-01 3.128293529152870178e-02 9.324099868535995483e-02
-6.162396073341369629e-01 6.408926844596862793e-02 -8.584635704755783081e-02
-5.870460271835327148e-01 2.724675275385379791e-02 9.545657783746719360e-02
-5.327306389808654785e-01 4.727060347795486450e-02 1.172114238142967224e-01
-6.498686075210571289e-01 6.550106406211853027e-02 1.241127178072929382e-01
-6.316972970962524414e-01 3.648390620946884155e-02 -1.322999298572540283e-01
-5.863590836524963379e-01 2.683535031974315643e-02 7.920327782630920410e-02
-6.472398638725280762e-01 6.657114624977111816e-02 9.058255702257156372e-02
-5.812112092971801758e-01 3.072589635848999023e-02 1.855801790952682495e-01
-6.587917804718017578e-01 4.072815179824829102e-02 -8.410236984491348267e-02
-5.523463487625122070e-01 3.307217359542846680e-02 -1.798888444900512695e-01
-6.783874630928039551e-01 5.935524031519889832e-02 -1.183561533689498901e-01
-6.776332855224609375e-01 6.601601839065551758e-02 -1.457018032670021057e-02
-6.638290882110595703e-01 6.733046472072601318e-02 3.193639218807220459e-02
-6.896724700927734375e-01 5.096648633480072021e-02 7.441464066505432129e-02
-5.324882268905639648e-01 4.824737459421157837e-02 -7.596800476312637329e-02
-5.827989578247070312e-01 2.767823077738285065e-02 1.225753501057624817e-01
-5.834814310073852539e-01 5.807244032621383667e-02 1.574932336807250977e-01
-5.601221919059753418e-01 2.957550995051860809e-02 1.771179437637329102e-01
-5.924652218818664551e-01 6.109637767076492310e-02 -9.342616051435470581e-02
-5.608983635902404785e-01 2.474608086049556732e-02 4.487079754471778870e-02
-6.491633653640747070e-01 6.279462575912475586e-02 -1.378786563873291016e-01
-6.592493057250976562e-01 6.746380031108856201e-02 4.397756420075893402e-03
-6.102102398872375488e-01 6.378237903118133545e-02 -7.675944268703460693e-02
-6.225054264068603516e-01 6.514454632997512817e-02 -6.734027713537216187e-02
-6.809318065643310547e-01 5.087782070040702820e-02 1.437548696994781494e-01
-5.859709382057189941e-01 5.642105638980865479e-02 1.910251230001449585e-01
-5.300107002258300781e-01 2.975560352206230164e-02 1.422394663095474243e-01
-5.691469311714172363e-01 2.585747651755809784e-02 -5.974722653627395630e-02
-5.334311723709106445e-01 4.769358783960342407e-02 -9.480954706668853760e-02
-5.456735491752624512e-01 2.471519075334072113e-02 -2.717833779752254486e-02
-6.294636726379394531e-01 5.637305974960327148e-02 -2.027927488088607788e-01
-6.527909040451049805e-01 3.706213459372520447e-02 2.679141983389854431e-02
-5.378274917602539062e-01 2.474479749798774719e-02 -9.731609374284744263e-03
-5.780574679374694824e-01 2.903593145310878754e-02 1.611944437026977539e-01
-5.485683083534240723e-01 5.345667898654937744e-02 8.395959436893463135e-02
-5.647289156913757324e-01 5.805841833353042603e-02 4.654749296605587006e-03
-6.642313003540039062e-01 6.041208654642105103e-02 -1.456435471773147583e-01
-6.376026272773742676e-01 6.693516671657562256e-02 5.335546284914016724e-02
-6.331461071968078613e-01 3.379860520362854004e-02 -5.896507203578948975e-02
-6.940436363220214844e-01 6.151786819100379944e-02 4.783859103918075562e-02
-6.639255881309509277e-01 5.808635056018829346e-02 -1.603694111108779907e-01
-5.841981172561645508e-01 2.708264254033565521e-02 -6.592509150505065918e-02
-6.776363849639892578e-01 4.532020911574363708e-02 8.159834891557693481e-02
-6.328617930412292480e-01 3.282775357365608215e-02 3.897798806428909302e-02
-5.338550806045532227e-01 3.802315518260002136e-02 1.875127851963043213e-01
-5.081316232681274414e-01 3.803809359669685364e-02 2.137744799256324768e-03
-5.511979460716247559e-01 5.149725079536437988e-02 -1.259146630764007568e-01
-5.612717866897583008e-01 2.461500093340873718e-02 1.502164173871278763e-02
-6.309174299240112305e-01 6.521763652563095093e-02 1.154668778181076050e-01
-6.229459643363952637e-01 4.197630286216735840e-02 2.445043325424194336e-01
-6.035612821578979492e-01 3.030694462358951569e-02 1.364385932683944702e-01
-5.931224822998046875e-01 2.872626855969429016e-02 1.257767826318740845e-01
-6.603950858116149902e-01 4.388007894158363342e-02 -1.279052346944808960e-01
-6.458004117012023926e-01 4.096563160419464111e-02 -1.481321007013320923e-01
-5.153406262397766113e-01 4.174598306417465210e-02 6.817706674337387085e-02
-6.251640915870666504e-01 6.611175090074539185e-02 5.811139941215515137e-02
-5.410199761390686035e-01 5.209716036915779114e-02 5.195573717355728149e-02
-5.491836667060852051e-01 4.706917330622673035e-02 -1.701263040304183960e-01
-5.458049774169921875e-01 5.337712168693542480e-02 -3.364189714193344116e-02
-6.104019284248352051e-01 6.363988667726516724e-02 1.110033541917800903e-01
-6.660572290420532227e-01 4.458803310990333557e-02 -1.104427427053451538e-01
-6.907745003700256348e-01 6.338020414113998413e-02 7.410202175378799438e-03
-6.233890056610107422e-01 6.572077423334121704e-02 7.454846054315567017e-02
-5.903277993202209473e-01 3.178100287914276123e-02 1.909872144460678101e-01
-6.746841073036193848e-01 4.836405813694000244e-02 1.541119217872619629e-01
-5.414439439773559570e-01 5.254748836159706116e-02 1.221029646694660187e-02
-5.119134187698364258e-01 3.992978110909461975e-02 5.821490287780761719e-02
-5.209646224975585938e-01 2.856746874749660492e-02 -7.489671558141708374e-02
-6.312956213951110840e-01 3.809225559234619141e-02 -1.571797877550125122e-01
-6.449200510978698730e-01 3.762578964233398438e-02 1.376698315143585205e-01
-6.612922549247741699e-01 6.732143461704254150e-02 -8.058192208409309387e-03
-6.382394433021545410e-01 6.681187450885772705e-02 -3.198823332786560059e-02
-6.763412952423095703e-01 5.477335676550865173e-02 -1.349955350160598755e-01
-6.305944919586181641e-01 3.260200470685958862e-02 -2.100445143878459930e-02
-5.723220705986022949e-01 5.456096678972244263e-02 -1.558011472225189209e-01
-5.509168505668640137e-01 2.524406462907791138e-02 -5.576481670141220093e-02
-6.083485484123229980e-01 6.009447574615478516e-02 1.835260540246963501e-01
-5.612174272537231445e-01 5.523879081010818481e-02 1.225199028849601746e-01
-6.911881566047668457e-01 5.091431364417076111e-02 6.375524215400218964e-03
-6.458938717842102051e-01 6.378608942031860352e-02 1.588554233312606812e-01
-6.578772664070129395e-01 6.341029703617095947e-02 -1.225965321063995361e-01
-5.342635512351989746e-01 4.407929629087448120e-02 1.638633459806442261e-01
-6.257891058921813965e-01 3.710881620645523071e-02 1.971207112073898315e-01
-6.387843489646911621e-01 6.259038299322128296e-02 -1.428183466196060181e-01
-6.600555777549743652e-01 3.919162601232528687e-02 5.998872965574264526e-02
-6.228300929069519043e-01 3.538011759519577026e-02 -1.428316533565521240e-01
-5.762968063354492188e-01 5.922999978065490723e-02 -6.965669244527816772e-02
-5.113117694854736328e-01 3.985025733709335327e-02 -3.250028938055038452e-02
-6.082165837287902832e-01 6.463210284709930420e-02 -2.038787491619586945e-02
-5.594111680984497070e-01 5.638569965958595276e-02 -4.794830828905105591e-02
-6.210860610008239746e-01 5.447148531675338745e-02 -2.141977697610855103e-01
-6.289927363395690918e-01 6.617298722267150879e-02 -4.088824242353439331e-02
-5.645349025726318359e-01 2.626986615359783173e-02 -8.175897598266601562e-02
-6.286984086036682129e-01 6.498131901025772095e-02 -8.694127947092056274e-02
-5.862108469009399414e-01 5.129361525177955627e-02 2.400759607553482056e-01
-6.201779842376708984e-01 5.895427241921424866e-02 -1.805100440979003906e-01
-6.134698390960693359e-01 5.757269635796546936e-02 -1.899457871913909912e-01
-6.074877977371215820e-01 2.928139641880989075e-02 8.267589658498764038e-02
-6.188631653785705566e-01 6.426362693309783936e-02 1.174298673868179321e-01
-5.175927877426147461e-01 2.848989702761173248e-02 7.762699574232101440e-02
-5.993751287460327148e-01 2.967927046120166779e-02 -9.828367084264755249e-02
-6.831268072128295898e-01 6.524465233087539673e-02 4.787968099117279053e-02
-5.629550218582153320e-01 2.934421226382255554e-02 -1.453733593225479126e-01
-5.449433922767639160e-01 4.052639752626419067e-02 -1.891561448574066162e-01
-5.893674492835998535e-01 6.203856319189071655e-02 -3.459113836288452148e-02
-6.308172941207885742e-01 4.090991243720054626e-02 2.250277698040008545e-01
-6.180976629257202148e-01 6.301318854093551636e-02 -1.176613718271255493e-01
-5.769516229629516602e-01 2.912990748882293701e-02 -1.327846944332122803e-01
-5.897887349128723145e-01 5.857110768556594849e-02 -1.410837173461914062e-01
-5.509200096130371094e-01 2.475585229694843292e-02 5.955573916435241699e-02
-5.694481134414672852e-01 5.818670615553855896e-02 8.348626643419265747e-02
-6.158766746520996094e-01 3.028258495032787323e-02 7.119286805391311646e-02
-6.891191005706787109e-01 5.067478865385055542e-02 -3.066043742001056671e-02
-5.774013996124267578e-01 3.491858392953872681e-02 2.302772700786590576e-01
-5.841789245605468750e-01 3.266414999961853027e-02 2.077570706605911255e-01
-5.730546712875366211e-01 2.791776880621910095e-02 -1.134187579154968262e-01
-5.944105386734008789e-01 4.637367278337478638e-02 -2.344471067190170288e-01
-5.949469208717346191e-01 5.405954271554946899e-02 2.316606044769287109e-01
-6.450758576393127441e-01 3.701424598693847656e-02 1.217082142829895020e-01
-6.088435649871826172e-01 4.826587438583374023e-02 2.654469311237335205e-01
-6.169668436050415039e-01 4.623263329267501831e-02 -2.295621931552886963e-01
-5.928658843040466309e-01 3.658735007047653198e-02 -2.054970562458038330e-01
-6.403893828392028809e-01 3.566392138600349426e-02 -7.210493087768554688e-02
-6.234404444694519043e-01 3.415673971176147461e-02 -1.188128888607025146e-01
-6.510725617408752441e-01 6.689743697643280029e-02 -4.362752288579940796e-02
-6.196580529212951660e-01 4.074008762836456299e-02 -2.055875957012176514e-01
-6.132263541221618652e-01 6.162562966346740723e-02 -1.367987245321273804e-01
-6.351760029792785645e-01 3.384744748473167419e-02 -4.352186620235443115e-02
-6.544161438941955566e-01 3.909860551357269287e-02 -7.389585673809051514e-02
-6.568832397460937500e-01 4.825943708419799805e-02 -1.744088828563690186e-01
-5.935511589050292969e-01 2.711205556988716125e-02 4.747098684310913086e-02
-6.899651288986206055e-01 5.642048269510269165e-02 -7.285393774509429932e-02
-5.694920420646667480e-01 2.536603435873985291e-02 -3.375807404518127441e-02
-5.941649079322814941e-01 3.141346573829650879e-02 -1.464631408452987671e-01
-5.153148174285888672e-01 4.204341024160385132e-02 -4.330398142337799072e-02
-5.765424370765686035e-01 2.544659562408924103e-02 1.802707463502883911e-02
-5.994355082511901855e-01 6.288824975490570068e-02 -6.330059468746185303e-02
-5.239351391792297363e-01 2.683872915804386139e-02 -4.990026354789733887e-02
-6.575845479965209961e-01 5.821376293897628784e-02 2.083435356616973877e-01
-6.816774606704711914e-01 5.735253915190696716e-02 1.562762558460235596e-01
-5.185127258300781250e-01 4.261706769466400146e-02 8.644818514585494995e-02
-6.913461685180664062e-01 5.971181020140647888e-02 -5.571466684341430664e-02
-5.889811515808105469e-01 6.229893863201141357e-02 2.080461755394935608e-02
-5.403942465782165527e-01 2.723920717835426331e-02 -1.013387218117713928e-01
-6.861576437950134277e-01 6.333139538764953613e-02 -4.541804641485214233e-02
-6.043542623519897461e-01 2.930344268679618835e-02 1.019856780767440796e-01
-6.777645945549011230e-01 6.628026068210601807e-02 1.630002260208129883e-02
-6.761983633041381836e-01 4.528776928782463074e-02 -5.253183096647262573e-02
-6.114922165870666504e-01 6.513635069131851196e-02 2.562389895319938660e-02
-5.701091289520263672e-01 3.708048164844512939e-02 2.405178546905517578e-01
-6.010653972625732422e-01 2.797891572117805481e-02 -1.260940171778202057e-02
1.680559068918228149e-01 -5.510088056325912476e-03 -5.810930952429771423e-02
1.842465698719024658e-01 -5.065476894378662109e-02 -2.480139434337615967e-01
1.182018220424652100e-01 -8.944196999073028564e-02 9.035860002040863037e-02
5.234680324792861938e-02 -9.678336232900619507e-02 -1.092638373374938965e-01
3.926205635070800781e-02 -4.787721484899520874e-02 3.549294546246528625e-03
9.855985641479492188e-02 -6.525466591119766235e-02 2.323115020990371704e-01
2.060592174530029297e-01 -5.357097834348678589e-03 7.395131886005401611e-02
1.937460005283355713e-01 -6.907752156257629395e-02 2.812157943844795227e-02
1.670441776514053345e-02 -7.801546156406402588e-02 2.303415164351463318e-02
2.260021865367889404e-01 -6.493642926216125488e-03 7.305521517992019653e-03
2.226206213235855103e-01 -4.633519053459167480e-02 9.140565991401672363e-02
2.551932632923126221e-02 -8.906041085720062256e-02 4.055956378579139709e-02
1.321142613887786865e-01 -2.241270244121551514e-02 1.893556267023086548e-01
6.792591512203216553e-02 -4.306213185191154480e-02 1.633388698101043701e-01
1.027458831667900085e-01 -9.673401713371276855e-02 -6.111161783337593079e-03
1.913871318101882935e-01 -2.927854657173156738e-03 2.353507652878761292e-02
9.875771403312683105e-02 -5.013832449913024902e-02 -2.618042230606079102e-01
8.939497172832489014e-02 -2.317220717668533325e-02 -1.269230339676141739e-02
1.302641928195953369e-01 -1.157556846737861633e-02 -4.217842221260070801e-02
1.839822828769683838e-01 -7.378525286912918091e-02 1.827766001224517822e-02
4.641510546207427979e-02 -7.731226831674575806e-02 -1.968626677989959717e-01
1.328010857105255127e-01 -1.239125803112983704e-02 9.037695825099945068e-02
1.645427495241165161e-01 -3.024581074714660645e-02 -2.495574057102203369e-01
1.527112424373626709e-01 -6.653223186731338501e-03 -2.160649560391902924e-02
7.417670637369155884e-02 -9.173934161663055420e-02 -1.798678785562515259e-01
1.387934833765029907e-01 -8.424135297536849976e-02 -1.728997528553009033e-01
1.499482691287994385e-01 -3.605496510863304138e-02 2.426694929599761963e-01
8.076684921979904175e-02 -5.959263071417808533e-02 2.252315580844879150e-01
1.180153042078018188e-01 -9.433718025684356689e-02 -6.390434503555297852e-02
4.836784303188323975e-02 -9.007495641708374023e-02 1.066775768995285034e-01
1.437739431858062744e-01 -1.567259058356285095e-02 1.579130738973617554e-01
1.662499904632568359e-01 -2.331322617828845978e-02 -2.238744646310806274e-01
2.243631333112716675e-02 -6.698489934206008911e-02 -7.703478634357452393e-02
1.244578361511230469e-01 -9.304332733154296875e-02 -1.898549683392047882e-02
1.563303768634796143e-01 -9.981129318475723267e-03 1.195792555809020996e-01
1.308767050504684448e-01 -1.611492782831192017e-02 -1.289111226797103882e-01
1.509242206811904907e-01 -1.408019661903381348e-02 -1.500198692083358765e-01
6.197926402091979980e-02 -4.103706032037734985e-02 -1.274335384368896484e-01
1.734886169433593750e-01 -1.191198080778121948e-02 1.541684418916702271e-01
7.945537567138671875e-02 -2.691309526562690735e-02 9.650172665715217590e-03
1.257061809301376343e-01 -1.204860582947731018e-02 -7.698900997638702393e-03
1.051779091358184814e-01 -2.937022224068641663e-02 -1.847934722900390625e-01
1.272805482149124146e-01 -4.456420987844467163e-02 2.497634589672088623e-01
1.269234120845794678e-01 -9.264671057462692261e-02 -4.047089070081710815e-02
1.864495426416397095e-01 -7.340033352375030518e-02 -3.890501335263252258e-03
2.388996183872222900e-01 -3.424287214875221252e-02 -9.786698222160339355e-02
2.657577395439147949e-02 -9.242537617683410645e-02 -4.944493621587753296e-02
1.269324421882629395e-01 -2.052108570933341980e-02 1.683297157287597656e-01
7.445906102657318115e-02 -5.331758037209510803e-02 -2.311970889568328857e-01
1.020701155066490173e-01 -2.759969420731067657e-02 -1.626053899526596069e-01
1.164906248450279236e-01 -5.177407339215278625e-02 -2.795233726501464844e-01
8.394093811511993408e-02 -2.598930336534976959e-02 5.755067989230155945e-02
1.037098169326782227e-01 -1.887198910117149353e-02 5.486388877034187317e-02
1.172520071268081665e-01 -1.919010654091835022e-02 -1.239556670188903809e-01
2.144102603197097778e-01 -2.860235795378684998e-02 -1.983132660388946533e-01
2.034195214509963989e-01 -6.497623026371002197e-02 1.165273971855640411e-02
1.505962014198303223e-01 -8.652552962303161621e-02 -2.929402887821197510e-02
5.722471326589584351e-02 -5.184448137879371643e-02 1.683115512132644653e-01
2.135161459445953369e-01 -4.617195576429367065e-02 1.341722458600997925e-01
2.120423018932342529e-01 -2.481990866363048553e-02 1.688149422407150269e-01
4.897130280733108521e-02 -4.325941205024719238e-02 -6.111829355359077454e-02
8.318565785884857178e-02 -7.256788760423660278e-02 2.111440151929855347e-01
1.172524467110633850e-01 -8.357440680265426636e-02 1.484005600214004517e-01
1.854975968599319458e-01 -3.338407725095748901e-03 3.795360773801803589e-02
5.715852975845336914e-02 -3.717901930212974548e-02 7.779374718666076660e-04
2.031707018613815308e-01 -6.595221906900405884e-02 -3.892758116126060486e-02
2.253237813711166382e-01 -4.032106325030326843e-02 -1.587290018796920776e-01
2.216562628746032715e-01 -1.609740406274795532e-02 1.252483725547790527e-01
1.411625742912292480e-01 -2.949510887265205383e-02 2.276508063077926636e-01
1.927263885736465454e-01 -6.962674856185913086e-02 -1.010623872280120850e-01
1.942363679409027100e-01 -7.030330598354339600e-02 -2.933194860816001892e-02
5.302745848894119263e-02 -9.459918737411499023e-02 -1.365927010774612427e-01
7.882186025381088257e-02 -9.733596444129943848e-02 -1.178277730941772461e-01
2.360585629940032959e-01 -4.266083613038063049e-02 1.543592661619186401e-04
1.972458362579345703e-01 -5.470968410372734070e-02 1.498872786760330200e-01
9.155416488647460938e-02 -3.867980092763900757e-02 -2.100427001714706421e-01
1.796219795942306519e-01 -7.655125856399536133e-02 -5.243361741304397583e-02
6.645622104406356812e-02 -7.466974854469299316e-02 1.932440698146820068e-01
6.881022453308105469e-02 -3.473547846078872681e-02 9.800386428833007812e-02
1.863557100296020508e-01 -4.755571484565734863e-03 7.668492197990417480e-02
1.372754722833633423e-01 -8.864493668079376221e-02 -1.135270595550537109e-01
5.553298443555831909e-02 -3.816389292478561401e-02 2.045707032084465027e-02
1.017793118953704834e-01 -4.391476511955261230e-02 -2.494931817054748535e-01
1.476483196020126343e-01 -9.673442691564559937e-03 -8.438049256801605225e-02
1.953221410512924194e-01 -4.449468106031417847e-03 -6.801764667034149170e-02
1.723752915859222412e-01 -7.870887219905853271e-02 6.913114339113235474e-03
2.018966674804687500e-01 -4.365908354520797729e-02 1.783434152603149414e-01
1.842227429151535034e-01 -4.128355532884597778e-03 -5.567734315991401672e-02
1.728934645652770996e-01 -6.529503315687179565e-02 1.609137356281280518e-01
2.446191608905792236e-01 -2.978526242077350616e-02 1.385973766446113586e-03
1.877727061510086060e-01 -3.039933741092681885e-03 -1.997343264520168304e-02
1.691985726356506348e-01 -5.960943177342414856e-02 1.966911703348159790e-01
3.911449760198593140e-02 -5.224120244383811951e-02 -9.507790207862854004e-02
2.063656449317932129e-01 -4.545677453279495239e-03 5.872254446148872375e-02
1.714213043451309204e-01 -2.064299769699573517e-02 2.021324187517166138e-01
1.009793207049369812e-01 -9.532375633716583252e-02 4.252817854285240173e-02
2.297028005123138428e-01 -2.726291492581367493e-02 -1.539939343929290771e-01
1.107660010457038879e-01 -9.545134752988815308e-02 -7.546158134937286377e-02
8.659247308969497681e-02 -9.880895912647247314e-02 -5.968002974987030029e-02
5.089851468801498413e-02 -4.484490305185317993e-02 -1.011975407600402832e-01
9.187505394220352173e-02 -9.691837430000305176e-02 3.179958090186119080e-02
1.378621309995651245e-01 -7.077671587467193604e-02 1.973900794982910156e-01
8.700027316808700562e-02 -9.890724718570709229e-02 -3.672236204147338867e-02
1.049059480428695679e-01 -1.807380840182304382e-02 3.712686896324157715e-02
1.734026521444320679e-01 -7.859535515308380127e-02 -7.584451138973236084e-02
1.468992531299591064e-01 -8.332931995391845703e-02 8.052118122577667236e-02
5.946273356676101685e-02 -9.547210484743118286e-02 7.138478755950927734e-02
6.554305553436279297e-02 -8.674702048301696777e-02 -2.030841261148452759e-01
1.298179775476455688e-01 -1.532497256994247437e-02 -1.155745983123779297e-01
1.031332537531852722e-01 -1.837026327848434448e-02 1.556713134050369263e-03
5.419681221246719360e-02 -4.373361170291900635e-02 1.086712926626205444e-01
2.176653742790222168e-01 -5.092128366231918335e-02 -1.465682685375213623e-01
2.261611074209213257e-01 -1.536683738231658936e-02 1.087263971567153931e-01
3.251702338457107544e-02 -9.481827914714813232e-02 6.191097199916839600e-04
2.226372063159942627e-01 -5.407477915287017822e-02 -8.120002225041389465e-03
1.208691373467445374e-01 -9.195309877395629883e-02 4.236846417188644409e-02
1.400990635156631470e-01 -1.158308610320091248e-02 1.032932400703430176e-01
1.220136210322380066e-01 -1.428023353219032288e-02 7.487608492374420166e-02
1.001105383038520813e-01 -2.077636495232582092e-02 7.494840025901794434e-02
1.550611704587936401e-01 -8.378925919532775879e-02 -1.096731424331665039e-01
5.747526139020919800e-02 -7.707749307155609131e-02 1.764943748712539673e-01
1.406911313533782959e-01 -9.704183787107467651e-03 6.742437183856964111e-02
2.639682590961456299e-02 -6.909280270338058472e-02 9.340386092662811279e-02
1.094577163457870483e-01 -1.648333296179771423e-02 2.256245166063308716e-02
1.356550753116607666e-01 -1.077819243073463440e-02 -5.543303862214088440e-02
1.500076055526733398e-01 -8.672826737165451050e-02 -4.683212190866470337e-02
1.883809268474578857e-01 -6.304301321506500244e-03 -9.899818897247314453e-02
1.761197745800018311e-01 -7.036027312278747559e-02 1.134135574102401733e-01
1.589869260787963867e-01 -6.988968700170516968e-02 1.662940084934234619e-01
9.596149623394012451e-02 -3.117577917873859406e-02 -1.739048063755035400e-01
1.013555377721786499e-01 -3.941274806857109070e-02 2.214200496673583984e-01
1.193382292985916138e-01 -1.626697182655334473e-02 1.002328991889953613e-01
1.852479726076126099e-01 -3.851175308227539062e-03 5.529911443591117859e-02
2.256894409656524658e-01 -4.516536742448806763e-02 -1.363729983568191528e-01
3.231120109558105469e-02 -6.230243295431137085e-02 -1.238141953945159912e-01
6.277999281883239746e-02 -8.673785626888275146e-02 1.443717330694198608e-01
2.240002751350402832e-01 -1.521676033735275269e-02 -1.340596377849578857e-01
2.361829876899719238e-01 -1.363221928477287292e-02 -7.350797206163406372e-02
2.208614647388458252e-01 -4.518543556332588196e-02 1.074612885713577271e-01
3.661106526851654053e-02 -9.501869976520538330e-02 2.516766265034675598e-02
1.389541327953338623e-01 -8.947032690048217773e-02 -8.561220951378345490e-03
2.072302252054214478e-02 -6.490281224250793457e-02 -2.186068892478942871e-02
1.563371121883392334e-01 -7.008484750986099243e-02 -2.349866479635238647e-01
8.943207561969757080e-02 -2.324792928993701935e-02 3.123927861452102661e-02
1.136416494846343994e-01 -1.522981002926826477e-02 -4.130784422159194946e-03
2.043402493000030518e-01 -6.287372857332229614e-02 -1.152242124080657959e-01
1.737442910671234131e-01 -5.308184772729873657e-03 7.484515011310577393e-02
1.629721522331237793e-01 -5.671337246894836426e-03 -4.477054625749588013e-02
1.357539743185043335e-01 -1.948339119553565979e-02 -1.731026321649551392e-01
2.164178639650344849e-01 -5.845516920089721680e-02 -3.402177989482879639e-02
1.176693215966224670e-01 -9.082546830177307129e-02 7.292251288890838623e-02
1.103219315409660339e-01 -9.588195383548736572e-02 -4.276795685291290283e-02
1.620219647884368896e-01 -8.299440145492553711e-02 -3.806557506322860718e-02
1.600742638111114502e-01 -8.121584355831146240e-02 5.003245547413825989e-02
1.272399872541427612e-01 -7.907805591821670532e-02 1.658818125724792480e-01
3.661797940731048584e-02 -6.057799234986305237e-02 1.217131167650222778e-01
1.351433396339416504e-01 -9.071005880832672119e-02 -4.971122741699218750e-02
4.188888520002365112e-02 -4.691290855407714844e-02 -4.345516115427017212e-02
1.722702383995056152e-02 -7.059592753648757935e-02 -1.131052523851394653e-02
1.834987103939056396e-01 -7.301779091358184814e-02 4.033798351883888245e-02
6.202439963817596436e-02 -9.961482882499694824e-02 -1.591770909726619720e-02
7.958632707595825195e-02 -4.730040952563285828e-02 2.083564698696136475e-01
7.667561620473861694e-02 -3.195934370160102844e-02 1.098131090402603149e-01
2.431689202785491943e-01 -3.163070976734161377e-02 -6.148293986916542053e-02
3.910440951585769653e-02 -9.173876047134399414e-02 -1.285154968500137329e-01
4.296913743019104004e-02 -4.560764878988265991e-02 -2.244438230991363525e-02
1.786791086196899414e-01 -5.976233631372451782e-03 -8.752517402172088623e-02
4.608555138111114502e-02 -4.918043687939643860e-02 -1.138904690742492676e-01
4.871762543916702271e-02 -4.479799047112464905e-02 -8.386401832103729248e-02
7.905425131320953369e-02 -6.008813530206680298e-02 -2.522716820240020752e-01
1.593855768442153931e-01 -7.897882908582687378e-02 8.704006671905517578e-02
2.068664133548736572e-01 -4.087035730481147766e-02 -2.168461531400680542e-01
4.570155590772628784e-02 -9.835559874773025513e-02 -2.852745354175567627e-02
1.407779157161712646e-01 -9.123936295509338379e-03 -3.588893264532089233e-02
1.075467765331268311e-01 -6.617180258035659790e-02 -2.763834595680236816e-01
3.159511089324951172e-02 -9.494940191507339478e-02 -2.684003487229347229e-02
1.473650336265563965e-01 -2.140741236507892609e-02 1.992526054382324219e-01
2.017413973808288574e-01 -5.425667017698287964e-02 1.370162963867187500e-01
1.399162262678146362e-01 -6.113653257489204407e-02 2.298759520053863525e-01
1.429146826267242432e-01 -8.837541937828063965e-02 -7.608871906995773315e-02
1.900239884853363037e-01 -6.977022439241409302e-02 -1.218024790287017822e-01
9.499692916870117188e-02 -9.742999076843261719e-02 7.466765120625495911e-03
7.691408693790435791e-02 -8.786281943321228027e-02 1.440369933843612671e-01
1.438387036323547363e-01 -6.417453289031982422e-02 2.168985605239868164e-01
4.967319220304489136e-02 -9.813461452722549438e-02 -7.598283141851425171e-02
1.634253710508346558e-01 -5.333803594112396240e-03 4.515451565384864807e-02
1.118007004261016846e-01 -1.696438714861869812e-02 -5.885052680969238281e-02
2.199231386184692383e-01 -4.205765575170516968e-02 -1.760127544403076172e-01
1.960787326097488403e-01 -2.785373479127883911e-03 -4.235657863318920135e-03
1.327522844076156616e-01 -6.785002350807189941e-02 -2.694355249404907227e-01
1.191223561763763428e-01 -7.495445013046264648e-02 -2.562488913536071777e-01
1.392729431390762329e-01 -8.742199838161468506e-02 4.809473082423210144e-02
2.578038722276687622e-02 -6.485627591609954834e-02 7.512712478637695312e-02
3.894312679767608643e-02 -9.404496103525161743e-02 -1.065923720598220825e-01
7.498024404048919678e-02 -9.935126453638076782e-02 -5.849068053066730499e-03
1.587758213281631470e-02 -7.882270216941833496e-02 5.291573703289031982e-03
1.216806471347808838e-01 -8.731326460838317871e-02 -1.814783066511154175e-01
1.746784150600433350e-01 -4.645168781280517578e-02 2.234660387039184570e-01
1.908187717199325562e-01 -1.961561664938926697e-02 -2.027340084314346313e-01
2.666391432285308838e-02 -7.554524391889572144e-02 -1.305752694606781006e-01
7.601116597652435303e-02 -4.593840241432189941e-02 -2.082987576723098755e-01
8.448784798383712769e-02 -8.541765809059143066e-02 -2.202385216951370239e-01
5.572707206010818481e-02 -3.806174546480178833e-02 -1.627059094607830048e-02
1.292731165885925293e-01 -9.161114692687988281e-02 -8.306999504566192627e-02
1.565946489572525024e-01 -9.136188775300979614e-03 -1.002451479434967041e-01
2.622017264366149902e-02 -6.708332896232604980e-02 -1.085098534822463989e-01
1.549635678529739380e-01 -7.636503875255584717e-02 1.291383057832717896e-01
6.462323665618896484e-02 -4.244322329759597778e-02 1.480092257261276245e-01
1.482321470975875854e-01 -3.078419342637062073e-02 -2.480862736701965332e-01
1.575226038694381714e-01 -8.364415913820266724e-02 -9.274989366531372070e-02
1.868315190076828003e-01 -7.017563283443450928e-02 6.375680863857269287e-02
4.349683225154876709e-02 -9.768262505531311035e-02 -4.539641551673412323e-03
2.453827112913131714e-02 -6.219201534986495972e-02 -5.822520703077316284e-02
1.740644127130508423e-01 -8.545946329832077026e-03 -1.196188330650329590e-01
2.078981399536132812e-01 -9.469307959079742432e-03 -1.239042282104492188e-01
1.471569240093231201e-01 -1.963846385478973389e-02 -1.908317804336547852e-01
1.972930729389190674e-01 -5.994050949811935425e-02 -1.813010871410369873e-01
2.008463740348815918e-01 -6.412328779697418213e-02 5.430128797888755798e-02
1.511387377977371216e-01 -7.735319435596466064e-03 -5.395463854074478149e-02
1.055273711681365967e-01 -7.967936247587203979e-02 1.838543713092803955e-01
1.640225648880004883e-01 -5.098477005958557129e-03 -2.678919024765491486e-02
2.005803585052490234e-02 -8.505035936832427979e-02 -7.259189337491989136e-02
9.020652621984481812e-02 -2.754242531955242157e-02 1.246699690818786621e-01
1.308101713657379150e-01 -5.679649114608764648e-02 2.441937923431396484e-01
6.701368838548660278e-02 -9.797142446041107178e-02 -1.079830676317214966e-01
2.206443548202514648e-01 -5.565583705902099609e-02 -2.116541936993598938e-02
1.735456287860870361e-01 -6.893299520015716553e-02 1.343795210123062134e-01
1.299013346433639526e-01 -2.998480945825576782e-02 2.221257090568542480e-01
1.104610115289688110e-01 -9.458816051483154297e-02 -1.056708544492721558e-01
3.418672829866409302e-02 -5.572091042995452881e-02 7.999408245086669922e-02
1.455319821834564209e-01 -7.847580313682556152e-02 -2.067972868680953979e-01
6.492345035076141357e-02 -3.605280816555023193e-02 -8.534221351146697998e-02
6.225697696208953857e-02 -4.319885745644569397e-02 -1.473455578088760376e-01
5.117566883563995361e-02 -9.371918439865112305e-02 8.083026111125946045e-02
1.620565503835678101e-01 -1.716825366020202637e-02 1.848496645689010620e-01
2.303789556026458740e-01 -4.752181842923164368e-02 1.040048338472843170e-02
1.750729382038116455e-01 -6.925502419471740723e-02 -1.956976056098937988e-01
9.454412758350372314e-02 -8.378855139017105103e-02 -2.285113483667373657e-01
1.944392323493957520e-01 -7.017942517995834351e-02 -5.060725286602973938e-02
6.191393733024597168e-02 -9.146732836961746216e-02 1.122452020645141602e-01
1.658334583044052124e-01 -7.436279952526092529e-02 -1.853836476802825928e-01
1.576827615499496460e-01 -8.059409260749816895e-02 7.279850542545318604e-02
2.042839527130126953e-01 -3.445614129304885864e-03 -3.213592618703842163e-02
8.946007490158081055e-02 -3.728921711444854736e-02 -1.974462121725082397e-01
1.079977974295616150e-01 -1.897725462913513184e-02 -7.884894311428070068e-02
6.794553995132446289e-02 -7.435375452041625977e-02 -2.381555438041687012e-01
4.781454056501388550e-02 -4.408525675535202026e-02 6.316441297531127930e-02
2.442322671413421631e-01 -1.813437417149543762e-02 -8.509613573551177979e-03
2.225872129201889038e-02 -6.509714573621749878e-02 4.145175963640213013e-02
2.806839346885681152e-02 -5.670600757002830505e-02 -8.061787113547325134e-03
1.892239451408386230e-01 -6.921657919883728027e-02 -1.352773010730743408e-01
2.059594392776489258e-01 -1.026607304811477661e-02 1.254792660474777222e-01
9.121264517307281494e-02 -2.884200215339660645e-02 -1.372981071472167969e-01
1.539533734321594238e-01 -8.015058934688568115e-03 -7.236460596323013306e-02
1.777655482292175293e-01 -5.856509506702423096e-02 -2.406222820281982422e-01
1.115733310580253601e-01 -1.999129354953765869e-02 1.220936328172683716e-01
1.795765459537506104e-01 -5.250220745801925659e-02 2.020567059516906738e-01
1.312966197729110718e-01 -7.999969273805618286e-02 1.531780213117599487e-01
9.852162003517150879e-02 -9.057141840457916260e-02 1.118784993886947632e-01
1.389961987733840942e-01 -9.108372032642364502e-03 -1.520560123026371002e-02
2.115429192781448364e-02 -8.019722998142242432e-02 -9.727476537227630615e-02
7.667563855648040771e-02 -4.069638997316360474e-02 -1.824861019849777222e-01
1.625320166349411011e-01 -7.346911728382110596e-02 -2.019816786050796509e-01
2.074052095413208008e-01 -6.348654627799987793e-02 -1.192773133516311646e-02
2.036417424678802490e-01 -1.383752375841140747e-02 -1.619133502244949341e-01
2.338574230670928955e-01 -1.328714936971664429e-02 6.443636119365692139e-02
6.608967483043670654e-02 -5.935954675078392029e-02 2.042420357465744019e-01
1.475644409656524658e-01 -7.954254001379013062e-02 -1.939153522253036499e-01
9.121678769588470459e-02 -2.335322834551334381e-02 -5.010817945003509521e-02
4.935919493436813354e-02 -5.641478672623634338e-02 1.581656485795974731e-01
1.782491207122802734e-01 -3.080477938055992126e-02 -2.470890879631042480e-01
8.151029050350189209e-02 -2.837393991649150848e-02 -8.005286753177642822e-02
2.608609944581985474e-02 -6.231102347373962402e-02 6.207193806767463684e-02
5.409763008356094360e-02 -9.787077456712722778e-02 2.781248092651367188e-02
7.880390435457229614e-02 -9.293849766254425049e-02 1.028729677200317383e-01
1.014709025621414185e-01 -2.631735056638717651e-02 -1.489912718534469604e-01
7.239779829978942871e-02 -3.372006490826606750e-02 -1.026590615510940552e-01
3.187732398509979248e-02 -8.448886126279830933e-02 -1.414012014865875244e-01
2.145880907773971558e-01 -5.948221310973167419e-02 -4.989686235785484314e-02
7.989913970232009888e-02 -2.694443427026271820e-02 -2.102511003613471985e-02
6.044562906026840210e-02 -4.935261607170104980e-02 -1.794401407241821289e-01
4.498948901891708374e-02 -4.433340951800346375e-02 2.277288585901260376e-02
3.916211426258087158e-02 -8.959878981113433838e-02 9.073872864246368408e-02
9.676545858383178711e-02 -8.883975446224212646e-02 1.295387297868728638e-01
2.132889926433563232e-01 -4.907071590423583984e-03 -5.136695876717567444e-02
2.215547561645507812e-01 -5.075941607356071472e-02 -1.230945438146591187e-01
1.142812818288803101e-01 -7.555437088012695312e-02 1.982895135879516602e-01
1.128160804510116577e-01 -8.873471617698669434e-02 1.096327751874923706e-01
1.316862255334854126e-01 -9.144037961959838867e-02 -6.178000196814537048e-02
6.221832334995269775e-02 -6.167737767100334167e-02 -2.245606482028961182e-01
4.367608577013015747e-02 -4.882990941405296326e-02 8.877022564411163330e-02
7.744105160236358643e-02 -4.160813614726066589e-02 1.837368756532669067e-01
2.336517572402954102e-01 -4.554510116577148438e-02 -3.548002988100051880e-02
5.005180835723876953e-02 -9.608007967472076416e-02 5.102536454796791077e-02
1.841072440147399902e-01 -6.915178894996643066e-02 9.146973490715026855e-02
7.839266955852508545e-02 -9.481169283390045166e-02 8.238820731639862061e-02
1.386251002550125122e-01 -1.562566682696342468e-02 -1.426617056131362915e-01
8.885937929153442383e-02 -8.243757486343383789e-02 1.754686683416366577e-01
2.270228862762451172e-01 -1.161300763487815857e-02 -9.959195554256439209e-02
8.804568648338317871e-02 -9.509704262018203735e-02 -1.442437916994094849e-01
8.965522795915603638e-02 -7.754527777433395386e-02 1.973166316747665405e-01
2.303272485733032227e-01 -4.196093231439590454e-02 -1.250211000442504883e-01
1.655212938785552979e-01 -7.329825311899185181e-03 9.789098799228668213e-02
1.461451351642608643e-01 -4.793117567896842957e-02 -2.819742560386657715e-01
1.131663322448730469e-01 -1.738892868161201477e-02 8.939762413501739502e-02
1.950866430997848511e-01 -7.402531802654266357e-03 1.117117702960968018e-01
1.874192059040069580e-01 -5.062578245997428894e-02 1.921199858188629150e-01
1.087312772870063782e-01 -1.677983999252319336e-02 -1.586672291159629822e-02
9.486194700002670288e-02 -7.070714235305786133e-02 -2.662203609943389893e-01
2.362870573997497559e-01 -1.134702190756797791e-02 -4.140102863311767578e-02
1.601751148700714111e-01 -1.070833578705787659e-02 1.336643695831298828e-01
2.146772146224975586e-01 -5.830661952495574951e-02 1.971217989921569824e-02
2.084006816148757935e-01 -5.919717624783515930e-02 -1.315382719039916992e-01
1.850204467773437500e-01 -5.985981971025466919e-02 1.592773795127868652e-01
2.002940475940704346e-01 -1.909197866916656494e-02 -1.929496228694915771e-01
6.668534874916076660e-02 -9.795708954334259033e-02 3.767694532871246338e-02
1.638508439064025879e-01 -1.344950869679450989e-02 -1.603663116693496704e-01
2.264519631862640381e-01 -1.278453320264816284e-02 9.402497112751007080e-02
5.990613251924514771e-02 -3.640471771359443665e-02 4.450316727161407471e-02
1.275513768196105957e-01 -8.676307648420333862e-02 9.934137761592864990e-02
2.284519672393798828e-01 -4.628726840019226074e-02 5.101516470313072205e-02
1.222294494509696960e-01 -1.868810504674911499e-02 1.414481550455093384e-01
2.345776855945587158e-01 -4.268464446067810059e-02 -8.125080168247222900e-02
8.611259609460830688e-02 -2.596256136894226074e-02 -6.803174316883087158e-02
4.921309649944305420e-02 -9.871973097324371338e-02 -1.595856808125972748e-02
1.785182356834411621e-01 -9.620524942874908447e-03 -1.349889338016510010e-01
1.518906950950622559e-01 -6.594173610210418701e-03 1.680718734860420227e-02
1.155752614140510559e-01 -8.100430667400360107e-02 -2.330538630485534668e-01
1.797558069229125977e-01 -5.953161418437957764e-02 1.746797114610671997e-01
1.259422898292541504e-01 -1.375081390142440796e-02 -7.310138642787933350e-02
3.158262372016906738e-02 -6.844738870859146118e-02 -1.429062336683273315e-01
1.964675933122634888e-01 -6.197125092148780823e-02 1.037967205047607422e-01
8.772221207618713379e-02 -7.997395843267440796e-02 -2.425357550382614136e-01
2.369548380374908447e-01 -4.224718734622001648e-02 -2.113957144320011139e-02
7.655338943004608154e-02 -9.956968575716018677e-02 -2.669691666960716248e-02
1.948890388011932373e-01 -1.039055362343788147e-02 1.382879465818405151e-01
4.288217425346374512e-02 -5.644324421882629395e-02 -1.475919634103775024e-01
1.534138321876525879e-01 -6.491504609584808350e-03 3.101914748549461365e-02
1.388836950063705444e-01 -1.689596101641654968e-02 -1.560023725032806396e-01
1.291457563638687134e-01 -2.490870095789432526e-02 -2.015735656023025513e-01
7.432066649198532104e-02 -3.681593760848045349e-02 -1.455674469470977783e-01
1.096632033586502075e-01 -9.061293303966522217e-02 -1.691136211156845093e-01
2.075782120227813721e-01 -5.861113592982292175e-02 7.665541768074035645e-02
1.639062911272048950e-01 -2.000814676284790039e-02 -2.064031362533569336e-01
1.267341226339340210e-01 -7.718509435653686523e-02 1.781401634216308594e-01
6.507380306720733643e-02 -9.974411875009536743e-02 -5.003477260470390320e-02
1.918503940105438232e-01 -2.442958392202854156e-02 2.000776380300521851e-01
1.733269095420837402e-01 -7.304024696350097656e-02 9.778386354446411133e-02
2.052575945854187012e-01 -5.256121978163719177e-02 -1.916440576314926147e-01
1.505951583385467529e-01 -1.633776724338531494e-02 -1.699905246496200562e-01
7.574945688247680664e-02 -9.593980014324188232e-02 -1.396140158176422119e-01
1.555927395820617676e-01 -1.144592091441154480e-02 -1.293967813253402710e-01
1.492576152086257935e-01 -3.599663451313972473e-02 -2.641001939773559570e-01
1.750332117080688477e-01 -7.358888536691665649e-02 -1.577809303998947144e-01
1.664413511753082275e-01 -6.505506485700607300e-02 1.774155199527740479e-01
9.746818244457244873e-02 -9.776256233453750610e-02 -4.824215546250343323e-02
1.622346937656402588e-01 -8.186355978250503540e-02 1.953761652112007141e-02
1.301773488521575928e-01 -8.732642978429794312e-02 -1.618824154138565063e-01
8.585153520107269287e-02 -2.598440274596214294e-02 7.595926523208618164e-02
1.351375579833984375e-01 -8.188036829233169556e-02 1.305977255105972290e-01
1.639572679996490479e-01 -1.542003080248832703e-02 -1.764621883630752563e-01
1.712582409381866455e-01 -3.975711762905120850e-03 9.961742907762527466e-04
2.425114512443542480e-01 -2.407198771834373474e-02 -8.141000568866729736e-02
1.827488094568252563e-01 -7.507576048374176025e-02 -6.795102357864379883e-02
6.680170446634292603e-02 -9.351342916488647461e-02 -1.620357483625411987e-01
8.916852623224258423e-02 -9.843106567859649658e-02 -8.738383650779724121e-03
1.025636941194534302e-01 -1.917256787419319153e-02 -3.975753486156463623e-02
1.869855225086212158e-01 -1.186713948845863342e-02 1.531449854373931885e-01
1.313149034976959229e-01 -1.113316416740417480e-02 4.807364568114280701e-02
7.201415300369262695e-02 -3.007480688393115997e-02 -3.311285749077796936e-03
5.823573470115661621e-02 -9.918627142906188965e-02 -1.215830445289611816e-03
1.457181870937347412e-01 -6.429855525493621826e-02 -2.684465944766998291e-01
2.049880027770996094e-01 -7.490128278732299805e-03 1.026953309774398804e-01
1.025264710187911987e-01 -3.307374566793441772e-02 1.990964561700820923e-01
1.324662715196609497e-01 -9.086741507053375244e-02 1.326240599155426025e-03
1.583781838417053223e-01 -7.724785059690475464e-02 1.103048026561737061e-01
2.344528734683990479e-01 -1.882950589060783386e-02 -1.153626739978790283e-01
1.051773056387901306e-01 -9.658861160278320312e-02 -1.982537843286991119e-02
8.740779757499694824e-02 -5.132000893354415894e-02 -2.490135431289672852e-01
2.232600450515747070e-01 -5.217744037508964539e-02 2.781866118311882019e-02
1.563583165407180786e-01 -6.888363510370254517e-03 6.481646001338958740e-02
2.420026808977127075e-02 -8.438205718994140625e-02 6.495934724807739258e-02
2.259199917316436768e-01 -4.885581135749816895e-02 -1.059770733118057251e-01
1.032172366976737976e-01 -3.202925622463226318e-02 -1.980570256710052490e-01
1.825193464756011963e-01 -2.647447027266025543e-02 -2.331278771162033081e-01
8.628219366073608398e-02 -8.506561815738677979e-02 1.612866520881652832e-01
7.899487763643264771e-02 -9.915347397327423096e-02 -7.003767788410186768e-02
1.999841481447219849e-01 -3.206387162208557129e-03 3.255625814199447632e-02
1.914333999156951904e-01 -1.193647459149360657e-02 -1.568292677402496338e-01
1.830468028783798218e-01 -6.173759698867797852e-03 9.857994318008422852e-02
6.695801764726638794e-02 -9.654900431632995605e-02 -1.300180256366729736e-01
1.692598611116409302e-01 -8.281670510768890381e-03 1.163159161806106567e-01
7.826139032840728760e-02 -9.161804616451263428e-02 1.153980344533920288e-01
2.126722484827041626e-01 -1.867062225937843323e-02 -1.747594326734542847e-01
1.710829436779022217e-01 -6.725157797336578369e-02 -2.187780141830444336e-01
5.413711071014404297e-02 -5.616967007517814636e-02 -1.889518499374389648e-01
1.821505427360534668e-01 -2.941052988171577454e-02 2.180023789405822754e-01
4.755894094705581665e-02 -9.852667152881622314e-02 -4.830707609653472900e-02
