-3.516649305820465088e-01 1.109431087970733643e-01 6.735026836395263672e-01
-5.627510547637939453e-01 1.314288824796676636e-01 3.047986328601837158e-01
-5.565376281738281250e-01 4.809576645493507385e-02 -1.556528210639953613e-01
-4.977136850357055664e-01 1.401531249284744263e-01 2.644843757152557373e-01
-3.037129342555999756e-01 5.012526363134384155e-02 3.402309417724609375e-01
-4.450049698352813721e-01 1.307135820388793945e-01 5.237853527069091797e-01
-1.975746750831604004e-01 1.200198084115982056e-01 -3.018559515476226807e-02
-2.680301368236541748e-01 1.297633647918701172e-01 -4.034015238285064697e-01
-1.724071800708770752e-01 1.056440696120262146e-01 -2.192032337188720703e-01
-4.437704086303710938e-01 3.877439349889755249e-02 -1.862704157829284668e-01
-4.701867997646331787e-01 1.198535412549972534e-01 6.364125013351440430e-01
-5.080351829528808594e-01 1.353312730789184570e-01 -4.290163815021514893e-01
-4.316690266132354736e-01 5.545154958963394165e-02 -6.239913702011108398e-01
-4.527075588703155518e-01 4.198723286390304565e-02 -3.260469138622283936e-01
-5.706160664558410645e-01 5.219896882772445679e-02 2.166425287723541260e-01
-3.340424895286560059e-01 4.310079291462898254e-02 -3.170451521873474121e-01
-4.673967659473419189e-01 4.625085741281509399e-02 3.746665716171264648e-01
-5.023410916328430176e-01 4.390048608183860779e-02 -2.728444635868072510e-01
-4.387221336364746094e-01 6.227160245180130005e-02 6.331336498260498047e-01
-5.203778743743896484e-01 1.216813996434211731e-01 -6.134912967681884766e-01
-2.031519562005996704e-01 8.504259586334228516e-02 3.720310032367706299e-01
-4.381968379020690918e-01 1.465882956981658936e-01 -9.203213453292846680e-02
-2.369880080223083496e-01 1.173509582877159119e-01 3.658033907413482666e-01
-2.645984888076782227e-01 1.160975024104118347e-01 -5.994118452072143555e-01
-3.555215299129486084e-01 1.413946747779846191e-01 -3.353503942489624023e-01
-6.037498116493225098e-01 7.178661227226257324e-02 -4.495074450969696045e-01
-6.413136720657348633e-01 1.156717613339424133e-01 -1.703525334596633911e-01
-2.631778120994567871e-01 1.354965865612030029e-01 -1.052900850772857666e-01
-6.075168251991271973e-01 5.918808653950691223e-02 1.781179010868072510e-01
-3.058434426784515381e-01 1.149170026183128357e-01 5.824573040008544922e-01
-5.180354118347167969e-01 5.594187229871749878e-02 -5.199711322784423828e-01
-5.093684196472167969e-01 8.508663624525070190e-02 -7.570172548294067383e-01
-5.873075127601623535e-01 1.319902539253234863e-01 1.267876476049423218e-01
-3.485295176506042480e-01 1.269780248403549194e-01 5.262274742126464844e-01
-6.628020405769348145e-01 1.021065562963485718e-01 -1.413266658782958984e-01
-2.788791656494140625e-01 1.286714673042297363e-01 3.452846407890319824e-01
-2.321066856384277344e-01 7.257901877164840698e-02 -5.525227785110473633e-01
-2.166471630334854126e-01 1.227186620235443115e-01 1.435628235340118408e-01
-3.615477085113525391e-01 3.875089809298515320e-02 -1.547126770019531250e-01
-4.751206040382385254e-01 4.128449410200119019e-02 1.976802796125411987e-01
-5.331696271896362305e-01 5.070738494396209717e-02 3.420628011226654053e-01
-4.063372611999511719e-01 9.723109006881713867e-02 7.551194429397583008e-01
-2.726679742336273193e-01 4.753476008772850037e-02 1.240079551935195923e-01
-3.656630814075469971e-01 4.058599844574928284e-02 1.972677856683731079e-01
-2.614611089229583740e-01 8.900440484285354614e-02 5.784949064254760742e-01
-3.620427846908569336e-01 1.203031465411186218e-01 -7.097079753875732422e-01
-5.243268609046936035e-01 5.553472042083740234e-02 4.607983827590942383e-01
-4.753076136112213135e-01 1.449273526668548584e-01 -1.491720676422119141e-01
-3.313513398170471191e-01 4.219099879264831543e-02 1.774343997240066528e-01
-4.794917106628417969e-01 3.964753821492195129e-02 -1.138239279389381409e-01
-3.541324734687805176e-01 1.390781849622726440e-01 -4.068454504013061523e-01
-3.916283249855041504e-01 1.446084082126617432e-01 -2.541351616382598877e-01
-2.944694161415100098e-01 4.679840430617332458e-02 -3.216359615325927734e-01
-4.930825531482696533e-01 1.443915814161300659e-01 2.574861049652099609e-02
-5.178735256195068359e-01 4.311441630125045776e-02 -1.478730738162994385e-01
-4.764280319213867188e-01 1.176937744021415710e-01 -7.110191583633422852e-01
-4.304963648319244385e-01 1.316897422075271606e-01 -5.881408452987670898e-01
-5.564085245132446289e-01 1.382200717926025391e-01 -1.167692244052886963e-03
-5.029561519622802734e-01 1.413310766220092773e-01 2.032208144664764404e-01
-5.207927227020263672e-01 1.158493757247924805e-01 -6.652034521102905273e-01
-4.222775399684906006e-01 5.746824294328689575e-02 -6.530981063842773438e-01
-5.251452326774597168e-01 5.961769446730613708e-02 -5.566262006759643555e-01
-4.831028282642364502e-01 9.559702128171920776e-02 7.399688959121704102e-01
-4.041352272033691406e-01 1.464121788740158081e-01 4.706931114196777344e-02
-5.715140104293823242e-01 1.353255659341812134e-01 9.088337421417236328e-02
-2.497733384370803833e-01 1.260833293199539185e-01 2.775260210037231445e-01
-3.132678270339965820e-01 1.267704367637634277e-01 4.696075618267059326e-01
-3.431354165077209473e-01 4.077727720141410828e-02 -2.367628365755081177e-01
-4.887154102325439453e-01 4.558498039841651917e-02 3.226933181285858154e-01
-6.292648315429687500e-01 8.638717234134674072e-02 4.176923930644989014e-01
-5.744583606719970703e-01 7.074160128831863403e-02 5.221618413925170898e-01
-2.823281884193420410e-01 1.044671535491943359e-01 -7.151225805282592773e-01
-3.493670821189880371e-01 1.166347414255142212e-01 6.327767372131347656e-01
-6.168493032455444336e-01 6.221916526556015015e-02 -2.034437954425811768e-01
-5.856822729110717773e-01 1.325260251760482788e-01 -1.431503891944885254e-01
-3.485826849937438965e-01 7.327993214130401611e-02 6.767239570617675781e-01
-5.429089069366455078e-01 1.298723518848419189e-01 -4.475750029087066650e-01
-2.098070383071899414e-01 1.240009292960166931e-01 -9.365607798099517822e-02
-4.873515069484710693e-01 1.433989405632019043e-01 1.504435986280441284e-01
-2.996222376823425293e-01 1.376211047172546387e-01 1.841931492090225220e-01
-4.967704415321350098e-01 4.066459462046623230e-02 4.199334233999252319e-02
-5.595290660858154297e-01 5.474082008004188538e-02 -3.712124526500701904e-01
-1.597913801670074463e-01 9.093100577592849731e-02 -3.637261688709259033e-03
-5.863885879516601562e-01 1.259265840053558350e-01 3.264072835445404053e-01
-4.868668317794799805e-01 5.345103144645690918e-02 -5.398349761962890625e-01
-4.116883575916290283e-01 3.765499964356422424e-02 6.654212623834609985e-02
-3.082526922225952148e-01 7.047333568334579468e-02 -7.100179195404052734e-01
-2.484365254640579224e-01 1.330260038375854492e-01 -6.139003485441207886e-02
-3.810679912567138672e-01 1.293725371360778809e-01 5.280287265777587891e-01
-2.483978569507598877e-01 7.143610715866088867e-02 -5.944521427154541016e-01
-2.526736855506896973e-01 1.198901608586311340e-01 3.940805494785308838e-01
-5.377427339553833008e-01 6.585074961185455322e-02 -5.993504524230957031e-01
-3.271779417991638184e-01 1.431861966848373413e-01 -6.328971683979034424e-02
-5.477328300476074219e-01 1.220266819000244141e-01 5.099297761917114258e-01
-4.978871643543243408e-01 4.235737025737762451e-02 1.748341172933578491e-01
-5.987715721130371094e-01 5.510735139250755310e-02 -7.956092059612274170e-02
-3.423788547515869141e-01 5.364478006958961487e-02 -5.740609169006347656e-01
-3.506624400615692139e-01 3.972983732819557190e-02 -1.958666741847991943e-01
-5.335291028022766113e-01 7.447054982185363770e-02 6.371003389358520508e-01
-1.696865260601043701e-01 8.147016912698745728e-02 -2.578607201576232910e-01
-3.933036923408508301e-01 1.306663751602172852e-01 -6.048557758331298828e-01
-4.724073112010955811e-01 1.272689700126647949e-01 5.559377670288085938e-01
-3.225476145744323730e-01 1.087361574172973633e-01 6.497375965118408203e-01
-1.610124111175537109e-01 8.679133653640747070e-02 -1.616511344909667969e-01
-2.233492434024810791e-01 1.066918522119522095e-01 4.131682515144348145e-01
-5.951805710792541504e-01 5.918474867939949036e-02 2.738451361656188965e-01
-3.663866221904754639e-01 4.702487215399742126e-02 -4.764860272407531738e-01
-2.916250228881835938e-01 1.395910680294036865e-01 -6.697586178779602051e-02
-3.174577653408050537e-01 5.139648541808128357e-02 4.002925157546997070e-01
-3.707846701145172119e-01 1.423303037881851196e-01 2.321038842201232910e-01
-4.385138154029846191e-01 1.082262992858886719e-01 -7.949414253234863281e-01
-3.118311166763305664e-01 4.277306795120239258e-02 -2.192058116197586060e-01
-5.648041963577270508e-01 5.002556368708610535e-02 -1.905401945114135742e-01
-2.318655848503112793e-01 6.214632093906402588e-02 -4.267181158065795898e-01
-2.970904707908630371e-01 1.400373876094818115e-01 -1.231449991464614868e-01
-2.227949649095535278e-01 1.169928535819053650e-01 3.042592704296112061e-01
-4.737662076950073242e-01 3.961929678916931152e-02 9.625385701656341553e-02
-5.333213806152343750e-01 6.994548439979553223e-02 -6.445484161376953125e-01
-6.340428590774536133e-01 9.091288596391677856e-02 -4.138288199901580811e-01
-2.924541532993316650e-01 5.564737692475318909e-02 -5.216028690338134766e-01
-1.810601502656936646e-01 1.125549077987670898e-01 -1.650343537330627441e-01
-5.443210601806640625e-01 4.586115851998329163e-02 -1.165083497762680054e-01
-3.305584192276000977e-01 1.260602474212646484e-01 -6.165688037872314453e-01
-4.119284749031066895e-01 5.242130160331726074e-02 5.165134668350219727e-01
-5.905922651290893555e-01 1.048105806112289429e-01 5.395467281341552734e-01
-3.457531929016113281e-01 1.320285052061080933e-01 4.465174376964569092e-01
-2.994882762432098389e-01 1.401050835847854614e-01 3.371653705835342407e-02
-5.741125345230102539e-01 1.176878437399864197e-01 4.910903275012969971e-01
-5.255353450775146484e-01 5.275201797485351562e-02 4.082430601119995117e-01
-3.824295401573181152e-01 4.427848756313323975e-02 -4.217268526554107666e-01
-3.518970608711242676e-01 8.543536067008972168e-02 7.220495939254760742e-01
-3.446730971336364746e-01 5.831779539585113525e-02 -6.399304866790771484e-01
-2.875169515609741211e-01 1.017983481287956238e-01 6.193977594375610352e-01
-3.229474425315856934e-01 4.838024079799652100e-02 -4.464974701404571533e-01
-3.188789486885070801e-01 1.165439039468765259e-01 -6.992185115814208984e-01
-5.936414003372192383e-01 7.381165772676467896e-02 4.885921180248260498e-01
-2.411891967058181763e-01 1.302110254764556885e-01 -2.199028134346008301e-01
-1.850627511739730835e-01 6.727828830480575562e-02 -1.352500170469284058e-01
-2.300780713558197021e-01 5.337037891149520874e-02 -9.838138520717620850e-02
-3.572601079940795898e-01 1.440421640872955322e-01 1.127114593982696533e-01
-5.217479467391967773e-01 1.340721547603607178e-01 3.734982609748840332e-01
-1.880820989608764648e-01 8.688302338123321533e-02 -4.372200965881347656e-01
-3.876794576644897461e-01 1.348310410976409912e-01 4.451548457145690918e-01
-2.030597031116485596e-01 6.388472765684127808e-02 -2.769867777824401855e-01
-5.161357522010803223e-01 9.816484898328781128e-02 7.049784660339355469e-01
-4.182821810245513916e-01 3.889649361371994019e-02 -2.281514108180999756e-01
-4.463809728622436523e-01 1.463988274335861206e-01 2.375713363289833069e-02
-3.049116730690002441e-01 1.388835906982421875e-01 -2.707865834236145020e-01
-5.666000843048095703e-01 4.871028289198875427e-02 -5.764573067426681519e-02
-3.951369225978851318e-01 3.740495815873146057e-02 -8.638154715299606323e-02
-5.880103707313537598e-01 5.564467236399650574e-02 -2.373481988906860352e-01
-5.856276750564575195e-01 1.303198635578155518e-01 -2.446991503238677979e-01
-3.112622201442718506e-01 4.668796062469482422e-02 2.748341560363769531e-01
-3.212801516056060791e-01 5.333644524216651917e-02 4.423406720161437988e-01
-2.864738106727600098e-01 8.705804497003555298e-02 -7.446254491806030273e-01
-4.066517651081085205e-01 1.467322409152984619e-01 -5.366995930671691895e-03
-4.317441880702972412e-01 1.425355970859527588e-01 2.697500884532928467e-01
-3.939858078956604004e-01 1.230604946613311768e-01 -6.972160339355468750e-01
-4.660530686378479004e-01 1.385233253240585327e-01 -4.299775362014770508e-01
-2.322030961513519287e-01 1.293170899152755737e-01 -1.479347199201583862e-01
-3.628773391246795654e-01 4.273759946227073669e-02 2.746960222721099854e-01
-5.405985713005065918e-01 4.668189957737922668e-02 1.736374944448471069e-01
-4.694144129753112793e-01 3.933824226260185242e-02 -1.433129906654357910e-01
-3.261956572532653809e-01 1.426749527454376221e-01 -1.514371484518051147e-01
-6.178942918777465820e-01 1.151158809661865234e-01 -3.692105412483215332e-01
-3.933008909225463867e-01 1.416493356227874756e-01 2.858872413635253906e-01
-1.881243139505386353e-01 6.561322510242462158e-02 -8.674301207065582275e-02
-4.951047599315643311e-01 5.721639469265937805e-02 -5.820200443267822266e-01
-3.913308382034301758e-01 6.266252696514129639e-02 -7.103785276412963867e-01
-4.463665485382080078e-01 1.172402203083038330e-01 6.683579683303833008e-01
-3.866721689701080322e-01 6.571783125400543213e-02 6.558333635330200195e-01
-4.621080160140991211e-01 3.854364156723022461e-02 3.427349776029586792e-02
-4.007573425769805908e-01 4.920045286417007446e-02 -5.343001484870910645e-01
-4.752662479877471924e-01 1.343365311622619629e-01 -5.075213909149169922e-01
-1.774520426988601685e-01 8.177927136421203613e-02 -3.398574888706207275e-01
-2.072028070688247681e-01 6.107795238494873047e-02 -2.293060868978500366e-01
-4.234312772750854492e-01 6.935272365808486938e-02 -7.610372304916381836e-01
-5.472891330718994141e-01 1.129363924264907837e-01 -6.342668533325195312e-01
-6.325796842575073242e-01 1.169684827327728271e-01 -2.345930486917495728e-01
-3.512587845325469971e-01 8.455203473567962646e-02 -8.131526708602905273e-01
-2.513184547424316406e-01 5.070240423083305359e-02 -2.244342565536499023e-01
-2.323099821805953979e-01 5.883957445621490479e-02 2.386708557605743408e-01
-3.346125185489654541e-01 4.038926213979721069e-02 8.270853757858276367e-02
-6.403135061264038086e-01 8.156806975603103638e-02 -3.398207724094390869e-01
-5.083413124084472656e-01 1.103690043091773987e-01 6.702927350997924805e-01
-5.061420798301696777e-01 5.901177972555160522e-02 5.428357124328613281e-01
-4.794174432754516602e-01 1.361682862043380737e-01 4.028643071651458740e-01
-3.272043168544769287e-01 4.034096375107765198e-02 -1.116277948021888733e-01
-4.129323661327362061e-01 1.436801105737686157e-01 2.258279621601104736e-01
-3.876367509365081787e-01 5.446704104542732239e-02 -6.161080598831176758e-01
-5.011051893234252930e-01 1.205608993768692017e-01 6.026456356048583984e-01
-4.104012548923492432e-01 4.962049424648284912e-02 4.704141914844512939e-01
-2.201839238405227661e-01 5.919045954942703247e-02 1.630649864673614502e-01
-3.199466168880462646e-01 1.368261426687240601e-01 -3.971164226531982422e-01
-4.425773322582244873e-01 6.631739437580108643e-02 -7.306184768676757812e-01
-5.480477809906005859e-01 6.237337365746498108e-02 5.037121772766113281e-01
-4.808897078037261963e-01 1.441130936145782471e-01 -1.904966682195663452e-01
-5.009370446205139160e-01 4.081941023468971252e-02 -5.140669643878936768e-03
-3.670889437198638916e-01 1.256576329469680786e-01 -6.577852964401245117e-01
-3.279979825019836426e-01 4.388804361224174500e-02 2.355482578277587891e-01
-6.607773900032043457e-01 7.863619178533554077e-02 4.874034970998764038e-02
-4.585921764373779297e-01 1.337654292583465576e-01 4.683713614940643311e-01
-4.570682346820831299e-01 4.138674214482307434e-02 -2.958141267299652100e-01
-2.625874578952789307e-01 1.313520520925521851e-01 2.088597267866134644e-01
-3.633247017860412598e-01 1.278891712427139282e-01 -6.274569034576416016e-01
-6.407023668289184570e-01 7.135547697544097900e-02 1.966454684734344482e-01
-6.275998353958129883e-01 1.071980372071266174e-01 3.826142847537994385e-01
-4.447379410266876221e-01 5.308816954493522644e-02 5.213524103164672852e-01
-3.832869529724121094e-01 1.444259583950042725e-01 1.608004719018936157e-01
-5.165353417396545410e-01 1.408105343580245972e-01 1.744899749755859375e-01
-5.573233962059020996e-01 5.083724111318588257e-02 2.472678124904632568e-01
-3.845846652984619141e-01 1.405594199895858765e-01 -4.013682305812835693e-01
-2.111302018165588379e-01 5.798321589827537537e-02 -4.434527456760406494e-02
-2.062231004238128662e-01 8.431447297334671021e-02 -5.206642150878906250e-01
-3.247321248054504395e-01 1.214981153607368469e-01 -6.614496707916259766e-01
-1.881740391254425049e-01 6.634484231472015381e-02 2.151499316096305847e-02
-4.502772688865661621e-01 8.485187590122222900e-02 -8.153735399246215820e-01
-3.302809000015258789e-01 1.422424614429473877e-01 -2.149037569761276245e-01
-3.548969924449920654e-01 4.916360601782798767e-02 -5.099802017211914062e-01
-3.504326045513153076e-01 5.000556632876396179e-02 4.324700534343719482e-01
-3.678536713123321533e-01 1.079456806182861328e-01 7.034542560577392578e-01
-2.751509547233581543e-01 1.356793940067291260e-01 1.208243668079376221e-01
-3.488800227642059326e-01 4.765586555004119873e-02 3.830166459083557129e-01
-2.477066069841384888e-01 5.656076222658157349e-02 -3.913443088531494141e-01
-6.251608133316040039e-01 6.188502535223960876e-02 -3.312942385673522949e-02
-2.584725022315979004e-01 5.116171389818191528e-02 1.804382205009460449e-01
-2.953030467033386230e-01 1.395380198955535889e-01 -1.593540608882904053e-01
-3.511481285095214844e-01 3.870178386569023132e-02 -1.562847197055816650e-02
-5.001627206802368164e-01 1.270741224288940430e-01 5.301842689514160156e-01
-5.904832482337951660e-01 1.301093846559524536e-01 1.858716458082199097e-01
-6.268594264984130859e-01 1.234853416681289673e-01 -5.967561155557632446e-03
-5.855744481086730957e-01 1.113336682319641113e-01 -5.420467853546142578e-01
-2.859082221984863281e-01 5.421116948127746582e-02 3.715214133262634277e-01
-4.601543843746185303e-01 1.153669655323028564e-01 -7.422765493392944336e-01
-3.190298378467559814e-01 4.626179113984107971e-02 -3.831941187381744385e-01
-2.912606894969940186e-01 1.384108662605285645e-01 -2.106587737798690796e-01
-5.256936550140380859e-01 4.762564972043037415e-02 -3.178914487361907959e-01
-3.569054305553436279e-01 1.373477876186370850e-01 3.567034900188446045e-01
-1.808817088603973389e-01 8.477824926376342773e-02 -3.837084770202636719e-01
-3.429196178913116455e-01 1.422726213932037354e-01 -2.655287683010101318e-01
-2.522518634796142578e-01 1.203814595937728882e-01 -5.134406685829162598e-01
-3.994314670562744141e-01 1.200284659862518311e-01 6.424679756164550781e-01
-5.404863953590393066e-01 1.375969201326370239e-01 -2.515186071395874023e-01
-5.766227245330810547e-01 5.105452984571456909e-02 -1.258278042078018188e-01
-4.387679994106292725e-01 5.091603845357894897e-02 4.894624054431915283e-01
-5.810080170631408691e-01 1.342282146215438843e-01 -6.160209700465202332e-02
-2.428322583436965942e-01 5.084929987788200378e-02 -8.090090006589889526e-03
-4.662977159023284912e-01 1.422034204006195068e-01 -3.198575079441070557e-01
-5.710023045539855957e-01 5.851608887314796448e-02 -4.009869992733001709e-01
-2.916580140590667725e-01 5.212496593594551086e-02 -4.546456038951873779e-01
-3.554963469505310059e-01 1.402881145477294922e-01 -3.730702102184295654e-01
-3.945866525173187256e-01 4.250969737768173218e-02 -3.763937950134277344e-01
-4.818209707736968994e-01 1.433844417333602905e-01 -2.314423173666000366e-01
-5.657777190208435059e-01 5.269617587327957153e-02 -2.874989807605743408e-01
-3.284511864185333252e-01 6.262199580669403076e-02 -6.700401306152343750e-01
-6.097518205642700195e-01 1.211175397038459778e-01 -3.215808570384979248e-01
-6.346839070320129395e-01 1.171083450317382812e-01 1.968097388744354248e-01
-3.845029175281524658e-01 1.453194171190261841e-01 -1.991332918405532837e-01
-2.062077224254608154e-01 1.224236786365509033e-01 1.467095687985420227e-02
-4.148117303848266602e-01 4.511608555912971497e-02 3.782361447811126709e-01
-4.354196786880493164e-01 3.984168171882629395e-02 1.996959745883941650e-01
-5.379398465156555176e-01 6.640101969242095947e-02 5.688371658325195312e-01
-4.857928156852722168e-01 1.449718326330184937e-01 -1.862404495477676392e-02
-4.718985259532928467e-01 6.843639910221099854e-02 6.687123775482177734e-01
-5.474293828010559082e-01 4.577732831239700317e-02 3.856811672449111938e-03
-3.663517832756042480e-01 4.366948455572128296e-02 3.085987865924835205e-01
-3.767789006233215332e-01 1.358518749475479126e-01 -5.082673430442810059e-01
-3.906616866588592529e-01 4.059055075049400330e-02 2.315632700920104980e-01
-5.488438606262207031e-01 4.609555378556251526e-02 3.870722651481628418e-02
-1.849534064531326294e-01 1.131136268377304077e-01 7.121162116527557373e-02
-2.163654416799545288e-01 9.445151686668395996e-02 -5.700010061264038086e-01
-4.214110076427459717e-01 1.461806893348693848e-01 8.488172292709350586e-02
-2.264903783798217773e-01 5.649586394429206848e-02 1.282347887754440308e-01
-5.256770253181457520e-01 1.418615281581878662e-01 -1.151814870536327362e-02
-5.994092226028442383e-01 8.000995963811874390e-02 -5.288057327270507812e-01
-5.403583049774169922e-01 4.485759511590003967e-02 -3.397150337696075439e-02
-5.876913070678710938e-01 1.255881190299987793e-01 -3.558961153030395508e-01
-3.849539458751678467e-01 3.895966708660125732e-02 -2.230167388916015625e-01
-1.920151412487030029e-01 1.137152537703514099e-01 -2.880829572677612305e-01
-5.547899007797241211e-01 1.384375393390655518e-01 -4.126724973320960999e-02
-5.307028889656066895e-01 1.222004145383834839e-01 5.423871278762817383e-01
-3.193312883377075195e-01 4.342621937394142151e-02 -2.852719128131866455e-01
-3.530684113502502441e-01 6.556918472051620483e-02 6.294440031051635742e-01
-2.441131025552749634e-01 1.319552510976791382e-01 -7.865875959396362305e-04
-5.180504322052001953e-01 4.458384588360786438e-02 -2.348879575729370117e-01
-5.811308622360229492e-01 6.312958151102066040e-02 4.144888222217559814e-01
-2.653289437294006348e-01 4.974092170596122742e-02 -2.853963673114776611e-01
-4.463400244712829590e-01 3.820329159498214722e-02 6.907821446657180786e-02
-6.136983633041381836e-01 7.069730758666992188e-02 -3.896781206130981445e-01
-2.812320590019226074e-01 6.223683431744575500e-02 -5.874884128570556641e-01
-6.018309593200683594e-01 1.242424994707107544e-01 2.813943922519683838e-01
-3.759388625621795654e-01 1.399752199649810791e-01 3.167478442192077637e-01
-3.589755296707153320e-01 5.921893566846847534e-02 5.744341611862182617e-01
-3.047627806663513184e-01 8.788529783487319946e-02 6.654448509216308594e-01
-3.884485960006713867e-01 4.476185142993927002e-02 3.601742088794708252e-01
-2.801758646965026855e-01 1.271281838417053223e-01 -4.981845021247863770e-01
-4.578444063663482666e-01 5.783501639962196350e-02 5.779820680618286133e-01
-5.647161006927490234e-01 1.338589042425155640e-01 2.218275666236877441e-01
-6.538076400756835938e-01 1.013961881399154663e-01 2.516095340251922607e-01
-3.289555907249450684e-01 1.341246962547302246e-01 -4.821647703647613525e-01
-4.438064396381378174e-01 4.203823953866958618e-02 2.800506055355072021e-01
-4.194676876068115234e-01 1.288404762744903564e-01 5.522972345352172852e-01
-3.923268318176269531e-01 8.028460294008255005e-02 -8.174041509628295898e-01
-4.909229874610900879e-01 1.401375979185104370e-01 -3.398955464363098145e-01
-2.499325722455978394e-01 1.229823380708694458e-01 -4.658005535602569580e-01
-5.111328959465026855e-01 4.281664639711380005e-02 1.350242048501968384e-01
-4.625594913959503174e-01 1.460726261138916016e-01 -4.391767084598541260e-02
-4.585008919239044189e-01 4.422822222113609314e-02 3.325264155864715576e-01
-6.406542062759399414e-01 1.070162951946258545e-01 -3.173648715019226074e-01
-4.462938010692596436e-01 1.442480236291885376e-01 1.919441968202590942e-01
-1.634588241577148438e-01 8.968742191791534424e-02 7.640131562948226929e-02
-2.418880909681320190e-01 6.291639804840087891e-02 -4.809329509735107422e-01
-6.512210965156555176e-01 7.540485262870788574e-02 -1.617181301116943359e-01
3.768689036369323730e-01 1.209349930286407471e-01 3.181976675987243652e-01
3.468310236930847168e-01 7.421456277370452881e-02 6.047055125236511230e-01
2.644064426422119141e-01 8.753176778554916382e-02 -6.068615317344665527e-01
2.642820477485656738e-01 1.203714013099670410e-01 2.784758806228637695e-01
1.783237755298614502e-01 7.047060877084732056e-02 7.007972151041030884e-02
2.168469727039337158e-01 8.441198617219924927e-02 -4.744427800178527832e-01
4.294247031211853027e-01 1.197860389947891235e-01 2.045378535985946655e-01
4.412879049777984619e-01 9.519787132740020752e-02 5.890554189682006836e-01
5.269470810890197754e-01 9.355181455612182617e-02 -8.834841847419738770e-02
2.521596848964691162e-01 8.103010058403015137e-02 -5.242128968238830566e-01
4.703836441040039062e-01 1.047957465052604675e-01 -5.623857975006103516e-01
2.886570096015930176e-01 1.058160737156867981e-01 -6.063721776008605957e-01
2.025527656078338623e-01 6.762895733118057251e-02 1.162838786840438843e-01
1.894028931856155396e-01 7.093308120965957642e-02 -6.702783703804016113e-02
2.769348323345184326e-01 7.031067460775375366e-02 5.718476176261901855e-01
1.782281696796417236e-01 1.116531938314437866e-01 3.042614161968231201e-01
4.245431125164031982e-01 1.217777207493782043e-01 5.437215417623519897e-02
4.250154197216033936e-01 7.155133038759231567e-02 -1.928755939006805420e-01
1.861459612846374512e-01 6.903964281082153320e-02 1.866305470466613770e-01
2.958434224128723145e-01 7.823269069194793701e-02 -5.494467020034790039e-01
1.795202344655990601e-01 1.080797538161277771e-01 4.978248476982116699e-01
3.815988898277282715e-01 1.236254274845123291e-01 6.976315379142761230e-02
2.793276011943817139e-01 1.207999289035797119e-01 3.040369451045989990e-01
3.836658895015716553e-01 6.963524222373962402e-02 3.399167060852050781e-01
3.907475769519805908e-01 7.154162973165512085e-02 3.994752764701843262e-01
2.536159753799438477e-01 1.166168078780174255e-01 4.666551351547241211e-01
3.717388212680816650e-01 1.203715205192565918e-01 3.556168973445892334e-01
4.785310029983520508e-01 7.812174409627914429e-02 4.436613619327545166e-02
1.601067781448364258e-01 1.080566421151161194e-01 3.366905450820922852e-01
2.988881170749664307e-01 1.183723658323287964e-01 4.683004617691040039e-01
4.975624382495880127e-01 9.983851760625839233e-02 3.213343024253845215e-01
3.873306512832641602e-01 1.211138218641281128e-01 2.849137485027313232e-01
4.811869561672210693e-01 7.838131487369537354e-02 -2.019371837377548218e-03
2.318037450313568115e-01 1.149590462446212769e-01 -2.501463592052459717e-01
2.543054223060607910e-01 1.173203513026237488e-01 4.367172122001647949e-01
1.683075726032257080e-01 7.124952226877212524e-02 2.320680469274520874e-01
3.560102283954620361e-01 7.445901632308959961e-02 -4.890704751014709473e-01
1.993971168994903564e-01 1.116961985826492310e-01 4.695793986320495605e-01
3.358083665370941162e-01 1.070546507835388184e-01 -6.507396697998046875e-01
1.711285114288330078e-01 9.589228779077529907e-02 -3.280164301395416260e-01
1.827437281608581543e-01 7.181686162948608398e-02 4.451635777950286865e-01
3.770919740200042725e-01 6.699416041374206543e-02 1.622136384248733521e-01
3.078491985797882080e-01 1.217579022049903870e-01 2.988534867763519287e-01
3.521647155284881592e-01 7.939326763153076172e-02 -5.930294394493103027e-01
2.027096003293991089e-01 7.538701593875885010e-02 -2.884133756160736084e-01
3.385801017284393311e-01 1.194590777158737183e-01 4.305225312709808350e-01
1.200038939714431763e-01 8.744567632675170898e-02 8.368350565433502197e-02
3.705106675624847412e-01 1.235030442476272583e-01 1.331076025962829590e-01
2.729598879814147949e-01 7.698136568069458008e-02 -4.986194968223571777e-01
3.246193230152130127e-01 6.610704958438873291e-02 -1.639215350151062012e-01
1.873699426651000977e-01 1.135807335376739502e-01 2.354410737752914429e-01
4.080699086189270020e-01 1.227329298853874207e-01 -1.195566654205322266e-01
3.897985219955444336e-01 6.801456958055496216e-02 -1.152374446392059326e-01
2.011172771453857422e-01 6.815347820520401001e-02 5.014101415872573853e-02
3.481417298316955566e-01 6.997337937355041504e-02 -3.507503271102905273e-01
4.978505373001098633e-01 1.128914430737495422e-01 -2.100273668766021729e-01
3.397740423679351807e-01 1.207810342311859131e-01 3.697242736816406250e-01
2.955741286277770996e-01 7.273654639720916748e-02 -4.327642321586608887e-01
4.520438313484191895e-01 1.079739481210708618e-01 4.662942290306091309e-01
1.352320909500122070e-01 8.717992901802062988e-02 -1.009960025548934937e-01
2.022832483053207397e-01 1.152934730052947998e-01 2.641444206237792969e-01
4.499232172966003418e-01 7.418018579483032227e-02 -1.821637153625488281e-01
2.588691413402557373e-01 6.496158242225646973e-02 1.973906159400939941e-02
1.376703977584838867e-01 1.036612391471862793e-01 1.784279197454452515e-01
2.580889761447906494e-01 1.194874867796897888e-01 3.224146068096160889e-01
4.708802103996276855e-01 1.147917062044143677e-01 2.045801430940628052e-01
2.944580316543579102e-01 1.154184415936470032e-01 5.666665434837341309e-01
3.946613669395446777e-01 7.666154205799102783e-02 5.424884557723999023e-01
3.875462710857391357e-01 1.109571754932403564e-01 5.975126028060913086e-01
4.252542853355407715e-01 7.046449184417724609e-02 -1.976871863007545471e-02
3.732484579086303711e-01 7.097855210304260254e-02 -3.589342832565307617e-01
4.013242125511169434e-01 8.249850571155548096e-02 6.259235143661499023e-01
1.238905936479568481e-01 8.222392201423645020e-02 1.595169007778167725e-01
4.299851059913635254e-01 1.186404600739479065e-01 -3.587369620800018311e-01
2.388871908187866211e-01 1.168681979179382324e-01 -2.003404498100280762e-01
4.261408448219299316e-01 7.466050237417221069e-02 -3.614732325077056885e-01
4.458196461200714111e-01 7.298149168491363525e-02 -9.337970614433288574e-02
5.060269832611083984e-01 1.116605848073959351e-01 -1.131129711866378784e-01
3.783575892448425293e-01 1.138251572847366333e-01 5.560627579689025879e-01
1.952329128980636597e-01 1.069088876247406006e-01 5.992771983146667480e-01
2.418520748615264893e-01 1.177671253681182861e-01 -1.670236289501190186e-01
3.219526112079620361e-01 8.191566169261932373e-02 -6.232309937477111816e-01
3.576827347278594971e-01 7.047577947378158569e-02 4.691062867641448975e-01
3.626018762588500977e-01 6.906092166900634766e-02 -2.909214198589324951e-01
3.070290386676788330e-01 6.464084982872009277e-02 2.268658578395843506e-01
2.264781594276428223e-01 1.184515357017517090e-01 1.370135843753814697e-01
3.667618632316589355e-01 6.811763346195220947e-02 -2.279004156589508057e-01
2.993170619010925293e-01 1.226513162255287170e-01 1.923495382070541382e-01
3.806563317775726318e-01 1.237185001373291016e-01 -7.960756123065948486e-02
3.558423817157745361e-01 6.615583598613739014e-02 2.159515172243118286e-01
2.685461342334747314e-01 1.184274479746818542e-01 -2.623929381370544434e-01
3.673270046710968018e-01 7.538683712482452393e-02 5.883469581604003906e-01
2.948894798755645752e-01 1.197242140769958496e-01 -2.892523109912872314e-01
4.740878939628601074e-01 1.108460426330566406e-01 3.101807534694671631e-01
1.613159775733947754e-01 1.089056879281997681e-01 5.743189528584480286e-02
4.596430659294128418e-01 1.146625801920890808e-01 2.790770828723907471e-01
2.474218010902404785e-01 7.274140417575836182e-02 -3.559990525245666504e-01
4.272696077823638916e-01 7.695867121219635010e-02 4.253461956977844238e-01
4.770547747611999512e-01 7.839518785476684570e-02 -1.956685185432434082e-01
2.459660172462463379e-01 7.048367708921432495e-02 -2.824018001556396484e-01
3.036566972732543945e-01 1.146431267261505127e-01 5.918661952018737793e-01
3.360858261585235596e-01 6.550742685794830322e-02 2.418407946825027466e-01
3.410296738147735596e-01 1.240005791187286377e-01 7.821669429540634155e-02
5.073473453521728516e-01 1.111481934785842896e-01 -1.569823175668716431e-01
1.198142021894454956e-01 8.537641167640686035e-02 3.189975321292877197e-01
3.429432809352874756e-01 7.522507011890411377e-02 6.343753337860107422e-01
3.999795317649841309e-01 6.894278526306152344e-02 -1.427046507596969604e-01
2.465856671333312988e-01 1.201778352260589600e-01 6.341364979743957520e-02
1.158645749092102051e-01 9.101638197898864746e-02 2.138890773057937622e-01
2.855957150459289551e-01 6.564608216285705566e-02 -1.201774626970291138e-01
4.464565515518188477e-01 1.107817813754081726e-01 -5.446004271507263184e-01
1.190820187330245972e-01 8.870217204093933105e-02 3.560183942317962646e-01
3.961749672889709473e-01 1.142629906535148621e-01 5.114149451255798340e-01
2.573912143707275391e-01 1.146539002656936646e-01 -3.657194674015045166e-01
2.377333641052246094e-01 1.189527884125709534e-01 -3.496446087956428528e-02
3.569782078266143799e-01 6.600520014762878418e-02 -7.128867506980895996e-02
2.873824834823608398e-01 6.728518009185791016e-02 4.489926695823669434e-01
3.097308874130249023e-01 6.509502977132797241e-02 2.770494222640991211e-01
3.161601126194000244e-01 7.606265693902969360e-02 6.875171065330505371e-01
4.016557633876800537e-01 1.155901402235031128e-01 -5.092337727546691895e-01
2.187449038028717041e-01 1.161404103040695190e-01 3.457801938056945801e-01
2.435304820537567139e-01 6.580923497676849365e-02 -1.259859278798103333e-02
2.455714941024780273e-01 1.199145764112472534e-01 8.022721856832504272e-03
2.650253474712371826e-01 6.444963812828063965e-02 1.299815326929092407e-01
3.193748891353607178e-01 7.260380685329437256e-02 -4.441705942153930664e-01
3.466596901416778564e-01 1.201019436120986938e-01 -3.653963506221771240e-01
1.895334869623184204e-01 1.112552583217620850e-01 4.322436451911926270e-01
2.437033951282501221e-01 7.227162271738052368e-02 6.162077784538269043e-01
4.735528230667114258e-01 7.951392978429794312e-02 -3.006068468093872070e-01
4.110339581966400146e-01 1.215604022145271301e-01 1.718830466270446777e-01
4.949187040328979492e-01 8.669887483119964600e-02 2.469314783811569214e-01
3.465956449508666992e-01 1.217226311564445496e-01 3.141880631446838379e-01
4.605175554752349854e-01 8.399780094623565674e-02 4.219610095024108887e-01
5.117638707160949707e-01 1.087886765599250793e-01 -2.416342198848724365e-01
4.545174837112426758e-01 1.180157661437988281e-01 1.571188420057296753e-01
2.900362610816955566e-01 8.226372301578521729e-02 7.908031940460205078e-01
2.806305885314941406e-01 1.123557239770889282e-01 6.380730867385864258e-01
1.935773938894271851e-01 1.146839633584022522e-01 1.095786243677139282e-01
2.053983509540557861e-01 7.596346735954284668e-02 6.471611261367797852e-01
2.616648077964782715e-01 6.664958596229553223e-02 -1.439978033304214478e-01
2.583222985267639160e-01 1.200091242790222168e-01 -1.097096204757690430e-01
2.410900294780731201e-01 9.205208718776702881e-02 8.248062133789062500e-01
3.056837320327758789e-01 1.175463199615478516e-01 -4.023930132389068604e-01
2.926678061485290527e-01 6.890570372343063354e-02 -3.049435913562774658e-01
2.250369340181350708e-01 6.654768437147140503e-02 2.060282602906227112e-02
2.981162965297698975e-01 1.228596717119216919e-01 -5.003735050559043884e-02
4.418140649795532227e-01 1.177912577986717224e-01 2.474594414234161377e-01
2.780589461326599121e-01 1.134427860379219055e-01 6.094394326210021973e-01
4.219378530979156494e-01 1.222285628318786621e-01 -3.732931986451148987e-02
1.577340364456176758e-01 7.827648520469665527e-02 -1.274725794792175293e-01
3.754652440547943115e-01 1.080776005983352661e-01 -6.536649465560913086e-01
4.461742341518402100e-01 7.619629800319671631e-02 -3.332129120826721191e-01
4.094537794589996338e-01 1.228629797697067261e-01 -1.331573352217674255e-02
2.094765007495880127e-01 6.919772177934646606e-02 4.343634545803070068e-01
3.752054870128631592e-01 1.193594783544540405e-01 3.939650952816009521e-01
2.662540972232818604e-01 6.473831832408905029e-02 2.389951348304748535e-01
5.096668004989624023e-01 1.044256165623664856e-01 1.852693706750869751e-01
2.220434248447418213e-01 7.132320106029510498e-02 5.580620765686035156e-01
4.130327105522155762e-01 1.056542471051216125e-01 6.170076727867126465e-01
3.379883468151092529e-01 1.239995807409286499e-01 -3.304172679781913757e-02
1.947747617959976196e-01 1.090215519070625305e-01 -2.516483068466186523e-01
3.846386671066284180e-01 1.227872818708419800e-01 -2.030634880065917969e-01
1.863396912813186646e-01 8.528629690408706665e-02 7.253479957580566406e-01
4.895640611648559570e-01 8.104892075061798096e-02 9.520564228296279907e-02
1.577163487672805786e-01 7.292318344116210938e-02 1.637611240148544312e-01
1.286556720733642578e-01 9.537076205015182495e-02 4.387142062187194824e-01
2.366302013397216797e-01 6.538521498441696167e-02 1.422214359045028687e-01
3.721561431884765625e-01 6.636261194944381714e-02 8.375551551580429077e-03
4.683171212673187256e-01 1.175394877791404724e-01 6.022857874631881714e-02
3.260079622268676758e-01 1.165394037961959839e-01 5.378375649452209473e-01
4.571951627731323242e-01 7.470078021287918091e-02 7.731749862432479858e-02
3.880016207695007324e-01 6.738559901714324951e-02 -2.151137217879295349e-02
2.090582251548767090e-01 7.658440619707107544e-02 -3.384476602077484131e-01
1.541088670492172241e-01 1.063744202256202698e-01 -4.271890968084335327e-03
3.044605851173400879e-01 8.053607493638992310e-02 -5.925619006156921387e-01
4.255543053150177002e-01 1.214061528444290161e-01 9.625364840030670166e-02
4.817290604114532471e-01 1.146219372749328613e-01 1.218253672122955322e-01
4.962746500968933105e-01 8.865715563297271729e-02 2.729748785495758057e-01
2.821983397006988525e-01 6.686859577894210815e-02 -1.963442265987396240e-01
4.157590866088867188e-01 7.941538095474243164e-02 -5.296819210052490234e-01
5.124931931495666504e-01 1.089516431093215942e-01 1.426059380173683167e-02
3.794181942939758301e-01 1.150397956371307373e-01 -5.340660810470581055e-01
3.581311404705047607e-01 6.821770220994949341e-02 3.651503026485443115e-01
4.478389024734497070e-01 1.108267679810523987e-01 4.327144324779510498e-01
3.024710416793823242e-01 1.231454163789749146e-01 1.212145388126373291e-01
1.727987825870513916e-01 7.252584397792816162e-02 -2.593988552689552307e-02
3.918041288852691650e-01 6.849591434001922607e-02 2.123715579509735107e-01
5.016160011291503906e-01 1.077900454401969910e-01 -3.775596022605895996e-01
2.569654583930969238e-01 6.981170922517776489e-02 5.501457452774047852e-01
4.705034494400024414e-01 8.227401971817016602e-02 -4.169698655605316162e-01
3.596010506153106689e-01 6.675517559051513672e-02 2.571109831333160400e-01
5.185586214065551758e-01 1.027838587760925293e-01 -3.170723319053649902e-01
2.390748709440231323e-01 6.651807576417922974e-02 3.585960566997528076e-01
4.641514122486114502e-01 7.728613913059234619e-02 -2.644510567188262939e-01
4.456378519535064697e-01 1.202594563364982605e-01 3.327134996652603149e-02
3.738943934440612793e-01 9.590172767639160156e-02 7.555242776870727539e-01
2.760321199893951416e-01 6.444393098354339600e-02 4.039112105965614319e-02
2.558558583259582520e-01 6.523512303829193115e-02 2.812077701091766357e-01
2.303204834461212158e-01 1.072137504816055298e-01 -4.445167183876037598e-01
2.714032530784606934e-01 1.090835928916931152e-01 6.988730430603027344e-01
1.520964801311492920e-01 7.674362510442733765e-02 4.506249129772186279e-01
4.445077180862426758e-01 8.317276835441589355e-02 4.843135476112365723e-01
4.660712480545043945e-01 7.567929476499557495e-02 -5.684642866253852844e-02
4.049211442470550537e-01 6.888599693775177002e-02 -8.627228438854217529e-02
2.407681643962860107e-01 1.071633324027061462e-01 -4.784799218177795410e-01
3.259946107864379883e-01 1.227517649531364441e-01 -1.800957620143890381e-01
2.923845648765563965e-01 1.228553280234336853e-01 1.460008323192596436e-02
5.229244828224182129e-01 9.219966083765029907e-02 -2.097698748111724854e-01
2.815552651882171631e-01 1.185659915208816528e-01 4.391956031322479248e-01
1.597918868064880371e-01 1.048456206917762756e-01 4.784791171550750732e-01
4.778337478637695312e-01 1.157260090112686157e-01 9.457214176654815674e-02
3.178595602512359619e-01 1.237253099679946899e-01 1.900364086031913757e-02
4.381934106349945068e-01 8.481728285551071167e-02 -5.786812305450439453e-01
3.045807182788848877e-01 1.041784584522247314e-01 7.743738293647766113e-01
5.289316177368164062e-01 9.676486998796463013e-02 -1.528539806604385376e-01
4.261615574359893799e-01 1.210451200604438782e-01 1.293232589960098267e-01
3.335833251476287842e-01 1.092328429222106934e-01 -6.216594576835632324e-01
1.515015512704849243e-01 8.183011412620544434e-02 -1.594662964344024658e-01
3.362121284008026123e-01 1.063760295510292053e-01 7.328172922134399414e-01
2.318339347839355469e-01 1.189570799469947815e-01 8.645512163639068604e-02
4.520727097988128662e-01 7.450062781572341919e-02 1.394565403461456299e-01
4.011704027652740479e-01 7.302634418010711670e-02 -3.786071538925170898e-01
2.961767911911010742e-01 6.672935187816619873e-02 4.143252372741699219e-01
1.975916624069213867e-01 8.153244853019714355e-02 -3.808968365192413330e-01
4.886523485183715820e-01 1.140594184398651123e-01 -2.545909285545349121e-01
2.940627932548522949e-01 1.088828891515731812e-01 -5.762482881546020508e-01
2.133328914642333984e-01 6.803212314844131470e-02 -3.868120536208152771e-02
4.181978404521942139e-01 7.702692598104476929e-02 -4.655814766883850098e-01
5.131855010986328125e-01 8.939989656209945679e-02 1.139686107635498047e-01
1.916326582431793213e-01 1.130957826972007751e-01 3.431675434112548828e-01
2.941783666610717773e-01 1.172094047069549561e-01 5.085866451263427734e-01
1.589464247226715088e-01 1.055643558502197266e-01 -9.519855678081512451e-02
1.775142103433609009e-01 1.087093874812126160e-01 -1.454639434814453125e-01
3.623269200325012207e-01 6.701077520847320557e-02 -1.586537063121795654e-01
2.244375646114349365e-01 1.136986389756202698e-01 4.965290129184722900e-01
1.310502886772155762e-01 9.479795396327972412e-02 4.709094464778900146e-01
2.391735315322875977e-01 6.701451539993286133e-02 3.953369855880737305e-01
3.219355642795562744e-01 1.215872466564178467e-01 3.242241144180297852e-01
1.815744340419769287e-01 1.074786484241485596e-01 -2.140387296676635742e-01
3.820404410362243652e-01 7.264270633459091187e-02 -4.063525199890136719e-01
4.942463040351867676e-01 8.389955759048461914e-02 1.739148944616317749e-01
4.400620460510253906e-01 7.836569845676422119e-02 4.020926952362060547e-01
2.295698374509811401e-01 6.617569923400878906e-02 2.828934490680694580e-01
3.376246988773345947e-01 1.172534599900245667e-01 5.108536481857299805e-01
3.250450193881988525e-01 1.121821627020835876e-01 -5.655325055122375488e-01
5.257916450500488281e-01 9.635236859321594238e-02 3.651226684451103210e-02
2.774736881256103516e-01 1.219450086355209351e-01 -2.949285134673118591e-02
2.806569039821624756e-01 1.201954782009124756e-01 3.501979410648345947e-01
2.133082747459411621e-01 7.232756167650222778e-02 -2.424760758876800537e-01
4.871985018253326416e-01 7.958172261714935303e-02 -1.020332574844360352e-01
4.988403916358947754e-01 1.055824682116508484e-01 -4.345703423023223877e-01
2.954142093658447266e-01 6.416936218738555908e-02 1.327458918094635010e-01
3.738929033279418945e-01 1.184924468398094177e-01 4.295416176319122314e-01
4.305362999439239502e-01 1.214730665087699890e-01 -1.357971876859664917e-01
4.312807917594909668e-01 1.148099303245544434e-01 -4.882078766822814941e-01
3.854573965072631836e-01 7.449452579021453857e-02 -4.598429799079895020e-01
4.122939705848693848e-01 1.203453093767166138e-01 2.489522248506546021e-01
3.774941861629486084e-01 6.855961680412292480e-02 3.052188456058502197e-01
3.518405258655548096e-01 6.705007702112197876e-02 3.148638606071472168e-01
3.226476311683654785e-01 6.684957444667816162e-02 3.845631778240203857e-01
4.918652772903442383e-01 8.200591802597045898e-02 -2.415826618671417236e-01
2.082988917827606201e-01 1.162934452295303345e-01 2.197932302951812744e-01
2.016352713108062744e-01 1.127017065882682800e-01 -1.649772226810455322e-01
2.778374254703521729e-01 6.874461472034454346e-02 -2.803136706352233887e-01
4.668254256248474121e-01 7.758229970932006836e-02 1.820972710847854614e-01
3.328469097614288330e-01 8.531690388917922974e-02 -6.652485132217407227e-01
2.169702798128128052e-01 1.068244576454162598e-01 -4.031538665294647217e-01
4.679706096649169922e-01 8.308602124452590942e-02 3.622047305107116699e-01
4.346258342266082764e-01 9.891615062952041626e-02 -6.701681017875671387e-01
2.157123684883117676e-01 6.681392341852188110e-02 7.249519973993301392e-02
3.444566428661346436e-01 6.537100672721862793e-02 1.782898604869842529e-01
3.140314817428588867e-01 1.191445589065551758e-01 -3.600507974624633789e-01
3.704012930393218994e-01 7.819476723670959473e-02 -5.639528632164001465e-01
3.911396861076354980e-01 1.200348809361457825e-01 -3.677276074886322021e-01
2.796032428741455078e-01 6.586164236068725586e-02 3.659303784370422363e-01
4.230109751224517822e-01 7.052816450595855713e-02 1.045328229665756226e-01
4.528452455997467041e-01 1.186573728919029236e-01 1.259358674287796021e-01
2.697419822216033936e-01 7.935709506273269653e-02 7.613477706909179688e-01
4.496087431907653809e-01 1.031575053930282593e-01 5.305979847908020020e-01
4.548622369766235352e-01 1.110070794820785522e-01 4.004824161529541016e-01
4.257291555404663086e-01 7.232112437486648560e-02 -2.448695003986358643e-01
4.999053180217742920e-01 8.244428038597106934e-02 -5.083927139639854431e-02
1.414817869663238525e-01 8.423666656017303467e-02 5.416712760925292969e-01
4.608082771301269531e-01 8.351489901542663574e-02 -4.889034032821655273e-01
1.803045123815536499e-01 1.100459396839141846e-01 -1.145080029964447021e-01
3.917796015739440918e-01 7.792629301548004150e-02 5.781458020210266113e-01
1.724657714366912842e-01 7.079126685857772827e-02 2.598717808723449707e-01
3.706645965576171875e-01 1.154513657093048096e-01 5.284551382064819336e-01
3.174679577350616455e-01 9.088945388793945312e-02 8.235688805580139160e-01
4.287467002868652344e-01 7.095082849264144897e-02 -6.928925216197967529e-02
3.105014860630035400e-01 1.235046535730361938e-01 7.759831845760345459e-02
3.532865047454833984e-01 1.173811107873916626e-01 -4.671496152877807617e-01
4.286876618862152100e-01 7.151953130960464478e-02 1.509832590818405151e-01
4.358172416687011719e-01 7.583659887313842773e-02 3.444730937480926514e-01
3.881998360157012939e-01 1.231785416603088379e-01 -1.507328897714614868e-01
3.659693300724029541e-01 1.232491731643676758e-01 -1.772335171699523926e-01
3.797740936279296875e-01 1.168998777866363525e-01 4.724696874618530273e-01
3.108401596546173096e-01 1.234810873866081238e-01 -1.005647704005241394e-02
2.692577540874481201e-01 1.002756506204605103e-01 8.074356913566589355e-01
3.410303890705108643e-01 6.505893915891647339e-02 5.244866013526916504e-03
3.304721117019653320e-01 7.839170098304748535e-02 -5.747637748718261719e-01
3.047811090946197510e-01 9.687982499599456787e-02 -6.842067241668701172e-01
2.703274488449096680e-01 1.192018389701843262e-01 3.831372559070587158e-01
3.798051476478576660e-01 8.065778762102127075e-02 6.555338501930236816e-01
1.673261821269989014e-01 7.322151213884353638e-02 4.143341481685638428e-01
4.593833684921264648e-01 1.142090708017349243e-01 -4.278833866119384766e-01
2.600296735763549805e-01 7.663381844758987427e-02 -4.704371690750122070e-01
3.286221027374267578e-01 6.537875533103942871e-02 -9.345898032188415527e-02
4.120950996875762939e-01 1.155153512954711914e-01 4.392966628074645996e-01
1.747173368930816650e-01 7.122802734375000000e-02 3.483924865722656250e-01
3.634757101535797119e-01 6.591090559959411621e-02 9.393800795078277588e-02
3.297814428806304932e-01 1.154245883226394653e-01 5.683140158653259277e-01
2.347725033760070801e-01 1.180330738425254822e-01 -9.811793267726898193e-02
5.206768512725830078e-01 1.033121496438980103e-01 -2.826558649539947510e-01
3.450129926204681396e-01 1.227820888161659241e-01 2.406542301177978516e-01
2.956541478633880615e-01 1.213106513023376465e-01 -1.995644867420196533e-01
4.701903462409973145e-01 8.117185533046722412e-02 2.987681627273559570e-01
2.363144755363464355e-01 1.090614125132560730e-01 6.568346023559570312e-01
