-5.197355747222900391e-01 1.498315036296844482e-01 -2.550334930419921875e-01
7.147878408432006836e-03 1.357325762510299683e-01 2.180083245038986206e-01
-3.251796364784240723e-01 1.026535779237747192e-01 -6.508669853210449219e-01
-4.511829614639282227e-01 -1.177187263965606689e-02 -1.434737592935562134e-01
-4.851116538047790527e-01 -2.039253711700439453e-03 1.779124885797500610e-01
-4.609815478324890137e-01 5.271776393055915833e-02 -5.798850059509277344e-01
-2.537164092063903809e-01 -1.260810345411300659e-02 -1.742433756589889526e-01
-1.985074877738952637e-01 7.388224452733993530e-02 -6.293517351150512695e-01
-6.212183237075805664e-01 4.722503200173377991e-02 1.932384222745895386e-01
-4.242756962776184082e-01 1.696728914976119995e-01 2.322882562875747681e-01
-3.111287951469421387e-02 4.511413723230361938e-02 -3.089485466480255127e-01
-2.355047762393951416e-01 2.110087126493453979e-02 -5.057035684585571289e-01
-5.383440256118774414e-01 9.498856961727142334e-02 -4.937546849250793457e-01
-2.061783075332641602e-01 -8.791379630565643311e-03 -1.531474739313125610e-01
-1.961304992437362671e-01 1.874943673610687256e-01 -5.711517855525016785e-02
-8.912208676338195801e-02 1.436140537261962891e-01 4.075160324573516846e-01
-5.914307832717895508e-01 1.178883612155914307e-01 2.392483502626419067e-01
-3.342912495136260986e-01 6.974728405475616455e-02 -6.582527160644531250e-01
-3.225639462471008301e-02 1.513824760913848877e-01 2.397677451372146606e-01
-1.961823999881744385e-01 -8.135296404361724854e-03 6.995522975921630859e-02
-1.639783680438995361e-01 1.793884038925170898e-01 -2.155968695878982544e-01
-2.691248059272766113e-02 6.890311837196350098e-02 3.676484525203704834e-01
1.824417710304260254e-02 1.151116490364074707e-01 -2.791608273983001709e-01
-1.484216451644897461e-01 1.477473378181457520e-01 4.558685123920440674e-01
-4.467179775238037109e-01 -1.101402193307876587e-02 9.845668077468872070e-02
-3.970790505409240723e-01 1.731659621000289917e-01 -2.572343945503234863e-01
-3.592607378959655762e-01 1.796655505895614624e-01 1.980749219655990601e-01
-4.980062842369079590e-01 9.920500218868255615e-03 2.838886678218841553e-01
-1.608456373214721680e-01 1.841937601566314697e-01 9.514479339122772217e-02
-3.976176977157592773e-01 6.704457849264144897e-02 5.853118896484375000e-01
-4.698092341423034668e-01 -6.365291774272918701e-03 -2.226642072200775146e-01
-3.106482625007629395e-01 1.420982629060745239e-01 5.238410234451293945e-01
-1.254953593015670776e-01 1.606439203023910522e-01 3.573811352252960205e-01
-5.748084783554077148e-01 2.003104984760284424e-02 -2.600967586040496826e-01
-3.711088895797729492e-01 1.699259877204895020e-01 -3.321893811225891113e-01
-3.281176984310150146e-01 1.738703548908233643e-01 -3.257057666778564453e-01
2.322068810462951660e-02 5.300644785165786743e-02 -6.170838326215744019e-02
-6.277619004249572754e-01 -6.821014732122421265e-02 7.387207448482513428e-02
-3.684058785438537598e-02 -7.376380264759063721e-02 4.100905656814575195e-01
-8.964635431766510010e-02 -4.640417173504829407e-02 2.387539595365524292e-01
-4.144198298454284668e-01 -2.702762931585311890e-02 7.323824614286422729e-02
-3.450475335121154785e-01 -1.767018139362335205e-01 -1.475507915019989014e-01
-5.557231903076171875e-01 -1.420465707778930664e-01 1.880650222301483154e-02
1.551842540502548218e-01 -1.287197321653366089e-01 5.421748757362365723e-02
-1.501621305942535400e-01 -7.628060132265090942e-02 5.351278185844421387e-01
-4.173570871353149414e-01 -3.160841763019561768e-02 2.014307081699371338e-01
2.408711612224578857e-02 -1.664756536483764648e-01 2.277993708848953247e-01
-2.636926472187042236e-01 -1.826848983764648438e-01 9.367947280406951904e-02
-2.899807095527648926e-01 -2.521178871393203735e-02 -1.186656355857849121e-01
-7.768437266349792480e-03 -7.621618360280990601e-02 3.782370686531066895e-01
-2.314856946468353271e-01 -1.136265024542808533e-01 6.119627356529235840e-01
8.820785582065582275e-02 -7.906031608581542969e-02 1.287695765495300293e-01
-2.746892571449279785e-01 -1.625483334064483643e-01 4.063443541526794434e-01
-1.168033853173255920e-01 -6.022379547357559204e-02 -4.907276034355163574e-01
-3.784145414829254150e-02 -4.993267729878425598e-02 1.598994880914688110e-01
-1.017009466886520386e-01 -1.807437241077423096e-01 1.890798062086105347e-01
5.786612629890441895e-03 -8.909080922603607178e-02 4.189248681068420410e-01
-5.029384493827819824e-01 -4.736982285976409912e-02 2.971855401992797852e-01
-6.327947974205017090e-02 -1.844580173492431641e-01 -2.098826691508293152e-03
-5.081896781921386719e-01 -1.532436162233352661e-01 -9.552448987960815430e-02
-5.125877857208251953e-01 -5.423858389258384705e-02 3.399851918220520020e-01
-4.168441891670227051e-01 -1.657913625240325928e-01 -2.154502719640731812e-01
-2.306840717792510986e-01 -6.423668563365936279e-02 5.206854343414306641e-01
-1.340618729591369629e-01 -1.864876002073287964e-01 2.936936914920806885e-02
-3.564317822456359863e-01 -1.767787039279937744e-01 -7.846084237098693848e-02
-3.397105336189270020e-01 -1.299138665199279785e-01 5.566206574440002441e-01
-1.447252482175827026e-01 -3.480567783117294312e-02 1.259701997041702271e-01
-4.940387606620788574e-02 -1.737983524799346924e-01 -3.331856131553649902e-01
-3.451827466487884521e-01 -1.425699591636657715e-01 -5.508345961570739746e-01
1.210863888263702393e-02 -6.283470243215560913e-02 2.118029147386550903e-01
-5.544002354145050049e-02 -5.504132062196731567e-02 -3.594338297843933105e-01
-5.252506136894226074e-01 -1.498388051986694336e-01 -6.532599031925201416e-02
1.083090752363204956e-01 -9.952030330896377563e-02 -3.196052908897399902e-01
1.608268171548843384e-01 -1.172748208045959473e-01 -4.300886020064353943e-02
-3.153001964092254639e-01 -4.071283340454101562e-02 -4.147446155548095703e-01
-3.762733936309814453e-01 -4.728675633668899536e-02 -4.556436538696289062e-01
-2.097315192222595215e-01 -7.780435681343078613e-02 5.684624314308166504e-01
-1.085892617702484131e-01 -1.730403304100036621e-01 3.087762594223022461e-01
-1.661115586757659912e-01 -3.080265223979949951e-02 2.782775834202766418e-02
-4.225131869316101074e-01 -3.463090956211090088e-02 -2.842369675636291504e-01
-6.775672733783721924e-02 -7.162131369113922119e-02 -5.135413408279418945e-01
-5.436548590660095215e-02 -1.838642954826354980e-01 -8.826069533824920654e-02
-2.482206374406814575e-01 -1.646248102188110352e-01 -4.611249566078186035e-01
-3.571451902389526367e-01 -5.001611262559890747e-02 4.414590597152709961e-01
-5.179213285446166992e-01 -3.902298212051391602e-02 -1.708378791809082031e-01
-3.099364638328552246e-01 -5.331524088978767395e-02 4.708693027496337891e-01
-1.033993363380432129e-01 -3.938702493906021118e-02 1.307930052280426025e-01
-1.284654438495635986e-02 -1.573663949966430664e-01 3.651916384696960449e-01
7.615010440349578857e-02 -8.935517817735671997e-02 -3.613206148147583008e-01
-3.125745058059692383e-01 -1.805323213338851929e-01 -9.546290338039398193e-02
-1.369346082210540771e-01 -1.404774188995361328e-01 -6.078484058380126953e-01
-3.529522418975830078e-01 -1.585719436407089233e-01 -4.325296282768249512e-01
-5.038830637931823730e-01 -1.498377919197082520e-01 -2.144988477230072021e-01
8.152604103088378906e-03 -1.343110650777816772e-01 -5.278232097625732422e-01
-4.686165750026702881e-01 -1.495943516492843628e-01 -3.280689120292663574e-01
-1.188845336437225342e-01 -4.495606943964958191e-02 -3.400283455848693848e-01
9.661214053630828857e-02 -1.478955149650573730e-01 2.212161272764205933e-01
3.273113071918487549e-02 -5.968974530696868896e-02 4.016286879777908325e-02
-7.241088151931762695e-02 -1.824851334095001221e-01 1.154276877641677856e-01
-3.991613388061523438e-01 -1.615805625915527344e-01 2.849723100662231445e-01
-3.259340226650238037e-01 -1.574014127254486084e-01 -4.699960350990295410e-01
-5.078917145729064941e-01 -8.787865936756134033e-02 4.671542048454284668e-01
8.708705008029937744e-02 -8.769229054450988770e-02 2.253329306840896606e-01
-4.273847937583923340e-01 -2.688155323266983032e-02 -3.222196549177169800e-02
5.345208942890167236e-02 -6.419348716735839844e-02 1.169527322053909302e-02
-2.432083636522293091e-01 -2.798077464103698730e-02 -1.776754111051559448e-01
-4.615430533885955811e-02 -4.439878091216087341e-02 9.915098547935485840e-03
-4.648804366588592529e-01 -3.442183136940002441e-02 1.850929558277130127e-01
-3.561846911907196045e-01 -1.481226682662963867e-01 -5.096625089645385742e-01
-3.430204391479492188e-01 -3.440111130475997925e-02 -3.340989947319030762e-01
-5.201336741447448730e-01 -3.611809015274047852e-02 1.989527791738510132e-02
-3.745999932289123535e-01 -1.505139321088790894e-01 4.267616868019104004e-01
1.298682540655136108e-01 -1.230494827032089233e-01 -2.999452352523803711e-01
-2.863218784332275391e-01 -1.806289404630661011e-01 -1.799429506063461304e-01
-5.436857938766479492e-01 -1.359862238168716431e-01 -2.601525187492370605e-01
1.587199121713638306e-01 -1.170614138245582581e-01 -1.156071797013282776e-01
-3.210001885890960693e-01 -1.803008466958999634e-01 -2.387159876525402069e-02
7.579530775547027588e-02 -1.625508069992065430e-01 1.386336982250213623e-01
-3.486845195293426514e-01 -2.528805285692214966e-02 -1.290954649448394775e-01
-3.198601305484771729e-01 -1.589471399784088135e-01 4.085673689842224121e-01
1.145844310522079468e-01 -1.322377622127532959e-01 -3.364098668098449707e-01
-3.040254116058349609e-03 -1.799179315567016602e-01 -2.419848367571830750e-02
-1.870674937963485718e-01 -5.682958289980888367e-02 -5.183693766593933105e-01
-3.109875619411468506e-01 -1.740367710590362549e-01 -2.913330197334289551e-01
-3.208228647708892822e-01 -1.673628836870193481e-01 -3.760133385658264160e-01
-3.794390261173248291e-01 -3.392242640256881714e-02 2.708086967468261719e-01
-2.838664352893829346e-01 -2.809681743383407593e-02 1.671166270971298218e-01
-4.515319764614105225e-01 -2.948020398616790771e-02 -1.087990403175354004e-01
-1.155701577663421631e-01 -1.865941882133483887e-01 -5.170123279094696045e-02
1.235093921422958374e-01 -9.121946245431900024e-02 8.183261007070541382e-02
-2.865065336227416992e-01 -1.816552430391311646e-01 -1.395093500614166260e-01
2.989248931407928467e-02 -1.732192039489746094e-01 -1.912531107664108276e-01
-2.399710416793823242e-01 -1.853040605783462524e-01 -2.651692181825637817e-02
-2.900820076465606689e-01 -1.819825172424316406e-01 5.056738108396530151e-02
-3.149719238281250000e-01 -1.805531084537506104e-01 2.123296260833740234e-02
-1.539951264858245850e-01 -1.233861520886421204e-01 5.849965214729309082e-01
-6.340990960597991943e-02 -4.447757080197334290e-02 -1.980356574058532715e-01
-1.100142449140548706e-01 -4.688149318099021912e-02 2.840706110000610352e-01
-2.219128161668777466e-01 -8.257535099983215332e-02 -6.445110440254211426e-01
-6.254216432571411133e-01 -6.521862745285034180e-02 -5.616206675767898560e-02
-1.260998547077178955e-01 -1.374014765024185181e-01 5.422049164772033691e-01
-3.230861425399780273e-01 -1.655189990997314453e-01 3.411245942115783691e-01
2.908597886562347412e-02 -5.799739807844161987e-02 -4.975786805152893066e-02
-3.056885600090026855e-01 -2.556075900793075562e-02 9.807197749614715576e-02
-2.097654044628143311e-01 -1.857765913009643555e-01 4.331867396831512451e-02
-2.008766233921051025e-01 -1.848562359809875488e-01 9.865054488182067871e-02
-2.290538996458053589e-01 -2.908872067928314209e-02 1.382353305816650391e-01
1.016825586557388306e-01 -1.596982330083847046e-01 -1.596553176641464233e-01
-2.025700509548187256e-01 -1.526766121387481689e-01 -5.589028000831604004e-01
-1.904258131980895996e-02 -1.611577719449996948e-01 -4.297032952308654785e-01
-2.322438359260559082e-01 -1.459479033946990967e-01 5.267821550369262695e-01
-4.702250957489013672e-01 -4.758264124393463135e-02 3.454435467720031738e-01
-5.588812232017517090e-01 -1.371712386608123779e-01 1.457556486129760742e-01
6.153300404548645020e-03 -1.774753034114837646e-01 6.660117208957672119e-02
-1.414120495319366455e-01 -3.392694145441055298e-02 8.278949558734893799e-02
-3.823617696762084961e-01 -1.669860333204269409e-01 2.360274344682693481e-01
-1.110468953847885132e-01 -1.697653234004974365e-01 3.455465435981750488e-01
-2.618765830993652344e-02 -5.459930375218391418e-02 2.075693756341934204e-01
-2.535069882869720459e-01 -1.844278872013092041e-01 2.181733027100563049e-02
-1.996764689683914185e-01 -1.705623865127563477e-01 3.534378409385681152e-01
-5.406095385551452637e-01 -1.020778641104698181e-01 4.130650162696838379e-01
-3.534004092216491699e-01 -1.770274639129638672e-01 3.209309652447700500e-02
-4.400364458560943604e-01 -1.232696920633316040e-01 -5.400797128677368164e-01
-4.979953765869140625e-01 -3.974910080432891846e-02 2.120258212089538574e-01
-1.941097974777221680e-01 -3.084628283977508545e-02 -1.868343353271484375e-01
-3.623368740081787109e-01 -1.742477267980575562e-01 1.218680888414382935e-01
-5.415533781051635742e-01 -3.943119943141937256e-02 -2.260332740843296051e-02
-2.677254676818847656e-01 -4.204946756362915039e-02 -4.254328012466430664e-01
-2.287891209125518799e-01 -3.121830523014068604e-02 -2.479273676872253418e-01
2.392168343067169189e-02 -7.960073649883270264e-02 3.386290073394775391e-01
-3.146227300167083740e-01 -1.775384843349456787e-01 -2.093666493892669678e-01
-1.787443459033966064e-01 -2.950121462345123291e-02 -3.899618610739707947e-02
-3.611184358596801758e-01 -1.665851324796676636e-01 -3.303087949752807617e-01
-2.303199023008346558e-01 -1.455299556255340576e-01 -5.911462903022766113e-01
-6.238651871681213379e-01 -7.057952880859375000e-02 1.332304626703262329e-01
5.931769311428070068e-02 -1.631900668144226074e-01 1.834507137537002563e-01
-3.930985033512115479e-01 -3.854966908693313599e-02 -3.623266816139221191e-01
-6.351578831672668457e-01 -1.046072691679000854e-01 5.520327389240264893e-02
-1.731189340353012085e-01 -1.760223805904388428e-01 -3.591266870498657227e-01
9.518925845623016357e-02 -1.532447189092636108e-01 1.825405806303024292e-01
-1.915973424911499023e-01 -7.457704842090606689e-02 -6.123270988464355469e-01
-1.486380696296691895e-01 -1.816086322069168091e-01 -2.674092054367065430e-01
-5.132234692573547363e-01 -4.026173055171966553e-02 -2.104503959417343140e-01
-5.368478894233703613e-01 -4.789398610591888428e-02 2.336937636137008667e-01
-7.825928926467895508e-02 -4.375831037759780884e-02 -2.313958704471588135e-01
-6.260061264038085938e-01 -1.133146882057189941e-01 1.320893317461013794e-02
-1.994479447603225708e-01 -6.321370601654052734e-02 5.029411911964416504e-01
4.913111031055450439e-02 -1.553648263216018677e-01 2.831241488456726074e-01
-1.930005848407745361e-02 -1.762153208255767822e-01 -2.533184885978698730e-01
-5.341432094573974609e-01 -7.081124186515808105e-02 3.932437300682067871e-01
5.313588678836822510e-02 -1.101389601826667786e-01 3.912091255187988281e-01
-2.205329537391662598e-01 -1.259134858846664429e-01 -6.557137370109558105e-01
-1.923267543315887451e-01 -1.825215965509414673e-01 1.720682531595230103e-01
-6.027530431747436523e-01 -5.885935202240943909e-02 -1.468788385391235352e-01
-4.652757644653320312e-01 -1.445486396551132202e-01 -3.852753043174743652e-01
-1.598495841026306152e-01 -1.610269695520401001e-01 -5.062575936317443848e-01
-1.326486766338348389e-01 -1.570115238428115845e-01 -5.285339951515197754e-01
-9.774285554885864258e-02 -1.282983422279357910e-01 -6.248466968536376953e-01
-5.985759496688842773e-01 -8.673071116209030151e-02 -3.102582097053527832e-01
-2.361695021390914917e-01 -3.003653138875961304e-02 1.736299842596054077e-01
-1.634774208068847656e-01 -1.546408683061599731e-01 4.783345460891723633e-01
6.012482941150665283e-02 -9.899570047855377197e-02 -4.428376555442810059e-01
-3.301149904727935791e-01 -2.979858219623565674e-02 -2.608871459960937500e-01
-4.269913434982299805e-01 -1.388639211654663086e-01 -4.868495464324951172e-01
-3.877863883972167969e-01 -1.719744652509689331e-01 -1.492175161838531494e-01
-3.509527444839477539e-01 -1.766431927680969238e-01 7.207487523555755615e-02
-2.230762690305709839e-01 -1.856997162103652954e-01 -8.299405872821807861e-02
9.746183454990386963e-02 -7.759414613246917725e-02 2.032560110092163086e-02
1.586951464414596558e-01 -1.134929358959197998e-01 -8.029976487159729004e-02
-7.722446322441101074e-02 -9.098423272371292114e-02 -5.999372601509094238e-01
-8.612772822380065918e-02 -3.879474848508834839e-02 5.000174045562744141e-03
-2.450880706310272217e-01 -3.214950114488601685e-02 -2.812045216560363770e-01
8.705388009548187256e-02 -7.333882898092269897e-02 -4.220357909798622131e-02
-6.432340145111083984e-01 -8.171652257442474365e-02 2.687931805849075317e-02
-3.630460500717163086e-01 -9.083457291126251221e-02 -6.331095099449157715e-01
-4.495499432086944580e-01 -8.369032293558120728e-02 5.250221490859985352e-01
-5.528918504714965820e-01 -1.342013478279113770e-01 2.171794027090072632e-01
-4.273408651351928711e-01 -1.554910987615585327e-01 -3.511285185813903809e-01
6.497602164745330811e-02 -1.673837900161743164e-01 9.390451759099960327e-02
-5.484897494316101074e-01 -5.846844613552093506e-02 3.041074275970458984e-01
-2.734959125518798828e-01 -1.743788421154022217e-01 2.714477181434631348e-01
-8.034168183803558350e-02 -7.617173343896865845e-02 -5.500609278678894043e-01
-5.340599417686462402e-01 -1.436139494180679321e-01 -1.899744570255279541e-01
-5.079981088638305664e-01 -3.643183410167694092e-02 1.147089749574661255e-01
-2.521386146545410156e-01 -5.815230309963226318e-02 4.939280748367309570e-01
-5.811204910278320312e-01 -1.150679364800453186e-01 -3.021681904792785645e-01
-3.897795975208282471e-01 -1.706028878688812256e-01 -1.860823482275009155e-01
-2.037428319454193115e-02 -1.407784074544906616e-01 4.556376934051513672e-01
-5.116996169090270996e-01 -3.518308699131011963e-02 -6.824146211147308350e-02
-4.315640926361083984e-01 -1.576035916805267334e-01 2.737284898757934570e-01
-3.800604045391082764e-01 -7.215124368667602539e-02 5.426387190818786621e-01
-3.052089512348175049e-01 -3.509996831417083740e-02 -3.484327197074890137e-01
-4.300040900707244873e-01 -1.596593856811523438e-01 -2.906615734100341797e-01
-1.860111057758331299e-01 -5.127624049782752991e-02 -4.755926728248596191e-01
-1.797062009572982788e-01 -1.727353930473327637e-01 -3.996474146842956543e-01
-4.329664707183837891e-01 -3.193674236536026001e-02 -2.223326563835144043e-01
4.876165091991424561e-02 -6.915271282196044922e-02 -2.545074224472045898e-01
5.611802637577056885e-02 -1.713876575231552124e-01 1.857758685946464539e-02
6.032882630825042725e-02 -7.197152078151702881e-02 1.605926305055618286e-01
7.682929933071136475e-02 -7.057832181453704834e-02 -9.444472938776016235e-02
1.087783724069595337e-01 -1.520331203937530518e-01 1.433953493833541870e-01
-1.399892866611480713e-01 -1.690581142902374268e-01 3.638094067573547363e-01
-1.632380187511444092e-01 -6.337945163249969482e-02 4.826908707618713379e-01
-1.391784548759460449e-01 -3.689245879650115967e-02 -2.325275093317031860e-01
-2.351632714271545410e-02 -4.994972795248031616e-02 -1.753210574388504028e-01
-2.475050836801528931e-01 -1.614379286766052246e-01 4.270655512809753418e-01
-1.729210764169692993e-01 -1.836596429347991943e-01 -2.185999453067779541e-01
-1.239206641912460327e-01 -7.274983823299407959e-02 -5.701339840888977051e-01
-5.189776420593261719e-02 -1.826010048389434814e-01 6.960354000329971313e-02
5.546410381793975830e-02 -1.655453443527221680e-01 -2.550122141838073730e-01
-1.158565282821655273e-02 -5.018592253327369690e-02 1.236978545784950256e-02
-4.125298857688903809e-01 -1.700252592563629150e-01 4.177435487508773804e-02
-1.219443678855895996e-01 -1.627523601055145264e-01 4.118141531944274902e-01
-3.607453703880310059e-01 -6.201244518160820007e-02 -5.539838075637817383e-01
-5.611081719398498535e-01 -4.596709087491035461e-02 -1.418649554252624512e-01
-3.974243402481079102e-01 -2.541370689868927002e-02 1.867048442363739014e-03
-3.809360861778259277e-01 -7.214060425758361816e-02 -5.844277143478393555e-01
-1.320515871047973633e-01 -1.484213322401046753e-01 -5.745735764503479004e-01
-3.485001623630523682e-02 -9.291376173496246338e-02 -5.655312538146972656e-01
-1.153865754604339600e-01 -3.781184554100036621e-02 -1.924725621938705444e-01
-5.369236469268798828e-01 -1.461717784404754639e-01 7.352685928344726562e-02
-4.583050608634948730e-01 -3.961094468832015991e-02 -3.089416027069091797e-01
-1.569260954856872559e-01 -1.325358897447586060e-01 -6.361562013626098633e-01
9.518735110759735107e-02 -1.229439079761505127e-01 -4.012480974197387695e-01
7.210330665111541748e-02 -1.473159492015838623e-01 -3.806602358818054199e-01
-8.586655557155609131e-02 -1.680807024240493774e-01 -4.256437420845031738e-01
-1.750863492488861084e-01 -1.623182594776153564e-01 4.283742904663085938e-01
-5.882548093795776367e-01 -5.070249736309051514e-02 -7.393218576908111572e-02
-2.207260578870773315e-01 -1.712733507156372070e-01 -4.060112833976745605e-01
-3.490695953369140625e-01 -1.727134883403778076e-01 -2.481653988361358643e-01
-4.289573431015014648e-01 -1.373002082109451294e-01 4.517007470130920410e-01
-4.122950434684753418e-01 -3.904359042644500732e-02 3.163082003593444824e-01
-3.024537861347198486e-01 -1.768456399440765381e-01 1.928624063730239868e-01
-4.408429861068725586e-01 -1.662072241306304932e-01 -5.949050933122634888e-02
-4.398024976253509521e-01 -1.255761384963989258e-01 4.928985834121704102e-01
1.274952143430709839e-01 -8.920007199048995972e-02 -6.655181944370269775e-02
-5.403358936309814453e-01 -1.452839523553848267e-01 -1.039952486753463745e-01
1.343364566564559937e-01 -9.823950380086898804e-02 -1.863840073347091675e-01
-5.548022389411926270e-01 -7.650902122259140015e-02 -3.991245031356811523e-01
-1.373670399188995361e-01 -1.737482249736785889e-01 -3.859450817108154297e-01
-1.840929090976715088e-01 -3.537927567958831787e-02 -2.795891165733337402e-01
-7.006582617759704590e-02 -1.396105289459228516e-01 5.031010508537292480e-01
-1.121401637792587280e-01 -5.102516338229179382e-02 -4.045875668525695801e-01
-6.389518976211547852e-01 -7.457326352596282959e-02 -9.257186204195022583e-03
-8.348509669303894043e-02 -1.849178671836853027e-01 -1.200675964355468750e-01
-1.475494056940078735e-01 -1.860138475894927979e-01 6.535337865352630615e-02
-1.132711619138717651e-01 -1.657738983631134033e-01 -4.590597748756408691e-01
-2.996197938919067383e-01 -2.485286444425582886e-02 5.881403386592864990e-02
-3.041730523109436035e-01 -2.415038645267486572e-02 -3.740908578038215637e-02
1.219919174909591675e-01 -1.549094617366790771e-01 -1.026519015431404114e-01
-3.914635479450225830e-01 -1.596375405788421631e-01 -3.685795068740844727e-01
-3.855842053890228271e-01 -1.338364183902740479e-01 5.116975903511047363e-01
-4.157658517360687256e-01 -1.453073322772979736e-01 4.176098704338073730e-01
-8.602923154830932617e-02 -4.024592041969299316e-02 -1.589299887418746948e-01
-4.654934406280517578e-01 -1.555300354957580566e-01 -2.560833990573883057e-01
-4.261914193630218506e-01 -1.630051136016845703e-01 2.010254412889480591e-01
7.757991552352905273e-04 -5.272453278303146362e-02 -1.082074195146560669e-01
-4.103633165359497070e-01 -1.151689812541007996e-01 -5.910747647285461426e-01
6.080706417560577393e-02 -1.710237860679626465e-01 -1.592237502336502075e-02
-2.732941210269927979e-01 -1.771883666515350342e-01 2.240638583898544312e-01
1.472948640584945679e-01 -1.027778685092926025e-01 2.067527174949645996e-02
-7.426609098911285400e-02 -4.609370231628417969e-02 1.966568678617477417e-01
-7.752388715744018555e-03 -5.315078049898147583e-02 1.071373969316482544e-01
-4.749524593353271484e-01 -1.585274934768676758e-01 -1.519712805747985840e-01
-4.519765377044677734e-01 -2.855843305587768555e-02 -5.640875548124313354e-03
-3.130522966384887695e-01 -4.523159563541412354e-02 -4.577857851982116699e-01
-6.483128666877746582e-02 -1.614957749843597412e-01 3.872410058975219727e-01
-4.163404107093811035e-01 -1.667917072772979736e-01 1.481728106737136841e-01
-5.242540836334228516e-01 -1.436957418918609619e-01 2.009407430887222290e-01
-5.912314355373382568e-02 -1.339737027883529663e-01 -5.900087952613830566e-01
-4.848522841930389404e-01 -4.137172549962997437e-02 2.599124908447265625e-01
-1.609708666801452637e-01 -1.869374811649322510e-01 -7.148781418800354004e-02
-4.588213562965393066e-02 -1.653582006692886353e-01 3.390157222747802734e-01
-6.368428468704223633e-02 -5.704418197274208069e-02 -3.962592482566833496e-01
-5.710890889167785645e-01 -1.140563413500785828e-01 3.123016357421875000e-01
-3.805031776428222656e-01 -3.321549296379089355e-02 -2.993373274803161621e-01
2.313973009586334229e-02 -6.049532070755958557e-02 1.289321631193161011e-01
3.801022469997406006e-02 -1.736055910587310791e-01 5.209728330373764038e-02
-2.807402610778808594e-01 -3.051206469535827637e-02 2.194541841745376587e-01
-1.016470342874526978e-01 -5.189310759305953979e-02 3.302826881408691406e-01
-5.018700361251831055e-01 -3.726819902658462524e-02 1.565089672803878784e-01
-4.436944723129272461e-01 -4.010163247585296631e-02 2.999535202980041504e-01
-5.590111017227172852e-01 -1.033578664064407349e-01 3.749703168869018555e-01
1.141643077135086060e-01 -8.517396450042724609e-02 -1.456013619899749756e-01
-2.770614624023437500e-01 -2.751889079809188843e-02 -1.967339515686035156e-01
9.813041985034942627e-02 -1.615628749132156372e-01 4.014018177986145020e-02
-3.241991102695465088e-01 -6.228649616241455078e-02 -5.672494173049926758e-01
-4.826253056526184082e-01 -3.149204701185226440e-02 2.248960733413696289e-02
-3.465627133846282959e-01 -5.536982044577598572e-02 4.790095090866088867e-01
-3.509790599346160889e-01 -4.331928491592407227e-02 3.889495134353637695e-01
1.245540529489517212e-01 -9.627115726470947266e-02 1.332221180200576782e-01
-6.088601350784301758e-01 -5.703794956207275391e-02 2.241188287734985352e-02
1.107237786054611206e-01 -9.385150671005249023e-02 1.810291558504104614e-01
-4.688237011432647705e-01 -7.885827124118804932e-02 -5.320997238159179688e-01
6.715123355388641357e-02 -1.049680113792419434e-01 3.549591898918151855e-01
-1.397472321987152100e-01 -1.824524104595184326e-01 1.740960329771041870e-01
-4.305103421211242676e-01 -8.373996615409851074e-02 -5.782130360603332520e-01
-1.415160298347473145e-01 -5.938107147812843323e-02 4.403277039527893066e-01
-9.488217532634735107e-02 -4.413042590022087097e-02 -2.821333408355712891e-01
-5.967139601707458496e-01 -1.214483231306076050e-01 1.644172817468643188e-01
-3.722375035285949707e-01 -2.478940039873123169e-02 2.806186303496360779e-02
3.750056028366088867e-03 -1.661002933979034424e-01 -3.562471270561218262e-01
-1.293063759803771973e-01 -6.974466890096664429e-02 4.915122389793395996e-01
-3.751298189163208008e-01 -1.212085038423538208e-01 -6.068004965782165527e-01
-5.239737629890441895e-01 -1.482609659433364868e-01 1.109290122985839844e-01
-4.562079608440399170e-01 -1.355695575475692749e-01 -4.643335938453674316e-01
-1.117286086082458496e-02 -5.816580355167388916e-02 -2.965380549430847168e-01
-8.693623542785644531e-02 -1.722954362630844116e-01 -3.824684023857116699e-01
-2.301547378301620483e-01 -1.761772036552429199e-01 -3.377363085746765137e-01
3.770340979099273682e-02 -7.237327098846435547e-02 2.465243488550186157e-01
-5.859809517860412598e-01 -1.314039826393127441e-01 6.245636194944381714e-02
-2.649263143539428711e-01 -3.846577554941177368e-02 -3.848199248313903809e-01
-2.265679091215133667e-01 -3.650012612342834473e-02 -3.401659131050109863e-01
-5.818420052528381348e-01 -1.328160911798477173e-01 -9.139546751976013184e-02
-6.098638176918029785e-01 -1.175570562481880188e-01 -1.504590958356857300e-01
-3.394454419612884521e-01 -1.473435312509536743e-01 4.777697920799255371e-01
-7.466286420822143555e-02 -1.830223798751831055e-01 -1.830204427242279053e-01
-8.482739329338073730e-02 -3.901631385087966919e-02 -8.178468048572540283e-02
-4.771987199783325195e-01 -6.710954010486602783e-02 4.548535346984863281e-01
-4.968802332878112793e-01 -1.478601545095443726e-01 2.361903339624404907e-01
-4.046634435653686523e-01 -5.835571885108947754e-02 -5.117352008819580078e-01
-2.684429287910461426e-02 -1.804434061050415039e-01 -1.645646840333938599e-01
-1.269084811210632324e-01 -1.772640645503997803e-01 -3.370574116706848145e-01
-5.113407969474792480e-01 -1.117271184921264648e-01 4.425498843193054199e-01
-5.954970717430114746e-01 -5.539728328585624695e-02 1.160011589527130127e-01
-4.720532000064849854e-01 -3.040584176778793335e-02 -4.851242154836654663e-02
-6.059935688972473145e-01 -1.116007342934608459e-01 2.048693597316741943e-01
-4.300892949104309082e-01 -2.724687010049819946e-02 2.838619425892829895e-02
6.239943206310272217e-02 -1.570390760898590088e-01 2.406581193208694458e-01
2.557285130023956299e-02 -5.984259024262428284e-02 -1.832365989685058594e-01
-3.155779242515563965e-01 -3.380693495273590088e-02 2.835556864738464355e-01
4.742671549320220947e-02 -1.726412773132324219e-01 -1.223097071051597595e-01
-5.550329387187957764e-02 -1.787691116333007812e-01 -2.605331540107727051e-01
-3.742648363113403320e-01 -6.133880093693733215e-02 5.023519992828369141e-01
-2.907628417015075684e-01 -1.615824252367019653e-01 -4.628230333328247070e-01
-2.317689806222915649e-01 -2.640891820192337036e-02 9.176235646009445190e-03
-2.781376242637634277e-01 -6.792435050010681152e-02 5.462176799774169922e-01
-3.361099064350128174e-01 -1.693674623966217041e-01 2.764806151390075684e-01
-1.751999855041503906e-01 -1.657065451145172119e-01 -4.698765873908996582e-01
-1.561652868986129761e-01 -6.601119041442871094e-02 -5.572425127029418945e-01
-5.598728060722351074e-01 -1.345560997724533081e-01 1.828602552413940430e-01
-3.097540736198425293e-01 -6.450139731168746948e-02 5.315192937850952148e-01
-4.047344624996185303e-01 -2.615281194448471069e-02 -8.566457033157348633e-02
-8.256748318672180176e-03 -1.731891632080078125e-01 -2.855507135391235352e-01
-2.338181883096694946e-01 -4.135758429765701294e-02 -4.063248038291931152e-01
-1.467252671718597412e-01 -8.309240639209747314e-02 -6.226890683174133301e-01
-2.367815673351287842e-01 -3.329627215862274170e-02 2.415395230054855347e-01
-2.613844573497772217e-01 -5.151183158159255981e-02 4.529416561126708984e-01
-9.067255258560180664e-02 -5.664591491222381592e-02 -4.321588277816772461e-01
-1.142054796218872070e-03 -1.160139068961143494e-01 4.760648608207702637e-01
-3.278146982192993164e-01 -5.451500788331031799e-02 -5.236876010894775391e-01
1.373247653245925903e-01 -1.091012358665466309e-01 -2.451373338699340820e-01
-3.081445395946502686e-01 -2.771955728530883789e-02 -2.145983278751373291e-01
-1.214749142527580261e-01 -1.858556270599365234e-01 -1.312945187091827393e-01
-3.805119991302490234e-01 -1.744498312473297119e-01 -1.561520807445049286e-02
-4.034633338451385498e-01 -1.507958620786666870e-01 -4.361217021942138672e-01
-1.807710528373718262e-02 -1.740442067384719849e-01 2.029282003641128540e-01
1.175217330455780029e-02 -1.473888307809829712e-01 3.909698128700256348e-01
-5.041642189025878906e-01 -1.268396228551864624e-01 3.970621824264526367e-01
-2.242617458105087280e-01 -2.730343490839004517e-02 5.458676069974899292e-02
-1.925754845142364502e-01 -1.690315902233123779e-01 -4.375121593475341797e-01
-1.560847461223602295e-01 -4.336252063512802124e-02 -3.687812089920043945e-01
-5.394337177276611328e-01 -1.349427253007888794e-01 2.563017010688781738e-01
-4.841103255748748779e-01 -1.589182615280151367e-01 -2.659482881426811218e-02
-4.936875104904174805e-01 -5.808908119797706604e-02 3.921555876731872559e-01
2.405558526515960693e-02 -1.438470482826232910e-01 -4.775835275650024414e-01
-4.064593911170959473e-01 -3.617967665195465088e-02 -3.224511146545410156e-01
-6.166373491287231445e-01 -1.160406917333602905e-01 9.443147480487823486e-02
9.478808939456939697e-02 -8.090285211801528931e-02 -2.107433378696441650e-01
-4.374891519546508789e-01 -4.281158000230789185e-02 -3.701735734939575195e-01
-1.704304218292236328e-01 -1.792099773883819580e-01 -3.113968372344970703e-01
-2.902239859104156494e-01 -1.032954379916191101e-01 -6.672483682632446289e-01
-1.816134452819824219e-01 -3.042937815189361572e-02 7.838744670152664185e-02
-3.344126939773559570e-01 -7.643183320760726929e-02 5.704120397567749023e-01
-2.517692744731903076e-01 -1.771202683448791504e-01 -3.069467544555664062e-01
1.265887171030044556e-01 -1.412829011678695679e-01 -2.568063735961914062e-01
-1.351410597562789917e-01 -4.105132818222045898e-02 -3.065944314002990723e-01
1.499900370836257935e-01 -1.356365382671356201e-01 -1.606462895870208740e-01
-2.767202854156494141e-01 -1.792414188385009766e-01 -2.360753417015075684e-01
-5.228519439697265625e-01 -5.400995537638664246e-02 -3.476008176803588867e-01
-5.783088803291320801e-01 -5.370084196329116821e-02 -1.963457316160202026e-01
-2.766830027103424072e-01 -3.261280804872512817e-02 2.554817199707031250e-01
-1.223264858126640320e-01 -1.571902036666870117e-01 4.505546689033508301e-01
-3.242357075214385986e-02 -6.158336624503135681e-02 3.093990683555603027e-01
-6.114549636840820312e-01 -7.707531750202178955e-02 -2.466320991516113281e-01
-2.918346226215362549e-01 -9.462860971689224243e-02 6.098985671997070312e-01
-1.328361034393310547e-01 -3.716284036636352539e-02 1.587017625570297241e-01
-2.262351214885711670e-01 -1.577845066785812378e-01 4.594624638557434082e-01
-4.205885529518127441e-01 -1.537632197141647339e-01 3.390293121337890625e-01
-5.115537345409393311e-02 -4.355051368474960327e-02 -7.399772107601165771e-02
-2.757259905338287354e-01 -5.134284496307373047e-02 -5.065017938613891602e-01
-3.360459208488464355e-01 -1.088496223092079163e-01 5.999689698219299316e-01
-4.337945282459259033e-01 -1.661744564771652222e-01 -1.287847757339477539e-01
-4.221646189689636230e-01 -2.855060994625091553e-02 1.179548949003219604e-01
5.785296857357025146e-02 -8.824333548545837402e-02 -4.013025760650634766e-01
-3.443730473518371582e-01 -1.735469400882720947e-01 1.882093995809555054e-01
-4.254370927810668945e-01 -9.837260842323303223e-02 5.547945499420166016e-01
-2.477892786264419556e-01 -1.681250929832458496e-01 3.657118678092956543e-01
-1.077300310134887695e-02 -1.521426439285278320e-01 -4.799298048019409180e-01
-2.669017314910888672e-01 -1.558439880609512329e-01 4.620075225830078125e-01
-1.015851646661758423e-01 -1.846936196088790894e-01 -1.614551991224288940e-01
-2.434780597686767578e-01 -4.298145323991775513e-02 3.733664751052856445e-01
2.188067138195037842e-02 -7.831656932830810547e-02 -4.183860421180725098e-01
-7.830479741096496582e-02 -7.976575195789337158e-02 4.902373552322387695e-01
-2.736706137657165527e-01 -6.756582856178283691e-02 -5.972951054573059082e-01
6.054688990116119385e-02 -6.678145378828048706e-02 -1.328143477439880371e-01
-3.547299802303314209e-01 -1.746253073215484619e-01 -1.858671009540557861e-01
-3.763490319252014160e-01 -1.497786939144134521e-01 -4.779039025306701660e-01
-1.838202178478240967e-01 -3.642775863409042358e-02 2.382550984621047974e-01
-1.140516251325607300e-01 -1.845754086971282959e-01 1.016514897346496582e-01
-5.354510545730590820e-01 -1.448958367109298706e-01 -1.545901447534561157e-01
-1.304197907447814941e-01 -6.467172503471374512e-02 -5.319972038269042969e-01
-1.812738925218582153e-01 -4.962098971009254456e-02 3.968868851661682129e-01
-3.726594150066375732e-01 -1.685236692428588867e-01 -2.781731188297271729e-01
-2.866110503673553467e-01 -1.827494502067565918e-01 -5.754956230521202087e-02
-7.746486365795135498e-02 -1.773784458637237549e-01 -3.077189326286315918e-01
-2.692188024520874023e-01 -1.834864020347595215e-01 -9.396618604660034180e-02
-1.888593584299087524e-01 -1.664097011089324951e-01 3.949643969535827637e-01
-4.477142691612243652e-01 -3.548432141542434692e-02 2.320310622453689575e-01
5.257333815097808838e-02 -1.615411043167114258e-01 -3.125556707382202148e-01
1.259797066450119019e-01 -1.175142526626586914e-01 2.155607938766479492e-01
-2.890844643115997314e-01 -3.789413720369338989e-02 3.335352540016174316e-01
-3.908393383026123047e-01 -2.612562477588653564e-02 -1.176505833864212036e-01
1.290198117494583130e-01 -1.372786760330200195e-01 1.702853143215179443e-01
3.933294117450714111e-02 -1.605324447154998779e-01 -3.503391146659851074e-01
-3.737675845623016357e-01 -3.036262840032577515e-02 -2.541918158531188965e-01
-1.723996400833129883e-01 -1.013051196932792664e-01 -6.656286120414733887e-01
-5.713157653808593750e-01 -1.374711394309997559e-01 -1.767147518694400787e-02
-3.059313893318176270e-01 -1.639161258935928345e-01 3.733624815940856934e-01
-2.041256278753280640e-01 -3.566972166299819946e-02 -3.082277774810791016e-01
-4.528483152389526367e-01 -3.558810055255889893e-02 -2.589712440967559814e-01
1.144730299711227417e-01 -1.537692397832870483e-01 -1.913713514804840088e-01
-3.811889886856079102e-01 -2.674244344234466553e-02 -1.567337810993194580e-01
-6.375059485435485840e-03 -6.281549483537673950e-02 -3.438455462455749512e-01
4.972402751445770264e-02 -1.091161593794822693e-01 -4.847354292869567871e-01
-3.065050840377807617e-01 -1.523620933294296265e-01 -5.217938423156738281e-01
-5.217745304107666016e-01 -1.188591718673706055e-01 -4.324748516082763672e-01
-1.247526109218597412e-01 -5.598854273557662964e-02 3.980815410614013672e-01
-4.259502887725830078e-01 -2.835515886545181274e-02 -1.380335390567779541e-01
1.286005526781082153e-01 -1.487423181533813477e-01 7.826647162437438965e-02
-5.258612632751464844e-01 -1.352778822183609009e-01 -3.240656852722167969e-01
-5.182647705078125000e-01 -1.365392655134201050e-01 3.013918399810791016e-01
-3.035261332988739014e-01 -2.436304092407226562e-02 2.444645389914512634e-02
-2.784759104251861572e-01 -5.794864892959594727e-02 -5.494049787521362305e-01
-5.567839741706848145e-01 -1.111636757850646973e-01 -3.858041763305664062e-01
-8.817380666732788086e-02 -1.536812484264373779e-01 4.538676738739013672e-01
-2.760748267173767090e-01 -1.489489525556564331e-01 -5.592232346534729004e-01
-6.306186318397521973e-01 -1.098506376147270203e-01 -4.207785800099372864e-02
-1.179644018411636353e-01 -5.281370878219604492e-02 3.619216680526733398e-01
-4.918214082717895508e-01 -4.492414742708206177e-02 -3.193240761756896973e-01
-2.065967917442321777e-01 -1.817554533481597900e-01 -2.506703138351440430e-01
-3.251762390136718750e-01 -1.773902177810668945e-01 1.333037465810775757e-01
-1.781624555587768555e-02 -1.808367967605590820e-01 2.526043355464935303e-02
-3.469390571117401123e-01 -3.719169646501541138e-02 3.257398605346679688e-01
-2.879430353641510010e-01 -1.674041748046875000e-01 -4.079602360725402832e-01
-8.204430341720581055e-03 -5.515699833631515503e-02 -2.354905903339385986e-01
-5.998120903968811035e-01 -1.125705167651176453e-01 -2.476225793361663818e-01
1.110432296991348267e-01 -9.302490949630737305e-02 -2.669375538825988770e-01
-4.227672815322875977e-01 -4.624794796109199524e-02 -4.159111380577087402e-01
-5.369010567665100098e-01 -1.231508031487464905e-01 3.510640859603881836e-01
-3.929193615913391113e-01 -2.809356153011322021e-02 1.467731297016143799e-01
-4.733547568321228027e-03 -6.368232518434524536e-02 2.694674730300903320e-01
-2.212209999561309814e-01 -4.611440747976303101e-02 -4.491529464721679688e-01
-3.876913487911224365e-01 -4.674759507179260254e-02 4.051726460456848145e-01
-5.572099685668945312e-01 -1.395473778247833252e-01 1.051658838987350464e-01
1.521651595830917358e-01 -1.190726459026336670e-01 8.770079910755157471e-02
-2.698570787906646729e-01 -1.364037841558456421e-01 -6.177509427070617676e-01
-6.106119155883789062e-01 -1.197224929928779602e-01 -1.098079979419708252e-01
-4.685675501823425293e-01 -1.081830710172653198e-01 5.064694881439208984e-01
-1.958184987306594849e-01 -4.019130766391754150e-02 3.081952929496765137e-01
-3.065408468246459961e-01 -1.364669054746627808e-01 -6.023723483085632324e-01
-5.186374485492706299e-02 -1.839482933282852173e-01 -4.091993719339370728e-02
-1.742748022079467773e-01 -3.453969955444335938e-02 1.864476054906845093e-01
-2.672624588012695312e-02 -1.350495517253875732e-01 -5.617145299911499023e-01
-3.178955614566802979e-01 -8.188220858573913574e-02 -6.363319754600524902e-01
-5.002453923225402832e-01 -1.193329691886901855e-01 -4.693368673324584961e-01
-4.792884588241577148e-01 -1.574051976203918457e-01 1.231719851493835449e-01
1.235948503017425537e-02 -5.581029504537582397e-02 -1.453770399093627930e-01
-2.328532636165618896e-01 -1.738951802253723145e-01 3.045736551284790039e-01
-1.828690022230148315e-01 -9.717266261577606201e-02 6.001891493797302246e-01
1.355250626802444458e-01 -1.497407257556915283e-01 -2.660308964550495148e-02
-4.756714999675750732e-01 -1.416591256856918335e-01 3.518802523612976074e-01
-4.827238917350769043e-01 -3.241760283708572388e-02 8.006498962640762329e-02
3.813587129116058350e-02 -1.746990382671356201e-01 -8.181300759315490723e-02
-2.468547374010086060e-01 -2.592342346906661987e-02 -8.270199596881866455e-02
-1.608862280845642090e-01 -1.846087574958801270e-01 1.212998032569885254e-01
-2.225361913442611694e-01 -5.683036148548126221e-02 -5.333449244499206543e-01
-4.919491410255432129e-01 -3.234306722879409790e-02 -1.624557748436927795e-02
-6.548193097114562988e-02 -1.622357666492462158e-01 -4.622819423675537109e-01
-9.731690585613250732e-02 -1.583512425422668457e-01 -5.076205730438232422e-01
-4.847570061683654785e-01 -3.513002395629882812e-02 -1.849284768104553223e-01
-2.597540020942687988e-01 -1.371477544307708740e-01 5.595036745071411133e-01
-1.981859356164932251e-01 -1.860593855381011963e-01 -1.103518158197402954e-01
-2.568821012973785400e-01 -3.760689496994018555e-02 3.186622262001037598e-01
-7.278959453105926514e-02 -1.737270653247833252e-01 2.753735780715942383e-01
2.221851050853729248e-02 -6.566780805587768555e-02 -3.002877235412597656e-01
-1.546104997396469116e-01 -3.249157220125198364e-02 -1.353984475135803223e-01
5.422989130020141602e-01 -1.124057546257972717e-02 3.153823316097259521e-01
2.051710933446884155e-01 -1.386822760105133057e-01 4.358934164047241211e-01
1.033594310283660889e-01 7.859624922275543213e-02 -9.258463978767395020e-03
1.491825878620147705e-01 4.991923645138740540e-02 -3.808330893516540527e-01
1.205545365810394287e-01 -1.179661154747009277e-01 -2.523483633995056152e-01
6.177365779876708984e-02 2.004160359501838684e-02 -3.419041037559509277e-01
5.414139032363891602e-01 -1.783138960599899292e-01 -1.333274692296981812e-01
5.480806827545166016e-01 -8.533153682947158813e-03 -3.451718986034393311e-01
2.871093153953552246e-02 -8.612652122974395752e-02 1.961576640605926514e-01
6.576248407363891602e-01 -1.012079045176506042e-01 -8.944822475314140320e-03
4.816090464591979980e-01 -1.772593110799789429e-01 -2.530056834220886230e-01
4.852764308452606201e-01 6.892692297697067261e-03 3.758554756641387939e-01
1.982726752758026123e-01 -1.048255711793899536e-01 -4.675364792346954346e-01
4.032092690467834473e-01 3.179166838526725769e-02 4.016103744506835938e-01
2.514708340167999268e-01 3.383459523320198059e-02 -4.986669123172760010e-01
5.036538839340209961e-01 -1.876802444458007812e-01 1.109763979911804199e-01
6.457482576370239258e-01 -1.115810126066207886e-01 1.264729052782058716e-01
3.995674550533294678e-01 -1.878333985805511475e-01 -1.623132526874542236e-01
-1.478406786918640137e-02 1.833942905068397522e-02 1.352577805519104004e-01
2.826659381389617920e-01 7.824525237083435059e-02 -2.069873213768005371e-01
4.661826193332672119e-01 4.013414308428764343e-02 -2.448745369911193848e-01
1.712077111005783081e-01 -1.260404884815216064e-01 4.458553791046142578e-01
1.183191537857055664e-01 -1.385937184095382690e-01 1.069501340389251709e-01
4.820924401283264160e-01 -1.819887757301330566e-01 -2.058010995388031006e-01
4.098405838012695312e-01 -1.624180227518081665e-01 -3.812003731727600098e-01
3.067487180233001709e-01 -1.280651688575744629e-01 5.650279521942138672e-01
2.213111519813537598e-01 -7.095727324485778809e-02 6.360351443290710449e-01
3.095524311065673828e-01 -1.669518202543258667e-01 -2.963020503520965576e-01
1.856575012207031250e-01 -6.369338929653167725e-02 6.192710399627685547e-01
6.352406740188598633e-01 -6.193480640649795532e-02 -2.085165828466415405e-01
5.441143512725830078e-01 -1.566783189773559570e-01 -3.150528669357299805e-01
1.181270927190780640e-01 -7.461354136466979980e-02 5.289583802223205566e-01
4.105112254619598389e-01 1.679745689034461975e-02 4.621253013610839844e-01
8.958218991756439209e-02 6.752490997314453125e-02 -1.682438999414443970e-01
3.220490813255310059e-01 -1.750780344009399414e-01 3.262438476085662842e-01
4.757839143276214600e-01 -1.899884641170501709e-01 -9.246820211410522461e-02
4.910113811492919922e-01 -1.608036309480667114e-01 3.839150965213775635e-01
4.833824038505554199e-01 -1.888920962810516357e-01 1.432197093963623047e-01
5.339745283126831055e-01 1.948120817542076111e-02 9.639994800090789795e-02
6.370196938514709473e-01 -9.602192044258117676e-02 1.956533193588256836e-01
6.038578748703002930e-01 -5.640753358602523804e-02 2.799166142940521240e-01
4.348626136779785156e-01 -1.798216998577117920e-01 -2.557925879955291748e-01
-2.600759267807006836e-03 2.672047540545463562e-02 -8.832231163978576660e-02
3.343555331230163574e-02 5.199442431330680847e-02 -1.046936213970184326e-01
2.251376211643218994e-01 -1.012931615114212036e-01 -5.094035267829895020e-01
3.736544251441955566e-01 -1.556840687990188599e-01 -4.112080037593841553e-01
4.301426112651824951e-01 -6.862046569585800171e-02 -6.034098267555236816e-01
2.575539052486419678e-01 3.482390195131301880e-03 5.989080667495727539e-01
3.093225657939910889e-01 4.745762422680854797e-02 -4.357878863811492920e-01
6.539024710655212402e-01 -1.157867014408111572e-01 -4.656084999442100525e-02
-6.986111402511596680e-03 2.940617129206657410e-02 -2.075665444135665894e-02
3.901022672653198242e-02 -8.329492807388305664e-02 -1.539532393217086792e-01
2.631044983863830566e-01 -1.678359806537628174e-01 -2.139298915863037109e-01
2.696777284145355225e-01 7.362984120845794678e-02 -2.718374431133270264e-01
3.754544258117675781e-02 -9.551358968019485474e-02 1.496182233095169067e-01
5.948891639709472656e-01 -1.539272442460060120e-02 9.639067947864532471e-02
5.635303258895874023e-02 4.775605723261833191e-02 2.950460314750671387e-01
2.279775440692901611e-01 3.688259050250053406e-02 5.013210177421569824e-01
2.253859043121337891e-01 8.703435957431793213e-02 6.752415001392364502e-02
1.793731153011322021e-01 -1.058094203472137451e-01 5.370121002197265625e-01
4.552991986274719238e-01 -1.862278133630752563e-01 2.269454300403594971e-01
-4.828900098800659180e-03 -5.846991762518882751e-02 1.383910775184631348e-01
1.941909193992614746e-01 -7.187571376562118530e-03 6.062985658645629883e-01
3.658531308174133301e-01 6.401658058166503906e-02 -2.560731768608093262e-01
6.472975015640258789e-03 2.340747788548469543e-02 -1.586580872535705566e-01
4.371043741703033447e-01 4.302820935845375061e-02 2.537447810173034668e-01
5.365673303604125977e-01 4.335131496191024780e-03 2.426938563585281372e-01
3.216765522956848145e-01 7.982648909091949463e-02 5.365984886884689331e-02
5.773218870162963867e-01 -9.817954152822494507e-03 -2.350493967533111572e-01
5.868760347366333008e-01 -4.982654005289077759e-03 -2.223667502403259277e-02
6.205769777297973633e-01 -3.249703720211982727e-02 4.399666562676429749e-02
2.961011826992034912e-01 -1.849287003278732300e-01 1.075450181961059570e-01
3.791823387145996094e-01 -1.651572585105895996e-01 -3.594881296157836914e-01
4.455733895301818848e-01 -1.863380223512649536e-01 -1.821032613515853882e-01
2.650750279426574707e-01 -1.613626033067703247e-01 3.755468428134918213e-01
4.048645198345184326e-01 -1.275575011968612671e-01 5.608454942703247070e-01
1.453876197338104248e-01 8.342666923999786377e-02 9.472589194774627686e-02
8.413307368755340576e-02 -6.269466131925582886e-03 5.067873597145080566e-01
3.500905930995941162e-01 -1.889865249395370483e-01 1.706372648477554321e-01
2.011488378047943115e-01 -1.255584061145782471e-01 4.939833283424377441e-01
5.781368017196655273e-01 -6.579197943210601807e-04 -1.037564277648925781e-01
2.645080685615539551e-01 -1.201407462358474731e-01 -4.907902777194976807e-01
2.153042554855346680e-01 -1.514655798673629761e-01 -2.601355314254760742e-01
4.351967871189117432e-01 -1.220159232616424561e-01 -5.313333868980407715e-01
