1.747516393661499023e-01 2.100217640399932861e-01 -2.660982608795166016e-01
1.751907020807266235e-01 1.549246013164520264e-01 -1.145651713013648987e-01
2.318420410156250000e-01 2.114013135433197021e-01 -1.982688009738922119e-01
9.211312979459762573e-02 2.059232145547866821e-01 -2.695229351520538330e-01
5.468693375587463379e-02 1.652869433164596558e-01 1.581439673900604248e-01
1.857404410839080811e-01 1.614346504211425781e-01 -2.018563747406005859e-01
8.541948348283767700e-02 2.178113162517547607e-01 1.792377829551696777e-01
2.528611570596694946e-02 1.872986406087875366e-01 1.723586320877075195e-01
6.537912040948867798e-02 2.210954725742340088e-01 7.444203644990921021e-02
3.974137455224990845e-02 2.141796648502349854e-01 6.940678507089614868e-02
1.119130700826644897e-01 2.000636756420135498e-01 -3.064103424549102783e-01
2.308158874511718750e-01 2.065720856189727783e-01 -2.185879945755004883e-01
5.835932493209838867e-02 2.099913507699966431e-01 -1.952684819698333740e-01
2.380991727113723755e-02 2.043922841548919678e-01 1.129536852240562439e-01
1.254795342683792114e-01 2.237825095653533936e-01 -1.623903810977935791e-01
2.024607658386230469e-01 1.603630930185317993e-01 -7.968172430992126465e-02
9.607283771038055420e-02 1.468665152788162231e-01 -5.445285141468048096e-02
2.145153135061264038e-01 2.076247185468673706e-01 -2.406920492649078369e-01
1.678898930549621582e-01 2.157299816608428955e-01 2.447604238986968994e-01
1.587453782558441162e-01 2.167087644338607788e-01 -2.344204187393188477e-01
4.145001620054244995e-02 1.753301173448562622e-01 -2.917810082435607910e-01
4.517797380685806274e-02 1.548501253128051758e-01 -2.259051501750946045e-01
2.274623811244964600e-01 2.259914129972457886e-01 1.277898550033569336e-01
1.869712918996810913e-01 1.642069071531295776e-01 1.000066474080085754e-01
2.877639979124069214e-02 2.008049190044403076e-01 -1.944482624530792236e-01
1.494524180889129639e-01 1.588160991668701172e-01 -2.493550777435302734e-01
1.351978480815887451e-01 1.500975191593170166e-01 -1.510802805423736572e-01
2.411671876907348633e-01 2.159543782472610474e-01 1.653807461261749268e-01
2.127884626388549805e-01 2.237414568662643433e-01 1.749478578567504883e-01
8.794154971837997437e-02 2.163493335247039795e-01 1.942589581012725830e-01
1.504643410444259644e-01 2.228516042232513428e-01 -1.858589649200439453e-01
4.440398514270782471e-02 2.150191068649291992e-01 -8.716394007205963135e-02
2.548997998237609863e-01 2.185705900192260742e-01 -8.840271830558776855e-02
1.200554519891738892e-02 1.910857558250427246e-01 -2.026511132717132568e-01
1.533459275960922241e-01 2.333389669656753540e-01 3.788606077432632446e-02
1.543290317058563232e-01 1.624404937028884888e-01 1.363794505596160889e-01
1.593538224697113037e-01 1.717368662357330322e-01 -3.063733875751495361e-01
7.407809048891067505e-02 1.575567424297332764e-01 -2.707867026329040527e-01
2.770012021064758301e-01 2.052469551563262939e-01 1.485951989889144897e-02
6.036455929279327393e-02 1.566082537174224854e-01 -2.559846341609954834e-01
1.716430336236953735e-01 2.336047142744064331e-01 -5.751214921474456787e-04
2.420906126499176025e-01 2.027118802070617676e-01 -2.051466703414916992e-01
2.134572863578796387e-01 2.294338345527648926e-01 -6.767675280570983887e-02
6.156672537326812744e-02 1.478564888238906860e-01 -3.314572572708129883e-02
1.239325478672981262e-01 2.168342918157577515e-01 -2.251208722591400146e-01
4.966990649700164795e-02 2.177123725414276123e-01 -5.299073457717895508e-02
1.334417462348937988e-01 1.510218828916549683e-01 -1.778587102890014648e-01
8.258403092622756958e-02 2.255588322877883911e-01 -1.266849413514137268e-02
9.545683115720748901e-02 2.121967673301696777e-01 -2.351981103420257568e-01
9.447911381721496582e-02 2.070406973361968994e-01 2.438676357269287109e-01
1.547344774007797241e-01 2.256662845611572266e-01 -1.578561067581176758e-01
2.096539288759231567e-01 1.624192595481872559e-01 -9.427644312381744385e-02
1.108516007661819458e-02 2.053618133068084717e-01 -1.869363337755203247e-02
8.248733729124069214e-02 1.845661550760269165e-01 -3.259448111057281494e-01
1.845541894435882568e-01 1.575296819210052490e-01 -3.027725964784622192e-03
2.134015858173370361e-01 1.669891923666000366e-01 -1.714721918106079102e-01
1.370783448219299316e-01 2.324382662773132324e-01 3.403232246637344360e-02
1.176898181438446045e-02 2.053462415933609009e-01 1.327221468091011047e-02
7.709352672100067139e-02 1.519918292760848999e-01 6.112749129533767700e-02
1.513090729713439941e-01 2.196999043226242065e-01 2.279929220676422119e-01
1.693628132343292236e-01 1.596613526344299316e-01 8.380968868732452393e-02
1.627434194087982178e-01 1.654188930988311768e-01 1.517333090305328369e-01
2.190749049186706543e-01 2.192271202802658081e-01 -1.741377413272857666e-01
1.985355913639068604e-01 2.309165000915527344e-01 1.123240962624549866e-01
1.687106937170028687e-01 2.280391454696655273e-01 -1.300221681594848633e-01
8.566714078187942505e-02 1.501228213310241699e-01 3.563122451305389404e-02
2.116560339927673340e-01 2.270911633968353271e-01 -1.085924580693244934e-01
2.408926784992218018e-01 1.742534935474395752e-01 2.161997184157371521e-02
7.298219203948974609e-02 1.894597858190536499e-01 -3.114738166332244873e-01
5.169809609651565552e-02 1.866488158702850342e-01 2.171831727027893066e-01
1.338610500097274780e-01 2.150174230337142944e-01 -2.423774003982543945e-01
8.541914820671081543e-02 2.246859669685363770e-01 9.040699899196624756e-02
2.220470905303955078e-01 2.301250696182250977e-01 -2.184559032320976257e-02
6.884081661701202393e-02 1.470169872045516968e-01 -1.239367276430130005e-01
4.791147261857986450e-02 1.481173336505889893e-01 -7.353851199150085449e-02
9.534595161676406860e-02 1.500255167484283447e-01 -2.030109763145446777e-01
1.338301599025726318e-01 1.535102277994155884e-01 5.862347036600112915e-02
1.716642826795578003e-02 1.868071705102920532e-01 1.534807682037353516e-01
2.009713053703308105e-01 1.764971315860748291e-01 -2.668519318103790283e-01
1.469372361898422241e-01 2.316892445087432861e-01 9.950418025255203247e-02
1.148457601666450500e-01 2.219896614551544189e-01 1.898123323917388916e-01
7.620500028133392334e-02 2.233718931674957275e-01 -5.841246247291564941e-02
1.824250072240829468e-01 2.332637459039688110e-01 -1.488018408417701721e-02
7.894424349069595337e-02 2.111518085002899170e-01 2.099880576133728027e-01
2.168594449758529663e-01 2.296044230461120605e-01 1.008922383189201355e-01
2.744175791740417480e-01 1.982123553752899170e-01 3.607253730297088623e-02
2.732104063034057617e-01 2.046177685260772705e-01 6.339287012815475464e-02
2.113798558712005615e-01 1.634805351495742798e-01 -8.694987744092941284e-03
1.166730746626853943e-01 2.305323332548141479e-01 1.979794353246688843e-03
2.649312615394592285e-01 2.150449901819229126e-01 -7.112091779708862305e-02
1.701900213956832886e-01 2.007898986339569092e-01 -3.005051910877227783e-01
2.092696577310562134e-01 1.722960919141769409e-01 1.265347898006439209e-01
2.439284622669219971e-01 2.159713059663772583e-01 -1.465627253055572510e-01
1.946188360452651978e-01 1.750214695930480957e-01 1.749297380447387695e-01
1.117977574467658997e-01 1.483982801437377930e-01 -1.572624742984771729e-01
2.445983886718750000e-01 1.751138418912887573e-01 -1.003241837024688721e-01
5.405942350625991821e-02 2.070744335651397705e-01 -2.096013426780700684e-01
2.106960564851760864e-01 1.773919910192489624e-01 1.607873737812042236e-01
6.827205419540405273e-02 1.634879708290100098e-01 -2.957624197006225586e-01
2.290559709072113037e-01 1.702891737222671509e-01 -1.366579085588455200e-01
1.518284231424331665e-01 1.568425595760345459e-01 -2.271333634853363037e-01
1.751071363687515259e-01 1.758912056684494019e-01 2.050295472145080566e-01
8.257778733968734741e-02 1.573425978422164917e-01 1.210106834769248962e-01
2.587232589721679688e-01 1.859325319528579712e-01 6.206557154655456543e-02
9.010631591081619263e-02 2.247635275125503540e-01 -8.347256481647491455e-02
1.070225685834884644e-01 1.786082535982131958e-01 2.418407499790191650e-01
6.829736381769180298e-02 2.227568030357360840e-01 -1.761367544531822205e-02
1.943180412054061890e-01 2.248560339212417603e-01 1.861104369163513184e-01
1.137431412935256958e-01 1.913755089044570923e-01 -3.290036022663116455e-01
1.813128143548965454e-01 2.330419421195983887e-01 7.748062163591384888e-02
1.080339998006820679e-01 2.294398397207260132e-01 4.372483491897583008e-02
1.364278495311737061e-01 2.047518789768218994e-01 -2.951728701591491699e-01
1.839381754398345947e-01 1.619988530874252319e-01 8.073719590902328491e-02
1.483285725116729736e-01 1.539236903190612793e-01 4.105082154273986816e-02
1.601492613554000854e-01 1.571727395057678223e-01 -2.151995599269866943e-01
8.053700625896453857e-02 1.822583824396133423e-01 2.395972907543182373e-01
2.111277580261230469e-01 2.291801273822784424e-01 1.211717948317527771e-01
2.221342623233795166e-01 2.300178110599517822e-01 7.208256423473358154e-02
1.046508252620697021e-01 2.245125919580459595e-01 -1.246971115469932556e-01
1.492600739002227783e-01 1.835268139839172363e-01 2.520677149295806885e-01
5.484922230243682861e-02 2.198024392127990723e-01 1.707474887371063232e-02
2.417052984237670898e-01 2.191178053617477417e-01 -1.288306713104248047e-01
6.920502334833145142e-02 1.467593312263488770e-01 -7.540777325630187988e-02
2.094841301441192627e-01 1.700990796089172363e-01 -2.150565087795257568e-01
2.586856484413146973e-03 1.969782412052154541e-01 -1.210087537765502930e-01
2.909747511148452759e-02 1.883949935436248779e-01 -2.548896968364715576e-01
1.048407107591629028e-01 1.533334404230117798e-01 -2.397142648696899414e-01
8.101259171962738037e-02 2.215529829263687134e-01 1.304303407669067383e-01
3.476172685623168945e-03 2.004952132701873779e-01 -7.458916306495666504e-02
1.536137312650680542e-01 2.325442433357238770e-01 -3.548410534858703613e-02
1.386345624923706055e-01 2.321878373622894287e-01 6.394892930984497070e-02
2.585788667201995850e-01 2.218276262283325195e-01 1.041381806135177612e-02
2.385877072811126709e-01 1.835569590330123901e-01 -2.023903131484985352e-01
1.379637122154235840e-01 1.579200625419616699e-01 1.097520217299461365e-01
1.969908773899078369e-01 2.029804289340972900e-01 -2.749829888343811035e-01
1.956917941570281982e-01 1.590828001499176025e-01 -3.191318735480308533e-02
6.790657341480255127e-02 1.600673198699951172e-01 1.356848180294036865e-01
5.515454709529876709e-02 1.579555273056030273e-01 1.079940721392631531e-01
3.851786255836486816e-03 1.703560203313827515e-01 8.874744921922683716e-02
1.997083127498626709e-01 2.190847396850585938e-01 2.154034972190856934e-01
8.300550282001495361e-03 2.039038538932800293e-01 -3.924001008272171021e-02
1.572922915220260620e-01 2.271016836166381836e-01 -1.413213908672332764e-01
1.913815736770629883e-01 1.695020198822021484e-01 1.413774192333221436e-01
1.187813878059387207e-01 2.158371806144714355e-01 2.319194376468658447e-01
2.513186335563659668e-01 2.111288011074066162e-01 1.534001827239990234e-01
2.183725535869598389e-01 1.666827052831649780e-01 2.382201328873634338e-02
4.145190864801406860e-02 1.981582790613174438e-01 -2.399449646472930908e-01
2.221797555685043335e-01 2.304615378379821777e-01 5.354413390159606934e-02
1.551601886749267578e-01 2.105038464069366455e-01 -2.697952985763549805e-01
6.477471441030502319e-02 1.469721496105194092e-01 -1.082120984792709351e-01
3.388529270887374878e-02 1.497383862733840942e-01 -9.720849990844726562e-02
2.300776094198226929e-01 1.789235323667526245e-01 1.236495152115821838e-01
1.824267506599426270e-01 2.312119454145431519e-01 -7.482446730136871338e-02
6.392572075128555298e-02 2.170707732439041138e-01 1.347592771053314209e-01
1.609205603599548340e-01 1.818420290946960449e-01 2.411749064922332764e-01
1.700074523687362671e-01 1.552451997995376587e-01 -1.559509932994842529e-01
9.749682992696762085e-02 1.466223448514938354e-01 -8.976281434297561646e-02
1.260766983032226562e-01 1.516259908676147461e-01 3.780788183212280273e-02
1.084153950214385986e-01 2.070455998182296753e-01 -2.758699655532836914e-01
1.402752399444580078e-01 2.294295579195022583e-01 -9.651467949151992798e-02
1.053964421153068542e-01 2.223118543624877930e-01 1.741172671318054199e-01
2.062930911779403687e-01 1.738669276237487793e-01 1.457644104957580566e-01
9.551890194416046143e-02 1.474229544401168823e-01 -2.852763980627059937e-02
-1.907119154930114746e-02 1.747810542583465576e-01 -8.675077557563781738e-02
1.724846661090850830e-01 2.336462885141372681e-01 4.984425753355026245e-02
7.905901968479156494e-02 2.039923071861267090e-01 2.355981171131134033e-01
7.190704345703125000e-03 1.588520407676696777e-01 -1.653677821159362793e-01
7.241034507751464844e-02 2.118935137987136841e-01 1.954126358032226562e-01
1.628670841455459595e-01 1.527688652276992798e-01 -4.565618187189102173e-02
8.771762251853942871e-02 1.928962320089340210e-01 -3.147431313991546631e-01
9.466889500617980957e-02 2.116047441959381104e-01 2.284063696861267090e-01
3.034694492816925049e-02 2.054889947175979614e-01 1.296278834342956543e-01
2.905052900314331055e-02 2.012442946434020996e-01 1.505217254161834717e-01
2.296402752399444580e-01 2.281796634197235107e-01 8.708997815847396851e-02
5.826211720705032349e-02 2.171142101287841797e-01 1.145540252327919006e-01
1.152627468109130859e-01 2.284978777170181274e-01 1.083854511380195618e-01
2.221883237361907959e-01 1.662534475326538086e-01 -2.083959802985191345e-02
1.171051114797592163e-01 2.278809994459152222e-01 -9.080144762992858887e-02
7.162749767303466797e-03 1.640261858701705933e-01 6.286048889160156250e-02
2.568584680557250977e-01 1.800763756036758423e-01 -4.480654373764991760e-02
1.136526763439178467e-01 1.474542915821075439e-01 -1.117268651723861694e-01
8.689875900745391846e-02 1.557154655456542969e-01 -2.622939646244049072e-01
2.379146218299865723e-02 1.526994258165359497e-01 -1.464716792106628418e-01
2.196984440088272095e-01 1.968521475791931152e-01 -2.574648559093475342e-01
1.629562675952911377e-02 1.714737415313720703e-01 1.265020966529846191e-01
1.989791691303253174e-01 2.163889855146408081e-01 -2.167645692825317383e-01
3.686422854661941528e-02 2.121090441942214966e-01 -1.015960350632667542e-01
1.272107809782028198e-01 2.316437214612960815e-01 1.241196319460868835e-02
1.102492958307266235e-01 1.513578295707702637e-01 -2.138880193233489990e-01
1.109492033720016479e-02 1.555243134498596191e-01 -1.366623342037200928e-01
1.393876969814300537e-01 1.650241613388061523e-01 1.701101362705230713e-01
4.062838852405548096e-02 1.708783656358718872e-01 1.677558124065399170e-01
2.344929873943328857e-01 1.751344799995422363e-01 7.225675135850906372e-02
4.166203737258911133e-02 2.033619582653045654e-01 1.742550730705261230e-01
1.483299285173416138e-01 1.946531832218170166e-01 -3.223279118537902832e-01
1.574727892875671387e-02 1.533659845590591431e-01 -5.701056122779846191e-02
1.516672670841217041e-01 1.714872717857360840e-01 2.021206319332122803e-01
2.249539494514465332e-01 1.675231605768203735e-01 -1.094910353422164917e-01
7.424111664295196533e-02 1.708271801471710205e-01 2.007520794868469238e-01
7.887544482946395874e-02 1.491045206785202026e-01 -1.883671283721923828e-01
1.081018522381782532e-01 1.709659099578857422e-01 -3.273195028305053711e-01
5.363380908966064453e-02 1.480146497488021851e-01 -4.798232391476631165e-02
1.213310062885284424e-01 1.531924158334732056e-01 6.768389046192169189e-02
-1.032219827175140381e-02 1.641833335161209106e-01 -1.097103282809257507e-01
2.389822304248809814e-01 1.718699336051940918e-01 -7.242649793624877930e-02
1.988672316074371338e-01 2.323982268571853638e-01 -2.243195101618766785e-02
8.302715420722961426e-02 1.470165252685546875e-01 -1.374425888061523438e-01
1.182025223970413208e-01 2.297382354736328125e-01 -4.724361002445220947e-02
2.045885026454925537e-01 1.649064570665359497e-01 5.776735395193099976e-02
7.780490815639495850e-02 1.988016963005065918e-01 -2.882449030876159668e-01
2.931790053844451904e-02 1.945702582597732544e-01 -2.319786846637725830e-01
1.114775612950325012e-01 2.250651568174362183e-01 1.545345783233642578e-01
4.134109616279602051e-02 1.666858345270156860e-01 -2.800628542900085449e-01
9.155432879924774170e-02 1.652980744838714600e-01 -3.111369609832763672e-01
1.788878440856933594e-01 1.580930054187774658e-01 3.470795601606369019e-02
1.391098052263259888e-01 2.277336567640304565e-01 1.582890748977661133e-01
7.878804206848144531e-02 1.478965133428573608e-01 -1.634975373744964600e-01
1.863356381654739380e-01 2.191248983144760132e-01 2.245990037918090820e-01
2.448096424341201782e-01 2.262974828481674194e-01 3.078489005565643311e-02
9.603555500507354736e-02 2.252828180789947510e-01 1.167443320155143738e-01
-4.138052463531494141e-05 1.606677174568176270e-01 -1.482547968626022339e-01
1.524838209152221680e-01 1.917519718408584595e-01 2.680330276489257812e-01
1.346944272518157959e-01 1.887670159339904785e-01 2.668515443801879883e-01
1.231282949447631836e-03 1.576827764511108398e-01 -9.897826611995697021e-02
1.911346614360809326e-01 1.578539758920669556e-01 -9.558528661727905273e-02
2.001875042915344238e-01 1.617746204137802124e-01 -1.519261002540588379e-01
5.561311542987823486e-02 1.524094343185424805e-01 -2.155452668666839600e-01
-1.456305384635925293e-02 1.879115849733352661e-01 -7.447991520166397095e-03
5.047821253538131714e-02 2.129410505294799805e-01 -1.449026167392730713e-01
9.654128551483154297e-02 1.916631013154983521e-01 2.609669864177703857e-01
1.293681561946868896e-02 1.909473687410354614e-01 1.367755830287933350e-01
1.702001392841339111e-01 1.911096572875976562e-01 2.591862082481384277e-01
4.415253549814224243e-02 2.074294388294219971e-01 -1.837568581104278564e-01
2.604539990425109863e-01 1.849085688591003418e-01 3.782422095537185669e-02
1.506511718034744263e-01 2.291858196258544922e-01 1.486218273639678955e-01
1.884325146675109863e-01 2.207811772823333740e-01 -1.950342357158660889e-01
1.300226598978042603e-01 2.079148888587951660e-01 -2.806830406188964844e-01
3.911755979061126709e-02 1.614665836095809937e-01 -2.591290473937988281e-01
2.123809158802032471e-01 2.237365245819091797e-01 -1.457390934228897095e-01
1.486942172050476074e-01 1.560411751270294189e-01 7.346185296773910522e-02
2.528412342071533203e-01 1.967408210039138794e-01 -1.818452477455139160e-01
-8.632406592369079590e-03 1.721464693546295166e-01 4.739944636821746826e-02
3.771714866161346436e-03 1.911155134439468384e-01 -1.735211312770843506e-01
1.415842920541763306e-01 2.208935469388961792e-01 -2.009239494800567627e-01
1.465985625982284546e-01 1.574982702732086182e-01 9.511553496122360229e-02
2.268883436918258667e-01 2.300156652927398682e-01 2.868247032165527344e-02
8.849656581878662109e-02 1.538138091564178467e-01 -2.470516264438629150e-01
1.520045846700668335e-01 1.522159874439239502e-01 -1.526580452919006348e-01
1.703903079032897949e-03 1.603593528270721436e-01 5.252722650766372681e-03
2.246406376361846924e-01 2.302139997482299805e-01 1.110486686229705811e-03
2.567144483327865601e-02 1.965579241514205933e-01 -2.129644155502319336e-01
1.765820980072021484e-01 1.666650176048278809e-01 -2.637082338333129883e-01
1.597153097391128540e-01 1.524477303028106689e-01 -1.211096942424774170e-01
2.070848345756530762e-01 1.734788119792938232e-01 -2.419716119766235352e-01
9.021000564098358154e-02 2.260095477104187012e-01 -5.096663162112236023e-02
2.989862859249114990e-02 1.538301706314086914e-01 2.142608910799026489e-02
7.788617163896560669e-02 1.556661576032638550e-01 1.035404577851295471e-01
2.091642022132873535e-01 2.313011586666107178e-01 -3.274640068411827087e-02
1.367455273866653442e-01 2.177306413650512695e-01 2.333608269691467285e-01
3.734920173883438110e-02 2.146650254726409912e-01 -3.844526037573814392e-02
2.358201891183853149e-02 2.103960216045379639e-01 6.802156567573547363e-04
8.807872235774993896e-02 1.606786698102951050e-01 -2.920818924903869629e-01
1.733218878507614136e-01 1.547890305519104004e-01 -2.762223780155181885e-02
2.160964161157608032e-01 1.672063916921615601e-01 4.566142708063125610e-02
2.712330520153045654e-01 2.141256183385848999e-01 2.883325889706611633e-02
2.297953963279724121e-01 1.879864782094955444e-01 -2.369279563426971436e-01
1.816185265779495239e-01 2.289211750030517578e-01 1.553229391574859619e-01
2.509188950061798096e-01 2.174356281757354736e-01 -1.145942062139511108e-01
1.198795959353446960e-01 2.104177623987197876e-01 2.530421912670135498e-01
5.063630640506744385e-03 1.905463635921478271e-01 1.107248440384864807e-01
7.867979258298873901e-02 1.625231802463531494e-01 1.590629220008850098e-01
1.345695704221725464e-01 2.121997922658920288e-01 2.540820538997650146e-01
4.065036773681640625e-05 1.979267448186874390e-01 -8.853844553232192993e-02
8.539916574954986572e-02 1.467000693082809448e-01 -1.219243556261062622e-01
2.760466188192367554e-02 1.578731387853622437e-01 6.483764201402664185e-02
6.785433739423751831e-02 2.206381857395172119e-01 -8.611182123422622681e-02
1.934307813644409180e-01 2.294190973043441772e-01 1.415446102619171143e-01
5.362299084663391113e-02 1.994621008634567261e-01 -2.549256384372711182e-01
2.475198507308959961e-01 1.812418848276138306e-01 7.765176892280578613e-02
1.182717680931091309e-01 2.253613173961639404e-01 -1.343750059604644775e-01
1.345338821411132812e-01 1.534309983253479004e-01 -2.143948376178741455e-01
2.464460134506225586e-01 2.106632292270660400e-01 -1.692544817924499512e-01
6.086515635251998901e-02 2.199149578809738159e-01 -6.746007502079010010e-02
1.007108315825462341e-01 2.272032648324966431e-01 -6.121888756752014160e-02
2.276695668697357178e-01 2.278813123703002930e-01 -5.869641155004501343e-02
2.634017467498779297e-01 2.117574363946914673e-01 -1.052129417657852173e-01
2.731066346168518066e-01 2.100662589073181152e-01 4.988007247447967529e-02
1.660202741622924805e-01 2.212895900011062622e-01 -2.000374794006347656e-01
1.513548642396926880e-01 2.328545749187469482e-01 -1.863369531929492950e-02
2.005492746829986572e-01 1.612216234207153320e-01 4.760295152664184570e-03
1.047333180904388428e-01 2.210160344839096069e-01 -1.695997714996337891e-01
2.274865806102752686e-01 1.956201493740081787e-01 2.028062641620635986e-01
5.679269134998321533e-02 1.488915383815765381e-01 -1.166684553027153015e-02
1.782853305339813232e-01 2.324558943510055542e-01 9.711711853742599487e-02
1.527775228023529053e-01 2.319479286670684814e-01 -5.344109982252120972e-02
1.164075583219528198e-01 2.184419333934783936e-01 -2.069607675075531006e-01
8.305215835571289062e-02 1.661749929189682007e-01 1.829724907875061035e-01
2.506510615348815918e-01 -9.178164005279541016e-01 1.502152979373931885e-01
3.103079497814178467e-01 -7.981926202774047852e-01 4.910389184951782227e-01
4.326491951942443848e-01 -7.744441032409667969e-01 2.645157277584075928e-01
-3.634691238403320312e-02 -8.139566779136657715e-01 4.122954905033111572e-01
-1.319375038146972656e-01 -8.582824468612670898e-01 2.775028347969055176e-01
2.588108181953430176e-02 -7.891287803649902344e-01 3.901811838150024414e-01
1.357634365558624268e-01 -7.822661399841308594e-01 7.418198883533477783e-02
5.025242269039154053e-02 -7.754482626914978027e-01 2.972657084465026855e-01
7.304297387599945068e-02 -7.870132327079772949e-01 4.303774833679199219e-01
2.762696146965026855e-01 -7.585415840148925781e-01 3.204564452171325684e-01
2.135143876075744629e-01 -7.623821496963500977e-01 3.629918098449707031e-01
1.829281896352767944e-01 -8.823374509811401367e-01 4.949332177639007568e-01
-1.747222244739532471e-02 -9.161549210548400879e-01 2.993485629558563232e-01
2.594228386878967285e-01 -8.012111186981201172e-01 5.093128085136413574e-01
2.727902531623840332e-01 -8.944420814514160156e-01 2.794338762760162354e-02
2.527508735656738281e-01 -7.753369808197021484e-01 7.563270628452301025e-02
3.193843960762023926e-01 -8.123610019683837891e-01 5.049854516983032227e-01
-9.566071629524230957e-02 -8.956987857818603516e-01 2.935154438018798828e-01
-9.525889158248901367e-02 -8.210939168930053711e-01 2.233149260282516479e-01
3.919183015823364258e-01 -8.664581179618835449e-01 4.181913137435913086e-01
-7.293495535850524902e-02 -8.772822022438049316e-01 8.666743338108062744e-02
1.994702517986297607e-01 -7.644757032394409180e-01 1.514284312725067139e-01
2.453898936510086060e-01 -8.993318080902099609e-01 3.123807907104492188e-02
4.458974301815032959e-01 -8.746584057807922363e-01 1.878697276115417480e-01
3.234221339225769043e-01 -8.802810907363891602e-01 1.815274357795715332e-02
2.840856909751892090e-01 -8.610218763351440430e-01 5.045900940895080566e-01
4.884985983371734619e-01 -8.170782327651977539e-01 1.457335054874420166e-01
2.123763412237167358e-01 -9.041051268577575684e-01 4.199945926666259766e-01
3.894389867782592773e-01 -8.787012100219726562e-01 7.646331191062927246e-02
-1.067187190055847168e-01 -8.735966086387634277e-01 1.398843526840209961e-01
1.245879530906677246e-01 -7.994118332862854004e-01 1.952189207077026367e-02
2.504753768444061279e-01 -9.091289043426513672e-01 3.726900815963745117e-01
7.364807277917861938e-02 -9.053633809089660645e-01 4.250879287719726562e-01
4.393215179443359375e-01 -7.960841655731201172e-01 1.036642640829086304e-01
8.477646112442016602e-02 -9.030021429061889648e-01 2.971538901329040527e-02
3.320952951908111572e-01 -9.057030677795410156e-01 1.561753153800964355e-01
2.565399408340454102e-01 -8.129669427871704102e-01 -2.465471625328063965e-02
3.215913176536560059e-01 -9.003494381904602051e-01 9.334248304367065430e-02
2.233082205057144165e-01 -9.228823781013488770e-01 1.962168067693710327e-01
2.452565133571624756e-01 -8.347101211547851562e-01 5.349392294883728027e-01
2.262023091316223145e-01 -7.606778144836425781e-01 1.794064939022064209e-01
4.945589005947113037e-01 -8.116438388824462891e-01 1.742059439420700073e-01
3.902069926261901855e-01 -8.924279212951660156e-01 1.640092283487319946e-01
2.970069646835327148e-01 -9.132223725318908691e-01 2.677506506443023682e-01
1.815944761037826538e-01 -9.229671955108642578e-01 1.423619836568832397e-01
2.237727344036102295e-01 -7.585555911064147949e-01 2.121977508068084717e-01
3.823910951614379883e-01 -8.968405127525329590e-01 2.248712331056594849e-01
2.300958186388015747e-01 -8.254885673522949219e-01 -4.108071327209472656e-02
3.384447097778320312e-01 -8.725206255912780762e-01 4.519652724266052246e-01
-4.340825974941253662e-02 -8.017342686653137207e-01 1.913589239120483398e-01
-4.319164156913757324e-02 -8.350315093994140625e-01 6.323798000812530518e-02
4.042342305183410645e-02 -7.884706258773803711e-01 1.223075762391090393e-01
1.758273094892501831e-01 -9.026859998703002930e-01 2.292199432849884033e-02
6.489361077547073364e-02 -9.229523539543151855e-01 1.421182453632354736e-01
-1.484897732734680176e-02 -7.912133336067199707e-01 2.128008455038070679e-01
3.527799844741821289e-01 -8.590955138206481934e-01 -9.894371032714843750e-05
4.391570389270782471e-01 -7.772186398506164551e-01 2.139756381511688232e-01
1.873502880334854126e-01 -7.832498550415039062e-01 4.687527418136596680e-01
-8.730688691139221191e-02 -8.799122571945190430e-01 1.120639741420745850e-01
5.047036409378051758e-01 -8.197221755981445312e-01 2.680848538875579834e-01
2.923468351364135742e-01 -7.726099491119384766e-01 9.320764243602752686e-02
3.070462942123413086e-01 -8.785049319267272949e-01 3.999859094619750977e-03
1.593988239765167236e-01 -9.262340068817138672e-01 1.778630018234252930e-01
1.484236419200897217e-01 -8.130020499229431152e-01 5.249904394149780273e-01
2.383123785257339478e-01 -9.217381477355957031e-01 2.126456946134567261e-01
3.835794627666473389e-01 -7.696906328201293945e-01 1.683019548654556274e-01
-5.550757050514221191e-02 -8.054558634757995605e-01 3.285232782363891602e-01
1.196781471371650696e-01 -9.210906624794006348e-01 1.100024729967117310e-01
2.016701251268386841e-01 -7.781054973602294922e-01 4.526295065879821777e-01
5.951686203479766846e-02 -7.766635417938232422e-01 3.454959988594055176e-01
3.303380310535430908e-01 -9.003307223320007324e-01 3.450123667716979980e-01
4.635312259197235107e-01 -8.601644039154052734e-01 1.449493616819381714e-01
3.310597538948059082e-01 -7.881933450698852539e-01 4.458010196685791016e-02
4.805761873722076416e-01 -7.967912554740905762e-01 1.845646053552627563e-01
6.755530834197998047e-03 -7.905092835426330566e-01 3.679217398166656494e-01
1.336813569068908691e-01 -7.754672169685363770e-01 4.170067906379699707e-01
9.019029885530471802e-02 -7.688729763031005859e-01 2.944924235343933105e-01
4.035287499427795410e-01 -8.658007979393005371e-01 5.555723607540130615e-02
-4.093950986862182617e-02 -8.991537690162658691e-01 9.774632751941680908e-02
-4.146482050418853760e-02 -7.983989119529724121e-01 2.262441813945770264e-01
-1.477003097534179688e-03 -8.958443999290466309e-01 4.247940778732299805e-01
4.587135314941406250e-01 -7.883434295654296875e-01 1.695833504199981689e-01
-1.276434957981109619e-01 -8.655071854591369629e-01 3.035794794559478760e-01
1.546284556388854980e-01 -9.274433851242065430e-01 2.209869176149368286e-01
1.868454217910766602e-01 -9.228749871253967285e-01 3.037773072719573975e-01
3.185231685638427734e-01 -8.680006265640258789e-01 4.755049943923950195e-01
-9.001976251602172852e-02 -8.534227609634399414e-01 3.993290662765502930e-01
3.505220413208007812e-01 -8.013027310371398926e-01 4.777253270149230957e-01
2.588104307651519775e-01 -8.861567974090576172e-01 4.635888338088989258e-01
2.185364663600921631e-01 -9.215676188468933105e-01 2.888537943363189697e-01
4.296610355377197266e-01 -8.713399767875671387e-01 3.443234562873840332e-01
2.756263613700866699e-01 -7.921979427337646484e-01 1.888947188854217529e-02
3.399915993213653564e-02 -8.316355347633361816e-01 2.834200859069824219e-03
-9.819716215133666992e-04 -7.866477370262145996e-01 3.011111021041870117e-01
5.006183981895446777e-01 -8.316658735275268555e-01 2.854543924331665039e-01
4.381293356418609619e-01 -7.843525409698486328e-01 3.511942625045776367e-01
-8.165287971496582031e-02 -8.287753462791442871e-01 3.803817629814147949e-01
1.457723975181579590e-01 -7.673068642616271973e-01 1.618955433368682861e-01
-7.025444507598876953e-02 -8.988724350929260254e-01 1.404931396245956421e-01
3.250221014022827148e-01 -9.094925522804260254e-01 2.186770737171173096e-01
2.597789466381072998e-02 -8.210772275924682617e-01 2.485352754592895508e-02
3.747542202472686768e-02 -9.080277681350708008e-01 6.579460203647613525e-02
1.454960107803344727e-01 -9.273784160614013672e-01 1.981230676174163818e-01
7.589829713106155396e-02 -8.218134045600891113e-01 5.142618417739868164e-01
1.370752900838851929e-01 -9.181858301162719727e-01 3.648418188095092773e-01
4.169027507305145264e-02 -9.104973077774047852e-01 3.915447592735290527e-01
4.791378974914550781e-02 -7.770449519157409668e-01 2.107877135276794434e-01
2.257090806961059570e-02 -9.111583828926086426e-01 3.777682781219482422e-01
2.089896053075790405e-01 -7.964490056037902832e-01 5.047881603240966797e-01
-7.836490869522094727e-02 -8.148366212844848633e-01 1.988712847232818604e-01
3.869326710700988770e-01 -7.997839450836181641e-01 4.517228603363037109e-01
3.037841916084289551e-01 -8.200961351394653320e-01 -2.361086010932922363e-02
5.778005719184875488e-02 -9.247911572456359863e-01 1.706142574548721313e-01
-8.257001638412475586e-03 -9.108631014823913574e-01 1.139295846223831177e-01
4.297143220901489258e-02 -8.061699867248535156e-01 4.782289266586303711e-02
3.648076653480529785e-01 -7.717145085334777832e-01 3.791385889053344727e-01
2.737291157245635986e-01 -8.181996941566467285e-01 5.242385864257812500e-01
1.573166102170944214e-01 -9.239617586135864258e-01 1.418294012546539307e-01
2.942769229412078857e-01 -9.104872941970825195e-01 3.132467865943908691e-01
5.016075372695922852e-01 -8.358064293861389160e-01 2.058449983596801758e-01
2.826134264469146729e-01 -8.655814528465270996e-01 -2.755832672119140625e-02
1.477098762989044189e-01 -8.583428859710693359e-01 -4.743105173110961914e-02
7.649089395999908447e-02 -7.942155599594116211e-01 6.220677495002746582e-02
7.796065509319305420e-02 -7.711223959922790527e-01 2.267591655254364014e-01
3.168466985225677490e-01 -9.102510809898376465e-01 1.856476068496704102e-01
4.892051219940185547e-05 -8.224680423736572266e-01 4.300406575202941895e-02
2.909314632415771484e-02 -9.203775525093078613e-01 3.162392973899841309e-01
1.772639900445938110e-01 -7.853973507881164551e-01 4.546920955181121826e-02
3.904299139976501465e-01 -8.488825559616088867e-01 1.744303107261657715e-02
-4.906207323074340820e-03 -7.889224886894226074e-01 3.232079148292541504e-01
1.008071154356002808e-01 -9.224324822425842285e-01 3.317518234252929688e-01
1.701295375823974609e-02 -7.923843264579772949e-01 1.310690939426422119e-01
3.692462742328643799e-01 -8.622859120368957520e-01 4.501467347145080566e-01
8.794487267732620239e-02 -9.239391088485717773e-01 3.138536810874938965e-01
-9.272539615631103516e-02 -8.521239757537841797e-01 1.103824526071548462e-01
4.029816389083862305e-01 -8.905661702156066895e-01 2.527877390384674072e-01
6.326061487197875977e-02 -7.799675464630126953e-01 1.492582559585571289e-01
3.558379709720611572e-01 -8.990162014961242676e-01 1.388199925422668457e-01
4.830894470214843750e-01 -8.430570363998413086e-01 3.242452144622802734e-01
-2.892017364501953125e-04 -9.138547182083129883e-01 3.431011438369750977e-01
3.156807422637939453e-01 -8.986991047859191895e-01 3.739385008811950684e-01
2.024181485176086426e-01 -7.583334445953369141e-01 2.909161746501922607e-01
-8.227741718292236328e-02 -9.036056399345397949e-01 2.287263721227645874e-01
7.438862323760986328e-02 -9.255271553993225098e-01 2.869159579277038574e-01
3.186555504798889160e-01 -8.899444937705993652e-01 4.314841330051422119e-02
-7.145303487777709961e-02 -8.192539215087890625e-01 1.507032513618469238e-01
3.934654593467712402e-01 -7.880108952522277832e-01 8.161017298698425293e-02
2.464740574359893799e-01 -7.983076572418212891e-01 1.203447580337524414e-03
-3.266663849353790283e-02 -8.200105428695678711e-01 8.346213400363922119e-02
2.229273915290832520e-01 -7.575240135192871094e-01 2.408349215984344482e-01
3.958900570869445801e-01 -8.867433667182922363e-01 3.240491747856140137e-01
9.563299268484115601e-02 -8.739565014839172363e-01 -2.796763181686401367e-02
-8.579960465431213379e-02 -8.950394392013549805e-01 1.549957692623138428e-01
-1.011848449707031250e-01 -8.664115071296691895e-01 3.760073781013488770e-01
-5.542787909507751465e-02 -8.980128169059753418e-01 3.665063381195068359e-01
3.762940764427185059e-01 -8.868933916091918945e-01 3.597839176654815674e-01
3.661617636680603027e-01 -8.873777985572814941e-01 8.149479329586029053e-02
4.709056615829467773e-01 -7.872912287712097168e-01 2.602824568748474121e-01
-9.835723042488098145e-02 -8.443055152893066406e-01 1.312731206417083740e-01
4.264453351497650146e-01 -7.768494486808776855e-01 3.260201513767242432e-01
2.893294095993041992e-01 -7.576627135276794434e-01 2.313576042652130127e-01
2.961910068988800049e-01 -8.999223113059997559e-01 6.543146073818206787e-02
4.746876657009124756e-02 -9.244478344917297363e-01 2.815994620323181152e-01
6.813307851552963257e-02 -9.203951358795166016e-01 1.177294552326202393e-01
1.742048859596252441e-01 -7.909523844718933105e-01 4.889286160469055176e-01
4.740260243415832520e-01 -7.987267971038818359e-01 1.557163000106811523e-01
6.990741938352584839e-02 -9.267554283142089844e-01 2.554137110710144043e-01
4.138355255126953125e-01 -7.812691926956176758e-01 1.297741383314132690e-01
2.629862427711486816e-01 -8.521757721900939941e-01 5.221948623657226562e-01
-4.699957370758056641e-02 -9.047105312347412109e-01 3.446294963359832764e-01
4.795514047145843506e-02 -9.252462387084960938e-01 1.920224875211715698e-01
2.613839805126190186e-01 -7.864291071891784668e-01 3.399181365966796875e-02
2.609388828277587891e-01 -7.713579535484313965e-01 9.545740485191345215e-02
1.109967157244682312e-01 -7.757228612899780273e-01 1.263946890830993652e-01
2.833588719367980957e-01 -7.623827457427978516e-01 1.598455011844635010e-01
1.768347620964050293e-01 -7.639781236648559570e-01 3.607067465782165527e-01
2.976463735103607178e-01 -8.137201070785522461e-01 5.141467452049255371e-01
1.315484642982482910e-01 -8.841968178749084473e-01 4.936165511608123779e-01
2.408593893051147461e-01 -7.670812010765075684e-01 1.212006285786628723e-01
1.498206406831741333e-01 -7.622731328010559082e-01 2.294460833072662354e-01
-1.101816594600677490e-01 -8.802103996276855469e-01 1.615712493658065796e-01
8.281755447387695312e-02 -8.795586228370666504e-01 4.964666664600372314e-01
3.566744923591613770e-01 -9.030596613883972168e-01 2.232718020677566528e-01
3.563266098499298096e-01 -8.960589766502380371e-01 3.341977298259735107e-01
2.581153810024261475e-01 -9.127898812294006348e-01 3.396064341068267822e-01
2.565982937812805176e-01 -7.586898803710937500e-01 2.004557847976684570e-01
1.238215863704681396e-01 -8.322272300720214844e-01 5.354032516479492188e-01
-8.333209156990051270e-02 -8.580917716026306152e-01 9.187634289264678955e-02
2.952154874801635742e-01 -9.139473438262939453e-01 1.886005252599716187e-01
4.798172414302825928e-01 -7.918050289154052734e-01 2.310712635517120361e-01
1.798634827136993408e-01 -7.609695196151733398e-01 3.247913420200347900e-01
-1.268175542354583740e-01 -8.582584857940673828e-01 1.936592757701873779e-01
4.333311617374420166e-01 -7.808490991592407227e-01 1.623703241348266602e-01
4.474749267101287842e-01 -8.073018193244934082e-01 4.008169472217559814e-01
3.898324370384216309e-01 -8.270264267921447754e-01 1.314502954483032227e-02
-6.538614630699157715e-02 -8.298463225364685059e-01 4.109841883182525635e-01
2.206023931503295898e-01 -8.973279595375061035e-01 4.437007606029510498e-01
1.911151409149169922e-01 -8.565212488174438477e-01 5.323113203048706055e-01
-2.740420401096343994e-02 -7.985058426856994629e-01 3.537620604038238525e-01
2.661056518554687500e-01 -9.165061712265014648e-01 2.879346609115600586e-01
-2.512224018573760986e-02 -8.415189981460571289e-01 3.620788455009460449e-02
3.161191940307617188e-01 -7.702519893646240234e-01 4.036317169666290283e-01
3.019420206546783447e-01 -9.113488793373107910e-01 1.589577943086624146e-01
4.317552447319030762e-01 -8.522744178771972656e-01 6.413437426090240479e-02
4.364356994628906250e-01 -8.575031757354736328e-01 3.831513524055480957e-01
1.338348388671875000e-01 -7.679381370544433594e-01 3.635726273059844971e-01
1.244608461856842041e-01 -7.641911506652832031e-01 2.750929594039916992e-01
-1.029680669307708740e-02 -8.096579909324645996e-01 8.839610219001770020e-02
3.073951005935668945e-01 -9.060328006744384766e-01 3.345329761505126953e-01
3.420908451080322266e-01 -7.632852196693420410e-01 3.343702256679534912e-01
4.675300419330596924e-02 -7.759947776794433594e-01 2.395510226488113403e-01
-5.292440950870513916e-02 -9.117544293403625488e-01 2.564556598663330078e-01
8.451620489358901978e-02 -8.322911262512207031e-01 -2.328681945800781250e-02
3.956320881843566895e-02 -9.027312994003295898e-01 4.236455857753753662e-01
6.348320841789245605e-02 -8.003804087638854980e-01 4.696251153945922852e-01
2.272850573062896729e-01 -9.224938154220581055e-01 2.506089210510253906e-01
4.324104785919189453e-01 -8.233954310417175293e-01 5.195370316505432129e-02
1.967083364725112915e-01 -9.252195358276367188e-01 2.088164985179901123e-01
2.372861057519912720e-01 -7.798515558242797852e-01 5.673369765281677246e-02
2.195303142070770264e-01 -9.191393256187438965e-01 3.187179565429687500e-01
-3.381553292274475098e-02 -7.958343625068664551e-01 3.003599941730499268e-01
2.916175127029418945e-01 -7.879512906074523926e-01 4.759816527366638184e-01
2.031934261322021484e-02 -7.845109701156616211e-01 3.444337546825408936e-01
3.133773803710937500e-02 -8.940011858940124512e-01 2.659237384796142578e-02
9.672939777374267578e-03 -8.078119158744812012e-01 7.244332134723663330e-02
3.604524731636047363e-01 -8.381999135017395020e-01 4.868482947349548340e-01
6.929695606231689453e-03 -8.869097232818603516e-01 4.534349143505096436e-01
3.625914156436920166e-01 -7.708671092987060547e-01 1.370509564876556396e-01
-8.555451035499572754e-02 -8.955208063125610352e-01 3.254534304141998291e-01
-7.283091545104980469e-04 -8.174833655357360840e-01 4.607837200164794922e-01
-1.682032644748687744e-02 -8.597046732902526855e-01 4.752786159515380859e-01
1.307509839534759521e-01 -9.259691238403320312e-01 1.611591428518295288e-01
-5.877164006233215332e-02 -8.164759278297424316e-01 3.844103813171386719e-01
1.709985435009002686e-01 -9.265169501304626465e-01 1.999351531267166138e-01
3.075683712959289551e-01 -8.582883477210998535e-01 4.976555407047271729e-01
1.328899860382080078e-01 -9.239429831504821777e-01 1.358830332756042480e-01
2.924190163612365723e-01 -7.709756493568420410e-01 4.163674712181091309e-01
2.577725648880004883e-01 -9.109185338020324707e-01 9.498968720436096191e-02
-4.615159332752227783e-02 -8.186843991279602051e-01 1.061012744903564453e-01
6.589664518833160400e-02 -7.896007895469665527e-01 8.967722952365875244e-02
-1.714941859245300293e-02 -8.198841810226440430e-01 6.574355065822601318e-02
-4.915910959243774414e-02 -9.066679477691650391e-01 1.455216258764266968e-01
3.559609055519104004e-01 -7.748280167579650879e-01 4.025446772575378418e-01
1.518872678279876709e-01 -7.614270448684692383e-01 2.664867341518402100e-01
3.530202507972717285e-01 -7.616688609123229980e-01 2.898735105991363525e-01
1.286985874176025391e-01 -9.070836901664733887e-01 3.643190860748291016e-02
1.199423000216484070e-01 -9.202713966369628906e-01 3.509161472320556641e-01
2.552624344825744629e-01 -8.666533827781677246e-01 -3.478932380676269531e-02
2.722880244255065918e-01 -7.804394364356994629e-01 4.590669274330139160e-01
2.223646938800811768e-01 -7.809820175170898438e-01 4.647715687751770020e-01
3.252292275428771973e-01 -8.229025006294250488e-01 -1.887041330337524414e-02
1.489205062389373779e-01 -9.172253012657165527e-01 8.474804461002349854e-02
-1.330685317516326904e-01 -8.647515773773193359e-01 2.519188225269317627e-01
3.684986829757690430e-01 -8.846939802169799805e-01 3.818590641021728516e-01
3.886809945106506348e-01 -7.794802188873291016e-01 1.115770041942596436e-01
1.242769956588745117e-01 -8.714141249656677246e-01 5.155680179595947266e-01
2.606796026229858398e-01 -7.803073525428771973e-01 5.521446466445922852e-02
3.213111460208892822e-01 -8.047935962677001953e-01 2.478405833244323730e-03
2.247215360403060913e-01 -7.884683012962341309e-01 2.739876508712768555e-02
3.347578942775726318e-01 -8.558306694030761719e-01 -1.407334208488464355e-02
2.401281148195266724e-01 -7.752351164817810059e-01 4.434997737407684326e-01
1.319664716720581055e-01 -7.920910716056823730e-01 3.832313418388366699e-02
4.398123323917388916e-01 -8.170530796051025391e-01 4.191199541091918945e-01
2.809204161167144775e-02 -7.820815443992614746e-01 1.952269673347473145e-01
-2.815708518028259277e-03 -7.869424223899841309e-01 2.346387058496475220e-01
2.280741631984710693e-01 -8.867725729942321777e-01 -9.931504726409912109e-03
1.648715138435363770e-01 -9.268603324890136719e-01 2.447035163640975952e-01
5.177177488803863525e-02 -8.119110465049743652e-01 4.883379340171813965e-01
-1.217809319496154785e-02 -7.889476418495178223e-01 2.816739380359649658e-01
3.064964711666107178e-02 -8.401690125465393066e-01 5.059759020805358887e-01
2.069476246833801270e-01 -8.851388692855834961e-01 4.840017557144165039e-01
2.896753847599029541e-01 -9.131439328193664551e-01 2.890431582927703857e-01
3.925312757492065430e-01 -8.272369503974914551e-01 4.672607779502868652e-01
-1.547618210315704346e-02 -8.758721351623535156e-01 4.599673748016357422e-01
3.978866338729858398e-01 -7.674036622047424316e-01 2.784877419471740723e-01
-9.811273217201232910e-02 -8.279972672462463379e-01 3.353297114372253418e-01
1.702394336462020874e-01 -9.253074526786804199e-01 2.804121077060699463e-01
1.458245366811752319e-01 -9.272295236587524414e-01 2.562053799629211426e-01
1.770472228527069092e-01 -9.137516021728515625e-01 3.839212656021118164e-01
1.483484804630279541e-01 -8.006784915924072266e-01 5.056412220001220703e-01
4.618304371833801270e-01 -8.389761447906494141e-01 3.793417215347290039e-01
3.137321472167968750e-01 -7.696409821510314941e-01 1.158545464277267456e-01
2.270733118057250977e-01 -7.575795054435729980e-01 2.955196499824523926e-01
3.822852075099945068e-01 -7.692555189132690430e-01 3.420170545578002930e-01
3.885141909122467041e-01 -8.751232028007507324e-01 3.951388895511627197e-01
-2.562780678272247314e-02 -8.103539943695068359e-01 1.059310138225555420e-01
-1.287778317928314209e-01 -8.739432096481323242e-01 2.274834811687469482e-01
8.039251714944839478e-02 -7.700084447860717773e-01 2.546522617340087891e-01
1.614111363887786865e-01 -7.670267820358276367e-01 3.781964778900146484e-01
4.778820276260375977e-02 -8.813520073890686035e-01 4.832318723201751709e-01
1.727774739265441895e-02 -7.816946506500244141e-01 2.784565389156341553e-01
-1.063796281814575195e-01 -8.263045549392700195e-01 2.598418593406677246e-01
2.908571362495422363e-01 -8.443771600723266602e-01 5.185799598693847656e-01
-8.600890636444091797e-02 -9.007847905158996582e-01 1.985109448432922363e-01
4.071744680404663086e-01 -7.704852819442749023e-01 3.059554100036621094e-01
4.977233707904815674e-02 -8.972159624099731445e-01 4.460143446922302246e-01
2.249950170516967773e-02 -9.177473783493041992e-01 1.286630183458328247e-01
3.998053669929504395e-01 -8.455597758293151855e-01 4.494960606098175049e-01
-3.798574209213256836e-02 -8.026919960975646973e-01 1.680006682872772217e-01
-1.613333821296691895e-02 -8.007860183715820312e-01 1.354402303695678711e-01
1.963838487863540649e-01 -8.159549832344055176e-01 -2.991193532943725586e-02
4.067260622978210449e-01 -8.010923266410827637e-01 4.372655749320983887e-01
1.964185982942581177e-01 -7.622336745262145996e-01 1.753719747066497803e-01
1.102958172559738159e-01 -7.757727503776550293e-01 4.022956490516662598e-01
-2.436235547065734863e-02 -8.041737079620361328e-01 3.928847908973693848e-01
2.297275215387344360e-01 -8.495682477951049805e-01 -4.963842034339904785e-02
-6.193765997886657715e-02 -8.065891861915588379e-01 2.123204469680786133e-01
4.807098209857940674e-01 -8.564131855964660645e-01 1.968735158443450928e-01
1.531266123056411743e-01 -9.215025305747985840e-01 1.161760985851287842e-01
1.425288170576095581e-01 -8.223375082015991211e-01 -3.020220994949340820e-02
6.234768033027648926e-02 -9.042221903800964355e-01 4.076151549816131592e-02
9.032609313726425171e-02 -8.147951364517211914e-01 -8.313059806823730469e-04
-1.126965284347534180e-01 -8.352673649787902832e-01 2.017936706542968750e-01
5.712115764617919922e-02 -8.369418382644653320e-01 -1.550281047821044922e-02
3.655661344528198242e-01 -8.415769338607788086e-01 -4.221230745315551758e-03
-4.970997571945190430e-03 -9.207172393798828125e-01 2.371226251125335693e-01
4.797629415988922119e-01 -8.267492055892944336e-01 3.564390242099761963e-01
1.424818783998489380e-01 -8.819867968559265137e-01 -2.578938007354736328e-02
2.733440995216369629e-01 -7.681453227996826172e-01 1.148821562528610229e-01
3.814185857772827148e-01 -8.925348520278930664e-01 1.394133716821670532e-01
4.583951234817504883e-01 -7.822833657264709473e-01 2.374084293842315674e-01
4.222172498703002930e-02 -8.754489421844482422e-01 -7.706940174102783203e-03
2.826337516307830811e-02 -9.152035713195800781e-01 3.574477434158325195e-01
2.012616842985153198e-01 -9.130591750144958496e-01 3.785579204559326172e-01
2.283955216407775879e-01 -8.683923482894897461e-01 -3.871211409568786621e-02
-4.341328144073486328e-02 -8.911671638488769531e-01 7.687324285507202148e-02
9.590416401624679565e-02 -8.663493990898132324e-01 5.178841352462768555e-01
2.249885350465774536e-01 -7.653800249099731445e-01 1.356936395168304443e-01
-9.973227977752685547e-03 -8.933456540107727051e-01 5.145622789859771729e-02
2.282978594303131104e-01 -9.153959155082702637e-01 1.037553846836090088e-01
2.996865212917327881e-01 -7.589399218559265137e-01 2.094123661518096924e-01
3.603543341159820557e-01 -7.765057086944580078e-01 1.035632491111755371e-01
2.514263689517974854e-01 -7.631806135177612305e-01 1.499028205871582031e-01
1.850652694702148438e-01 -8.044377565383911133e-01 -8.771121501922607422e-03
3.228856921195983887e-01 -9.074440598487854004e-01 2.908295094966888428e-01
