3.782434761524200439e-01 -6.206316128373146057e-02 -2.461929172277450562e-01
9.451394081115722656e-01 -5.946202948689460754e-02 2.346719652414321899e-01
5.326582193374633789e-01 4.117970541119575500e-02 -4.029694497585296631e-01
2.859474718570709229e-01 -6.899418774992227554e-03 9.800493717193603516e-05
7.817412614822387695e-01 -2.133424729108810425e-01 1.469170600175857544e-01
4.859928488731384277e-01 -3.138473629951477051e-02 3.826932907104492188e-01
9.790866971015930176e-01 9.149514138698577881e-02 8.788688108325004578e-03
7.015845179557800293e-01 1.940117478370666504e-01 -2.014577537775039673e-01
7.499715685844421387e-01 1.242513656616210938e-01 -3.657481372356414795e-01
9.447566270828247070e-01 -6.577526032924652100e-02 -2.742170691490173340e-01
8.764075040817260742e-01 -1.063166558742523193e-01 2.899158596992492676e-01
8.307272195816040039e-01 1.615217328071594238e-01 -2.319003492593765259e-01
6.771864891052246094e-01 -1.177833825349807739e-01 -3.668313622474670410e-01
8.342355489730834961e-01 -1.941332817077636719e-01 -1.313243359327316284e-01
5.352786779403686523e-01 -1.801494956016540527e-01 -2.104046195745468140e-01
8.888685703277587891e-01 1.166031658649444580e-01 1.629154086112976074e-01
-7.576295137405395508e-01 4.143506288528442383e-02 -1.953584551811218262e-01
-5.973136425018310547e-01 1.111331209540367126e-01 -2.083424106240272522e-02
-5.408751368522644043e-01 -2.460170388221740723e-01 -6.108120828866958618e-02
-5.420440435409545898e-01 -2.114021182060241699e-01 -2.939891517162322998e-01
-8.126384019851684570e-01 -1.733258217573165894e-01 -1.955722123384475708e-01
-3.044897317886352539e-01 3.175023198127746582e-02 -2.239736020565032959e-01
-8.471018075942993164e-01 7.950723171234130859e-03 -7.568453997373580933e-02
-6.796004772186279297e-01 -1.574157476425170898e-01 2.857525348663330078e-01
-4.485691487789154053e-01 8.807926625013351440e-02 -1.970697641372680664e-01
-3.475885987281799316e-01 3.610985726118087769e-02 2.504665553569793701e-01
-2.692739367485046387e-01 5.041369795799255371e-02 -6.446292996406555176e-02
-8.435333967208862305e-01 -8.292943239212036133e-02 1.921704113483428955e-01
-4.999212026596069336e-01 7.549037784337997437e-02 2.581773102283477783e-01
-5.457754135131835938e-01 -2.406245470046997070e-01 -1.600088626146316528e-01
-5.889680981636047363e-01 1.053661927580833435e-01 -1.057394146919250488e-01
-8.003329038619995117e-01 -1.466222554445266724e-01 -2.706078290939331055e-01
-4.096218645572662354e-01 -1.201651617884635925e-01 -3.856939077377319336e-01
-5.283774733543395996e-01 8.592418581247329712e-02 -2.229135334491729736e-01
-6.817777156829833984e-01 -2.079229652881622314e-01 -2.692165076732635498e-01
-6.649286746978759766e-01 -4.932120442390441895e-02 3.633941113948822021e-01
-8.437165617942810059e-01 -1.543782055377960205e-01 -1.689859926700592041e-01
-5.161425471305847168e-01 -2.272348999977111816e-01 -2.284667640924453735e-01
-3.393290042877197266e-01 -1.458805650472640991e-01 2.103046923875808716e-01
-3.109562993049621582e-01 -1.089992001652717590e-02 -2.978628277778625488e-01
-5.977553129196166992e-01 -2.037136554718017578e-01 -3.147208094596862793e-01
-6.115630269050598145e-01 9.965736418962478638e-02 -1.263829022645950317e-01
-5.123391747474670410e-01 9.957518428564071655e-02 1.773166507482528687e-01
-6.516705751419067383e-01 1.027266755700111389e-01 2.089593745768070221e-02
-2.991388738155364990e-01 -1.999413222074508667e-02 2.521601617336273193e-01
-8.593962192535400391e-01 -1.239003688097000122e-01 -1.834828406572341919e-01
-4.299179613590240479e-01 -1.981415152549743652e-01 -2.755468487739562988e-01
-3.636304736137390137e-01 -1.276158541440963745e-01 2.668312489986419678e-01
-4.142830967903137207e-01 9.988587349653244019e-02 -1.070352867245674133e-01
-6.416922807693481445e-01 1.043898984789848328e-01 -1.786127313971519470e-02
-7.693120837211608887e-01 -6.039261072874069214e-02 2.941935956478118896e-01
-7.566591501235961914e-01 -1.746914833784103394e-01 -2.807822823524475098e-01
-2.398986220359802246e-01 -1.127335652709007263e-01 7.964236289262771606e-02
-6.804072856903076172e-01 9.606387466192245483e-02 -2.939272671937942505e-04
-4.072588384151458740e-01 -2.235715687274932861e-01 -3.321321308612823486e-02
-7.458776831626892090e-01 3.484604507684707642e-02 2.267239391803741455e-01
-8.378858566284179688e-01 -3.602684289216995239e-02 -2.195622324943542480e-01
-2.104637622833251953e-01 -2.580330148339271545e-02 3.739231079816818237e-02
-3.756704926490783691e-01 -2.081535160541534424e-01 4.087328165769577026e-02
-3.850004076957702637e-01 7.856134325265884399e-02 1.859568506479263306e-01
-2.141030132770538330e-01 -5.808441340923309326e-02 6.979446858167648315e-02
-5.114284753799438477e-01 -2.406480014324188232e-01 -1.325355321168899536e-01
-5.355926752090454102e-01 -2.433513998985290527e-01 6.631234660744667053e-03
-6.325880289077758789e-01 -1.111995279788970947e-01 -4.186477363109588623e-01
-4.788873195648193359e-01 -1.444735527038574219e-01 3.144246339797973633e-01
-6.231166720390319824e-01 -1.620436906814575195e-01 -3.824748396873474121e-01
-4.320119619369506836e-01 2.968876063823699951e-02 3.191498517990112305e-01
-5.213759541511535645e-01 1.006558462977409363e-01 -1.596984118223190308e-01
-2.857314944267272949e-01 -1.685154438018798828e-01 -1.047743484377861023e-03
-6.230861544609069824e-01 -2.205934226512908936e-01 -2.590080499649047852e-01
-8.713763952255249023e-01 -3.690250962972640991e-02 9.938354790210723877e-02
-4.424667358398437500e-01 -7.946198433637619019e-02 3.582771718502044678e-01
-4.530096948146820068e-01 -3.161429986357688904e-02 -4.077107906341552734e-01
-4.064393341541290283e-01 -9.974004328250885010e-02 3.279790580272674561e-01
-2.516624331474304199e-01 3.917939215898513794e-02 -4.074910283088684082e-02
-2.572194039821624756e-01 -1.465345919132232666e-01 2.254309132695198059e-03
-6.835136413574218750e-01 -2.269220650196075439e-01 8.475648611783981323e-02
-7.935986518859863281e-01 2.981191128492355347e-02 1.591405570507049561e-01
-7.942700386047363281e-01 4.987798631191253662e-02 4.315058887004852295e-02
-6.080709695816040039e-01 3.508775681257247925e-02 -3.341870605945587158e-01
-3.682230114936828613e-01 -1.176640018820762634e-02 3.162760436534881592e-01
-4.648493528366088867e-01 -1.986379325389862061e-01 -2.996680736541748047e-01
-8.025530576705932617e-01 -1.301333904266357422e-01 2.191053777933120728e-01
-8.123633265495300293e-01 3.976160287857055664e-02 2.157559432089328766e-02
-5.514240264892578125e-01 4.159989207983016968e-02 -3.346943855285644531e-01
-4.859404563903808594e-01 1.135531291365623474e-01 6.630076467990875244e-02
-3.931900858879089355e-01 9.730691462755203247e-02 1.017249152064323425e-01
-6.943354606628417969e-01 4.332831501960754395e-02 2.632322013378143311e-01
-6.208644509315490723e-01 4.979644715785980225e-02 2.963427305221557617e-01
-7.282388210296630859e-01 -6.652408093214035034e-02 -3.728497624397277832e-01
-7.475111484527587891e-01 -2.354973554611206055e-02 3.018915653228759766e-01
-2.222328484058380127e-01 -9.871524572372436523e-02 3.870318830013275146e-02
-4.569474458694458008e-01 -2.273144125938415527e-01 6.326644867658615112e-02
-5.748271942138671875e-01 -2.347940206527709961e-01 9.191999584436416626e-02
-7.316195964813232422e-01 -3.921238705515861511e-02 -3.565883636474609375e-01
-6.861673593521118164e-01 6.217052787542343140e-02 -2.216764539480209351e-01
-8.608282804489135742e-01 -1.521360576152801514e-01 -1.079769209027290344e-01
-5.553717017173767090e-01 8.865963667631149292e-02 -2.092038094997406006e-01
-6.161026954650878906e-01 1.080433800816535950e-01 5.371651798486709595e-02
-5.804537534713745117e-01 -1.390607282519340515e-02 3.757413029670715332e-01
-8.184025287628173828e-01 -5.794628337025642395e-02 -2.732106745243072510e-01
-6.518986225128173828e-01 -2.360280156135559082e-01 5.483044683933258057e-02
-6.598372459411621094e-01 7.716975361108779907e-02 2.018332928419113159e-01
-3.441391587257385254e-01 5.913414061069488525e-02 -2.060471028089523315e-01
-2.643219828605651855e-01 1.641944050788879395e-03 1.806763112545013428e-01
-7.493948936462402344e-01 -2.069466412067413330e-01 1.001644581556320190e-01
-4.474557638168334961e-01 1.111928299069404602e-01 -3.462333604693412781e-02
-8.253610730171203613e-01 -8.251752704381942749e-02 2.233334183692932129e-01
-3.717385530471801758e-01 -1.530055254697799683e-01 -3.210174441337585449e-01
-7.445735931396484375e-01 5.098599195480346680e-02 1.847456246614456177e-01
-3.560222387313842773e-01 7.729234546422958374e-02 1.529424190521240234e-01
-2.307579815387725830e-01 -1.073032990097999573e-02 -1.498039960861206055e-01
-2.267755866050720215e-01 -5.861554294824600220e-02 1.178067997097969055e-01
-4.414794445037841797e-01 -1.694224178791046143e-01 2.549855113029479980e-01
-7.911664247512817383e-01 -1.071492433547973633e-01 -3.140789866447448730e-01
-4.083173871040344238e-01 6.117493659257888794e-02 -2.596519291400909424e-01
-2.666829228401184082e-01 -2.621987834572792053e-02 2.066670209169387817e-01
-7.155146598815917969e-01 -1.019625440239906311e-01 -3.828465044498443604e-01
-7.846766710281372070e-01 2.682968229055404663e-02 -1.930652707815170288e-01
-6.113667488098144531e-01 5.788352340459823608e-02 -2.849321961402893066e-01
-8.595572710037231445e-01 -3.975293040275573730e-02 1.426016986370086670e-01
-4.521983861923217773e-01 -1.911886930465698242e-01 2.100572586059570312e-01
-2.454693913459777832e-01 -1.308556497097015381e-01 -1.184661611914634705e-01
-6.900164484977722168e-01 -1.806620955467224121e-01 2.376060783863067627e-01
-3.500641286373138428e-01 -1.537913084030151367e-01 -2.964345514774322510e-01
-7.863826751708984375e-01 -2.739311382174491882e-02 2.635192573070526123e-01
-2.204962372779846191e-01 -1.771366968750953674e-02 -1.231643557548522949e-01
-4.003573060035705566e-01 7.590717822313308716e-02 -2.098075747489929199e-01
-5.500404238700866699e-01 -2.215124666690826416e-03 -3.967405557632446289e-01
-2.377681434154510498e-01 -1.084766834974288940e-01 -1.587450653314590454e-01
-7.629511952400207520e-01 1.589272916316986084e-02 2.419122457504272461e-01
-5.433372259140014648e-01 1.122815832495689392e-01 8.969967067241668701e-02
-2.082843482494354248e-01 -5.989455431699752808e-02 3.382930904626846313e-02
-6.179655790328979492e-01 8.257433027029037476e-02 -2.058895826339721680e-01
-4.667228162288665771e-01 -6.726379692554473877e-02 3.713471889495849609e-01
-7.571692466735839844e-01 3.078886121511459351e-02 -2.271147966384887695e-01
-7.326279282569885254e-01 -2.054831087589263916e-01 1.305178701877593994e-01
-8.267691731452941895e-01 -8.704648166894912720e-02 -2.690125405788421631e-01
-3.087385594844818115e-01 -1.800486445426940918e-01 2.461569570004940033e-02
-3.419839143753051758e-01 8.190117031335830688e-02 1.007480993866920471e-01
-2.944570481777191162e-01 -1.741873919963836670e-01 -9.674754738807678223e-02
-5.497459769248962402e-01 -4.407110810279846191e-02 3.862967789173126221e-01
-6.155510544776916504e-01 9.443540126085281372e-02 1.673538833856582642e-01
-4.837816059589385986e-01 1.110700592398643494e-01 9.500499814748764038e-02
-5.560567378997802734e-01 1.058369800448417664e-01 1.383395940065383911e-01
-5.363150835037231445e-01 -1.198523789644241333e-01 -4.255455136299133301e-01
-5.639111995697021484e-01 -1.084298938512802124e-01 -4.309226870536804199e-01
-4.964901804924011230e-01 3.477775305509567261e-02 -3.456003069877624512e-01
-2.770692408084869385e-01 2.474679797887802124e-02 1.693835109472274780e-01
-4.653958678245544434e-01 7.283998280763626099e-02 2.560622692108154297e-01
-5.311186909675598145e-01 -2.002655863761901855e-01 -3.212922215461730957e-01
-3.441765308380126953e-01 8.197125047445297241e-02 -1.053604185581207275e-01
-7.158080339431762695e-01 6.961060315370559692e-02 -1.539241373538970947e-01
-8.193170428276062012e-01 3.098147362470626831e-02 -7.371896505355834961e-02
-2.217620313167572021e-01 5.583412945270538330e-03 1.630608551204204559e-02
-5.994602441787719727e-01 -2.368397414684295654e-01 7.710562646389007568e-02
-6.504114866256713867e-01 -1.651581376791000366e-01 -3.699596226215362549e-01
-6.560510993003845215e-01 9.427405148744583130e-02 -1.073072627186775208e-01
-6.204936504364013672e-01 -2.094366550445556641e-01 -2.949121892452239990e-01
-2.514992952346801758e-01 1.864410191774368286e-02 1.202930435538291931e-01
-3.612150847911834717e-01 -1.869122833013534546e-01 -2.280325591564178467e-01
-5.806835293769836426e-01 4.844243824481964111e-02 -3.163430094718933105e-01
-4.724395871162414551e-01 5.085388571023941040e-02 -3.110985159873962402e-01
-8.313689231872558594e-01 8.545912802219390869e-03 1.267980933189392090e-01
-5.031440854072570801e-01 -1.243316978216171265e-01 3.452225327491760254e-01
-2.210120558738708496e-01 -2.047014236450195312e-02 8.765803277492523193e-02
-4.532256722450256348e-01 -2.315060198307037354e-01 -1.352040916681289673e-01
-2.273293733596801758e-01 -6.951263546943664551e-02 -1.732404381036758423e-01
-4.280833899974822998e-01 -2.496536448597908020e-02 -3.944498896598815918e-01
-3.255439102649688721e-01 -1.150816157460212708e-01 2.436252832412719727e-01
-3.244102895259857178e-01 -8.561079949140548706e-02 2.713321149349212646e-01
-7.034750580787658691e-01 8.823292702436447144e-02 5.424298346042633057e-02
-7.466878890991210938e-01 5.697301775217056274e-02 -1.559138000011444092e-01
-6.078336238861083984e-01 -1.814539879560470581e-01 -3.581077456474304199e-01
-6.463626623153686523e-01 2.075574547052383423e-02 3.288529813289642334e-01
-4.468291401863098145e-01 -1.658720076084136963e-01 -3.561722338199615479e-01
-8.121545314788818359e-01 3.667104989290237427e-02 6.450205296277999878e-02
-2.444563210010528564e-01 -4.826441407203674316e-03 1.438491195440292358e-01
-2.807489037513732910e-01 1.607160270214080811e-02 -2.182728350162506104e-01
-2.135041952133178711e-01 -1.471931487321853638e-02 -7.536226511001586914e-02
-4.451971948146820068e-01 1.022937968373298645e-01 1.343428045511245728e-01
-7.407957315444946289e-01 -1.749627888202667236e-01 2.114642411470413208e-01
-7.124939560890197754e-01 -1.827402561902999878e-01 2.178243696689605713e-01
-7.037467360496520996e-01 7.432676106691360474e-02 1.592755913734436035e-01
-8.725069761276245117e-01 -2.181480824947357178e-02 -7.500695437192916870e-02
-2.693909406661987305e-01 -1.582401543855667114e-01 -2.327319048345088959e-02
-3.511411249637603760e-01 -1.932753622531890869e-01 -1.809784770011901855e-01
-5.673232674598693848e-01 -5.656161904335021973e-02 -4.315605461597442627e-01
-6.487893462181091309e-01 9.420052915811538696e-02 1.333766281604766846e-01
-2.812165021896362305e-01 -4.775927215814590454e-02 2.328439652919769287e-01
-4.844043254852294922e-01 5.774365365505218506e-02 2.943043410778045654e-01
-3.805446624755859375e-01 5.104023218154907227e-02 -2.645084261894226074e-01
-6.484521627426147461e-01 -2.262980043888092041e-01 -2.243185490369796753e-01
-2.412608861923217773e-01 2.845595777034759521e-02 3.241667151451110840e-02
-2.780050337314605713e-01 -2.521026879549026489e-02 -2.672180831432342529e-01
-5.456643700599670410e-01 3.810279071331024170e-02 3.313437104225158691e-01
-4.924152195453643799e-01 1.156729087233543396e-01 1.431256532669067383e-03
-6.042834520339965820e-01 6.638424843549728394e-02 2.681323289871215820e-01
-3.660404086112976074e-01 -2.095827460289001465e-01 -9.231620281934738159e-02
-6.826419830322265625e-01 -2.384963631629943848e-01 -3.934795036911964417e-02
-5.743017792701721191e-01 2.134080976247787476e-02 3.492187857627868652e-01
-6.311880350112915039e-01 -2.448901534080505371e-01 -7.776822894811630249e-02
-7.007267475128173828e-01 2.520860731601715088e-02 2.898901998996734619e-01
-4.745588898658752441e-01 -1.789731681346893311e-01 2.523404955863952637e-01
-3.465624153614044189e-01 -1.120737940073013306e-01 -3.435195386409759521e-01
-3.779783844947814941e-01 -2.045237421989440918e-01 7.234549522399902344e-02
-5.767750740051269531e-01 7.591369003057479858e-02 -2.477500289678573608e-01
-8.885247707366943359e-01 -7.276502251625061035e-02 -1.005253121256828308e-01
-5.104265809059143066e-01 -2.191058695316314697e-01 -2.595458924770355225e-01
-7.543427348136901855e-01 7.090585678815841675e-02 -9.092867374420166016e-03
-4.895116090774536133e-01 1.141943559050559998e-01 -4.157080501317977905e-02
-6.229624748229980469e-01 -1.669331341981887817e-01 2.902618944644927979e-01
-5.900732874870300293e-01 8.315486460924148560e-02 2.269323170185089111e-01
-3.146169185638427734e-01 7.555931061506271362e-02 -6.108085811138153076e-02
-4.662070870399475098e-01 -1.620228290557861328e-01 2.819563448429107666e-01
-2.784785628318786621e-01 3.948147594928741455e-02 1.359011679887771606e-01
-6.802045106887817383e-01 8.967383950948715210e-02 1.113364174962043762e-01
-2.482958734035491943e-01 -4.889936745166778564e-02 1.750827282667160034e-01
-6.742090582847595215e-01 2.339140325784683228e-02 -3.226776719093322754e-01
-5.957071781158447266e-01 4.078383743762969971e-02 3.199330270290374756e-01
-7.829080820083618164e-01 -2.016663849353790283e-01 5.671560019254684448e-02
-4.813948273658752441e-01 1.532447338104248047e-02 -3.717440664768218994e-01
-5.644425749778747559e-01 -7.965995371341705322e-02 3.810757994651794434e-01
-4.334155917167663574e-01 -1.517338752746582031e-01 2.825922667980194092e-01
-5.941475629806518555e-01 2.186238020658493042e-02 -3.599523305892944336e-01
-2.602481544017791748e-01 -1.967125385999679565e-02 -2.327314466238021851e-01
-8.574072122573852539e-01 -1.621010303497314453e-01 -3.278327360749244690e-02
-6.980585455894470215e-01 -1.926306486129760742e-01 -2.973329424858093262e-01
-5.265002250671386719e-01 1.868775486946105957e-02 3.540433943271636963e-01
-3.948183059692382812e-01 -2.184315919876098633e-01 -1.663226634263992310e-03
-6.681079268455505371e-01 -2.336482405662536621e-01 -1.667487919330596924e-01
-8.272119760513305664e-01 -1.107220277190208435e-01 2.039060592651367188e-01
-8.355686664581298828e-01 -1.637382507324218750e-01 8.720190823078155518e-02
-5.861606001853942871e-01 9.564421325922012329e-02 1.804938763380050659e-01
-3.438772559165954590e-01 -1.640213429927825928e-01 1.741295456886291504e-01
-3.249906897544860840e-01 8.222698420286178589e-02 2.111340127885341644e-02
-8.895173668861389160e-01 -6.755157560110092163e-02 4.919392615556716919e-02
-5.803887844085693359e-01 1.128473803400993347e-01 4.248277842998504639e-02
-6.675904989242553711e-01 -1.861109286546707153e-01 -3.294852375984191895e-01
-8.089267015457153320e-01 5.562379956245422363e-03 1.883782446384429932e-01
-5.766777992248535156e-01 -2.312852740287780762e-01 -2.236129790544509888e-01
-3.256000578403472900e-01 -1.687653660774230957e-01 -2.251448184251785278e-01
-3.063567280769348145e-01 -1.277038902044296265e-01 1.990220397710800171e-01
-5.268310308456420898e-01 -2.053952515125274658e-01 2.038308382034301758e-01
-3.810578584671020508e-01 -1.163372918963432312e-01 2.953651249408721924e-01
-5.558072924613952637e-01 8.649202436208724976e-02 2.259519994258880615e-01
-4.571124613285064697e-01 -5.897581577301025391e-03 -3.894130885601043701e-01
-6.176760792732238770e-01 7.263612002134323120e-02 -2.407864481210708618e-01
-5.136015415191650391e-01 -1.927031278610229492e-01 2.349818944931030273e-01
-4.904525578022003174e-01 -2.271671593189239502e-01 -2.130084484815597534e-01
-5.136410593986511230e-01 4.256393015384674072e-02 3.241834044456481934e-01
-2.693759202957153320e-01 3.982406854629516602e-02 -1.272553950548171997e-01
-4.606318473815917969e-01 -2.171260416507720947e-01 1.252348870038986206e-01
-2.055897116661071777e-01 -3.433630988001823425e-02 -4.993354529142379761e-02
-7.279880642890930176e-01 -1.902900934219360352e-01 1.855115294456481934e-01
-8.944582939147949219e-01 -7.147307693958282471e-02 1.220408827066421509e-03
-7.656872272491455078e-01 6.195237487554550171e-02 7.841864973306655884e-02
-8.435630202293395996e-01 -1.083575934171676636e-01 1.769337803125381470e-01
-8.353662490844726562e-01 1.070528477430343628e-02 -1.173914596438407898e-01
-8.064095377922058105e-01 -9.899689257144927979e-02 2.428065240383148193e-01
-5.921685099601745605e-01 -1.208957731723785400e-01 -4.230229258537292480e-01
-3.497924804687500000e-01 3.902662545442581177e-02 -2.636216580867767334e-01
-8.469599485397338867e-01 9.443089365959167480e-03 5.406029522418975830e-02
-3.096200227737426758e-01 3.612004965543746948e-02 2.033586055040359497e-01
-2.880036234855651855e-01 -1.320330053567886353e-01 1.591995507478713989e-01
-4.415125846862792969e-01 5.300803482532501221e-02 2.886789441108703613e-01
-3.350813388824462891e-01 -1.787586808204650879e-01 1.104642972350120544e-01
-7.875936031341552734e-01 -1.994610726833343506e-01 -1.505900174379348755e-01
-8.407134413719177246e-01 -9.615087509155273438e-02 -2.439992129802703857e-01
-6.685813069343566895e-01 -1.230539083480834961e-01 3.323307633399963379e-01
-7.037422060966491699e-01 -2.344009280204772949e-01 -7.190183550119400024e-02
-7.014954090118408203e-01 -1.366700083017349243e-01 3.022125065326690674e-01
-4.988906681537628174e-01 8.532049506902694702e-02 2.299592494964599609e-01
-4.635360240936279297e-01 6.543674319982528687e-02 -2.749713361263275146e-01
-7.340893745422363281e-01 -8.665235340595245361e-02 3.194597959518432617e-01
-5.667191743850708008e-01 7.329619675874710083e-02 2.622566521167755127e-01
-3.881523609161376953e-01 8.581439405679702759e-02 -1.575097590684890747e-01
-8.003154397010803223e-01 4.770056158304214478e-02 -4.076858982443809509e-03
-7.718848586082458496e-01 2.320003509521484375e-02 2.157063484191894531e-01
-2.116408348083496094e-01 -8.743025362491607666e-02 -1.279542967677116394e-02
-7.479932308197021484e-01 -2.220161259174346924e-01 -1.627111062407493591e-02
-6.354269981384277344e-01 -2.204767465591430664e-01 1.485007405281066895e-01
-6.183750033378601074e-01 1.060523763298988342e-01 -6.125910580158233643e-02
-6.191014051437377930e-01 1.029722318053245544e-01 -9.259602427482604980e-02
-4.098922312259674072e-01 -1.861742436885833740e-01 1.903375685214996338e-01
-8.249700069427490234e-01 -1.634356081485748291e-01 1.161699220538139343e-01
-4.717103242874145508e-01 -2.377137839794158936e-01 -9.008637815713882446e-02
-5.876728296279907227e-01 -2.136650383472442627e-01 1.841212511062622070e-01
-4.599269628524780273e-01 -2.054683268070220947e-01 1.712090224027633667e-01
-5.862204432487487793e-01 -2.558162063360214233e-02 -4.131731092929840088e-01
-5.583173632621765137e-01 -2.047365605831146240e-01 2.114549577236175537e-01
-7.790533304214477539e-01 -2.100218832492828369e-01 -9.310040622949600220e-02
-6.465988159179687500e-01 8.740247040987014771e-02 1.728882044553756714e-01
-4.897312521934509277e-01 -9.363863617181777954e-02 -4.286504089832305908e-01
-8.728964924812316895e-01 -4.626724496483802795e-02 -1.397456824779510498e-01
-6.085360050201416016e-01 -1.389039605855941772e-01 3.328469991683959961e-01
-8.024671077728271484e-01 2.903694659471511841e-02 -1.459588706493377686e-01
-7.371650934219360352e-01 -1.262570917606353760e-02 -3.268406093120574951e-01
-4.700682759284973145e-01 9.485394507646560669e-02 -1.779050976037979126e-01
-4.974099993705749512e-01 6.043074280023574829e-02 -2.948093712329864502e-01
-6.961470246315002441e-01 -2.344630360603332520e-01 -1.689335331320762634e-03
-8.504196405410766602e-01 9.349592030048370361e-03 -3.116471320390701294e-02
-5.500699877738952637e-01 -2.227928042411804199e-01 -2.575796842575073242e-01
-5.516192913055419922e-01 1.151879802346229553e-01 -1.307609863579273224e-02
-3.880222439765930176e-01 -1.754655539989471436e-01 -2.945307493209838867e-01
-5.181864500045776367e-01 -2.397437989711761475e-01 3.253918141126632690e-02
-7.373952865600585938e-01 -1.270046085119247437e-01 -3.563122153282165527e-01
-4.350616335868835449e-01 1.074194684624671936e-01 8.098082989454269409e-02
-4.002493619918823242e-01 -4.197698831558227539e-02 -3.903837502002716064e-01
-4.235493242740631104e-01 -1.724128127098083496e-01 -3.308964371681213379e-01
-3.153215646743774414e-01 -1.848808526992797852e-01 -1.149111315608024597e-01
-4.045469164848327637e-01 -2.225553989410400391e-01 -8.826868981122970581e-02
-3.892766237258911133e-01 1.016071066260337830e-01 3.888337314128875732e-02
-6.740115880966186523e-01 -2.090414166450500488e-01 1.706133484840393066e-01
-2.549668252468109131e-01 -9.545944631099700928e-02 -2.258547991514205933e-01
-5.342860221862792969e-01 6.584417074918746948e-02 -2.832102179527282715e-01
-7.623835206031799316e-01 5.455928295850753784e-02 1.356625258922576904e-01
-7.032210826873779297e-01 -5.387939512729644775e-02 -3.850140571594238281e-01
-6.473662853240966797e-01 4.476314783096313477e-02 -2.973973155021667480e-01
-6.580668091773986816e-01 5.674184113740921021e-02 -2.616153657436370850e-01
-5.135464072227478027e-01 -1.437510699033737183e-01 -4.055215716361999512e-01
-6.131692528724670410e-01 -2.461226582527160645e-01 -3.983370587229728699e-02
-3.696070313453674316e-01 -1.343079283833503723e-02 -3.533268868923187256e-01
-7.281801700592041016e-01 6.783708930015563965e-03 2.917587757110595703e-01
-8.601607084274291992e-01 -1.575236618518829346e-01 -7.645496726036071777e-02
-2.357155978679656982e-01 9.312495589256286621e-03 8.968772739171981812e-02
-6.841176748275756836e-01 -1.961476206779479980e-01 2.035055160522460938e-01
-3.867572546005249023e-01 1.506946980953216553e-02 -3.335018455982208252e-01
-5.602943301200866699e-01 -2.159696221351623535e-01 1.756681650876998901e-01
-3.670915961265563965e-01 8.628398925065994263e-02 -1.246529221534729004e-01
-5.133433938026428223e-01 6.238057464361190796e-02 2.898125946521759033e-01
-8.111720085144042969e-01 3.922113776206970215e-02 -4.651368409395217896e-02
-8.499380350112915039e-01 -1.288199126720428467e-01 1.371528357267379761e-01
-3.528587222099304199e-01 8.829606324434280396e-02 -7.783570140600204468e-02
-5.907297134399414062e-01 -2.409254610538482666e-01 -1.632210314273834229e-01
-4.778595566749572754e-01 8.435975760221481323e-02 -2.224898487329483032e-01
-8.376321792602539062e-01 -8.945845067501068115e-03 1.533049643039703369e-01
-5.112891197204589844e-01 -9.368024766445159912e-02 3.709020316600799561e-01
-4.523307681083679199e-01 8.323546499013900757e-02 2.213831096887588501e-01
-7.704719901084899902e-01 -1.807806789875030518e-01 -2.502096593379974365e-01
-6.104394793510437012e-01 -7.750721275806427002e-02 3.767706751823425293e-01
-8.108701705932617188e-01 -1.903994828462600708e-01 3.736113756895065308e-02
-5.018182396888732910e-01 1.044159010052680969e-01 -1.368097662925720215e-01
-6.384583115577697754e-01 -1.407127678394317627e-01 -3.996331691741943359e-01
-2.800428569316864014e-01 -1.062254309654235840e-01 -2.636562585830688477e-01
-2.530249953269958496e-01 1.715742051601409912e-02 -1.554179787635803223e-01
-6.978671550750732422e-01 4.826957732439041138e-02 -2.510765492916107178e-01
-7.324259281158447266e-01 -2.237344086170196533e-01 2.445071749389171600e-02
-7.823870778083801270e-01 -2.417806163430213928e-02 -2.927097976207733154e-01
-7.852937579154968262e-01 -7.377930730581283569e-02 -3.226800560951232910e-01
-4.246638417243957520e-01 -2.269198596477508545e-01 -4.915498197078704834e-03
-6.498078107833862305e-01 -1.789908111095428467e-01 2.601172626018524170e-01
-4.062029719352722168e-01 1.057429686188697815e-01 -9.100073948502540588e-03
-8.795925378799438477e-01 -4.262855276465415955e-02 -1.029463112354278564e-01
-3.764185309410095215e-01 9.911350160837173462e-02 -8.429661393165588379e-03
-5.286283493041992188e-01 1.042461618781089783e-01 1.535875201225280762e-01
-4.005392789840698242e-01 4.449672996997833252e-02 2.808255255222320557e-01
-7.974843978881835938e-01 -1.986155509948730469e-01 -1.217158362269401550e-01
-4.561611413955688477e-01 -1.041157841682434082e-01 -4.160660505294799805e-01
-5.386052131652832031e-01 -1.638688147068023682e-01 -3.867550790309906006e-01
-6.193477511405944824e-01 -2.392654716968536377e-01 5.236423760652542114e-02
-6.761912703514099121e-01 9.672503918409347534e-02 3.618504852056503296e-02
-5.391077399253845215e-01 2.506723999977111816e-02 -3.630272448062896729e-01
-4.883227944374084473e-01 -1.478696614503860474e-02 3.725219666957855225e-01
-6.136833429336547852e-01 8.039772510528564453e-04 -3.822039365768432617e-01
-7.574462294578552246e-01 -1.145810559391975403e-01 2.841039001941680908e-01
-8.538097143173217773e-01 6.161302328109741211e-03 1.508996076881885529e-02
-7.064553499221801758e-01 5.873534828424453735e-02 2.132435142993927002e-01
-2.604640126228332520e-01 -7.912310957908630371e-02 1.848168671131134033e-01
-3.275902271270751953e-01 -8.776413649320602417e-02 -3.380394876003265381e-01
-8.388562798500061035e-01 -2.110259607434272766e-02 -1.948126107454299927e-01
-8.082488179206848145e-01 -1.859506815671920776e-01 7.259084284305572510e-02
-5.502607226371765137e-01 -2.440227866172790527e-01 -1.265153735876083374e-01
-5.894430875778198242e-01 -1.838918924331665039e-01 2.631461322307586670e-01
-7.482607960700988770e-01 6.607731431722640991e-02 1.088266894221305847e-01
-6.880473494529724121e-01 -1.337622702121734619e-01 -3.841277658939361572e-01
-4.603239595890045166e-01 1.124435290694236755e-01 5.202052742242813110e-02
-5.822037458419799805e-01 -1.945697665214538574e-01 -3.370358049869537354e-01
-3.799482882022857666e-01 -7.243048399686813354e-02 -3.843505978584289551e-01
-8.719997406005859375e-01 -6.412431597709655762e-02 1.241946145892143250e-01
-2.713395357131958008e-01 5.473978072404861450e-02 -1.869175024330615997e-02
-7.730967402458190918e-01 -2.138585746288299561e-01 -4.660671949386596680e-02
-4.319260418415069580e-01 -2.180122733116149902e-01 -1.993724405765533447e-01
-4.019606113433837891e-01 -2.034862935543060303e-01 1.195263937115669250e-01
-6.490665674209594727e-01 -2.392693459987640381e-01 -1.415530145168304443e-01
-8.803757429122924805e-01 -3.755377233028411865e-02 5.495655536651611328e-02
-6.441512703895568848e-01 -7.473880797624588013e-02 3.689739704132080078e-01
-6.151148080825805664e-01 1.055422499775886536e-01 9.087743610143661499e-02
-4.781807661056518555e-01 3.141374140977859497e-02 3.331044912338256836e-01
-4.282159507274627686e-01 -1.240933686494827271e-01 3.173940777778625488e-01
-6.742998361587524414e-01 8.624552935361862183e-02 1.442136615514755249e-01
-4.838908910751342773e-01 -2.274944484233856201e-01 9.251625090837478638e-02
-8.159828186035156250e-01 2.678734809160232544e-02 1.080917641520500183e-01
-8.730730414390563965e-01 -1.438106894493103027e-01 -1.544487383216619492e-02
-8.807175159454345703e-01 -1.307603120803833008e-01 -6.614824384450912476e-02
-6.885794997215270996e-01 -2.334727942943572998e-01 -1.379352807998657227e-01
-8.051443099975585938e-01 -4.249587655067443848e-04 -2.231017798185348511e-01
-6.589698791503906250e-01 7.124293595552444458e-02 -2.166124582290649414e-01
-8.245545625686645508e-01 -1.862881779670715332e-01 -1.289976760745048523e-03
-4.446399211883544922e-01 -1.252725869417190552e-01 -3.999053239822387695e-01
-5.369455218315124512e-01 -1.441113054752349854e-01 3.282282352447509766e-01
-3.105650246143341064e-01 -1.236884295940399170e-01 -2.910129427909851074e-01
-3.120257258415222168e-01 6.864034384489059448e-02 1.019621416926383972e-01
-8.786276578903198242e-01 -1.039914339780807495e-01 -1.417657285928726196e-01
-3.848797678947448730e-01 9.783639758825302124e-02 -7.090344280004501343e-02
-4.985231459140777588e-01 -1.726919412612915039e-01 2.745561599731445312e-01
-6.951599717140197754e-01 -2.288333773612976074e-01 5.742141604423522949e-02
-5.766507983207702637e-01 -2.453932762145996094e-01 -1.626290380954742432e-03
-2.799843847751617432e-01 3.816993534564971924e-02 -1.616974025964736938e-01
-2.821929454803466797e-01 -1.677694618701934814e-01 -6.563749909400939941e-02
-3.060811460018157959e-01 -4.626008868217468262e-02 -3.154038190841674805e-01
-3.984890580177307129e-01 -2.131341099739074707e-01 -1.709634363651275635e-01
-6.981012225151062012e-01 -5.805085226893424988e-02 3.476418256759643555e-01
-6.273601055145263672e-01 -2.431122362613677979e-01 -1.217611655592918396e-01
-3.356597423553466797e-01 7.173844426870346069e-02 -1.453439891338348389e-01
-4.236300587654113770e-01 -2.257054448127746582e-01 -1.235818713903427124e-01
-6.913371086120605469e-01 9.220866113901138306e-02 -3.238570317625999451e-02
-7.115727663040161133e-01 7.914442569017410278e-02 -1.071017459034919739e-01
-6.670622825622558594e-01 -9.454061836004257202e-02 -4.102964699268341064e-01
-4.354811608791351318e-01 -2.264303863048553467e-01 3.265047073364257812e-02
-5.805990099906921387e-01 -1.472624540328979492e-01 3.254748582839965820e-01
-6.061344146728515625e-01 1.007659956812858582e-01 1.396634131669998169e-01
-6.767885088920593262e-01 -2.349619939923286438e-02 3.506078720092773438e-01
-5.833249688148498535e-01 9.656586498022079468e-02 -1.643088161945343018e-01
-4.098284840583801270e-01 -7.090467959642410278e-02 3.460194468498229980e-01
-2.412244081497192383e-01 -1.261668205261230469e-01 3.485655784606933594e-02
-4.755187630653381348e-01 -2.291441261768341064e-01 -1.881567537784576416e-01
-5.399512052536010742e-01 5.662658065557479858e-02 3.016932308673858643e-01
-4.935242533683776855e-01 -1.977486014366149902e-01 2.143180519342422485e-01
-5.079963207244873047e-01 7.635279744863510132e-02 -2.537650167942047119e-01
-7.111884951591491699e-01 -2.475464716553688049e-02 3.310483098030090332e-01
-3.157450854778289795e-01 5.855638533830642700e-02 -1.642415225505828857e-01
-5.631617903709411621e-01 -2.467967867851257324e-01 -4.181981086730957031e-02
-6.428452730178833008e-01 1.121900975704193115e-02 -3.582691252231597900e-01
-4.574027657508850098e-01 -3.522167354822158813e-02 3.702242076396942139e-01
-5.914133191108703613e-01 -2.468756139278411865e-01 -7.755541801452636719e-02
-8.550156950950622559e-01 -1.694047823548316956e-02 -1.410105526447296143e-01
-5.076186656951904297e-01 1.081970110535621643e-01 1.274621337652206421e-01
-4.227080047130584717e-01 9.377723187208175659e-02 -1.536680608987808228e-01
-5.374734401702880859e-01 -2.147760987281799316e-02 -4.142278730869293213e-01
-7.256898880004882812e-01 5.315688252449035645e-02 -2.047410756349563599e-01
-2.923243641853332520e-01 -1.453325748443603516e-01 -2.227859050035476685e-01
-5.961641073226928711e-01 -8.273349702358245850e-02 -4.320605695247650146e-01
-7.338391542434692383e-01 -5.770404264330863953e-02 3.244170844554901123e-01
-6.943963170051574707e-01 -2.262127399444580078e-01 -1.828294098377227783e-01
-2.259206771850585938e-01 -1.125182509422302246e-01 -7.427403330802917480e-02
-2.799552679061889648e-01 -1.389267891645431519e-01 1.248494759202003479e-01
-8.933776617050170898e-01 -1.003013774752616882e-01 -3.876932337880134583e-02
-5.758625268936157227e-01 1.106163784861564636e-01 -6.760530918836593628e-02
-7.758246064186096191e-01 -1.943753659725189209e-01 -2.011450231075286865e-01
-7.935622334480285645e-01 -2.044261693954467773e-01 -2.085465192794799805e-02
-7.341594696044921875e-01 -2.192800939083099365e-01 -1.601570695638656616e-01
-3.540397882461547852e-01 -8.280228078365325928e-02 -3.638932108879089355e-01
-7.838805317878723145e-01 -1.285955607891082764e-01 2.439337670803070068e-01
-5.648546814918518066e-01 1.396452635526657104e-02 -3.764900863170623779e-01
-3.129140734672546387e-01 -1.778203397989273071e-01 5.741790682077407837e-02
-8.316051959991455078e-01 -1.738180518150329590e-01 -1.393263190984725952e-01
-2.185365557670593262e-01 -5.082269012928009033e-02 -1.459499001502990723e-01
-7.343251109123229980e-01 -1.401975452899932861e-01 2.761084437370300293e-01
-5.936162471771240234e-01 -2.240140140056610107e-01 -2.534882426261901855e-01
-6.230930089950561523e-01 -1.936674416065216064e-01 -3.318739235401153564e-01
-2.989518344402313232e-01 -1.786731481552124023e-01 -4.300496727228164673e-02
-5.106124877929687500e-01 -1.739976555109024048e-01 -3.677402436733245850e-01
-2.862856686115264893e-01 -9.993177652359008789e-02 2.086580097675323486e-01
-7.710903286933898926e-01 -1.939953863620758057e-01 1.191746667027473450e-01
-5.877476930618286133e-01 1.078549250960350037e-01 1.028190180659294128e-01
-7.502357959747314453e-01 6.571175903081893921e-02 -9.875467419624328613e-02
-5.778545141220092773e-01 -2.254276275634765625e-01 1.395221650600433350e-01
-4.354009628295898438e-01 -2.150926589965820312e-01 1.083601489663124084e-01
-2.714586555957794189e-01 -1.534582972526550293e-01 3.981850296258926392e-02
-4.219192266464233398e-01 -1.782768368721008301e-01 2.217423915863037109e-01
-6.531615853309631348e-01 -2.028208971023559570e-01 -2.999657094478607178e-01
-4.974079728126525879e-01 -2.098732888698577881e-01 1.785301268100738525e-01
-4.401046335697174072e-01 -2.321174740791320801e-01 -5.132506042718887329e-02
-5.688212513923645020e-01 -1.794846057891845703e-01 -3.653812408447265625e-01
-3.905104994773864746e-01 7.007864862680435181e-02 2.181547880172729492e-01
-2.057908773422241211e-01 -6.475425511598587036e-02 -5.984964221715927124e-02
-6.411496400833129883e-01 -4.059780389070510864e-02 -4.083741605281829834e-01
-4.782834351062774658e-01 9.713736921548843384e-02 1.804649084806442261e-01
-6.323902606964111328e-01 -4.706277698278427124e-02 3.747466802597045898e-01
-2.953537702560424805e-01 6.282556802034378052e-02 -9.111846238374710083e-02
-2.551954984664916992e-01 -9.914059191942214966e-02 1.511274427175521851e-01
-3.311287760734558105e-01 5.931264907121658325e-02 1.787664443254470825e-01
-2.898663580417633057e-01 3.403696417808532715e-02 -1.941384822130203247e-01
-7.402616739273071289e-01 -1.594165563583374023e-01 2.425300478935241699e-01
-5.861403942108154297e-01 5.664127320051193237e-02 2.949957251548767090e-01
-6.514208316802978516e-01 8.619824796915054321e-02 -1.620192080736160278e-01
-4.289448261260986328e-01 3.988882899284362793e-02 -3.171730637550354004e-01
-3.397393524646759033e-01 -1.992800831794738770e-01 -2.778553403913974762e-02
-4.227205514907836914e-01 7.140252739191055298e-02 2.389467656612396240e-01
-3.665004670619964600e-01 -2.035906612873077393e-01 -1.580704897642135620e-01
-3.134791851043701172e-01 1.730756461620330811e-02 -2.640361487865447998e-01
-5.517774224281311035e-01 7.092252373695373535e-03 3.644978106021881104e-01
-3.147944211959838867e-01 7.487930357456207275e-03 2.516390979290008545e-01
-5.880814790725708008e-01 -4.790333658456802368e-02 3.841164112091064453e-01
-6.915613412857055664e-01 3.856715559959411621e-02 -2.803222239017486572e-01
-4.729771614074707031e-01 -1.493991017341613770e-01 -3.891657590866088867e-01
-4.280968010425567627e-01 1.363598555326461792e-02 -3.573440611362457275e-01
-2.136149704456329346e-01 -7.139850407838821411e-03 -8.569508790969848633e-03
-2.575330138206481934e-01 3.424062579870223999e-02 9.023585915565490723e-02
-4.115209579467773438e-01 -2.140118777751922607e-01 7.978484779596328735e-02
-5.556392073631286621e-01 -2.424564361572265625e-01 3.001553006470203400e-02
-4.539132118225097656e-01 1.047540381550788879e-01 -1.128960400819778442e-01
-7.114390730857849121e-01 8.706942945718765259e-02 1.999435946345329285e-03
-8.672503232955932617e-01 -1.424197405576705933e-01 4.500591754913330078e-02
-7.371386885643005371e-01 7.485344260931015015e-02 -6.507126986980438232e-02
-2.835040986537933350e-01 -1.332521438598632812e-02 2.269530296325683594e-01
-3.504101634025573730e-01 -7.790761440992355347e-02 3.013368248939514160e-01
-3.871349394321441650e-01 1.159676164388656616e-02 3.132090270519256592e-01
-7.759011387825012207e-01 -1.752826124429702759e-01 1.707274913787841797e-01
-3.319247961044311523e-01 -1.798048019409179688e-01 -1.989869028329849243e-01
-8.586732149124145508e-01 -7.384137064218521118e-02 -2.051472961902618408e-01
-6.979990601539611816e-01 6.986209005117416382e-02 -1.796918064355850220e-01
-7.555091381072998047e-01 1.361056417226791382e-02 -2.678351700305938721e-01
-8.340052366256713867e-01 -1.814799308776855469e-01 -4.940945655107498169e-02
-2.569200396537780762e-01 -1.352253258228302002e-01 -1.532516777515411377e-01
-1.757144927978515625e-03 1.001584231853485107e-01 -2.348425984382629395e-01
-3.077601790428161621e-01 -1.134953647851943970e-02 5.444525182247161865e-02
-3.053426146507263184e-01 -6.610459089279174805e-02 -1.267400383949279785e-01
-3.551207482814788818e-02 1.324836909770965576e-01 -2.184040471911430359e-02
-2.674466669559478760e-01 -1.389290243387222290e-01 1.809297949075698853e-01
-1.616077572107315063e-01 1.276772916316986084e-01 7.784637808799743652e-02
-9.511953592300415039e-02 -2.051346004009246826e-01 -9.019241482019424438e-02
-8.003196120262145996e-02 1.374377757310867310e-01 -1.680015325546264648e-01
-1.936675906181335449e-01 5.395043268799781799e-02 2.428950518369674683e-01
2.414126694202423096e-02 8.474722504615783691e-02 -8.005107939243316650e-02
-1.976223289966583252e-01 -1.661173701286315918e-01 -3.208476305007934570e-01
6.311222910881042480e-03 7.758182287216186523e-02 -2.799197435379028320e-01
4.374210536479949951e-02 4.517111554741859436e-02 -1.781702339649200439e-01
-3.172915875911712646e-01 -4.579095914959907532e-02 -4.577904939651489258e-03
3.084971010684967041e-02 -8.041307330131530762e-02 -1.746571063995361328e-01
-2.679725885391235352e-01 -1.947501003742218018e-01 8.082233369350433350e-03
-3.427493572235107422e-02 6.602321565151214600e-02 1.404530405998229980e-01
4.556196928024291992e-02 1.807347312569618225e-02 -2.278074622154235840e-01
-1.863352060317993164e-01 -1.896709017455577850e-02 2.892702817916870117e-01
-2.732924371957778931e-02 1.327159702777862549e-01 -8.544189482927322388e-02
-2.504202127456665039e-01 -1.506885290145874023e-01 -2.597371339797973633e-01
4.740840196609497070e-02 -1.434057019650936127e-02 -1.312023401260375977e-01
-6.464115530252456665e-02 9.241133928298950195e-02 -3.151176273822784424e-01
-2.980743050575256348e-01 -7.641161978244781494e-02 1.771635860204696655e-01
-3.260263055562973022e-02 -1.630015522241592407e-01 -1.040479466319084167e-01
-1.484169065952301025e-01 -2.192199975252151489e-01 -3.998716175556182861e-02
-6.843003630638122559e-02 -1.897091120481491089e-01 -8.836762607097625732e-02
-1.366037577390670776e-01 1.162556856870651245e-01 1.450905203819274902e-01
-1.070069670677185059e-01 9.727586805820465088e-02 1.815796047449111938e-01
-9.504042565822601318e-02 -1.039936542510986328e-01 1.946714967489242554e-01
-1.296502351760864258e-01 1.435816287994384766e-01 -3.519051149487495422e-02
-3.176169842481613159e-02 1.764461398124694824e-03 1.636980772018432617e-01
-1.762103587388992310e-01 -6.997725367546081543e-02 -3.984552025794982910e-01
-1.688848733901977539e-01 -2.072953581809997559e-01 5.197325348854064941e-02
-1.335189938545227051e-01 1.223526448011398315e-01 -1.956057846546173096e-01
-2.149042934179306030e-01 -9.717539697885513306e-02 -3.518429994583129883e-01
-2.527570128440856934e-01 5.521281436085700989e-02 -1.230452507734298706e-01
-1.878972947597503662e-01 1.088789254426956177e-01 -1.399327665567398071e-01
-2.066374719142913818e-01 9.801965951919555664e-02 1.310168802738189697e-01
-2.573539018630981445e-01 -9.335130453109741211e-04 -2.277439236640930176e-01
-1.755326986312866211e-03 -1.335417777299880981e-01 -1.573196649551391602e-01
-7.311117649078369141e-02 6.229818984866142273e-02 1.981977075338363647e-01
-2.880310416221618652e-01 7.997974753379821777e-04 -1.172795444726943970e-01
-3.199301660060882568e-01 -6.891508400440216064e-02 6.022118031978607178e-02
-1.350230425596237183e-01 -9.791492670774459839e-02 -4.209285974502563477e-01
3.779679536819458008e-04 -1.254445314407348633e-01 -2.455570846796035767e-01
-2.745908498764038086e-01 1.505602151155471802e-03 -1.714001297950744629e-01
-1.912528872489929199e-01 -1.465687900781631470e-01 -3.506811261177062988e-01
-4.674506187438964844e-02 -7.508037984371185303e-02 -4.210004806518554688e-01
-5.623898655176162720e-02 -1.539301723241806030e-01 3.514115512371063232e-02
8.308723568916320801e-03 -8.057890832424163818e-02 -3.336424231529235840e-01
-3.087733983993530273e-01 -1.269579827785491943e-01 8.786562085151672363e-02
5.040854215621948242e-03 -6.678630411624908447e-02 -3.572900295257568359e-01
-3.190721869468688965e-01 -1.107762455940246582e-01 1.077709347009658813e-02
-7.643171399831771851e-02 1.189356893301010132e-01 -2.467785328626632690e-01
-2.129691392183303833e-01 1.031405478715896606e-02 2.715932130813598633e-01
2.181908488273620605e-02 -3.047396428883075714e-02 -3.377539515495300293e-01
-7.500626146793365479e-02 -1.872003674507141113e-01 -3.842498362064361572e-02
-1.742615550756454468e-02 -1.438479274511337280e-01 -7.954223453998565674e-02
-1.719454824924468994e-01 -1.838720031082630157e-02 -3.871197104454040527e-01
-1.421706825494766235e-01 -4.661244899034500122e-02 2.755464911460876465e-01
-2.567084431648254395e-01 6.119645759463310242e-02 -7.824846357107162476e-02
-1.434626281261444092e-01 1.385847330093383789e-01 -7.385169714689254761e-02
-2.444418221712112427e-01 -1.817870140075683594e-02 -2.772577404975891113e-01
-7.451400160789489746e-03 6.985770165920257568e-02 -3.192098140716552734e-01
-5.692707747220993042e-02 -1.425356715917587280e-01 6.675130128860473633e-02
1.397028565406799316e-03 -1.127347201108932495e-01 -2.913380861282348633e-01
3.657545149326324463e-02 -6.583866477012634277e-02 -1.958480924367904663e-01
-1.512816846370697021e-01 1.380632668733596802e-01 -1.185524463653564453e-02
-4.587174206972122192e-02 -3.706845268607139587e-02 -4.284546971321105957e-01
-7.251835614442825317e-02 -1.504304856061935425e-01 -3.614181280136108398e-01
-3.069239258766174316e-01 -5.798411741852760315e-02 1.468749642372131348e-01
-8.437974750995635986e-02 -1.644370406866073608e-01 7.143180072307586670e-02
-2.059332430362701416e-01 -1.725918203592300415e-01 -3.016613721847534180e-01
-1.672107577323913574e-01 1.193499267101287842e-01 -1.458394527435302734e-01
-1.943700611591339111e-01 -1.877360641956329346e-01 -2.862133681774139404e-01
-2.628679275512695312e-01 3.031120821833610535e-02 -1.550459265708923340e-01
-2.239650785923004150e-01 -2.149752341210842133e-02 -3.191793560981750488e-01
-4.547741264104843140e-02 4.608023539185523987e-02 -3.823848366737365723e-01
-1.693274080753326416e-01 -2.121858000755310059e-01 3.016898781061172485e-02
-8.452951908111572266e-02 -1.880465745925903320e-01 -2.737905979156494141e-01
-2.832003831863403320e-01 -1.434649527072906494e-01 -1.824026256799697876e-01
-2.115537226200103760e-01 -2.173899710178375244e-01 -1.568241417407989502e-01
-1.243883371353149414e-01 -1.781552582979202271e-01 1.006072312593460083e-01
4.037430882453918457e-02 5.725040659308433533e-02 -1.581785678863525391e-01
-7.627539336681365967e-02 1.816504448652267456e-02 -4.135597348213195801e-01
-2.456927001476287842e-01 -2.109510451555252075e-01 -5.354226380586624146e-02
-3.606575727462768555e-02 9.033294022083282471e-02 -3.087581694126129150e-01
-2.926032990217208862e-02 -3.854899108409881592e-02 1.468869894742965698e-01
-2.888462543487548828e-01 -2.772684022784233093e-02 -1.618515551090240479e-01
-8.702719211578369141e-02 5.111413076519966125e-02 -3.796812891960144043e-01
-3.165789246559143066e-01 -4.199725762009620667e-02 5.579838156700134277e-02
-2.352182418107986450e-01 -2.103024125099182129e-01 -1.393285989761352539e-01
2.454955875873565674e-02 1.347954943776130676e-02 -3.243452906608581543e-01
-1.210815906524658203e-01 -2.052311748266220093e-01 -2.980880439281463623e-03
3.079596161842346191e-02 3.923557326197624207e-02 -1.724622398614883423e-02
-2.426863908767700195e-01 -8.683124929666519165e-02 -3.090320229530334473e-01
-4.243411123752593994e-02 -1.703234314918518066e-01 -2.321864813566207886e-01
1.024359464645385742e-02 -9.912621974945068359e-02 -5.488651990890502930e-02
-1.445783525705337524e-01 1.616579294204711914e-02 2.751045823097229004e-01
-1.820525527000427246e-01 9.385694563388824463e-02 -2.094535976648330688e-01
-1.880226731300354004e-01 -2.255789488554000854e-01 -9.012582898139953613e-02
-3.030909895896911621e-01 -1.565873026847839355e-01 -8.638627827167510986e-03
-9.340488910675048828e-02 1.443965733051300049e-01 8.231915533542633057e-03
-4.307478666305541992e-02 7.151101529598236084e-02 -3.472900390625000000e-01
-1.236075013875961304e-01 1.257031261920928955e-01 1.158431023359298706e-01
