3.480462729930877686e-01 2.961315214633941650e-03 -9.908662736415863037e-02
1.274988651275634766e-01 -1.755762696266174316e-01 2.746699564158916473e-02
3.599843680858612061e-01 1.867843419313430786e-02 5.679525062441825867e-02
4.251444637775421143e-01 3.612839430570602417e-02 -4.532192647457122803e-02
9.468667954206466675e-02 -1.652871072292327881e-01 -6.068851053714752197e-02
1.521710753440856934e-01 4.463335126638412476e-02 -3.901902586221694946e-02
4.451856017112731934e-01 2.787506580352783203e-02 -5.125796049833297729e-02
1.379607617855072021e-01 3.980857133865356445e-02 -4.769102111458778381e-02
3.838270902633666992e-01 -1.112292259931564331e-01 -6.888161599636077881e-02
2.288955450057983398e-02 -1.744564175605773926e-01 4.238629713654518127e-02
-1.973778009414672852e-01 -7.342952489852905273e-02 9.875420480966567993e-03
2.245654761791229248e-01 -1.596816033124923706e-01 -5.067836865782737732e-02
4.755393862724304199e-01 -8.544681966304779053e-02 -3.235090523958206177e-02
4.558251500129699707e-01 -8.750587701797485352e-02 1.908131316304206848e-02
2.727202177047729492e-01 1.160201430320739746e-02 7.581203430891036987e-02
4.011872410774230957e-01 3.572309017181396484e-02 2.355364896357059479e-02
2.282401174306869507e-01 -1.109342575073242188e-01 8.902361243963241577e-02
2.520968914031982422e-01 2.638893574476242065e-02 -8.533635735511779785e-02
4.865351617336273193e-01 -6.358794122934341431e-02 1.716543920338153839e-02
-5.635826289653778076e-02 -1.621218472719192505e-01 -4.680833593010902405e-02
-8.679071068763732910e-02 -1.589722037315368652e-01 -4.120239242911338806e-02
-8.528380095958709717e-02 -1.731907576322555542e-01 2.907783258706331253e-03
2.456054687500000000e-01 -7.992601394653320312e-02 9.809415042400360107e-02
4.883622527122497559e-01 1.352055370807647705e-02 -4.187639057636260986e-02
1.547938734292984009e-01 -9.832599014043807983e-02 1.029529199004173279e-01
2.648682594299316406e-01 -4.824225604534149170e-02 -1.188461333513259888e-01
2.398274540901184082e-01 -3.367112576961517334e-02 -1.180340796709060669e-01
2.184361219406127930e-02 -5.691825598478317261e-02 1.031078174710273743e-01
-1.733453273773193359e-01 -1.438381671905517578e-01 -3.595076035708189011e-03
-1.009615361690521240e-01 -9.980943053960800171e-03 5.050086881965398788e-03
2.527788281440734863e-03 2.171808481216430664e-02 -1.796428114175796509e-02
1.653545349836349487e-01 -1.660128533840179443e-01 -5.225018039345741272e-02
1.687304079532623291e-01 -2.411148324608802795e-02 -1.134893000125885010e-01
2.354981005191802979e-01 5.427905172109603882e-02 4.508228506892919540e-03
1.162216588854789734e-01 -1.738068461418151855e-01 -4.153089225292205811e-02
2.211101204156875610e-01 -2.016628161072731018e-02 -1.144231110811233521e-01
-4.122202098369598389e-02 -1.586074978113174438e-01 6.257398426532745361e-02
5.865006148815155029e-02 -8.775233477354049683e-02 -1.098355278372764587e-01
3.170808553695678711e-01 -1.493271291255950928e-01 -1.683334633708000183e-02
4.589010775089263916e-01 -6.861750036478042603e-02 3.535478562116622925e-02
1.724081337451934814e-01 4.843699932098388672e-02 -3.299732878804206848e-02
-2.389323711395263672e-02 -1.547864079475402832e-01 6.929048895835876465e-02
5.370795726776123047e-03 -1.409797817468643188e-01 8.400619775056838989e-02
4.323192536830902100e-01 -1.782684400677680969e-02 -9.041824191808700562e-02
5.062968730926513672e-01 6.232149899005889893e-03 -2.047901600599288940e-02
-1.306110620498657227e-02 -4.949531704187393188e-02 -9.417457878589630127e-02
1.322130560874938965e-01 -5.343557894229888916e-02 -1.173998937010765076e-01
-3.524500131607055664e-02 -1.746309697628021240e-01 -2.758795768022537231e-02
5.092315375804901123e-02 -1.826381236314773560e-01 9.898191317915916443e-03
2.406401038169860840e-01 -1.288295686244964600e-01 -9.091463685035705566e-02
-2.529990673065185547e-02 -1.125918924808502197e-01 9.578844159841537476e-02
1.104717180132865906e-01 -1.218858212232589722e-01 -1.022988706827163696e-01
4.541053175926208496e-01 -8.195523917675018311e-02 -6.299601495265960693e-02
7.765488326549530029e-02 -1.771782040596008301e-01 -3.534925356507301331e-02
-9.087139368057250977e-02 -1.074561774730682373e-01 -7.620149850845336914e-02
7.202208042144775391e-02 -4.332208633422851562e-02 1.040154546499252319e-01
4.043518006801605225e-01 -8.728323876857757568e-02 5.241764709353446960e-02
1.953073143959045410e-01 3.468558192253112793e-02 5.349885672330856323e-02
4.028949141502380371e-01 -1.148333549499511719e-01 2.031744271516799927e-02
1.444591879844665527e-01 -6.568194925785064697e-02 -1.186947152018547058e-01
1.171863079071044922e-02 -4.375872015953063965e-02 9.809969365596771240e-02
1.982397437095642090e-01 -5.959708988666534424e-02 1.053903326392173767e-01
-1.542371213436126709e-01 -5.422802269458770752e-02 -3.521883115172386169e-02
1.974560320377349854e-01 -1.559576243162155151e-01 5.229343101382255554e-02
5.378777533769607544e-02 -9.755641222000122070e-04 7.827984541654586792e-02
-5.317078530788421631e-02 5.250439047813415527e-03 2.225211076438426971e-02
1.402120143175125122e-01 -1.724347472190856934e-01 -4.130190983414649963e-02
-3.251862525939941406e-02 -8.600272238254547119e-03 -6.054273247718811035e-02
4.023806154727935791e-01 -1.849436014890670776e-02 6.563539057970046997e-02
2.479450404644012451e-02 -1.307479441165924072e-01 9.164728969335556030e-02
2.767619490623474121e-01 -4.913124814629554749e-02 9.653656929731369019e-02
5.031738281250000000e-01 -4.940076172351837158e-02 -5.062452331185340881e-02
5.717851221561431885e-02 3.443017601966857910e-02 1.029527559876441956e-02
-1.512701511383056641e-01 -1.085132062435150146e-01 -5.164765939116477966e-02
2.549438178539276123e-01 -5.663010850548744202e-02 9.959998726844787598e-02
4.909686744213104248e-01 -4.026043415069580078e-02 -6.513537466526031494e-02
3.954440355300903320e-01 -1.614047214388847351e-02 -9.918633103370666504e-02
3.579335808753967285e-01 -4.178027808666229248e-02 8.077616244554519653e-02
1.523828655481338501e-01 -1.079555898904800415e-01 -1.098265945911407471e-01
8.308436721563339233e-02 3.108367323875427246e-02 3.953370451927185059e-02
8.497376739978790283e-02 -1.813743710517883301e-01 1.283989846706390381e-02
-2.062099575996398926e-01 -1.011439710855484009e-01 -2.957414835691452026e-06
1.530424654483795166e-01 -1.757745742797851562e-01 -2.463440410792827606e-02
6.860745698213577271e-02 -8.889456093311309814e-02 1.071057170629501343e-01
2.324206382036209106e-01 1.637534052133560181e-02 7.466352730989456177e-02
3.696557879447937012e-02 -8.834945410490036011e-02 -1.069908067584037781e-01
5.151072889566421509e-02 -7.426180690526962280e-02 1.073618382215499878e-01
2.592914700508117676e-01 4.143799841403961182e-02 4.306960105895996094e-02
2.839050590991973877e-01 4.414107650518417358e-02 3.642564639449119568e-02
-7.041530311107635498e-02 -1.526524722576141357e-01 -5.495690554380416870e-02
8.489792048931121826e-02 3.893658518791198730e-02 -2.034125104546546936e-02
3.352590799331665039e-01 -1.192067041993141174e-01 -7.887051999568939209e-02
2.399846166372299194e-01 -1.375478357076644897e-01 6.554188579320907593e-02
1.256340742111206055e-02 -1.485234647989273071e-01 -7.598642259836196899e-02
2.249184995889663696e-01 4.517649114131927490e-02 3.572534769773483276e-02
2.753581404685974121e-01 -7.003221660852432251e-03 8.662073314189910889e-02
4.351097345352172852e-01 -8.530323207378387451e-02 -7.134717702865600586e-02
2.945270538330078125e-01 -6.613034754991531372e-02 9.265230596065521240e-02
1.421500891447067261e-01 -1.782547831535339355e-01 5.257980432361364365e-03
-1.298824548721313477e-01 -1.035198122262954712e-01 -6.271532922983169556e-02
-1.049970388412475586e-01 -8.331841230392456055e-02 8.379783481359481812e-02
2.179564237594604492e-01 -1.694058179855346680e-01 -8.860761299729347229e-03
1.512876600027084351e-01 -9.030911326408386230e-02 -1.157359331846237183e-01
1.911548972129821777e-01 -3.198458254337310791e-02 -1.170145422220230103e-01
-7.221792638301849365e-02 -4.339236021041870117e-02 -7.313721626996994019e-02
1.227808296680450439e-01 1.731361448764801025e-02 6.980480253696441650e-02
2.216907441616058350e-01 -1.446764022111892700e-01 6.193401291966438293e-02
-6.442834436893463135e-02 -8.165075629949569702e-02 9.356806427240371704e-02
2.987832725048065186e-01 -8.192592859268188477e-02 8.815881609916687012e-02
-1.194668710231781006e-01 -1.555309295654296875e-01 -3.113759681582450867e-02
2.058205306529998779e-01 -6.023693829774856567e-02 -1.203624308109283447e-01
4.057690501213073730e-01 3.229905664920806885e-02 -6.154979020357131958e-02
-4.281538724899291992e-02 1.040580123662948608e-02 -5.981307476758956909e-03
-1.301646232604980469e-02 -2.995407208800315857e-02 8.723683655261993408e-02
5.961631238460540771e-02 3.224582225084304810e-02 -2.997279912233352661e-02
-2.826556563377380371e-03 3.516994416713714600e-03 -5.833289772272109985e-02
3.310144692659378052e-02 -9.003577381372451782e-02 1.055065169930458069e-01
-2.359786629676818848e-02 -1.806447952985763550e-01 -5.509485490620136261e-04
-1.745916008949279785e-01 -8.529078960418701172e-02 5.359384790062904358e-02
2.170759886503219604e-01 -4.365471750497817993e-02 -1.196357756853103638e-01
1.637270152568817139e-01 2.914274483919143677e-02 -7.334496080875396729e-02
-1.085742413997650146e-01 -1.302309334278106689e-01 -6.109618023037910461e-02
-3.480334579944610596e-02 7.456555962562561035e-03 -3.123415447771549225e-02
3.224423527717590332e-01 9.171970188617706299e-03 7.121065258979797363e-02
1.555197536945343018e-01 -1.483727097511291504e-01 -8.054251223802566528e-02
-4.560789465904235840e-02 -1.267216056585311890e-01 -8.102809637784957886e-02
-3.523088991641998291e-02 -6.500401347875595093e-02 -9.247354418039321899e-02
1.849587857723236084e-01 2.404897660017013550e-02 -8.280000090599060059e-02
2.082349956035614014e-01 -9.183674305677413940e-02 -1.149457469582557678e-01
1.211062073707580566e-02 -9.492652118206024170e-02 1.033996492624282837e-01
-4.391689598560333252e-02 -1.730948686599731445e-01 3.636861220002174377e-02
2.528897821903228760e-01 5.412266403436660767e-02 -2.971869520843029022e-02
6.321012973785400391e-03 -1.538591086864471436e-01 7.277669757604598999e-02
1.676330417394638062e-01 -5.455862730741500854e-02 -1.195225864648818970e-01
1.051322594285011292e-01 -9.530498087406158447e-02 -1.125159263610839844e-01
1.417812407016754150e-01 -1.296458691358566284e-01 8.900487422943115234e-02
-1.253822147846221924e-01 -1.520100533962249756e-01 4.702058807015419006e-02
1.035764813423156738e-02 -1.480763405561447144e-02 8.165398240089416504e-02
4.001250863075256348e-01 2.107720077037811279e-02 -7.699434459209442139e-02
-4.605032503604888916e-02 -3.627884015440940857e-02 8.326514065265655518e-02
-1.795374453067779541e-01 -1.317691504955291748e-01 3.656157851219177246e-02
1.124410927295684814e-01 -1.577301472425460815e-01 6.557574123144149780e-02
4.141056835651397705e-01 -1.050650924444198608e-01 -6.020452827215194702e-02
2.939359545707702637e-01 -1.242642998695373535e-01 -8.512972295284271240e-02
3.947983384132385254e-01 -1.153864860534667969e-01 -5.601146817207336426e-02
2.040521651506423950e-01 5.270574241876602173e-02 6.193070206791162491e-03
-1.268542408943176270e-01 -4.034729674458503723e-02 5.380644276738166809e-02
5.103127658367156982e-02 3.022084385156631470e-02 2.603354118764400482e-02
-1.028799414634704590e-01 -4.603622108697891235e-02 -6.135218963027000427e-02
1.383326500654220581e-01 -4.780128598213195801e-02 1.068484112620353699e-01
2.623918950557708740e-01 2.986166626214981079e-02 5.950187519192695618e-02
-6.904467940330505371e-03 -1.851949095726013184e-02 -7.971306890249252319e-02
2.263763546943664551e-01 -1.416939496994018555e-01 -7.980447262525558472e-02
-2.989330887794494629e-02 -3.795668855309486389e-02 8.812484145164489746e-02
-1.116585433483123779e-01 -8.758558332920074463e-02 -7.103113830089569092e-02
5.488035082817077637e-02 -1.804532259702682495e-01 -2.394894883036613464e-02
3.324136137962341309e-01 -1.035929992794990540e-01 6.874950975179672241e-02
9.902776777744293213e-02 -1.769050955772399902e-01 -3.441675379872322083e-02
9.164715558290481567e-02 -1.036325320601463318e-01 1.040049865841865540e-01
2.678623497486114502e-01 -2.422332763671875000e-04 -1.059314236044883728e-01
1.070529669523239136e-01 -5.879028514027595520e-02 -1.157615259289741516e-01
3.157594799995422363e-01 4.297060519456863403e-02 -6.148482114076614380e-02
2.880154848098754883e-01 -1.054177507758140564e-01 7.998728007078170776e-02
2.587530016899108887e-01 -1.618778109550476074e-01 1.578255556523799896e-03
-9.201700985431671143e-02 -1.999804005026817322e-02 -4.153254628181457520e-02
-2.701342105865478516e-03 -7.340221852064132690e-02 -1.008698418736457825e-01
3.052091896533966064e-01 -1.436989307403564453e-01 -5.256978049874305725e-02
3.546741604804992676e-01 -1.218504980206489563e-01 4.158209636807441711e-02
7.364409416913986206e-02 -1.518086194992065430e-01 -7.797805219888687134e-02
3.466128706932067871e-01 1.066030561923980713e-02 6.585749238729476929e-02
-1.033023297786712646e-01 -1.579884886741638184e-01 4.756772518157958984e-02
1.295264065265655518e-01 -8.319503068923950195e-02 -1.163857653737068176e-01
9.019371867179870605e-02 -6.887034326791763306e-02 1.086527332663536072e-01
-1.570314764976501465e-01 -1.214955076575279236e-01 5.937451496720314026e-02
-1.036348044872283936e-01 -7.007528841495513916e-02 -7.163430005311965942e-02
5.036700367927551270e-01 4.270404577255249023e-03 -3.735616570338606834e-03
8.475998789072036743e-02 -7.948666810989379883e-03 8.821447938680648804e-02
3.476099371910095215e-01 -1.043348610401153564e-01 -8.926508575677871704e-02
3.277337551116943359e-01 -1.405712366104125977e-01 -4.651945084333419800e-02
3.630975186824798584e-01 4.173577576875686646e-02 -5.673695355653762817e-02
-1.148920953273773193e-01 -5.903161689639091492e-02 7.359886169433593750e-02
1.551053673028945923e-01 -1.330098509788513184e-01 -9.497769176959991455e-02
1.469793915748596191e-02 2.616609632968902588e-02 7.038139738142490387e-04
3.379020988941192627e-01 -6.440770626068115234e-02 8.376189321279525757e-02
1.727400273084640503e-01 -1.016266047954559326e-01 -1.123229488730430603e-01
3.174099624156951904e-01 -1.115660890936851501e-01 6.756950914859771729e-02
3.250041007995605469e-01 -1.108127534389495850e-01 -8.995740115642547607e-02
2.413269579410552979e-01 -1.578205227851867676e-01 -4.884535819292068481e-02
2.975589632987976074e-01 5.340613424777984619e-02 -3.411082178354263306e-02
-1.199783980846405029e-01 -1.267178356647491455e-01 7.143092155456542969e-02
3.747681379318237305e-01 -1.261004656553268433e-01 2.021509781479835510e-02
3.111791610717773438e-02 -1.737711280584335327e-01 -4.283298552036285400e-02
-3.445340692996978760e-02 -1.413075774908065796e-01 -7.418814301490783691e-02
2.114690542221069336e-01 4.041770845651626587e-02 4.473983496427536011e-02
-1.006948947906494141e-02 -1.069376170635223389e-01 -9.581009298563003540e-02
4.300923049449920654e-01 -1.711710169911384583e-02 5.594149976968765259e-02
4.119186103343963623e-01 -6.538361310958862305e-03 -9.232814610004425049e-02
3.848373293876647949e-01 -1.153399199247360229e-01 3.336142376065254211e-02
3.567893505096435547e-01 -7.702380418777465820e-03 7.380474358797073364e-02
7.526046037673950195e-02 -1.220956146717071533e-01 9.691825509071350098e-02
-7.096876204013824463e-02 -6.042848154902458191e-02 -8.085142076015472412e-02
3.694968223571777344e-01 -8.524249494075775146e-02 6.757526844739913940e-02
3.575128316879272461e-01 3.396597504615783691e-02 4.054339602589607239e-02
5.025056600570678711e-01 -6.597183644771575928e-02 -1.812826283276081085e-02
2.952347695827484131e-02 1.130432635545730591e-02 5.822480097413063049e-02
4.766033589839935303e-01 -8.086923509836196899e-03 -7.007211446762084961e-02
6.125415116548538208e-02 -1.383148133754730225e-01 8.728227764368057251e-02
1.308016330003738403e-01 -1.212747246026992798e-01 -1.030745878815650940e-01
4.403097629547119141e-01 -1.064576357603073120e-01 -2.278361096978187561e-02
2.801492512226104736e-01 1.269809901714324951e-02 -9.756182879209518433e-02
1.753434240818023682e-01 3.799989819526672363e-02 -6.143634021282196045e-02
4.383158683776855469e-01 1.380123943090438843e-02 3.592685982584953308e-02
7.331854850053787231e-02 -1.812267005443572998e-01 -1.894986443221569061e-02
-1.301153600215911865e-01 -8.664075285196304321e-02 7.591382414102554321e-02
8.459722995758056641e-02 2.181014418601989746e-02 5.742744728922843933e-02
5.834358185529708862e-02 -1.541058868169784546e-01 7.337106764316558838e-02
-1.971870362758636475e-01 -1.203836500644683838e-01 -7.916849106550216675e-03
3.005619943141937256e-01 -8.875028789043426514e-02 -1.080528646707534790e-01
1.734163165092468262e-01 -8.013079315423965454e-02 1.057729795575141907e-01
3.255633115768432617e-01 -8.964964747428894043e-02 7.878321409225463867e-02
8.258482813835144043e-02 -1.306641995906829834e-01 -9.587982296943664551e-02
-8.840821683406829834e-02 -1.156355589628219604e-01 8.440884202718734741e-02
1.725971847772598267e-01 -1.394660025835037231e-01 7.743007689714431763e-02
3.225274085998535156e-01 3.250730037689208984e-02 -7.678616791963577271e-02
9.412088990211486816e-02 -1.705591082572937012e-01 4.711212590336799622e-02
3.890574574470520020e-01 3.366343677043914795e-03 6.050913408398628235e-02
-1.269850432872772217e-01 -1.052883416414260864e-01 7.640577107667922974e-02
3.546207547187805176e-01 -1.389676332473754883e-01 -1.823919452726840973e-02
3.470022082328796387e-01 -1.093356609344482422e-01 5.906450375914573669e-02
3.735345005989074707e-01 -6.314389407634735107e-02 -1.037326157093048096e-01
1.310104429721832275e-01 -1.442772001028060913e-01 -8.594205975532531738e-02
-1.315369606018066406e-01 -1.256531625986099243e-01 -5.447068065404891968e-02
3.549650013446807861e-01 4.954069852828979492e-02 7.088869344443082809e-03
5.099890232086181641e-01 -1.875392720103263855e-02 -4.974801093339920044e-02
3.103304207324981689e-01 -4.157555848360061646e-02 -1.152970492839813232e-01
1.845743060111999512e-01 1.985806226730346680e-02 7.160999625921249390e-02
-1.772146821022033691e-01 -1.078275740146636963e-01 -3.570188209414482117e-02
2.056349366903305054e-01 -1.146029606461524963e-01 -1.049053817987442017e-01
1.818312406539916992e-01 -1.264754980802536011e-01 8.651017397642135620e-02
2.523281574249267578e-01 -2.150143310427665710e-02 -1.149263828992843628e-01
9.481693059206008911e-02 -1.809092760086059570e-01 -1.652531139552593231e-02
1.501813530921936035e-02 2.251557260751724243e-02 2.684933878481388092e-02
3.792787790298461914e-01 1.628784835338592529e-02 5.412077531218528748e-02
2.414583861827850342e-01 -1.651683747768402100e-01 1.073746476322412491e-03
2.974239289760589600e-01 1.920424401760101318e-02 -9.190814197063446045e-02
7.244518399238586426e-02 -3.249046951532363892e-02 -1.055819317698478699e-01
3.088026642799377441e-01 -1.303734332323074341e-01 5.144261568784713745e-02
3.936654329299926758e-01 -1.225853264331817627e-01 -3.951322659850120544e-02
9.925390779972076416e-02 4.206874966621398926e-02 4.597354214638471603e-03
4.350187480449676514e-01 -5.524307116866111755e-02 5.397937074303627014e-02
5.133373737335205078e-01 -4.601802676916122437e-03 -3.438246622681617737e-02
2.301211059093475342e-01 -1.570858657360076904e-01 3.926305100321769714e-02
5.475773662328720093e-02 -1.012102663516998291e-01 1.044137850403785706e-01
1.701317429542541504e-01 -1.670691221952438354e-01 3.852194920182228088e-02
-8.683109283447265625e-02 -5.557410046458244324e-02 8.176582306623458862e-02
3.332461416721343994e-01 5.040580779314041138e-02 -4.053471609950065613e-02
1.007839590311050415e-01 -1.412011384963989258e-01 -8.876923471689224243e-02
4.792408049106597900e-01 2.309736609458923340e-02 -2.466131560504436493e-02
2.911539673805236816e-01 -1.410897076129913330e-01 4.315641149878501892e-02
2.165753543376922607e-01 -1.675852835178375244e-01 1.428631134331226349e-02
2.997822165489196777e-01 -2.993638813495635986e-02 9.090059250593185425e-02
1.561330258846282959e-02 -1.808362603187561035e-01 -1.843320950865745544e-02
1.693712323904037476e-01 -2.574082463979721069e-02 1.007447019219398499e-01
-1.154591441154479980e-01 -1.661662757396697998e-02 -2.478018170222640038e-03
6.296552717685699463e-02 2.780484408140182495e-02 3.944489732384681702e-02
2.548946142196655273e-01 -1.586994230747222900e-01 2.204876951873302460e-02
5.213487744331359863e-01 -1.490797474980354309e-02 -2.233410999178886414e-02
3.322952985763549805e-01 -4.322643205523490906e-02 8.658512681722640991e-02
4.928409457206726074e-01 -1.658234745264053345e-03 1.570597663521766663e-02
6.533941626548767090e-02 -1.678777784109115601e-01 5.462948232889175415e-02
2.771421670913696289e-01 -1.045460700988769531e-01 -1.034762933850288391e-01
-1.000499725341796875e-01 -1.403670385479927063e-02 -2.207686565816402435e-02
4.226054996252059937e-02 -1.367162168025970459e-02 -8.982913941144943237e-02
4.110973775386810303e-01 -4.466332495212554932e-02 -9.796488285064697266e-02
4.529911875724792480e-01 -8.425567299127578735e-03 4.360130429267883301e-02
1.844953298568725586e-01 -1.098712161183357239e-01 9.574899077415466309e-02
4.040767997503280640e-02 3.039836883544921875e-03 -7.497203350067138672e-02
-3.665342926979064941e-03 -1.818214058876037598e-01 -3.159532556310296059e-03
1.454124599695205688e-01 -7.694353908300399780e-02 1.077396348118782043e-01
2.395157217979431152e-01 -4.774998873472213745e-03 -1.082950085401535034e-01
3.533861041069030762e-01 -5.249444395303726196e-02 -1.094623059034347534e-01
3.285318017005920410e-01 -9.350264817476272583e-02 -1.009919568896293640e-01
2.481311857700347900e-01 -1.430520117282867432e-01 -7.370357960462570190e-02
1.595826596021652222e-01 -1.764086782932281494e-01 6.383069325238466263e-03
3.807157278060913086e-01 1.212305575609207153e-02 -8.855935931205749512e-02
-1.964908838272094727e-01 -1.163109987974166870e-01 3.165602684020996094e-02
8.864188194274902344e-02 -2.272611483931541443e-02 9.727336466312408447e-02
2.439263463020324707e-01 -9.272708743810653687e-02 -1.126364842057228088e-01
1.695251911878585815e-01 -7.479707151651382446e-02 -1.189662739634513855e-01
8.315306901931762695e-02 1.134112477302551270e-03 -8.776791393756866455e-02
-1.430473327636718750e-01 -3.592710569500923157e-02 -2.067292481660842896e-02
3.042678236961364746e-01 3.411437571048736572e-02 5.018128827214241028e-02
-6.455302238464355469e-02 -1.760463416576385498e-01 -3.757436061277985573e-03
1.106769144535064697e-01 6.647206842899322510e-03 7.928969711065292358e-02
8.249509334564208984e-02 2.282671630382537842e-02 -6.260462105274200439e-02
2.902067303657531738e-01 4.666313529014587402e-02 -5.536235868930816650e-02
4.584180712699890137e-01 1.338630914688110352e-02 2.609578706324100494e-02
3.695107251405715942e-02 2.999460697174072266e-02 -1.745713688433170319e-02
-7.177889347076416016e-02 -1.166455447673797607e-02 4.896781593561172485e-02
7.750604301691055298e-02 3.592431545257568359e-02 2.195784077048301697e-02
1.831882447004318237e-01 -1.586690843105316162e-01 -6.312348693609237671e-02
-1.737164855003356934e-01 -7.704508304595947266e-02 -3.507388010621070862e-02
-8.120311796665191650e-02 -9.453672170639038086e-02 9.003227204084396362e-02
-8.918930590152740479e-02 -7.397161424160003662e-02 8.682139962911605835e-02
4.397342354059219360e-02 -1.320142745971679688e-01 9.142540395259857178e-02
2.027131319046020508e-01 2.454130351543426514e-02 6.700555235147476196e-02
3.186015784740447998e-02 -3.042424842715263367e-02 -9.708495438098907471e-02
-6.500273942947387695e-03 -5.669267103075981140e-02 9.951064735651016235e-02
3.985097706317901611e-01 -5.520219728350639343e-02 6.813585013151168823e-02
1.067513674497604370e-01 4.173082858324050903e-02 -2.506297826766967773e-02
2.501276135444641113e-01 -1.152725890278816223e-01 8.230631798505783081e-02
-1.411682963371276855e-01 -1.376727521419525146e-01 5.600321292877197266e-02
4.183248877525329590e-01 2.131943404674530029e-02 3.685722872614860535e-02
2.125252932310104370e-01 4.685242474079132080e-02 -4.928690195083618164e-02
2.990660667419433594e-01 -1.486696302890777588e-01 2.187590487301349640e-02
1.492220908403396606e-01 -1.636462658643722534e-01 -5.953423678874969482e-02
2.316920906305313110e-01 -7.277626544237136841e-02 -1.186707094311714172e-01
3.774557113647460938e-01 -1.317924708127975464e-01 -1.721984148025512695e-02
-1.330683231353759766e-01 -5.750637128949165344e-02 -5.247115716338157654e-02
-1.923683285713195801e-01 -7.659204304218292236e-02 -1.413259468972682953e-02
5.183489322662353516e-01 -1.990700885653495789e-02 -3.851168556138873100e-03
2.167638540267944336e-01 -1.299529969692230225e-01 -9.301585704088211060e-02
3.135128319263458252e-02 -1.828621327877044678e-01 7.049897219985723495e-03
4.637999236583709717e-01 -4.659292846918106079e-02 4.187421128153800964e-02
4.245997369289398193e-01 4.107258468866348267e-02 -2.359705418348312378e-02
3.817800879478454590e-01 -5.226176232099533081e-03 -9.806337952613830566e-02
3.242086768150329590e-01 -7.085454463958740234e-02 -1.106899455189704895e-01
4.707267880439758301e-01 -4.517604410648345947e-02 -7.590099424123764038e-02
3.535934686660766602e-01 -8.085477352142333984e-02 -1.019766479730606079e-01
-7.659892737865447998e-02 -1.334141194820404053e-01 -6.944214552640914917e-02
1.934152245521545410e-01 5.293559283018112183e-02 -1.269999798387289047e-02
2.697840631008148193e-01 -1.575026512145996094e-01 -3.335775062441825867e-02
4.110438227653503418e-01 4.317745566368103027e-02 -4.708659835159778595e-03
4.742746651172637939e-01 -8.770108968019485474e-02 -1.295437756925821304e-02
-8.537128567695617676e-02 -8.829701691865921021e-03 3.238729014992713928e-02
1.174144744873046875e-01 -3.443137183785438538e-02 1.033989861607551575e-01
4.362665414810180664e-01 2.806312590837478638e-02 1.939394138753414154e-02
2.707238793373107910e-01 5.443267524242401123e-02 6.112652365118265152e-03
-1.684346795082092285e-01 -1.029209941625595093e-01 5.883032456040382385e-02
-1.726655066013336182e-01 -6.152151152491569519e-02 -2.464756183326244354e-02
1.496699154376983643e-01 -1.597662866115570068e-01 5.723387375473976135e-02
1.324082911014556885e-02 -1.447976753115653992e-02 -8.275692164897918701e-02
5.359687656164169312e-02 -6.551869958639144897e-02 -1.099651306867599487e-01
2.729533910751342773e-01 -1.450101882219314575e-01 -6.369698047637939453e-02
2.997836470603942871e-01 -7.232800126075744629e-04 8.049269020557403564e-02
9.203085303306579590e-02 -6.651967763900756836e-02 -1.146851927042007446e-01
1.690416932106018066e-01 4.232367873191833496e-02 3.613287955522537231e-02
1.279610842466354370e-01 3.222813457250595093e-02 -6.058606132864952087e-02
2.531149983406066895e-01 3.878299891948699951e-02 -6.940881162881851196e-02
3.923403024673461914e-01 -7.823973149061203003e-02 6.279322504997253418e-02
1.814044862985610962e-01 -1.741141378879547119e-01 -1.452754624187946320e-02
4.643898308277130127e-01 -9.052409231662750244e-02 2.359396312385797501e-03
1.381234526634216309e-01 -2.069170400500297546e-02 -1.095541119575500488e-01
2.253055721521377563e-01 5.992867052555084229e-03 -1.016481295228004456e-01
2.431633174419403076e-01 1.123427599668502808e-02 -9.854798763990402222e-02
-1.402952671051025391e-01 -8.269362151622772217e-02 -5.795410275459289551e-02
2.842226624488830566e-01 2.757525444030761719e-02 6.032097712159156799e-02
4.287570714950561523e-01 3.679104149341583252e-03 4.747632518410682678e-02
2.345656454563140869e-01 -9.254533797502517700e-02 9.614689648151397705e-02
-5.656772851943969727e-02 -7.793182879686355591e-02 -8.844453096389770508e-02
4.288965165615081787e-01 -6.101154163479804993e-02 -8.883100003004074097e-02
2.370356023311614990e-02 -7.258982211351394653e-02 -1.056943535804748535e-01
2.675410807132720947e-01 -2.938531711697578430e-02 -1.165263205766677856e-01
4.599260091781616211e-01 -8.741844445466995239e-03 -7.803875207901000977e-02
4.870356619358062744e-02 -1.722514927387237549e-01 4.720464721322059631e-02
3.213956952095031738e-03 -1.195722073316574097e-01 -9.353908151388168335e-02
3.447681665420532227e-01 -9.103944152593612671e-02 7.258523255586624146e-02
-5.241133272647857666e-02 -1.767217814922332764e-01 1.926229707896709442e-02
-1.294234395027160645e-01 -2.797119319438934326e-02 3.189555183053016663e-02
5.590105056762695312e-02 1.295731961727142334e-02 6.327265501022338867e-02
-9.421551227569580078e-02 -1.423230767250061035e-01 -5.744832009077072144e-02
3.416868448257446289e-01 3.427554666996002197e-02 -7.252717763185501099e-02
3.693477809429168701e-01 4.955831170082092285e-02 -1.771893817931413651e-03
6.546155363321304321e-02 -1.761391907930374146e-01 3.718909993767738342e-02
-8.187125623226165771e-02 -1.716200709342956543e-01 2.453447878360748291e-02
1.370585262775421143e-01 -9.500226378440856934e-02 1.049616336822509766e-01
-1.584060788154602051e-01 -8.180273324251174927e-02 -4.765153303742408752e-02
-1.069719791412353516e-01 -1.677809506654739380e-01 -7.059958297759294510e-03
-1.150444149971008301e-02 -1.444373726844787598e-01 8.012332022190093994e-02
4.068526625633239746e-02 -1.371197104454040527e-01 -8.837101608514785767e-02
-5.552141368389129639e-02 -1.364489644765853882e-02 6.021664664149284363e-02
1.203080043196678162e-01 -1.857366040349006653e-02 -1.065692827105522156e-01
1.886339932680130005e-01 -1.669666171073913574e-01 3.218471631407737732e-02
-1.521105766296386719e-01 -9.361820667982101440e-02 6.739644706249237061e-02
2.181442975997924805e-01 3.114052116870880127e-02 -7.781868427991867065e-02
1.875132322311401367e-01 4.308822751045227051e-02 3.718913719058036804e-02
4.725371897220611572e-01 2.353444695472717285e-02 -2.015278441831469536e-03
2.797801494598388672e-01 5.588661134243011475e-02 -1.246435567736625671e-02
3.757494091987609863e-01 -2.454717457294464111e-02 -1.047783344984054565e-01
9.358792006969451904e-02 -2.555672451853752136e-02 -1.060528606176376343e-01
2.328163385391235352e-01 -8.922815322875976562e-03 9.124961495399475098e-02
2.011033594608306885e-01 5.009985715150833130e-02 -3.646382689476013184e-02
3.824808597564697266e-01 -1.281992793083190918e-01 4.243296105414628983e-03
5.042730569839477539e-01 -1.765103638172149658e-02 1.403146795928478241e-02
1.145866140723228455e-01 -4.230530560016632080e-02 -1.140276417136192322e-01
6.668925285339355469e-03 -1.610695421695709229e-01 -6.142390146851539612e-02
-1.300180256366729736e-01 -1.437430679798126221e-01 -4.124394059181213379e-02
-1.407323479652404785e-01 -1.549347937107086182e-01 3.176868334412574768e-02
1.266524940729141235e-01 -1.680302619934082031e-01 4.711905494332313538e-02
1.213684082031250000e-01 -7.494185119867324829e-03 9.093559533357620239e-02
2.247113585472106934e-01 -1.670058071613311768e-01 -2.471210062503814697e-02
4.109139442443847656e-01 -9.340097010135650635e-02 -7.589382678270339966e-02
1.413416713476181030e-01 6.177641451358795166e-03 8.220995217561721802e-02
1.154288351535797119e-01 -1.804773807525634766e-01 4.256485495716333389e-03
1.985079944133758545e-01 -1.435072422027587891e-01 6.869790703058242798e-02
1.026381552219390869e-02 -1.742377728223800659e-01 -3.922919929027557373e-02
3.307008743286132812e-01 -1.260674893856048584e-01 4.764214903116226196e-02
-3.164082765579223633e-03 -1.419802457094192505e-01 -7.927877455949783325e-02
3.144867420196533203e-01 5.371535569429397583e-02 -2.962692454457283020e-02
3.816184401512145996e-01 -9.648500382900238037e-02 5.571092665195465088e-02
-1.805442571640014648e-02 2.476148307323455811e-03 5.392212048172950745e-02
1.928463727235794067e-01 -7.914111018180847168e-02 1.043719947338104248e-01
1.770227849483489990e-01 -5.883786827325820923e-02 1.067587435245513916e-01
1.716557890176773071e-01 -1.549927294254302979e-01 5.992765352129936218e-02
8.402583748102188110e-02 3.200346231460571289e-02 -4.524781554937362671e-02
3.922210633754730225e-01 4.488511383533477783e-02 4.488829988986253738e-03
3.750848472118377686e-01 -4.008762538433074951e-02 7.634237408638000488e-02
3.635692894458770752e-01 4.890011250972747803e-02 -3.644787892699241638e-02
1.554006785154342651e-01 -4.177456349134445190e-02 -1.173155307769775391e-01
-1.568165123462677002e-01 -1.528073251247406006e-01 1.712004467844963074e-02
3.260536789894104004e-01 -9.760342538356781006e-03 8.063926547765731812e-02
3.507494032382965088e-01 -3.529524058103561401e-02 -1.100923046469688416e-01
7.919680327177047729e-02 -1.346601918339729309e-02 -9.749578684568405151e-02
-1.357208788394927979e-01 -1.569398641586303711e-01 -1.640268415212631226e-02
4.126001894474029541e-01 -7.414314150810241699e-02 -8.883875608444213867e-02
1.308006644248962402e-01 -1.612242609262466431e-01 -6.540881097316741943e-02
3.705577850341796875e-01 2.515950798988342285e-02 -7.902839779853820801e-02
1.281969994306564331e-01 4.591544717550277710e-02 -1.725880615413188934e-02
-6.871144473552703857e-02 -1.690094470977783203e-01 3.895625472068786621e-02
-7.352738082408905029e-02 -2.855779230594635010e-02 -6.201753020286560059e-02
2.592011690139770508e-01 -1.016893684864044189e-01 -1.072720438241958618e-01
3.923686593770980835e-02 -1.204334944486618042e-01 -9.794560819864273071e-02
3.061737418174743652e-01 4.446282237768173218e-02 3.316173329949378967e-02
2.510248422622680664e-01 5.568353086709976196e-02 -1.265604887157678604e-02
4.822816848754882812e-01 5.821011960506439209e-03 -5.752475559711456299e-02
-1.436109840869903564e-02 -1.697878539562225342e-01 4.920126125216484070e-02
-1.976611912250518799e-01 -8.176013082265853882e-02 2.783844061195850372e-02
1.743614524602890015e-01 -1.734233796596527100e-01 1.538478024303913116e-02
1.922129094600677490e-02 1.839851588010787964e-02 -4.315939545631408691e-02
4.119960069656372070e-01 -1.021725684404373169e-01 3.402953967452049255e-02
4.554088711738586426e-01 -6.052762269973754883e-02 -7.798892259597778320e-02
4.440698325634002686e-01 -9.806333482265472412e-02 1.307822763919830322e-02
2.050964236259460449e-01 -1.056618690490722656e-01 9.512244910001754761e-02
-1.242451369762420654e-02 -1.244444698095321655e-01 9.250501543283462524e-02
2.893568277359008789e-01 -2.005379274487495422e-02 -1.132581904530525208e-01
3.013244569301605225e-01 -5.906902253627777100e-02 -1.156782209873199463e-01
8.718178421258926392e-02 -1.767385900020599365e-01 3.287426009774208069e-02
1.871722489595413208e-01 -1.343780457973480225e-01 -9.203097969293594360e-02
4.513109326362609863e-01 3.393056243658065796e-02 -1.457080617547035217e-02
-8.577525615692138672e-02 -1.693201661109924316e-01 -1.974733546376228333e-02
2.833723425865173340e-01 -1.254874169826507568e-01 6.580946594476699829e-02
-1.467274129390716553e-01 -6.963679939508438110e-02 6.426837295293807983e-02
-7.302913069725036621e-02 -6.133839488029479980e-04 1.837486587464809418e-02
1.551693528890609741e-01 4.915628582239151001e-02 3.478284459561109543e-03
-7.022218406200408936e-02 -2.598104625940322876e-02 6.760609894990921021e-02
2.325488030910491943e-01 4.914925992488861084e-02 -4.616584256291389465e-02
2.726637423038482666e-01 -1.497811973094940186e-01 3.545530140399932861e-02
-5.544100701808929443e-02 2.096571028232574463e-03 -2.658548392355442047e-02
4.093758761882781982e-01 -6.664818525314331055e-02 6.109401211142539978e-02
-1.273184716701507568e-01 -1.635725796222686768e-01 1.226620189845561981e-02
-3.880991041660308838e-02 -5.169329047203063965e-02 9.235731512308120728e-02
-1.006675660610198975e-01 -4.053895547986030579e-02 6.771857291460037231e-02
2.919382452964782715e-01 -1.546089053153991699e-01 3.203120548278093338e-03
2.771961987018585205e-01 -2.320824190974235535e-02 9.244195371866226196e-02
3.151530623435974121e-01 5.489572137594223022e-02 -9.992978535592556000e-03
-6.926181912422180176e-02 -1.374722123146057129e-01 7.751607149839401245e-02
3.605182766914367676e-01 -1.101531833410263062e-01 -7.990129292011260986e-02
7.323749363422393799e-02 -1.642047315835952759e-01 -6.238798424601554871e-02
4.228703379631042480e-01 -1.122496128082275391e-01 -3.524120524525642395e-02
3.126122355461120605e-01 -1.864796131849288940e-02 -1.113066896796226501e-01
-4.008135199546813965e-02 -3.936969488859176636e-02 -8.235294371843338013e-02
2.533251643180847168e-01 -1.282295882701873779e-01 7.149112969636917114e-02
1.700719892978668213e-01 4.996262490749359131e-03 -9.838001430034637451e-02
3.271963000297546387e-01 -4.722977429628372192e-02 -1.135507151484489441e-01
4.445391595363616943e-01 -4.965138435363769531e-02 -8.642207086086273193e-02
4.953346252441406250e-01 -3.709429502487182617e-02 2.283704280853271484e-02
1.456006914377212524e-01 1.917325705289840698e-02 -8.244790881872177124e-02
-2.174130082130432129e-02 -8.053694665431976318e-02 1.006815358996391296e-01
1.328654587268829346e-02 -1.049862578511238098e-01 -1.002311930060386658e-01
1.531611382961273193e-02 3.763400018215179443e-03 -6.555636972188949585e-02
-1.701416075229644775e-02 7.375858724117279053e-03 -4.449475556612014771e-02
-7.763147354125976562e-03 -1.729174703359603882e-01 -3.911032155156135559e-02
4.169195890426635742e-01 -3.016724064946174622e-02 6.299208104610443115e-02
3.075322508811950684e-01 -4.686956852674484253e-02 9.147774428129196167e-02
1.056691408157348633e-01 -1.233657747507095337e-01 9.536614269018173218e-02
-5.354425311088562012e-02 -1.652443110942840576e-01 5.066611617803573608e-02
3.290781974792480469e-01 3.475170582532882690e-02 4.548055678606033325e-02
3.916454315185546875e-01 -9.844309091567993164e-02 -7.949893921613693237e-02
-1.922997832298278809e-01 -1.318537592887878418e-01 1.051340438425540924e-02
-1.297021508216857910e-01 -2.315541729331016541e-02 1.004776358604431152e-02
3.399769067764282227e-01 5.311166495084762573e-02 -2.271723933517932892e-02
-1.013272702693939209e-01 -1.686290055513381958e-01 2.156530693173408508e-02
1.918169409036636353e-01 4.374724626541137695e-02 -5.292957648634910583e-02
-5.770196020603179932e-02 -1.031661853194236755e-01 9.353193640708923340e-02
4.185906946659088135e-01 -5.889572203159332275e-02 1.259311437606811523e-01
3.847604393959045410e-01 -3.542596101760864258e-02 -1.024734452366828918e-01
1.780205667018890381e-01 -9.644722938537597656e-02 1.176827251911163330e-01
6.646336615085601807e-02 1.197643578052520752e-03 5.164441838860511780e-02
2.420578896999359131e-02 -4.065191745758056641e-02 -9.839699417352676392e-02
1.843451857566833496e-01 1.080658659338951111e-02 -8.603716641664505005e-02
1.310398429632186890e-01 -1.019244268536567688e-02 -1.200649067759513855e-01
1.684386134147644043e-01 -9.216579794883728027e-02 -6.886646151542663574e-02
1.426379531621932983e-01 -7.109462469816207886e-02 -1.050328984856605530e-01
8.288568258285522461e-02 -1.158207654953002930e-03 6.624002754688262939e-02
1.063864007592201233e-01 -1.025569289922714233e-01 5.724376812577247620e-02
-7.663309574127197266e-03 -6.728816777467727661e-03 1.645895466208457947e-02
-4.051588475704193115e-02 -4.762497171759605408e-02 4.423105344176292419e-02
1.547577381134033203e-01 1.746498420834541321e-02 -4.895891994237899780e-02
4.343046844005584717e-01 -9.413088113069534302e-02 8.365267515182495117e-02
6.626090407371520996e-02 -8.991111814975738525e-02 -3.578136861324310303e-02
4.559909701347351074e-01 -9.334175288677215576e-02 1.879840157926082611e-02
4.988518953323364258e-01 -7.471863925457000732e-02 5.168655887246131897e-02
-5.038864910602569580e-02 -2.544950693845748901e-02 -7.553891278803348541e-03
1.726214587688446045e-02 -7.765457034111022949e-03 -7.711008191108703613e-02
2.338150143623352051e-01 1.879597082734107971e-02 -2.066062018275260925e-02
4.686896502971649170e-01 -2.543198131024837494e-02 5.405514687299728394e-02
1.536390781402587891e-01 -5.814628303050994873e-02 -1.210709884762763977e-01
2.474354207515716553e-01 -1.115261316299438477e-01 -1.956298947334289551e-03
1.922201812267303467e-01 -8.544109761714935303e-02 -8.726686239242553711e-02
4.152700006961822510e-01 -3.143799304962158203e-02 1.058143600821495056e-01
1.610251069068908691e-01 -1.097551807761192322e-01 4.851077124476432800e-02
2.324097603559494019e-01 -5.568522959947586060e-03 1.006444990634918213e-01
3.813621103763580322e-01 -1.157403364777565002e-02 8.231379091739654541e-02
1.694269627332687378e-01 -8.328921347856521606e-02 1.358583569526672363e-01
2.681649029254913330e-01 2.788767218589782715e-03 7.625555247068405151e-02
1.542563885450363159e-01 -4.434983804821968079e-02 -1.298958212137222290e-01
2.839342057704925537e-01 -1.139858365058898926e-01 2.745777368545532227e-02
9.022688865661621094e-02 -2.344936318695545197e-02 -1.209514513611793518e-01
4.138901233673095703e-01 -3.107223659753799438e-03 -2.284372597932815552e-02
3.736051619052886963e-01 -1.083860471844673157e-01 5.891388654708862305e-02
3.195615112781524658e-01 -1.005282849073410034e-01 1.163190752267837524e-01
3.990518152713775635e-01 -1.790001988410949707e-05 -2.620191499590873718e-02
4.690643250942230225e-01 -2.413332089781761169e-02 -3.281986340880393982e-02
1.359662413597106934e-01 -9.298416972160339355e-02 -5.888566747307777405e-02
1.126715466380119324e-01 -8.836154639720916748e-02 -6.433843821287155151e-02
3.947132229804992676e-01 -3.274607658386230469e-02 1.160374283790588379e-01
3.713599741458892822e-01 -1.034125015139579773e-01 9.266050159931182861e-02
1.131025329232215881e-01 -9.524127840995788574e-02 -4.284802079200744629e-02
1.221536099910736084e-02 1.941751688718795776e-03 -2.688890323042869568e-02
1.028868108987808228e-01 6.129533052444458008e-03 5.095079541206359863e-02
1.014664769172668457e-01 -1.027080416679382324e-01 1.209374610334634781e-02
3.619340062141418457e-02 3.668215125799179077e-03 -5.763413384556770325e-02
4.783589839935302734e-01 -8.024547994136810303e-02 7.499736547470092773e-02
2.587900757789611816e-01 -1.142116338014602661e-01 5.196245014667510986e-02
1.979306936264038086e-01 -1.855704933404922485e-03 9.175220876932144165e-02
3.422230482101440430e-01 -1.090345308184623718e-01 7.902595400810241699e-02
3.300189375877380371e-01 -8.094091713428497314e-02 -8.656717091798782349e-02
4.518128037452697754e-01 -1.295251399278640747e-02 1.656173728406429291e-02
2.519487738609313965e-01 -1.057093143463134766e-01 1.056023463606834412e-01
4.433543682098388672e-01 -2.705028653144836426e-02 -6.533900648355484009e-02
2.569254338741302490e-01 1.611024513840675354e-02 1.468293368816375732e-02
4.757519066333770752e-02 -9.359981864690780640e-02 2.299787104129791260e-02
4.139695167541503906e-01 -9.855018556118011475e-02 -7.359099574387073517e-03
1.518565416336059570e-02 -7.401952892541885376e-02 7.665524631738662720e-02
3.604485988616943359e-01 -1.066699028015136719e-01 8.342395722866058350e-02
3.038840293884277344e-01 -4.033725708723068237e-02 -1.249294653534889221e-01
3.162791728973388672e-01 -5.318065732717514038e-02 -1.183462366461753845e-01
9.578764438629150391e-02 -1.006151512265205383e-01 -2.331088297069072723e-03
2.546804845333099365e-01 1.776832714676856995e-02 -2.766508981585502625e-02
3.689881861209869385e-01 -3.950734436511993408e-02 -1.086206734180450439e-01
2.457136511802673340e-01 -2.542022429406642914e-02 -1.312545090913772583e-01
2.988428473472595215e-01 -1.125916242599487305e-01 6.866084784269332886e-02
8.433909714221954346e-02 -4.769697040319442749e-02 1.259403526782989502e-01
1.255503594875335693e-01 -3.822181746363639832e-02 -1.282788366079330444e-01
4.988860487937927246e-01 -3.541933000087738037e-02 -4.006198607385158539e-03
7.189372181892395020e-02 -4.640441387891769409e-03 -9.942779690027236938e-02
7.867936789989471436e-02 -8.046661317348480225e-02 -7.083238661289215088e-02
2.761549949645996094e-01 1.311157271265983582e-02 -6.004403159022331238e-02
2.026700824499130249e-01 1.660611853003501892e-02 -5.958047136664390564e-02
1.421701163053512573e-01 -1.022757142782211304e-01 8.791416883468627930e-02
5.485711991786956787e-02 -1.957453787326812744e-02 -1.089229211211204529e-01
4.277839660644531250e-01 -9.077008068561553955e-02 9.809945523738861084e-02
1.974439024925231934e-01 -1.115210652351379395e-01 6.237848848104476929e-02
3.491530418395996094e-01 -9.451081603765487671e-02 -5.359811708331108093e-02
4.705642163753509521e-02 -3.932341188192367554e-02 1.083159074187278748e-01
4.004430174827575684e-01 -2.257919684052467346e-02 -8.799532800912857056e-02
5.871704220771789551e-02 -9.538307785987854004e-02 4.127517715096473694e-02
1.915975362062454224e-01 1.710582152009010315e-02 1.734324544668197632e-02
3.423328101634979248e-01 9.901415556669235229e-03 1.445375382900238037e-03
1.475414782762527466e-01 -1.087987571954727173e-01 3.894453495740890503e-02
1.533043384552001953e-01 5.677144974470138550e-03 6.620294600725173950e-02
2.222218066453933716e-01 -1.130086630582809448e-01 1.752810552716255188e-02
1.704901605844497681e-01 1.843959465622901917e-02 -4.258143529295921326e-02
3.817513585090637207e-01 -4.434473812580108643e-02 1.316098868846893311e-01
4.002954065799713135e-02 -6.331337988376617432e-02 1.056823357939720154e-01
1.031739264726638794e-01 -4.789097234606742859e-02 1.317348331212997437e-01
1.632661223411560059e-01 -1.086173132061958313e-01 3.543466795235872269e-03
1.984538882970809937e-01 5.135089159011840820e-03 -1.011737659573554993e-01
9.931591153144836426e-02 -9.912684559822082520e-02 -1.649372652173042297e-02
2.666966617107391357e-01 -9.540627896785736084e-02 1.302727311849594116e-01
2.206182479858398438e-01 5.750469863414764404e-04 -1.090069711208343506e-01
1.899938583374023438e-01 5.222827196121215820e-03 7.205935567617416382e-02
3.414992988109588623e-02 -7.054057717323303223e-02 -6.996423006057739258e-02
3.635731339454650879e-01 -9.912626445293426514e-02 1.091531440615653992e-01
8.167517185211181641e-02 -1.802638918161392212e-02 9.999220818281173706e-02
4.495586752891540527e-01 -3.134584426879882812e-02 8.602105826139450073e-02
3.546475768089294434e-01 7.802914828062057495e-03 -2.939521148800849915e-02
1.910735070705413818e-01 -1.054282337427139282e-01 9.580472856760025024e-02
2.727086842060089111e-01 7.864139974117279053e-03 -8.315879106521606445e-02
3.317066431045532227e-01 -5.798768252134323120e-03 -9.574823826551437378e-02
1.678456962108612061e-01 -8.119690418243408203e-02 -9.262874722480773926e-02
8.280262351036071777e-03 -3.451462462544441223e-02 8.480850607156753540e-02
3.804663419723510742e-01 -2.431141026318073273e-02 1.090156584978103638e-01
2.289300560951232910e-01 -9.483532607555389404e-02 -6.814811378717422485e-02
4.702368378639221191e-01 -8.362795412540435791e-02 -8.879757486283779144e-03
2.890147268772125244e-02 -1.277569308876991272e-02 6.737041473388671875e-02
2.499863207340240479e-01 -1.056472659111022949e-01 -3.354764357209205627e-02
4.987355470657348633e-01 -3.389587998390197754e-02 2.139487676322460175e-02
2.719122767448425293e-01 7.932674139738082886e-03 5.747850611805915833e-02
4.501767456531524658e-01 -8.918239921331405640e-02 8.413805067539215088e-02
1.116753742098808289e-01 8.639775216579437256e-03 -8.196104317903518677e-02
2.305923402309417725e-01 -1.081148907542228699e-01 -2.140945568680763245e-02
2.764214575290679932e-01 -2.338212169706821442e-02 -1.267974823713302612e-01
4.926992058753967285e-01 -7.072550803422927856e-02 7.186172157526016235e-02
4.030193090438842773e-01 -1.038475930690765381e-01 6.580464541912078857e-02
1.126495003700256348e-02 -3.445584326982498169e-03 2.685542032122612000e-02
1.727294325828552246e-01 1.674113795161247253e-02 1.801202073693275452e-02
4.230194091796875000e-01 -1.976818218827247620e-02 -7.068368047475814819e-02
4.088871479034423828e-01 -3.799539059400558472e-03 -3.764247521758079529e-02
4.752067029476165771e-01 -7.399727404117584229e-02 -2.810710296034812927e-02
3.555800914764404297e-01 -2.292822673916816711e-02 -1.074375659227371216e-01
4.658220410346984863e-01 -1.736656576395034790e-02 1.079293154180049896e-02
-3.275914490222930908e-02 -2.868087030947208405e-02 4.375068098306655884e-02
4.817886352539062500e-01 -2.603683620691299438e-02 3.292587399482727051e-02
1.436691284179687500e-01 -8.672008663415908813e-02 -7.714338600635528564e-02
3.573396205902099609e-01 -6.374359130859375000e-03 7.870402187108993530e-02
1.427192836999893188e-01 1.132959499955177307e-02 4.256086051464080811e-02
