5.068603754043579102e-01 6.578783690929412842e-02 6.078214943408966064e-02
1.925845146179199219e-01 -1.134806722402572632e-01 1.681050285696983337e-02
2.695792317390441895e-01 1.768369972705841064e-02 6.604520976543426514e-02
3.518937528133392334e-01 -1.402147263288497925e-01 7.412664592266082764e-02
4.418642520904541016e-01 -9.285728633403778076e-02 -2.771050631999969482e-01
3.432639837265014648e-01 4.528272524476051331e-02 -5.707923322916030884e-03
4.981353282928466797e-01 4.289705678820610046e-02 -2.138370275497436523e-01
3.543431460857391357e-01 -1.095464825630187988e-01 -2.786572575569152832e-01
3.771147727966308594e-01 -5.891278386116027832e-03 -3.523283004760742188e-01
2.959114909172058105e-01 1.167142763733863831e-02 -1.905632466077804565e-01
4.028417766094207764e-01 4.865948110818862915e-03 -3.410435020923614502e-01
4.783379435539245605e-01 -1.020711064338684082e-01 -1.558964699506759644e-01
2.086488902568817139e-01 -1.090538054704666138e-01 -1.307962387800216675e-01
2.613565921783447266e-01 9.535420686006546021e-03 1.490572988986968994e-01
5.030053853988647461e-01 -8.303087204694747925e-02 -2.078003287315368652e-01
3.414604961872100830e-01 3.736154362559318542e-02 -1.239159256219863892e-01
5.271997451782226562e-01 -8.110187947750091553e-02 2.063561081886291504e-01
4.389621913433074951e-01 6.396637856960296631e-02 8.856864273548126221e-02
5.344887971878051758e-01 -3.254648298025131226e-03 -2.878224551677703857e-01
3.809079229831695557e-01 5.536226555705070496e-02 3.009923361241817474e-02
3.753785192966461182e-01 -1.360110491514205933e-01 1.130218803882598877e-01
4.387659728527069092e-01 5.258228257298469543e-02 -1.566100567579269409e-01
2.974358797073364258e-01 -1.620796322822570801e-02 -2.982638478279113770e-01
5.238780975341796875e-01 5.858548358082771301e-02 -8.288159966468811035e-02
2.178503721952438354e-01 -7.609175145626068115e-02 -2.189408540725708008e-01
2.282497584819793701e-01 -1.172184497117996216e-01 2.036494016647338867e-01
4.752175509929656982e-01 -1.123666912317276001e-01 -4.298567399382591248e-02
3.267904818058013916e-01 3.723314031958580017e-02 -6.959244608879089355e-02
2.416622191667556763e-01 -2.695226483047008514e-02 -2.130773663520812988e-01
3.297864198684692383e-01 -1.112222522497177124e-01 -2.741841673851013184e-01
3.769515752792358398e-01 5.175973102450370789e-02 -5.687857791781425476e-02
2.667199373245239258e-01 -1.359838619828224182e-02 3.068948984146118164e-01
-2.216740101575851440e-01 -1.087618544697761536e-01 1.950718834996223450e-02
-2.125201523303985596e-01 -1.449843049049377441e-01 2.981714159250259399e-02
-3.788058459758758545e-01 -1.672533750534057617e-01 -1.652656495571136475e-01
-3.347576260566711426e-01 2.977706491947174072e-03 1.224493160843849182e-01
-4.414773881435394287e-01 -4.869911074638366699e-02 2.243513613939285278e-02
-2.619410157203674316e-01 -8.868671953678131104e-02 -2.225134521722793579e-01
-4.098242223262786865e-01 -1.797815412282943726e-02 -1.686775684356689453e-01
-2.670861184597015381e-01 -9.899451583623886108e-02 2.760449945926666260e-01
-2.741066515445709229e-01 -1.048041209578514099e-01 2.939232587814331055e-01
-2.969620823860168457e-01 -1.765470206737518311e-02 -6.142226234078407288e-02
-2.678628265857696533e-01 -8.066314458847045898e-02 2.544385790824890137e-01
-3.372229635715484619e-01 -1.859056651592254639e-01 1.752451807260513306e-01
-2.470153570175170898e-01 -6.833387911319732666e-02 1.082892790436744690e-01
-3.500816226005554199e-01 1.257101446390151978e-02 3.431370481848716736e-02
-3.536334335803985596e-01 -1.333004683256149292e-01 -3.141555786132812500e-01
-3.872895836830139160e-01 -1.415850371122360229e-01 -2.264544963836669922e-01
-4.316267073154449463e-01 -5.334178358316421509e-02 -1.433291584253311157e-01
-3.190650045871734619e-01 -7.550709694623947144e-02 3.244168460369110107e-01
-2.771143615245819092e-01 -2.232129573822021484e-01 4.724051430821418762e-02
-3.795142173767089844e-01 -1.601135730743408203e-01 1.406787782907485962e-01
-3.858543336391448975e-01 -8.076188713312149048e-02 2.800179719924926758e-01
-2.703756392002105713e-01 -4.213230311870574951e-02 -7.664361596107482910e-02
-2.821662127971649170e-01 -3.848049044609069824e-02 1.781908422708511353e-01
-3.997785449028015137e-01 -1.340976059436798096e-01 -1.945725679397583008e-01
-2.928191125392913818e-01 -1.850686967372894287e-02 -3.306435793638229370e-02
-3.879889845848083496e-01 -1.292039602994918823e-01 -2.517953813076019287e-01
-3.520924448966979980e-01 -1.940574198961257935e-01 6.954411417245864868e-02
-2.590827643871307373e-01 -2.245166599750518799e-01 -3.553259745240211487e-02
-4.383997023105621338e-01 -7.988358289003372192e-02 -8.470467291772365570e-03
-2.791317701339721680e-01 -3.002823144197463989e-02 -3.650916367769241333e-02
-3.181185126304626465e-01 -2.112029194831848145e-01 8.061017096042633057e-02
-3.272204399108886719e-01 -3.992311656475067139e-03 -1.000620648264884949e-01
-4.398542046546936035e-01 -3.660866618156433105e-02 3.819427266716957092e-02
-2.762152254581451416e-01 -3.164527565240859985e-02 7.551633566617965698e-02
-3.612945675849914551e-01 -1.590603590011596680e-01 2.102992832660675049e-01
-4.020448327064514160e-01 1.172962784767150879e-02 5.167456343770027161e-02
-3.492332994937896729e-01 8.859179913997650146e-03 -5.605335161089897156e-02
-4.003323316574096680e-01 -1.444593071937561035e-04 1.531313508749008179e-01
-3.159350156784057617e-01 -1.629725247621536255e-01 2.721219956874847412e-01
-3.729862570762634277e-01 -5.372810736298561096e-02 -2.867424190044403076e-01
-3.980778455734252930e-01 -5.755573511123657227e-04 -1.292015165090560913e-01
-3.749313354492187500e-01 -1.802648901939392090e-01 -8.110476285219192505e-02
-4.234511256217956543e-01 -2.649383991956710815e-02 1.525262445211410522e-01
-3.325374126434326172e-01 -1.300357282161712646e-01 3.110772073268890381e-01
-4.187412858009338379e-01 -1.027289852499961853e-01 -1.756532788276672363e-01
-4.114865064620971680e-01 3.323994576930999756e-03 -6.626963615417480469e-02
-2.735432684421539307e-01 -2.251702696084976196e-01 -7.310369610786437988e-02
-4.385640323162078857e-01 -4.652636870741844177e-02 7.253655046224594116e-02
-4.348201453685760498e-01 -5.758220702409744263e-02 1.073887646198272705e-01
-3.461236655712127686e-01 -4.022348672151565552e-02 -2.675670981407165527e-01
-2.485328316688537598e-01 -2.183568179607391357e-01 -8.736517280340194702e-02
-4.292514324188232422e-01 -1.022091805934906006e-01 -8.534112572669982910e-02
-3.627077639102935791e-01 -1.811718046665191650e-01 -1.702385246753692627e-01
-3.135527074337005615e-01 -2.134444415569305420e-01 -1.389852017164230347e-01
-2.861000597476959229e-01 -1.891115903854370117e-01 2.198864370584487915e-01
-3.770268559455871582e-01 -7.275085151195526123e-02 -3.002561926841735840e-01
-3.580407500267028809e-01 -6.163515895605087280e-02 -3.034565448760986328e-01
-2.185444831848144531e-01 -1.229880526661872864e-01 7.206270843744277954e-02
-2.361487001180648804e-01 -1.468145996332168579e-01 -2.045848816633224487e-01
-3.757075071334838867e-01 -9.527606517076492310e-02 2.907191216945648193e-01
-3.175762295722961426e-01 -2.021352499723434448e-01 1.429091244935989380e-01
-2.940789759159088135e-01 -1.810219585895538330e-01 -2.782355844974517822e-01
-2.294405102729797363e-01 -9.244360029697418213e-02 -1.220468431711196899e-02
-4.319751560688018799e-01 -3.032059222459793091e-02 -1.094444692134857178e-01
-4.060258865356445312e-01 1.457147300243377686e-03 1.291615515947341919e-01
-3.530388474464416504e-01 8.576169610023498535e-03 1.223018690943717957e-01
-3.130980432033538818e-01 -1.029440760612487793e-02 -9.122619777917861938e-02
-4.238660335540771484e-01 -3.228633850812911987e-02 -1.563561558723449707e-01
-4.071422815322875977e-01 -1.102731376886367798e-01 -2.178478986024856567e-01
-2.693242728710174561e-01 -1.225716695189476013e-01 2.904382646083831787e-01
-3.244089484214782715e-01 -2.149552255868911743e-01 -3.058247268199920654e-02
-3.516162633895874023e-01 -9.166055917739868164e-02 3.224036693572998047e-01
-3.873001337051391602e-01 -1.684543788433074951e-01 1.133119128644466400e-02
-3.731526136398315430e-01 -1.805820167064666748e-01 -1.008703112602233887e-01
-2.197913825511932373e-01 -1.729796379804611206e-01 1.081020832061767578e-01
-4.278056621551513672e-01 -1.452873647212982178e-02 -8.251713216304779053e-02
-3.598728179931640625e-01 -1.912990659475326538e-01 3.767663612961769104e-02
-2.142286300659179688e-01 -1.810558140277862549e-01 -5.471862852573394775e-03
-2.182106077671051025e-01 -1.208297386765480042e-01 5.239731073379516602e-02
-2.761692702770233154e-01 -1.710575968027114868e-01 2.569968402385711670e-01
-3.182723820209503174e-01 -1.802414059638977051e-01 2.278426289558410645e-01
-4.228174388408660889e-01 -2.411231398582458496e-04 1.114584319293498993e-02
-2.649522423744201660e-01 -2.230509519577026367e-01 -9.175189584493637085e-02
-3.246442973613739014e-01 -1.420530527830123901e-01 -3.269159793853759766e-01
-4.302910268306732178e-01 -9.140363335609436035e-02 8.422241359949111938e-02
-3.259684443473815918e-01 2.557061612606048584e-03 7.672546058893203735e-02
-2.213422954082489014e-01 -1.129396781325340271e-01 -3.749436140060424805e-02
-3.053381145000457764e-01 -1.110397279262542725e-02 1.097895056009292603e-01
-2.532516717910766602e-01 -5.787275359034538269e-02 -4.170430079102516174e-02
-3.011744022369384766e-01 -1.992955058813095093e-02 1.606270074844360352e-01
-2.648642659187316895e-01 -5.520064756274223328e-02 -1.235960796475410461e-01
-3.728421032428741455e-01 -1.631693094968795776e-01 1.567880362272262573e-01
-4.393076300621032715e-01 -7.500743865966796875e-02 -3.301345556974411011e-02
-3.884964287281036377e-01 -7.993428409099578857e-02 -2.868875265121459961e-01
-3.739597499370574951e-01 -1.213813722133636475e-01 2.648631930351257324e-01
-2.442677170038223267e-01 -1.896531879901885986e-01 -1.968969255685806274e-01
-2.963206171989440918e-01 -3.738135099411010742e-02 -1.795289814472198486e-01
-2.455162703990936279e-01 -6.525073200464248657e-02 2.111282944679260254e-02
-3.968895077705383301e-01 -6.641934812068939209e-02 -2.670590579509735107e-01
-3.067100644111633301e-01 -1.466829329729080200e-01 -3.235991895198822021e-01
-2.875301837921142578e-01 -5.622086301445960999e-02 -2.184682488441467285e-01
-2.220036089420318604e-01 -1.629993319511413574e-01 1.358337551355361938e-01
-3.290751874446868896e-01 -4.167660325765609741e-02 2.892543971538543701e-01
-2.209788113832473755e-01 -1.202406808733940125e-01 -7.161382585763931274e-02
-4.206363260746002197e-01 -5.383187532424926758e-02 1.875857412815093994e-01
-3.408107161521911621e-01 -1.938227713108062744e-01 -1.862641423940658569e-01
-2.999846041202545166e-01 -3.338987380266189575e-02 2.211761772632598877e-01
-2.917276620864868164e-01 -2.157642245292663574e-01 1.026332750916481018e-01
-3.926470577716827393e-01 -5.615220963954925537e-02 2.677258551120758057e-01
-2.201070785522460938e-01 -1.935239732265472412e-01 3.329836577177047729e-02
-2.949953079223632812e-01 -2.242918014526367188e-01 -4.781872034072875977e-02
-4.251396059989929199e-01 -1.011859774589538574e-01 9.798716008663177490e-02
-4.123491942882537842e-01 -1.291288435459136963e-01 -1.317290812730789185e-01
-4.166232645511627197e-01 -6.044805422425270081e-02 -2.134152799844741821e-01
-3.136073648929595947e-01 -1.659002751111984253e-01 -3.030083477497100830e-01
-4.287386834621429443e-01 -1.080867722630500793e-01 -8.281293325126171112e-03
-3.520764112472534180e-01 -6.089059263467788696e-02 3.156741559505462646e-01
-3.633561730384826660e-01 -1.403590142726898193e-01 -2.912274003028869629e-01
-2.171926796436309814e-01 -1.841700971126556396e-01 -6.335390359163284302e-02
-3.180400431156158447e-01 -8.574044704437255859e-02 -3.196405172348022461e-01
-4.231205284595489502e-01 -1.192888841032981873e-01 2.597172744572162628e-03
-4.168987870216369629e-01 -1.277260333299636841e-01 3.808996453881263733e-02
-3.759540617465972900e-01 3.502711653709411621e-03 -1.284150779247283936e-01
-2.258682250976562500e-01 -1.615995764732360840e-01 1.577941179275512695e-01
-2.521435022354125977e-01 -1.901929527521133423e-01 1.876108199357986450e-01
-2.987168729305267334e-01 -2.062207013368606567e-01 1.509587019681930542e-01
-2.305040657520294189e-01 -1.682126671075820923e-01 -1.781754344701766968e-01
-2.798869907855987549e-01 -7.722771167755126953e-02 2.783958315849304199e-01
-3.632931411266326904e-01 -4.492767527699470520e-02 2.959045171737670898e-01
-2.348804920911788940e-01 -2.051078975200653076e-01 8.294216543436050415e-02
-4.003846645355224609e-01 -1.400065124034881592e-01 -1.697512120008468628e-01
-3.662975132465362549e-01 -1.588789373636245728e-01 -2.463853508234024048e-01
-3.899345993995666504e-01 1.017075777053833008e-02 -7.360690832138061523e-02
-3.945346176624298096e-01 1.094287633895874023e-02 9.631316363811492920e-02
-3.162394762039184570e-01 -2.177215218544006348e-01 -6.815565377473831177e-02
-3.077561855316162109e-01 -1.945378482341766357e-01 1.917371898889541626e-01
-3.431048691272735596e-01 -1.882315427064895630e-01 1.480978578329086304e-01
-2.575186491012573242e-01 -8.750151097774505615e-02 2.343650609254837036e-01
-4.301234185695648193e-01 -6.075691059231758118e-02 1.387998163700103760e-01
-2.706723213195800781e-01 -9.478136897087097168e-02 -2.587085068225860596e-01
-3.402507007122039795e-01 9.183950722217559814e-03 1.683926675468683243e-03
-4.142807126045227051e-01 -4.042157530784606934e-02 -2.028157263994216919e-01
-3.105033934116363525e-01 -2.177016139030456543e-01 -1.049201935529708862e-01
-2.960579395294189453e-01 -1.341486275196075439e-01 -3.232068121433258057e-01
-3.447861075401306152e-01 -1.616149246692657471e-01 2.401143610477447510e-01
-4.277992546558380127e-01 -1.259622722864151001e-02 8.586382865905761719e-02
-2.991952002048492432e-01 -1.203376799821853638e-02 1.286659482866525650e-02
-3.962799906730651855e-01 -1.502880901098251343e-01 -1.470193117856979370e-01
-2.497222423553466797e-01 -1.311672925949096680e-01 -2.425386309623718262e-01
-3.983561992645263672e-01 -1.508842855691909790e-01 -1.256958842277526855e-01
-2.649795711040496826e-01 -7.704398036003112793e-02 -2.052046805620193481e-01
-3.085162639617919922e-01 -7.749037444591522217e-02 -3.011557757854461670e-01
-2.462304532527923584e-01 -1.018596887588500977e-01 2.169794887304306030e-01
-2.175543904304504395e-01 -1.431477069854736328e-01 1.062725707888603210e-01
-3.577178716659545898e-01 -1.950777769088745117e-01 -6.291517615318298340e-02
-2.409448623657226562e-01 -1.641793549060821533e-01 2.102836221456527710e-01
-2.143039703369140625e-01 -1.721812486648559570e-01 5.610706284642219543e-02
-3.599682450294494629e-01 -1.736539006233215332e-01 1.604088693857192993e-01
-2.578622698783874512e-01 -1.014820039272308350e-01 -2.333732247352600098e-01
-2.381798326969146729e-01 -9.482687711715698242e-02 1.615107804536819458e-01
-4.089654684066772461e-01 -1.236807629466056824e-01 1.331709176301956177e-01
-2.923449873924255371e-01 -5.728399381041526794e-02 2.693506479263305664e-01
-3.269334435462951660e-01 -5.792553350329399109e-02 -2.892684340476989746e-01
-4.350502789020538330e-01 -8.340033143758773804e-02 -8.716189861297607422e-02
-2.232661694288253784e-01 -1.154345944523811340e-01 1.052288189530372620e-01
-4.274689257144927979e-01 -5.110853910446166992e-02 1.557482928037643433e-01
-3.021652400493621826e-01 -4.526813328266143799e-02 -2.229065001010894775e-01
-3.657114207744598389e-01 -7.917681336402893066e-02 -3.142433464527130127e-01
-4.021701514720916748e-01 -1.522181332111358643e-01 -3.970735892653465271e-02
-2.377043962478637695e-01 -2.101879119873046875e-01 -9.854226559400558472e-02
-2.868098020553588867e-01 -1.111894175410270691e-01 -3.073081374168395996e-01
-3.451768755912780762e-01 -1.262097805738449097e-02 2.276389151811599731e-01
-2.158462107181549072e-01 -1.741386950016021729e-01 -7.637190818786621094e-02
-2.442376613616943359e-01 -1.998786628246307373e-01 1.402442306280136108e-01
-2.666965126991271973e-01 -1.713660061359405518e-01 -2.698321938514709473e-01
-4.200826585292816162e-01 -1.166459545493125916e-01 -1.213249117136001587e-01
-3.127718865871429443e-01 -4.426850378513336182e-02 -2.413804084062576294e-01
-2.546127736568450928e-01 -1.694299131631851196e-01 2.338078022003173828e-01
-2.506250739097595215e-01 -8.797734230756759644e-02 2.088612318038940430e-01
-3.124350905418395996e-01 -6.064753979444503784e-02 -2.784456610679626465e-01
-3.224516808986663818e-01 -2.185234427452087402e-02 -1.851071268320083618e-01
-2.509001493453979492e-01 -6.307270377874374390e-02 -6.336525082588195801e-02
-4.342699348926544189e-01 -9.375653415918350220e-02 -3.506440296769142151e-02
-4.203720390796661377e-01 -7.983138412237167358e-02 1.742375791072845459e-01
-3.478210866451263428e-01 -1.165325045585632324e-01 3.115234971046447754e-01
-3.300197720527648926e-01 -6.253252923488616943e-02 3.181667625904083252e-01
-2.974981069564819336e-01 -1.251780241727828979e-01 3.186670243740081787e-01
-2.313036918640136719e-01 -2.102942764759063721e-01 -2.688057348132133484e-02
-2.337311655282974243e-01 -2.089694738388061523e-01 4.845422133803367615e-02
-4.133829474449157715e-01 5.034774541854858398e-03 6.626907736063003540e-02
-3.271572291851043701e-01 -2.090960144996643066e-01 -1.285458356142044067e-01
-2.980042695999145508e-01 -1.593229621648788452e-01 2.842404544353485107e-01
-4.373323321342468262e-01 -5.743444338440895081e-02 -1.006402447819709778e-01
-3.634524643421173096e-01 -1.836899667978286743e-01 8.630079776048660278e-02
-2.880725264549255371e-01 -3.057848662137985229e-02 -1.112485602498054504e-01
-3.785343766212463379e-01 -1.737361550331115723e-01 5.781695246696472168e-02
-4.259417355060577393e-01 -7.101535797119140625e-02 1.552985310554504395e-01
-2.759176194667816162e-01 -1.407190561294555664e-01 2.930839955806732178e-01
-2.266663312911987305e-01 -1.346714049577713013e-01 -1.507154703140258789e-01
-3.681586682796478271e-01 -7.044404745101928711e-03 -1.779549568891525269e-01
-3.736703991889953613e-01 -1.797294467687606812e-01 4.095016419887542725e-02
-3.699213862419128418e-01 1.606827974319458008e-02 1.667245477437973022e-02
-2.154225856065750122e-01 -1.282315105199813843e-01 1.913987100124359131e-02
-2.153841853141784668e-01 -1.376706659793853760e-01 -5.656091496348381042e-02
-2.224895358085632324e-01 -1.900019645690917969e-01 7.925298064947128296e-02
-3.993752300739288330e-01 -1.466762274503707886e-02 -1.810182332992553711e-01
-3.581311702728271484e-01 -1.020675599575042725e-01 3.115068674087524414e-01
-4.099554419517517090e-01 -1.012099385261535645e-01 1.882364004850387573e-01
-2.622448205947875977e-01 -1.965150982141494751e-01 -2.193919122219085693e-01
-4.321268200874328613e-01 -6.449741870164871216e-02 1.228889599442481995e-01
-3.426768481731414795e-01 -1.945740133523941040e-01 1.131593286991119385e-01
-3.690085113048553467e-01 -1.749732494354248047e-01 1.143990159034729004e-01
-2.913211286067962646e-01 -2.243887335062026978e-01 -6.727322190999984741e-02
-3.146723508834838867e-01 -5.627476051449775696e-02 3.008667826652526855e-01
-4.144042134284973145e-01 -1.389843225479125977e-02 -1.429206579923629761e-01
-3.924018740653991699e-01 1.491095125675201416e-02 3.617155179381370544e-02
-2.466526925563812256e-01 -6.444051116704940796e-02 -9.824512526392936707e-03
-2.143809795379638672e-01 -1.640701293945312500e-01 7.239919155836105347e-02
-4.251688420772552490e-01 -1.109692081809043884e-01 4.907855391502380371e-02
-3.819423913955688477e-01 1.574094593524932861e-02 -8.563372306525707245e-03
-2.894932925701141357e-01 -1.908333599567413330e-02 3.333142027258872986e-02
-2.165954113006591797e-01 -1.252506375312805176e-01 -1.852134615182876587e-02
-2.467012703418731689e-01 -1.769642829895019531e-01 -2.239021062850952148e-01
-3.217113614082336426e-01 -1.790387034416198730e-01 -2.732059359550476074e-01
-3.113552033901214600e-01 -6.168775260448455811e-03 -3.548410534858703613e-02
-4.110133349895477295e-01 -6.910486519336700439e-02 2.201179414987564087e-01
-2.778647541999816895e-01 -2.152492702007293701e-01 1.131393462419509888e-01
-2.532075643539428711e-01 -2.079524099826812744e-01 1.274385303258895874e-01
-2.880321741104125977e-01 -3.073048591613769531e-02 1.644748300313949585e-01
-3.414342105388641357e-01 -2.047315239906311035e-01 2.010925486683845520e-02
-3.098630905151367188e-01 -5.070209503173828125e-03 4.444976523518562317e-02
-3.193833231925964355e-01 -1.267345845699310303e-01 -3.349833786487579346e-01
-2.116477191448211670e-01 -1.515643894672393799e-01 2.597405109554529190e-04
-3.401498496532440186e-01 -1.624201536178588867e-01 -2.888321876525878906e-01
-2.208398133516311646e-01 -1.972002089023590088e-01 -6.560267880558967590e-03
-4.143989980220794678e-01 -2.227494865655899048e-02 1.801429241895675659e-01
-2.315966635942459106e-01 -1.778063476085662842e-01 1.599520593881607056e-01
-2.321563661098480225e-01 -9.384377300739288330e-02 1.077572107315063477e-01
-3.607767224311828613e-01 -1.781792193651199341e-01 -1.944786012172698975e-01
-4.175915718078613281e-01 -1.295951306819915771e-01 -4.062278196215629578e-02
-2.378541976213455200e-01 -1.227680593729019165e-01 -1.915682703256607056e-01
-2.240086346864700317e-01 -1.436838954687118530e-01 1.536134332418441772e-01
-3.780454993247985840e-01 -1.272774338722229004e-01 -2.806200981140136719e-01
-2.566325664520263672e-01 -5.228954181075096130e-02 7.233249396085739136e-02
-2.573531270027160645e-01 -5.017296969890594482e-02 1.321180537343025208e-02
-2.229804545640945435e-01 -1.111674234271049500e-01 -5.451365560293197632e-02
-3.582257032394409180e-01 1.865662634372711182e-03 -1.291306465864181519e-01
-4.389586448669433594e-01 -2.857064455747604370e-02 1.286300644278526306e-02
-2.866197228431701660e-01 -2.870268374681472778e-02 1.432324498891830444e-01
-2.788932621479034424e-01 -2.810359001159667969e-02 1.300411578267812729e-02
-2.282024919986724854e-01 -1.797304898500442505e-01 1.419787108898162842e-01
-4.071412384510040283e-01 -1.143370419740676880e-01 1.718421876430511475e-01
-3.326563239097595215e-01 -2.028998136520385742e-01 9.417712688446044922e-02
-3.546268045902252197e-01 -8.868695795536041260e-02 -3.255093097686767578e-01
-2.385192215442657471e-01 -1.636242866516113281e-01 -2.113277167081832886e-01
-3.875515162944793701e-01 9.262986481189727783e-03 1.247610822319984436e-01
-3.486083745956420898e-01 -2.209224551916122437e-02 -2.219369411468505859e-01
-4.273705482482910156e-01 -4.920543357729911804e-02 -1.636593043804168701e-01
-3.029198646545410156e-01 -1.726384162902832031e-01 2.584046125411987305e-01
-4.312504231929779053e-01 -3.645403683185577393e-02 1.252846270799636841e-01
-3.474034965038299561e-01 -2.024524211883544922e-01 -2.118765562772750854e-02
-3.108167946338653564e-01 -4.413756355643272400e-02 2.740590274333953857e-01
-3.697572648525238037e-01 -1.489615440368652344e-01 -2.619096636772155762e-01
-2.819381654262542725e-01 -8.781144022941589355e-02 2.949762046337127686e-01
-2.918592691421508789e-01 -1.766160130500793457e-02 5.786960199475288391e-02
-2.376167178153991699e-01 -7.728476822376251221e-02 6.661656312644481659e-03
-2.424925118684768677e-01 -1.381201595067977905e-01 -2.238075435161590576e-01
-4.245839715003967285e-01 -1.164361834526062012e-01 -4.871523007750511169e-02
-3.991409540176391602e-01 -1.150639206171035767e-01 -2.399943619966506958e-01
-2.203882336616516113e-01 -1.416874080896377563e-01 1.288807541131973267e-01
-3.447805941104888916e-01 9.236335754394531250e-03 8.795183151960372925e-02
-3.776024878025054932e-01 -1.696780025959014893e-01 9.784214198589324951e-02
-2.291288673877716064e-01 -1.496771872043609619e-01 -1.754194647073745728e-01
-2.472441047430038452e-01 -7.235001027584075928e-02 1.360859274864196777e-01
-2.328804433345794678e-01 -2.108891606330871582e-01 -4.931549727916717529e-02
-2.776488065719604492e-01 -2.214124798774719238e-01 6.648627668619155884e-02
-2.807005345821380615e-01 -8.784656226634979248e-02 -2.710760831832885742e-01
-4.346786737442016602e-01 -7.142176479101181030e-02 -1.164879351854324341e-01
-2.937816977500915527e-01 -2.233601212501525879e-01 1.926554739475250244e-02
-2.160522788763046265e-01 -1.413893401622772217e-01 -7.494287192821502686e-02
-3.197284340858459473e-01 -1.945359557867050171e-01 1.750860363245010376e-01
-3.432742953300476074e-01 -2.133020758628845215e-02 2.532348930835723877e-01
-4.248278141021728516e-01 -9.107865393161773682e-02 1.298358142375946045e-01
-2.335319519042968750e-01 -1.622257828712463379e-01 -1.938751339912414551e-01
-3.593504130840301514e-01 5.134798586368560791e-03 -1.094591021537780762e-01
-4.018349051475524902e-01 -8.872270584106445312e-03 1.820239126682281494e-01
-3.855174183845520020e-01 -1.713621616363525391e-01 -3.511998802423477173e-02
-4.162310361862182617e-01 -6.151540949940681458e-02 2.041957825422286987e-01
-2.547447681427001953e-01 -1.555454432964324951e-01 -2.591528892517089844e-01
-2.681764066219329834e-01 -1.507776826620101929e-01 2.760744392871856689e-01
-3.896735906600952148e-01 -1.463887244462966919e-01 -2.020748555660247803e-01
-3.033011853694915771e-01 -1.539099961519241333e-02 1.382777541875839233e-01
-4.343114793300628662e-01 -1.654481887817382812e-02 2.383245900273323059e-02
-3.612651526927947998e-01 -9.453140199184417725e-03 2.243008166551589966e-01
-3.324671685695648193e-01 -2.019200474023818970e-02 2.398679852485656738e-01
-2.600783705711364746e-01 -2.240092754364013672e-01 1.093425136059522629e-02
-3.985157907009124756e-01 -3.011623769998550415e-02 2.343306541442871094e-01
-3.369637131690979004e-01 -9.802360832691192627e-02 3.296854496002197266e-01
-2.321687340736389160e-01 -9.119348973035812378e-02 -5.454178154468536377e-02
-3.893886506557464600e-01 -4.104226827621459961e-04 1.749243736267089844e-01
-2.344785779714584351e-01 -8.346810936927795410e-02 5.724269151687622070e-02
-2.754017114639282227e-01 -3.523562103509902954e-02 1.124425977468490601e-01
-3.400785624980926514e-01 -1.520911306142807007e-01 -3.062532842159271240e-01
-2.279223799705505371e-01 -9.518766403198242188e-02 4.309851303696632385e-02
-3.678485751152038574e-01 -1.876134425401687622e-01 -4.105599597096443176e-02
-3.626828193664550781e-01 -1.917152404785156250e-01 -2.323037385940551758e-02
-2.325969189405441284e-01 -1.085173338651657104e-01 -1.349777430295944214e-01
-2.817633450031280518e-01 -2.012080550193786621e-01 -2.247543931007385254e-01
-4.030359387397766113e-01 -9.200126677751541138e-02 -2.519520819187164307e-01
-3.419374823570251465e-01 -1.831003129482269287e-01 -2.306040525436401367e-01
-2.475906014442443848e-01 -6.500025093555450439e-02 8.512607216835021973e-02
-2.605299949645996094e-01 -5.360028892755508423e-02 1.316823512315750122e-01
-3.719538152217864990e-01 8.711650967597961426e-03 -9.376135468482971191e-02
-3.527429103851318359e-01 -1.058696210384368896e-02 -1.843812018632888794e-01
-2.738306522369384766e-01 -1.157050654292106628e-01 -2.890529036521911621e-01
-3.636174499988555908e-01 -1.252468675374984741e-01 2.793871462345123291e-01
-2.307612299919128418e-01 -1.026873737573623657e-01 -1.015262827277183533e-01
-2.117541283369064331e-01 -1.656783372163772583e-01 -1.135509647428989410e-02
-2.399748563766479492e-01 -2.149268090724945068e-01 -7.108978927135467529e-02
-2.773458957672119141e-01 -3.521304577589035034e-02 1.289831250905990601e-01
-2.694661915302276611e-01 -4.658205807209014893e-02 -1.024828478693962097e-01
-3.733851015567779541e-01 -1.671540141105651855e-01 -1.930620074272155762e-01
-3.632039725780487061e-01 -1.504922658205032349e-01 2.297123074531555176e-01
-2.746574282646179199e-01 -6.548708677291870117e-02 2.433119863271713257e-01
-3.536719381809234619e-01 -1.729770004749298096e-01 -2.372581958770751953e-01
-2.940075695514678955e-01 -2.228355109691619873e-01 -8.952616155147552490e-02
-4.150965511798858643e-01 -1.337204277515411377e-01 -1.306738238781690598e-02
-3.463200330734252930e-01 8.305765688419342041e-03 1.070107743144035339e-01
-3.943364620208740234e-01 -1.598641425371170044e-01 -8.638760447502136230e-02
-2.391029745340347290e-01 -8.207009732723236084e-02 -7.595636695623397827e-02
-4.112083911895751953e-01 8.212834596633911133e-03 2.893560379743576050e-02
-2.142710238695144653e-01 -1.417332589626312256e-01 6.371193379163742065e-02
-3.296720683574676514e-01 -3.320466727018356323e-02 -2.360887676477432251e-01
-2.432699203491210938e-01 -8.872746676206588745e-02 -1.397664397954940796e-01
-2.342661619186401367e-01 -1.506776958703994751e-01 1.997271627187728882e-01
-4.351108670234680176e-01 -2.893758565187454224e-02 8.186288923025131226e-02
-2.458140105009078979e-01 -8.021777868270874023e-02 1.611517071723937988e-01
-4.054499566555023193e-01 -6.139589846134185791e-02 2.387359887361526489e-01
-3.679628074169158936e-01 -1.147390753030776978e-01 -3.106242418289184570e-01
-3.466023802757263184e-01 -1.993324756622314453e-01 -1.188447177410125732e-01
-4.308062195777893066e-01 -8.361889421939849854e-02 1.022142916917800903e-01
-3.440941870212554932e-01 -1.759767383337020874e-01 1.975224465131759644e-01
-3.211135566234588623e-01 -1.933369338512420654e-01 -2.317687124013900757e-01
-3.607206940650939941e-01 -4.987590014934539795e-03 2.080901265144348145e-01
-3.556781113147735596e-01 -1.398257613182067871e-01 2.690415680408477783e-01
-4.210004806518554688e-01 -9.115658700466156006e-03 -9.742794185876846313e-02
-2.561422884464263916e-01 -6.915828585624694824e-02 1.804452091455459595e-01
-2.207348942756652832e-01 -1.883507072925567627e-01 -8.689947426319122314e-02
-3.130687475204467773e-01 -3.042908757925033569e-02 2.417318969964981079e-01
-3.826826512813568115e-01 -2.012889087200164795e-02 -2.164107859134674072e-01
-2.817928493022918701e-01 -2.183270752429962158e-01 -1.460832655429840088e-01
-4.219285249710083008e-01 -1.456023007631301880e-02 1.306475102901458740e-01
-3.643038272857666016e-01 -1.705345511436462402e-01 -2.143750786781311035e-01
-2.513020932674407959e-01 -1.516629457473754883e-01 2.469720840454101562e-01
-2.747100591659545898e-01 -2.207944691181182861e-01 -1.256968975067138672e-01
-2.200291752815246582e-01 -1.567260324954986572e-01 -1.245835795998573303e-01
-3.849329054355621338e-01 -1.711010932922363281e-01 -7.072114199399948120e-02
-2.450623959302902222e-01 -6.662756204605102539e-02 5.600160732865333557e-02
-3.585217893123626709e-01 -1.276686787605285645e-03 1.914815306663513184e-01
-2.970387041568756104e-01 -9.231291711330413818e-02 3.183370232582092285e-01
-4.407462477684020996e-01 -6.231727451086044312e-02 -4.634990170598030090e-02
-2.653263509273529053e-01 -2.253292053937911987e-01 -5.073834955692291260e-02
-4.262233376502990723e-01 -1.003450006246566772e-01 -1.284188032150268555e-01
-3.939665555953979492e-01 -1.567650139331817627e-01 6.423334777355194092e-02
-3.594173789024353027e-01 -3.806173801422119141e-03 -1.601192802190780640e-01
-3.110753595829010010e-01 -2.163059115409851074e-01 5.552946776151657104e-02
-4.258036017417907715e-01 -8.476619422435760498e-02 -1.645996719598770142e-01
-3.792785406112670898e-01 -6.701055169105529785e-02 2.929972410202026367e-01
-2.900700271129608154e-01 -2.231929451227188110e-02 1.120452135801315308e-01
-2.175323963165283203e-01 -1.651157289743423462e-01 -1.034700274467468262e-01
-3.509612679481506348e-01 -1.997562646865844727e-01 -3.866468090564012527e-03
-2.761853337287902832e-01 -1.816450953483581543e-01 2.356999963521957397e-01
-2.608477473258972168e-01 -2.135800272226333618e-01 -1.556368172168731689e-01
-2.184109836816787720e-01 -1.918767094612121582e-01 1.360206585377454758e-02
-4.254582822322845459e-01 -3.986284136772155762e-03 4.212974384427070618e-02
-3.985502719879150391e-01 -1.414410918951034546e-01 1.236041560769081116e-01
-2.614167928695678711e-01 -4.782552644610404968e-02 8.904442191123962402e-02
-2.685473859310150146e-01 -2.103986144065856934e-01 -1.814081668853759766e-01
-2.383974790573120117e-01 -2.158358246088027954e-01 -5.265239160507917404e-03
-3.665825426578521729e-01 1.238016039133071899e-02 1.047798097133636475e-01
-2.659341394901275635e-01 -2.170292139053344727e-01 9.580857306718826294e-02
-4.350511133670806885e-01 -8.021619915962219238e-02 6.814823299646377563e-02
-2.205435037612915039e-01 -1.952934265136718750e-01 -4.289586842060089111e-02
-2.441617548465728760e-01 -1.197667047381401062e-01 2.293092310428619385e-01
-3.774205446243286133e-01 -1.730541586875915527e-01 -1.359527856111526489e-01
-4.093993604183197021e-01 -1.202446222305297852e-01 -1.854389309883117676e-01
-2.821375131607055664e-01 -5.562537908554077148e-02 -2.004464268684387207e-01
-3.311484754085540771e-01 -2.604149281978607178e-02 -2.158857733011245728e-01
-4.342321157455444336e-01 -5.072240903973579407e-02 -1.246324107050895691e-01
-4.403971731662750244e-01 -5.732834339141845703e-02 4.362813383340835571e-02
-4.365207552909851074e-01 -2.110800892114639282e-02 -6.905028596520423889e-03
-3.618143796920776367e-01 -1.033369228243827820e-01 -3.221096098423004150e-01
-4.143800139427185059e-01 -1.269853115081787109e-02 1.569702029228210449e-01
-4.143235683441162109e-01 -1.284432560205459595e-01 6.683004647493362427e-02
-3.674413859844207764e-01 -1.735107302665710449e-01 1.305738985538482666e-01
-3.877439200878143311e-01 -1.577681154012680054e-01 1.068320423364639282e-01
-2.634684443473815918e-01 -6.907472014427185059e-02 -1.751445084810256958e-01
-3.832813799381256104e-01 -4.781205207109451294e-02 2.787686288356781006e-01
-3.083933889865875244e-01 -1.837613433599472046e-02 -1.277602612972259521e-01
-3.472612202167510986e-01 -5.335442349314689636e-02 -2.923802435398101807e-01
-3.100393116474151611e-01 -1.888278871774673462e-02 1.883474737405776978e-01
-2.229971289634704590e-01 -1.788495928049087524e-01 -1.277268230915069580e-01
-4.018642306327819824e-01 -1.504299640655517578e-01 2.968803048133850098e-02
-3.993128538131713867e-01 -8.276733756065368652e-02 2.476100325584411621e-01
-3.944037258625030518e-01 -1.003007292747497559e-01 2.439568638801574707e-01
-2.655905187129974365e-01 -1.855935454368591309e-01 2.180055975914001465e-01
-3.906612992286682129e-01 -1.050455942749977112e-01 -2.753645181655883789e-01
-4.058712124824523926e-01 -9.963728487491607666e-02 -2.369541376829147339e-01
-2.769866585731506348e-01 -3.381678462028503418e-02 -5.880745127797126770e-02
-3.495039045810699463e-01 5.417346954345703125e-03 1.422697007656097412e-01
-2.959075570106506348e-01 -9.220981597900390625e-02 -3.033082485198974609e-01
-2.600417733192443848e-01 -4.714407771825790405e-02 4.348841682076454163e-02
-3.629233837127685547e-01 -1.672973632812500000e-01 1.767618209123611450e-01
-3.748437464237213135e-01 -1.360637396574020386e-01 2.349090874195098877e-01
-2.829539775848388672e-01 -1.359881162643432617e-01 -3.100163936614990234e-01
-2.446134537458419800e-01 -1.109381020069122314e-01 -2.017864286899566650e-01
-2.539468705654144287e-01 -1.750100255012512207e-01 -2.431481778621673584e-01
-3.992738127708435059e-01 -1.558425724506378174e-01 -1.846478134393692017e-02
-3.795301020145416260e-01 6.306350231170654297e-03 -1.107903793454170227e-01
-3.024417161941528320e-01 -1.172491163015365601e-02 9.274917840957641602e-02
-3.049497008323669434e-01 -3.979705274105072021e-02 2.532059252262115479e-01
-3.069157600402832031e-01 -2.207439243793487549e-01 5.977230146527290344e-03
-4.417623877525329590e-01 -5.471763759851455688e-02 -2.433953434228897095e-02
-3.098089396953582764e-01 -2.079018205404281616e-02 -1.464756727218627930e-01
-2.685110569000244141e-01 -5.274183675646781921e-02 1.784387528896331787e-01
-3.107948899269104004e-01 -2.200228273868560791e-01 -1.119227055460214615e-02
-3.660823702812194824e-01 -2.025607228279113770e-02 -2.228342443704605103e-01
-2.683247327804565430e-01 -3.807469457387924194e-02 3.145182505249977112e-02
-2.255879938602447510e-01 -1.138891130685806274e-01 1.232353225350379944e-01
-2.846216857433319092e-01 -7.331783324480056763e-02 -2.534240186214447021e-01
-4.221913516521453857e-01 -1.032976508140563965e-01 1.146525293588638306e-01
-3.041655421257019043e-01 -2.007142603397369385e-01 1.706342250108718872e-01
-2.373255491256713867e-01 -1.136700361967086792e-01 -1.740433722734451294e-01
-2.744980752468109131e-01 -1.920530200004577637e-01 -2.448093146085739136e-01
-2.839131057262420654e-01 -1.983273327350616455e-01 1.906740218400955200e-01
-3.338267505168914795e-01 -2.089139670133590698e-01 -8.863695710897445679e-02
-2.343134731054306030e-01 -9.339725971221923828e-02 1.272035241127014160e-01
-2.637478411197662354e-01 -4.457575082778930664e-02 -2.724112942814826965e-02
-2.302533090114593506e-01 -1.576507240533828735e-01 1.803829967975616455e-01
-3.354661762714385986e-01 6.160356104373931885e-03 -2.829136699438095093e-02
-2.544908225536346436e-01 -2.185353636741638184e-01 -1.091700121760368347e-01
-4.385969042778015137e-01 -3.601675480604171753e-02 5.841202661395072937e-02
-2.127589434385299683e-01 -1.431076675653457642e-01 -1.661482080817222595e-02
-3.736180663108825684e-01 1.559983938932418823e-02 6.151845306158065796e-02
-2.282435297966003418e-01 -1.774967461824417114e-01 -1.585428118705749512e-01
-3.386625349521636963e-01 -2.879566699266433716e-02 2.691727578639984131e-01
-2.605682015419006348e-01 -1.249743402004241943e-01 2.745786011219024658e-01
-3.924695849418640137e-01 -4.301258921623229980e-02 -2.519950866699218750e-01
-3.320524096488952637e-01 -1.167859882116317749e-02 2.075259089469909668e-01
-4.370601177215576172e-01 -8.040092885494232178e-02 -6.543753296136856079e-02
-2.279119193553924561e-01 -1.221681982278823853e-01 1.580307185649871826e-01
-3.845744729042053223e-01 -1.041952148079872131e-01 2.645069360733032227e-01
-3.481796085834503174e-01 -1.984748542308807373e-01 5.047398060560226440e-02
-4.402833282947540283e-01 -3.744851052761077881e-02 -3.640964254736900330e-02
-3.798290789127349854e-01 -2.565926313400268555e-02 2.552984058856964111e-01
-3.646445572376251221e-01 1.420169323682785034e-02 7.625737786293029785e-02
-3.572532832622528076e-01 -1.945509910583496094e-01 1.642169430851936340e-02
-3.437011241912841797e-01 -1.244130283594131470e-01 -3.296398818492889404e-01
-4.076213538646697998e-01 1.225620508193969727e-04 -1.027485504746437073e-01
-3.244189918041229248e-01 -3.410547971725463867e-03 1.397354006767272949e-01
-2.547260820865631104e-01 -6.330899894237518311e-02 -1.002673357725143433e-01
-2.774993181228637695e-01 -2.062827348709106445e-01 -2.051776796579360962e-01
-4.303226470947265625e-01 -1.241743564605712891e-02 -4.641940444707870483e-02
-4.382805824279785156e-01 -7.656695693731307983e-02 2.914049848914146423e-02
-4.140075743198394775e-01 -8.987660706043243408e-02 -2.164220213890075684e-01
-2.390079796314239502e-01 -7.732044160366058350e-02 7.748515158891677856e-02
-2.310737073421478271e-01 -1.956847906112670898e-01 1.088179647922515869e-01
-2.807257473468780518e-01 -1.257255226373672485e-01 3.053565025329589844e-01
-4.069343209266662598e-01 -1.419754624366760254e-01 4.796109721064567566e-02
-3.160791695117950439e-01 -1.293075978755950928e-01 3.188972175121307373e-01
-2.386087179183959961e-01 -8.952537924051284790e-02 -1.108409911394119263e-01
-4.276155829429626465e-01 -1.807349175214767456e-02 1.094805747270584106e-01
-2.889869213104248047e-01 -2.087021619081497192e-02 8.058572560548782349e-02
-4.258486628532409668e-01 -6.187953799962997437e-02 -1.768726557493209839e-01
-4.304884076118469238e-01 -1.280292123556137085e-02 5.981737747788429260e-02
-4.047362804412841797e-01 9.830512106418609619e-03 -3.140650689601898193e-02
-4.303528964519500732e-01 -1.030795276165008545e-01 1.516364235430955887e-02
-2.610117793083190918e-01 -1.468919962644577026e-01 -2.743518948554992676e-01
-3.333088755607604980e-01 -4.063904285430908203e-03 1.714663356542587280e-01
-3.596778213977813721e-01 -1.521848142147064209e-02 2.418670505285263062e-01
-4.416939020156860352e-01 -5.693817883729934692e-02 6.306665949523448944e-03
-4.295096099376678467e-01 -9.880959987640380859e-02 6.205538660287857056e-02
-2.499569803476333618e-01 -2.112807035446166992e-01 -1.423235088586807251e-01
-3.252893984317779541e-01 -1.105283200740814209e-02 -1.401761323213577271e-01
-4.217715561389923096e-01 -8.128571510314941406e-02 -1.898400187492370605e-01
-3.176436126232147217e-01 -4.487290978431701660e-03 -6.027499586343765259e-02
-4.158854484558105469e-01 -9.852887690067291260e-02 -1.981228440999984741e-01
-2.858617901802062988e-01 -2.257226407527923584e-02 -4.137724172323942184e-03
-4.131622612476348877e-01 -1.182769089937210083e-01 -1.691887527704238892e-01
-2.499507963657379150e-01 -1.214466094970703125e-01 2.481844127178192139e-01
-3.349764347076416016e-01 -2.038946151733398438e-01 7.546131312847137451e-02
-3.374423980712890625e-01 -8.550905436277389526e-02 -3.272183835506439209e-01
-2.820623517036437988e-01 -2.255198359489440918e-01 4.410001914948225021e-03
-3.917466700077056885e-01 -1.604848802089691162e-01 -1.133738309144973755e-01
-3.458842635154724121e-01 -1.940296739339828491e-01 -1.664234995841979980e-01
-3.134754598140716553e-01 -2.175619602203369141e-01 2.696593105792999268e-02
-4.010124504566192627e-01 -3.610385209321975708e-02 -2.272989004850387573e-01
-3.620643317699432373e-01 1.265136897563934326e-02 -4.357551038265228271e-02
-2.364905774593353271e-01 -2.043333351612091064e-01 -1.251996755599975586e-01
-3.157233893871307373e-01 -1.745857298374176025e-01 2.459456622600555420e-01
4.047145843505859375e-01 -2.989017665386199951e-01 -1.473251730203628540e-01
4.072985053062438965e-01 -2.061590254306793213e-01 2.177613377571105957e-01
4.566047489643096924e-01 -3.129928410053253174e-01 3.467022776603698730e-01
4.148996472358703613e-01 -3.894472122192382812e-01 1.908793747425079346e-01
4.804859459400177002e-01 -2.975699603557586670e-01 -1.057003438472747803e-02
4.249186515808105469e-01 -4.274074733257293701e-01 -1.722947880625724792e-02
4.102078080177307129e-01 -1.947903484106063843e-01 1.949558220803737640e-02
4.132792353630065918e-01 -4.008618891239166260e-01 9.656683355569839478e-02
4.463889002799987793e-01 -1.874982118606567383e-01 2.125907689332962036e-01
4.061602950096130371e-01 -1.986997276544570923e-01 1.271400600671768188e-01
4.102020859718322754e-01 -3.938744962215423584e-01 -1.415776088833808899e-02
4.335891604423522949e-01 -1.740832626819610596e-01 1.837515532970428467e-01
4.203259646892547607e-01 -3.768863379955291748e-01 -2.055514156818389893e-01
4.787940979003906250e-01 -3.514081835746765137e-01 1.198398619890213013e-01
4.580980539321899414e-01 -3.486090004444122314e-01 3.154817819595336914e-01
4.644524753093719482e-01 -2.803378701210021973e-01 2.988076210021972656e-01
4.486655592918395996e-01 -2.222830951213836670e-01 3.178098797798156738e-01
4.669986963272094727e-01 -3.458119034767150879e-01 -2.325394749641418457e-01
4.339866936206817627e-01 -3.921588063240051270e-01 2.760794162750244141e-01
4.775664210319519043e-01 -3.198149800300598145e-01 1.693046689033508301e-01
4.139804244041442871e-01 -2.688886821269989014e-01 -2.001518905162811279e-01
4.468305706977844238e-01 -4.143671393394470215e-01 -2.055459022521972656e-01
4.676910340785980225e-01 -3.620309233665466309e-01 2.417672723531723022e-01
3.986945748329162598e-01 -2.310855984687805176e-01 5.772653967142105103e-02
4.125522971153259277e-01 -2.649406194686889648e-01 3.479688465595245361e-01
4.320895671844482422e-01 -4.237923026084899902e-01 1.526560783386230469e-01
4.452395737171173096e-01 -3.458970189094543457e-01 3.555407524108886719e-01
4.609743058681488037e-01 -2.036910057067871094e-01 1.007481217384338379e-01
4.038775563240051270e-01 -3.645346164703369141e-01 -4.222711548209190369e-02
4.815100431442260742e-01 -3.105845749378204346e-01 3.051534108817577362e-02
4.082436859607696533e-01 -2.175533473491668701e-01 2.658675312995910645e-01
4.552285671234130859e-01 -1.916399449110031128e-01 1.088114157319068909e-01
4.730290174484252930e-01 -2.849100232124328613e-01 -1.436845660209655762e-01
4.697322845458984375e-01 -2.423402369022369385e-01 1.762075871229171753e-01
4.075258970260620117e-01 -1.967299282550811768e-01 1.579368263483047485e-01
4.322395920753479004e-01 -2.308096587657928467e-01 -2.027826011180877686e-01
4.749625921249389648e-01 -2.760403156280517578e-01 -9.679481387138366699e-02
4.012650847434997559e-01 -2.216724753379821777e-01 2.887531369924545288e-02
4.074990749359130859e-01 -3.453314900398254395e-01 -1.482956707477569580e-01
4.231645166873931885e-01 -3.797976672649383545e-01 2.765248715877532959e-01
4.410866200923919678e-01 -1.863025724887847900e-01 2.386771738529205322e-01
4.015332162380218506e-01 -3.608791232109069824e-01 4.073973745107650757e-02
4.616186320781707764e-01 -2.061682790517807007e-01 1.185474246740341187e-01
4.704297184944152832e-01 -3.913224041461944580e-01 -1.547533720731735229e-01
4.514923989772796631e-01 -2.587327957153320312e-01 -2.353475093841552734e-01
4.652076065540313721e-01 -4.143459796905517578e-01 -1.314821243286132812e-01
4.164529442787170410e-01 -1.874891370534896851e-01 -6.444815546274185181e-03
4.270527362823486328e-01 -3.378418684005737305e-01 -2.738082706928253174e-01
4.806452393531799316e-01 -2.972998321056365967e-01 5.084138363599777222e-03
4.583015441894531250e-01 -2.537924051284790039e-01 3.164083659648895264e-01
4.659851491451263428e-01 -3.785835206508636475e-01 2.250648885965347290e-01
4.778037965297698975e-01 -3.798740506172180176e-01 5.087772756814956665e-02
3.993408679962158203e-01 -3.342480063438415527e-01 1.605871319770812988e-01
4.488167762756347656e-01 -2.148046791553497314e-01 -1.436911076307296753e-01
4.722701311111450195e-01 -2.702463269233703613e-01 2.089976966381072998e-01
4.367800056934356689e-01 -4.137839078903198242e-01 2.126759439706802368e-01
4.390802979469299316e-01 -4.213713407516479492e-01 1.845666766166687012e-01
4.754995703697204590e-01 -3.918733298778533936e-01 -6.410956382751464844e-02
4.788054823875427246e-01 -2.934423685073852539e-01 -6.244884058833122253e-02
4.805073142051696777e-01 -3.027584850788116455e-01 8.340005576610565186e-02
4.355753064155578613e-01 -3.761715292930603027e-01 3.141211271286010742e-01
4.443927109241485596e-01 -3.861047029495239258e-01 2.926846444606781006e-01
4.713245630264282227e-01 -3.883489370346069336e-01 1.492166966199874878e-01
4.206887185573577881e-01 -2.671393156051635742e-01 -2.296679019927978516e-01
4.348931610584259033e-01 -1.727369129657745361e-01 1.638959795236587524e-01
4.076347351074218750e-01 -3.736171424388885498e-01 -8.353282511234283447e-02
3.957366347312927246e-01 -2.612787187099456787e-01 1.471840441226959229e-01
4.805514216423034668e-01 -3.394750952720642090e-01 9.204478561878204346e-02
3.960051536560058594e-01 -2.857033312320709229e-01 -8.090488612651824951e-03
4.811960458755493164e-01 -3.357879817485809326e-01 -4.611242935061454773e-02
4.560545086860656738e-01 -2.043713331222534180e-01 2.108405977487564087e-01
3.996165096759796143e-01 -3.468118906021118164e-01 1.063926368951797485e-01
4.015356004238128662e-01 -3.201037347316741943e-01 2.326024621725082397e-01
4.764450490474700928e-01 -2.638726532459259033e-01 -6.165966391563415527e-03
3.981524407863616943e-01 -2.574308216571807861e-01 -2.550841495394706726e-02
4.775651395320892334e-01 -3.774800300598144531e-01 -7.482585310935974121e-02
4.157300889492034912e-01 -4.021500349044799805e-01 1.344202309846878052e-01
4.555274248123168945e-01 -2.052910178899765015e-01 -6.474868953227996826e-02
4.733905792236328125e-01 -3.089274466037750244e-01 2.272784262895584106e-01
4.782981574535369873e-01 -3.364948630332946777e-01 -1.198402643203735352e-01
4.231179058551788330e-01 -3.861755132675170898e-01 2.593221068382263184e-01
4.567853510379791260e-01 -4.040652513504028320e-01 -2.132354974746704102e-01
4.078202843666076660e-01 -2.132221162319183350e-01 2.498507648706436157e-01
4.238177835941314697e-01 -4.261645972728729248e-01 7.702827453613281250e-03
3.999039232730865479e-01 -2.504428923130035400e-01 -4.396036639809608459e-02
4.529512524604797363e-01 -3.303440511226654053e-01 -2.882016003131866455e-01
4.815230369567871094e-01 -3.133937120437622070e-01 -2.962127327919006348e-03
4.650414288043975830e-01 -4.141339659690856934e-01 1.187040805816650391e-01
4.038098156452178955e-01 -3.283771872520446777e-01 -1.252782195806503296e-01
