1.955953426659107208e-02 -3.968068361282348633e-01 -3.025517798960208893e-06
1.307687349617481232e-02 -2.707387506961822510e-01 5.348606035113334656e-03
7.945154793560504913e-04 -3.770317137241363525e-01 -1.204137038439512253e-02
1.040045171976089478e-02 -4.048900604248046875e-01 1.536997687071561813e-02
-3.994120750576257706e-03 -3.097089231014251709e-01 9.823888540267944336e-03
4.663534928113222122e-03 -4.698466062545776367e-01 -9.865052998065948486e-03
-2.010468393564224243e-03 -5.207589268684387207e-01 7.500036619603633881e-03
1.458914577960968018e-02 -4.392735958099365234e-01 1.162787806242704391e-02
1.639495044946670532e-02 -4.805844128131866455e-01 2.682108897715806961e-03
1.166590303182601929e-02 -4.720942974090576172e-01 -8.142897859215736389e-03
-6.094671320170164108e-03 -4.162706732749938965e-01 -5.946089513599872589e-03
1.328722760081291199e-02 -3.578836023807525635e-01 1.283052656799554825e-02
1.509592868387699127e-02 -4.798330664634704590e-01 7.716295309364795685e-03
-3.368680831044912338e-03 -5.146588683128356934e-01 1.699467538855969906e-03
1.796527393162250519e-02 -4.100874066352844238e-01 7.445705123245716095e-03
-7.129579316824674606e-03 -4.737110137939453125e-01 5.519678816199302673e-03
1.374720409512519836e-02 -4.337547123432159424e-01 1.267309207469224930e-02
1.662654988467693329e-02 -3.037666976451873779e-01 4.556833766400814056e-03
9.778317064046859741e-03 -4.919388890266418457e-01 1.244259346276521683e-02
1.506237685680389404e-02 -3.478074073791503906e-01 1.078619435429573059e-02
7.552351336926221848e-03 -5.250109434127807617e-01 -3.068710444495081902e-03
-6.517967674881219864e-03 -4.366025328636169434e-01 -4.346294328570365906e-03
1.781123690307140350e-02 -4.096349775791168213e-01 -5.793868564069271088e-03
1.603556610643863678e-02 -4.845303297042846680e-01 6.150831468403339386e-04
1.244777627289295197e-02 -3.842811286449432373e-01 1.404928974807262421e-02
-9.611858986318111420e-04 -2.643491029739379883e-01 -4.254206083714962006e-03
3.140617860481142998e-03 -3.913029730319976807e-01 -1.270305644720792770e-02
3.910395316779613495e-03 -3.825588822364807129e-01 -1.294450834393501282e-02
2.499986905604600906e-03 -3.682551383972167969e-01 1.631795428693294525e-02
1.800666935741901398e-02 -4.438607096672058105e-01 -2.191479550674557686e-03
-1.804467290639877319e-03 -5.236484408378601074e-01 1.155569101683795452e-03
5.961476825177669525e-03 -5.046484470367431641e-01 1.287126913666725159e-02
-5.513106938451528549e-03 -4.427112340927124023e-01 1.224591583013534546e-02
1.549383811652660370e-02 -4.919230341911315918e-01 2.523377072066068649e-03
3.343354910612106323e-03 -5.097564458847045898e-01 1.254375651478767395e-02
-7.577013690024614334e-03 -3.301842510700225830e-01 -6.649370770901441574e-04
1.693470403552055359e-05 -4.351217448711395264e-01 1.609281823039054871e-02
1.452610455453395844e-02 -3.577715456485748291e-01 -1.037670951336622238e-02
-5.844110157340764999e-03 -4.894309937953948975e-01 1.160650281235575676e-03
1.624873280525207520e-02 -4.283749759197235107e-01 9.921878576278686523e-03
-8.128622546792030334e-03 -4.280322492122650146e-01 8.321225643157958984e-03
4.402762278914451599e-04 -3.003383576869964600e-01 1.214985456317663193e-02
-3.802284132689237595e-03 -4.150965213775634766e-01 1.440730318427085876e-02
-2.276698593050241470e-03 -3.167326152324676514e-01 -8.732944726943969727e-03
-6.235884036868810654e-03 -4.387636482715606689e-01 1.147923432290554047e-02
3.990144468843936920e-03 -5.315703153610229492e-01 9.172482416033744812e-03
9.854628704488277435e-03 -5.313017964363098145e-01 1.456885365769267082e-03
1.888269931077957153e-02 -3.376471400260925293e-01 1.842226949520409107e-03
8.400732651352882385e-03 -4.334759116172790527e-01 -1.175432186573743820e-02
-3.108768258243799210e-03 -4.827914237976074219e-01 1.220935303717851639e-02
1.492559444159269333e-03 -2.984468936920166016e-01 -1.011614408344030380e-02
4.326884634792804718e-03 -4.229511618614196777e-01 1.683746650815010071e-02
1.866645924746990204e-02 -4.377061426639556885e-01 4.544742405414581299e-04
-8.161904290318489075e-03 -3.423296809196472168e-01 7.271301001310348511e-05
-2.573519013822078705e-04 -3.782764375209808350e-01 1.593301631510257721e-02
8.663977496325969696e-04 -4.199806451797485352e-01 1.652672141790390015e-02
8.326509967446327209e-03 -4.196996092796325684e-01 1.614624261856079102e-02
-8.194332942366600037e-03 -3.448443710803985596e-01 5.179772619158029556e-03
-7.280498277395963669e-03 -4.629575908184051514e-01 7.469362579286098480e-03
1.484478125348687172e-03 -3.971159160137176514e-01 1.665419712662696838e-02
8.759974502027034760e-03 -4.881664812564849854e-01 -7.953953929245471954e-03
1.797222346067428589e-02 -3.976663649082183838e-01 7.649525068700313568e-03
1.061804220080375671e-02 -3.626107275485992432e-01 -1.253244373947381973e-02
1.500867307186126709e-02 -3.009973764419555664e-01 7.264101877808570862e-03
1.597671397030353546e-02 -2.909819781780242920e-01 -4.187196493148803711e-03
6.153517402708530426e-03 -2.361102998256683350e-01 -7.316353730857372284e-06
-1.187930349260568619e-03 -3.181151151657104492e-01 1.282990165054798126e-02
5.789062473922967911e-03 -2.748236060142517090e-01 1.037633884698152542e-02
2.412302885204553604e-03 -2.940548658370971680e-01 -1.021180953830480576e-02
-1.349001191556453705e-03 -2.740255892276763916e-01 -5.540298298001289368e-03
1.817927137017250061e-02 -4.242559373378753662e-01 -4.033565521240234375e-03
4.998041782528162003e-03 -4.459529817104339600e-01 -1.133415661752223969e-02
6.242215633392333984e-03 -4.377289414405822754e-01 1.640457659959793091e-02
-6.851488258689641953e-03 -4.798252284526824951e-01 3.454511752352118492e-03
9.960891678929328918e-03 -4.547330737113952637e-01 -1.024358998984098434e-02
1.529660448431968689e-02 -4.691312313079833984e-01 8.678375743329524994e-03
1.914384588599205017e-02 -3.838143646717071533e-01 -3.275676863268017769e-03
5.002446006983518600e-03 -4.775097370147705078e-01 1.508679613471031189e-02
2.062458312138915062e-03 -4.102852642536163330e-01 -1.206671539694070816e-02
-3.975983709096908569e-04 -2.772914171218872070e-01 9.056201204657554626e-03
-7.014094386249780655e-03 -4.100841581821441650e-01 -4.717786796391010284e-03
-3.216109704226255417e-03 -2.952569127082824707e-01 -5.989249795675277710e-03
-5.609912332147359848e-03 -4.536580443382263184e-01 -4.547622986137866974e-03
1.154833473265171051e-02 -5.166084766387939453e-01 7.111471146345138550e-03
-6.872097495943307877e-03 -4.009551405906677246e-01 -5.173897370696067810e-03
5.694368388503789902e-03 -5.088061094284057617e-01 -6.116547621786594391e-03
-5.084282252937555313e-03 -5.015018582344055176e-01 2.896250225603580475e-03
-6.612551864236593246e-03 -4.701901674270629883e-01 -7.457071915268898010e-04
-4.005155991762876511e-03 -4.907621145248413086e-01 -2.770847873762249947e-03
1.643205434083938599e-02 -3.954806327819824219e-01 -8.341314271092414856e-03
-9.015619754791259766e-03 -4.080089330673217773e-01 7.691682549193501472e-04
6.507841870188713074e-03 -5.374798774719238281e-01 9.298231452703475952e-05
1.061712484806776047e-02 -4.847782552242279053e-01 -7.519717328250408173e-03
-3.794654738157987595e-03 -4.716314971446990967e-01 -5.307984538376331329e-03
7.193827070295810699e-03 -2.821751236915588379e-01 1.096794568002223969e-02
-9.161499328911304474e-04 -5.171266198158264160e-01 9.789654053747653961e-03
5.221250001341104507e-03 -4.614466428756713867e-01 1.583593711256980896e-02
-3.588558640331029892e-03 -3.305529356002807617e-01 -8.204185403883457184e-03
-8.385220542550086975e-03 -4.238929748535156250e-01 7.763578556478023529e-03
-1.508289016783237457e-03 -3.306382298469543457e-01 1.350220665335655212e-02
1.324914582073688507e-02 -4.259161651134490967e-01 1.330902148038148880e-02
3.317710477858781815e-03 -2.636105418205261230e-01 -7.594742812216281891e-03
1.344719715416431427e-02 -3.314916789531707764e-01 1.150877401232719421e-02
-1.791673712432384491e-04 -3.345688879489898682e-01 1.434179767966270447e-02
5.584387574344873428e-03 -4.207273721694946289e-01 -1.240059826523065567e-02
1.960713043808937073e-02 -3.924796581268310547e-01 5.477204686030745506e-04
6.530638784170150757e-04 -4.296822547912597656e-01 1.636555790901184082e-02
1.051043905317783356e-02 -4.380219280719757080e-01 1.488720998167991638e-02
1.955935359001159668e-02 -3.674025535583496094e-01 7.803492480888962746e-04
-3.308980260044336319e-03 -4.326075017452239990e-01 -8.358187973499298096e-03
9.869333356618881226e-03 -2.521255016326904297e-01 4.967023152858018875e-03
-4.288697149604558945e-03 -2.904820740222930908e-01 -3.519848221912980080e-03
1.693734526634216309e-02 -4.715484976768493652e-01 1.774368574842810631e-04
2.704676473513245583e-03 -2.689485549926757812e-01 9.363174438476562500e-03
1.002908870577812195e-02 -3.559535443782806396e-01 1.475580222904682159e-02
-3.243433777242898941e-03 -2.689659297466278076e-01 1.355459447950124741e-03
7.441793568432331085e-03 -3.531796038150787354e-01 -1.307752076536417007e-02
7.555962540209293365e-03 -4.611280262470245361e-01 -1.040850207209587097e-02
1.562093012034893036e-02 -4.802358150482177734e-01 -2.433018060401082039e-03
1.586717367172241211e-02 -2.812117040157318115e-01 -4.134899936616420746e-04
1.114311255514621735e-02 -5.118480324745178223e-01 8.760378696024417877e-03
1.824320480227470398e-02 -3.669769465923309326e-01 6.651932373642921448e-03
-8.894898928701877594e-04 -4.873969852924346924e-01 -6.360712461173534393e-03
-8.298873901367187500e-03 -4.485954344272613525e-01 5.261028185486793518e-03
-1.370763871818780899e-03 -3.660304248332977295e-01 1.517517026513814926e-02
1.925279572606086731e-02 -4.148715436458587646e-01 -4.602312110364437103e-04
6.992971524596214294e-03 -2.419326901435852051e-01 3.882698016241192818e-03
-6.847369950264692307e-03 -3.126121759414672852e-01 3.936962224543094635e-03
4.724732134491205215e-03 -2.569058239459991455e-01 7.785641588270664215e-03
1.093098707497119904e-02 -3.369620740413665771e-01 1.353845745325088501e-02
8.046691305935382843e-03 -4.763981699943542480e-01 -9.207800030708312988e-03
1.608843542635440826e-02 -4.429129958152770996e-01 9.479849599301815033e-03
3.195202909409999847e-03 -4.541799724102020264e-01 -1.062292139977216721e-02
-7.976120337843894958e-03 -4.461523592472076416e-01 -7.646193262189626694e-05
8.508935570716857910e-04 -3.674067854881286621e-01 -1.205154042690992355e-02
1.121153775602579117e-02 -5.236752033233642578e-01 5.292520858347415924e-03
-6.575670558959245682e-03 -3.520767390727996826e-01 1.002349331974983215e-02
-4.906416870653629303e-04 -3.633190095424652100e-01 -1.137668639421463013e-02
-8.775733411312103271e-03 -4.052068293094635010e-01 6.989080458879470825e-03
6.262841634452342987e-04 -4.637790918350219727e-01 -9.173834696412086487e-03
-1.977672800421714783e-03 -2.694810032844543457e-01 5.943114869296550751e-03
1.078406721353530884e-02 -2.555133402347564697e-01 -5.246608518064022064e-03
1.203344669193029404e-02 -4.203444123268127441e-01 -1.107820030301809311e-02
-2.421516459435224533e-03 -4.948336482048034668e-01 1.163709629327058792e-02
5.073640495538711548e-04 -3.582206666469573975e-01 1.561481319367885590e-02
1.537060737609863281e-02 -3.688992857933044434e-01 -9.724090807139873505e-03
-6.475013215094804764e-03 -4.486632049083709717e-01 1.063133124262094498e-02
1.309217140078544617e-02 -2.636192142963409424e-01 3.534773364663124084e-03
-1.945923548191785812e-03 -4.799456894397735596e-01 -6.298122927546501160e-03
-9.112978354096412659e-03 -3.808060288429260254e-01 1.406356110237538815e-03
4.661527462303638458e-03 -5.329780578613281250e-01 -1.704114256426692009e-03
1.816461980342864990e-02 -3.319544792175292969e-01 -4.171680659055709839e-03
1.440960355103015900e-02 -3.984564542770385742e-01 1.255930494517087936e-02
8.554474450647830963e-03 -4.535163640975952148e-01 1.531189028173685074e-02
-8.111147210001945496e-03 -3.903689980506896973e-01 8.827310986816883087e-03
-4.140160512179136276e-03 -4.618484377861022949e-01 1.276178006082773209e-02
-2.963786479085683823e-03 -4.625159502029418945e-01 -6.906177848577499390e-03
1.332291774451732635e-02 -3.215039968490600586e-01 -1.025475282222032547e-02
2.106718719005584717e-03 -5.183511972427368164e-01 -4.036420024931430817e-03
9.353132918477058411e-03 -5.064781904220581055e-01 -5.504765547811985016e-03
1.249313727021217346e-02 -4.958500862121582031e-01 -4.703523591160774231e-03
1.903087832033634186e-02 -3.455429673194885254e-01 2.392743248492479324e-03
1.059838756918907166e-02 -2.450946420431137085e-01 5.681102629750967026e-04
-8.555989712476730347e-03 -4.195029735565185547e-01 7.395115680992603302e-03
7.155216298997402191e-03 -5.402024984359741211e-01 2.798779401928186417e-03
-7.880518212914466858e-03 -3.957591354846954346e-01 9.422351606190204620e-03
1.534153893589973450e-02 -3.676626682281494141e-01 1.119700539857149124e-02
8.743111975491046906e-03 -4.459882676601409912e-01 1.548715401440858841e-02
1.171766407787799835e-02 -2.498690932989120483e-01 3.574965521693229675e-04
-6.349437404423952103e-03 -4.754133820533752441e-01 -5.575744435191154480e-04
-7.859321311116218567e-03 -3.503448963165283203e-01 -2.144048688933253288e-03
1.931621320545673370e-02 -4.057686328887939453e-01 -1.359653426334261894e-03
1.371427625417709351e-02 -2.799365818500518799e-01 6.133567541837692261e-03
1.720495149493217468e-02 -3.210272490978240967e-01 -5.560982972383499146e-03
1.462753862142562866e-02 -4.718458652496337891e-01 -5.490238778293132782e-03
1.906859688460826874e-02 -3.769553005695343018e-01 -3.587316023185849190e-03
1.501589082181453705e-02 -4.671966433525085449e-01 -5.523008294403553009e-03
1.557053066790103912e-02 -3.148063421249389648e-01 7.928966544568538666e-03
1.023813150823116302e-03 -5.376203060150146484e-01 5.162841174751520157e-03
2.958747558295726776e-03 -3.860543966293334961e-01 1.672327145934104919e-02
-3.654011990875005722e-03 -4.034413993358612061e-01 -8.976706303656101227e-03
1.241115853190422058e-02 -3.080525994300842285e-01 -1.015291176736354828e-02
1.114796288311481476e-02 -5.225890874862670898e-01 -2.051123883575201035e-04
1.273927278816699982e-02 -2.579541206359863281e-01 -2.885516034439206123e-03
-7.512727286666631699e-03 -3.692550361156463623e-01 -3.933261148631572723e-03
1.764644309878349304e-02 -3.059698939323425293e-01 -1.905118115246295929e-04
-8.980065584182739258e-03 -4.257173836231231689e-01 4.189334344118833542e-03
-6.111948285251855850e-03 -3.081547319889068604e-01 5.812291055917739868e-03
-5.309335421770811081e-03 -4.555009305477142334e-01 1.186884660273790359e-02
8.708890527486801147e-05 -3.810039162635803223e-01 -1.171105355024337769e-02
-2.150135580450296402e-03 -4.143598377704620361e-01 -9.898398071527481079e-03
6.756552960723638535e-03 -3.911916315555572510e-01 1.654910109937191010e-02
5.301504861563444138e-03 -3.596615791320800781e-01 -1.312103960663080215e-02
-5.574619863182306290e-03 -4.800440371036529541e-01 -1.637792214751243591e-03
1.203539781272411346e-02 -2.540977299213409424e-01 2.356084994971752167e-03
1.529696956276893616e-02 -2.752609848976135254e-01 -1.085584517568349838e-05
4.765016958117485046e-03 -3.737954497337341309e-01 -1.310903113335371017e-02
9.764898568391799927e-03 -3.672510087490081787e-01 -1.279870886355638504e-02
7.117527071386575699e-03 -3.793861269950866699e-01 -1.317281741648912430e-02
-7.047632243484258652e-03 -4.326106905937194824e-01 -3.650462487712502480e-03
1.648913882672786713e-02 -3.628157079219818115e-01 9.620795957744121552e-03
-7.151393685489892960e-03 -4.109487235546112061e-01 1.077721174806356430e-02
1.961464248597621918e-02 -3.743620216846466064e-01 6.382113788276910782e-04
7.630485575646162033e-03 -4.253049194812774658e-01 -1.218474470078945160e-02
3.574249800294637680e-03 -2.457053214311599731e-01 4.999694414436817169e-03
2.203862881287932396e-03 -4.526692330837249756e-01 1.612561941146850586e-02
8.145419880747795105e-03 -3.669347167015075684e-01 1.577791944146156311e-02
-4.643849562853574753e-03 -2.845421433448791504e-01 -9.333214256912469864e-04
1.789893954992294312e-02 -4.469274282455444336e-01 4.900758620351552963e-03
-8.752811700105667114e-03 -3.573569059371948242e-01 3.864114638417959213e-03
1.207706797868013382e-02 -4.478002488613128662e-01 1.358128897845745087e-02
5.130963400006294250e-03 -4.158215820789337158e-01 1.684234850108623505e-02
9.523662738502025604e-04 -4.305743873119354248e-01 -1.104021910578012466e-02
7.657397538423538208e-03 -2.932168245315551758e-01 -1.087889354676008224e-02
-1.162359025329351425e-03 -3.846284747123718262e-01 -1.102363970130681992e-02
3.594625741243362427e-04 -3.500213623046875000e-01 1.526145264506340027e-02
1.754255034029483795e-02 -4.590263962745666504e-01 4.029089119285345078e-03
-5.282741505652666092e-03 -3.232827186584472656e-01 9.589561261236667633e-03
1.205443311482667923e-02 -5.084187388420104980e-01 -2.904338994994759560e-03
1.038794405758380890e-02 -4.282336533069610596e-01 1.516441814601421356e-02
-5.745549220591783524e-03 -4.300651848316192627e-01 1.238384749740362167e-02
-3.479141741991043091e-05 -2.512282133102416992e-01 3.134184982627630234e-03
1.056850701570510864e-02 -3.768249452114105225e-01 -1.255313307046890259e-02
-7.926987484097480774e-03 -4.597045779228210449e-01 4.494869615882635117e-03
-3.332926426082849503e-03 -4.020535945892333984e-01 1.474262122064828873e-02
-4.229027312248945236e-03 -4.238807559013366699e-01 -7.864229381084442139e-03
7.417161948978900909e-03 -3.476067483425140381e-01 1.535527780652046204e-02
1.519066095352172852e-02 -4.859220981597900391e-01 6.440921686589717865e-03
9.170184843242168427e-03 -5.207251906394958496e-01 -3.101330948993563652e-03
9.246319532394409180e-03 -3.233810365200042725e-01 1.360762491822242737e-02
-7.123046088963747025e-03 -4.338887035846710205e-01 1.027637254446744919e-02
1.638675481081008911e-02 -3.747503459453582764e-01 -8.654878474771976471e-03
1.796900527551770210e-03 -5.270933508872985840e-01 9.639483876526355743e-03
6.807793863117694855e-03 -4.333819150924682617e-01 1.637620665132999420e-02
9.756578132510185242e-03 -2.675011456012725830e-01 8.056378923356533051e-03
1.006726361811161041e-02 -5.283588171005249023e-01 5.894868634641170502e-03
-3.424185793846845627e-03 -4.981251358985900879e-01 -2.459405688568949699e-03
1.625095680356025696e-02 -3.427818417549133301e-01 9.055163711309432983e-03
-6.078554783016443253e-03 -4.811384677886962891e-01 7.964484393596649170e-03
-6.470210384577512741e-03 -3.078204393386840820e-01 -5.035095382481813431e-04
-8.767226710915565491e-03 -4.354404509067535400e-01 4.250424914062023163e-03
1.603084430098533630e-02 1.935752034187316895e-01 -1.025341264903545380e-02
1.666910573840141296e-02 2.268020361661911011e-01 -6.637819111347198486e-03
2.001786977052688599e-02 1.585044562816619873e-01 -3.493228228762745857e-03
3.230995265766978264e-03 1.856117546558380127e-01 1.454997155815362930e-02
-3.276937641203403473e-03 1.464882493019104004e-01 -8.745881728827953339e-03
-3.128418698906898499e-03 1.217739135026931763e-01 9.433789178729057312e-03
6.696313619613647461e-03 2.076085060834884644e-01 1.359775196760892868e-02
1.510568428784608841e-02 2.229971736669540405e-01 9.381528012454509735e-03
-3.965347073972225189e-03 1.535608768463134766e-01 -8.422327227890491486e-03
5.471820477396249771e-03 1.582550853490829468e-01 -1.322112325578927994e-02
1.822116225957870483e-02 1.261274963617324829e-01 1.800916157662868500e-03
5.356796085834503174e-03 1.281631141901016235e-01 -1.097362674772739410e-02
1.308671291917562485e-02 2.333295047283172607e-01 8.827934041619300842e-03
2.003194019198417664e-02 1.763464361429214478e-01 7.223461754620075226e-03
-7.109013386070728302e-03 1.569576263427734375e-01 -2.716473769396543503e-03
5.463812034577131271e-03 1.930707395076751709e-01 1.462575700134038925e-02
-2.852760255336761475e-03 1.904314309358596802e-01 -9.288202039897441864e-03
1.555284019559621811e-03 1.479688137769699097e-01 -1.189044676721096039e-02
1.415098085999488831e-05 1.038492098450660706e-01 -5.229217931628227234e-03
1.213829964399337769e-02 2.108429819345474243e-01 1.258042454719543457e-02
-1.352295279502868652e-03 1.535970568656921387e-01 -1.070086192339658737e-02
7.991248741745948792e-03 2.453037202358245850e-01 -7.567660883069038391e-03
8.228707127273082733e-03 2.234135419130325317e-01 1.175438053905963898e-02
-1.326197758316993713e-03 1.267288476228713989e-01 1.172790583223104477e-02
7.296349853277206421e-03 1.351555138826370239e-01 -1.163825113326311111e-02
7.398795336484909058e-03 1.530422866344451904e-01 1.558220107108354568e-02
1.678735483437776566e-03 1.970960646867752075e-01 -1.215322688221931458e-02
-1.937990076839923859e-03 1.431482583284378052e-01 1.234473381191492081e-02
5.393923725932836533e-03 1.289302110671997070e-01 1.441704761236906052e-02
4.445014987140893936e-03 2.092690765857696533e-01 -1.234245672821998596e-02
-5.344867706298828125e-03 2.036407440900802612e-01 -3.003814956173300743e-03
1.950439065694808960e-02 1.912334859371185303e-01 7.800433784723281860e-03
2.132524363696575165e-02 1.756309121847152710e-01 1.910538179799914360e-03
4.464429803192615509e-03 9.824413061141967773e-02 9.912810288369655609e-03
1.018856186419725418e-02 1.376327872276306152e-01 -1.124741230159997940e-02
1.804353669285774231e-02 1.664439439773559570e-01 -7.835470139980316162e-03
1.006969250738620758e-02 1.438748389482498169e-01 -1.184528600424528122e-02
1.148502901196479797e-02 1.035367846488952637e-01 8.892780169844627380e-03
-2.137435600161552429e-03 1.205638647079467773e-01 -6.927603855729103088e-03
3.334831912070512772e-03 9.084070473909378052e-02 7.214824669063091278e-03
8.053197525441646576e-03 1.747324168682098389e-01 1.552911289036273956e-02
1.526477281004190445e-02 1.809422671794891357e-01 1.287804171442985535e-02
8.723950944840908051e-03 1.046955808997154236e-01 -6.592255085706710815e-03
5.140499211847782135e-03 2.274681180715560913e-01 -1.058219000697135925e-02
2.393615432083606720e-04 2.062364369630813599e-01 1.136013399809598923e-02
2.374758943915367126e-03 1.931153237819671631e-01 1.377370674163103104e-02
1.559682190418243408e-02 1.092748865485191345e-01 2.776777138933539391e-03
1.857842691242694855e-02 2.099153101444244385e-01 7.438564673066139221e-03
4.507516045123338699e-03 1.154216080904006958e-01 -9.201400913298130035e-03
1.394583657383918762e-02 1.329299807548522949e-01 1.213783957064151764e-02
2.809606492519378662e-03 1.727332621812820435e-01 1.492859050631523132e-02
1.762663014233112335e-03 1.598970443010330200e-01 -1.250858139246702194e-02
1.424290053546428680e-02 1.031411066651344299e-01 3.325666300952434540e-03
8.385912515223026276e-04 1.106106489896774292e-01 1.111622899770736694e-02
-4.582109861075878143e-03 1.768015623092651367e-01 -7.864795625209808350e-03
-2.967467531561851501e-03 1.064100563526153564e-01 6.213433109223842621e-03
2.135888487100601196e-02 1.816883683204650879e-01 2.281992929056286812e-04
1.891943439841270447e-02 1.604075729846954346e-01 -6.089377216994762421e-03
2.031786739826202393e-02 2.084378004074096680e-01 -2.231478691101074219e-03
1.176278572529554367e-02 1.618240177631378174e-01 -1.237086486071348190e-02
1.986825652420520782e-02 1.430789232254028320e-01 5.875584902241826057e-04
-6.594570353627204895e-03 1.530494093894958496e-01 6.298489868640899658e-03
7.088599726557731628e-03 2.221719026565551758e-01 -1.156344916671514511e-02
-1.941362395882606506e-03 9.716770052909851074e-02 3.219961654394865036e-03
1.783569902181625366e-02 1.959307491779327393e-01 9.887012653052806854e-03
-4.273276776075363159e-03 2.085524797439575195e-01 5.300434306263923645e-03
-2.852587029337882996e-03 2.221649140119552612e-01 4.217493813484907150e-03
2.259949687868356705e-03 2.170449346303939819e-01 1.115088257938623428e-02
1.179142948240041733e-02 1.903408467769622803e-01 -1.273980643600225449e-02
1.501582562923431396e-03 8.794850111007690430e-02 3.056506393477320671e-03
1.039201766252517700e-02 1.939788162708282471e-01 -1.307845674455165863e-02
-5.471761338412761688e-03 2.039442956447601318e-01 2.868124283850193024e-03
1.281353645026683807e-02 1.813012361526489258e-01 -1.238738279789686203e-02
-6.032147444784641266e-03 1.822569519281387329e-01 6.237044930458068848e-03
-5.665194243192672729e-03 1.616679280996322632e-01 -6.337961181998252869e-03
2.040973678231239319e-02 1.563068181276321411e-01 4.590557888150215149e-03
1.705209910869598389e-02 2.392439395189285278e-01 5.314640584401786327e-04
1.862045750021934509e-02 1.376021802425384521e-01 -2.952629467472434044e-03
2.033873833715915680e-02 1.532244384288787842e-01 4.177407361567020416e-03
7.813186384737491608e-03 2.487521022558212280e-01 5.957113578915596008e-03
2.592248842120170593e-03 1.798792034387588501e-01 -1.302051916718482971e-02
-2.683931030333042145e-03 1.787209063768386841e-01 1.142970751971006393e-02
-6.136353127658367157e-03 1.469624787569046021e-01 7.134529761970043182e-03
1.890641823410987854e-02 2.204091250896453857e-01 4.658323712646961212e-03
1.624031737446784973e-02 2.102293074131011963e-01 1.019144151359796524e-02
2.017095685005187988e-02 1.532529741525650024e-01 -1.977035310119390488e-03
-2.737031318247318268e-04 1.599991023540496826e-01 1.376045588403940201e-02
-6.802409887313842773e-03 1.887399703264236450e-01 -2.155452966690063477e-04
-3.925850614905357361e-05 1.233359277248382568e-01 -8.879936300218105316e-03
-1.306548714637756348e-03 1.840993911027908325e-01 -1.094373967498540878e-02
-5.464171059429645538e-03 1.307113468647003174e-01 6.961681880056858063e-03
3.520195605233311653e-03 1.447221785783767700e-01 -1.223650947213172913e-02
5.764572881162166595e-03 2.400886863470077515e-01 -8.473078720271587372e-03
1.515649165958166122e-02 2.061542272567749023e-01 1.147256512194871902e-02
8.315254934132099152e-03 1.152810752391815186e-01 1.276915706694126129e-02
-2.929680980741977692e-03 1.308602541685104370e-01 -7.633604109287261963e-03
1.602506078779697418e-02 1.747849583625793457e-01 1.241497974842786789e-02
-6.029374897480010986e-03 1.317449510097503662e-01 -2.773887477815151215e-03
9.567746892571449280e-04 1.177220940589904785e-01 1.217913534492254257e-02
-3.613281995058059692e-03 2.187656909227371216e-01 -3.319522598758339882e-03
2.104846574366092682e-02 1.664603948593139648e-01 -4.914554301649332047e-04
1.437065377831459045e-02 1.297826170921325684e-01 1.142598967999219894e-02
7.727309130132198334e-04 2.121751010417938232e-01 1.094636227935552597e-02
-4.324331879615783691e-03 1.546437144279479980e-01 1.027744822204113007e-02
1.128155272454023361e-03 1.081249862909317017e-01 -6.931842304766178131e-03
-7.177455350756645203e-03 1.807162165641784668e-01 1.533451373688876629e-03
1.091617066413164139e-02 9.228051453828811646e-02 1.162271248176693916e-03
2.379344310611486435e-03 1.695919483900070190e-01 1.485908217728137970e-02
1.037744339555501938e-02 9.810534864664077759e-02 -3.594130510464310646e-03
9.976779110729694366e-04 2.259586453437805176e-01 -8.679335005581378937e-03
1.178372092545032501e-02 1.737295538187026978e-01 1.479438133537769318e-02
-6.462992168962955475e-03 1.406027078628540039e-01 5.782997235655784607e-03
2.006703615188598633e-02 1.707722395658493042e-01 7.042051292955875397e-03
-6.510092876851558685e-03 1.360481381416320801e-01 4.940102808177471161e-03
8.715836331248283386e-03 1.783840209245681763e-01 1.538034249097108841e-02
1.812953688204288483e-02 1.946810036897659302e-01 -8.068099617958068848e-03
8.925687521696090698e-03 2.040139138698577881e-01 1.392486318945884705e-02
-1.951669342815876007e-03 2.229956686496734619e-01 -5.820443853735923767e-03
1.125994883477687836e-02 2.155916094779968262e-01 -1.167658995836973190e-02
1.903585717082023621e-02 1.564168483018875122e-01 8.305496536195278168e-03
1.167613267898559570e-02 2.384807765483856201e-01 -8.436328731477260590e-03
1.374578289687633514e-02 2.173031121492385864e-01 1.111026201397180557e-02
1.528320368379354477e-02 1.579180657863616943e-01 1.279746461659669876e-02
-3.001186996698379517e-06 1.766837388277053833e-01 1.354711409658193588e-02
2.116515859961509705e-02 1.959400027990341187e-01 1.235118368640542030e-03
5.032728891819715500e-03 1.754409074783325195e-01 1.537555083632469177e-02
2.001141756772994995e-02 2.085222303867340088e-01 4.535317420959472656e-03
9.898848831653594971e-03 1.620699167251586914e-01 1.537297386676073074e-02
-7.224264554679393768e-03 1.423515975475311279e-01 1.198021345771849155e-04
-1.904468052089214325e-03 1.875085681676864624e-01 1.154958270490169525e-02
1.989600062370300293e-02 1.457548290491104126e-01 4.066371358931064606e-03
-2.428445033729076385e-03 1.533488333225250244e-01 1.221183408051729202e-02
1.832980103790760040e-02 1.305498778820037842e-01 -1.402532448992133141e-03
1.370357163250446320e-02 1.924711018800735474e-01 -1.184631790965795517e-02
1.306608971208333969e-02 2.411553412675857544e-01 6.910634227097034454e-03
-6.323293782770633698e-04 1.170397996902465820e-01 -7.559855468571186066e-03
-4.046714864671230316e-03 2.183599323034286499e-01 1.572556793689727783e-03
-3.080948255956172943e-03 1.348463594913482666e-01 1.085376739501953125e-02
2.017495036125183105e-02 1.467856913805007935e-01 1.111922902055084705e-03
-3.335052169859409332e-03 2.046448886394500732e-01 -7.309250533580780029e-03
1.311888173222541809e-02 1.074098572134971619e-01 8.300842717289924622e-03
1.752468943595886230e-02 1.729598045349121094e-01 -8.756542578339576721e-03
1.153735537081956863e-02 1.789404004812240601e-01 1.477069687098264694e-02
-3.405320458114147186e-04 9.229016304016113281e-02 6.469746585935354233e-04
-3.425977192819118500e-03 1.699049770832061768e-01 -9.344834834337234497e-03
1.317243650555610657e-02 2.116137444972991943e-01 -1.122217439115047455e-02
1.708406582474708557e-02 1.564743220806121826e-01 -8.292302489280700684e-03
4.715537652373313904e-03 2.395443320274353027e-01 7.889727130532264709e-03
1.598783396184444427e-02 1.410867273807525635e-01 1.112911757081747055e-02
7.894039154052734375e-04 1.432156562805175781e-01 1.402693707495927811e-02
-5.452370271086692810e-03 1.365714222192764282e-01 -4.925878718495368958e-03
-1.059517264366149902e-03 2.238875925540924072e-01 6.980791687965393066e-03
1.599225029349327087e-02 2.166757285594940186e-01 -8.830611594021320343e-03
-3.907377831637859344e-03 1.632590740919113159e-01 1.073798071593046188e-02
2.121144905686378479e-03 1.482781469821929932e-01 1.472358405590057373e-02
-1.379601657390594482e-03 1.431140154600143433e-01 -1.007000822573900223e-02
-5.919089540839195251e-03 1.831577122211456299e-01 -5.157741717994213104e-03
1.452090963721275330e-02 1.129308789968490601e-01 -3.883275901898741722e-03
1.106238551437854767e-02 1.583454012870788574e-01 -1.246885489672422409e-02
7.610502652823925018e-04 1.546078026294708252e-01 1.428347360342741013e-02
-7.110347039997577667e-03 1.610077917575836182e-01 -2.834550337865948677e-03
1.992079056799411774e-02 1.830453127622604370e-01 -5.389240570366382599e-03
4.774420987814664841e-03 2.535056471824645996e-01 1.047013676725327969e-03
-6.572411395609378815e-03 1.806963831186294556e-01 -3.626545192673802376e-03
-5.764627829194068909e-03 1.431082487106323242e-01 -5.101785995066165924e-03
4.567139316350221634e-03 1.662886440753936768e-01 -1.337838359177112579e-02
1.309683080762624741e-02 2.036900520324707031e-01 -1.175071485340595245e-02
9.111748076975345612e-03 9.516817331314086914e-02 -3.420521272346377373e-03
-5.510801449418067932e-03 1.500380635261535645e-01 8.470769040286540985e-03
1.083036884665489197e-02 1.712206304073333740e-01 -1.300764176994562149e-02
1.168245915323495865e-03 2.255991995334625244e-01 8.920658379793167114e-03
1.254105754196643829e-02 1.598068922758102417e-01 1.447781361639499664e-02
7.814970798790454865e-03 1.836935579776763916e-01 1.525792106986045837e-02
9.723914787173271179e-03 1.065400019288063049e-01 1.080759242177009583e-02
9.318687021732330322e-03 1.488213837146759033e-01 -1.241351384669542313e-02
1.501151267439126968e-02 2.474649399518966675e-01 7.620200049132108688e-04
2.123627439141273499e-02 1.730084866285324097e-01 -2.763627562671899796e-04
-1.007750630378723145e-03 1.037540808320045471e-01 8.284947834908962250e-03
1.907919719815254211e-02 2.154687643051147461e-01 5.497654899954795837e-03
1.273259334266185760e-02 1.819212883710861206e-01 1.424319762736558914e-02
-6.753863766789436340e-03 1.456235945224761963e-01 -2.959105418995022774e-03
-7.367422804236412048e-03 1.623409688472747803e-01 3.581766737625002861e-03
2.021861821413040161e-02 1.498649418354034424e-01 3.750396659597754478e-03
1.930193603038787842e-02 1.416457146406173706e-01 5.344589240849018097e-03
1.771791651844978333e-02 1.222442463040351868e-01 2.135641872882843018e-03
1.765082404017448425e-02 1.587357521057128906e-01 1.052678469568490982e-02
1.900710910558700562e-02 2.218748927116394043e-01 -3.211619565263390541e-03
1.485972758382558823e-02 1.058983951807022095e-01 1.041937968693673611e-03
1.264912821352481842e-02 1.106446832418441772e-01 9.673040360212326050e-03
-1.304203644394874573e-03 1.624788343906402588e-01 -1.103165838867425919e-02
2.908789087086915970e-03 1.361732482910156250e-01 1.447813026607036591e-02
-5.571661517024040222e-03 1.930829286575317383e-01 -4.768942482769489288e-03
1.068590674549341202e-03 2.291945666074752808e-01 -8.103310130536556244e-03
8.751330897212028503e-03 1.712420880794525146e-01 1.552965119481086731e-02
4.691550042480230331e-03 1.417045891284942627e-01 -1.219781860709190369e-02
-4.041567444801330566e-05 1.329585611820220947e-01 -1.000417117029428482e-02
1.732618361711502075e-02 2.287994921207427979e-01 5.601080134510993958e-03
-2.885878086090087891e-03 2.188804745674133301e-01 5.346083082258701324e-03
1.296116225421428680e-02 1.191624626517295837e-01 1.107234321534633636e-02
1.649862527847290039e-02 1.537037044763565063e-01 1.154884509742259979e-02
6.981966551393270493e-03 2.357919663190841675e-01 -9.603569284081459045e-03
1.397832483053207397e-02 2.490023523569107056e-01 -2.859503729268908501e-03
1.933800987899303436e-02 1.992863714694976807e-01 7.447197102010250092e-03
1.142619922757148743e-02 2.065587192773818970e-01 -1.226281374692916870e-02
2.328888513147830963e-04 9.928139299154281616e-02 8.223436772823333740e-03
1.184876076877117157e-03 2.200415730476379395e-01 -9.773612022399902344e-03
5.788646638393402100e-03 2.500346004962921143e-01 -5.381140857934951782e-03
3.265513107180595398e-03 2.510218918323516846e-01 -3.709024749696254730e-04
-5.030736327171325684e-03 1.865360289812088013e-01 7.790825329720973969e-03
-2.490049228072166443e-03 1.504135429859161377e-01 -9.692816995084285736e-03
4.395250696688890457e-03 1.490153223276138306e-01 -1.265461649745702744e-02
-5.458136089146137238e-03 1.743359565734863281e-01 -6.596308201551437378e-03
-3.021746873855590820e-03 1.354223936796188354e-01 -8.057642728090286255e-03
-1.812427304685115814e-03 2.034838199615478516e-01 9.964283555746078491e-03
1.141238212585449219e-02 1.374772787094116211e-01 1.399922091513872147e-02
-4.140584729611873627e-03 2.057025134563446045e-01 6.307808682322502136e-03
1.919094473123550415e-02 2.244381755590438843e-01 -1.071577658876776695e-03
-4.960871301591396332e-03 1.361716687679290771e-01 8.543352596461772919e-03
6.325047928839921951e-03 2.541114687919616699e-01 -3.358151065185666084e-03
1.231857016682624817e-02 1.050499826669692993e-01 -4.167991690337657928e-03
1.919562183320522308e-02 2.232773303985595703e-01 2.500298433005809784e-03
2.099571283906698227e-03 8.933771401643753052e-02 -1.055860193446278572e-03
1.774721965193748474e-02 1.909125298261642456e-01 1.029951591044664383e-02
1.374707277864217758e-02 1.750096976757049561e-01 -1.184417400509119034e-02
-6.899669766426086426e-03 1.450762897729873657e-01 4.845292307436466217e-03
4.721397534012794495e-03 2.008725702762603760e-01 1.390018593519926071e-02
-1.816987991333007812e-03 1.696990728378295898e-01 1.256341207772493362e-02
-5.725027993321418762e-03 1.217686086893081665e-01 -5.965617019683122635e-04
1.548024918884038925e-02 2.068625390529632568e-01 -1.009742636233568192e-02
1.851218938827514648e-02 1.453918516635894775e-01 -4.889493808150291443e-03
-5.290297791361808777e-03 2.080138325691223145e-01 -8.152599912136793137e-04
-3.358507528901100159e-04 1.813033223152160645e-01 -1.166655682027339935e-02
-2.399166114628314972e-04 2.319651693105697632e-01 -5.909121595323085785e-03
-2.451013773679733276e-03 1.392779350280761719e-01 -8.947160094976425171e-03
1.658852957189083099e-02 1.368753015995025635e-01 9.960632771253585815e-03
2.114943414926528931e-02 1.785451173782348633e-01 3.641654970124363899e-03
-1.777007244527339935e-03 1.814902126789093018e-01 1.207197271287441254e-02
3.909697756171226501e-03 1.028881296515464783e-01 -6.698618642985820770e-03
1.743143796920776367e-02 2.072902321815490723e-01 9.319277480244636536e-03
1.768244057893753052e-02 2.106505781412124634e-01 -7.599661126732826233e-03
-4.721558652818202972e-03 1.575378626585006714e-01 9.776596911251544952e-03
-5.163042806088924408e-04 1.111753731966018677e-01 -6.549853831529617310e-03
1.979874074459075928e-02 2.026560008525848389e-01 6.119645200669765472e-03
-3.877422772347927094e-03 1.510773152112960815e-01 1.075298432260751724e-02
-5.040168762207031250e-04 1.784095764160156250e-01 -1.161336805671453476e-02
1.875939592719078064e-02 1.338365972042083740e-01 -1.137414481490850449e-03
-7.986230775713920593e-05 1.723053008317947388e-01 -1.189630199223756790e-02
3.050469560548663139e-03 1.242140457034111023e-01 1.364215090870857239e-02
1.045943237841129303e-02 2.002716809511184692e-01 -1.284641306847333908e-02
-2.284462563693523407e-03 2.301259189844131470e-01 -1.145027577877044678e-03
1.427784934639930725e-02 2.440125644207000732e-01 4.826526157557964325e-03
9.434760548174381256e-03 1.207354515790939331e-01 -9.416764602065086365e-03
-6.626420654356479645e-03 1.908089369535446167e-01 1.942741568200290203e-03
2.685924991965293884e-04 9.594149142503738403e-02 -2.802364528179168701e-03
1.491704676300287247e-02 1.119778528809547424e-01 7.043656893074512482e-03
8.929381147027015686e-04 2.435449659824371338e-01 -2.193556865677237511e-03
1.759367622435092926e-02 2.257196754217147827e-01 5.976583808660507202e-03
8.135465905070304871e-03 2.067510932683944702e-01 -1.286167185753583908e-02
1.963858678936958313e-02 1.660518646240234375e-01 7.776148617267608643e-03
-5.617849528789520264e-03 1.187963485717773438e-01 1.154554658569395542e-03
-5.101608112454414368e-04 1.653028726577758789e-01 1.356934849172830582e-02
1.624754816293716431e-02 2.357450723648071289e-01 5.206833593547344208e-03
1.768584363162517548e-03 2.364343106746673584e-01 6.691131740808486938e-03
1.723031885921955109e-02 2.211959958076477051e-01 -6.865275092422962189e-03
1.500697061419487000e-02 1.244639158248901367e-01 -6.222128868103027344e-03
-3.363695926964282990e-03 1.987879723310470581e-01 -7.993475534021854401e-03
9.093824774026870728e-03 8.972718566656112671e-02 -2.908045426011085510e-04
1.280091237276792526e-03 2.081809043884277344e-01 -1.117568928748369217e-02
6.999049801379442215e-03 9.921450167894363403e-02 -5.692333914339542389e-03
2.000744082033634186e-02 2.156986296176910400e-01 2.045894507318735123e-03
-7.405443117022514343e-03 1.728223115205764771e-01 -4.715026589110493660e-04
6.458599120378494263e-03 1.515685766935348511e-01 -1.292668189853429794e-02
-5.740167573094367981e-03 1.969191730022430420e-01 4.308328032493591309e-03
1.009993441402912140e-02 2.234662771224975586e-01 -1.120531465858221054e-02
9.172959253191947937e-04 1.868333518505096436e-01 -1.221420429646968842e-02
1.967131718993186951e-02 1.402025222778320312e-01 1.972950063645839691e-03
-3.981581889092922211e-03 1.120720654726028442e-01 -2.343147760257124901e-03
1.123174838721752167e-02 1.671245992183685303e-01 1.503089070320129395e-02
1.377922203391790390e-02 1.352147012948989868e-01 -9.098829701542854309e-03
3.822139464318752289e-03 1.232341155409812927e-01 -1.022754609584808350e-02
-6.104128435254096985e-03 1.248320937156677246e-01 3.199114929884672165e-03
-1.980842091143131256e-03 2.266858369112014771e-01 4.475004971027374268e-03
1.263979449868202209e-02 1.682241559028625488e-01 -1.223596651107072830e-02
-6.163490936160087585e-03 1.736866533756256104e-01 6.782955490052700043e-03
6.689180620014667511e-03 2.189928293228149414e-01 -1.186961494386196136e-02
4.393785260617733002e-03 2.300474941730499268e-01 9.936016984283924103e-03
2.040870860219001770e-02 1.780953407287597656e-01 -4.161052405834197998e-03
1.803910359740257263e-02 2.335894256830215454e-01 7.630810141563415527e-04
1.966867968440055847e-02 2.204097509384155273e-01 -3.551043337211012840e-04
1.455721445381641388e-02 1.607754081487655640e-01 -1.082321908324956894e-02
8.321180939674377441e-03 2.105360478162765503e-01 -1.260340120643377304e-02
1.314719207584857941e-02 1.416621804237365723e-01 -1.025892142206430435e-02
1.053234189748764038e-02 1.220286339521408081e-01 1.291174814105033875e-02
9.538028389215469360e-03 2.275841385126113892e-01 1.102392002940177917e-02
-1.431625336408615112e-03 1.380553543567657471e-01 1.248572207987308502e-02
5.675858352333307266e-03 2.433376014232635498e-01 7.214423269033432007e-03
-2.217700704932212830e-03 1.172657310962677002e-01 9.787756949663162231e-03
7.993278093636035919e-03 9.410049766302108765e-02 8.229789324104785919e-03
1.833356171846389771e-02 1.448515355587005615e-01 8.342171087861061096e-03
2.081403881311416626e-02 1.982146948575973511e-01 3.573378315195441246e-03
4.104991909116506577e-03 2.469249963760375977e-01 -5.551641806960105896e-03
1.619368419051170349e-02 1.428541392087936401e-01 -7.870313711464405060e-03
2.057145163416862488e-02 1.683588176965713501e-01 5.547247827053070068e-03
-4.508707672357559204e-03 2.130360603332519531e-01 -2.546343719586730003e-03
4.293092526495456696e-03 1.743087321519851685e-01 -1.344918552786111832e-02
-6.266981363296508789e-03 1.609037220478057861e-01 7.126000709831714630e-03
4.692238755524158478e-03 2.426461577415466309e-01 -7.391148246824741364e-03
1.937683671712875366e-02 1.411658376455307007e-01 -1.545910257846117020e-03
-3.069111146032810211e-03 2.095986008644104004e-01 -6.934281438589096069e-03
-1.309484243392944336e-03 2.206632196903228760e-01 7.455389015376567841e-03
2.098530158400535583e-02 2.004024386405944824e-01 1.653987215831875801e-03
2.657780423760414124e-04 2.386027574539184570e-01 -4.114261828362941742e-03
1.294810976833105087e-02 2.434514462947845459e-01 -6.491194479167461395e-03
2.070427872240543365e-02 1.918270587921142578e-01 4.880127962678670883e-03
3.881065174937248230e-03 2.498769760131835938e-01 3.096320433542132378e-03
1.866880804300308228e-02 2.292024195194244385e-01 9.130308753810822964e-04
1.883427426218986511e-02 1.627213358879089355e-01 9.061474353075027466e-03
-7.084550336003303528e-03 1.781986057758331299e-01 -1.824015052989125252e-03
1.512838434427976608e-02 1.195075809955596924e-01 8.866224437952041626e-03
3.462685970589518547e-03 2.327846288681030273e-01 8.917428553104400635e-03
1.741762273013591766e-03 1.404102593660354614e-01 1.431183889508247375e-02
1.169389393180608749e-02 1.771393120288848877e-01 -1.281726453453302383e-02
-6.579264067113399506e-03 1.791277974843978882e-01 5.127647891640663147e-03
1.448380202054977417e-02 1.979908049106597900e-01 -1.123437564820051193e-02
1.384064182639122009e-02 1.158860772848129272e-01 9.641895070672035217e-03
-7.165431976318359375e-03 1.567913144826889038e-01 4.561503417789936066e-03
1.039363443851470947e-02 2.369557023048400879e-01 9.103651158511638641e-03
1.356344111263751984e-02 1.865600347518920898e-01 -1.200793217867612839e-02
4.645148292183876038e-03 2.105302363634109497e-01 1.293130405247211456e-02
6.427982822060585022e-03 1.613709628582000732e-01 1.568735763430595398e-02
1.302788034081459045e-02 2.215996831655502319e-01 -1.038033235818147659e-02
-2.921968698501586914e-03 2.111049741506576538e-01 7.296839728951454163e-03
1.889969222247600555e-02 2.126146256923675537e-01 -5.458965897560119629e-03
2.122908830642700195e-02 1.921027004718780518e-01 -2.234694547951221466e-04
8.698465302586555481e-03 1.136102452874183655e-01 -8.473980240523815155e-03
1.486541889607906342e-02 1.966282278299331665e-01 1.242737844586372375e-02
1.171388290822505951e-02 1.144168078899383545e-01 1.117344666272401810e-02
-4.174961708486080170e-03 1.418853104114532471e-01 -7.412288337945938110e-03
1.490318216383457184e-03 2.094605565071105957e-01 1.175825390964746475e-02
1.060038059949874878e-02 1.920281350612640381e-01 1.449608895927667618e-02
-7.027410902082920074e-04 1.012029498815536499e-01 -3.787220688536763191e-03
-5.342789925634860992e-03 1.575709879398345947e-01 -6.764143705368041992e-03
5.001803394407033920e-03 2.136191129684448242e-01 1.266271527856588364e-02
9.946310892701148987e-04 2.142525613307952881e-01 -1.038702484220266342e-02
2.053134888410568237e-02 1.861923635005950928e-01 -3.902683733031153679e-03
1.505523733794689178e-02 2.413487136363983154e-01 -4.981745034456253052e-03
1.775492355227470398e-02 1.712179929018020630e-01 1.074252091348171234e-02
-4.412337206304073334e-03 1.711459308862686157e-01 9.886422194540500641e-03
1.098056510090827942e-02 2.532064318656921387e-01 -3.866014769300818443e-03
1.604839786887168884e-02 1.794504970312118530e-01 -1.033147051930427551e-02
2.299495041370391846e-03 2.374047189950942993e-01 -7.207307033240795135e-03
1.468676701188087463e-02 1.088511198759078979e-01 -1.937554683536291122e-03
5.801540799438953400e-03 1.781633347272872925e-01 -1.364992372691631317e-02
-9.978720918297767639e-04 1.679288595914840698e-01 -1.132246945053339005e-02
-1.293922774493694305e-03 2.175048142671585083e-01 8.175885304808616638e-03
1.424538809806108475e-02 1.470088362693786621e-01 1.305613759905099869e-02
9.024157188832759857e-04 2.218765318393707275e-01 9.451119229197502136e-03
1.530189812183380127e-02 1.608711630105972290e-01 1.286833360791206360e-02
6.806435529142618179e-03 2.329364418983459473e-01 1.003693137317895889e-02
-3.168795257806777954e-03 2.154712826013565063e-01 -5.545135587453842163e-03
5.366373807191848755e-05 1.956259012222290039e-01 1.235756557434797287e-02
-9.131464175879955292e-04 1.276888549327850342e-01 -8.900921791791915894e-03
1.200093328952789307e-02 1.330897808074951172e-01 -9.968347847461700439e-03
1.675813086330890656e-02 1.178111955523490906e-01 -6.998279131948947906e-04
6.251783575862646103e-03 1.921051740646362305e-01 -1.349010504782199860e-02
1.225429028272628784e-02 9.566614776849746704e-02 2.248041098937392235e-03
1.285616122186183929e-02 1.173475682735443115e-01 -6.893559359014034271e-03
7.479560561478137970e-03 2.567364573478698730e-01 -2.105182502418756485e-04
1.138363312929868698e-02 1.129855662584304810e-01 -7.075686007738113403e-03
5.089929793030023575e-03 1.630434244871139526e-01 -1.335727237164974213e-02
9.595936164259910583e-03 2.340005934238433838e-01 -9.856361895799636841e-03
2.388616558164358139e-03 2.408628761768341064e-01 -6.237501278519630432e-03
2.162756398320198059e-03 2.170246988534927368e-01 -1.074897591024637222e-02
-7.555228658020496368e-03 1.531221568584442139e-01 1.029037986882030964e-03
1.467531546950340271e-04 1.726328730583190918e-01 1.377948466688394547e-02
1.296156924217939377e-02 9.850467741489410400e-02 3.842441132292151451e-03
1.971425116062164307e-02 2.033955603837966919e-01 -4.901091568171977997e-03
1.489542238414287567e-02 1.327811926603317261e-01 -7.812359370291233063e-03
8.982693776488304138e-03 1.283753812313079834e-01 -1.059431023895740509e-02
5.229521077126264572e-03 1.378127932548522949e-01 -1.192646473646163940e-02
-6.731323897838592529e-03 1.318664252758026123e-01 1.800413709133863449e-03
1.634009182453155518e-02 2.034350037574768066e-01 -9.584475308656692505e-03
7.045050617307424545e-03 2.030002623796463013e-01 -1.308877114206552505e-02
1.922798343002796173e-03 1.808682680130004883e-01 1.431505475193262100e-02
8.863716386258602142e-03 9.143196791410446167e-02 6.485987454652786255e-03
1.649129949510097504e-02 1.473920643329620361e-01 1.114395726472139359e-02
4.895934835076332092e-03 1.015467122197151184e-01 1.072862185537815094e-02
-5.847651511430740356e-03 1.995691061019897461e-01 2.936694305390119553e-03
-4.241697490215301514e-03 2.015539705753326416e-01 6.964177824556827545e-03
