2.801879346370697021e-01 -6.865763664245605469e-02 1.089754551649093628e-01
1.185605078935623169e-01 -1.227385252714157104e-01 1.089561283588409424e-01
2.056393325328826904e-01 -1.113804429769515991e-01 1.127251535654067993e-01
1.852231174707412720e-01 -1.395948976278305054e-01 -5.391043797135353088e-02
4.299919307231903076e-02 -1.171727254986763000e-01 -8.486730605363845825e-02
3.550204038619995117e-01 -9.605248272418975830e-02 -8.790957182645797729e-02
3.434903025627136230e-01 -1.066242083907127380e-01 4.170293360948562622e-02
2.633143365383148193e-01 -7.254687696695327759e-02 1.150795072317123413e-01
-4.115645587444305420e-02 -1.075931042432785034e-01 -2.953438088297843933e-02
3.091071248054504395e-01 -3.583052754402160645e-02 -1.285197436809539795e-01
5.301412194967269897e-02 -1.183755844831466675e-01 1.059194207191467285e-01
6.862621009349822998e-02 -9.304289519786834717e-02 -1.199967861175537109e-01
1.829882860183715820e-01 -2.274750173091888428e-02 8.268046379089355469e-02
3.020566105842590332e-01 -5.401912704110145569e-02 9.530565142631530762e-02
-2.836987376213073730e-03 -1.322590261697769165e-01 2.978231757879257202e-02
1.082793995738029480e-01 -1.832257211208343506e-02 -8.495613187551498413e-02
2.010995745658874512e-01 -1.756154000759124756e-03 9.042316116392612457e-03
1.793604493141174316e-01 -3.060785308480262756e-02 -1.308881044387817383e-01
3.919929862022399902e-01 -3.770749643445014954e-02 1.105174142867326736e-02
1.572743356227874756e-01 -1.426686048507690430e-01 5.440715700387954712e-02
1.870992183685302734e-01 -9.003028273582458496e-03 4.538014531135559082e-02
1.616878956556320190e-01 -1.455282419919967651e-01 -2.300561964511871338e-02
2.313064783811569214e-01 -1.396060883998870850e-01 2.726225554943084717e-02
2.203223258256912231e-01 -2.340349555015563965e-02 8.182308077812194824e-02
2.704553902149200439e-01 -1.085765436291694641e-01 -1.127837300300598145e-01
1.446692496538162231e-01 -5.669839680194854736e-03 1.660084351897239685e-02
7.277587801218032837e-02 -1.449200510978698730e-01 -2.590966410934925079e-03
-6.660997867584228516e-03 -1.162547096610069275e-01 8.110717684030532837e-02
3.611994385719299316e-01 -2.213709428906440735e-02 -7.760473340749740601e-02
-1.110151410102844238e-02 -9.115931391716003418e-02 9.664237499237060547e-02
-1.347418129444122314e-02 -4.062723740935325623e-02 -1.305173151195049286e-02
3.627721071243286133e-01 -1.083840876817703247e-01 -2.184511162340641022e-02
2.691261172294616699e-01 -1.930966973304748535e-03 -5.200487002730369568e-02
3.168668448925018311e-01 -1.207686215639114380e-02 -8.120334148406982422e-02
2.288613170385360718e-01 -1.413886845111846924e-01 -5.646795034408569336e-03
1.427730619907379150e-01 -1.288743168115615845e-01 -8.967579901218414307e-02
-2.636775374412536621e-03 -5.136860162019729614e-02 7.068093121051788330e-02
1.827391982078552246e-02 -4.043368250131607056e-02 6.466014683246612549e-02
1.304176449775695801e-02 -4.867237061262130737e-02 7.832663506269454956e-02
2.660356462001800537e-01 -1.395630463957786560e-02 -1.046565473079681396e-01
3.149489760398864746e-01 -9.389102458953857422e-02 -1.169215738773345947e-01
7.648250460624694824e-02 -1.452164351940155029e-01 2.766381204128265381e-02
1.460282355546951294e-01 -1.409932076930999756e-01 6.416120380163192749e-02
1.179445981979370117e-01 -1.128094196319580078e-01 -1.146509125828742981e-01
1.041553243994712830e-01 -1.416912227869033813e-01 6.218290328979492188e-02
1.062585785984992981e-01 -1.445888876914978027e-01 -2.755367755889892578e-02
2.050694227218627930e-01 -5.110251158475875854e-02 1.186076402664184570e-01
-1.960356533527374268e-02 -1.036293655633926392e-01 8.575614541769027710e-02
1.427061855792999268e-01 -4.897770285606384277e-02 -1.402714997529983521e-01
3.373233675956726074e-01 -4.321283847093582153e-02 6.935565918684005737e-02
7.219117879867553711e-02 -1.453361511230468750e-01 1.403430756181478500e-02
-3.224767744541168213e-02 -1.071047633886337280e-01 -4.310233518481254578e-02
3.155834972858428955e-01 -1.141730770468711853e-01 -7.734671235084533691e-02
2.974305152893066406e-01 -4.642503336071968079e-02 -1.387772858142852783e-01
-3.247004747390747070e-02 -1.208657398819923401e-01 -1.776351127773523331e-03
4.383157193660736084e-02 -1.315128207206726074e-01 -5.408315360546112061e-02
1.324884146451950073e-01 -1.823779568076133728e-02 6.566970795392990112e-02
3.788164854049682617e-01 -6.052851304411888123e-02 -1.032205522060394287e-01
2.393655776977539062e-01 -4.118622466921806335e-02 -1.438514292240142822e-01
1.531310230493545532e-01 -2.433723211288452148e-02 -1.163558661937713623e-01
9.977083653211593628e-02 -1.146507561206817627e-01 1.180181652307510376e-01
1.630085110664367676e-01 -1.260730996727943420e-02 5.504995584487915039e-02
1.335133314132690430e-01 -1.455345153808593750e-01 4.170956835150718689e-02
2.307815998792648315e-01 -1.267507672309875488e-01 7.964904606342315674e-02
4.161136448383331299e-01 -5.392370373010635376e-02 -2.756417170166969299e-02
-4.701897501945495605e-03 -7.560034841299057007e-02 9.706590324640274048e-02
3.219290375709533691e-01 -2.267532795667648315e-02 4.690981656312942505e-02
5.551582574844360352e-02 -8.629442751407623291e-02 1.243527829647064209e-01
4.985171556472778320e-02 -1.955419778823852539e-02 -2.225942537188529968e-02
6.947031617164611816e-02 -5.604370683431625366e-02 -1.209822744131088257e-01
1.067858561873435974e-01 -1.344938576221466064e-01 -7.003942131996154785e-02
1.831551790237426758e-01 -1.143360584974288940e-01 1.141469851136207581e-01
2.987625896930694580e-01 -1.251861155033111572e-01 -5.012688785791397095e-02
1.139446943998336792e-01 -6.886689364910125732e-02 -1.397346705198287964e-01
3.745831847190856934e-01 -8.075690269470214844e-02 -9.393551945686340332e-02
-5.657692253589630127e-02 -7.230114191770553589e-02 2.926852554082870483e-02
2.460052371025085449e-01 -7.629986107349395752e-02 1.202236711978912354e-01
3.300093412399291992e-01 -1.093119755387306213e-01 5.030213296413421631e-02
2.438441365957260132e-01 -1.367780417203903198e-01 -3.901350125670433044e-02
1.239425539970397949e-01 -1.154818013310432434e-02 3.869665041565895081e-02
1.470959037542343140e-01 -1.081788465380668640e-01 -1.245020627975463867e-01
7.504734992980957031e-01 6.379574537277221680e-02 7.415464147925376892e-03
8.563452363014221191e-01 -5.175471305847167969e-04 8.016672730445861816e-02
7.796460986137390137e-01 -1.438497006893157959e-01 2.867362089455127716e-02
7.777338027954101562e-01 -4.618519917130470276e-03 -3.920133039355278015e-02
9.527283310890197754e-01 2.891293913125991821e-02 -1.458868943154811859e-02
9.514677524566650391e-01 4.149261116981506348e-02 2.861662209033966064e-02
9.161592125892639160e-01 -1.414543390274047852e-01 -2.472471445798873901e-02
9.335297346115112305e-01 -9.049969166517257690e-02 4.579443112015724182e-02
8.761652112007141113e-01 9.315118938684463501e-02 1.669556275010108948e-02
9.706247448921203613e-01 -9.706717729568481445e-02 -9.549790993332862854e-04
9.522876739501953125e-01 4.824288189411163330e-04 4.707422852516174316e-02
8.290197253227233887e-01 -1.648400425910949707e-01 1.047267019748687744e-02
9.324515461921691895e-01 -3.407218679785728455e-02 5.917305499315261841e-02
9.411935806274414062e-01 -4.204551875591278076e-02 5.414887890219688416e-02
9.428984522819519043e-01 -1.280013620853424072e-01 1.090318150818347931e-02
7.842286229133605957e-01 -1.538068652153015137e-01 2.456915564835071564e-03
7.511905431747436523e-01 3.031180053949356079e-02 6.766441464424133301e-02
8.855540752410888672e-01 -6.773070245981216431e-02 -5.563879013061523438e-02
8.383643627166748047e-01 -1.127189472317695618e-01 6.023968011140823364e-02
8.876840472221374512e-01 7.787676155567169189e-02 4.792926460504531860e-02
7.132949829101562500e-01 3.062366694211959839e-02 3.124853596091270447e-02
8.717725276947021484e-01 -1.114173009991645813e-01 5.717376247048377991e-02
8.034607768058776855e-01 -1.204982101917266846e-01 5.491737276315689087e-02
7.860215902328491211e-01 -6.641614437103271484e-02 -4.645394906401634216e-02
7.080544233322143555e-01 7.261335849761962891e-05 4.566996358335018158e-03
7.647547125816345215e-01 6.252274662256240845e-02 5.883730947971343994e-02
8.031052947044372559e-01 2.630173042416572571e-02 7.916165888309478760e-02
8.543578982353210449e-01 7.705258578062057495e-02 -1.381502114236354828e-02
8.563557267189025879e-01 -9.829306602478027344e-02 6.488206982612609863e-02
8.430833816528320312e-01 -8.397538959980010986e-02 7.087942957878112793e-02
8.174501657485961914e-01 -9.290128946304321289e-02 -5.051883310079574585e-02
8.900883793830871582e-01 -2.946158498525619507e-02 7.372000813484191895e-02
9.518213272094726562e-01 1.435609906911849976e-02 -2.417762577533721924e-02
7.254109978675842285e-01 -9.514361619949340820e-02 3.722802922129631042e-02
7.673829793930053711e-01 -5.948303267359733582e-03 7.717376947402954102e-02
7.382638454437255859e-01 -7.358293235301971436e-02 -2.563255652785301208e-02
9.759396314620971680e-01 -8.542148023843765259e-02 2.386594191193580627e-03
9.726540446281433105e-01 8.812274783849716187e-03 -5.174171179533004761e-03
8.593693375587463379e-01 -5.255782604217529297e-02 -5.667145550251007080e-02
7.431855201721191406e-01 3.293005377054214478e-02 -1.165719330310821533e-02
8.089213967323303223e-01 -1.253248564898967743e-02 -4.807456210255622864e-02
8.479447364807128906e-01 7.294006645679473877e-02 6.247660890221595764e-02
9.824622869491577148e-01 -4.377208277583122253e-02 -1.048288308084011078e-02
8.105061054229736328e-01 8.911973237991333008e-02 4.917248338460922241e-02
9.226319789886474609e-01 4.031911492347717285e-02 -2.521114423871040344e-02
7.688044905662536621e-01 -5.946511030197143555e-02 7.211069762706756592e-02
8.231850862503051758e-01 7.693671435117721558e-02 6.141031160950660706e-02
9.409301877021789551e-01 -1.091827452182769775e-02 -3.859400376677513123e-02
9.305890798568725586e-01 -5.674380809068679810e-02 -4.747803136706352234e-02
9.801970124244689941e-01 -7.387131452560424805e-02 -6.728814914822578430e-04
7.290968894958496094e-01 -1.113350763916969299e-01 4.746390506625175476e-03
8.935205340385437012e-01 6.498335301876068115e-02 -1.788884587585926056e-02
9.052536487579345703e-01 -1.044642254710197449e-01 5.176441743969917297e-02
7.151714563369750977e-01 -1.968033239245414734e-02 5.484924092888832092e-02
7.315374016761779785e-01 5.445369333028793335e-02 2.109764888882637024e-02
7.147114872932434082e-01 1.553346589207649231e-02 4.854994267225265503e-02
7.957918047904968262e-01 -1.020739525556564331e-01 -4.400213435292243958e-02
8.282607197761535645e-01 -9.275726974010467529e-02 6.859993934631347656e-02
7.434859275817871094e-01 -2.181564271450042725e-02 7.008580863475799561e-02
9.006238579750061035e-01 -1.547931432723999023e-01 1.013522874563932419e-02
9.355633854866027832e-01 5.675353109836578369e-02 3.285409137606620789e-02
7.656449675559997559e-01 -3.844539448618888855e-02 -3.989391401410102844e-02
7.718039751052856445e-01 3.290373086929321289e-02 -2.547163888812065125e-02
8.594840168952941895e-01 4.931379854679107666e-02 7.135131955146789551e-02
7.846606969833374023e-01 1.078746840357780457e-02 -3.737051784992218018e-02
7.240120768547058105e-01 -1.007378175854682922e-01 -4.452345892786979675e-04
8.858559727668762207e-01 -1.031851544976234436e-01 -5.110769718885421753e-02
8.768914937973022461e-01 -3.531100973486900330e-02 -5.527821928262710571e-02
9.237385988235473633e-01 -1.369563043117523193e-01 1.984335109591484070e-02
9.733119606971740723e-01 1.403976604342460632e-02 9.097541682422161102e-03
8.989940881729125977e-01 4.320085048675537109e-03 7.119120657444000244e-02
8.832157850265502930e-01 6.547684222459793091e-02 5.883166939020156860e-02
8.733670711517333984e-01 -1.022187843918800354e-01 -5.224389582872390747e-02
7.692013382911682129e-01 -3.001803718507289886e-02 7.674281299114227295e-02
8.885927200317382812e-01 8.967269957065582275e-02 1.861164905130863190e-02
7.390957474708557129e-01 -1.144534349441528320e-01 -8.505856618285179138e-03
9.199084043502807617e-01 -3.431822359561920166e-02 6.433087587356567383e-02
8.148902654647827148e-01 2.331596612930297852e-02 8.016990870237350464e-02
7.397260665893554688e-01 6.367018073797225952e-02 2.952358499169349670e-02
9.821103811264038086e-01 -4.127546027302742004e-02 1.665747910737991333e-02
9.053879976272583008e-01 8.559279143810272217e-03 -4.358555376529693604e-02
7.112926840782165527e-01 -3.426076844334602356e-03 5.024093762040138245e-02
7.573496699333190918e-01 -1.622897759079933167e-02 -3.422318398952484131e-02
9.047043919563293457e-01 3.200722485780715942e-02 6.472863256931304932e-02
8.370772004127502441e-01 9.029801189899444580e-02 8.446034044027328491e-04
8.397654294967651367e-01 -2.211105078458786011e-03 8.180002123117446899e-02
8.211311697959899902e-01 6.887016445398330688e-02 -1.830187439918518066e-02
8.761015534400939941e-01 -2.907884307205677032e-02 7.670456916093826294e-02
9.697018265724182129e-01 -9.526562690734863281e-02 -1.183346472680568695e-02
8.861250281333923340e-01 1.327518001198768616e-02 -4.501861706376075745e-02
8.721597194671630859e-01 -5.056886374950408936e-02 -5.646038055419921875e-02
8.157017827033996582e-01 -1.423506438732147217e-01 4.107922315597534180e-02
9.468169808387756348e-01 3.188965469598770142e-02 4.130560904741287231e-02
9.192871451377868652e-01 -1.325766593217849731e-01 -3.107755631208419800e-02
8.215981721878051758e-01 9.743658453226089478e-02 1.880400814116001129e-02
8.593523502349853516e-01 -7.513236999511718750e-02 -5.618464946746826172e-02
9.167860746383666992e-01 1.041089370846748352e-02 6.444995105266571045e-02
9.592458605766296387e-01 -7.972025871276855469e-02 -3.196563199162483215e-02
8.989384174346923828e-01 8.479573577642440796e-02 2.765777334570884705e-02
7.135252952575683594e-01 -7.124643027782440186e-02 4.050670564174652100e-02
8.435026407241821289e-01 -1.307594031095504761e-02 8.162988722324371338e-02
7.380717992782592773e-01 -3.913056477904319763e-02 6.629793345928192139e-02
8.155255317687988281e-01 -1.532050669193267822e-01 -2.297599241137504578e-02
7.240560650825500488e-01 -1.051969677209854126e-01 2.161886170506477356e-02
8.674076199531555176e-01 -6.203843653202056885e-02 -5.669961124658584595e-02
8.161146640777587891e-01 9.772037714719772339e-02 2.794155851006507874e-02
8.783779740333557129e-01 1.123007386922836304e-03 -4.905511811375617981e-02
7.616426944732666016e-01 4.884034395217895508e-02 6.504637002944946289e-02
7.335654497146606445e-01 2.659771591424942017e-03 6.523516029119491577e-02
8.855136632919311523e-01 -4.317574948072433472e-02 7.343851029872894287e-02
7.775464057922363281e-01 6.488041579723358154e-02 -8.984303101897239685e-03
7.030529975891113281e-01 -2.779782377183437347e-02 4.313887096941471100e-03
7.302184104919433594e-01 -8.617081493139266968e-02 4.752815142273902893e-02
8.227179646492004395e-01 -1.113992631435394287e-01 6.100606173276901245e-02
8.547394275665283203e-01 4.370342195034027100e-02 -3.508242592215538025e-02
7.852588295936584473e-01 -5.921894311904907227e-02 7.512855529785156250e-02
8.981881141662597656e-01 5.725543200969696045e-02 5.780021101236343384e-02
8.263335824012756348e-01 3.548916429281234741e-02 7.795564830303192139e-02
8.500245809555053711e-01 8.519309014081954956e-02 5.290234833955764771e-02
9.396370649337768555e-01 -5.023569986224174500e-02 -4.431821405887603760e-02
7.599859237670898438e-01 -1.239561140537261963e-01 3.954982012510299683e-02
7.556698322296142578e-01 -1.332221925258636475e-01 -6.206970661878585815e-03
9.770450592041015625e-01 2.028681337833404541e-03 1.542636007070541382e-02
8.298896551132202148e-01 -7.274761795997619629e-02 -5.451241135597229004e-02
9.419273138046264648e-01 4.060719162225723267e-02 -1.428006775677204132e-02
8.328149914741516113e-01 2.217882126569747925e-02 8.011988550424575806e-02
9.303659200668334961e-01 -1.070139333605766296e-01 3.965231776237487793e-02
8.518282175064086914e-01 -7.594188675284385681e-03 -5.149201303720474243e-02
8.744885921478271484e-01 -1.557066142559051514e-01 -2.487906813621520996e-02
8.394667506217956543e-01 -9.675569087266921997e-02 -5.261310935020446777e-02
8.657394647598266602e-01 8.332031965255737305e-02 5.106686055660247803e-02
9.122567176818847656e-01 -8.940126001834869385e-02 -4.957542940974235535e-02
8.924116492271423340e-01 4.735773801803588867e-02 -2.988975122570991516e-02
8.352465033531188965e-01 -1.197875067591667175e-01 -4.638619720935821533e-02
9.838995933532714844e-01 -2.142648398876190186e-02 4.280841909348964691e-03
9.301633238792419434e-01 6.206528842449188232e-02 -6.532333791255950928e-04
9.750837683677673340e-01 -2.241043187677860260e-02 -1.851904392242431641e-02
7.405636906623840332e-01 -9.990375488996505737e-02 4.631663113832473755e-02
8.392664194107055664e-01 -1.465982794761657715e-01 -3.356569260358810425e-02
7.599986791610717773e-01 7.492606341838836670e-02 4.283624142408370972e-02
7.947010397911071777e-01 2.816214784979820251e-02 -3.426344692707061768e-02
8.872312903404235840e-01 -1.196833550930023193e-01 -4.616533592343330383e-02
7.243890762329101562e-01 -7.177451997995376587e-02 -1.584995910525321960e-02
7.466844320297241211e-01 -5.532318726181983948e-02 6.668239831924438477e-02
7.139431238174438477e-01 -6.136494874954223633e-02 4.573939368128776550e-02
8.793692588806152344e-01 8.312057703733444214e-02 -3.485092893242835999e-03
8.761625885963439941e-01 -9.152963757514953613e-02 -5.405051261186599731e-02
8.918533325195312500e-01 -7.998238503932952881e-02 -5.417831987142562866e-02
8.240191340446472168e-01 -3.710715472698211670e-02 8.101617544889450073e-02
7.902557849884033203e-01 -8.000086247920989990e-02 -4.644555225968360901e-02
8.381594419479370117e-01 -1.033477485179901123e-03 -4.940344393253326416e-02
9.337759613990783691e-01 -7.672066986560821533e-02 -4.526859521865844727e-02
8.940156102180480957e-01 -5.395656824111938477e-02 -5.491989105939865112e-02
8.259956240653991699e-01 1.367944106459617615e-02 8.137118816375732422e-02
7.758629918098449707e-01 -9.247438609600067139e-02 -3.993998095393180847e-02
7.947115898132324219e-01 -1.268968582153320312e-01 -3.496723622083663940e-02
8.306585550308227539e-01 2.232199534773826599e-02 -4.230941459536552429e-02
9.534600377082824707e-01 -4.591259360313415527e-02 4.649924114346504211e-02
9.448270797729492188e-01 -1.138594821095466614e-01 2.511893957853317261e-02
6.976768970489501953e-01 -3.353327140212059021e-02 2.301874011754989624e-02
7.429226636886596680e-01 6.229516118764877319e-02 4.288776963949203491e-02
8.096048831939697266e-01 -1.552246510982513428e-01 2.549012005329132080e-02
9.157788157463073730e-01 7.643844187259674072e-02 1.256862562149763107e-02
9.701187014579772949e-01 -1.339111477136611938e-02 3.346828743815422058e-02
8.064027428627014160e-01 3.786490857601165771e-02 -3.294035419821739197e-02
7.453287839889526367e-01 4.870478808879852295e-02 -2.996865659952163696e-03
7.555656433105468750e-01 -1.336438357830047607e-01 2.392745763063430786e-02
7.721596956253051758e-01 7.363203167915344238e-02 5.329964309930801392e-02
9.115129113197326660e-01 3.382866084575653076e-02 -3.244095295667648315e-02
9.025108218193054199e-01 -9.348694235086441040e-02 -5.079477280378341675e-02
8.483931422233581543e-01 6.663250923156738281e-02 -2.204161882400512695e-02
7.570288777351379395e-01 -5.915029346942901611e-02 -3.674658015370368958e-02
7.724616527557373047e-01 9.164150804281234741e-03 7.735334336757659912e-02
8.180848360061645508e-01 -6.418057531118392944e-02 -5.334776639938354492e-02
9.835072159767150879e-01 -2.957466430962085724e-02 -5.381705239415168762e-03
9.642190337181091309e-01 -6.972924619913101196e-02 -3.020326048135757446e-02
9.531353712081909180e-01 -2.430884912610054016e-02 -3.578349575400352478e-02
9.252799153327941895e-01 -1.179216504096984863e-01 3.583198785781860352e-02
9.665778279304504395e-01 5.487490445375442505e-03 -1.643965952098369598e-02
8.538542985916137695e-01 8.629854768514633179e-02 -4.244599491357803345e-03
8.493551015853881836e-01 5.224086344242095947e-02 7.177911698818206787e-02
8.564689159393310547e-01 -8.944315463304519653e-02 -5.466204881668090820e-02
7.545579671859741211e-01 -7.483106851577758789e-02 6.405100226402282715e-02
7.776157855987548828e-01 4.774817079305648804e-02 -2.033248171210289001e-02
8.042595982551574707e-01 -1.182021275162696838e-01 -4.138490557670593262e-02
9.822472929954528809e-01 -5.265300720930099487e-02 1.345923542976379395e-02
8.841006755828857422e-01 -1.208331435918807983e-03 7.539616525173187256e-02
7.260585427284240723e-01 -9.167073667049407959e-02 -1.016237400472164154e-02
8.401762843132019043e-01 4.377675801515579224e-02 7.526654005050659180e-02
7.434924840927124023e-01 -6.495556235313415527e-02 6.299949437379837036e-02
7.372707128524780273e-01 3.499662876129150391e-02 5.926911532878875732e-02
9.099968671798706055e-01 6.137414276599884033e-02 4.974805563688278198e-02
9.216230511665344238e-01 -1.472764313220977783e-01 -4.531839862465858459e-03
7.571640014648437500e-01 7.227378338575363159e-02 1.291124895215034485e-02
8.902444839477539062e-01 -1.608405411243438721e-01 -3.687229007482528687e-03
8.496444225311279297e-01 9.452991932630538940e-02 8.341192267835140228e-03
8.809049129486083984e-01 9.083364158868789673e-02 3.192264586687088013e-02
9.652467370033264160e-01 -1.045793518424034119e-01 -9.449709206819534302e-03
7.717785239219665527e-01 8.437187224626541138e-02 3.389473631978034973e-02
8.626222014427185059e-01 7.584382593631744385e-02 5.801254883408546448e-02
8.425758481025695801e-01 -3.106618486344814301e-02 -5.464123189449310303e-02
8.491439223289489746e-01 -1.096536889672279358e-01 -5.047536641359329224e-02
8.548492193222045898e-01 -1.225499436259269714e-02 8.054409921169281006e-02
7.160308361053466797e-01 -1.729171723127365112e-03 -5.640767514705657959e-03
8.274323344230651855e-01 -9.796332567930221558e-02 -5.109913647174835205e-02
8.040276169776916504e-01 -1.330473124980926514e-01 -3.472590446472167969e-02
9.098876714706420898e-01 6.773650646209716797e-02 -9.018858894705772400e-03
8.252332806587219238e-01 3.446768224239349365e-02 -3.729274123907089233e-02
9.742121696472167969e-01 -6.593511253595352173e-02 2.295572683215141296e-02
8.562669754028320312e-01 3.433182090520858765e-02 7.585898786783218384e-02
9.001133441925048828e-01 4.037787020206451416e-02 -3.202085942029953003e-02
9.165245294570922852e-01 -5.582960695028305054e-02 -5.118012428283691406e-02
8.187850713729858398e-01 -7.721660658717155457e-03 8.254657685756683350e-02
8.752807974815368652e-01 8.682943880558013916e-02 4.350084811449050903e-02
7.574504017829895020e-01 -5.138773098587989807e-02 7.094670087099075317e-02
7.552350759506225586e-01 -6.395623087882995605e-02 6.745450198650360107e-02
9.655793905258178711e-01 -9.678358212113380432e-03 -2.400171756744384766e-02
8.927760124206542969e-01 -7.170744240283966064e-02 6.648103892803192139e-02
7.868189215660095215e-01 -1.325289607048034668e-01 -2.887829765677452087e-02
7.681086659431457520e-01 7.552219927310943604e-02 7.442026864737272263e-03
9.255853295326232910e-01 -9.406252205371856689e-02 -4.508413001894950867e-02
7.447999715805053711e-01 6.516633927822113037e-02 1.690642721951007843e-02
7.539486289024353027e-01 -1.073162704706192017e-01 4.896048828959465027e-02
9.592155814170837402e-01 3.413611650466918945e-02 -6.078518927097320557e-04
9.779164791107177734e-01 -6.058588251471519470e-02 -1.705161854624748230e-02
7.771579623222351074e-01 8.167033642530441284e-02 4.646018519997596741e-02
8.426734209060668945e-01 -7.331055402755737305e-02 7.384769618511199951e-02
8.403745889663696289e-01 -1.330843567848205566e-01 -4.155957698822021484e-02
7.550703883171081543e-01 1.268981024622917175e-02 -2.630347758531570435e-02
7.611840963363647461e-01 -1.410858035087585449e-01 3.556075505912303925e-03
8.673289418220520020e-01 1.893069595098495483e-02 7.686149328947067261e-02
7.258901596069335938e-01 -4.800283908843994141e-02 -1.992493495345115662e-02
9.522358179092407227e-01 -2.957601100206375122e-02 4.879629239439964294e-02
8.404611349105834961e-01 -6.420810520648956299e-02 -5.587417632341384888e-02
9.741559624671936035e-01 -8.103018254041671753e-02 -1.521931216120719910e-02
9.349276423454284668e-01 -6.821443140506744385e-02 5.239138379693031311e-02
7.750430107116699219e-01 -4.069556668400764465e-02 7.668145000934600830e-02
8.436355590820312500e-01 9.582512080669403076e-03 -4.711893945932388306e-02
9.028080701828002930e-01 -7.852671295404434204e-02 -5.280459672212600708e-02
9.053211808204650879e-01 -3.755277022719383240e-03 -4.692690074443817139e-02
9.622188806533813477e-01 2.086303383111953735e-02 3.080315515398979187e-02
9.820230007171630859e-01 -6.479766964912414551e-02 6.014633923768997192e-03
8.001029491424560547e-01 5.544617772102355957e-02 7.104122638702392578e-02
8.246511220932006836e-01 -1.334293484687805176e-01 4.859889671206474304e-02
9.024784564971923828e-01 7.711765170097351074e-02 3.979981690645217896e-02
8.843247890472412109e-01 -1.340583264827728271e-01 4.136507213115692139e-02
9.188532233238220215e-01 4.806287586688995361e-03 -4.164656624197959900e-02
7.066742181777954102e-01 2.684820443391799927e-03 4.273809492588043213e-02
9.758871793746948242e-01 -2.618188410997390747e-02 2.765694260597229004e-02
7.490876317024230957e-01 -6.920580565929412842e-02 -3.230445459485054016e-02
7.698991298675537109e-01 -1.371931135654449463e-01 3.145983815193176270e-02
7.308383584022521973e-01 -3.826696053147315979e-02 -2.317852899432182312e-02
9.014551043510437012e-01 -3.878462314605712891e-02 6.995315849781036377e-02
8.438379764556884766e-01 -1.616375744342803955e-01 -1.845983788371086121e-02
7.769963145256042480e-01 -5.255009233951568604e-02 7.513957470655441284e-02
7.298997640609741211e-01 -6.007010117173194885e-02 5.791364610195159912e-02
8.880729675292968750e-01 -1.434194110333919525e-02 -5.154453217983245850e-02
7.225335836410522461e-01 2.709067985415458679e-02 1.848355866968631744e-03
7.963262796401977539e-01 -3.825923427939414978e-02 -4.873966425657272339e-02
7.697081565856933594e-01 -1.426086425781250000e-01 -7.987957447767257690e-03
8.041867613792419434e-01 -1.518641412258148193e-01 -2.009195089340209961e-02
7.395470142364501953e-01 -1.190830022096633911e-03 -2.261058613657951355e-02
8.300685286521911621e-01 -5.580975487828254700e-02 7.820389419794082642e-02
8.045079112052917480e-01 9.532322734594345093e-02 2.207775600254535675e-02
8.709625601768493652e-01 -1.648426055908203125e-01 -6.540376693010330200e-03
7.332652211189270020e-01 -1.061461493372917175e-01 3.559755906462669373e-02
7.971489429473876953e-01 -5.170764401555061340e-03 -4.435259476304054260e-02
9.418949484825134277e-01 -7.820098102092742920e-02 4.580889642238616943e-02
7.415905594825744629e-01 -1.069763675332069397e-01 -1.652953960001468658e-02
8.856788873672485352e-01 -4.284953325986862183e-02 -5.528193712234497070e-02
7.564836144447326660e-01 -4.830298200249671936e-02 -3.669231757521629333e-02
9.327313899993896484e-01 -1.307068467140197754e-01 -2.421456947922706604e-02
8.159788846969604492e-01 -7.159076631069183350e-04 -4.685926064848899841e-02
7.711340188980102539e-01 1.990194991230964661e-02 7.572655379772186279e-02
7.503715753555297852e-01 -1.203060820698738098e-01 3.672746568918228149e-02
7.161284089088439941e-01 -8.891083300113677979e-02 2.375808544456958771e-03
8.332247138023376465e-01 -1.219180896878242493e-01 5.572400614619255066e-02
9.321843981742858887e-01 2.589781582355499268e-02 5.391976237297058105e-02
7.154637575149536133e-01 -2.476482838392257690e-02 -1.037198491394519806e-02
7.142816185951232910e-01 -7.338275760412216187e-02 -4.650991410017013550e-03
8.846239447593688965e-01 -5.627146363258361816e-02 7.164821773767471313e-02
8.354021906852722168e-01 6.216594576835632324e-02 -2.440535649657249451e-02
9.814617037773132324e-01 -9.397448971867561340e-03 8.081396110355854034e-03
7.920560240745544434e-01 1.467486470937728882e-02 7.980141788721084595e-02
8.993904590606689453e-01 -1.380641013383865356e-01 3.304157778620719910e-02
8.633756041526794434e-01 -1.483197510242462158e-01 -3.312098979949951172e-02
8.306606411933898926e-01 9.309004992246627808e-02 4.540220648050308228e-02
7.634494304656982422e-01 -2.758997865021228790e-02 -3.815331310033798218e-02
8.019133210182189941e-01 -1.045690625905990601e-01 6.275646388530731201e-02
9.159678220748901367e-01 -1.232016980648040771e-01 3.708684444427490234e-02
7.033318877220153809e-01 -5.643264204263687134e-02 3.291307389736175537e-02
7.602393627166748047e-01 -1.522660627961158752e-02 7.549584656953811646e-02
8.731322288513183594e-01 -1.393276751041412354e-01 -3.856452554464340210e-02
7.575767636299133301e-01 -1.950107514858245850e-03 -3.145740553736686707e-02
8.203371763229370117e-01 7.736298441886901855e-02 -1.139173097908496857e-02
7.539039254188537598e-01 -1.363167464733123779e-01 1.075688563287258148e-02
7.809888124465942383e-01 -1.130044534802436829e-01 5.501743033528327942e-02
8.991516828536987305e-01 -1.149673908948898315e-01 4.866646975278854370e-02
7.916368246078491211e-01 -2.048041671514511108e-02 8.082286268472671509e-02
9.358227849006652832e-01 -1.377547681331634521e-01 -3.878474235534667969e-03
8.037396669387817383e-01 -6.506465375423431396e-02 -5.076958239078521729e-02
8.903066515922546387e-01 5.144871026277542114e-02 6.327839195728302002e-02
8.834829926490783691e-01 5.271486937999725342e-02 -2.835812419652938843e-02
7.164439558982849121e-01 -5.199817195534706116e-02 -1.189666241407394409e-02
7.015227675437927246e-01 -5.433026328682899475e-02 1.143029052764177322e-02
6.997345685958862305e-01 -1.172846741974353790e-02 1.681569777429103851e-02
9.605277776718139648e-01 -4.894418641924858093e-03 4.150515049695968628e-02
7.065768241882324219e-01 -4.379405081272125244e-02 4.343643039464950562e-02
8.930181860923767090e-01 -1.532492935657501221e-01 -2.242721244692802429e-02
8.928766846656799316e-01 -1.846633106470108032e-02 7.353436946868896484e-02
8.629264235496520996e-01 -3.616005182266235352e-02 7.823759317398071289e-02
9.690645933151245117e-01 1.216536387801170349e-02 2.596538141369819641e-02
8.568844199180603027e-01 -7.775509357452392578e-02 7.140413671731948853e-02
7.516629695892333984e-01 -9.186819195747375488e-02 5.631834641098976135e-02
7.785307765007019043e-01 -1.427700966596603394e-01 -1.575715281069278717e-02
9.414327144622802734e-01 2.435617521405220032e-02 4.865781217813491821e-02
9.285403490066528320e-01 5.160650610923767090e-02 -1.412668079137802124e-02
8.976060748100280762e-01 -1.374884247779846191e-01 -3.557327762246131897e-02
7.902362346649169922e-01 -1.050416529178619385e-01 6.094287335872650146e-02
7.223109006881713867e-01 1.000431180000305176e-02 5.722916871309280396e-02
7.435766458511352539e-01 4.832322150468826294e-02 5.648045614361763000e-02
8.056222796440124512e-01 -7.366847246885299683e-02 7.379700988531112671e-02
9.277513027191162109e-01 6.664925813674926758e-02 2.811289951205253601e-02
8.967408537864685059e-01 -1.273098140954971313e-01 4.218142852187156677e-02
9.733703732490539551e-01 -4.654059559106826782e-02 2.944776788353919983e-02
7.743154168128967285e-01 -1.104523465037345886e-01 -3.425657376646995544e-02
7.230277657508850098e-01 2.615261450409889221e-02 5.243212357163429260e-02
7.590904831886291504e-01 1.870483905076980591e-02 7.286363095045089722e-02
9.242531061172485352e-01 5.844780802726745605e-02 4.242003709077835083e-02
7.889948487281799316e-01 -1.512846350669860840e-01 2.250482514500617981e-02
8.461093902587890625e-01 3.463986515998840332e-02 -3.885520622134208679e-02
8.171439766883850098e-01 -5.284076184034347534e-02 7.879049330949783325e-02
8.323822617530822754e-01 -8.556225895881652832e-02 -5.360772460699081421e-02
9.131520390510559082e-01 -1.320308744907379150e-01 3.176275640726089478e-02
7.278773188591003418e-01 -6.269472837448120117e-02 -2.025001868605613708e-02
7.367913722991943359e-01 -1.628721505403518677e-02 -2.432889118790626526e-02
9.124860763549804688e-01 2.475404366850852966e-02 6.354752182960510254e-02
7.930194735527038574e-01 -1.561788916587829590e-01 1.379799097776412964e-02
7.165111303329467773e-01 1.119535416364669800e-02 -8.512428030371665955e-04
9.013903141021728516e-01 -1.464718580245971680e-01 -2.696445584297180176e-02
9.557629227638244629e-01 9.965427219867706299e-03 4.225932061672210693e-02
7.050554156303405762e-01 1.321464404463768005e-02 2.667048573493957520e-02
7.923156023025512695e-01 2.942410856485366821e-02 7.758362591266632080e-02
7.711088657379150391e-01 -9.850862622261047363e-02 5.979841202497482300e-02
8.086000084877014160e-01 7.218731194734573364e-02 6.367629021406173706e-02
8.576204180717468262e-01 -1.173403114080429077e-01 5.644294619560241699e-02
7.183323502540588379e-01 3.309589624404907227e-02 1.306212134659290314e-02
7.791695594787597656e-01 2.530716732144355774e-02 -3.101978078484535217e-02
8.628346920013427734e-01 2.800060063600540161e-02 -4.154407605528831482e-02
8.124339580535888672e-01 -1.283899098634719849e-01 -3.922948613762855530e-02
8.637315630912780762e-01 -1.287930309772491455e-01 -4.433189705014228821e-02
8.663123846054077148e-01 -1.014724150300025940e-01 6.233696639537811279e-02
7.606801986694335938e-01 2.264715358614921570e-02 -2.524397522211074829e-02
9.433177709579467773e-01 -2.856356650590896606e-02 -4.102683439850807190e-02
9.069087505340576172e-01 -9.311214834451675415e-02 5.586044490337371826e-02
9.386546611785888672e-01 1.944979652762413025e-02 -2.917478978633880615e-02
7.106534242630004883e-01 2.476614713668823242e-02 2.112158201634883881e-02
8.073974847793579102e-01 8.298246562480926514e-02 -2.939932048320770264e-03
7.981621623039245605e-01 1.059136167168617249e-02 -4.075933247804641724e-02
7.791312932968139648e-01 6.649642437696456909e-02 6.152853369712829590e-02
8.390085697174072266e-01 -1.621960699558258057e-01 1.879965141415596008e-02
8.522390723228454590e-01 -1.603598594665527344e-01 2.137356996536254883e-02
9.253030419349670410e-01 -5.754701048135757446e-02 5.905669555068016052e-02
9.414998292922973633e-01 4.263222217559814453e-02 3.963811695575714111e-02
7.491520047187805176e-01 1.089432835578918457e-02 7.082416117191314697e-02
8.617311716079711914e-01 -1.369624286890029907e-01 4.409491270780563354e-02
9.181214570999145508e-01 5.154899507761001587e-02 -1.960624754428863525e-02
8.513775467872619629e-01 -1.409775763750076294e-01 4.237163066864013672e-02
7.008323073387145996e-01 -3.900217637419700623e-02 3.527321666479110718e-02
9.168608188629150391e-01 -4.430288821458816528e-02 -5.071135610342025757e-02
7.798802256584167480e-01 -1.703086495399475098e-02 -4.213364049792289734e-02
8.475983738899230957e-01 -1.075994819402694702e-01 6.198392435908317566e-02
8.234540224075317383e-01 5.258902162313461304e-02 -2.869731187820434570e-02
7.003682851791381836e-01 -2.875233069062232971e-03 2.555684000253677368e-02
8.288090229034423828e-01 -3.006374090909957886e-02 -5.335453897714614868e-02
7.116863131523132324e-01 1.675378531217575073e-02 8.974919095635414124e-03
8.526723980903625488e-01 3.097750246524810791e-03 -4.913884028792381287e-02
8.432074189186096191e-01 9.753174334764480591e-02 3.453491628170013428e-02
9.461123943328857422e-01 -8.563879132270812988e-02 -3.857958316802978516e-02
9.041608572006225586e-01 -6.450946629047393799e-02 6.504064053297042847e-02
8.860466480255126953e-01 9.359475225210189819e-03 7.416053116321563721e-02
8.016436696052551270e-01 7.850935310125350952e-02 5.833550542593002319e-02
8.655657768249511719e-01 -6.154771894216537476e-03 7.906293123960494995e-02
7.974638342857360840e-01 7.242919504642486572e-02 -1.021938025951385498e-02
8.318090438842773438e-01 -1.234472356736660004e-02 -5.113566666841506958e-02
9.188998341560363770e-01 7.145263254642486572e-02 3.199994564056396484e-03
9.640398025512695312e-01 -1.043746843934059143e-01 9.192156605422496796e-03
8.942766189575195312e-01 8.519399911165237427e-02 8.128706365823745728e-03
7.060977220535278320e-01 -6.630916893482208252e-02 6.007940508425235748e-03
7.571187019348144531e-01 4.734748601913452148e-02 -1.143358647823333740e-02
8.757489323616027832e-01 -7.596504688262939453e-02 -5.582349002361297607e-02
8.100820779800415039e-01 8.979763835668563843e-02 5.211093463003635406e-03
7.983838319778442383e-01 -6.543861329555511475e-02 7.527247071266174316e-02
8.104677200317382812e-01 4.642423987388610840e-02 7.494957745075225830e-02
8.575960397720336914e-01 -4.977877810597419739e-02 7.720449566841125488e-02
8.816338181495666504e-01 -1.313950121402740479e-01 -4.194140061736106873e-02
8.421536087989807129e-01 -4.328449442982673645e-02 7.956971228122711182e-02
9.620851278305053711e-01 3.254117816686630249e-02 1.793375425040721893e-02
7.105008959770202637e-01 -8.408784866333007812e-02 1.432241685688495636e-02
7.950858473777770996e-01 8.430021256208419800e-02 3.122333437204360962e-03
7.464414238929748535e-01 -8.541302382946014404e-02 -2.807895094156265259e-02
8.721987605094909668e-01 -1.578662097454071045e-01 2.081360667943954468e-02
9.123647212982177734e-01 -1.518854796886444092e-01 1.756140030920505524e-03
8.380066156387329102e-01 -1.655322611331939697e-01 -8.720280602574348450e-03
7.905406355857849121e-01 7.676614820957183838e-02 5.731656029820442200e-02
8.674899339675903320e-01 -5.769284069538116455e-02 7.452943921089172363e-02
7.474527955055236816e-01 -6.351444870233535767e-03 7.163409888744354248e-02
9.807063341140747070e-01 -1.410794444382190704e-02 -5.551265552639961243e-03
9.029494524002075195e-01 -5.099562928080558777e-02 6.792552769184112549e-02
9.547628164291381836e-01 -9.488595649600028992e-03 -3.146439045667648315e-02
9.554019570350646973e-01 -1.120703741908073425e-01 1.483408734202384949e-02
6.988785266876220703e-01 -4.603412747383117676e-02 1.900930330157279968e-02
8.113963007926940918e-01 -2.118131145834922791e-02 8.212956786155700684e-02
8.277431726455688477e-01 -4.972480982542037964e-02 -5.461055785417556763e-02
8.383868336677551270e-01 -1.028338745236396790e-01 6.454262882471084595e-02
7.710446715354919434e-01 5.009736865758895874e-03 -3.476980701088905334e-02
8.294715285301208496e-01 -1.326830983161926270e-01 -4.044052213430404663e-02
7.689221501350402832e-01 3.362506628036499023e-02 7.240197062492370605e-02
7.899620532989501953e-01 4.532981663942337036e-02 7.328397035598754883e-02
8.582069277763366699e-01 9.735118597745895386e-02 2.379853650927543640e-02
8.612282872200012207e-01 -8.777706325054168701e-02 6.792420893907546997e-02
7.361121177673339844e-01 -7.211244106292724609e-02 5.732266604900360107e-02
9.529380798339843750e-01 -9.797912091016769409e-02 2.931522019207477570e-02
8.835220336914062500e-01 -1.503385156393051147e-01 2.694774419069290161e-02
8.621379137039184570e-01 -1.621009111404418945e-01 1.633124053478240967e-02
8.922733068466186523e-01 -1.041383147239685059e-01 5.583579838275909424e-02
9.167266488075256348e-01 -7.942958921194076538e-02 5.700831860303878784e-02
7.809296846389770508e-01 4.988997429609298706e-02 7.010301202535629272e-02
7.182570099830627441e-01 -1.368525251746177673e-02 -1.093501597642898560e-02
8.089393377304077148e-01 -8.307312428951263428e-02 -5.039110034704208374e-02
9.508273005485534668e-01 -5.752684175968170166e-02 4.612822830677032471e-02
9.370188713073730469e-01 6.078628450632095337e-02 2.238947153091430664e-02
8.193456530570983887e-01 -1.067514419555664062e-01 -4.797296598553657532e-02
8.698804974555969238e-01 6.210876256227493286e-02 6.427868455648422241e-02
7.464948296546936035e-01 -1.300389170646667480e-01 1.497100666165351868e-02
8.120085000991821289e-01 -9.219153970479965210e-02 6.845737993717193604e-02
7.542296051979064941e-01 5.950223654508590698e-02 5.557564646005630493e-02
7.248125076293945312e-01 7.105425000190734863e-03 -1.029230654239654541e-02
8.051848411560058594e-01 -1.605865359306335449e-01 1.069045905023813248e-02
7.370380759239196777e-01 -4.859840497374534607e-02 -2.711571007966995239e-02
8.345838785171508789e-01 9.891805797815322876e-02 2.385883405804634094e-02
9.196467399597167969e-01 -7.388824597001075745e-03 6.495717167854309082e-02
7.174650430679321289e-01 -3.929546847939491272e-02 5.477065965533256531e-02
8.621109127998352051e-01 -1.265659928321838379e-01 5.081859603524208069e-02
9.202077388763427734e-01 2.576998621225357056e-02 -3.357756137847900391e-02
8.778793215751647949e-01 4.997691512107849121e-02 6.738020479679107666e-02
8.912022709846496582e-01 -1.461601555347442627e-01 -3.071098029613494873e-02
7.841566801071166992e-01 -1.244608610868453979e-01 4.873589798808097839e-02
7.866619229316711426e-01 5.146339535713195801e-03 8.000701665878295898e-02
8.094674944877624512e-01 -5.496297031641006470e-02 -5.202810466289520264e-02
9.151303172111511230e-01 -3.039800561964511871e-02 -4.981389641761779785e-02
9.015169739723205566e-01 -1.551668345928192139e-01 -1.329453475773334503e-02
8.215175271034240723e-01 -4.080191627144813538e-02 -5.340170860290527344e-02
9.005353450775146484e-01 -1.161280944943428040e-01 -4.526337981224060059e-02
9.032389521598815918e-01 7.813137769699096680e-02 8.960897102952003479e-04
7.623506188392639160e-01 -9.788208454847335815e-02 -3.305223211646080017e-02
7.791025042533874512e-01 -3.472203388810157776e-02 -4.402233287692070007e-02
7.051267027854919434e-01 -1.717744022607803345e-02 2.885591238737106323e-03
9.568443894386291504e-01 -1.132126823067665100e-01 -1.550644449889659882e-02
9.141004085540771484e-01 -1.185850128531455994e-01 -4.092096164822578430e-02
9.100611209869384766e-01 -2.056109160184860229e-02 6.851372122764587402e-02
7.453941702842712402e-01 -5.349769443273544312e-02 -3.154370561242103577e-02
9.052903652191162109e-01 4.379024356603622437e-02 6.081785261631011963e-02
7.301954627037048340e-01 1.778800785541534424e-02 6.068323925137519836e-02
9.439288377761840820e-01 -7.527907192707061768e-02 -4.140604287385940552e-02
9.522657990455627441e-01 -1.225820109248161316e-01 -1.090615987777709961e-04
8.692916631698608398e-01 -1.658287085592746735e-02 7.846409827470779419e-02
7.950647473335266113e-01 9.037780761718750000e-02 1.359635218977928162e-02
8.668057918548583984e-01 8.215557783842086792e-02 -7.565185427665710449e-03
9.572296142578125000e-01 -8.609764277935028076e-02 3.208776935935020447e-02
8.521886467933654785e-01 -1.349378228187561035e-01 -4.141741245985031128e-02
9.460189938545227051e-01 -1.214764341711997986e-01 -2.098512277007102966e-02
9.677098989486694336e-01 -4.696701467037200928e-02 -2.894765511155128479e-02
9.215245246887207031e-01 4.584231227636337280e-02 5.222783237695693970e-02
7.679292559623718262e-01 -1.206009835004806519e-01 -2.671279385685920715e-02
7.510611414909362793e-01 -3.778467327356338501e-02 7.123617082834243774e-02
9.381943941116333008e-01 -5.808342993259429932e-02 5.311089009046554565e-02
8.756371736526489258e-01 -2.047771215438842773e-02 -5.350628495216369629e-02
7.289685606956481934e-01 -3.507555276155471802e-02 6.255173683166503906e-02
8.651822209358215332e-01 1.644322648644447327e-02 -4.542573913931846619e-02
8.092931509017944336e-01 7.785014808177947998e-03 8.172081410884857178e-02
9.255258440971374512e-01 4.817701876163482666e-03 6.151511892676353455e-02
7.342350482940673828e-01 -1.136402115225791931e-01 2.779822424054145813e-02
8.544410467147827148e-01 -2.921389415860176086e-02 -5.495230853557586670e-02
8.915030360221862793e-01 4.117154330015182495e-02 6.652711331844329834e-02
7.362678647041320801e-01 -9.292611479759216309e-02 -1.898061111569404602e-02
7.634793519973754883e-01 6.650782376527786255e-02 2.008210867643356323e-05
8.411746025085449219e-01 -5.099506676197052002e-02 -5.589412897825241089e-02
8.859393000602722168e-01 -9.592996537685394287e-02 6.069056689739227295e-02
7.112526893615722656e-01 -8.088161796331405640e-02 2.908851951360702515e-02
8.611869812011718750e-01 9.252244979143142700e-02 4.064925014972686768e-02
9.675826430320739746e-01 2.265254780650138855e-02 1.863961480557918549e-02
7.369333505630493164e-01 1.488321647047996521e-02 -1.593867130577564240e-02
8.195345401763916016e-01 -1.389442086219787598e-01 -3.531666472554206848e-02
8.705585002899169922e-01 -8.215981721878051758e-02 6.825789809226989746e-02
8.551790714263916016e-01 5.359668284654617310e-02 -3.006199374794960022e-02
9.594255089759826660e-01 -9.620081633329391479e-02 -2.601025998592376709e-02
7.146897315979003906e-01 2.724954858422279358e-02 4.110413417220115662e-02
7.852874398231506348e-01 -4.511502012610435486e-02 7.766608148813247681e-02
8.284285664558410645e-01 -1.588246822357177734e-01 -1.987987756729125977e-02
1.407844275236129761e-01 -1.310781389474868774e-02 -2.574251890182495117e-01
2.249919250607490540e-02 -8.988623321056365967e-02 -2.024441212415695190e-01
4.781021550297737122e-02 -1.576365903019905090e-02 3.252965211868286133e-01
6.001430377364158630e-02 -9.254547953605651855e-02 1.362239867448806763e-01
4.652872681617736816e-03 -9.302984178066253662e-02 1.779554784297943115e-01
2.887108549475669861e-02 -9.405784308910369873e-03 -1.709974706172943115e-01
1.675329729914665222e-02 -2.871184609830379486e-02 -3.979642689228057861e-01
-1.177336424589157104e-01 -4.020245000720024109e-02 -1.545518487691879272e-01
2.575831115245819092e-01 -2.583139017224311829e-02 3.388167545199394226e-02
-3.325561806559562683e-02 -9.178192913532257080e-02 1.754264086484909058e-01
3.377231210470199585e-02 -8.507734537124633789e-02 3.258979916572570801e-01
1.314011812210083008e-01 -7.203191518783569336e-02 3.883217871189117432e-01
2.694788947701454163e-02 -6.213687732815742493e-02 4.761002361774444580e-01
1.804975047707557678e-02 -2.203111164271831512e-02 3.511882126331329346e-01
2.031730562448501587e-01 -5.605598166584968567e-02 -2.113958001136779785e-01
-7.195255160331726074e-02 -7.949516177177429199e-02 2.755508720874786377e-01
1.272323280572891235e-01 -2.612952142953872681e-03 1.138820275664329529e-01
3.842028230428695679e-02 -8.509416878223419189e-02 -2.678732275962829590e-01
1.934936195611953735e-01 -2.996261417865753174e-02 4.099022448062896729e-01
-1.241771131753921509e-01 -7.260960340499877930e-02 1.500328332185745239e-01
-4.958385601639747620e-02 -9.234730154275894165e-02 -1.229213848710060120e-01
-4.084492847323417664e-02 -8.544039726257324219e-02 -2.691351175308227539e-01
4.977593943476676941e-02 -1.237595081329345703e-02 -2.612039148807525635e-01
-1.454161703586578369e-01 -6.498859822750091553e-02 1.054256502538919449e-02
8.538971841335296631e-02 -2.560775727033615112e-03 3.858483582735061646e-02
1.214463114738464355e-01 -6.416349112987518311e-02 -3.550879359245300293e-01
3.011740744113922119e-02 -9.402477741241455078e-02 1.309825628995895386e-01
1.024671941995620728e-01 -8.422110974788665771e-02 2.752002775669097900e-01
1.016358584165573120e-01 -8.540575206279754639e-02 2.526224851608276367e-01
-1.045504584908485413e-02 -9.389723837375640869e-02 -1.132304295897483826e-01
1.794005334377288818e-01 -7.128331810235977173e-02 2.790281772613525391e-01
3.016291931271553040e-02 -9.331917762756347656e-02 1.603702753782272339e-01
9.065837413072586060e-02 -4.430677741765975952e-03 -1.230006739497184753e-01
6.078701466321945190e-03 -9.435118734836578369e-02 -9.139113128185272217e-02
7.039386034011840820e-02 -9.145096689462661743e-02 1.546555161476135254e-01
-8.049966394901275635e-02 -2.949288673698902130e-02 1.474256515502929688e-01
1.999403834342956543e-01 -7.032869756221771240e-02 1.800912171602249146e-01
-1.192954480648040771e-01 -5.428747087717056274e-02 1.954612582921981812e-01
5.853205919265747070e-02 -2.862485125660896301e-02 -4.111506044864654541e-01
1.750523298978805542e-01 -5.457462370395660400e-02 -3.010579347610473633e-01
1.944871544837951660e-01 -6.352450698614120483e-03 1.442217268049716949e-02
1.083204448223114014e-01 -1.198020204901695251e-02 3.268634974956512451e-01
1.146988719701766968e-01 -8.789925277233123779e-02 1.097330357879400253e-02
-1.913988962769508362e-02 -1.244681701064109802e-02 -1.079858280718326569e-02
5.053434148430824280e-02 -9.180182218551635742e-02 -1.165929362177848816e-01
-8.695183694362640381e-02 -8.885269612073898315e-02 8.379712700843811035e-02
8.268289268016815186e-02 -5.836158990859985352e-03 1.963475793600082397e-01
1.230168342590332031e-01 -5.824671685695648193e-02 4.798316061496734619e-01
9.496946632862091064e-02 -1.828503049910068512e-02 -3.377104103565216064e-01
