4.526609778404235840e-01 -1.461365520954132080e-01 2.428995966911315918e-01
5.359892249107360840e-01 -2.174748778343200684e-01 -5.473238416016101837e-03
7.273833751678466797e-01 -1.124988421797752380e-01 3.107839822769165039e-01
7.592495679855346680e-01 -1.800727397203445435e-01 -2.468480318784713745e-01
5.387946367263793945e-01 8.112606406211853027e-02 -1.874249055981636047e-02
7.988671064376831055e-01 -1.587152481079101562e-03 6.355981528759002686e-02
6.624573469161987305e-01 5.902688205242156982e-02 -1.366298645734786987e-02
2.973595261573791504e-01 -8.925536274909973145e-02 -4.094262421131134033e-02
2.809232175350189209e-01 -6.173459067940711975e-02 5.147951841354370117e-02
9.138778448104858398e-01 -1.137769073247909546e-01 1.387162879109382629e-02
7.452850937843322754e-01 1.154467463493347168e-02 1.317514181137084961e-01
4.219028651714324951e-01 -1.582483947277069092e-01 1.707436889410018921e-01
5.904348492622375488e-01 -2.164399325847625732e-01 1.542790979146957397e-01
6.948352456092834473e-01 -2.316988706588745117e-01 -9.017682075500488281e-02
4.409822821617126465e-01 -8.599118143320083618e-02 2.987325787544250488e-01
3.703535497188568115e-01 -1.460390388965606689e-01 8.879219740629196167e-02
3.698807060718536377e-01 6.786848604679107666e-02 2.255909703671932220e-02
3.791502714157104492e-01 -1.535523384809494019e-01 -5.229543894529342651e-02
8.667513132095336914e-01 -1.038422584533691406e-01 -1.993938982486724854e-01
7.559874057769775391e-01 -1.439570784568786621e-01 2.862848043441772461e-01
6.728029847145080566e-01 5.492955446243286133e-02 -8.591808378696441650e-02
4.295392036437988281e-01 -1.366597861051559448e-01 2.359668910503387451e-01
2.943516671657562256e-01 -8.778046071529388428e-02 1.930111460387706757e-02
7.518961429595947266e-01 -1.248565465211868286e-01 -3.120869100093841553e-01
8.096109032630920410e-01 -4.273248091340065002e-02 1.807863265275955200e-01
8.513638377189636230e-01 -2.889773249626159668e-02 -4.340561479330062866e-02
6.762397289276123047e-01 4.804955422878265381e-02 7.225227355957031250e-02
8.556568622589111328e-01 -2.047051340341567993e-01 -6.770220398902893066e-02
5.931682586669921875e-01 5.220414698123931885e-02 1.509660184383392334e-01
4.460345208644866943e-01 -1.020547747611999512e-01 -2.957912683486938477e-01
4.775294363498687744e-01 -7.966630160808563232e-03 2.904255092144012451e-01
3.791457116603851318e-01 -1.096353158354759216e-01 2.175087034702301025e-01
3.196916282176971436e-01 -4.765955358743667603e-02 -1.947552710771560669e-01
2.855829596519470215e-01 1.963876932859420776e-02 -5.809187889099121094e-02
8.234366774559020996e-01 -2.101072371006011963e-01 -1.116947680711746216e-01
5.684231519699096680e-01 -1.653634905815124512e-01 -2.751225829124450684e-01
2.991621494293212891e-01 -2.194710075855255127e-03 1.247362643480300903e-01
7.322547435760498047e-01 -2.051328867673873901e-01 2.128106504678726196e-01
5.088955760002136230e-01 -2.096701711416244507e-01 5.011685192584991455e-02
3.826867938041687012e-01 -8.945422619581222534e-02 2.455379962921142578e-01
4.919367134571075439e-01 -6.574749946594238281e-03 -3.309935033321380615e-01
6.708535552024841309e-01 -2.343810647726058960e-01 8.771195262670516968e-02
5.082430243492126465e-01 -1.378549337387084961e-01 -2.918058633804321289e-01
8.917557001113891602e-01 -9.596648067235946655e-02 -1.340322643518447876e-01
8.690686225891113281e-01 -1.604894846677780151e-01 1.573144793510437012e-01
7.309178709983825684e-01 3.607200086116790771e-02 3.593755885958671570e-03
7.537958621978759766e-01 -2.350209206342697144e-01 4.790121316909790039e-02
4.881492257118225098e-01 -1.581478118896484375e-01 -2.384818941354751587e-01
4.343957006931304932e-01 -1.697337478399276733e-01 1.499390453100204468e-01
6.671804785728454590e-01 -1.797319054603576660e-01 2.773554921150207520e-01
6.792242527008056641e-01 -2.245723903179168701e-01 1.551746577024459839e-01
4.728262126445770264e-01 -9.245116263628005981e-02 -3.225270211696624756e-01
4.286602139472961426e-01 -5.345316231250762939e-02 2.959706187248229980e-01
6.437857747077941895e-01 -2.187970876693725586e-01 -1.504280269145965576e-01
7.319577932357788086e-01 -2.148668169975280762e-01 -1.683703809976577759e-01
5.518485903739929199e-01 -1.375794559717178345e-01 -3.133649528026580811e-01
3.123036623001098633e-01 -1.002154499292373657e-01 8.055815100669860840e-02
6.776701211929321289e-01 3.812403976917266846e-02 1.257362812757492065e-01
3.826696872711181641e-01 -9.897384047508239746e-02 -2.357123941183090210e-01
5.711943507194519043e-01 7.675375044345855713e-02 -7.605308294296264648e-02
6.253221035003662109e-01 -2.014439404010772705e-01 2.276315093040466309e-01
6.267822980880737305e-01 -2.118893265724182129e-01 -1.727677732706069946e-01
5.185807347297668457e-01 -1.219642460346221924e-01 -3.184524178504943848e-01
6.362935304641723633e-01 -1.137183457612991333e-01 -3.497116863727569580e-01
3.857570886611938477e-01 -1.456898748874664307e-01 1.404372155666351318e-01
3.913546502590179443e-01 7.134482264518737793e-02 -9.874520450830459595e-02
8.256237506866455078e-01 -1.214714646339416504e-01 2.343622744083404541e-01
8.501865863800048828e-01 -3.284746780991554260e-02 -9.774849563837051392e-02
7.172819375991821289e-01 -7.379890978336334229e-02 3.057271242141723633e-01
4.109222888946533203e-01 -2.290672063827514648e-02 2.736946642398834229e-01
4.248731732368469238e-01 -1.235067918896675110e-01 -2.464237660169601440e-01
6.685242056846618652e-01 -2.310924828052520752e-01 1.150627285242080688e-01
5.875670909881591797e-01 -1.435796022415161133e-01 3.181219100952148438e-01
4.149750471115112305e-01 -9.172117710113525391e-02 2.759220302104949951e-01
4.161080121994018555e-01 -1.309577226638793945e-01 -2.214633673429489136e-01
7.920130491256713867e-01 -2.290638983249664307e-01 4.841200262308120728e-02
7.246858477592468262e-01 -1.531370580196380615e-01 -2.998703420162200928e-01
5.420987010002136230e-01 4.376138746738433838e-02 -2.600587308406829834e-01
8.293089270591735840e-01 -1.519781947135925293e-01 -2.333835363388061523e-01
8.661231398582458496e-01 -4.276645183563232422e-02 -6.497710943222045898e-02
3.728184103965759277e-01 -5.045585334300994873e-03 -2.620218098163604736e-01
5.823005437850952148e-01 -3.801736980676651001e-02 3.251291811466217041e-01
3.938364982604980469e-01 -1.593042910099029541e-01 9.359093010425567627e-02
3.573697209358215332e-01 3.313115984201431274e-02 -1.994789242744445801e-01
4.167068600654602051e-01 6.749625504016876221e-02 9.583675861358642578e-02
4.959242939949035645e-01 -1.743674874305725098e-01 -2.027409374713897705e-01
7.015765309333801270e-01 2.137584239244461060e-02 1.606737971305847168e-01
3.505073785781860352e-01 -1.366209089756011963e-01 -3.993937745690345764e-02
5.557779669761657715e-01 -1.957292258739471436e-01 -1.883525997400283813e-01
7.155956625938415527e-01 3.943724185228347778e-02 -1.058589592576026917e-01
7.264076471328735352e-01 -2.045247256755828857e-01 -2.035502940416336060e-01
9.089429378509521484e-01 -1.302593052387237549e-01 -9.093964099884033203e-02
3.804116845130920410e-01 -7.233523577451705933e-02 -2.627191543579101562e-01
5.256595611572265625e-01 -1.806608438491821289e-01 -2.120807915925979614e-01
7.873890399932861328e-01 -2.256784141063690186e-01 9.219801425933837891e-02
7.712678909301757812e-01 -1.856270283460617065e-01 2.332027703523635864e-01
2.802800536155700684e-01 -3.386704996228218079e-02 8.775460720062255859e-02
8.717377185821533203e-01 -7.303633540868759155e-02 1.151265799999237061e-01
7.416895031929016113e-01 -5.219219624996185303e-02 -3.118340075016021729e-01
5.237305760383605957e-01 -2.696663513779640198e-02 3.163163959980010986e-01
3.439840376377105713e-01 5.986802279949188232e-02 1.547579094767570496e-02
4.611688256263732910e-01 8.239947259426116943e-02 -6.976076960563659668e-02
7.731519937515258789e-01 -2.334477305412292480e-01 2.280190773308277130e-02
4.072678685188293457e-01 -1.134500503540039062e-01 2.473542094230651855e-01
5.115364193916320801e-01 7.019494473934173584e-02 1.070252284407615662e-01
4.540427029132843018e-01 -1.862748414278030396e-01 1.040223464369773865e-01
7.511689662933349609e-01 -4.046212881803512573e-02 2.484387457370758057e-01
4.978323280811309814e-01 8.147625625133514404e-02 -9.211302548646926880e-02
4.733007252216339111e-01 4.814839363098144531e-02 1.897494494915008545e-01
8.450361490249633789e-01 -1.566905081272125244e-01 -2.100280076265335083e-01
4.671217203140258789e-01 6.108924746513366699e-02 1.466557979583740234e-01
4.294247031211853027e-01 -1.743475794792175293e-01 1.135105267167091370e-01
4.214643836021423340e-01 6.375430524349212646e-02 -1.750982552766799927e-01
9.087510108947753906e-01 -1.035732403397560120e-01 -6.780925393104553223e-02
7.043047547340393066e-01 3.121825307607650757e-02 1.170990169048309326e-01
3.312485218048095703e-01 -4.273201897740364075e-02 2.013397365808486938e-01
3.530884385108947754e-01 -3.831674531102180481e-02 -2.479846179485321045e-01
5.835835337638854980e-01 7.498103380203247070e-02 2.874669618904590607e-03
8.006212711334228516e-01 -1.101079136133193970e-01 2.588837444782257080e-01
8.987312316894531250e-01 -1.104481667280197144e-01 9.387688338756561279e-02
8.283071517944335938e-01 -2.172625213861465454e-01 6.835629045963287354e-02
8.606640100479125977e-01 -7.147266715764999390e-02 1.399356275796890259e-01
4.508764147758483887e-01 -1.322481036186218262e-01 2.645093500614166260e-01
8.527888059616088867e-01 -1.125992983579635620e-01 -2.239747345447540283e-01
8.835015296936035156e-01 -1.902538985013961792e-01 4.170185327529907227e-02
7.035005092620849609e-01 -3.725230693817138672e-03 2.266378253698348999e-01
4.375541806221008301e-01 -8.053861558437347412e-03 -3.108251690864562988e-01
7.600675821304321289e-01 -6.741881370544433594e-04 1.506704688072204590e-01
5.073329806327819824e-01 -1.803690642118453979e-01 2.155152857303619385e-01
4.801262915134429932e-01 -2.013435959815979004e-01 3.100830130279064178e-03
4.784339666366577148e-01 6.733416020870208740e-02 1.225498467683792114e-01
7.926626801490783691e-01 -5.966946482658386230e-04 -1.401589512825012207e-01
7.729105353355407715e-01 -2.072181105613708496e-01 1.850697845220565796e-01
7.831271886825561523e-01 -1.224143803119659424e-02 -2.050490528345108032e-01
5.718728899955749512e-01 -1.082397177815437317e-01 3.389991521835327148e-01
5.195287466049194336e-01 -2.050776183605194092e-01 1.279042065143585205e-01
5.015241503715515137e-01 5.276238918304443359e-02 1.784192174673080444e-01
9.161858558654785156e-01 -1.418414115905761719e-01 -8.484151214361190796e-03
3.877310752868652344e-01 -1.357004940509796143e-01 -1.649072617292404175e-01
3.681690692901611328e-01 2.399061620235443115e-02 1.868461370468139648e-01
7.453767061233520508e-01 -7.281698286533355713e-03 -2.469026744365692139e-01
4.640679359436035156e-01 3.522755205631256104e-02 2.197387963533401489e-01
8.504095077514648438e-01 -1.005269736051559448e-01 1.939699798822402954e-01
5.170413851737976074e-01 -2.734303474426269531e-03 -3.328366577625274658e-01
5.815020799636840820e-01 3.181789070367813110e-02 -2.788026034832000732e-01
3.403222858905792236e-01 -1.254755258560180664e-01 -7.113551348447799683e-02
5.412605404853820801e-01 -6.695277988910675049e-02 3.383198082447052002e-01
4.147959947586059570e-01 7.193335890769958496e-02 6.804089248180389404e-02
3.644328713417053223e-01 6.165963411331176758e-02 6.112980842590332031e-02
7.101345062255859375e-01 -2.356830686330795288e-01 -5.335830897092819214e-02
8.656611442565917969e-01 -1.927440166473388672e-01 9.878928959369659424e-02
4.059832990169525146e-01 -1.705962866544723511e-01 3.425979614257812500e-02
7.230213880538940430e-01 3.993101418018341064e-02 -2.106221951544284821e-02
5.120093822479248047e-01 7.869538664817810059e-02 4.837380349636077881e-02
6.055620908737182617e-01 -1.827960610389709473e-01 -2.522094547748565674e-01
9.023162722587585449e-01 -1.647830903530120850e-01 5.702302604913711548e-02
5.430390238761901855e-01 -2.189616411924362183e-01 4.351659119129180908e-02
8.262572288513183594e-01 -1.139231026172637939e-02 -2.915948163717985153e-03
4.758499860763549805e-01 8.364093303680419922e-02 -4.209803789854049683e-02
3.332944214344024658e-01 3.957482427358627319e-02 1.030334532260894775e-01
8.862428069114685059e-01 -1.724079251289367676e-01 1.000730544328689575e-01
6.180115938186645508e-01 -2.262613624334335327e-01 1.190578043460845947e-01
3.420741558074951172e-01 -9.903077781200408936e-02 -1.690621972084045410e-01
4.432379901409149170e-01 -3.024827316403388977e-02 -3.232448697090148926e-01
9.035815000534057617e-01 -1.002578660845756531e-01 -9.293102473020553589e-02
6.038699746131896973e-01 3.946609795093536377e-02 1.889121085405349731e-01
6.842238306999206543e-01 -1.129066795110702515e-01 3.279872238636016846e-01
6.838646531105041504e-01 -2.079689502716064453e-01 -1.987900733947753906e-01
2.935371100902557373e-01 -7.728363573551177979e-02 -7.695312798023223877e-02
3.772455453872680664e-01 -2.854642271995544434e-02 -2.745553553104400635e-01
7.805289626121520996e-01 -1.272186636924743652e-01 2.761469781398773193e-01
8.018487095832824707e-01 -2.281879782676696777e-01 1.076386868953704834e-02
8.261413574218750000e-01 -1.999799162149429321e-01 -1.464734524488449097e-01
5.583623647689819336e-01 -1.962963044643402100e-01 2.101431190967559814e-01
8.329434394836425781e-01 -7.006268203258514404e-02 -2.307911664247512817e-01
8.904994726181030273e-01 -1.509169042110443115e-01 -1.365785151720046997e-01
4.020293951034545898e-01 -1.627085506916046143e-01 -7.987841963768005371e-02
6.655634641647338867e-01 -5.496105924248695374e-02 -3.520043492317199707e-01
6.586061120033264160e-01 -2.205471098423004150e-01 1.704684793949127197e-01
7.960209846496582031e-01 -1.781223341822624207e-02 1.413498222827911377e-01
2.811343073844909668e-01 -2.554735913872718811e-02 -1.090821623802185059e-01
6.154946088790893555e-01 -2.044337540864944458e-01 -1.951971650123596191e-01
8.154666423797607422e-01 -4.170254617929458618e-02 -2.179562598466873169e-01
6.092491149902343750e-01 -8.210310339927673340e-02 -3.635151982307434082e-01
3.174993097782135010e-01 4.333581030368804932e-02 4.634010791778564453e-02
7.997752428054809570e-01 -4.420209303498268127e-02 -2.455792576074600220e-01
7.681992650032043457e-01 2.120806276798248291e-02 -2.919122017920017242e-02
6.686684489250183105e-01 -1.939246654510498047e-01 2.509537935256958008e-01
5.859777927398681641e-01 -9.972523152828216553e-02 -3.559175133705139160e-01
8.517522215843200684e-01 -1.852723658084869385e-01 -1.508155763149261475e-01
3.321142792701721191e-01 -1.138531044125556946e-01 -9.745732694864273071e-02
8.499816656112670898e-01 -1.936057358980178833e-01 1.307717710733413696e-01
7.401530742645263672e-01 -7.129562646150588989e-02 2.897573113441467285e-01
6.655268669128417969e-01 -1.693711280822753906e-01 -2.875291407108306885e-01
5.589388012886047363e-01 7.290375232696533203e-02 -1.362318843603134155e-01
5.474352240562438965e-01 -2.164466381072998047e-01 9.523837268352508545e-02
6.389675140380859375e-01 2.739385515451431274e-02 2.017744183540344238e-01
3.091039657592773438e-01 2.845120429992675781e-02 -1.236591190099716187e-01
8.986322879791259766e-01 -1.747360527515411377e-01 -4.922272264957427979e-02
3.897370398044586182e-01 7.376711070537567139e-02 -6.610538810491561890e-02
5.798879265785217285e-01 7.323929667472839355e-02 3.650034964084625244e-02
6.685061454772949219e-01 -2.370567470788955688e-01 4.736666381359100342e-02
2.764486968517303467e-01 -5.157782137393951416e-02 -5.691306293010711670e-02
4.186656475067138672e-01 -1.607408821582794189e-01 -1.360187828540802002e-01
5.666880011558532715e-01 7.217280566692352295e-02 6.374184042215347290e-02
3.017101287841796875e-01 -4.754137992858886719e-02 1.456480175256729126e-01
7.105895280838012695e-01 -1.830270290374755859e-01 -2.581145167350769043e-01
6.814733743667602539e-01 -1.423791050910949707e-02 2.629256248474121094e-01
5.514142513275146484e-01 -7.325328886508941650e-02 -3.606547117233276367e-01
4.925664663314819336e-01 6.825491786003112793e-02 -1.834628731012344360e-01
2.717641890048980713e-01 -1.079864054918289185e-02 -5.605967342853546143e-02
8.363991975784301758e-01 -2.068969607353210449e-02 2.870223484933376312e-02
6.247081160545349121e-01 -2.614946290850639343e-02 3.055269122123718262e-01
8.569326400756835938e-01 -4.304956644773483276e-02 -1.202088743448257446e-01
4.661037623882293701e-01 -1.582647860050201416e-01 -2.161619812250137329e-01
6.097752451896667480e-01 2.824738621711730957e-02 -2.761201560497283936e-01
3.988488614559173584e-01 -1.649325191974639893e-01 6.757382303476333618e-02
7.122575044631958008e-01 -2.151219248771667480e-01 1.897981911897659302e-01
3.045743405818939209e-01 -6.963264942169189453e-02 -1.366926580667495728e-01
3.770426213741302490e-01 -1.543118357658386230e-01 4.774401336908340454e-02
6.038115024566650391e-01 6.620950996875762939e-02 6.521561741828918457e-02
3.623633980751037598e-01 -1.465468108654022217e-01 1.353210210800170898e-02
7.251312136650085449e-01 -2.306868135929107666e-01 -9.290394932031631470e-02
5.202209949493408203e-01 7.709299027919769287e-02 -1.284029483795166016e-01
6.500738859176635742e-01 4.693005979061126709e-02 -1.889385879039764404e-01
6.644186973571777344e-01 2.297347038984298706e-02 -2.552609443664550781e-01
4.821955561637878418e-01 -6.830132007598876953e-02 -3.403165340423583984e-01
7.602164745330810547e-01 -2.347325980663299561e-01 -1.738128811120986938e-02
4.151804149150848389e-01 -4.946760460734367371e-02 -3.055476546287536621e-01
7.466697096824645996e-01 3.058116137981414795e-02 -1.933472231030464172e-02
5.759654045104980469e-01 -2.158672511577606201e-01 -1.160672977566719055e-01
3.455836474895477295e-01 5.200873315334320068e-02 -1.255578845739364624e-01
5.781751871109008789e-01 -2.262374609708786011e-01 4.802902042865753174e-02
7.364664077758789062e-01 1.128695905208587646e-02 -2.092268466949462891e-01
8.104072809219360352e-01 -1.809897720813751221e-01 -2.101599872112274170e-01
4.295934438705444336e-01 -1.120144650340080261e-01 2.711042761802673340e-01
5.613753795623779297e-01 3.975488245487213135e-03 -3.275090456008911133e-01
3.177646696567535400e-01 -1.129668951034545898e-01 3.294439986348152161e-03
5.010158419609069824e-01 -1.956313550472259521e-01 1.500741690397262573e-01
6.016290187835693359e-01 1.095123589038848877e-03 2.758003473281860352e-01
6.793477535247802734e-01 5.086773633956909180e-02 -1.120350062847137451e-01
7.490348219871520996e-01 2.591208368539810181e-02 -1.076612025499343872e-01
6.041870117187500000e-01 3.023971617221832275e-02 2.148778140544891357e-01
8.539775609970092773e-01 -2.082378715276718140e-01 5.145847797393798828e-02
7.452775835990905762e-01 -2.196360975503921509e-01 1.610411554574966431e-01
5.371165871620178223e-01 6.529393792152404785e-02 1.241117566823959351e-01
8.795213103294372559e-01 -9.112823754549026489e-02 -1.632511168718338013e-01
5.595042705535888672e-01 3.805892914533615112e-02 2.117329835891723633e-01
3.665297031402587891e-01 3.845817595720291138e-02 1.535286754369735718e-01
6.338867545127868652e-01 5.316470563411712646e-02 1.091949865221977234e-01
6.439006328582763672e-01 -2.311654090881347656e-01 1.017007827758789062e-01
6.568409800529479980e-01 5.450449883937835693e-03 -2.967856526374816895e-01
6.651544570922851562e-01 5.525168776512145996e-02 3.708283603191375732e-02
5.402095317840576172e-01 -1.651977598667144775e-01 -2.611380517482757568e-01
6.947766542434692383e-01 4.914344847202301025e-02 -6.871595978736877441e-02
4.596964120864868164e-01 7.021230459213256836e-02 -1.678333878517150879e-01
7.965768575668334961e-01 -8.118291944265365601e-02 -2.829355895519256592e-01
3.237425386905670166e-01 6.454139947891235352e-04 -1.971531212329864502e-01
6.048957109451293945e-01 -6.453491002321243286e-02 3.381748497486114502e-01
5.346429347991943359e-01 4.456511139869689941e-02 1.996696144342422485e-01
8.905590772628784180e-01 -6.697188317775726318e-02 -9.165537543594837189e-03
3.289160430431365967e-01 5.484409630298614502e-02 -1.610725559294223785e-02
3.420182764530181885e-01 -1.250639557838439941e-01 9.367387741804122925e-02
7.176618576049804688e-01 -2.383350431919097900e-01 1.800546608865261078e-02
7.937770485877990723e-01 -2.159488201141357422e-01 -1.242769584059715271e-01
3.013860881328582764e-01 3.281247615814208984e-02 -8.002451807260513306e-02
6.225256919860839844e-01 -1.593624353408813477e-01 -3.007744848728179932e-01
6.397639513015747070e-01 -4.156164824962615967e-03 2.695285975933074951e-01
4.330550432205200195e-01 7.881580293178558350e-02 2.764120884239673615e-02
8.045899271965026855e-01 3.921836614608764648e-04 -8.185014873743057251e-02
4.505062401294708252e-01 8.243010938167572021e-02 -1.258628629148006439e-02
8.115636706352233887e-01 -2.171572297811508179e-01 1.061304062604904175e-01
5.815709233283996582e-01 -2.046899050474166870e-01 1.977851390838623047e-01
4.007212519645690918e-01 -1.674509942531585693e-01 -2.289626747369766235e-02
8.224785923957824707e-01 -1.345390826463699341e-02 -1.059867963194847107e-01
4.520630836486816406e-01 -1.898393183946609497e-01 -3.179005533456802368e-02
6.291429996490478516e-01 -2.333717942237854004e-01 -2.799823880195617676e-02
2.927819788455963135e-01 -2.004876732826232910e-04 -1.334046274423599243e-01
9.011601209640502930e-01 -8.524806797504425049e-02 2.206511609256267548e-02
5.860961675643920898e-01 -2.229826599359512329e-01 1.073346883058547974e-01
5.209469795227050781e-01 -2.096903175115585327e-01 -6.652916967868804932e-02
6.570298075675964355e-01 -9.555588662624359131e-02 -3.558538556098937988e-01
6.439235806465148926e-01 -1.659269034862518311e-01 2.980219125747680664e-01
6.155619025230407715e-01 -1.841013133525848389e-01 2.658392488956451416e-01
6.124039888381958008e-01 7.076607644557952881e-02 -5.319182574748992920e-02
7.978100776672363281e-01 -2.032628506422042847e-01 -1.673644036054611206e-01
8.394555449485778809e-01 -5.348095297813415527e-02 1.493688672780990601e-01
5.888064503669738770e-01 -2.233431041240692139e-01 -7.931483536958694458e-02
5.773509144783020020e-01 5.080102384090423584e-02 -2.300363630056381226e-01
7.171822786331176758e-01 1.432612538337707520e-03 -2.585982084274291992e-01
6.814588308334350586e-01 -1.465114355087280273e-01 -3.175158500671386719e-01
7.198534011840820312e-01 4.104959964752197266e-02 -5.215182155370712280e-02
3.143800795078277588e-01 -4.859444126486778259e-02 1.719412505626678467e-01
6.894003152847290039e-01 -1.566976010799407959e-01 3.031720519065856934e-01
5.317094326019287109e-01 8.096525073051452637e-02 -7.442314922809600830e-02
2.955228090286254883e-01 -7.074698805809020996e-02 1.016884669661521912e-01
6.024422049522399902e-01 -2.326590195298194885e-02 -3.489798903465270996e-01
5.692700743675231934e-01 -2.238362878561019897e-01 -3.156012296676635742e-02
6.358265280723571777e-01 -2.007821798324584961e-01 -2.139983922243118286e-01
5.664793848991394043e-01 -3.960371762514114380e-02 -3.599594235420227051e-01
8.165704011917114258e-01 -1.322783082723617554e-01 -2.613876163959503174e-01
8.080049157142639160e-01 -2.256789505481719971e-01 -2.836136892437934875e-02
4.573223888874053955e-01 -1.600809395313262939e-01 2.170703262090682983e-01
7.759239077568054199e-01 -1.742508634924888611e-02 1.746917814016342163e-01
3.615187406539916992e-01 -6.234001368284225464e-02 2.372482419013977051e-01
4.217708706855773926e-01 3.083775937557220459e-02 2.127502113580703735e-01
3.971953392028808594e-01 -1.341010630130767822e-01 1.979091316461563110e-01
7.703039646148681641e-01 1.165015995502471924e-02 7.467070221900939941e-02
5.940414071083068848e-01 -2.271669059991836548e-01 -4.884826391935348511e-02
4.206349253654479980e-01 -1.741010248661041260e-01 -6.083621829748153687e-02
4.513760805130004883e-01 7.708343863487243652e-02 5.847542732954025269e-02
6.181151270866394043e-01 -6.490178406238555908e-03 -3.297082185745239258e-01
4.498131871223449707e-01 -1.666651070117950439e-01 -1.692250072956085205e-01
5.783458352088928223e-01 2.751567214727401733e-02 2.320300340652465820e-01
6.667799949645996094e-01 -1.255137026309967041e-01 -3.389371037483215332e-01
5.397875905036926270e-01 5.362206697463989258e-02 1.702893376350402832e-01
7.105010151863098145e-01 -3.901263326406478882e-02 -3.218149542808532715e-01
3.745003342628479004e-01 7.648423314094543457e-03 2.180965542793273926e-01
7.736563682556152344e-01 -3.948182240128517151e-02 2.235428392887115479e-01
6.412726044654846191e-01 -1.341512799263000488e-01 -3.333435952663421631e-01
6.805163621902465820e-01 -2.139951884746551514e-01 1.974063664674758911e-01
5.803849101066589355e-01 -1.788078248500823975e-01 2.659025490283966064e-01
9.035103321075439453e-01 -1.606443524360656738e-01 -7.601209729909896851e-02
3.793950080871582031e-01 4.612234979867935181e-02 -1.947198063135147095e-01
5.866614580154418945e-01 -1.939364671707153320e-01 2.336947321891784668e-01
8.513022065162658691e-01 -4.752684012055397034e-02 1.049499288201332092e-01
9.150823950767517090e-01 -1.255910694599151611e-01 -5.016214400529861450e-02
2.719441354274749756e-01 -4.749462381005287170e-02 1.160696893930435181e-02
8.118075132369995117e-01 -4.335321485996246338e-03 2.484299056231975555e-02
4.543083608150482178e-01 7.291452586650848389e-02 8.816368877887725830e-02
6.318122148513793945e-01 5.704617500305175781e-02 -1.598054617643356323e-01
4.991282522678375244e-01 -2.058369368314743042e-01 -3.714567795395851135e-02
3.584747314453125000e-01 6.181862950325012207e-02 -9.973076730966567993e-02
3.199773430824279785e-01 4.922948777675628662e-02 7.307019084692001343e-03
6.420246958732604980e-01 -2.350193411111831665e-01 5.061316490173339844e-02
5.003497600555419922e-01 6.048971414566040039e-02 1.516986042261123657e-01
4.040282964706420898e-01 4.845294356346130371e-02 -2.111129909753799438e-01
3.778080344200134277e-01 3.321564942598342896e-02 -2.217855453491210938e-01
8.048834204673767090e-01 -1.535838544368743896e-01 2.446946203708648682e-01
3.365269899368286133e-01 -3.401699662208557129e-02 -2.268207967281341553e-01
6.773538589477539062e-01 3.098080307245254517e-02 -2.199864387512207031e-01
7.285322546958923340e-01 2.740252017974853516e-02 -1.567332595586776733e-01
6.719197630882263184e-01 -1.968914866447448730e-01 -2.302840948104858398e-01
5.482534766197204590e-01 -2.110905200242996216e-01 1.366973668336868286e-01
6.957271695137023926e-01 -1.647534072399139404e-01 -2.919222414493560791e-01
4.951722621917724609e-01 -1.877900063991546631e-01 1.765725612640380859e-01
5.069673657417297363e-01 -2.073593288660049438e-01 7.765247672796249390e-02
3.908932805061340332e-01 7.075789570808410645e-02 4.447598010301589966e-02
7.355805635452270508e-01 3.223431855440139771e-02 3.189954906702041626e-02
7.932805418968200684e-01 8.004605770111083984e-03 -2.518268302083015442e-03
8.666923046112060547e-01 -1.933256089687347412e-01 -9.436843544244766235e-02
8.651114106178283691e-01 -5.467103421688079834e-02 8.469887077808380127e-02
3.185228109359741211e-01 1.094349697232246399e-01 2.756677269935607910e-01
2.117109894752502441e-01 1.040523499250411987e-02 -1.341560184955596924e-01
4.182989001274108887e-01 -1.261403411626815796e-02 2.210456579923629761e-01
4.824882745742797852e-01 1.924001052975654602e-02 4.600925371050834656e-02
2.444056421518325806e-01 -9.728224575519561768e-02 -5.041511356830596924e-02
2.296814322471618652e-01 1.521248370409011841e-01 1.651251129806041718e-02
3.046364784240722656e-01 -7.601328939199447632e-02 -1.926629245281219482e-01
2.669674754142761230e-01 6.312223523855209351e-02 -2.087068110704421997e-01
3.236512243747711182e-01 1.761549711227416992e-01 2.174074500799179077e-01
2.141745537519454956e-01 -1.080655306577682495e-02 -1.335580050945281982e-01
4.643976688385009766e-01 -2.805985510349273682e-02 -2.883958816528320312e-02
3.410323262214660645e-01 2.044463753700256348e-01 -3.815278783440589905e-02
3.604280948638916016e-01 -4.766254127025604248e-02 2.239808142185211182e-01
3.776685893535614014e-01 6.915663182735443115e-02 -2.153164893388748169e-01
2.218237072229385376e-01 7.998717576265335083e-02 -1.310687214136123657e-01
2.119917124509811401e-01 1.189381629228591919e-01 6.868422031402587891e-02
2.835425436496734619e-01 1.316694021224975586e-01 -1.634857058525085449e-01
4.680672585964202881e-01 8.376343548297882080e-02 -6.572531908750534058e-02
4.069187641143798828e-01 -1.032202839851379395e-01 1.939668133854866028e-02
2.736575603485107422e-01 1.586827635765075684e-01 -1.093158125877380371e-01
2.470625191926956177e-01 -7.353021204471588135e-02 -1.398762464523315430e-01
3.838193118572235107e-01 2.855653874576091766e-02 -2.209338694810867310e-01
2.205763161182403564e-01 6.210531294345855713e-02 -1.423870176076889038e-01
4.350942671298980713e-01 1.197107285261154175e-01 2.244293093681335449e-01
1.948916912078857422e-01 2.113802358508110046e-02 -6.687027961015701294e-02
4.417272508144378662e-01 1.689831018447875977e-01 1.300960332155227661e-01
3.474296927452087402e-01 2.164658308029174805e-01 3.568856418132781982e-02
4.066753983497619629e-01 1.981236487627029419e-01 9.946419857442378998e-03
3.573340475559234619e-01 6.105150282382965088e-02 -2.285235971212387085e-01
2.005312293767929077e-01 9.585735201835632324e-02 2.888664416968822479e-02
3.006138205528259277e-01 -5.741909891366958618e-02 2.019810825586318970e-01
3.221458494663238525e-01 2.123039066791534424e-01 1.038150787353515625e-01
3.913407325744628906e-01 2.995090186595916748e-02 2.716343998908996582e-01
3.941346406936645508e-01 2.088770270347595215e-01 6.515301764011383057e-02
4.205920994281768799e-01 1.642050445079803467e-01 -7.084053754806518555e-02
2.830710411071777344e-01 8.266459405422210693e-02 2.598582804203033447e-01
3.071373403072357178e-01 -2.809373289346694946e-02 -2.311605066061019897e-01
3.406263589859008789e-01 1.758581697940826416e-01 2.247511744499206543e-01
3.646957576274871826e-01 -3.450829535722732544e-02 2.375420331954956055e-01
4.210740625858306885e-01 1.928838193416595459e-01 3.966185450553894043e-02
4.149257540702819824e-01 -8.423715829849243164e-02 9.921070188283920288e-02
3.558076918125152588e-01 2.169079706072807312e-02 2.796541452407836914e-01
2.912936210632324219e-01 2.201250940561294556e-02 2.602114677429199219e-01
2.373437285423278809e-01 -4.443868249654769897e-02 1.400521695613861084e-01
4.726709723472595215e-01 1.833237335085868835e-02 1.302662938833236694e-01
3.275388181209564209e-01 2.136587947607040405e-01 2.061217464506626129e-02
2.633821666240692139e-01 1.834940761327743530e-01 9.471084177494049072e-02
4.778308868408203125e-01 3.971870988607406616e-03 6.925109028816223145e-02
2.277585268020629883e-01 -2.447299659252166748e-02 1.440341174602508545e-01
2.716507911682128906e-01 -4.883598536252975464e-02 1.880073845386505127e-01
4.775189161300659180e-01 7.688285410404205322e-02 -2.995966747403144836e-02
2.175695747137069702e-01 1.342015862464904785e-01 2.164969034492969513e-02
4.515259861946105957e-01 2.862231619656085968e-02 2.005622386932373047e-01
3.633096814155578613e-01 1.855920106172561646e-01 2.086687833070755005e-01
2.544340789318084717e-01 9.686599671840667725e-02 -1.722349077463150024e-01
2.025289535522460938e-01 5.420066416263580322e-02 1.079367026686668396e-01
2.709656357765197754e-01 1.797832846641540527e-01 1.388121247291564941e-01
3.234108686447143555e-01 -4.877900332212448120e-02 2.226193994283676147e-01
4.632407724857330322e-01 3.481643646955490112e-02 1.760771125555038452e-01
3.067988157272338867e-01 -1.268505007028579712e-01 1.578529924154281616e-02
2.788500189781188965e-01 1.610585451126098633e-01 1.959659010171890259e-01
4.015814065933227539e-01 3.653476759791374207e-02 -2.049435377120971680e-01
4.703377485275268555e-01 9.641300886869430542e-02 -4.457813501358032227e-02
2.311460971832275391e-01 1.175467818975448608e-01 1.571411639451980591e-01
2.301137149333953857e-01 6.166670843958854675e-02 1.880039125680923462e-01
4.672022163867950439e-01 -2.959994226694107056e-02 2.316213957965373993e-02
4.050200283527374268e-01 -1.050564646720886230e-01 6.210356950759887695e-04
4.190522730350494385e-01 1.788745671510696411e-01 -3.638545796275138855e-02
2.577901780605316162e-01 -2.501608431339263916e-02 -2.027942985296249390e-01
4.353242218494415283e-01 -9.294111281633377075e-03 2.000928223133087158e-01
3.201085031032562256e-01 -9.253132343292236328e-02 1.526338309049606323e-01
2.329901307821273804e-01 8.347505331039428711e-02 -1.514828503131866455e-01
3.410496711730957031e-01 4.747579619288444519e-02 -2.371454089879989624e-01
2.721116840839385986e-01 -1.929049938917160034e-02 2.189031243324279785e-01
3.433556258678436279e-01 2.161180078983306885e-01 9.613189101219177246e-02
2.652408778667449951e-01 -1.080245375633239746e-01 -8.198436349630355835e-02
4.633312821388244629e-01 9.058763086795806885e-02 1.805629879236221313e-01
3.003306686878204346e-01 1.487882137298583984e-01 -1.512159109115600586e-01
2.346478551626205444e-01 1.546981930732727051e-01 8.397684246301651001e-02
3.227771818637847900e-01 -1.291822344064712524e-01 8.389288559556007385e-03
2.332437187433242798e-01 1.012841910123825073e-01 -1.334571838378906250e-01
4.538131654262542725e-01 1.289820075035095215e-01 -5.714394152164459229e-02
2.223650217056274414e-01 -5.878644436597824097e-02 6.948561966419219971e-02
2.545315325260162354e-01 -5.730302631855010986e-02 1.530648767948150635e-01
3.636943697929382324e-01 -8.805853128433227539e-02 1.578078418970108032e-01
4.515310823917388916e-01 -4.814799875020980835e-02 8.717466145753860474e-02
2.723064422607421875e-01 -1.111403852701187134e-01 4.508507251739501953e-02
3.498569726943969727e-01 -3.417381644248962402e-02 -2.248843312263488770e-01
3.197256922721862793e-01 5.007766187191009521e-02 2.831531763076782227e-01
4.461644887924194336e-01 -3.230335563421249390e-02 1.459006071090698242e-01
3.022498190402984619e-01 1.266552358865737915e-01 -1.811283528804779053e-01
4.568595290184020996e-01 -3.267414867877960205e-03 1.600930690765380859e-01
3.189537227153778076e-01 -1.116407066583633423e-01 1.025259122252464294e-01
4.198213517665863037e-01 -9.358564019203186035e-02 1.161599252372980118e-02
4.230397045612335205e-01 8.782526105642318726e-02 2.534324526786804199e-01
3.665620386600494385e-01 -1.096367090940475464e-01 -1.102249324321746826e-01
4.111781716346740723e-01 -6.862124055624008179e-02 -1.319283694028854370e-01
1.969154030084609985e-01 -1.574026420712471008e-02 -4.419089853763580322e-02
2.323167920112609863e-01 1.046973913908004761e-01 1.732968091964721680e-01
3.415353000164031982e-01 -1.183497160673141479e-01 7.933168113231658936e-02
3.573960363864898682e-01 -1.221370548009872437e-01 4.701956734061241150e-02
4.831524491310119629e-01 2.760126255452632904e-02 6.707152724266052246e-02
4.804439544677734375e-01 1.026732474565505981e-01 5.499618500471115112e-02
3.650333285331726074e-01 -1.015671938657760620e-01 -1.343184560537338257e-01
4.353451132774353027e-01 7.975677400827407837e-02 2.390503883361816406e-01
2.113756686449050903e-01 4.536921530961990356e-02 -1.282343715429306030e-01
4.637079834938049316e-01 1.053181290626525879e-01 -5.927991867065429688e-02
3.980330228805541992e-01 8.617725223302841187e-03 2.564927935600280762e-01
4.258357882499694824e-01 1.124377846717834473e-01 2.418085336685180664e-01
2.295781970024108887e-01 1.380872428417205811e-01 1.159242168068885803e-01
4.859208464622497559e-01 5.630119144916534424e-02 4.445969313383102417e-02
3.252518475055694580e-01 -1.284162551164627075e-01 -5.338596552610397339e-02
3.509829342365264893e-01 3.380481153726577759e-03 -2.372359484434127808e-01
2.983333468437194824e-01 -1.257500201463699341e-01 -4.741820693016052246e-02
4.387824535369873047e-01 -5.462293326854705811e-02 1.190710738301277161e-01
2.920535504817962646e-01 1.665286421775817871e-01 -1.140429228544235229e-01
2.275593131780624390e-01 1.329110562801361084e-01 -6.215748935937881470e-02
2.438581883907318115e-01 -6.019918620586395264e-02 1.285560727119445801e-01
2.783600687980651855e-01 -1.091682761907577515e-01 6.840980052947998047e-02
4.710464477539062500e-01 -9.254816919565200806e-03 9.114816039800643921e-02
4.242729246616363525e-01 -7.308875024318695068e-02 1.099539473652839661e-01
3.569884598255157471e-01 -1.224391013383865356e-01 -6.789579242467880249e-02
4.832808971405029297e-01 4.711598530411720276e-02 9.273049235343933105e-02
2.682354152202606201e-01 1.062382087111473083e-01 -1.786467283964157104e-01
4.389909207820892334e-01 1.608905196189880371e-01 -3.401421755552291870e-02
2.424014806747436523e-01 -3.471210598945617676e-02 1.626904308795928955e-01
3.713398575782775879e-01 -1.151120066642761230e-01 -8.134551346302032471e-02
2.807077169418334961e-01 -1.113064140081405640e-01 -1.026901751756668091e-01
4.011988937854766846e-01 9.841229021549224854e-02 -1.799604296684265137e-01
3.476044535636901855e-01 9.156742691993713379e-02 -2.158639878034591675e-01
2.418962717056274414e-01 -9.630912542343139648e-02 -2.999396622180938721e-02
4.408156573772430420e-01 1.321216523647308350e-01 2.038225978612899780e-01
3.960640132427215576e-01 6.662312150001525879e-02 -2.025269269943237305e-01
3.221156895160675049e-01 -1.212549507617950439e-01 6.631669402122497559e-02
2.496131658554077148e-01 -1.013318300247192383e-01 1.077450439333915710e-02
2.420592755079269409e-01 1.540023982524871826e-01 -5.265774577856063843e-02
4.850245118141174316e-01 6.993499398231506348e-02 3.020832128822803497e-02
2.523549199104309082e-01 -7.988007366657257080e-02 1.058141291141510010e-01
4.724687337875366211e-01 1.101405769586563110e-01 -1.308688148856163025e-02
4.411017596721649170e-01 1.488879770040512085e-01 1.814106851816177368e-01
3.464167714118957520e-01 -7.698699086904525757e-02 1.844599545001983643e-01
2.498028874397277832e-01 7.210083305835723877e-02 2.218486368656158447e-01
4.698247909545898438e-01 5.437140166759490967e-02 1.640667617321014404e-01
2.387069761753082275e-01 1.875698566436767578e-03 1.886601746082305908e-01
2.662790715694427490e-01 1.634013503789901733e-01 -8.711205422878265381e-02
4.730447530746459961e-01 6.774336099624633789e-02 -5.701692402362823486e-02
2.798497676849365234e-01 -1.187877357006072998e-01 -5.866733193397521973e-02
3.415432870388031006e-01 1.836318969726562500e-01 -9.914123266935348511e-02
4.779477417469024658e-01 1.075401008129119873e-01 9.103171527385711670e-02
2.342861592769622803e-01 -5.842301249504089355e-02 -1.370712667703628540e-01
3.905530273914337158e-01 -9.315590560436248779e-02 -1.196630895137786865e-01
4.471220374107360840e-01 -6.298489868640899658e-02 3.774568811058998108e-02
3.698055744171142578e-01 2.153280377388000488e-01 4.978737980127334595e-02
3.820617794990539551e-01 -6.894100457429885864e-03 -2.180074304342269897e-01
3.710761070251464844e-01 1.041391640901565552e-01 -1.981375962495803833e-01
3.627108931541442871e-01 -7.942069321870803833e-03 -2.299810498952865601e-01
3.817498683929443359e-01 -5.137776583433151245e-02 2.096754163503646851e-01
2.914339005947113037e-01 7.644842565059661865e-02 -2.180583328008651733e-01
2.815109193325042725e-01 -1.048091650009155273e-01 8.974575251340866089e-02
4.759130477905273438e-01 1.009173840284347534e-01 1.219528615474700928e-01
1.981880813837051392e-01 8.698111772537231445e-02 -7.712382823228836060e-03
3.386678993701934814e-01 2.090347111225128174e-01 -1.754787564277648926e-02
3.041903078556060791e-01 -7.381507754325866699e-02 1.801061779260635376e-01
2.295935750007629395e-01 3.563903272151947021e-02 -1.719501763582229614e-01
2.123476266860961914e-01 1.243202239274978638e-01 3.707467019557952881e-02
1.945206075906753540e-01 -5.422469228506088257e-03 2.580802142620086670e-02
2.122832685708999634e-01 6.189587712287902832e-02 -1.211744695901870728e-01
2.673458456993103027e-01 1.732556074857711792e-01 -6.169912964105606079e-02
2.915403544902801514e-01 -5.722461640834808350e-02 -2.070084661245346069e-01
2.138725519180297852e-01 -9.857155382633209229e-03 1.219085752964019775e-01
4.615674912929534912e-01 1.258105933666229248e-01 -3.532742708921432495e-02
3.284081816673278809e-01 -7.169656455516815186e-02 1.926387101411819458e-01
3.571556210517883301e-01 1.597701311111450195e-01 -1.411470472812652588e-01
2.810337245464324951e-01 -1.193778216838836670e-01 1.532905921339988708e-02
2.409050166606903076e-01 -6.614790856838226318e-02 1.104527041316032410e-01
4.552856385707855225e-01 -2.745100855827331543e-02 -7.798456400632858276e-02
2.624743580818176270e-01 1.643558740615844727e-01 1.589941978454589844e-01
2.586394548416137695e-01 1.425004154443740845e-01 -1.182010024785995483e-01
3.046638071537017822e-01 -1.171493977308273315e-01 7.312475144863128662e-02
4.565970897674560547e-01 -4.226826876401901245e-02 -3.730639815330505371e-02
3.913384974002838135e-01 5.153984576463699341e-02 -2.115199416875839233e-01
3.245330452919006348e-01 -1.003983765840530396e-01 -1.573085486888885498e-01
4.018818140029907227e-01 -8.308726549148559570e-02 1.302855461835861206e-01
3.776171505451202393e-01 -1.121169477701187134e-01 7.035091519355773926e-02
2.885352373123168945e-01 1.551933437585830688e-01 2.171994000673294067e-01
2.690753042697906494e-01 1.363580524921417236e-01 -1.427327543497085571e-01
3.528341948986053467e-01 -1.101735830307006836e-01 -1.230304092168807983e-01
2.954388558864593506e-01 -4.223421216011047363e-02 -2.199925184249877930e-01
4.779458045959472656e-01 4.762412607669830322e-02 -3.962040692567825317e-02
2.432699203491210938e-01 3.076057136058807373e-02 2.094209045171737671e-01
3.295638859272003174e-01 -8.548961579799652100e-02 1.690085083246231079e-01
3.573884665966033936e-01 1.872607767581939697e-01 -8.743425458669662476e-02
2.743208408355712891e-01 2.339113317430019379e-02 -2.255710661411285400e-01
3.028519451618194580e-01 6.664676964282989502e-02 -2.277369946241378784e-01
4.469552934169769287e-01 -5.823526531457901001e-02 7.190201431512832642e-02
3.820323348045349121e-01 6.019078195095062256e-03 2.642203569412231445e-01
4.539120793342590332e-01 1.060067266225814819e-01 -8.803547173738479614e-02
4.747013151645660400e-01 1.304230280220508575e-02 1.133124530315399170e-01
1.910474449396133423e-01 1.223840564489364624e-02 -1.877156272530555725e-02
3.988420367240905762e-01 1.948287934064865112e-01 -2.486182749271392822e-02
4.669719934463500977e-01 1.276657283306121826e-01 -4.648257046937942505e-03
3.102436661720275879e-01 1.870526373386383057e-01 -8.073723316192626953e-02
3.061845004558563232e-01 -1.098234355449676514e-01 -1.320279687643051147e-01
3.408445417881011963e-01 6.849321722984313965e-02 -2.298049777746200562e-01
2.663051486015319824e-01 -1.365434378385543823e-03 2.257058322429656982e-01
2.148745656013488770e-01 -5.807869881391525269e-02 -6.325607001781463623e-02
4.318564236164093018e-01 1.856064349412918091e-01 7.856946438550949097e-02
3.634937703609466553e-01 -6.765810400247573853e-02 1.953275203704833984e-01
4.536925554275512695e-01 7.320918142795562744e-03 -1.158013194799423218e-01
4.029620885848999023e-01 -6.418022513389587402e-02 1.700793057680130005e-01
4.511794447898864746e-01 1.203468292951583862e-01 -7.789627462625503540e-02
4.523926973342895508e-01 1.573452204465866089e-01 1.205573603510856628e-01
4.186035692691802979e-01 -5.999706685543060303e-02 1.544630080461502075e-01
2.819411754608154297e-01 -9.448024630546569824e-02 1.197433993220329285e-01
4.407250285148620605e-01 7.313252240419387817e-02 -1.411425024271011353e-01
3.493503928184509277e-01 6.469287723302841187e-02 2.903765439987182617e-01
4.581585824489593506e-01 -1.023933291435241699e-02 -8.959513157606124878e-02
3.988308012485504150e-01 1.862893700599670410e-01 -5.323038250207901001e-02
1.899774223566055298e-01 2.675425633788108826e-02 -3.167154267430305481e-03
4.419254958629608154e-01 1.727103143930435181e-01 2.529039978981018066e-02
2.108087390661239624e-01 7.889017462730407715e-02 -1.008049398660659790e-01
2.399336546659469604e-01 2.667645551264286041e-02 -1.899850666522979736e-01
2.288577556610107422e-01 -1.270964369177818298e-02 1.583175361156463623e-01
2.832131981849670410e-01 -7.553674280643463135e-03 2.381399273872375488e-01
4.260171055793762207e-01 -4.287801682949066162e-02 1.721607893705368042e-01
2.513965666294097900e-01 1.160129457712173462e-01 2.037657499313354492e-01
2.856559753417968750e-01 1.140935644507408142e-01 -1.852180957794189453e-01
2.801393568515777588e-01 -1.207505911588668823e-01 -2.962943166494369507e-02
4.553934931755065918e-01 -3.604340553283691406e-02 -6.135026365518569946e-02
3.505761921405792236e-01 2.131410390138626099e-01 1.229018792510032654e-01
3.420519530773162842e-01 1.940708756446838379e-01 -7.258195430040359497e-02
4.660935401916503906e-01 1.363071352243423462e-01 1.876384206116199493e-02
2.960796058177947998e-01 -3.441593796014785767e-02 2.254158407449722290e-01
3.932110071182250977e-01 1.784474104642868042e-01 -8.091011643409729004e-02
3.295848667621612549e-01 2.062065005302429199e-01 1.471005678176879883e-01
2.520530819892883301e-01 1.637385189533233643e-01 1.314704269170761108e-01
4.832968115806579590e-01 2.700157463550567627e-02 1.870516501367092133e-02
2.826795578002929688e-01 5.324079841375350952e-02 -2.242123335599899292e-01
2.022677361965179443e-01 7.836139202117919922e-02 9.093739837408065796e-02
2.055334895849227905e-01 -5.718242377042770386e-03 9.631603956222534180e-02
3.319491147994995117e-01 2.159263491630554199e-01 8.210952579975128174e-02
1.954055875539779663e-01 5.073222517967224121e-02 -5.895496159791946411e-02
4.722380638122558594e-01 1.253167837858200073e-01 9.143361449241638184e-02
2.144657820463180542e-01 -6.207538396120071411e-02 -4.247620701789855957e-03
4.005902111530303955e-01 -2.740418910980224609e-02 -1.911369115114212036e-01
2.758285999298095703e-01 3.237797692418098450e-02 2.508160471916198730e-01
4.375512301921844482e-01 1.778696775436401367e-01 1.073920875787734985e-01
2.920113205909729004e-01 1.578400135040283203e-01 -1.306054145097732544e-01
4.534481763839721680e-01 1.609665155410766602e-01 4.445233941078186035e-02
2.528341412544250488e-01 9.433668851852416992e-02 2.196408659219741821e-01
2.038377374410629272e-01 -1.509531587362289429e-02 7.668204605579376221e-02
2.879163026809692383e-01 -1.094287186861038208e-01 -1.191138476133346558e-01
3.835995793342590332e-01 -1.172668337821960449e-01 -7.634229958057403564e-03
4.550092220306396484e-01 6.732980161905288696e-02 -1.134509891271591187e-01
4.477010369300842285e-01 1.691825687885284424e-01 7.886010408401489258e-02
2.075424343347549438e-01 -3.795401006937026978e-02 -7.648306339979171753e-02
4.128369092941284180e-01 2.057513035833835602e-02 2.512145936489105225e-01
4.472166597843170166e-01 9.027507901191711426e-02 2.178093641996383667e-01
4.259138405323028564e-01 1.905477494001388550e-01 6.150741875171661377e-02
4.731123149394989014e-01 -1.287643238902091980e-02 2.500861883163452148e-03
3.847765028476715088e-01 1.776174753904342651e-01 2.138166278600692749e-01
4.434571266174316406e-01 7.321339100599288940e-03 -1.401975899934768677e-01
3.921367824077606201e-01 -1.663663983345031738e-02 -2.057264298200607300e-01
2.790802121162414551e-01 -2.906674146652221680e-02 -2.188287526369094849e-01
2.732391357421875000e-01 -7.360111922025680542e-02 1.528176367282867432e-01
3.940218985080718994e-01 2.086657136678695679e-01 8.384577929973602295e-02
4.467475414276123047e-01 4.706393927335739136e-03 1.926020532846450806e-01
2.171674817800521851e-01 7.639325410127639771e-02 1.515368521213531494e-01
3.692990243434906006e-01 1.963713467121124268e-01 -5.618922412395477295e-02
2.877636551856994629e-01 2.016799449920654297e-01 2.805940061807632446e-02
3.658773899078369141e-01 -2.050706744194030762e-02 2.505503296852111816e-01
2.041401863098144531e-01 2.764509245753288269e-02 1.135701537132263184e-01
2.172999978065490723e-01 -3.938058763742446899e-02 9.298255294561386108e-02
4.539690017700195312e-01 6.298244744539260864e-02 2.070464640855789185e-01
2.513185441493988037e-01 -2.982763200998306274e-02 1.829377412796020508e-01
4.833872914314270020e-01 4.643486812710762024e-02 -1.108800992369651794e-03
2.978183031082153320e-01 6.211261451244354248e-02 2.730854749679565430e-01
4.494244754314422607e-01 3.298417478799819946e-02 -1.326797455549240112e-01
2.617330253124237061e-01 -5.282566696405410767e-02 -1.878226548433303833e-01
