-2.140692770481109619e-01 -2.959679067134857178e-01 -1.898883879184722900e-01
2.180839627981185913e-01 -2.701824307441711426e-01 -1.418162323534488678e-02
7.204024493694305420e-02 -4.445472955703735352e-01 1.589983105659484863e-01
-3.271177411079406738e-01 -3.568973839282989502e-01 -1.807173900306224823e-02
8.250530809164047241e-03 -5.301268100738525391e-01 6.004482973366975784e-03
-3.046921491622924805e-01 -4.445256888866424561e-01 -1.287070959806442261e-01
-1.662725657224655151e-01 -5.211643576622009277e-01 1.371433138847351074e-01
1.904591619968414307e-01 -2.382285892963409424e-01 -9.654538333415985107e-02
-1.855490654706954956e-01 -3.346689343452453613e-01 -2.433612048625946045e-01
-3.528024256229400635e-02 -5.448879003524780273e-01 3.699133638292551041e-03
-1.878779083490371704e-01 -2.879170477390289307e-01 -2.066707611083984375e-01
-3.244071006774902344e-01 -4.507726430892944336e-01 -6.977014243602752686e-02
-8.669219911098480225e-02 -2.661885619163513184e-01 -2.443338334560394287e-01
1.220223158597946167e-01 -4.206607341766357422e-01 1.295689195394515991e-01
3.326416015625000000e-03 -1.743258088827133179e-01 -1.333575695753097534e-01
-2.109391093254089355e-01 -3.409287035465240479e-01 -2.276483923196792603e-01
-1.903163269162178040e-02 -1.741562336683273315e-01 1.680647134780883789e-01
7.938419282436370850e-02 -1.494590044021606445e-01 -1.144966296851634979e-02
-2.626837193965911865e-01 -4.438739418983459473e-01 -1.912218332290649414e-01
-1.816234737634658813e-01 -4.824499189853668213e-01 -2.283329218626022339e-01
-1.389293819665908813e-01 -2.755076885223388672e-01 2.510210275650024414e-01
-2.471635043621063232e-01 -4.645989537239074707e-01 1.726045161485671997e-01
-2.283501327037811279e-01 -5.345225334167480469e-01 -1.134078875184059143e-01
-2.101445943117141724e-02 -2.708467245101928711e-01 -2.594128251075744629e-01
5.691475793719291687e-02 -2.985424399375915527e-01 -2.612896263599395752e-01
1.161706447601318359e-01 -3.429807722568511963e-01 -2.332162708044052124e-01
-3.206605911254882812e-01 -3.531698286533355713e-01 -5.282776802778244019e-02
-1.525805890560150146e-01 -5.574751496315002441e-01 1.963413879275321960e-02
-1.582037210464477539e-01 -2.118953764438629150e-01 1.587593853473663330e-01
-1.829698979854583740e-01 -4.821463823318481445e-01 1.915691792964935303e-01
9.118907153606414795e-02 -4.247252047061920166e-01 1.650909036397933960e-01
-1.188275516033172607e-01 -5.006651878356933594e-01 -2.263410538434982300e-01
-6.204450875520706177e-02 -2.786915898323059082e-01 -2.606824636459350586e-01
2.101769000291824341e-01 -2.998213768005371094e-01 6.261082738637924194e-02
-1.373944878578186035e-01 -1.883354783058166504e-01 -7.291304320096969604e-02
-1.056802272796630859e-01 -1.771997213363647461e-01 -7.762713730335235596e-02
-2.659646868705749512e-01 -5.302448272705078125e-01 -9.377113543450832367e-03
7.176857441663742065e-03 -5.324414372444152832e-01 -5.303275585174560547e-02
-2.143678814172744751e-02 -1.600870788097381592e-01 -8.647675812244415283e-02
-2.922909557819366455e-01 -4.381155967712402344e-01 1.429060846567153931e-01
-3.222406506538391113e-01 -3.425074815750122070e-01 2.693229354918003082e-02
1.246857345104217529e-01 -3.064399659633636475e-01 2.071549892425537109e-01
2.137065306305885315e-02 -1.615653932094573975e-01 1.380320787429809570e-01
-1.356528997421264648e-01 -4.857731461524963379e-01 1.973622292280197144e-01
7.907100021839141846e-02 -4.954400062561035156e-01 -6.717813760042190552e-02
-1.677260398864746094e-01 -1.904028207063674927e-01 3.595924377441406250e-02
-1.023372411727905273e-01 -5.372283458709716797e-01 9.910506010055541992e-02
-1.622384041547775269e-01 -2.839022278785705566e-01 -2.226021140813827515e-01
2.392743155360221863e-02 -2.403924614191055298e-01 -2.316872626543045044e-01
-3.062818348407745361e-01 -3.812202513217926025e-01 1.325130164623260498e-01
-3.108700513839721680e-01 -4.915488362312316895e-01 -4.278147593140602112e-03
-2.342118769884109497e-01 -4.514565765857696533e-01 1.940303146839141846e-01
-3.901163488626480103e-02 -1.543389409780502319e-01 9.774597734212875366e-02
-2.441219687461853027e-01 -5.159430503845214844e-01 -1.395378857851028442e-01
8.379416167736053467e-02 -2.611497938632965088e-01 -2.302265316247940063e-01
1.772856265306472778e-01 -2.062109857797622681e-01 7.181223481893539429e-02
-3.042920529842376709e-01 -4.646106958389282227e-01 -1.145161539316177368e-01
-2.370149195194244385e-01 -5.057807564735412598e-01 1.271031796932220459e-01
-2.646276652812957764e-01 -2.899873852729797363e-01 1.370382755994796753e-01
4.805637523531913757e-02 -3.820462822914123535e-01 -2.697050273418426514e-01
-2.069954946637153625e-02 -3.255749344825744629e-01 -2.863722443580627441e-01
-2.934865653514862061e-01 -5.086038112640380859e-01 -4.491261392831802368e-02
1.676752269268035889e-01 -2.613061070442199707e-01 -1.599132716655731201e-01
1.596094369888305664e-01 -1.840465068817138672e-01 -3.245021402835845947e-02
-2.487333491444587708e-02 -1.455030888319015503e-01 2.533290907740592957e-02
1.375347226858139038e-01 -3.200998902320861816e-01 -2.144449651241302490e-01
-5.799700692296028137e-02 -5.522368550300598145e-01 -4.659581929445266724e-02
1.061526238918304443e-01 -4.784943163394927979e-01 -3.725396096706390381e-02
-3.266929984092712402e-01 -4.414437413215637207e-01 6.183004006743431091e-02
1.528336852788925171e-01 -2.857639193534851074e-01 1.772268712520599365e-01
-2.404215782880783081e-01 -5.233019590377807617e-01 8.573494851589202881e-02
-4.813877120614051819e-02 -2.520083785057067871e-01 2.597405016422271729e-01
-5.272213369607925415e-03 -4.681549668312072754e-01 1.883941143751144409e-01
-6.715758144855499268e-02 -4.814286828041076660e-01 1.965317577123641968e-01
-3.450182452797889709e-02 -4.076429903507232666e-01 2.570652365684509277e-01
2.010103613138198853e-01 -2.242141813039779663e-01 -9.435499086976051331e-03
3.915510699152946472e-02 -4.271909892559051514e-01 -2.528776824474334717e-01
1.409913897514343262e-01 -3.637812435626983643e-01 1.660674810409545898e-01
-2.727998495101928711e-01 -3.414037823677062988e-01 1.741687506437301636e-01
-6.018848344683647156e-02 -3.947771787643432617e-01 2.686160802841186523e-01
7.521164417266845703e-02 -3.245040178298950195e-01 -2.600567042827606201e-01
-2.645419239997863770e-01 -4.863259196281433105e-01 1.299504339694976807e-01
2.022112756967544556e-01 -2.332780063152313232e-01 4.300970584154129028e-02
-1.040267646312713623e-01 -5.588568449020385742e-01 -5.774972587823867798e-02
6.181289628148078918e-02 -1.549378484487533569e-01 -6.508496403694152832e-02
1.449634581804275513e-01 -1.724113523960113525e-01 -1.000641938298940659e-02
1.404916048049926758e-01 -2.615203857421875000e-01 1.858326941728591919e-01
-4.072306305170059204e-02 -4.895503222942352295e-01 -2.297653555870056152e-01
-9.123100340366363525e-02 -5.249996185302734375e-01 1.274522244930267334e-01
3.654983267188072205e-02 -4.626724123954772949e-01 1.662991046905517578e-01
-2.053591459989547729e-01 -3.743910789489746094e-01 2.433487176895141602e-01
-1.722284555435180664e-01 -5.469785332679748535e-01 6.619795411825180054e-02
-1.064485386013984680e-01 -4.449087381362915039e-01 2.398818284273147583e-01
-3.368793725967407227e-01 -4.280260205268859863e-01 4.687216598540544510e-03
1.423813998699188232e-01 -2.409905493259429932e-01 1.734244078397750854e-01
2.227298915386199951e-03 -3.515960276126861572e-01 -2.879314720630645752e-01
-1.730244606733322144e-02 -3.816402554512023926e-01 -2.903637886047363281e-01
-9.194333851337432861e-02 -1.612792909145355225e-01 -1.061311550438404083e-02
-6.978012621402740479e-02 -1.937381774187088013e-01 1.912774145603179932e-01
-1.405384093523025513e-01 -5.582939386367797852e-01 -7.949239760637283325e-02
-3.040684759616851807e-01 -3.092173337936401367e-01 3.468264266848564148e-02
-3.180210292339324951e-01 -4.319918155670166016e-01 -1.033808737993240356e-01
-2.731562554836273193e-01 -4.605847001075744629e-01 1.502542346715927124e-01
2.605051174759864807e-02 -1.912769526243209839e-01 -1.675409972667694092e-01
2.199104875326156616e-01 -2.959579229354858398e-01 -1.303991302847862244e-02
-3.140656650066375732e-01 -3.690422773361206055e-01 1.095823273062705994e-01
-2.918746173381805420e-01 -5.031080245971679688e-01 4.649100452661514282e-02
-2.348709851503372192e-01 -4.246442317962646484e-01 2.103154212236404419e-01
-9.407505393028259277e-02 -1.872901618480682373e-01 1.647965312004089355e-01
-2.019931524991989136e-01 -4.071726799011230469e-01 -2.494911253452301025e-01
-1.276713162660598755e-01 -5.400210618972778320e-01 9.560652077198028564e-02
1.417352259159088135e-01 -4.322606325149536133e-01 6.485534459352493286e-02
-5.703696981072425842e-02 -2.908042073249816895e-01 2.773554921150207520e-01
-2.210384458303451538e-01 -3.567137420177459717e-01 2.326309531927108765e-01
-7.024092227220535278e-02 -1.542502641677856445e-01 6.400442216545343399e-03
-1.088834926486015320e-01 -2.535059452056884766e-01 2.477921992540359497e-01
1.073265522718429565e-01 -1.578041762113571167e-01 5.428345128893852234e-02
-2.051007747650146484e-01 -5.525107979774475098e-01 3.908295650035142899e-03
1.295157223939895630e-01 -2.982934117317199707e-01 -2.181644886732101440e-01
-1.016408503055572510e-01 -5.451825857162475586e-01 7.276300340890884399e-02
-2.748758792877197266e-01 -4.215549230575561523e-01 1.746205091476440430e-01
1.852213889360427856e-01 -2.055813074111938477e-01 -2.831830456852912903e-02
1.010013371706008911e-01 -1.587200164794921875e-01 -4.346794262528419495e-02
-1.478735730051994324e-02 -4.690798521041870117e-01 -2.435008436441421509e-01
2.099400907754898071e-01 -3.428866565227508545e-01 -5.137785151600837708e-02
-2.658035755157470703e-01 -2.686424255371093750e-01 -4.403070360422134399e-02
2.121119946241378784e-01 -3.177306354045867920e-01 4.346473887562751770e-02
1.060787141323089600e-01 -2.437864542007446289e-01 2.083625197410583496e-01
1.269391030073165894e-01 -2.327920943498611450e-01 -1.785675138235092163e-01
1.476159319281578064e-02 -1.760896146297454834e-01 1.727269291877746582e-01
1.002943888306617737e-02 -2.574768364429473877e-01 2.587584853172302246e-01
-2.939653992652893066e-01 -3.643046915531158447e-01 -1.390767842531204224e-01
-2.569087743759155273e-01 -5.179867148399353027e-01 -1.168356537818908691e-01
-7.929278910160064697e-02 -4.950138926506042480e-01 -2.320937812328338623e-01
1.607003659009933472e-01 -3.502673506736755371e-01 -1.818443238735198975e-01
-2.318038344383239746e-01 -3.621506989002227783e-01 -2.192203998565673828e-01
1.497685015201568604e-01 -3.411376178264617920e-01 1.688707023859024048e-01
1.216039359569549561e-01 -2.148573249578475952e-01 1.726216971874237061e-01
-1.982052177190780640e-01 -2.562214136123657227e-01 1.893877983093261719e-01
-1.814608573913574219e-01 -2.204779982566833496e-01 -1.039407849311828613e-01
-1.718394160270690918e-01 -5.166884660720825195e-01 -1.924167126417160034e-01
7.995052635669708252e-02 -3.894049525260925293e-01 2.108610868453979492e-01
-1.859624683856964111e-01 -5.005369186401367188e-01 1.663245260715484619e-01
1.504953205585479736e-01 -1.939602494239807129e-01 -9.085971862077713013e-02
-1.074659004807472229e-01 -1.647089272737503052e-01 3.457032516598701477e-02
-1.662652939558029175e-01 -4.214447140693664551e-01 2.463786453008651733e-01
1.510242819786071777e-01 -4.390192031860351562e-01 -4.280759766697883606e-02
-1.249099671840667725e-01 -2.203500121831893921e-01 2.038347125053405762e-01
8.214790374040603638e-03 -1.428702175617218018e-01 2.151000127196311951e-02
-1.496376693248748779e-01 -5.606889724731445312e-01 -1.687217131257057190e-02
-1.588388532400131226e-01 -2.015306353569030762e-01 -8.433087915182113647e-02
-2.631478309631347656e-01 -3.023369312286376953e-01 -1.296987235546112061e-01
3.191512450575828552e-02 -5.159370899200439453e-01 -1.049249917268753052e-01
-1.572610139846801758e-01 -5.411580801010131836e-01 9.045132994651794434e-02
-6.897887587547302246e-02 -4.465379118919372559e-01 -2.735081017017364502e-01
1.851076260209083557e-02 -5.251768827438354492e-01 -8.458818495273590088e-02
-1.459915041923522949e-01 -1.821790635585784912e-01 -1.783632300794124603e-02
-2.038410007953643799e-01 -3.155729174613952637e-01 -2.172946184873580933e-01
1.407029628753662109e-01 -4.477792382240295410e-01 -6.270510703325271606e-02
1.636140495538711548e-01 -1.885973215103149414e-01 5.617742985486984253e-02
9.213441610336303711e-02 -1.512120217084884644e-01 2.529556676745414734e-02
-7.096442580223083496e-02 -1.761342436075210571e-01 1.530974209308624268e-01
8.577313274145126343e-03 -2.228885143995285034e-01 -2.143492549657821655e-01
-1.096346974372863770e-02 -1.506283134222030640e-01 9.507496654987335205e-02
-4.252538084983825684e-02 -1.820545494556427002e-01 -1.398688256740570068e-01
1.382635533809661865e-01 -3.442679941654205322e-01 -2.118981480598449707e-01
-4.798570647835731506e-02 -5.476199388504028320e-01 -8.055798709392547607e-02
-1.802792847156524658e-01 -2.046943306922912598e-01 9.839291870594024658e-02
3.528809919953346252e-02 -3.107807338237762451e-01 -2.725696265697479248e-01
2.133769541978836060e-01 -3.308645486831665039e-01 1.525145955383777618e-02
1.692503690719604492e-01 -4.078364670276641846e-01 4.349415749311447144e-02
-2.679402530193328857e-01 -4.919412434101104736e-01 -1.470983773469924927e-01
-2.099896669387817383e-01 -2.182515561580657959e-01 -2.137737721204757690e-02
-1.257665455341339111e-01 -4.082497954368591309e-01 2.618240714073181152e-01
2.133854776620864868e-01 -2.722259461879730225e-01 4.520660638809204102e-02
-2.157954126596450806e-02 -1.870634704828262329e-01 1.923948824405670166e-01
-9.708277881145477295e-02 -1.652053296566009521e-01 8.177535235881805420e-02
-2.159259468317031860e-01 -2.565972208976745605e-01 1.676063984632492065e-01
-1.653773337602615356e-01 -5.481590032577514648e-01 -1.226718723773956299e-01
-2.924642264842987061e-01 -3.576576411724090576e-01 1.507209837436676025e-01
-2.355543673038482666e-01 -4.967444837093353271e-01 -1.781747192144393921e-01
-6.640447676181793213e-02 -1.579922437667846680e-01 8.885438740253448486e-02
1.598999798297882080e-01 -3.665328323841094971e-01 1.351726651191711426e-01
-1.762713044881820679e-01 -2.661508321762084961e-01 -1.923531740903854370e-01
-2.255703881382942200e-02 -2.206470817327499390e-01 2.356403619050979614e-01
8.531194180250167847e-03 -2.051093876361846924e-01 -1.907124519348144531e-01
-2.341487556695938110e-01 -3.889480233192443848e-01 -2.244602590799331665e-01
1.693524569272994995e-01 -4.067464470863342285e-01 -9.909911453723907471e-02
-7.397952675819396973e-02 -5.156048536300659180e-01 1.421711146831512451e-01
1.217798441648483276e-01 -3.916920721530914307e-01 1.663278192281723022e-01
-2.345633879303932190e-02 -3.408347368240356445e-01 2.789422571659088135e-01
-2.786155939102172852e-01 -3.028576076030731201e-01 -9.757214039564132690e-02
-2.701655328273773193e-01 -2.670570909976959229e-01 4.601088166236877441e-02
-2.274189144372940063e-01 -3.094754219055175781e-01 2.099860310554504395e-01
7.286471128463745117e-02 -1.526102423667907715e-01 8.067909628152847290e-02
-2.688215672969818115e-01 -3.389106392860412598e-01 -1.617675721645355225e-01
-1.011607572436332703e-01 -5.514587759971618652e-01 4.543555527925491333e-02
-3.508306294679641724e-02 -4.789223670959472656e-01 1.886413842439651489e-01
6.646715104579925537e-02 -4.760140478610992432e-01 1.073902100324630737e-01
1.505888700485229492e-01 -1.759892702102661133e-01 3.390194475650787354e-02
9.219664335250854492e-02 -2.702021002769470215e-01 2.292041480541229248e-01
-1.754258573055267334e-01 -2.469758093357086182e-01 2.004005312919616699e-01
1.659369319677352905e-01 -2.496962845325469971e-01 1.485926061868667603e-01
-3.128700256347656250e-01 -4.840511083602905273e-01 -5.197823792695999146e-02
1.958085745573043823e-01 -2.957419753074645996e-01 1.058284714818000793e-01
-2.954644337296485901e-02 -1.474826633930206299e-01 5.759916827082633972e-02
-2.049209326505661011e-01 -2.355704009532928467e-01 1.445443928241729736e-01
9.856623411178588867e-02 -4.192067384719848633e-01 -2.120916247367858887e-01
1.279141157865524292e-01 -1.896227002143859863e-01 -1.120438575744628906e-01
-1.744261384010314941e-01 -4.247004091739654541e-01 -2.618456780910491943e-01
1.702120602130889893e-01 -2.440117597579956055e-01 -1.415285468101501465e-01
-3.236029744148254395e-01 -3.933728635311126709e-01 9.141246229410171509e-02
2.145642191171646118e-01 -2.883360683917999268e-01 -6.637383997440338135e-02
5.003284662961959839e-03 -2.164851278066635132e-01 2.300391346216201782e-01
1.894629150629043579e-01 -3.899677991867065430e-01 -1.388320699334144592e-02
-3.091762065887451172e-01 -3.227457106113433838e-01 6.023562327027320862e-02
-8.513590693473815918e-02 -4.150788784027099609e-01 2.600663900375366211e-01
-1.426765471696853638e-01 -2.348546385765075684e-01 2.114045917987823486e-01
2.078768983483314514e-02 -2.336690127849578857e-01 2.419620454311370850e-01
-2.675597071647644043e-01 -2.793573737144470215e-01 1.087255626916885376e-01
-2.853200733661651611e-01 -4.698718488216400146e-01 -1.454265117645263672e-01
-2.491524666547775269e-01 -3.583203256130218506e-01 -1.998595148324966431e-01
-2.001964598894119263e-01 -5.398042201995849609e-01 7.543070614337921143e-02
9.227380156517028809e-02 -3.558381497859954834e-01 -2.497294098138809204e-01
1.197056919336318970e-01 -2.607340812683105469e-01 -2.080827057361602783e-01
-1.981400698423385620e-02 -5.363440513610839844e-01 -1.043597906827926636e-01
-1.830674111843109131e-01 -5.399111509323120117e-01 -1.394553631544113159e-01
2.092716246843338013e-01 -3.489967882633209229e-01 -5.940567702054977417e-03
1.681599766016006470e-01 -2.283360511064529419e-01 1.279756873846054077e-01
-1.956988871097564697e-02 -5.002310872077941895e-01 -2.046063244342803955e-01
9.339487552642822266e-02 -4.718602895736694336e-01 6.948626041412353516e-02
-1.873202472925186157e-01 -2.052683979272842407e-01 -3.097030892968177795e-02
-1.503456234931945801e-01 -3.507789373397827148e-01 2.694422602653503418e-01
1.180790737271308899e-02 -4.849758744239807129e-01 -2.087957113981246948e-01
-3.142135590314865112e-02 -3.860124051570892334e-01 2.677149474620819092e-01
-1.712849289178848267e-01 -5.330015420913696289e-01 1.092928126454353333e-01
-7.300466299057006836e-02 -2.344552874565124512e-01 2.423855215311050415e-01
-2.374182343482971191e-01 -2.423729300498962402e-01 -4.321098700165748596e-02
4.789146408438682556e-02 -5.024403333663940430e-01 6.005107238888740540e-02
-8.213395625352859497e-02 -2.041461616754531860e-01 -1.661153137683868408e-01
-1.182403564453125000e-01 -5.271466374397277832e-01 -1.852975040674209595e-01
-1.517442017793655396e-01 -4.267404675483703613e-01 -2.703568041324615479e-01
1.972975879907608032e-01 -2.375994026660919189e-01 7.214050740003585815e-02
-8.797985315322875977e-02 -1.947522014379501343e-01 -1.437247991561889648e-01
-1.184004843235015869e-01 -1.786150336265563965e-01 1.132980436086654663e-01
-7.681225240230560303e-02 -3.939385712146759033e-01 -2.917173206806182861e-01
6.601910293102264404e-02 -1.773663908243179321e-01 1.593412309885025024e-01
-1.639250218868255615e-01 -5.531332492828369141e-01 4.239980503916740417e-02
-9.752271324396133423e-02 -3.052866458892822266e-01 -2.691505849361419678e-01
1.843622773885726929e-01 -3.595913648605346680e-01 9.157570451498031616e-02
6.743460893630981445e-02 -4.404020309448242188e-01 -2.211872339248657227e-01
-1.950316876173019409e-01 -2.095859050750732422e-01 7.660082727670669556e-02
7.726325094699859619e-02 -4.883749485015869141e-01 4.839864373207092285e-02
1.185847073793411255e-01 -3.683091998100280762e-01 -2.248871177434921265e-01
-9.077760577201843262e-02 -5.238765478134155273e-01 -1.892383694648742676e-01
-2.285654470324516296e-02 -5.427407026290893555e-01 -1.671700179576873779e-02
-3.594730794429779053e-02 -5.109809637069702148e-01 1.329361051321029663e-01
6.510873138904571533e-02 -2.381758689880371094e-01 -2.194056063890457153e-01
-4.638311639428138733e-02 -3.389051854610443115e-01 -2.902095019817352295e-01
1.442184150218963623e-01 -3.921920061111450195e-01 -1.788169443607330322e-01
7.076840847730636597e-03 -2.673159241676330566e-01 -2.559064626693725586e-01
9.690013527870178223e-02 -3.217290937900543213e-01 2.285211682319641113e-01
1.199480593204498291e-01 -1.600664258003234863e-01 2.358107827603816986e-02
2.589521929621696472e-02 -1.430602222681045532e-01 3.824001923203468323e-02
-3.171051740646362305e-01 -3.449700474739074707e-01 7.350722700357437134e-02
-2.782689929008483887e-01 -3.260542452335357666e-01 1.547239571809768677e-01
-1.950248703360557556e-02 -2.921504378318786621e-01 2.759624123573303223e-01
1.824997812509536743e-01 -2.708235979080200195e-01 -1.435043066740036011e-01
-2.361660823225975037e-02 -1.580824851989746094e-01 1.224053576588630676e-01
-2.183008939027786255e-02 -5.183922052383422852e-01 -1.694007515907287598e-01
-3.172631189227104187e-02 -2.209701985120773315e-01 -2.093613892793655396e-01
-2.918201088905334473e-01 -3.061857223510742188e-01 -6.550255417823791504e-02
-1.267813146114349365e-01 -2.218092083930969238e-01 -1.681199520826339722e-01
-1.481197476387023926e-01 -1.837195605039596558e-01 7.329474389553070068e-02
-4.574349150061607361e-02 -5.294488072395324707e-01 -1.580932736396789551e-01
-2.352686673402786255e-01 -2.733219861984252930e-01 1.644309908151626587e-01
-7.989647984504699707e-02 -5.564190149307250977e-01 -2.850125543773174286e-02
1.276501268148422241e-01 -1.983283013105392456e-01 1.453621834516525269e-01
-3.356814086437225342e-01 -4.124172329902648926e-01 -3.550231456756591797e-02
4.324032738804817200e-02 -3.886276483535766602e-01 2.369650602340698242e-01
1.281015574932098389e-04 -4.284893274307250977e-01 2.295191586017608643e-01
-4.928451031446456909e-03 -5.201710462570190430e-01 -1.486594974994659424e-01
1.075440794229507446e-01 -2.962639927864074707e-01 -2.343816906213760376e-01
-1.360578387975692749e-01 -2.412158995866775513e-01 -1.915272176265716553e-01
-1.727281659841537476e-01 -1.945263147354125977e-01 6.000519916415214539e-02
-3.333524763584136963e-01 -4.253806173801422119e-01 4.592569544911384583e-02
1.441893577575683594e-01 -4.387114346027374268e-01 3.417371585965156555e-02
4.973707720637321472e-02 -1.586929410696029663e-01 1.213337108492851257e-01
2.048271149396896362e-01 -2.349821329116821289e-01 -3.563648834824562073e-02
8.400692045688629150e-02 -2.054314911365509033e-01 -1.729669421911239624e-01
-2.234994620084762573e-01 -2.446333169937133789e-01 -9.073250740766525269e-02
-1.937448680400848389e-01 -5.259446501731872559e-01 1.168476417660713196e-01
-1.281408369541168213e-01 -5.593413710594177246e-01 3.649397287517786026e-03
3.520903363823890686e-02 -2.721575796604156494e-01 2.578039765357971191e-01
-2.501664161682128906e-01 -5.383324623107910156e-01 -3.829503804445266724e-02
-1.293193548917770386e-03 -1.466244459152221680e-01 -2.853169664740562439e-02
1.595400869846343994e-01 -1.910792142152786255e-01 -6.407457590103149414e-02
-2.080522477626800537e-03 -3.240701258182525635e-01 2.757492363452911377e-01
-1.155034527182579041e-01 -1.976062804460525513e-01 -1.282442212104797363e-01
1.228592246770858765e-01 -2.122243940830230713e-01 -1.568125933408737183e-01
-2.129142880439758301e-01 -3.317385613918304443e-01 2.333303242921829224e-01
-8.027593791484832764e-02 -1.814711391925811768e-01 -1.168901473283767700e-01
1.842150390148162842e-01 -3.761236965656280518e-01 6.669844686985015869e-02
-1.941329240798950195e-01 -2.059488743543624878e-01 7.141055539250373840e-05
-6.349439918994903564e-02 -3.212869763374328613e-01 -2.836370468139648438e-01
-6.537747383117675781e-02 -2.187813073396682739e-01 -1.974711865186691284e-01
-8.946049213409423828e-02 -5.429811477661132812e-01 -1.407710909843444824e-01
-1.336992233991622925e-01 -3.752190470695495605e-01 2.715368866920471191e-01
-9.849602729082107544e-02 -2.924988567829132080e-01 2.728912532329559326e-01
4.360323026776313782e-02 -1.691875457763671875e-01 1.519172340631484985e-01
-4.447830095887184143e-02 -4.277672171592712402e-01 2.457164674997329712e-01
-1.711353212594985962e-01 -3.397108316421508789e-01 2.603886425495147705e-01
-2.753730118274688721e-02 -1.692468523979187012e-01 -1.132327467203140259e-01
-4.827576130628585815e-02 -1.674283444881439209e-01 -9.747120738029479980e-02
9.923562407493591309e-02 -3.926819860935211182e-01 -2.312252223491668701e-01
-3.036709129810333252e-01 -4.900542497634887695e-01 -7.463602721691131592e-02
-2.819931507110595703e-01 -3.979359567165374756e-01 -1.722296029329299927e-01
7.446150481700897217e-02 -4.809860587120056152e-01 -1.454411447048187256e-01
-2.678237557411193848e-01 -3.990834057331085205e-01 -1.910139471292495728e-01
2.031415253877639771e-01 -3.056354522705078125e-01 8.434619754552841187e-02
1.194029301404953003e-01 -4.668830633163452148e-01 -3.498837817460298538e-03
-2.206523567438125610e-01 -3.971135020256042480e-01 2.301214933395385742e-01
1.849059015512466431e-01 -2.040890455245971680e-01 2.740871347486972809e-02
6.365640461444854736e-02 -1.932354122400283813e-01 -1.624625921249389648e-01
-1.234758794307708740e-01 -2.547469735145568848e-01 -2.166312783956527710e-01
-3.123989701271057129e-01 -3.673723340034484863e-01 -1.001400947570800781e-01
-1.206927224993705750e-01 -1.745327562093734741e-01 8.912647515535354614e-02
6.081336364150047302e-02 -2.264411449432373047e-01 2.232255637645721436e-01
-1.607708036899566650e-01 -3.509909510612487793e-01 -2.646331191062927246e-01
4.003575071692466736e-02 -4.162910580635070801e-01 2.182006239891052246e-01
-1.777567714452743530e-01 -5.553921461105346680e-01 -7.940463721752166748e-02
-2.641890943050384521e-01 -4.770718216896057129e-01 -1.684598922729492188e-01
-1.882929652929306030e-01 -2.147636711597442627e-01 -7.315772771835327148e-02
7.143820822238922119e-02 -4.972673654556274414e-01 2.079646661877632141e-02
-1.369840353727340698e-01 -4.419212341308593750e-01 2.400343120098114014e-01
1.989032179117202759e-01 -3.637635111808776855e-01 3.205736726522445679e-02
-2.863659262657165527e-01 -4.761970639228820801e-01 1.143284067511558533e-01
6.611276417970657349e-03 -1.588221937417984009e-01 -8.979797363281250000e-02
-8.629751950502395630e-02 -3.807704746723175049e-01 2.754562497138977051e-01
3.774437680840492249e-02 -4.892871081829071045e-01 1.147977858781814575e-01
2.901959046721458435e-02 -3.162918686866760254e-01 2.664128541946411133e-01
-4.125934094190597534e-02 -1.982136070728302002e-01 -1.726706922054290771e-01
2.021483927965164185e-01 -3.421825766563415527e-01 -9.499008953571319580e-02
-6.117898970842361450e-02 -4.663234353065490723e-01 2.135884463787078857e-01
-3.316412866115570068e-01 -4.456309974193572998e-01 -3.711145743727684021e-02
-6.916441768407821655e-02 -4.177891910076141357e-01 -2.865805625915527344e-01
5.831706896424293518e-02 -2.037677466869354248e-01 2.023856043815612793e-01
-1.221020221710205078e-01 -4.619776606559753418e-01 2.243993282318115234e-01
1.554655134677886963e-01 -4.304281771183013916e-01 -7.565771043300628662e-02
-3.018044829368591309e-01 -3.083059191703796387e-01 -2.249882556498050690e-02
-3.142171502113342285e-01 -4.373864531517028809e-01 1.027655676007270813e-01
2.523593232035636902e-02 -4.348911643028259277e-01 2.097923606634140015e-01
-1.685250848531723022e-01 -2.273821830749511719e-01 1.776936799287796021e-01
-2.898003160953521729e-01 -2.889692783355712891e-01 3.436292335391044617e-02
2.182274311780929565e-01 -3.089666962623596191e-01 7.984325289726257324e-03
8.719587326049804688e-02 -2.353097200393676758e-01 -2.072004973888397217e-01
-2.690276801586151123e-01 -5.252631306648254395e-01 2.255880460143089294e-02
-5.320018529891967773e-02 -2.502087056636810303e-01 -2.383811026811599731e-01
-1.760699450969696045e-01 -5.584266185760498047e-01 -1.013951469212770462e-02
-4.784017801284790039e-02 -3.553528189659118652e-01 2.801211476325988770e-01
2.424098923802375793e-02 -4.936834275722503662e-01 -1.831296235322952271e-01
-5.586948618292808533e-02 -5.180699825286865234e-01 -1.901669353246688843e-01
-1.999832391738891602e-01 -3.500275909900665283e-01 2.461606711149215698e-01
1.889540627598762512e-02 -4.509128034114837646e-01 -2.451045662164688110e-01
-1.841458231210708618e-01 -4.639168083667755127e-01 2.101171612739562988e-01
-4.235389828681945801e-01 1.050566360354423523e-01 -5.404098629951477051e-01
-1.767623573541641235e-01 1.003701314330101013e-01 -5.190978646278381348e-01
-1.397568881511688232e-01 -2.447417378425598145e-01 -3.753845393657684326e-01
-4.119884371757507324e-01 -1.121208444237709045e-01 -4.685169458389282227e-01
-2.325177490711212158e-01 -1.995297372341156006e-01 -4.179942607879638672e-01
-1.399071216583251953e-01 4.816196858882904053e-03 -4.145000278949737549e-01
-4.233058393001556396e-01 -4.050634801387786865e-02 -5.307325124740600586e-01
-2.876364588737487793e-01 1.013647541403770447e-01 -5.159875154495239258e-01
8.778408169746398926e-03 -2.533581256866455078e-01 -3.733108043670654297e-01
-2.388383746147155762e-01 6.089872866868972778e-02 -4.671815633773803711e-01
-2.700790017843246460e-02 -2.955030277371406555e-02 -5.830293297767639160e-01
5.813968181610107422e-02 -2.479390427470207214e-02 -5.795638561248779297e-01
-1.062179207801818848e-01 -5.065006762742996216e-02 -3.671612143516540527e-01
-2.757841944694519043e-01 9.423915296792984009e-02 -6.378726363182067871e-01
-4.999966621398925781e-01 -5.531298369169235229e-02 -3.982605040073394775e-01
-2.287703156471252441e-01 -1.295800805091857910e-01 -4.928615987300872803e-01
9.994328022003173828e-03 -2.760493159294128418e-01 -2.571265995502471924e-01
-3.238618373870849609e-01 -4.219681024551391602e-03 -5.804998278617858887e-01
-2.335841506719589233e-01 6.209075450897216797e-03 -5.994206070899963379e-01
-3.117927014827728271e-01 -2.440714538097381592e-01 -3.064827919006347656e-01
7.091887295246124268e-02 5.719080567359924316e-03 -5.936149954795837402e-01
-9.630992263555526733e-02 -2.496609091758728027e-01 -3.738155364990234375e-01
-2.007085233926773071e-01 8.494451642036437988e-03 -4.144870638847351074e-01
-1.954741626977920532e-01 -1.301395744085311890e-01 -3.045865297317504883e-01
-2.217549830675125122e-01 -6.018801033496856689e-02 -3.543850779533386230e-01
1.782178878784179688e-03 -3.998992219567298889e-02 -3.897582292556762695e-01
-4.227029979228973389e-01 8.423192054033279419e-02 -5.089054703712463379e-01
-4.492544382810592651e-02 -8.143840730190277100e-02 -5.464092493057250977e-01
-2.269879877567291260e-01 -8.734317123889923096e-02 -5.309279561042785645e-01
-2.693224251270294189e-01 1.473317444324493408e-01 -6.294752359390258789e-01
-3.648571968078613281e-01 -1.020339652895927429e-01 -3.336490094661712646e-01
5.320921540260314941e-02 -5.171838402748107910e-02 -3.887003660202026367e-01
-1.878671646118164062e-01 8.500673621892929077e-02 -6.416425704956054688e-01
-3.395735025405883789e-01 -7.729686796665191650e-02 -3.469085097312927246e-01
-2.197803556919097900e-02 -1.784870028495788574e-01 -2.841435372829437256e-01
-2.453993260860443115e-01 -5.871373414993286133e-02 -3.556583523750305176e-01
-2.656517624855041504e-01 -5.806569010019302368e-02 -5.498598217964172363e-01
-1.447508037090301514e-01 5.540397018194198608e-02 -4.667323529720306396e-01
5.314540863037109375e-02 -1.746358126401901245e-01 -2.966277599334716797e-01
-3.121513128280639648e-01 -2.123286128044128418e-01 -2.793620228767395020e-01
-3.004491329193115234e-02 9.878867119550704956e-02 -5.455065369606018066e-01
7.909905910491943359e-02 -1.150263994932174683e-01 -3.414991497993469238e-01
2.182720005512237549e-01 -2.989518269896507263e-02 -4.771185815334320068e-01
-4.385753273963928223e-01 4.037887603044509888e-02 -5.806677341461181641e-01
6.763447821140289307e-02 7.823727279901504517e-02 -5.540977716445922852e-01
-4.263692200183868408e-01 6.109699606895446777e-03 -4.251290559768676758e-01
5.876269936561584473e-02 -1.230037510395050049e-01 -3.316075503826141357e-01
-2.721700072288513184e-02 6.397946923971176147e-02 -6.292601227760314941e-01
2.574530243873596191e-01 -1.148056536912918091e-01 -4.119799733161926270e-01
-1.413778811693191528e-01 -1.069939732551574707e-01 -3.212341070175170898e-01
-2.538106143474578857e-01 -2.129689157009124756e-01 -2.682108283042907715e-01
6.755718588829040527e-02 -1.342900097370147705e-01 -4.988105893135070801e-01
4.351058602333068848e-02 8.468344062566757202e-02 -6.131345629692077637e-01
-3.630381226539611816e-01 -5.131314694881439209e-02 -5.377696156501770020e-01
-2.287813723087310791e-01 4.644498229026794434e-02 -4.517313539981842041e-01
-4.725455343723297119e-01 -1.450548768043518066e-01 -3.890358507633209229e-01
-2.581873834133148193e-01 1.376444697380065918e-01 -5.737066864967346191e-01
1.455768346786499023e-01 1.034524291753768921e-02 -5.754539370536804199e-01
-1.932400166988372803e-01 1.468666791915893555e-01 -6.040348410606384277e-01
-3.392470479011535645e-01 -1.535110473632812500e-01 -4.463839828968048096e-01
8.331318199634552002e-02 -7.053077220916748047e-03 -4.400014877319335938e-01
1.514791846275329590e-01 -2.354919910430908203e-02 -5.621262192726135254e-01
-3.987570106983184814e-01 1.018046662211418152e-01 -5.281502008438110352e-01
-5.074651837348937988e-01 -7.637881487607955933e-02 -3.911572098731994629e-01
-1.679588109254837036e-02 -2.058138251304626465e-01 -4.316959977149963379e-01
-1.644962131977081299e-01 -8.919229358434677124e-02 -3.332666456699371338e-01
3.986142575740814209e-02 5.442522466182708740e-03 -4.421667158603668213e-01
1.857950687408447266e-01 -1.101011633872985840e-01 -3.752267956733703613e-01
-2.309524416923522949e-01 -2.539825811982154846e-02 -5.785533189773559570e-01
2.218251228332519531e-01 -2.073491215705871582e-01 -3.914453387260437012e-01
-3.549063801765441895e-01 -2.144485712051391602e-01 -3.550896942615509033e-01
6.437346339225769043e-02 -5.374526232481002808e-02 -5.608254671096801758e-01
1.003335118293762207e-01 -2.413882017135620117e-01 -3.827772438526153564e-01
-1.553007960319519043e-02 -2.691973745822906494e-01 -3.496986329555511475e-01
-5.224015563726425171e-02 -1.180926039814949036e-01 -5.164176225662231445e-01
-2.221607714891433716e-01 -1.634891629219055176e-01 -4.600758850574493408e-01
2.009825706481933594e-01 -8.233547210693359375e-03 -4.958339035511016846e-01
-2.230301052331924438e-01 -2.590925097465515137e-01 -3.326102793216705322e-01
-1.898076832294464111e-01 -2.712248861789703369e-01 -3.188662528991699219e-01
1.569465994834899902e-01 3.636401146650314331e-02 -5.516115427017211914e-01
9.732216596603393555e-03 -1.828468143939971924e-01 -2.854534983634948730e-01
-9.100628644227981567e-02 -5.623379722237586975e-02 -5.650168061256408691e-01
-4.178875684738159180e-01 1.088958606123924255e-01 -6.063352823257446289e-01
-4.334849119186401367e-02 -2.171847820281982422e-01 -2.632207572460174561e-01
-1.773880720138549805e-01 1.308918893337249756e-01 -6.457657814025878906e-01
-3.877232670783996582e-01 -3.974523767828941345e-02 -5.411598682403564453e-01
-2.189874947071075439e-01 -2.337428033351898193e-01 -3.760901689529418945e-01
-1.135156899690628052e-01 -2.631271183490753174e-01 -3.516950309276580811e-01
1.846930980682373047e-01 -1.572477072477340698e-02 -4.711128473281860352e-01
-6.996078789234161377e-02 -2.450213134288787842e-01 -3.823958635330200195e-01
-3.354088664054870605e-01 7.497931271791458130e-02 -6.223312616348266602e-01
1.381281614303588867e-01 -2.576368153095245361e-01 -2.888471484184265137e-01
1.363704502582550049e-01 -5.125758051872253418e-02 -5.512953996658325195e-01
-1.185497120022773743e-01 -1.988726854324340820e-01 -4.344652295112609863e-01
9.679055213928222656e-02 5.784118920564651489e-02 -5.318595767021179199e-01
-1.109357178211212158e-02 -8.963726460933685303e-03 -5.949246883392333984e-01
-4.197017848491668701e-01 -1.590781211853027344e-01 -3.215966224670410156e-01
-4.917159676551818848e-03 -9.004268795251846313e-02 -3.462973833084106445e-01
-1.744902431964874268e-01 -2.584390640258789062e-01 -3.481838107109069824e-01
-3.455708920955657959e-02 -2.883316874504089355e-01 -3.128057122230529785e-01
-4.572188258171081543e-01 7.162309437990188599e-02 -5.863703489303588867e-01
5.601251125335693359e-02 -3.131165727972984314e-02 -4.083967506885528564e-01
2.028902769088745117e-01 -2.025293409824371338e-01 -3.248207271099090576e-01
-9.856104850769042969e-03 -1.558522731065750122e-01 -4.825587868690490723e-01
-3.108476996421813965e-01 -2.362764775753021240e-01 -2.844404876232147217e-01
-2.103141099214553833e-01 1.119453534483909607e-01 -6.468299627304077148e-01
4.738542437553405762e-02 2.701268345117568970e-02 -6.064545512199401855e-01
-1.680045425891876221e-01 -1.341959834098815918e-01 -4.956727325916290283e-01
2.178391516208648682e-01 -1.492180377244949341e-01 -3.597621023654937744e-01
-3.725666403770446777e-01 4.553819447755813599e-02 -6.012605428695678711e-01
2.442112267017364502e-01 -5.191130191087722778e-02 -4.751174449920654297e-01
1.095017939805984497e-01 1.619927585124969482e-03 -5.840081572532653809e-01
-3.500990271568298340e-01 -2.921221777796745300e-02 -5.577608346939086914e-01
5.459278821945190430e-02 -2.098262608051300049e-01 -4.254851937294006348e-01
-2.140879333019256592e-01 -1.801837384700775146e-01 -2.770872712135314941e-01
1.056899726390838623e-01 -7.751285284757614136e-02 -3.779027462005615234e-01
1.076525151729583740e-01 -1.700393855571746826e-01 -4.621791541576385498e-01
-2.798261046409606934e-01 -2.552072703838348389e-01 -2.910321056842803955e-01
-4.619843065738677979e-01 -7.994177937507629395e-02 -3.685143589973449707e-01
-4.451976716518402100e-01 -1.257007420063018799e-01 -3.407266736030578613e-01
1.727862954139709473e-01 -5.919635295867919922e-03 -5.601145625114440918e-01
-6.908684968948364258e-03 -6.915835291147232056e-02 -3.629598915576934814e-01
-1.013256013393402100e-01 -1.689603030681610107e-01 -2.834057807922363281e-01
-6.198838353157043457e-02 -1.420925557613372803e-01 -4.948770999908447266e-01
-1.047780811786651611e-01 3.944062441587448120e-02 -4.534290730953216553e-01
-4.708384722471237183e-02 -1.701961159706115723e-01 -2.864304482936859131e-01
8.658362925052642822e-02 -2.156932651996612549e-01 -4.163030087947845459e-01
5.835078656673431396e-02 -2.528222203254699707e-01 -3.716913759708404541e-01
-2.460530400276184082e-01 -1.372186839580535889e-01 -3.014562129974365234e-01
-1.490134447813034058e-01 1.437242925167083740e-01 -6.281504631042480469e-01
2.816833555698394775e-02 -1.109339445829391479e-01 -3.352362513542175293e-01
-2.588413953781127930e-01 -9.669725596904754639e-02 -3.279860317707061768e-01
9.832555055618286133e-02 -2.682283222675323486e-01 -3.413918912410736084e-01
1.917816102504730225e-01 7.291853427886962891e-03 -5.183058381080627441e-01
-4.656227231025695801e-01 5.233008414506912231e-02 -4.812890887260437012e-01
-2.451342642307281494e-01 1.209626123309135437e-01 -5.444706678390502930e-01
-4.652459919452667236e-01 3.387916833162307739e-02 -4.609627127647399902e-01
-3.649274706840515137e-01 -1.537428200244903564e-01 -3.067417442798614502e-01
-4.045928418636322021e-01 -1.126211658120155334e-01 -3.347596824169158936e-01
-4.759165942668914795e-01 2.996538579463958740e-02 -5.609176158905029297e-01
-4.227044880390167236e-01 -1.845262944698333740e-01 -3.303508758544921875e-01
-2.322712838649749756e-01 -1.657735705375671387e-01 -2.850381731986999512e-01
1.130547821521759033e-01 -2.432250604033470154e-02 -4.305156171321868896e-01
-1.043276488780975342e-02 -2.151932418346405029e-01 -2.671217024326324463e-01
1.958587765693664551e-02 -1.006264761090278625e-01 -5.297818183898925781e-01
1.292696297168731689e-01 -1.451944112777709961e-01 -3.314194083213806152e-01
1.771250367164611816e-02 -2.454991638660430908e-01 -2.600651383399963379e-01
-4.403692781925201416e-01 -1.165563017129898071e-01 -4.524960219860076904e-01
2.021402120590209961e-02 8.303206413984298706e-02 -6.225460767745971680e-01
-4.717084169387817383e-01 9.483873099088668823e-02 -5.734613537788391113e-01
-4.950941205024719238e-01 -1.251005530357360840e-01 -3.780516982078552246e-01
-2.498013675212860107e-01 -1.094263643026351929e-01 -5.085461139678955078e-01
-3.731338679790496826e-02 -6.093556433916091919e-02 -3.656990826129913330e-01
1.895732581615447998e-01 -1.728554368019104004e-01 -4.441514313220977783e-01
-2.767981886863708496e-01 -2.528627812862396240e-01 -3.182748556137084961e-01
-7.262861728668212891e-02 6.100585311651229858e-02 -6.321481466293334961e-01
-4.434284567832946777e-01 -9.836003184318542480e-02 -4.708959460258483887e-01
-2.140122056007385254e-01 5.221975594758987427e-02 -6.268671751022338867e-01
-3.781382143497467041e-01 -1.234737783670425415e-01 -3.235686421394348145e-01
7.734957337379455566e-02 -1.665283441543579102e-01 -4.686077833175659180e-01
-5.399575829505920410e-01 -5.213662236928939819e-02 -4.418558478355407715e-01
-4.733150303363800049e-01 8.931291848421096802e-02 -5.379664897918701172e-01
3.604198992252349854e-02 -1.158070862293243408e-01 -5.165964365005493164e-01
-3.163124918937683105e-01 -1.990973353385925293e-01 -3.972583115100860596e-01
-2.179096341133117676e-01 1.423524916172027588e-01 -6.400051712989807129e-01
-5.123714357614517212e-02 -2.953822314739227295e-01 -2.884225249290466309e-01
6.497287750244140625e-02 6.352274864912033081e-02 -5.243269205093383789e-01
5.465975403785705566e-02 -8.637592941522598267e-02 -5.386252403259277344e-01
-4.197569489479064941e-01 -1.691457182168960571e-01 -3.938999474048614502e-01
-2.300333976745605469e-01 -1.983580589294433594e-01 -2.703405618667602539e-01
-3.656017780303955078e-01 7.496070116758346558e-02 -6.162605285644531250e-01
1.251625716686248779e-01 -2.715453207492828369e-01 -3.240931630134582520e-01
-2.947806417942047119e-01 -5.993803590536117554e-02 -5.439580678939819336e-01
-2.604479342699050903e-02 -1.504022330045700073e-01 -3.005547523498535156e-01
3.013326227664947510e-02 -2.264693081378936768e-01 -2.677447795867919922e-01
1.131110936403274536e-01 -3.022429719567298889e-02 -5.680102109909057617e-01
2.311843931674957275e-01 -1.060041189193725586e-01 -3.999709188938140869e-01
8.259956538677215576e-02 -2.854612171649932861e-01 -2.882792353630065918e-01
1.686547696590423584e-02 -8.975125849246978760e-03 -5.928672552108764648e-01
-6.624002754688262939e-02 -2.288937270641326904e-01 -2.572861909866333008e-01
-2.496242523193359375e-03 2.540737390518188477e-02 -6.122052073478698730e-01
-9.211506694555282593e-02 1.353214979171752930e-01 -6.204294562339782715e-01
-4.921604990959167480e-01 6.087210029363632202e-02 -5.032214522361755371e-01
2.685045599937438965e-01 -1.173555478453636169e-01 -4.478236436843872070e-01
-4.471591413021087646e-01 -1.241001486778259277e-02 -5.446465015411376953e-01
-4.776301980018615723e-01 -1.208753585815429688e-01 -3.582618534564971924e-01
-1.767260134220123291e-01 7.421530783176422119e-03 -4.145590066909790039e-01
-1.598552316427230835e-01 4.080910980701446533e-02 -6.240319609642028809e-01
-7.525496184825897217e-02 -2.558278292417526245e-02 -3.921795785427093506e-01
-7.601280510425567627e-02 -1.413760334253311157e-02 -5.938611030578613281e-01
1.200170516967773438e-01 -1.858003437519073486e-01 -4.448862671852111816e-01
2.515324354171752930e-01 -1.905785948038101196e-01 -3.881241083145141602e-01
-2.309469282627105713e-01 -2.336619794368743896e-01 -2.614309191703796387e-01
1.866860985755920410e-01 -3.553784266114234924e-02 -4.475935399532318115e-01
-2.568228244781494141e-01 -1.575916707515716553e-01 -2.907298505306243896e-01
-2.473392188549041748e-01 -1.862285435199737549e-01 -4.307790100574493408e-01
1.883052289485931396e-01 -2.150704264640808105e-01 -3.968198001384735107e-01
-1.359734684228897095e-02 -1.801930367946624756e-02 -4.077613651752471924e-01
-3.449190855026245117e-01 -2.064155042171478271e-01 -3.752391040325164795e-01
-4.497235715389251709e-01 -1.613404974341392517e-02 -4.106638133525848389e-01
1.571630537509918213e-01 -7.671301066875457764e-02 -5.306940674781799316e-01
-2.330392003059387207e-01 -2.193259894847869873e-01 -3.928392827510833740e-01
-4.385069012641906738e-03 9.358770400285720825e-02 -5.457599759101867676e-01
3.215417265892028809e-02 -3.562463447451591492e-02 -5.756274461746215820e-01
-4.519952088594436646e-02 1.214492246508598328e-01 -6.243898868560791016e-01
2.210738956928253174e-01 -1.234857961535453796e-01 -3.799620866775512695e-01
-3.678677082061767578e-01 -2.176602184772491455e-01 -3.334769308567047119e-01
5.030786991119384766e-02 -2.139582931995391846e-01 -2.759579420089721680e-01
-5.776773393154144287e-02 -1.630587130784988403e-01 -4.751501381397247314e-01
-3.652985095977783203e-01 -1.160729080438613892e-01 -4.788670539855957031e-01
9.064105153083801270e-02 -2.661318331956863403e-02 -4.216059744358062744e-01
4.845336079597473145e-02 -8.713060617446899414e-02 -3.573492169380187988e-01
3.729039430618286133e-02 -1.731530427932739258e-01 -4.647156596183776855e-01
-2.930645346641540527e-01 1.718480139970779419e-02 -4.223433732986450195e-01
-1.047438979148864746e-01 -1.908660233020782471e-01 -2.716343998908996582e-01
-1.841768622398376465e-01 -4.684471338987350464e-02 -5.673095583915710449e-01
-1.373567432165145874e-02 -2.395594418048858643e-01 -3.917571306228637695e-01
-9.185075014829635620e-02 -1.433479636907577515e-01 -4.926152527332305908e-01
1.428026258945465088e-01 -3.060743957757949829e-02 -4.339673817157745361e-01
-3.117406368255615234e-01 2.915912121534347534e-02 -4.346841275691986084e-01
1.540057957172393799e-01 -1.096229553222656250e-01 -3.646961450576782227e-01
-1.082112193107604980e-01 -1.051685810089111328e-01 -3.243203461170196533e-01
-2.096877396106719971e-01 -1.566971465945243835e-02 -5.873261690139770508e-01
-5.242121219635009766e-01 3.634408116340637207e-03 -4.566747844219207764e-01
-4.793403744697570801e-01 1.362299174070358276e-02 -4.451607763767242432e-01
9.195610880851745605e-02 -1.047630906105041504e-01 -5.209060907363891602e-01
-1.319640874862670898e-02 -2.429140508174896240e-01 -2.570688128471374512e-01
-1.304464489221572876e-01 -5.472451448440551758e-02 -5.648183822631835938e-01
1.706515252590179443e-02 -1.549762785434722900e-01 -4.828715026378631592e-01
-5.354681611061096191e-01 -1.726705953478813171e-02 -4.924879670143127441e-01
-4.649821221828460693e-01 4.839301854372024536e-02 -5.746873021125793457e-01
1.355552077293395996e-01 -1.207001656293869019e-01 -3.507094383239746094e-01
-3.612631559371948242e-01 7.007271051406860352e-03 -5.808840394020080566e-01
-1.072390228509902954e-01 -2.850086688995361328e-01 -3.110058903694152832e-01
-3.379666805267333984e-01 -4.097288474440574646e-02 -3.739675283432006836e-01
-2.547606527805328369e-01 6.382525712251663208e-02 -6.287845373153686523e-01
-1.494723409414291382e-01 -2.811147868633270264e-01 -3.090107440948486328e-01
-3.407929092645645142e-02 -3.629997372627258301e-03 -4.185242950916290283e-01
-9.561939537525177002e-02 2.906724810600280762e-03 -4.168244004249572754e-01
-3.744591474533081055e-01 7.778029888868331909e-02 -4.922258555889129639e-01
-4.627735912799835205e-01 -2.481192350387573242e-03 -4.255895614624023438e-01
-2.496168762445449829e-02 6.858474761247634888e-02 -5.019107460975646973e-01
-2.912815809249877930e-01 -2.217994332313537598e-01 -2.736869454383850098e-01
-5.734495818614959717e-02 -1.512055993080139160e-01 -2.969946861267089844e-01
1.627984941005706787e-01 -2.403425872325897217e-01 -2.982085347175598145e-01
1.844343543052673340e-01 -1.376876085996627808e-01 -4.780522882938385010e-01
-1.467093229293823242e-01 -1.907255649566650391e-01 -2.707759439945220947e-01
-9.198051691055297852e-02 -1.090880781412124634e-01 -5.231212377548217773e-01
1.095643639564514160e-01 1.605779677629470825e-02 -4.755626916885375977e-01
-5.883999913930892944e-02 9.473416954278945923e-02 -6.386824250221252441e-01
-4.766121506690979004e-02 -1.105958521366119385e-01 -3.254883587360382080e-01
-5.016595125198364258e-02 1.045547425746917725e-02 -4.302531182765960693e-01
-8.483285456895828247e-02 -2.624404728412628174e-01 -3.562173843383789062e-01
-3.665580153465270996e-01 -8.634067326784133911e-02 -5.068781971931457520e-01
-4.600662291049957275e-01 8.215407282114028931e-02 -5.180149674415588379e-01
-4.793522357940673828e-01 -3.775817528367042542e-02 -5.124408602714538574e-01
