1.953665725886821747e-02 -2.621046006679534912e-01 -7.875761389732360840e-02
5.667179077863693237e-02 -3.659388124942779541e-01 -1.096481364220380783e-02
3.950263559818267822e-02 -3.654086291790008545e-01 6.316082924604415894e-02
1.552098616957664490e-02 -2.223867475986480713e-01 -1.216962374746799469e-02
1.093503832817077637e-02 -2.499964088201522827e-01 1.416696142405271530e-02
5.617277324199676514e-02 -2.875660955905914307e-01 2.139400318264961243e-02
7.426520809531211853e-03 -2.521921694278717041e-01 6.126782856881618500e-03
5.903543904423713684e-02 -3.341133594512939453e-01 -2.664794027805328369e-02
1.425587944686412811e-02 -3.629112839698791504e-01 1.596226170659065247e-02
1.705178990960121155e-02 -3.398972749710083008e-01 4.936468973755836487e-02
5.235653370618820190e-02 -3.322523832321166992e-01 5.367016419768333435e-02
5.065977573394775391e-02 -2.510632872581481934e-01 -3.217615932226181030e-02
2.884465269744396210e-02 -2.544918358325958252e-01 3.493033349514007568e-02
4.009333252906799316e-02 -3.952383399009704590e-01 6.165417842566967010e-03
6.190108135342597961e-03 -2.514498233795166016e-01 -5.272470414638519287e-02
1.103183999657630920e-02 -3.470957577228546143e-01 -1.906994916498661041e-02
4.494011402130126953e-02 -2.381034493446350098e-01 -7.826646789908409119e-03
4.902830347418785095e-02 -2.992706298828125000e-01 -6.192961707711219788e-02
5.787791311740875244e-02 -2.885727882385253906e-01 -3.146054968237876892e-02
2.826477214694023132e-02 -2.767098844051361084e-01 4.937514662742614746e-02
2.585304901003837585e-03 -2.826527655124664307e-01 -3.650354966521263123e-02
4.489589482545852661e-02 -2.665415704250335693e-01 -6.662271916866302490e-02
5.813663825392723083e-03 -3.306667208671569824e-01 -2.455044072121381760e-03
9.698718786239624023e-03 -3.291886150836944580e-01 3.172976151108741760e-02
6.333792582154273987e-03 -2.487260103225708008e-01 -1.808473840355873108e-03
3.444919362664222717e-03 -3.147281110286712646e-01 -9.648674167692661285e-03
4.907548427581787109e-03 -3.152651786804199219e-01 -2.838363125920295715e-02
4.014132916927337646e-02 -2.653358280658721924e-01 3.785487636923789978e-02
5.103204399347305298e-02 -2.561239004135131836e-01 1.479253172874450684e-03
1.106216758489608765e-02 -3.154197037220001221e-01 3.911272063851356506e-02
9.160194545984268188e-03 -2.287368774414062500e-01 -2.439323067665100098e-02
1.714015379548072815e-02 -3.639442026615142822e-01 3.381466865539550781e-02
5.626402050256729126e-02 -3.227043449878692627e-01 4.248102009296417236e-02
5.244899168610572815e-02 -3.864051103591918945e-01 1.154355611652135849e-02
6.169872730970382690e-02 -3.486199975013732910e-01 9.973171167075634003e-03
3.516985476016998291e-02 -3.959875702857971191e-01 1.708415523171424866e-02
3.895197063684463501e-02 -3.574908673763275146e-01 6.533773988485336304e-02
3.755863755941390991e-03 -3.123236894607543945e-01 5.344418808817863464e-03
5.964626371860504150e-02 -3.435608744621276855e-01 3.339100629091262817e-02
2.159811370074748993e-02 -3.026371896266937256e-01 -7.376242429018020630e-02
4.073348268866539001e-02 -2.354824542999267578e-01 -5.561118945479393005e-02
1.806983724236488342e-03 -2.670783400535583496e-01 -1.860902644693851471e-02
5.136585608124732971e-02 -3.122627735137939453e-01 4.993422329425811768e-02
9.473925456404685974e-03 -3.471293747425079346e-01 -3.900735173374414444e-03
3.543126583099365234e-02 -2.917710542678833008e-01 -7.792593538761138916e-02
6.701445206999778748e-03 -3.299604356288909912e-01 -2.044182270765304565e-02
4.052997380495071411e-02 -2.266246378421783447e-01 -2.558431774377822876e-02
1.584032550454139709e-02 -2.171213924884796143e-01 -2.950568869709968567e-02
4.640005528926849365e-02 -2.797327935695648193e-01 -6.648212671279907227e-02
3.006751276552677155e-02 -2.191541492938995361e-01 -5.394772812724113464e-02
2.702191099524497986e-02 -2.396870702505111694e-01 -7.551424205303192139e-02
4.275640472769737244e-03 -3.013819456100463867e-01 -3.730725497007369995e-02
2.338362857699394226e-03 -2.609983682632446289e-01 -1.771935634315013885e-02
1.060692220926284790e-02 -2.454007267951965332e-01 9.096498601138591766e-03
1.445587165653705597e-02 -3.191739022731781006e-01 -5.730782076716423035e-02
2.332609519362449646e-02 -3.666997849941253662e-01 4.937239736318588257e-02
1.456188969314098358e-02 -2.460763454437255859e-01 -7.112058252096176147e-02
6.209071725606918335e-02 -3.411378860473632812e-01 1.272150781005620956e-02
5.970926955342292786e-02 -3.564473390579223633e-01 2.860914170742034912e-02
5.854840576648712158e-02 -2.877924144268035889e-01 -2.549676224589347839e-02
2.781581506133079529e-02 -3.808364570140838623e-01 -1.559927221387624741e-02
1.759230159223079681e-02 -3.363710641860961914e-01 -5.075195804238319397e-02
5.349367856979370117e-02 -3.830917775630950928e-01 6.173112429678440094e-03
4.845650121569633484e-02 -2.577770054340362549e-01 -5.343376100063323975e-02
9.678846225142478943e-03 -2.327088415622711182e-01 -5.179773271083831787e-02
6.241026520729064941e-02 -3.291868269443511963e-01 8.539003320038318634e-03
5.099815130233764648e-02 -2.741275727748870850e-01 2.627066522836685181e-02
2.161519601941108704e-02 -3.170267045497894287e-01 5.792893469333648682e-02
3.412539139389991760e-02 -2.184978276491165161e-01 -3.911286965012550354e-02
3.650418668985366821e-02 -2.308686822652816772e-01 3.173023462295532227e-03
6.815472617745399475e-03 -2.360563874244689941e-01 -2.129735797643661499e-02
1.234226301312446594e-02 -2.828521728515625000e-01 3.642680123448371887e-02
1.842998340725898743e-02 -3.229652941226959229e-01 5.406850576400756836e-02
3.333995118737220764e-02 -2.211428880691528320e-01 -1.185888238251209259e-02
6.226922944188117981e-02 -3.257454335689544678e-01 -5.412402562797069550e-03
3.203804790973663330e-02 -2.716872990131378174e-01 4.669084027409553528e-02
3.375886008143424988e-03 -2.509621083736419678e-01 -2.516793832182884216e-02
6.055624410510063171e-02 -3.564913868904113770e-01 2.302968874573707581e-03
4.770896583795547485e-02 -3.246716260910034180e-01 -5.821876227855682373e-02
2.437706850469112396e-02 -3.720656931400299072e-01 -2.388463914394378662e-02
1.138553582131862640e-02 -3.498498797416687012e-01 2.274248749017715454e-02
1.682266220450401306e-02 -2.864894866943359375e-01 4.506895318627357483e-02
1.752149686217308044e-02 -3.292209208011627197e-01 5.226274952292442322e-02
3.802818059921264648e-02 -2.254754453897476196e-01 -4.678184539079666138e-02
1.662585884332656860e-02 -2.268734127283096313e-01 -1.619721297174692154e-03
2.303916774690151215e-02 -3.653634190559387207e-01 -3.080063313245773315e-02
4.298761487007141113e-02 -2.555051147937774658e-01 -6.613260507583618164e-02
5.637189000844955444e-02 -3.706197440624237061e-01 3.558243438601493835e-02
5.619331449270248413e-02 -3.195766806602478027e-01 -4.173034802079200745e-02
7.932240143418312073e-03 -2.581210732460021973e-01 1.272448059171438217e-02
8.392829447984695435e-03 -3.419255018234252930e-01 -8.587252348661422729e-03
5.244866013526916504e-02 -3.385638892650604248e-01 -4.409614205360412598e-02
3.519260883331298828e-02 -2.268946170806884766e-01 -5.777126550674438477e-02
3.880650550127029419e-02 -3.845208883285522461e-01 -1.783948205411434174e-02
6.051586195826530457e-02 -2.986893951892852783e-01 -1.532004494220018387e-02
4.439590498805046082e-03 -3.112818002700805664e-01 1.223738770931959152e-02
3.342146053910255432e-02 -2.393099218606948853e-01 -7.160010933876037598e-02
3.459633514285087585e-02 -2.639985978603363037e-01 4.084122180938720703e-02
1.742560975253582001e-02 -2.245082855224609375e-01 -6.109497323632240295e-02
3.823040425777435303e-02 -2.232539951801300049e-01 -3.577275574207305908e-02
2.803921326994895935e-02 -2.154077738523483276e-01 -2.106607519090175629e-02
2.044484578073024750e-02 -2.164845764636993408e-01 -5.141196772456169128e-02
1.378276571631431580e-02 -2.253732085227966309e-01 -5.533143505454063416e-02
2.470551058650016785e-02 -2.717808485031127930e-01 4.544739797711372375e-02
2.894788980484008789e-03 -2.618231475353240967e-01 -8.902609348297119141e-03
9.631544351577758789e-03 -3.095767498016357422e-01 3.526589274406433105e-02
1.900799572467803955e-02 -3.739526271820068359e-01 -5.829990841448307037e-04
4.219805076718330383e-02 -2.298883944749832153e-01 -3.528309613466262817e-02
5.641251429915428162e-02 -3.060181438922882080e-01 3.463745862245559692e-02
3.942150250077247620e-02 -2.690207958221435547e-01 -7.522127777338027954e-02
1.109591498970985413e-02 -2.631858587265014648e-01 2.425312623381614685e-02
4.524255171418190002e-03 -2.442048043012619019e-01 -2.676437422633171082e-02
6.002827733755111694e-02 -2.928732335567474365e-01 -1.269149035215377808e-02
9.224530309438705444e-03 -3.465121090412139893e-01 5.972567945718765259e-03
2.809761464595794678e-02 -2.455861866474151611e-01 2.724209427833557129e-02
2.101634815335273743e-02 -3.794413208961486816e-01 1.012353878468275070e-02
6.143796071410179138e-02 -3.157470822334289551e-01 1.448899414390325546e-02
4.439648240804672241e-02 -3.826602101325988770e-01 -1.748332381248474121e-02
2.751651592552661896e-02 -3.761984109878540039e-01 4.931465908885002136e-02
1.847361959517002106e-02 -3.739483654499053955e-01 5.488067865371704102e-03
5.452059954404830933e-02 -2.632815837860107422e-01 -1.200176775455474854e-02
5.277538672089576721e-03 -2.451604455709457397e-01 -1.302017644047737122e-02
2.552985772490501404e-02 -3.778652548789978027e-01 4.346386715769767761e-02
1.788012683391571045e-02 -2.771575450897216797e-01 4.255708679556846619e-02
2.094184421002864838e-02 -2.543388307094573975e-01 3.184724599123001099e-02
8.750684559345245361e-03 -3.010540902614593506e-01 -5.462191998958587646e-02
5.185791850090026855e-02 -2.932704389095306396e-01 3.930581361055374146e-02
5.929582193493843079e-02 -3.660571575164794922e-01 1.682350412011146545e-02
4.637125134468078613e-02 -2.440593391656875610e-01 -1.964406110346317291e-04
5.449056252837181091e-02 -3.593439459800720215e-01 4.829092696309089661e-02
5.217902362346649170e-03 -3.198702335357666016e-01 1.258132699877023697e-02
4.502532631158828735e-02 -2.360935509204864502e-01 -1.582800783216953278e-02
2.232763916254043579e-02 -2.237168848514556885e-01 -6.408760696649551392e-02
1.970537006855010986e-02 -2.218426913022994995e-01 -6.096010562032461166e-03
4.108851402997970581e-02 -3.229004144668579102e-01 -6.599316745996475220e-02
1.420749537646770477e-02 -2.783861458301544189e-01 -7.236844301223754883e-02
5.412524938583374023e-02 -3.770074546337127686e-01 -4.889069125056266785e-03
1.048236899077892303e-02 -2.585364580154418945e-01 1.981027796864509583e-02
2.224415913224220276e-02 -2.133095562458038330e-01 -4.021077975630760193e-02
4.673527926206588745e-02 -2.415329217910766602e-01 -3.965199366211891174e-02
2.274665981531143188e-03 -2.607090771198272705e-01 -2.717563509941101074e-02
3.776887059211730957e-02 -3.075653612613677979e-01 6.171475350856781006e-02
3.008953295648097992e-02 -3.696244359016418457e-01 -3.434902802109718323e-02
1.007583364844322205e-02 -3.083701729774475098e-01 -5.424486100673675537e-02
4.119306802749633789e-03 -2.585978209972381592e-01 -4.547860473394393921e-02
6.117585301399230957e-02 -3.067511320114135742e-01 -1.446220930665731430e-02
3.856462985277175903e-02 -3.200218677520751953e-01 6.470301747322082520e-02
5.144897103309631348e-02 -3.065744638442993164e-01 4.738779738545417786e-02
2.249499410390853882e-02 -2.520975470542907715e-01 -7.909757643938064575e-02
2.341201901435852051e-02 -2.179608494043350220e-01 -5.622005462646484375e-02
4.706816002726554871e-02 -3.153577446937561035e-01 -6.213360652327537537e-02
1.708507537841796875e-03 -2.722485363483428955e-01 -1.311707589775323868e-02
1.332637853920459747e-02 -2.408285588026046753e-01 -6.719488650560379028e-02
3.649429976940155029e-02 -2.321376800537109375e-01 -6.169024854898452759e-02
5.331332981586456299e-02 -2.672270834445953369e-01 -4.086037352681159973e-02
4.555409029126167297e-02 -2.779813706874847412e-01 4.061272367835044861e-02
5.732971802353858948e-02 -3.235451579093933105e-01 -3.698833286762237549e-02
2.499669976532459259e-02 -3.092913627624511719e-01 5.976849794387817383e-02
2.937085554003715515e-02 -2.900206446647644043e-01 5.584175884723663330e-02
1.232487894594669342e-02 -2.529660463333129883e-01 1.958392187952995300e-02
2.144595608115196228e-03 -2.773303687572479248e-01 -3.958655055612325668e-03
5.475417897105216980e-02 -2.653886973857879639e-01 -2.641151100397109985e-02
2.037137746810913086e-03 -2.686689496040344238e-01 -3.173767775297164917e-02
3.955131024122238159e-02 -3.651619255542755127e-01 -4.045664146542549133e-02
5.780106410384178162e-03 -3.075241744518280029e-01 -4.042002558708190918e-02
7.786173373460769653e-03 -3.239807784557342529e-01 2.574767172336578369e-02
5.485634133219718933e-02 -3.781921565532684326e-01 1.068645156919956207e-03
5.258277058601379395e-03 -3.255600333213806152e-01 -1.419065892696380615e-02
1.722817867994308472e-02 -3.690761625766754150e-01 -4.916833713650703430e-03
2.623669803142547607e-03 -3.059353828430175781e-01 -4.462806507945060730e-03
4.283579438924789429e-02 -2.365557700395584106e-01 -2.149981912225484848e-03
8.718350902199745178e-03 -3.320639729499816895e-01 -2.988196909427642822e-02
4.838810116052627563e-02 -3.929382264614105225e-01 1.867353171110153198e-02
5.176442489027976990e-02 -2.531305253505706787e-01 -1.716378331184387207e-02
1.368543133139610291e-02 -3.560722768306732178e-01 2.772494032979011536e-02
6.113985180854797363e-02 -3.396777212619781494e-01 -1.167629472911357880e-02
5.623600631952285767e-02 -3.613852858543395996e-01 4.248000681400299072e-02
6.219329684972763062e-02 -3.210747241973876953e-01 8.540426380932331085e-03
5.235962942242622375e-02 -2.556014657020568848e-01 -2.621074393391609192e-02
5.470368266105651855e-02 -2.714572548866271973e-01 -3.710490837693214417e-02
5.421390756964683533e-03 -2.432895600795745850e-01 -4.163327068090438843e-02
8.006704971194267273e-03 -2.692840695381164551e-01 2.011688053607940674e-02
5.375207960605621338e-02 -3.735478222370147705e-01 4.287120699882507324e-02
4.751410335302352905e-02 -2.697658538818359375e-01 -6.211050599813461304e-02
3.002169728279113770e-02 -3.899259865283966064e-01 3.343817219138145447e-02
4.927174001932144165e-02 -3.579007983207702637e-01 5.827485769987106323e-02
4.157520830631256104e-02 -2.799264788627624512e-01 -7.364632189273834229e-02
2.580767497420310974e-03 -2.687884569168090820e-01 -3.763054683804512024e-02
3.605535626411437988e-02 -2.484597712755203247e-01 2.662086859345436096e-02
2.324614673852920532e-02 -2.441183030605316162e-01 -7.719445973634719849e-02
5.590666830539703369e-02 -2.805577516555786133e-01 1.474752370268106461e-02
3.178946301341056824e-02 -2.334615886211395264e-01 -6.925919651985168457e-02
4.079449921846389771e-03 -2.514573335647583008e-01 -1.217157207429409027e-02
9.821422398090362549e-03 -2.865322530269622803e-01 -6.280189007520675659e-02
4.134698584675788879e-02 -2.524120211601257324e-01 2.447951585054397583e-02
2.125553973019123077e-02 -3.797878623008728027e-01 1.810653507709503174e-02
4.354485496878623962e-02 -3.291824162006378174e-01 6.383717060089111328e-02
1.449187099933624268e-02 -3.415342569351196289e-01 -3.959188982844352722e-02
1.190550625324249268e-02 -2.984864711761474609e-01 3.991654887795448303e-02
4.929114878177642822e-02 -3.874346911907196045e-01 -4.535238258540630341e-04
3.576600924134254456e-02 -2.203726470470428467e-01 -2.427512407302856445e-02
3.219486400485038757e-02 -2.718086242675781250e-01 -8.072501420974731445e-02
6.026589125394821167e-02 -3.093783855438232422e-01 1.911449432373046875e-02
4.032569378614425659e-02 -3.018868267536163330e-01 5.855228751897811890e-02
3.694524616003036499e-02 -2.265586853027343750e-01 -6.566975731402635574e-03
5.102213099598884583e-02 -3.642235398292541504e-01 5.397372320294380188e-02
6.906740367412567139e-03 -3.269498050212860107e-01 -2.665152028203010559e-02
2.855605445802211761e-02 -3.882729709148406982e-01 6.192298606038093567e-04
2.723390981554985046e-02 -3.448688089847564697e-01 -5.512357130646705627e-02
5.047327652573585510e-02 -3.119032680988311768e-01 -5.734929442405700684e-02
6.799178197979927063e-03 -3.358486294746398926e-01 -9.727384895086288452e-05
1.469255983829498291e-02 -3.621695041656494141e-01 -7.885474711656570435e-03
4.613364115357398987e-02 -3.772721290588378906e-01 -2.277136966586112976e-02
5.833213031291961670e-02 -2.811889350414276123e-01 -8.514929562807083130e-03
5.269246920943260193e-02 -3.185701370239257812e-01 4.966603219509124756e-02
1.288754120469093323e-02 -3.232732415199279785e-01 4.313805699348449707e-02
3.156972676515579224e-02 -2.264324575662612915e-01 2.115935087203979492e-03
1.446660980582237244e-02 -2.582365274429321289e-01 2.721246704459190369e-02
5.500309541821479797e-02 -3.283465206623077393e-01 4.732863977551460266e-02
5.288174003362655640e-02 -2.966176271438598633e-01 -5.342805385589599609e-02
4.955540597438812256e-02 -2.627533674240112305e-01 1.804279908537864685e-02
1.767716184258460999e-02 -2.699212431907653809e-01 3.868688642978668213e-02
5.054199695587158203e-02 -2.508723735809326172e-01 -9.077377617359161377e-03
1.655263826251029968e-02 -3.048516213893890381e-01 -6.785243004560470581e-02
2.576344646513462067e-02 -3.635860681533813477e-01 5.550621449947357178e-02
1.858036220073699951e-02 -2.976203262805938721e-01 -7.284509390592575073e-02
4.841996729373931885e-02 -3.396617174148559570e-01 -5.052199959754943848e-02
1.963321864604949951e-02 -3.177555501461029053e-01 -6.550494581460952759e-02
5.605056136846542358e-02 -2.752848565578460693e-01 5.886736325919628143e-03
1.240686699748039246e-02 -3.439145982265472412e-01 -3.038297221064567566e-02
5.551530420780181885e-02 -2.881535887718200684e-01 -4.345829039812088013e-02
4.573869332671165466e-02 -2.510037422180175781e-01 1.376332435756921768e-02
3.493882715702056885e-03 -2.832871973514556885e-01 8.135842159390449524e-03
1.760788634419441223e-02 -2.537462711334228516e-01 -7.633727043867111206e-02
5.124276876449584961e-02 -3.488611280918121338e-01 -4.053585976362228394e-02
5.677363276481628418e-02 -3.416754007339477539e-01 -3.131006285548210144e-02
5.716822296380996704e-02 -2.948035895824432373e-01 2.377532422542572021e-02
4.203984141349792480e-02 -3.878064155578613281e-01 -1.113914698362350464e-02
8.820885792374610901e-03 -2.368412911891937256e-01 -7.091877516359090805e-03
4.643660038709640503e-02 -2.389905750751495361e-01 -3.351344168186187744e-02
5.435826256871223450e-02 -2.859306633472442627e-01 2.687789872288703918e-02
4.458833113312721252e-02 -2.669850587844848633e-01 3.346021473407745361e-02
4.518450051546096802e-02 -2.872247695922851562e-01 -6.889776140451431274e-02
5.886408314108848572e-02 -3.001352548599243164e-01 1.999164745211601257e-02
5.611025542020797729e-02 -3.776205480098724365e-01 2.462561801075935364e-02
1.049183867871761322e-02 -3.439455330371856689e-01 2.496376261115074158e-02
2.378669753670692444e-02 -2.142238020896911621e-01 -4.645356535911560059e-02
3.926422446966171265e-02 -2.273627519607543945e-01 -1.217888109385967255e-02
2.398563176393508911e-02 -2.130119353532791138e-01 -3.230045363306999207e-02
1.239828206598758698e-02 -3.048898577690124512e-01 -6.118708103895187378e-02
6.189984828233718872e-02 -3.252705931663513184e-01 1.551983784884214401e-02
2.030366659164428711e-02 -3.538088798522949219e-01 5.093294754624366760e-02
5.729202181100845337e-02 -3.460085690021514893e-01 4.265854880213737488e-02
2.417152561247348785e-02 -2.815265655517578125e-01 -8.024289458990097046e-02
5.340067297220230103e-02 -3.537295162677764893e-01 5.202961340546607971e-02
5.758825689554214478e-02 -3.732851147651672363e-01 2.021286264061927795e-02
2.795069850981235504e-02 -3.409258425235748291e-01 6.404059380292892456e-02
1.258523948490619659e-02 -3.557844758033752441e-01 -9.870674461126327515e-03
4.707905650138854980e-02 -3.928377330303192139e-01 9.060767479240894318e-03
4.206930845975875854e-02 -2.901957333087921143e-01 -7.283786684274673462e-02
2.598276734352111816e-02 -2.585260570049285889e-01 -8.084875345230102539e-02
5.603503435850143433e-03 -2.754707932472229004e-01 -5.332862585783004761e-02
2.794026583433151245e-02 -3.894367814064025879e-01 2.555734291672706604e-02
2.229337021708488464e-02 -3.253955543041229248e-01 5.921909958124160767e-02
1.817565411329269409e-03 -2.963030040264129639e-01 -1.175438612699508667e-02
5.544586107134819031e-02 -3.347595930099487305e-01 -3.875074908137321472e-02
1.241656579077243805e-02 -2.235504090785980225e-01 -1.996965147554874420e-02
9.115880355238914490e-03 -2.761914432048797607e-01 -6.343379616737365723e-02
5.081775411963462830e-02 -2.797772884368896484e-01 -5.669043585658073425e-02
5.722697824239730835e-02 -3.747767210006713867e-01 1.356431562453508377e-02
6.188255921006202698e-02 -3.311521410942077637e-01 -9.493543766438961029e-03
2.373867481946945190e-02 -2.350155115127563477e-01 1.557226944714784622e-02
3.114829398691654205e-02 -3.190794885158538818e-01 6.464254856109619141e-02
3.303955867886543274e-02 -3.616234660148620605e-01 -4.401686787605285645e-02
5.915462598204612732e-02 -3.527978658676147461e-01 3.383326157927513123e-02
9.576614946126937866e-03 -3.212933242321014404e-01 3.380823880434036255e-02
4.023013636469841003e-02 -3.972000777721405029e-01 2.191923186182975769e-02
1.091569848358631134e-02 -2.296357750892639160e-01 -1.145756524056196213e-02
5.543248355388641357e-02 -2.697361409664154053e-01 -6.989040412008762360e-04
4.652898013591766357e-02 -3.115693032741546631e-01 5.674792081117630005e-02
5.449555814266204834e-02 -2.722232937812805176e-01 1.069036591798067093e-02
9.016053751111030579e-03 -3.169715404510498047e-01 -4.562448710203170776e-02
4.830545186996459961e-02 -3.779001832008361816e-01 5.119157955050468445e-02
4.998802393674850464e-02 -3.799063563346862793e-01 -1.272871997207403183e-02
4.814121499657630920e-02 -3.906413316726684570e-01 3.510259091854095459e-02
5.588919296860694885e-02 -3.567356467247009277e-01 -2.350231260061264038e-02
1.995962858200073242e-02 -3.244092464447021484e-01 -6.220739707350730896e-02
3.033247776329517365e-02 -2.216169685125350952e-01 -5.955500528216362000e-03
1.643747091293334961e-02 -3.159316778182983398e-01 5.067110061645507812e-02
5.189344286918640137e-03 -2.677784860134124756e-01 -5.223390832543373108e-02
2.046810090541839600e-02 -3.738098740577697754e-01 3.283417224884033203e-02
1.109167374670505524e-02 -2.489670068025588989e-01 -6.610454618930816650e-02
5.662054941058158875e-02 -3.154304325580596924e-01 3.870591893792152405e-02
5.237210914492607117e-02 -3.382737636566162109e-01 5.439852178096771240e-02
3.262122720479965210e-02 -3.324708342552185059e-01 6.649363040924072266e-02
2.433235757052898407e-02 -3.796433806419372559e-01 3.745082020759582520e-02
6.177563220262527466e-02 -3.164519965648651123e-01 -1.176278293132781982e-02
5.596788972616195679e-02 -2.701933383941650391e-01 -2.316778525710105896e-02
3.511128947138786316e-02 -2.433705925941467285e-01 2.204738557338714600e-02
4.161696881055831909e-03 -2.565261721611022949e-01 -4.874133970588445663e-03
1.446871832013130188e-02 -3.307725489139556885e-01 -4.922817647457122803e-02
6.031703948974609375e-02 -3.488424718379974365e-01 2.843328192830085754e-02
9.253881871700286865e-03 -2.410494387149810791e-01 3.895070403814315796e-04
6.175026297569274902e-03 -2.943961322307586670e-01 2.281828969717025757e-02
4.935337603092193604e-02 -2.947079837322235107e-01 4.516564682126045227e-02
1.830354332923889160e-02 -2.800064682960510254e-01 -7.680086046457290649e-02
3.188019618391990662e-03 -2.781035304069519043e-01 -4.171055555343627930e-02
2.769680880010128021e-02 -3.559206426143646240e-01 -4.646072909235954285e-02
6.080507487058639526e-02 -3.328953683376312256e-01 -1.777080446481704712e-02
1.141893491148948669e-02 -2.265098094940185547e-01 -4.926742985844612122e-02
5.038792639970779419e-02 -3.898874223232269287e-01 2.716450020670890808e-02
4.062036797404289246e-02 -2.318104803562164307e-01 -5.039054155349731445e-02
1.444810815155506134e-02 -3.366260826587677002e-01 4.419044777750968933e-02
1.554914563894271851e-02 -3.540551662445068359e-01 3.812808170914649963e-02
3.285842388868331909e-02 -2.544432282447814941e-01 -7.815618813037872314e-02
5.532231926918029785e-02 -2.997525036334991455e-01 3.428753465414047241e-02
5.952974408864974976e-02 -3.050067424774169922e-01 -2.820800617337226868e-02
5.661904439330101013e-02 -3.756644725799560547e-01 7.626283913850784302e-03
5.752248317003250122e-02 -2.811883687973022461e-01 4.728659987449645996e-03
6.196369603276252747e-02 -3.122622966766357422e-01 -1.552208792418241501e-03
1.476986333727836609e-02 -2.900693416595458984e-01 -7.059853523969650269e-02
1.570130325853824615e-02 -2.718417346477508545e-01 -7.505168020725250244e-02
5.853141844272613525e-02 -3.683663606643676758e-01 2.323301881551742554e-02
5.006173625588417053e-03 -2.845407128334045410e-01 1.603861153125762939e-02
2.606718614697456360e-02 -3.867750763893127441e-01 6.127825938165187836e-03
3.757828474044799805e-02 -3.139778971672058105e-01 -7.144480943679809570e-02
3.976091742515563965e-03 -2.523188292980194092e-01 -4.048445820808410645e-02
4.864015057682991028e-02 -2.652309536933898926e-01 2.350142598152160645e-02
3.142541274428367615e-02 -3.488914072513580322e-01 -5.405063182115554810e-02
2.019301243126392365e-02 -2.405591011047363281e-01 1.934865489602088928e-02
2.272589132189750671e-02 -2.338769733905792236e-01 -7.239237427711486816e-02
4.492282494902610779e-02 -2.844474911689758301e-01 4.576513916254043579e-02
5.644477903842926025e-02 -2.801892161369323730e-01 -3.441983088850975037e-02
2.119973674416542053e-02 -2.468994259834289551e-01 2.602999284863471985e-02
1.792638562619686127e-02 -3.575311601161956787e-01 4.298340901732444763e-02
1.124305836856365204e-02 -3.388867676258087158e-01 3.283982723951339722e-02
2.154688164591789246e-02 -2.883797883987426758e-01 5.098082125186920166e-02
4.043396562337875366e-02 -2.479148209095001221e-01 2.085467055439949036e-02
1.453746482729911804e-02 -3.644940257072448730e-01 7.701157592236995697e-03
1.121022179722785950e-02 -3.336002826690673828e-01 -3.807354718446731567e-02
3.654897585511207581e-02 -2.454834282398223877e-01 -7.148581743240356445e-02
4.662860184907913208e-03 -3.005068004131317139e-01 1.633096113801002502e-02
4.848615452647209167e-02 -2.448706924915313721e-01 -3.461162000894546509e-02
5.476029962301254272e-02 -3.157746493816375732e-01 -4.673091694712638855e-02
9.132742881774902344e-03 -2.279097437858581543e-01 -3.141001239418983459e-02
5.434751510620117188e-02 -2.623707652091979980e-01 -1.982760243117809296e-02
2.485583350062370300e-02 -3.524491488933563232e-01 5.881638824939727783e-02
1.304549351334571838e-02 -2.717273235321044922e-01 3.285803273320198059e-02
1.838808506727218628e-02 -2.316824197769165039e-01 -6.853639334440231323e-02
4.267262294888496399e-03 -2.764689922332763672e-01 9.787685237824916840e-03
6.122113391757011414e-02 -3.324839472770690918e-01 2.369062975049018860e-02
6.081390380859375000e-02 -3.152341842651367188e-01 -2.104446850717067719e-02
6.215408444404602051e-03 -2.396915853023529053e-01 -1.679006218910217285e-02
3.588923439383506775e-02 -2.978309094905853271e-01 5.885736644268035889e-02
1.248946785926818848e-02 -3.572429120540618896e-01 1.542475353926420212e-02
5.287177860736846924e-02 -2.882264256477355957e-01 3.327631577849388123e-02
5.360645428299903870e-02 -3.086579144001007080e-01 -5.093966796994209290e-02
1.697545871138572693e-02 -3.499166965484619141e-01 4.519579559564590454e-02
5.327568948268890381e-02 -2.833326160907745361e-01 -5.025874823331832886e-02
1.477131620049476624e-03 -2.874775230884552002e-01 -1.330160722136497498e-02
1.362673565745353699e-02 -2.339305430650711060e-01 -6.368089467287063599e-02
2.398211322724819183e-02 -3.828910887241363525e-01 2.827783674001693726e-02
5.839628726243972778e-02 -2.992942035198211670e-01 -3.332451358437538147e-02
5.922085791826248169e-02 -3.467600643634796143e-01 -1.841956935822963715e-02
3.755877912044525146e-02 -2.756575047969818115e-01 -7.756093889474868774e-02
4.983220621943473816e-02 -2.827449738979339600e-01 3.645243868231773376e-02
3.013703413307666779e-02 -3.916966617107391357e-01 9.170695208013057709e-03
2.873280271887779236e-02 -2.612324357032775879e-01 3.997170180082321167e-02
1.590903662145137787e-02 -3.660837411880493164e-01 2.254300937056541443e-02
3.975700959563255310e-02 -3.963358998298645020e-01 3.007795289158821106e-02
2.124275267124176025e-02 -2.877013981342315674e-01 -7.769001275300979614e-02
6.019603461027145386e-02 -3.276005089282989502e-01 -2.336925640702247620e-02
4.191983491182327271e-03 -2.831084132194519043e-01 -4.586147516965866089e-02
8.804455399513244629e-03 2.937864661216735840e-01 2.808827161788940430e-02
1.330164540559053421e-02 2.768824696540832520e-01 4.038095474243164062e-02
3.260754421353340149e-02 2.343504577875137329e-01 4.417274147272109985e-02
3.753139823675155640e-02 1.835097372531890869e-01 3.355960827320814133e-03
1.307325065135955811e-02 2.787590026855468750e-01 -2.077266760170459747e-02
4.227123036980628967e-02 2.969447374343872070e-01 1.805475354194641113e-02
3.800396621227264404e-02 2.285398393869400024e-01 3.694685548543930054e-02
1.519867777824401855e-02 3.096442818641662598e-01 4.197942465543746948e-02
7.968418300151824951e-03 3.155836462974548340e-01 1.169258821755647659e-02
3.004596009850502014e-02 2.218948900699615479e-01 4.230487346649169922e-02
6.947154179215431213e-03 2.774195671081542969e-01 9.228330105543136597e-03
4.512909799814224243e-02 2.498124241828918457e-01 1.100044697523117065e-03
3.652402758598327637e-02 3.042840063571929932e-01 -1.645085960626602173e-02
1.541283261030912399e-02 3.518030643463134766e-01 1.834022626280784607e-02
1.133248116821050644e-02 3.206022977828979492e-01 3.143757581710815430e-02
1.571273431181907654e-02 2.488222122192382812e-01 4.028228670358657837e-02
2.659682556986808777e-02 3.514993488788604736e-01 2.673375234007835388e-02
4.362838715314865112e-02 2.827875018119812012e-01 1.757952943444252014e-02
2.949314750730991364e-02 2.335642576217651367e-01 -3.104033134877681732e-02
3.703492134809494019e-02 2.613508105278015137e-01 4.246699810028076172e-02
9.821113198995590210e-03 2.956046164035797119e-01 -1.082811132073402405e-02
3.751403838396072388e-02 3.039581775665283203e-01 3.549910336732864380e-02
3.219715133309364319e-02 3.214330673217773438e-01 3.925436735153198242e-02
4.178711399435997009e-02 3.018928170204162598e-01 3.976698964834213257e-03
1.516853552311658859e-02 2.539649605751037598e-01 -2.374717406928539276e-02
3.566388040781021118e-02 3.181034028530120850e-01 -1.138842478394508362e-02
2.182450331747531891e-02 2.020716369152069092e-01 3.024195879697799683e-02
2.342317439615726471e-02 3.484866619110107422e-01 -6.198002025485038757e-03
4.135913774371147156e-02 1.971846073865890503e-01 7.138088345527648926e-03
7.189178839325904846e-03 3.024140596389770508e-01 8.852518163621425629e-03
3.483374416828155518e-02 3.248555064201354980e-01 -8.983125910162925720e-03
3.932775929570198059e-02 1.889636814594268799e-01 1.834042835980653763e-03
4.338083043694496155e-02 2.360387444496154785e-01 2.436121553182601929e-02
1.634193211793899536e-02 2.020129561424255371e-01 1.452018506824970245e-02
9.475070983171463013e-03 2.753156125545501709e-01 2.997231669723987579e-02
2.451031468808650970e-02 2.819727957248687744e-01 5.041053146123886108e-02
1.190015859901905060e-02 2.958140075206756592e-01 -1.660382188856601715e-02
4.369677603244781494e-02 2.765809297561645508e-01 -2.368908375501632690e-03
1.398762222379446030e-02 3.317320048809051514e-01 -8.971095085144042969e-03
8.525846526026725769e-03 3.062556684017181396e-01 -2.626907080411911011e-03
3.876249492168426514e-02 3.160791993141174316e-01 2.427510544657707214e-02
2.123330160975456238e-02 3.471430838108062744e-01 3.310858830809593201e-02
3.133049607276916504e-02 3.173064589500427246e-01 4.192955791950225830e-02
2.792753838002681732e-02 3.436186313629150391e-01 3.263844177126884460e-02
4.321630299091339111e-02 2.912023067474365234e-01 7.510357536375522614e-03
1.282063126564025879e-02 3.189882338047027588e-01 3.577408939599990845e-02
1.310586277395486832e-02 2.263531088829040527e-01 2.474130876362323761e-02
2.288886345922946930e-02 2.496140599250793457e-01 -3.153171390295028687e-02
7.971076294779777527e-03 3.081678748130798340e-01 2.031219750642776489e-02
1.242848578840494156e-02 2.440313994884490967e-01 -1.568552292883396149e-02
1.906405575573444366e-02 3.221439719200134277e-01 4.326812177896499634e-02
4.113149270415306091e-02 2.066048085689544678e-01 2.090385556221008301e-02
2.495055645704269409e-02 2.189666330814361572e-01 -2.789149619638919830e-02
2.219506166875362396e-02 1.921758204698562622e-01 2.298940345644950867e-02
2.118836715817451477e-02 3.027852773666381836e-01 -2.665724046528339386e-02
3.444736823439598083e-02 2.494371384382247925e-01 4.494292289018630981e-02
1.564060151576995850e-02 2.409048527479171753e-01 -2.253754995763301849e-02
1.250792294740676880e-02 2.193713933229446411e-01 -7.007680833339691162e-04
1.507071498781442642e-02 2.310527116060256958e-01 3.320728242397308350e-02
1.849116384983062744e-02 2.442128807306289673e-01 4.309800267219543457e-02
2.786546200513839722e-02 3.359591066837310791e-01 3.765097633004188538e-02
1.406522747129201889e-02 2.836087942123413086e-01 -2.231940627098083496e-02
4.383099824190139771e-02 2.180684655904769897e-01 -1.208798959851264954e-03
3.490657731890678406e-02 2.292785346508026123e-01 -2.733736671507358551e-02
1.895518228411674500e-02 2.066604495048522949e-01 2.834217622876167297e-02
4.490555077791213989e-02 2.671650946140289307e-01 5.510988645255565643e-03
1.658729836344718933e-02 2.851624190807342529e-01 4.563850909471511841e-02
4.115443676710128784e-02 2.134981751441955566e-01 2.479308657348155975e-02
8.058335632085800171e-03 2.541514635086059570e-01 7.136379368603229523e-03
1.213847566395998001e-02 3.392881751060485840e-01 2.897101454436779022e-03
1.494157873094081879e-02 3.508174419403076172e-01 8.340301923453807831e-03
9.113645181059837341e-03 2.435455024242401123e-01 1.309837214648723602e-02
2.555961720645427704e-02 2.008517682552337646e-01 -2.190683968365192413e-02
1.190563570708036423e-02 3.299041390419006348e-01 -4.597578197717666626e-03
6.890628486871719360e-03 2.917580604553222656e-01 1.162633299827575684e-02
1.187276281416416168e-02 2.210427373647689819e-01 6.517804227769374847e-03
4.259081184864044189e-02 2.322897017002105713e-01 2.666375786066055298e-02
3.617255017161369324e-02 1.946843266487121582e-01 2.557714655995368958e-02
3.173663094639778137e-02 1.771150529384613037e-01 -2.740264870226383209e-03
4.100804030895233154e-02 2.519349455833435059e-01 -1.827327162027359009e-02
3.485532104969024658e-02 3.354308009147644043e-01 2.047328278422355652e-03
3.881482034921646118e-02 2.688820362091064453e-01 -2.154986560344696045e-02
3.711894899606704712e-02 2.608548998832702637e-01 -2.541539631783962250e-02
4.230833798646926880e-02 2.168324142694473267e-01 -9.757099673151969910e-03
4.232420027256011963e-02 2.818546891212463379e-01 2.671407349407672882e-02
4.422701895236968994e-02 2.386210411787033081e-01 -6.017081439495086670e-03
2.292510122060775757e-02 2.321799099445343018e-01 -2.955887652933597565e-02
1.634252816438674927e-02 2.263032793998718262e-01 3.389573097229003906e-02
1.027574948966503143e-02 3.098193705081939697e-01 -8.841630071401596069e-03
1.635398343205451965e-02 2.047059088945388794e-01 -6.799235939979553223e-03
7.209012284874916077e-03 2.893458008766174316e-01 2.419504337012767792e-03
2.652269788086414337e-02 3.138028979301452637e-01 4.644195735454559326e-02
2.381675131618976593e-02 2.229597866535186768e-01 4.172924160957336426e-02
4.351868480443954468e-02 2.692172229290008545e-01 -6.556077860295772552e-03
1.647816598415374756e-02 2.274751365184783936e-01 -2.058005332946777344e-02
2.131917327642440796e-02 2.064391374588012695e-01 3.222507983446121216e-02
1.911896653473377228e-02 3.025012314319610596e-01 4.700198769569396973e-02
1.285844668745994568e-02 2.354304045438766479e-01 2.914324961602687836e-02
1.357546262443065643e-02 2.116701900959014893e-01 7.314973510801792145e-03
7.584709674119949341e-03 2.614386081695556641e-01 7.352058775722980499e-03
3.183859586715698242e-02 2.663111686706542969e-01 4.820532351732254028e-02
1.032389327883720398e-02 2.320987284183502197e-01 4.133078269660472870e-03
2.941692620515823364e-02 3.297552466392517090e-01 3.919298201799392700e-02
3.738761693239212036e-02 2.911730110645294189e-01 3.931166976690292358e-02
9.048074483871459961e-03 3.224038183689117432e-01 4.068449139595031738e-03
3.573479875922203064e-02 3.309020400047302246e-01 -7.591955363750457764e-05
1.611691899597644806e-02 3.466634750366210938e-01 2.807072177529335022e-02
3.900438919663429260e-02 2.514394223690032959e-01 -2.274027280509471893e-02
4.001091793179512024e-02 2.699639499187469482e-01 3.647651150822639465e-02
2.164161205291748047e-02 2.691148519515991211e-01 -3.113008849322795868e-02
1.763055473566055298e-02 3.563511371612548828e-01 1.293928362429141998e-02
8.248759433627128601e-03 3.155985176563262939e-01 5.001116078346967697e-03
3.038214519619941711e-02 1.755410134792327881e-01 2.012265380471944809e-03
2.525895833969116211e-02 2.017524242401123047e-01 3.345760703086853027e-02
4.196143522858619690e-02 2.752037644386291504e-01 -1.170516945421695709e-02
4.222211241722106934e-02 2.958627939224243164e-01 5.998741835355758667e-04
3.875779733061790466e-02 2.792858779430389404e-01 3.840865194797515869e-02
3.164733573794364929e-02 3.369649350643157959e-01 -6.866835057735443115e-03
3.589944541454315186e-02 1.849758625030517578e-01 -7.774034515023231506e-03
1.052211970090866089e-02 2.769255638122558594e-01 -1.453949138522148132e-02
3.294763341546058655e-02 2.023482024669647217e-01 3.352663666009902954e-02
3.356401249766349792e-02 3.078504502773284912e-01 4.188609123229980469e-02
2.156005054712295532e-02 3.370579481124877930e-01 -1.422427594661712646e-02
3.495178371667861938e-02 2.444480657577514648e-01 4.384043067693710327e-02
1.568787172436714172e-02 3.494915366172790527e-01 2.387744747102260590e-02
2.373719029128551483e-02 2.463548332452774048e-01 4.749806970357894897e-02
1.301371771842241287e-02 2.831335663795471191e-01 4.014220833778381348e-02
1.035654172301292419e-02 3.235550820827484131e-01 -2.841731533408164978e-03
4.289188981056213379e-02 2.827931344509124756e-01 -4.386059008538722992e-03
1.262218412011861801e-02 2.169657051563262939e-01 9.432239457964897156e-03
7.472496479749679565e-03 2.759238183498382568e-01 2.072285860776901245e-04
4.308629781007766724e-02 2.424751967191696167e-01 -1.179222390055656433e-02
1.870475336909294128e-02 1.964061558246612549e-01 -7.087491452693939209e-03
1.437124051153659821e-02 2.246558815240859985e-01 -1.422229036688804626e-02
3.320235759019851685e-02 3.406971096992492676e-01 2.337383106350898743e-03
2.831984125077724457e-02 2.051607668399810791e-01 3.623836487531661987e-02
3.687097132205963135e-02 2.548001706600189209e-01 4.245305061340332031e-02
9.965216740965843201e-03 2.524981796741485596e-01 2.585268579423427582e-02
3.295174241065979004e-02 2.881935238838195801e-01 -2.660351805388927460e-02
2.819255553185939789e-02 2.825872898101806641e-01 -3.065937198698520660e-02
9.053524583578109741e-03 3.252438902854919434e-01 8.263453841209411621e-03
1.371373049914836884e-02 3.004932701587677002e-01 -1.942887902259826660e-02
1.138071715831756592e-02 2.903237640857696533e-01 3.659505397081375122e-02
3.912421315908432007e-02 3.199869096279144287e-01 1.505310554057359695e-02
2.514999359846115112e-02 1.825545877218246460e-01 1.694274879992008209e-02
7.793091237545013428e-03 2.763715982437133789e-01 2.164749987423419952e-02
9.340096265077590942e-03 2.571056485176086426e-01 2.472239173948764801e-02
4.130963981151580811e-02 3.016391396522521973e-01 -7.511610165238380432e-04
2.796834148466587067e-02 3.110898733139038086e-01 -2.429346181452274323e-02
4.098820686340332031e-02 2.330382615327835083e-01 3.176835179328918457e-02
3.048481233417987823e-02 3.494208455085754395e-01 1.872523315250873566e-02
3.332652524113655090e-02 3.371905982494354248e-01 -2.110922709107398987e-03
4.431519284844398499e-02 2.408176809549331665e-01 2.043616399168968201e-02
1.417657826095819473e-02 2.384924590587615967e-01 3.411065787076950073e-02
1.141014415770769119e-02 2.799549400806427002e-01 3.641464933753013611e-02
8.430892601609230042e-03 3.200742304325103760e-01 1.454177405685186386e-02
4.224057868123054504e-02 2.485418021678924561e-01 3.039106167852878571e-02
4.367525503039360046e-02 2.347005158662796021e-01 -8.507454767823219299e-03
8.955279365181922913e-03 2.445888370275497437e-01 3.897300455719232559e-03
4.097899049520492554e-02 2.792933285236358643e-01 -1.388392224907875061e-02
3.851765766739845276e-02 3.220395147800445557e-01 4.868478048592805862e-03
3.581741452217102051e-02 3.002660870552062988e-01 4.024423658847808838e-02
1.073888130486011505e-02 2.636802792549133301e-01 -1.440302468836307526e-02
9.541040286421775818e-03 2.656146883964538574e-01 2.836596779525279999e-02
1.719808578491210938e-02 3.517349660396575928e-01 1.701173838227987289e-03
3.020876646041870117e-02 1.972178816795349121e-01 3.203713521361351013e-02
1.199666969478130341e-02 2.275576591491699219e-01 2.041736990213394165e-02
1.783818565309047699e-02 2.127419263124465942e-01 2.991812117397785187e-02
3.650457412004470825e-02 3.215951323509216309e-01 2.947489917278289795e-02
3.073134273290634155e-02 2.759023904800415039e-01 4.895075410604476929e-02
3.294966742396354675e-02 1.872031390666961670e-01 2.378356084227561951e-02
6.973877549171447754e-03 2.961903214454650879e-01 1.196520309895277023e-02
3.511931002140045166e-02 3.170912265777587891e-01 3.580508008599281311e-02
4.363694787025451660e-02 2.461414635181427002e-01 2.478311583399772644e-02
1.390927843749523163e-02 2.321449518203735352e-01 -1.609820313751697540e-02
3.685028105974197388e-02 2.210754305124282837e-01 3.669665381312370300e-02
2.020360343158245087e-02 3.123822808265686035e-01 -2.372759394347667694e-02
2.490179799497127533e-02 3.067472577095031738e-01 4.818984121084213257e-02
3.402065485715866089e-02 2.715204060077667236e-01 4.630643874406814575e-02
3.667617589235305786e-02 2.038382887840270996e-01 -1.895695179700851440e-02
4.045310616493225098e-02 3.021687269210815430e-01 -5.289322696626186371e-03
1.579331234097480774e-02 3.292059004306793213e-01 3.768131136894226074e-02
8.035017177462577820e-03 2.721620798110961914e-01 -3.547359257936477661e-03
1.823407411575317383e-02 2.023471891880035400e-01 -1.153636910021305084e-02
7.221736013889312744e-03 3.029884099960327148e-01 1.328321732580661774e-02
3.574256971478462219e-02 2.339977174997329712e-01 -2.698568813502788544e-02
3.185029700398445129e-02 3.471980988979339600e-01 1.172332279384136200e-02
4.387672990560531616e-02 2.812824845314025879e-01 2.847836818546056747e-03
7.843058556318283081e-03 3.027964830398559570e-01 2.133235707879066467e-02
2.413531765341758728e-02 2.878924608230590820e-01 5.017167329788208008e-02
4.060418158769607544e-02 2.352867871522903442e-01 -1.890746131539344788e-02
4.163637757301330566e-02 1.991369128227233887e-01 1.446550711989402771e-03
3.717574104666709900e-02 1.892752647399902344e-01 1.896444708108901978e-02
2.147524058818817139e-02 2.184536904096603394e-01 -2.515119127929210663e-02
4.431443661451339722e-02 2.522338032722473145e-01 2.146162651479244232e-02
2.474265359342098236e-02 2.887029945850372314e-01 -3.018782846629619598e-02
9.448062628507614136e-03 2.449135780334472656e-01 1.835931092500686646e-02
1.887392252683639526e-02 2.335525006055831909e-01 -2.602239884436130524e-02
1.165251713246107101e-02 2.690535187721252441e-01 3.585737943649291992e-02
3.899307176470756531e-02 1.935406327247619629e-01 1.783119514584541321e-02
3.907325491309165955e-02 2.814694643020629883e-01 -1.846330054104328156e-02
1.428553927689790726e-02 2.127244174480438232e-01 -5.100267939269542694e-03
3.453729301691055298e-02 2.765280306339263916e-01 4.554535448551177979e-02
8.226605132222175598e-03 2.595539093017578125e-01 -1.084559597074985504e-03
4.457238316535949707e-02 2.735433578491210938e-01 1.236460264772176743e-02
4.088747501373291016e-02 2.261944264173507690e-01 3.032732754945755005e-02
2.765824086964130402e-02 2.638945877552032471e-01 4.992154240608215332e-02
4.469435289502143860e-02 2.585466802120208740e-01 1.824538968503475189e-02
1.560207270085811615e-02 2.031759023666381836e-01 1.321304123848676682e-03
2.978217229247093201e-02 2.513785660266876221e-01 -3.211721777915954590e-02
4.293620213866233826e-02 2.205847054719924927e-01 2.117426134645938873e-02
8.050601929426193237e-03 3.128304779529571533e-01 1.820849627256393433e-02
2.625875920057296753e-02 1.790703237056732178e-01 -3.628620877861976624e-03
1.266868971288204193e-02 3.348537981510162354e-01 2.841128781437873840e-02
3.564304858446121216e-02 1.964367032051086426e-01 -1.699655875563621521e-02
4.065908864140510559e-02 2.729331254959106445e-01 -1.645785756409168243e-02
1.712838560342788696e-02 2.867868542671203613e-01 -2.624687738716602325e-02
8.529299870133399963e-03 2.649057805538177490e-01 2.317856065928936005e-02
3.931712731719017029e-02 2.402140647172927856e-01 -2.203595265746116638e-02
1.350230351090431213e-02 3.247709572315216064e-01 -1.150911673903465271e-02
1.631638407707214355e-02 2.162164151668548584e-01 -1.546448469161987305e-02
7.800327613949775696e-03 2.895094156265258789e-01 2.294661104679107666e-02
1.459570229053497314e-02 2.668084800243377686e-01 -2.364050783216953278e-02
1.544603519141674042e-02 3.216215670108795166e-01 -1.618462800979614258e-02
9.730136021971702576e-03 2.373982667922973633e-01 3.224672749638557434e-03
1.096065528690814972e-02 2.282017171382904053e-01 1.248963735997676849e-02
9.361246600747108459e-03 2.499183118343353271e-01 2.129624783992767334e-02
3.224514052271842957e-02 1.877626776695251465e-01 -1.502016186714172363e-02
2.927609160542488098e-02 1.777331978082656860e-01 1.352713909000158310e-02
4.169577732682228088e-02 2.477473616600036621e-01 -1.651781238615512848e-02
1.951678469777107239e-02 1.919211447238922119e-01 1.450113393366336823e-02
3.947809338569641113e-02 3.014223575592041016e-01 3.064336255192756653e-02
9.342126548290252686e-03 3.159607946872711182e-01 2.560221962630748749e-02
3.772760927677154541e-02 3.202544450759887695e-01 -2.845751121640205383e-03
4.076708108186721802e-02 3.062905073165893555e-01 2.003787085413932800e-04
2.663393504917621613e-02 1.839540302753448486e-01 -1.122852973639965057e-02
3.493209555745124817e-02 3.373904228210449219e-01 6.863437592983245850e-03
1.638546958565711975e-02 2.047938257455825806e-01 1.889771223068237305e-02
2.196272462606430054e-02 2.303797751665115356e-01 4.280304908752441406e-02
4.490683972835540771e-02 2.606129050254821777e-01 1.087225042283535004e-03
2.522702515125274658e-02 2.134899944067001343e-01 -2.649847231805324554e-02
3.140002489089965820e-02 2.050861567258834839e-01 -2.416462637484073639e-02
8.731240406632423401e-03 2.804355621337890625e-01 2.749557048082351685e-02
1.374612562358379364e-02 2.981413006782531738e-01 4.112442582845687866e-02
1.255620084702968597e-02 2.555593848228454590e-01 -1.846784166991710663e-02
3.714812546968460083e-02 2.973098158836364746e-01 -1.784934662282466888e-02
3.287240490317344666e-02 3.008291721343994141e-01 4.446388781070709229e-02
1.080635655671358109e-02 3.204865455627441406e-01 -6.289407610893249512e-03
1.295127347111701965e-02 2.216446548700332642e-01 -6.560260429978370667e-03
9.871542453765869141e-03 3.316980600357055664e-01 1.087797712534666061e-02
4.484977945685386658e-02 2.281560003757476807e-01 4.177502356469631195e-03
9.977307170629501343e-03 3.206745386123657227e-01 2.644740231335163116e-02
1.234031189233064651e-02 2.626288533210754395e-01 -1.877806708216667175e-02
3.790862858295440674e-02 3.219020068645477295e-01 2.300262451171875000e-02
1.367751508951187134e-02 2.122645676136016846e-01 1.205478794872760773e-02
4.349031299352645874e-02 2.741895914077758789e-01 2.298062108457088470e-02
1.451031304895877838e-02 2.199846357107162476e-01 -1.210959255695343018e-02
1.112814806401729584e-02 2.407372891902923584e-01 -9.813243523240089417e-03
