7.218160480260848999e-02 -1.627781242132186890e-01 -1.310914754867553711e-01
-2.446369230747222900e-01 -1.248974502086639404e-01 -2.749962806701660156e-01
5.257684588432312012e-01 -8.315737545490264893e-02 1.347262412309646606e-01
5.508185029029846191e-01 1.054482907056808472e-02 2.064411044120788574e-01
1.898130923509597778e-01 2.897926792502403259e-02 6.095593571662902832e-01
3.224849104881286621e-01 -1.437645703554153442e-01 6.944187730550765991e-02
5.649229884147644043e-01 -3.528217226266860962e-02 -2.080090939998626709e-01
-3.923352062702178955e-01 -7.746811211109161377e-02 1.530210375785827637e-01
2.846118211746215820e-01 3.090716525912284851e-02 5.621343851089477539e-01
-5.827628821134567261e-02 1.103809848427772522e-02 -6.014465093612670898e-01
-2.820806801319122314e-01 3.965150564908981323e-03 3.597588539123535156e-01
4.438861012458801270e-01 -1.129645854234695435e-01 -1.059644520282745361e-01
-1.457990407943725586e-01 1.768285408616065979e-02 5.237967371940612793e-01
3.062206208705902100e-01 -1.244483590126037598e-01 4.369317889213562012e-01
5.242856144905090332e-01 3.695295378565788269e-02 -1.135704666376113892e-01
1.871187239885330200e-01 -1.541296392679214478e-01 2.950100898742675781e-01
5.320594906806945801e-01 2.138949185609817505e-02 -2.345056980848312378e-01
2.742581665515899658e-01 -1.440619975328445435e-01 -1.794739812612533569e-01
3.386032581329345703e-01 -1.296833604574203491e-01 3.281025886535644531e-01
-1.367684006690979004e-01 -1.417247802019119263e-01 -2.985104322433471680e-01
4.463328123092651367e-01 3.676181659102439880e-02 -3.730120062828063965e-01
1.486095339059829712e-01 -1.219698637723922729e-01 5.925990939140319824e-01
-2.403984367847442627e-01 -1.088290065526962280e-01 -3.763489127159118652e-01
5.371395498514175415e-02 7.885484397411346436e-02 -2.308000475168228149e-01
2.719719111919403076e-01 7.381157577037811279e-02 -3.069147467613220215e-01
-3.925830721855163574e-01 -4.956352338194847107e-02 -9.446471184492111206e-02
2.854138612747192383e-02 -1.183407902717590332e-01 6.315552592277526855e-01
2.676365375518798828e-01 6.205845996737480164e-02 3.923061490058898926e-01
3.805205523967742920e-01 -4.019079729914665222e-02 -5.772448182106018066e-01
-2.540622353553771973e-01 -3.659099340438842773e-03 -4.127689599990844727e-01
-2.340939939022064209e-01 -1.158536076545715332e-01 4.703389406204223633e-01
-1.885024905204772949e-01 -2.581253089010715485e-02 -5.556817054748535156e-01
3.001177310943603516e-01 8.285556733608245850e-02 -5.039680749177932739e-02
-1.807406544685363770e-03 -1.583384722471237183e-01 -2.112750858068466187e-01
-1.915948987007141113e-01 4.749744012951850891e-02 -1.816690862178802490e-01
3.991694450378417969e-01 -2.565737813711166382e-03 -5.535508990287780762e-01
-1.243549510836601257e-01 -1.190006136894226074e-01 5.733454227447509766e-01
-1.263598352670669556e-02 7.219803333282470703e-02 2.331756800413131714e-01
-7.575797289609909058e-02 -1.654719859361648560e-01 1.084813177585601807e-01
-3.145362734794616699e-01 1.358203217387199402e-02 1.328404247760772705e-01
3.154305517673492432e-01 7.534022629261016846e-02 -2.357579916715621948e-01
-2.887163758277893066e-01 -1.129373610019683838e-01 -2.628437876701354980e-01
6.863994896411895752e-02 -3.554027527570724487e-03 7.114887833595275879e-01
1.880039572715759277e-01 -1.026693135499954224e-01 -5.652810335159301758e-01
2.359632849693298340e-01 8.624026179313659668e-02 3.735487535595893860e-02
-4.093376547098159790e-02 6.419765949249267578e-02 3.042503595352172852e-01
-1.556996256113052368e-02 -4.144657775759696960e-02 7.422319650650024414e-01
-3.602204620838165283e-01 -5.883319303393363953e-02 -2.513897418975830078e-01
-1.055537387728691101e-01 6.693795323371887207e-02 9.637730568647384644e-02
1.757625937461853027e-01 -1.286167800426483154e-01 5.425879359245300293e-01
-1.683101058006286621e-01 3.841571137309074402e-02 3.594309091567993164e-01
-1.290422379970550537e-01 -1.469426006078720093e-01 3.911089897155761719e-01
-2.386516928672790527e-01 3.397839143872261047e-02 -1.994091570377349854e-01
-1.410452425479888916e-01 -1.181913726031780243e-02 -5.851848125457763672e-01
-2.004402577877044678e-01 2.169496566057205200e-02 -3.983110785484313965e-01
-3.237333893775939941e-01 -7.955710589885711670e-02 -3.215367794036865234e-01
-3.419498503208160400e-01 3.792937844991683960e-03 -3.471039235591888428e-04
-2.023920714855194092e-01 -1.413183510303497314e-01 -2.069117128849029541e-01
3.804009556770324707e-01 -9.442113339900970459e-02 -4.288056492805480957e-01
3.972041606903076172e-01 2.841066196560859680e-02 4.699946045875549316e-01
-3.852086365222930908e-01 -8.038637042045593262e-02 1.969164907932281494e-01
-1.432670354843139648e-01 -1.604487597942352295e-01 6.123416870832443237e-02
-3.158977925777435303e-01 -1.847904175519943237e-03 -2.472993284463882446e-01
4.829769730567932129e-01 -1.005353927612304688e-01 -9.731594473123550415e-02
3.066717088222503662e-02 -1.669461727142333984e-01 -3.176087141036987305e-02
3.649717271327972412e-01 7.630670070648193359e-02 -3.390191495418548584e-02
-2.194435298442840576e-01 -1.493187397718429565e-01 1.526673883199691772e-01
9.453487396240234375e-02 -1.107932776212692261e-01 6.556274294853210449e-01
1.006606221199035645e-01 8.472982048988342285e-02 -1.481186598539352417e-01
-2.527548074722290039e-01 -1.340974867343902588e-01 3.051099181175231934e-01
5.295515060424804688e-01 -6.788153946399688721e-02 -2.172940522432327271e-01
2.648608386516571045e-01 -1.426912695169448853e-01 3.271465897560119629e-01
5.703240633010864258e-03 8.078302443027496338e-02 -6.897078454494476318e-02
-2.555927634239196777e-01 -1.387579441070556641e-01 2.337585091590881348e-01
-1.903166770935058594e-01 8.154287934303283691e-05 5.425427556037902832e-01
-4.128906875848770142e-02 -3.623335435986518860e-02 -6.744940876960754395e-01
5.782279372215270996e-01 -1.935567706823348999e-03 1.104084774851799011e-01
-2.065921425819396973e-01 -1.521840840578079224e-01 2.958056330680847168e-02
1.120427548885345459e-01 -1.618647724390029907e-01 -1.203378885984420776e-01
2.503159940242767334e-01 2.981680259108543396e-02 5.851137042045593262e-01
1.752253323793411255e-01 -1.616556644439697266e-01 1.128377690911293030e-01
-1.258596777915954590e-01 -3.512905165553092957e-02 6.814385652542114258e-01
2.316633760929107666e-01 -1.556528657674789429e-01 -2.480920404195785522e-02
1.759085953235626221e-01 -9.415183961391448975e-02 6.822251081466674805e-01
2.846670448780059814e-01 -1.492522060871124268e-01 1.180222555994987488e-01
2.146594822406768799e-01 -1.319651305675506592e-01 4.914976954460144043e-01
4.722363948822021484e-01 -1.063671410083770752e-01 1.188415810465812683e-01
2.343903481960296631e-01 7.567763328552246094e-02 2.747795283794403076e-01
5.263369679450988770e-01 3.849075362086296082e-02 2.056805416941642761e-03
2.047122120857238770e-01 -7.680366933345794678e-02 7.068847417831420898e-01
4.959264397621154785e-01 2.111011743545532227e-02 3.302965164184570312e-01
-2.889530956745147705e-01 1.565386354923248291e-02 -2.099176943302154541e-01
3.849544823169708252e-01 4.522384330630302429e-02 -4.209685325622558594e-01
4.292076453566551208e-02 6.817716360092163086e-02 -3.619217872619628906e-01
1.279491931200027466e-01 -1.083910465240478516e-02 7.261608242988586426e-01
2.958769500255584717e-01 4.825909063220024109e-02 -4.893850088119506836e-01
1.381969302892684937e-01 6.181269884109497070e-03 -6.733813881874084473e-01
5.649093985557556152e-01 -5.598853528499603271e-02 -1.055500656366348267e-01
2.297517955303192139e-01 -1.513981074094772339e-01 2.642231583595275879e-01
-9.392667561769485474e-02 6.949086487293243408e-02 -6.687346845865249634e-02
-1.020884886384010315e-01 -2.155445516109466553e-03 -6.008542776107788086e-01
4.496913850307464600e-01 4.244336858391761780e-02 -3.313586711883544922e-01
1.876208484172821045e-01 -1.488516479730606079e-01 -2.502158284187316895e-01
-4.788359254598617554e-02 -1.589924246072769165e-01 -1.806636601686477661e-01
-2.828576862812042236e-01 -8.678852021694183350e-02 4.902735948562622070e-01
3.440357446670532227e-01 6.968243420124053955e-02 -2.717441320419311523e-01
-5.437029153108596802e-02 7.361996173858642578e-02 1.007948517799377441e-01
-2.711261808872222900e-02 -1.584727019071578979e-01 3.361780643463134766e-01
-2.745100110769271851e-02 -1.512515246868133545e-01 4.190219044685363770e-01
3.816387057304382324e-01 -1.177152246236801147e-01 3.481165766716003418e-01
-1.852564215660095215e-01 -4.642843082547187805e-02 6.399683356285095215e-01
5.550600886344909668e-01 2.414664998650550842e-02 -3.237872570753097534e-02
1.349615007638931274e-01 -1.483539491891860962e-01 -2.997939586639404297e-01
-1.215687021613121033e-01 -1.620178073644638062e-01 1.305136829614639282e-01
1.368808746337890625e-01 -1.517933309078216553e-01 3.815538883209228516e-01
1.279513537883758545e-01 8.390952646732330322e-02 1.565930843353271484e-01
2.083643376827239990e-01 7.909491658210754395e-02 2.403848469257354736e-01
-1.520133912563323975e-01 5.350424721837043762e-02 2.246934175491333008e-01
2.353269159793853760e-01 5.802335217595100403e-02 4.408589601516723633e-01
-2.530855238437652588e-01 -1.397570967674255371e-01 -8.972724527120590210e-02
-3.224711865186691284e-02 -1.668663918972015381e-01 1.396329849958419800e-01
5.465069413185119629e-01 -7.238236069679260254e-02 -6.778213381767272949e-02
-2.183309197425842285e-01 -3.061239048838615417e-02 5.863913893699645996e-01
3.283271193504333496e-01 7.326415181159973145e-02 2.083935290575027466e-01
-1.172963529825210571e-02 -1.678025722503662109e-01 1.014291867613792419e-01
3.275622427463531494e-02 5.803168937563896179e-02 -4.421219229698181152e-01
1.278121024370193481e-01 8.752140402793884277e-02 -5.591433495283126831e-03
4.002979695796966553e-01 6.980541348457336426e-02 -1.171280443668365479e-01
6.130094081163406372e-02 -1.572422087192535400e-01 -2.265532761812210083e-01
-2.005188763141632080e-01 5.049476400017738342e-02 3.508111461997032166e-02
5.365027189254760742e-01 -7.305440306663513184e-02 -1.402317583560943604e-01
5.589071512222290039e-01 -1.092066615819931030e-02 2.487394809722900391e-01
4.966016709804534912e-01 -6.356328725814819336e-02 3.851211071014404297e-01
2.627542316913604736e-01 7.796598970890045166e-02 2.205549329519271851e-01
4.017043709754943848e-01 -1.047277301549911499e-01 4.046087265014648438e-01
3.864924013614654541e-01 -5.077704414725303650e-02 5.973731279373168945e-01
2.187382280826568604e-01 -1.387849599123001099e-01 -3.258215785026550293e-01
-1.409841477870941162e-01 -1.408831924200057983e-01 4.321047067642211914e-01
2.942699193954467773e-01 -1.424766033887863159e-01 2.633162736892700195e-01
-3.650125265121459961e-01 -1.156271062791347504e-02 -5.620267987251281738e-02
3.651398420333862305e-01 -1.296973824501037598e-01 -1.582280546426773071e-01
-1.296843886375427246e-01 4.845070466399192810e-02 3.370938897132873535e-01
4.055971205234527588e-01 7.034435868263244629e-02 -2.370569854974746704e-02
-2.178696990013122559e-01 3.411078080534934998e-02 -2.676630616188049316e-01
2.376648485660552979e-01 8.519133925437927246e-02 8.551922440528869629e-02
1.874079555273056030e-02 8.218620717525482178e-02 2.706497907638549805e-03
4.520324468612670898e-01 3.946923092007637024e-02 3.221575021743774414e-01
5.274962186813354492e-01 -3.153396770358085632e-02 -3.435023427009582520e-01
5.909167230129241943e-03 -1.660303175449371338e-01 2.013372927904129028e-01
-3.376179635524749756e-01 -1.012171655893325806e-01 -1.963379085063934326e-01
-7.772456854581832886e-02 -1.524713337421417236e-01 3.803735971450805664e-01
-1.159596219658851624e-01 6.118583306670188904e-02 -2.050344347953796387e-01
-5.485341697931289673e-02 -1.651145368814468384e-01 1.818422675132751465e-01
-3.368342816829681396e-01 -1.133655011653900146e-01 -9.587679803371429443e-02
6.736144423484802246e-02 -9.490875899791717529e-02 7.053701877593994141e-01
1.393647044897079468e-01 -1.421284526586532593e-01 -3.567031025886535645e-01
7.940680533647537231e-02 -1.657993197441101074e-01 -4.416421055793762207e-02
-3.447433710098266602e-01 -8.437664806842803955e-02 3.565416336059570312e-01
-1.523357927799224854e-01 -1.590030938386917114e-01 1.012550387531518936e-02
1.224217116832733154e-01 7.207730412483215332e-02 3.356668353080749512e-01
9.755865484476089478e-02 -1.662840843200683594e-01 1.211306899785995483e-01
4.958776831626892090e-01 -9.549790620803833008e-02 1.626190990209579468e-01
-1.784753203392028809e-01 -1.553140431642532349e-01 1.600997149944305420e-01
-1.372133195400238037e-01 -1.090986579656600952e-01 -4.918422102928161621e-01
5.123118758201599121e-01 -1.104713045060634613e-02 -3.830529451370239258e-01
2.984765768051147461e-01 -1.460908800363540649e-01 -5.637831985950469971e-02
2.674314379692077637e-01 6.815582513809204102e-02 3.376255631446838379e-01
-2.296904325485229492e-01 1.909368485212326050e-02 -3.555406332015991211e-01
-4.464337974786758423e-02 -1.320453733205795288e-01 5.528930425643920898e-01
2.858188152313232422e-01 -1.391407102346420288e-01 -2.265364974737167358e-01
-3.946764469146728516e-01 -7.531610131263732910e-02 -3.817929327487945557e-02
3.933278918266296387e-01 -9.896847605705261230e-02 -3.831778168678283691e-01
1.740813106298446655e-01 -1.465525031089782715e-01 4.062791466712951660e-01
-1.186254695057868958e-01 -1.555479913949966431e-01 2.999829053878784180e-01
3.934886157512664795e-01 6.233384832739830017e-02 -2.704964280128479004e-01
3.385784029960632324e-01 -1.318574994802474976e-01 -2.049431204795837402e-01
4.086155593395233154e-01 6.478027999401092529e-02 1.603262871503829956e-01
3.460316359996795654e-02 -1.366484761238098145e-01 5.397350192070007324e-01
4.066995382308959961e-01 -2.566741108894348145e-01 -2.150347530841827393e-01
4.711469113826751709e-01 -5.999533832073211670e-02 2.725592851638793945e-01
4.161314964294433594e-01 -2.346680164337158203e-01 -5.629563331604003906e-01
4.699141681194305420e-01 -2.159754782915115356e-01 -6.734158992767333984e-01
4.394343793392181396e-01 -6.460434198379516602e-02 3.219438195228576660e-01
4.177246689796447754e-01 -8.793590217828750610e-02 1.250939816236495972e-02
4.146386086940765381e-01 -1.586957722902297974e-01 -5.397018790245056152e-01
4.432967901229858398e-01 -4.448530077934265137e-02 -1.219315379858016968e-01
4.188270568847656250e-01 -1.124616414308547974e-01 3.619535863399505615e-01
4.692723751068115234e-01 -2.435567975044250488e-01 1.856154501438140869e-01
4.786586761474609375e-01 -8.082111179828643799e-02 2.977255284786224365e-01
4.945836663246154785e-01 -1.235884577035903931e-01 -5.265866219997406006e-02
4.014305770397186279e-01 -1.790917962789535522e-01 -2.032308280467987061e-01
4.516439735889434814e-01 -2.674209475517272949e-01 -5.637561678886413574e-01
4.674708247184753418e-01 -1.704525649547576904e-01 5.051503181457519531e-01
4.235174655914306641e-01 -7.421075552701950073e-02 -9.017306566238403320e-02
4.001603722572326660e-01 -1.845658719539642334e-01 2.670110017061233521e-02
4.137873053550720215e-01 -1.219102516770362854e-01 3.052147924900054932e-01
4.695883393287658691e-01 -2.166975140571594238e-01 3.494426608085632324e-01
4.083554148674011230e-01 -1.396398544311523438e-01 -3.079693615436553955e-01
4.086333215236663818e-01 -1.902438402175903320e-01 -4.742062389850616455e-01
4.073922038078308105e-01 -1.248664706945419312e-01 -1.172018051147460938e-02
4.639497697353363037e-01 -2.567733824253082275e-01 1.669926047325134277e-01
4.621411263942718506e-01 -5.609194934368133545e-02 3.100653588771820068e-01
4.063071608543395996e-01 -1.607310622930526733e-01 2.709133327007293701e-01
3.998024463653564453e-01 -1.933359354734420776e-01 4.601731896400451660e-03
4.045066535472869873e-01 -2.491007894277572632e-01 5.344875156879425049e-03
4.842748641967773438e-01 -1.671443730592727661e-01 -5.863543748855590820e-01
4.591678082942962646e-01 -1.934060305356979370e-01 5.277892351150512695e-01
4.133186638355255127e-01 -2.022604942321777344e-01 4.232635498046875000e-01
4.315583407878875732e-01 -6.247890740633010864e-02 -2.018258571624755859e-01
4.221352338790893555e-01 -1.373528838157653809e-01 -5.945507287979125977e-01
4.133534729480743408e-01 -1.067884266376495361e-01 -1.944047063589096069e-01
4.813251793384552002e-01 -1.379089653491973877e-01 -6.382777094841003418e-01
4.221841692924499512e-01 -2.848385870456695557e-01 7.186742871999740601e-02
4.394747614860534668e-01 -1.261297315359115601e-01 -7.226384282112121582e-01
4.362459182739257812e-01 -6.283910572528839111e-02 -3.229594528675079346e-01
4.210912883281707764e-01 -1.749789267778396606e-01 5.247603654861450195e-01
4.608855545520782471e-01 -8.164796233177185059e-02 4.589359164237976074e-01
4.497367143630981445e-01 -5.005522817373275757e-02 2.532406747341156006e-01
4.934033751487731934e-01 -1.205474659800529480e-01 -3.204949796199798584e-01
4.075998663902282715e-01 -1.921988427639007568e-01 -4.516317248344421387e-01
4.851397275924682617e-01 -7.218398898839950562e-02 -3.125093579292297363e-01
4.950036108493804932e-01 -1.243154034018516541e-01 -1.179566904902458191e-01
4.341993033885955811e-01 -2.913212776184082031e-01 -3.546774089336395264e-01
4.111735522747039795e-01 -1.947229057550430298e-01 4.002874493598937988e-01
4.455264210700988770e-01 -1.892070025205612183e-01 -8.140115737915039062e-01
4.109703898429870605e-01 -1.097777485847473145e-01 -3.579489141702651978e-02
4.614437520503997803e-01 -6.980619579553604126e-02 -5.429590940475463867e-01
4.621847271919250488e-01 -3.833049535751342773e-02 -1.816330552101135254e-01
4.005766808986663818e-01 -1.737784445285797119e-01 -5.762255564332008362e-02
4.207578301429748535e-01 -2.450494617223739624e-01 -5.894835591316223145e-01
4.121550023555755615e-01 -2.743694186210632324e-01 -1.968929320573806763e-01
4.596852064132690430e-01 -3.595751523971557617e-02 -4.744641855359077454e-02
4.260835349559783936e-01 -2.904984951019287109e-01 -2.965332269668579102e-01
4.125357270240783691e-01 -2.142365872859954834e-01 -5.450744032859802246e-01
4.045864939689636230e-01 -2.218896597623825073e-01 -3.488721847534179688e-01
4.211483597755432129e-01 -1.952711641788482666e-01 -6.716887354850769043e-01
4.133210480213165283e-01 -2.777104377746582031e-01 -5.710671469569206238e-02
4.010808467864990234e-01 -1.710149049758911133e-01 -1.192039400339126587e-01
4.912904500961303711e-01 -1.429180353879928589e-01 1.251390278339385986e-01
4.900811016559600830e-01 -1.147892698645591736e-01 -4.320638477802276611e-01
4.929158091545104980e-01 -1.654060184955596924e-01 -3.035576939582824707e-01
4.816340208053588867e-01 -2.240963876247406006e-01 -3.780863881111145020e-01
4.689109027385711670e-01 -1.263014972209930420e-01 -7.326838374137878418e-01
4.947842657566070557e-01 -1.176593154668807983e-01 -1.539419591426849365e-01
4.811361134052276611e-01 -1.013661250472068787e-01 3.294296860694885254e-01
4.266817569732666016e-01 -7.837194204330444336e-02 -3.053970932960510254e-01
4.692730009555816650e-01 -3.986537456512451172e-02 6.187729537487030029e-03
4.738779664039611816e-01 -4.848993569612503052e-02 1.098662093281745911e-01
4.929018616676330566e-01 -1.359985023736953735e-01 -3.707991540431976318e-01
4.927330315113067627e-01 -1.064162552356719971e-01 -2.921867966651916504e-01
4.880712628364562988e-01 -1.284929364919662476e-01 -5.118353366851806641e-01
4.746864736080169678e-01 -2.229281663894653320e-01 -5.763046741485595703e-01
4.851249754428863525e-01 -1.281084567308425903e-01 -5.692493319511413574e-01
4.079716503620147705e-01 -1.253324896097183228e-01 -1.402630209922790527e-01
4.886005818843841553e-01 -7.680882513523101807e-02 -1.217123121023178101e-02
4.186301529407501221e-01 -2.866649031639099121e-01 -8.372502028942108154e-02
4.459515810012817383e-01 -5.625005066394805908e-02 -3.776730895042419434e-01
4.584046602249145508e-01 -8.735853433609008789e-02 -6.397730112075805664e-01
4.871606528759002686e-01 -9.404554963111877441e-02 -4.242645502090454102e-01
4.437530934810638428e-01 -2.866584360599517822e-01 8.934613317251205444e-02
4.728969335556030273e-01 -5.649679154157638550e-02 2.220732867717742920e-01
4.768782854080200195e-01 -1.038251593708992004e-01 3.959366083145141602e-01
4.627204537391662598e-01 -3.642813861370086670e-02 -8.568563312292098999e-02
4.859951138496398926e-01 -7.280936092138290405e-02 -2.901038527488708496e-01
4.768342971801757812e-01 -1.141502335667610168e-01 4.144450426101684570e-01
4.695761501789093018e-01 -1.991894692182540894e-01 4.176713228225708008e-01
4.748849868774414062e-01 -1.132553666830062866e-01 -6.641843318939208984e-01
4.038580358028411865e-01 -2.434745728969573975e-01 4.232423752546310425e-02
4.775539338588714600e-01 -2.123369872570037842e-01 2.338039577007293701e-01
4.333318173885345459e-01 -1.327278017997741699e-01 -6.990520954132080078e-01
4.906153380870819092e-01 -1.816921085119247437e-01 -3.428324759006500244e-01
4.154247343540191650e-01 -1.777600944042205811e-01 4.652415513992309570e-01
4.931663572788238525e-01 -1.030876338481903076e-01 -3.789090365171432495e-02
4.017675817012786865e-01 -1.762215495109558105e-01 1.324478089809417725e-01
4.002462327480316162e-01 -2.143115103244781494e-01 1.411292701959609985e-02
4.925301969051361084e-01 -1.584250032901763916e-01 -3.600187599658966064e-01
4.691892564296722412e-01 -4.653152823448181152e-02 -2.962879538536071777e-01
4.908480644226074219e-01 -1.826007664203643799e-01 -3.193728923797607422e-01
4.862011671066284180e-01 -1.782583892345428467e-01 -5.212769508361816406e-01
4.824607670307159424e-01 -5.666532367467880249e-02 -1.168788969516754150e-01
4.873332381248474121e-01 -2.083210647106170654e-01 -1.662462949752807617e-01
4.901479482650756836e-01 -1.273081898689270020e-01 1.696706116199493408e-01
4.636511504650115967e-01 -2.355023175477981567e-01 -6.583899259567260742e-01
4.447836875915527344e-01 -4.216710478067398071e-02 -1.190976053476333618e-02
4.405726790428161621e-01 -4.739256203174591064e-02 7.325606793165206909e-02
4.155742824077606201e-01 -2.061663269996643066e-01 4.451752305030822754e-01
4.563526511192321777e-01 -2.536067664623260498e-01 -6.244378089904785156e-01
4.059465825557708740e-01 -2.560860216617584229e-01 -1.665951609611511230e-01
4.096449017524719238e-01 -1.397820413112640381e-01 -3.525978326797485352e-01
4.484691023826599121e-01 -2.293981909751892090e-01 4.772556424140930176e-01
4.491533637046813965e-01 -2.695347666740417480e-01 2.398365139961242676e-01
4.310589730739593506e-01 -5.924382805824279785e-02 2.626030892133712769e-02
4.078766107559204102e-01 -1.739443093538284302e-01 3.370592594146728516e-01
4.521081745624542236e-01 -3.966826200485229492e-02 9.042214602231979370e-02
4.083222448825836182e-01 -1.256771683692932129e-01 -1.730964481830596924e-01
4.773244857788085938e-01 -1.423704922199249268e-01 4.221957325935363770e-01
4.704263508319854736e-01 -4.241526871919631958e-02 6.180544942617416382e-02
4.834227561950683594e-01 -2.146495878696441650e-01 -4.053213298320770264e-01
4.600579738616943359e-01 -2.101628035306930542e-01 4.757895469665527344e-01
4.112173020839691162e-01 -2.258063107728958130e-01 3.414895832538604736e-01
4.748820066452026367e-01 -1.475743651390075684e-01 4.507354497909545898e-01
4.410181641578674316e-01 -2.129692882299423218e-01 5.471250414848327637e-01
4.869939684867858887e-01 -6.984519213438034058e-02 -1.838201135396957397e-01
4.045470356941223145e-01 -2.444184273481369019e-01 -2.358199656009674072e-01
4.215053021907806396e-01 -1.608934700489044189e-01 -6.455192565917968750e-01
4.746052920818328857e-01 -1.189413666725158691e-01 4.465953111648559570e-01
4.313496947288513184e-01 -1.081259772181510925e-01 -5.925524830818176270e-01
4.812932610511779785e-01 -5.502820014953613281e-02 -1.618538200855255127e-01
4.714224934577941895e-01 -2.531022727489471436e-01 1.657105982303619385e-02
4.873979389667510986e-01 -2.004331499338150024e-01 -3.585231602191925049e-01
4.132820665836334229e-01 -1.503655314445495605e-01 4.036084413528442383e-01
4.707814157009124756e-01 -2.416671514511108398e-01 -5.258333683013916016e-01
4.027021229267120361e-01 -2.149394750595092773e-01 1.678234040737152100e-01
4.168577194213867188e-01 -2.342499792575836182e-01 3.860000371932983398e-01
4.007294774055480957e-01 -2.192464470863342285e-01 -1.582823097705841064e-01
4.757004976272583008e-01 -1.747346073389053345e-01 -7.015516161918640137e-01
4.661197662353515625e-01 -7.688075304031372070e-02 -5.739864110946655273e-01
4.099710285663604736e-01 -1.730472743511199951e-01 3.793378472328186035e-01
4.134742021560668945e-01 -1.859370023012161255e-01 4.388419389724731445e-01
4.905621111392974854e-01 -9.588008373975753784e-02 7.281077653169631958e-02
4.160850346088409424e-01 -1.056307703256607056e-01 2.496156096458435059e-01
4.666525125503540039e-01 -2.074937224388122559e-01 -7.293729782104492188e-01
4.193910360336303711e-01 -2.791047394275665283e-01 1.120581254363059998e-01
4.866555929183959961e-01 -1.072761267423629761e-01 -4.917620420455932617e-01
4.425955414772033691e-01 -5.653592199087142944e-02 2.728168964385986328e-01
4.043348729610443115e-01 -1.529549211263656616e-01 -2.216729819774627686e-01
4.719548225402832031e-01 -1.782751828432083130e-01 4.448558092117309570e-01
4.435320496559143066e-01 -9.369149059057235718e-02 5.123072266578674316e-01
4.900027811527252197e-01 -8.525604009628295898e-02 1.411523669958114624e-02
4.148318469524383545e-01 -2.623100876808166504e-01 2.090730071067810059e-01
4.778188169002532959e-01 -2.061287313699722290e-01 -5.996097922325134277e-01
4.910220503807067871e-01 -1.869235634803771973e-01 -2.388622462749481201e-01
4.116502106189727783e-01 -2.746528983116149902e-01 -1.174218952655792236e-01
4.906632304191589355e-01 -1.681640148162841797e-01 7.820092886686325073e-02
4.153279364109039307e-01 -1.155891120433807373e-01 -3.590003550052642822e-01
4.927021563053131104e-01 -1.583145111799240112e-01 2.133246511220932007e-02
4.479329586029052734e-01 -2.777059674263000488e-01 -4.966449737548828125e-01
4.373395144939422607e-01 -4.999247938394546509e-02 6.890103220939636230e-03
4.038760662078857422e-01 -1.857482641935348511e-01 -3.361891210079193115e-01
4.371014535427093506e-01 -5.020984262228012085e-02 -4.075139388442039490e-02
4.239337146282196045e-01 -7.262817025184631348e-02 -4.401406645774841309e-02
4.124656617641448975e-01 -1.048014461994171143e-01 -7.216146588325500488e-02
4.108950793743133545e-01 -2.444874048233032227e-01 2.581468820571899414e-01
4.873327016830444336e-01 -1.809436380863189697e-01 1.428281068801879883e-01
4.565108418464660645e-01 -6.207886338233947754e-02 -4.868774414062500000e-01
4.628117680549621582e-01 -2.701098918914794922e-01 -3.797931373119354248e-01
4.795092642307281494e-01 -2.377749830484390259e-01 -1.588143110275268555e-01
4.895759820938110352e-01 -1.329395622014999390e-01 -4.806883037090301514e-01
4.298704862594604492e-01 -6.336694210767745972e-02 -1.533986628055572510e-01
4.380887448787689209e-01 -2.690041661262512207e-01 -5.848321318626403809e-01
4.115582108497619629e-01 -2.682549953460693359e-01 -2.830307185649871826e-01
4.183536171913146973e-01 -1.494405269622802734e-01 4.763500690460205078e-01
4.623201191425323486e-01 -2.611166834831237793e-01 -5.043321847915649414e-01
4.886088967323303223e-01 -7.438794523477554321e-02 -1.386625468730926514e-01
4.857217669486999512e-01 -2.014096826314926147e-01 -4.266153275966644287e-01
4.936977624893188477e-01 -1.356722861528396606e-01 2.246230840682983398e-02
4.729877710342407227e-01 -1.749595403671264648e-01 -7.287622690200805664e-01
4.443574547767639160e-01 -4.637881368398666382e-02 1.432840824127197266e-01
4.383268654346466064e-01 -1.898379325866699219e-01 5.917097330093383789e-01
4.373680055141448975e-01 -8.583007752895355225e-02 -5.355004072189331055e-01
4.895284473896026611e-01 -7.915181666612625122e-02 -4.919345304369926453e-02
4.869739413261413574e-01 -1.364877969026565552e-01 -5.439087748527526855e-01
4.439392983913421631e-01 -4.849970340728759766e-02 -2.435556650161743164e-01
4.667072892189025879e-01 -2.156032919883728027e-01 -7.065068483352661133e-01
4.810833930969238281e-01 -5.745139718055725098e-02 -2.366774976253509521e-01
4.904737472534179688e-01 -1.440980583429336548e-01 -4.599244296550750732e-01
4.903458058834075928e-01 -1.616829633712768555e-01 -4.431039094924926758e-01
4.108653366565704346e-01 -2.336540222167968750e-01 -4.775875210762023926e-01
4.228794872760772705e-01 -7.859965413808822632e-02 1.412705779075622559e-01
4.176071882247924805e-01 -2.235222160816192627e-01 -6.067371368408203125e-01
4.935378134250640869e-01 -1.024580225348472595e-01 -1.017821803689002991e-01
4.845841526985168457e-01 -1.090586036443710327e-01 2.841657698154449463e-01
4.031105935573577881e-01 -2.305285632610321045e-01 -2.588664591312408447e-01
4.639835357666015625e-01 -1.527727991342544556e-01 5.493104457855224609e-01
4.759390950202941895e-01 -2.385496050119400024e-01 -4.266991913318634033e-01
4.820275306701660156e-01 -7.866967469453811646e-02 -4.386382102966308594e-01
4.312757551670074463e-01 -2.178742438554763794e-01 -7.376769185066223145e-01
4.900414049625396729e-01 -9.321719408035278320e-02 -3.303179442882537842e-01
4.671898484230041504e-01 -4.362627118825912476e-02 -2.668455243110656738e-01
4.004244804382324219e-01 -1.869009286165237427e-01 -1.551607549190521240e-01
4.781602919101715088e-01 -2.419616729021072388e-01 -1.927405595779418945e-01
4.011329710483551025e-01 -1.670894026756286621e-01 -6.863050162792205811e-03
4.074601233005523682e-01 -1.366593837738037109e-01 -2.480495274066925049e-01
4.823511838912963867e-01 -6.784252077341079712e-02 -3.430927693843841553e-01
4.118346273899078369e-01 -2.546049356460571289e-01 -4.087451100349426270e-01
4.119804799556732178e-01 -1.798204034566879272e-01 4.173332452774047852e-01
4.922255277633666992e-01 -1.290249228477478027e-01 -3.924284279346466064e-01
4.060926437377929688e-01 -2.348089516162872314e-01 1.991176903247833252e-01
4.494623243808746338e-01 -2.807903289794921875e-01 1.151278242468833923e-01
4.256663322448730469e-01 -1.020064428448677063e-01 -4.850996732711791992e-01
4.759611487388610840e-01 -2.250652313232421875e-01 -5.394122004508972168e-01
4.269309937953948975e-01 -2.823777198791503906e-01 1.541841626167297363e-01
4.556251764297485352e-01 -9.879770874977111816e-02 5.315020084381103516e-01
4.307129979133605957e-01 -2.957964539527893066e-01 -2.008797377347946167e-01
4.437115788459777832e-01 -2.947139739990234375e-01 -1.353958994150161743e-01
4.383433759212493896e-01 -1.369590759277343750e-01 5.977508425712585449e-01
4.785587489604949951e-01 -6.241799890995025635e-02 1.814216077327728271e-01
4.127525687217712402e-01 -1.561507731676101685e-01 -4.971055686473846436e-01
4.547475874423980713e-01 -1.614837944507598877e-01 -8.150614500045776367e-01
4.619863033294677734e-01 -2.372751832008361816e-01 3.401381671428680420e-01
4.927682578563690186e-01 -1.687548905611038208e-01 -5.033745244145393372e-02
4.864181280136108398e-01 -1.665238738059997559e-01 2.226771414279937744e-01
4.622919261455535889e-01 -8.081970363855361938e-02 -6.048040390014648438e-01
4.915915131568908691e-01 -8.806988596916198730e-02 -1.224510371685028076e-01
4.936833977699279785e-01 -1.471861749887466431e-01 -3.230212926864624023e-01
4.373413324356079102e-01 -1.676865667104721069e-01 -7.844142317771911621e-01
4.073721170425415039e-01 -1.430427432060241699e-01 2.325948774814605713e-01
4.284140765666961670e-01 -6.448002159595489502e-02 6.359458714723587036e-02
4.794677197933197021e-01 -2.225605845451354980e-01 -4.716318845748901367e-01
4.045034348964691162e-01 -2.127846777439117432e-01 2.347019314765930176e-01
4.198775291442871094e-01 -1.840258985757827759e-01 -6.538780331611633301e-01
4.815868437290191650e-01 -1.184996217489242554e-01 3.519802093505859375e-01
4.213199019432067871e-01 -7.910560071468353271e-02 4.751040786504745483e-02
4.941720366477966309e-01 -1.350765973329544067e-01 -3.004348874092102051e-01
4.199187159538269043e-01 -8.197636902332305908e-02 -1.946757733821868896e-02
4.073178172111511230e-01 -1.305865198373794556e-01 1.271439194679260254e-01
4.764983952045440674e-01 -2.423537075519561768e-01 -2.315623313188552856e-02
4.349909126758575439e-01 -6.223796308040618896e-02 2.360219657421112061e-01
4.867120683193206787e-01 -2.082301825284957886e-01 -2.996886372566223145e-01
4.373617172241210938e-01 -2.663558423519134521e-01 3.161717653274536133e-01
4.214524030685424805e-01 -9.517964720726013184e-02 -3.501105606555938721e-01
4.058871865272521973e-01 -2.561769485473632812e-01 -2.191451936960220337e-02
4.776110053062438965e-01 -1.864026039838790894e-01 3.445814847946166992e-01
4.759865105152130127e-01 -2.065380364656448364e-01 2.948692142963409424e-01
4.770254194736480713e-01 -2.424659430980682373e-01 -3.178057372570037842e-01
4.029545783996582031e-01 -1.896537244319915771e-01 -3.072630465030670166e-01
4.874153137207031250e-01 -1.118873804807662964e-01 2.267753779888153076e-01
4.928218722343444824e-01 -1.079669967293739319e-01 2.141680568456649780e-02
4.305584430694580078e-01 -2.684467434883117676e-01 -5.620636940002441406e-01
4.033423066139221191e-01 -1.654294878244400024e-01 -2.484489679336547852e-01
4.463225603103637695e-01 -4.760244488716125488e-02 -2.649036645889282227e-01
4.659926891326904297e-01 -2.369541525840759277e-01 2.903843820095062256e-01
4.757630825042724609e-01 -2.414482533931732178e-01 -3.966268897056579590e-01
4.007410705089569092e-01 -2.029297202825546265e-01 9.757672995328903198e-02
4.940494894981384277e-01 -1.350595653057098389e-01 3.376752138137817383e-04
4.433930814266204834e-01 -4.411259293556213379e-02 4.934433847665786743e-02
4.573954641819000244e-01 -3.688716888427734375e-02 3.335667401552200317e-02
4.254299104213714600e-01 -8.213414251804351807e-02 2.697768509387969971e-01
4.733755886554718018e-01 -1.953217536211013794e-01 3.808277249336242676e-01
4.810679852962493896e-01 -2.254307270050048828e-01 1.860465109348297119e-02
4.171830117702484131e-01 -2.767044603824615479e-01 -3.392636775970458984e-01
4.433072805404663086e-01 -7.141856104135513306e-02 4.024985432624816895e-01
4.878589510917663574e-01 -1.074579805135726929e-01 -4.660201370716094971e-01
4.321578145027160645e-01 -5.813903361558914185e-02 -1.054114177823066711e-01
4.801326990127563477e-01 -2.148707211017608643e-01 -5.082415938377380371e-01
4.025498628616333008e-01 -1.722444891929626465e-01 1.620443761348724365e-01
4.669250249862670898e-01 -4.970956593751907349e-02 -3.560058474540710449e-01
4.310066699981689453e-01 -2.342344522476196289e-01 -7.035855650901794434e-01
4.831281602382659912e-01 -1.491259187459945679e-01 3.261072039604187012e-01
4.613512158393859863e-01 -5.842601507902145386e-02 3.312810957431793213e-01
4.913772046566009521e-01 -8.860472589731216431e-02 -1.983928382396697998e-01
4.937647879123687744e-01 -1.087529137730598450e-01 -2.313276231288909912e-01
4.147869646549224854e-01 -9.946067631244659424e-02 1.131939515471458435e-01
4.945734143257141113e-01 -1.506357192993164062e-01 -9.867299348115921021e-02
4.104954600334167480e-01 -2.625210285186767578e-01 -3.123599886894226074e-01
4.035968780517578125e-01 -1.535469293594360352e-01 1.187230274081230164e-01
4.017471373081207275e-01 -2.136289179325103760e-01 1.292281150817871094e-01
4.174841344356536865e-01 -2.460744827985763550e-01 3.429212570190429688e-01
4.829078912734985352e-01 -9.017799049615859985e-02 2.634402811527252197e-01
4.146910309791564941e-01 -2.366593182086944580e-01 -5.361220836639404297e-01
4.359008073806762695e-01 -5.717832595109939575e-02 1.782076060771942139e-01
4.218834042549133301e-01 -1.033987328410148621e-01 -4.259392917156219482e-01
4.890282154083251953e-01 -8.909299969673156738e-02 9.447187930345535278e-02
4.054299592971801758e-01 -1.642300039529800415e-01 -3.311649262905120850e-01
4.193132817745208740e-01 -1.606719940900802612e-01 5.016717314720153809e-01
4.291830062866210938e-01 -9.724096953868865967e-02 -5.085743069648742676e-01
4.799344539642333984e-01 -1.185823753476142883e-01 3.777088224887847900e-01
4.348946213722229004e-01 -2.966517210006713867e-01 -1.153663247823715210e-01
4.660729169845581055e-01 -2.696667909622192383e-01 -1.492963135242462158e-01
4.353773295879364014e-01 -6.758729368448257446e-02 -3.632507622241973877e-01
4.220852851867675781e-01 -9.568241238594055176e-02 3.175952136516571045e-01
4.568876326084136963e-01 -1.830135583877563477e-01 5.612707138061523438e-01
4.202623069286346436e-01 -2.599793672561645508e-01 -5.194812417030334473e-01
4.456597566604614258e-01 -6.431342661380767822e-02 -4.533502161502838135e-01
4.274977743625640869e-01 -7.375903427600860596e-02 -2.669145166873931885e-01
4.432941079139709473e-01 -5.845879763364791870e-02 2.994874119758605957e-01
4.939389526844024658e-01 -1.630980670452117920e-01 -1.803636252880096436e-01
4.441885054111480713e-01 -2.826500236988067627e-01 1.415683627128601074e-01
4.059233665466308594e-01 -1.575996577739715576e-01 2.483298778533935547e-01
4.801278114318847656e-01 -1.528908759355545044e-01 -6.604980826377868652e-01
4.245023429393768311e-01 -1.344514340162277222e-01 -6.158958673477172852e-01
4.113408327102661133e-01 -2.594366669654846191e-01 -3.640619814395904541e-01
4.705855250358581543e-01 -2.596837282180786133e-01 -2.811453938484191895e-01
4.028686285018920898e-01 -1.953130960464477539e-01 2.057738602161407471e-01
4.290888607501983643e-01 -2.944576144218444824e-01 -2.364756762981414795e-01
4.097517430782318115e-01 -1.964404881000518799e-01 3.753251433372497559e-01
4.082552492618560791e-01 -2.557209134101867676e-01 1.132631972432136536e-01
4.714832007884979248e-01 -2.459004521369934082e-01 1.111409738659858704e-01
4.282438158988952637e-01 -2.387718260288238525e-01 4.477229118347167969e-01
4.846445024013519287e-01 -1.365922093391418457e-01 3.050172626972198486e-01
4.848409593105316162e-01 -2.187912613153457642e-01 -1.403607875108718872e-01
4.448861777782440186e-01 -5.140719562768936157e-02 -3.051724433898925781e-01
4.434282183647155762e-01 -2.889128327369689941e-01 5.464922636747360229e-02
4.198362529277801514e-01 -2.352584600448608398e-01 4.104926586151123047e-01
4.403119087219238281e-01 -4.923051595687866211e-02 1.214473918080329895e-01
4.244836568832397461e-01 -1.278689205646514893e-01 4.981619119644165039e-01
4.837373197078704834e-01 -2.208779752254486084e-01 -6.928303837776184082e-02
4.082225561141967773e-01 -1.277223825454711914e-01 -1.946941465139389038e-01
4.880775213241577148e-01 -7.235091179609298706e-02 -9.130415320396423340e-02
4.402542412281036377e-01 -1.996964812278747559e-01 -7.964091897010803223e-01
4.844409227371215820e-01 -2.152424454689025879e-01 -1.846271008253097534e-02
4.917524456977844238e-01 -1.802053600549697876e-01 -2.657108902931213379e-01
4.458105862140655518e-01 -4.149157553911209106e-02 -7.109744846820831299e-02
4.132389128208160400e-01 -1.444593220949172974e-01 -4.672257304191589355e-01
4.597865343093872070e-01 -2.212139666080474854e-01 4.382622241973876953e-01
4.925596117973327637e-01 -9.971836954355239868e-02 -1.594769209623336792e-02
4.866132736206054688e-01 -8.707591891288757324e-02 1.628899872303009033e-01
4.600839316844940186e-01 -2.708896994590759277e-01 -4.314669966697692871e-01
4.044044017791748047e-01 -2.355193942785263062e-01 -2.918233275413513184e-01
4.877954721450805664e-01 -7.692497223615646362e-02 3.961003571748733521e-02
4.223631024360656738e-01 -1.277946978807449341e-01 -5.633051395416259766e-01
4.210334420204162598e-01 -2.265025526285171509e-01 -6.411945819854736328e-01
4.084531664848327637e-01 -1.217037290334701538e-01 -1.087579876184463501e-01
4.778982996940612793e-01 -4.831682145595550537e-02 -6.939285993576049805e-02
4.810057282447814941e-01 -1.560333967208862305e-01 3.555914163589477539e-01
4.776567220687866211e-01 -2.309376299381256104e-01 -4.520527124404907227e-01
4.591623246669769287e-01 -2.799421250820159912e-01 -1.027000322937965393e-01
4.616261124610900879e-01 -5.363140255212783813e-02 -4.152932167053222656e-01
4.652996361255645752e-01 -6.562723219394683838e-02 3.590252399444580078e-01
4.619459807872772217e-01 -1.946510523557662964e-01 5.049056410789489746e-01
4.474140703678131104e-01 -1.151978969573974609e-01 5.774733424186706543e-01
4.055053889751434326e-01 -1.366581320762634277e-01 6.715080887079238892e-02
4.100286364555358887e-01 -1.626182049512863159e-01 -4.567622840404510498e-01
4.747964143753051758e-01 -2.503781020641326904e-01 -1.198163926601409912e-01
4.042695164680480957e-01 -1.981656849384307861e-01 -3.619943559169769287e-01
4.647795557975769043e-01 -2.646920084953308105e-01 5.088751763105392456e-02
4.224847555160522461e-01 -2.722512185573577881e-01 -4.678936898708343506e-01
4.819308221340179443e-01 -5.626571923494338989e-02 -2.596636861562728882e-02
4.246673583984375000e-01 -1.130385696887969971e-01 4.520649313926696777e-01
4.596359431743621826e-01 -1.518667191267013550e-01 5.760235786437988281e-01
4.852137565612792969e-01 -1.852547526359558105e-01 1.867523491382598877e-01
4.532016813755035400e-01 -2.759357094764709473e-01 -4.708828330039978027e-01
4.670819640159606934e-01 -4.313572496175765991e-02 1.305446624755859375e-01
4.040505588054656982e-01 -1.531464159488677979e-01 1.446498334407806396e-01
4.186083972454071045e-01 -9.297665208578109741e-02 1.969018578529357910e-01
4.838527739048004150e-01 -2.194521576166152954e-01 -3.209547102451324463e-01
4.367956221103668213e-01 -1.183172464370727539e-01 -6.813389658927917480e-01
4.337970018386840820e-01 -2.785281240940093994e-01 2.176844477653503418e-01
4.025281071662902832e-01 -2.404631972312927246e-01 -6.940548121929168701e-02
4.743905067443847656e-01 -2.518148124217987061e-01 -2.336198687553405762e-01
4.905247986316680908e-01 -1.174645721912384033e-01 1.476415991783142090e-01
4.304645955562591553e-01 -7.877985388040542603e-02 -3.905786871910095215e-01
4.698634445667266846e-01 -2.228299230337142944e-01 3.150715529918670654e-01
4.425901770591735840e-01 -2.929553985595703125e-01 -2.656161040067672729e-02
4.936879575252532959e-01 -1.533390730619430542e-01 -2.124378830194473267e-02
4.784570932388305664e-01 -1.550934314727783203e-01 3.969964385032653809e-01
4.150793254375457764e-01 -1.510770171880722046e-01 4.344024658203125000e-01
4.703094363212585449e-01 -1.358672231435775757e-01 5.006837844848632812e-01
4.199658334255218506e-01 -2.736741602420806885e-01 1.818943619728088379e-01
4.136103093624114990e-01 -2.763010859489440918e-01 6.950415670871734619e-03
4.527950882911682129e-01 -2.694313824176788330e-01 -5.390276312828063965e-01
4.854999184608459473e-01 -1.138855889439582825e-01 -5.337722301483154297e-01
4.814666211605072021e-01 -7.363188266754150391e-02 2.083716988563537598e-01
4.077880084514617920e-01 -2.301969826221466064e-01 -4.190364480018615723e-01
4.188455045223236084e-01 -2.582413554191589355e-01 2.902790009975433350e-01
4.021233618259429932e-01 -1.584443300962448120e-01 2.521226555109024048e-02
4.945186972618103027e-01 -1.160950511693954468e-01 -2.057644724845886230e-01
4.401856958866119385e-01 -2.812314033508300781e-01 1.803148686885833740e-01
4.936012625694274902e-01 -1.052167788147926331e-01 -6.398324668407440186e-02
4.060403108596801758e-01 -1.645413488149642944e-01 -3.533039987087249756e-01
4.864782989025115967e-01 -1.281646639108657837e-01 2.660604119300842285e-01
4.300209581851959229e-01 -8.496772497892379761e-02 -4.360933303833007812e-01
4.335166811943054199e-01 -2.937173247337341309e-01 7.598176598548889160e-04
4.474962055683135986e-01 -1.203536763787269592e-01 -7.413813471794128418e-01
4.942653179168701172e-01 -1.557431966066360474e-01 -2.344608902931213379e-01
4.820316433906555176e-01 -2.129895538091659546e-01 1.105046793818473816e-01
4.411302208900451660e-01 -2.927163839340209961e-01 -3.200083374977111816e-01
4.546880722045898438e-01 -2.539345920085906982e-01 3.122209012508392334e-01
4.682754576206207275e-01 -1.444819271564483643e-01 -7.612225413322448730e-01
4.926116764545440674e-01 -1.755703985691070557e-01 -2.177143990993499756e-01
4.697692096233367920e-01 -2.626227140426635742e-01 -2.056173682212829590e-01
4.266481697559356689e-01 -1.334637403488159180e-01 5.308146476745605469e-01
4.068670868873596191e-01 -1.277354359626770020e-01 1.740948855876922607e-02
4.866905212402343750e-01 -2.011859863996505737e-01 -3.874756693840026855e-01
4.334000349044799805e-01 -1.133121550083160400e-01 -6.351726055145263672e-01
4.311332404613494873e-01 -1.502667665481567383e-01 -7.218493223190307617e-01
4.096732735633850098e-01 -1.280731260776519775e-01 -2.701413035392761230e-01
4.011519551277160645e-01 -2.295360863208770752e-01 -4.852142184972763062e-02
4.201909899711608887e-01 -8.300272375345230103e-02 -1.226946264505386353e-01
4.894844293594360352e-01 -1.578796356916427612e-01 1.578341722488403320e-01
4.874142706394195557e-01 -1.878441274166107178e-01 1.021957471966743469e-01
4.136903882026672363e-01 -1.267717629671096802e-01 -3.908368051052093506e-01
4.313844442367553711e-01 -1.693582087755203247e-01 -7.504069805145263672e-01
4.536620676517486572e-01 -2.859658002853393555e-01 -2.799139022827148438e-01
4.833982288837432861e-01 -1.269297301769256592e-01 -5.954831242561340332e-01
4.389589130878448486e-01 -5.487816780805587769e-02 2.026571631431579590e-01
4.683324694633483887e-01 -1.811803579330444336e-01 -7.609007954597473145e-01
4.106031060218811035e-01 -1.116399168968200684e-01 3.348270803689956665e-02
4.066494405269622803e-01 -1.292621791362762451e-01 -7.935832440853118896e-02
4.057715535163879395e-01 -1.893329322338104248e-01 2.951486706733703613e-01
4.068018198013305664e-01 -1.654510796070098877e-01 2.970994412899017334e-01
4.781303107738494873e-01 -1.926928460597991943e-01 -6.382452249526977539e-01
4.772498905658721924e-01 -1.833369880914688110e-01 -6.709647774696350098e-01
4.392261803150177002e-01 -1.497186571359634399e-01 -7.722278833389282227e-01
4.824566841125488281e-01 -1.787275224924087524e-01 2.781421542167663574e-01
4.574310481548309326e-01 -7.176646590232849121e-02 4.248596429824829102e-01
4.386384189128875732e-01 -1.094333380460739136e-01 -6.622385382652282715e-01
4.706734120845794678e-01 -1.032548174262046814e-01 4.606421589851379395e-01
4.636138081550598145e-01 -2.038074880838394165e-01 -7.589669227600097656e-01
4.812253117561340332e-01 -2.117398977279663086e-01 1.455080509185791016e-01
4.214773476123809814e-01 -1.098014935851097107e-01 -4.599416851997375488e-01
4.148585200309753418e-01 -1.670433580875396729e-01 -5.618743300437927246e-01
4.798120260238647461e-01 -9.798376262187957764e-02 -5.673317909240722656e-01
4.841075241565704346e-01 -7.603915035724639893e-02 -3.772411942481994629e-01
4.121564924716949463e-01 -2.727401852607727051e-01 -2.360304594039916992e-01
4.221947491168975830e-01 -7.844168692827224731e-02 9.966761618852615356e-02
4.230013191699981689e-01 -7.863227277994155884e-02 -1.840985715389251709e-01
4.439573884010314941e-01 -2.691145241260528564e-01 2.766677141189575195e-01
4.659012854099273682e-01 -1.336952745914459229e-01 5.358957052230834961e-01
4.260832071304321289e-01 -1.711562424898147583e-01 -7.089657187461853027e-01
4.064190983772277832e-01 -2.518833875656127930e-01 -2.592324018478393555e-01
4.320683181285858154e-01 -2.033412456512451172e-01 -7.583462595939636230e-01
4.559006989002227783e-01 -2.654245197772979736e-01 2.078819572925567627e-01
4.746920764446258545e-01 -6.277880817651748657e-02 2.495267391204833984e-01
4.771466255187988281e-01 -1.114030182361602783e-01 -6.390389204025268555e-01
4.465666115283966064e-01 -4.467220604419708252e-02 -2.114108949899673462e-01
4.760380685329437256e-01 -2.458883523941040039e-01 -7.547140121459960938e-02
4.926254153251647949e-01 -1.756952106952667236e-01 -1.385394483804702759e-01
4.255686104297637939e-01 -2.715715169906616211e-01 2.506405711174011230e-01
4.116986691951751709e-01 -2.262406647205352783e-01 -5.116634964942932129e-01
4.803659617900848389e-01 -2.055389434099197388e-01 2.084322571754455566e-01
4.418745636940002441e-01 -2.944540083408355713e-01 -6.735154986381530762e-02
4.115803837776184082e-01 -2.196614444255828857e-01 3.647766709327697754e-01
4.149996638298034668e-01 -1.341626942157745361e-01 3.874670267105102539e-01
4.029306173324584961e-01 -2.429205775260925293e-01 -9.469290077686309814e-02
4.105743467807769775e-01 -1.563225388526916504e-01 3.657269477844238281e-01
