-3.993863761425018311e-01 6.438063085079193115e-02 3.929236531257629395e-01
-2.980796694755554199e-01 5.826267600059509277e-02 5.567184686660766602e-01
-3.069065511226654053e-01 6.841698288917541504e-02 1.924194395542144775e-01
-3.549628853797912598e-01 6.430584937334060669e-02 4.505766034126281738e-01
-3.005689084529876709e-01 1.989289559423923492e-02 5.362457036972045898e-01
-2.698256671428680420e-01 6.505665183067321777e-02 -2.585948109626770020e-01
-4.665961861610412598e-01 5.676534771919250488e-02 2.275135964155197144e-01
-2.210224121809005737e-01 8.118929341435432434e-03 -2.143281847238540649e-01
-3.365861475467681885e-01 1.782290823757648468e-02 -4.989437460899353027e-01
-2.600208818912506104e-01 1.141454651951789856e-02 -4.291633665561676025e-01
-3.676528334617614746e-01 2.333577163517475128e-02 -5.323350429534912109e-01
-4.431267976760864258e-01 4.483847320079803467e-02 -4.457258880138397217e-01
-1.738564372062683105e-01 2.624129503965377808e-02 4.411822855472564697e-01
-4.128645062446594238e-01 4.722286015748977661e-02 -5.696337223052978516e-01
-2.876020967960357666e-01 7.955754175782203674e-03 -1.182568073272705078e-01
-3.086729645729064941e-01 2.705487608909606934e-02 6.425145864486694336e-01
-3.432735800743103027e-01 6.258063763380050659e-02 -4.800251722335815430e-01
-1.254391968250274658e-01 2.682758867740631104e-02 7.765544205904006958e-02
-3.267658650875091553e-01 2.219256944954395294e-02 -6.181457042694091797e-01
-3.802153468132019043e-01 1.723838225007057190e-02 -2.510864138603210449e-01
-3.036797344684600830e-01 3.889039903879165649e-02 7.148909568786621094e-01
-4.683492779731750488e-01 5.347596481442451477e-02 2.708000540733337402e-01
-1.571307927370071411e-01 2.602506056427955627e-02 3.602836728096008301e-01
-1.473849415779113770e-01 3.690974414348602295e-02 -4.053444266319274902e-01
-3.937788605690002441e-01 6.930161267518997192e-02 -9.198357164859771729e-02
-1.380238384008407593e-01 1.805249415338039398e-02 2.520971000194549561e-02
-4.155758619308471680e-01 6.400309503078460693e-02 3.556691706180572510e-01
-3.503903746604919434e-01 7.057458162307739258e-02 2.018752321600914001e-02
-3.085236549377441406e-01 6.944373250007629395e-02 3.706473857164382935e-02
-3.962890505790710449e-01 5.969594791531562805e-02 -4.781779050827026367e-01
-2.230710685253143311e-01 7.437463849782943726e-03 -2.284733578562736511e-02
-4.470348358154296875e-01 6.401125341653823853e-02 1.303345113992691040e-01
-2.689245045185089111e-01 1.631360314786434174e-02 -5.697926282882690430e-01
-3.410691916942596436e-01 7.044333219528198242e-02 -1.792173832654953003e-02
-3.195050954818725586e-01 1.725084334611892700e-02 4.491090476512908936e-01
-3.324653208255767822e-01 1.463629677891731262e-02 3.269367814064025879e-01
-3.784094750881195068e-01 1.880749501287937164e-02 2.955297827720642090e-01
-3.992574512958526611e-01 2.125400118529796600e-02 2.636386156082153320e-01
-2.581592798233032227e-01 6.435991823673248291e-02 -2.369545549154281616e-01
-4.359762370586395264e-01 2.782618999481201172e-02 2.181975245475769043e-01
-1.985930949449539185e-01 5.252231657505035400e-02 -4.153771698474884033e-01
-2.523157298564910889e-01 5.736843496561050415e-02 4.734393954277038574e-01
-3.749968409538269043e-01 6.734395772218704224e-02 3.264169394969940186e-01
-2.809211909770965576e-01 8.736528456211090088e-03 -2.542920410633087158e-01
-1.993160247802734375e-01 9.524008259177207947e-03 -2.469193339347839355e-01
-2.460510283708572388e-01 9.699808433651924133e-03 2.331216633319854736e-01
-1.737584769725799561e-01 5.340720340609550476e-02 -6.860683858394622803e-02
-1.228865534067153931e-01 2.643721178174018860e-02 4.022719338536262512e-03
-2.897007763385772705e-01 6.476551294326782227e-02 3.509851396083831787e-01
-1.512772887945175171e-01 1.853109337389469147e-02 2.044954001903533936e-01
-4.165883064270019531e-01 2.625247463583946228e-02 -3.562608361244201660e-01
-4.762629866600036621e-01 4.373837634921073914e-02 -1.423151493072509766e-01
-2.031693905591964722e-01 1.846251077950000763e-02 4.343704283237457275e-01
-2.665082514286041260e-01 7.241822779178619385e-03 -3.131591156125068665e-02
-3.063496947288513184e-01 5.430414155125617981e-02 6.300311088562011719e-01
-3.684344291687011719e-01 7.039322704076766968e-02 8.197617530822753906e-02
-2.570819854736328125e-01 5.753734707832336426e-02 -5.099548101425170898e-01
-1.274380236864089966e-01 2.940548211336135864e-02 1.274804770946502686e-01
-2.357147037982940674e-01 2.167845144867897034e-02 5.484821796417236328e-01
-2.070658504962921143e-01 5.502701923251152039e-02 -3.828938007354736328e-01
-2.051569819450378418e-01 5.889245122671127319e-02 9.390074759721755981e-02
-4.089087843894958496e-01 3.081268817186355591e-02 4.828266799449920654e-01
-2.935356199741363525e-01 6.631224602460861206e-02 2.871104180812835693e-01
-2.379521280527114868e-01 5.986402183771133423e-02 3.363464474678039551e-01
-3.415064513683319092e-01 2.161791548132896423e-02 5.138303041458129883e-01
-4.294991195201873779e-01 4.811167716979980469e-02 5.288885831832885742e-01
-4.209192097187042236e-01 4.585107415914535522e-02 5.612665414810180664e-01
-1.680834144353866577e-01 1.137807965278625488e-02 -7.994967699050903320e-02
-4.133523702621459961e-01 6.431272625923156738e-02 -3.047815263271331787e-01
-4.359562993049621582e-01 2.696630731225013733e-02 -1.853396296501159668e-01
-2.800327837467193604e-01 4.878409951925277710e-02 6.627469062805175781e-01
-2.738374769687652588e-01 1.104897819459438324e-02 -4.029014110565185547e-01
-2.426821738481521606e-01 1.350004039704799652e-02 3.820581436157226562e-01
-3.605591058731079102e-01 6.747260689735412598e-02 -2.983474731445312500e-01
-3.780609071254730225e-01 1.893480308353900909e-02 -3.557181060314178467e-01
-2.650511264801025391e-01 5.719852074980735779e-02 5.141118764877319336e-01
-3.664851784706115723e-01 2.952604740858078003e-02 5.962463617324829102e-01
-4.281023740768432617e-01 6.340300291776657104e-02 -2.691798806190490723e-01
-3.883612155914306641e-01 6.993800401687622070e-02 6.257668882608413696e-02
-3.703928589820861816e-01 6.963606178760528564e-02 -1.443866193294525146e-01
-2.242610752582550049e-01 4.802128672599792480e-02 5.532394647598266602e-01
-2.115035355091094971e-01 1.156826317310333252e-02 -3.955359160900115967e-01
-3.252218365669250488e-01 6.980491429567337036e-02 1.161991804838180542e-01
-2.778162062168121338e-01 4.953999444842338562e-02 -6.859501600265502930e-01
-3.771465122699737549e-01 2.688321471214294434e-02 -5.653427839279174805e-01
-1.962051391601562500e-01 5.378993600606918335e-02 -3.573948740959167480e-01
-4.510904550552368164e-01 6.288151443004608154e-02 1.600437760353088379e-01
-2.326596826314926147e-01 9.178057312965393066e-03 1.896081566810607910e-01
-4.115144014358520508e-01 2.066509239375591278e-02 -8.218099176883697510e-02
-4.584474563598632812e-01 3.722500056028366089e-02 -2.703892588615417480e-01
-2.870045304298400879e-01 1.844255439937114716e-02 -6.034414768218994141e-01
-3.045844137668609619e-01 1.157384179532527924e-02 -3.634164929389953613e-01
-3.804534077644348145e-01 1.598667539656162262e-02 -1.290164291858673096e-01
-3.274685144424438477e-01 1.248306222259998322e-02 2.390079498291015625e-01
-3.601113557815551758e-01 6.693723797798156738e-02 3.563294708728790283e-01
-3.667026162147521973e-01 6.220443546772003174e-02 -4.737718999385833740e-01
-4.445660114288330078e-01 6.134904175996780396e-02 -2.378118187189102173e-01
-3.008551597595214844e-01 8.666245266795158386e-03 -1.395753622055053711e-01
-4.128561913967132568e-01 2.079984731972217560e-02 1.398152485489845276e-02
-1.643634736537933350e-01 2.086244523525238037e-02 3.348851799964904785e-01
-2.441232800483703613e-01 6.435919553041458130e-02 -7.985620200634002686e-02
-2.256277799606323242e-01 6.150335073471069336e-02 -1.742258816957473755e-01
-2.828375399112701416e-01 7.984204217791557312e-03 -1.618841290473937988e-01
-2.070278227329254150e-01 5.829156935214996338e-02 1.775955706834793091e-01
-1.988005638122558594e-01 2.552672475576400757e-02 -6.293458938598632812e-01
-3.467887639999389648e-01 2.144556678831577301e-02 -5.579648017883300781e-01
-3.729857802391052246e-01 6.928011775016784668e-02 2.134597748517990112e-01
-3.156349062919616699e-01 1.302397623658180237e-02 -3.965809047222137451e-01
-3.246661424636840820e-01 6.955749541521072388e-02 -1.254220306873321533e-01
-4.082581996917724609e-01 6.741605699062347412e-02 2.311104834079742432e-01
-2.319072782993316650e-01 7.537223398685455322e-03 4.367398470640182495e-02
-3.599946498870849609e-01 6.954023241996765137e-02 -1.672719269990921021e-01
-3.270260393619537354e-01 7.016173750162124634e-02 2.700950950384140015e-03
-3.948830366134643555e-01 6.395430862903594971e-02 -3.755320608615875244e-01
-2.084925472736358643e-01 5.335941165685653687e-02 3.910842537879943848e-01
-2.936820089817047119e-01 6.854526698589324951e-02 -6.315353512763977051e-02
-3.048543035984039307e-01 6.299559772014617920e-02 -4.475452303886413574e-01
-2.159421741962432861e-01 1.245377212762832642e-02 -4.366135001182556152e-01
-2.719741463661193848e-01 6.667075306177139282e-02 1.278295964002609253e-01
-4.374340474605560303e-01 5.890783667564392090e-02 -3.470298945903778076e-01
-2.725457251071929932e-01 6.615203619003295898e-02 1.884136050939559937e-01
-1.576646417379379272e-01 1.777913235127925873e-02 2.305504977703094482e-01
-3.153678774833679199e-01 2.299054339528083801e-02 5.801938772201538086e-01
-1.772280931472778320e-01 1.063424535095691681e-02 2.076990902423858643e-02
-3.024946749210357666e-01 6.828582286834716797e-02 -1.701908409595489502e-01
-3.429558575153350830e-01 2.299714460968971252e-02 5.394352674484252930e-01
-4.248940944671630859e-01 2.319487556815147400e-02 -5.631653219461441040e-02
-2.880168259143829346e-01 6.637433916330337524e-02 2.608300745487213135e-01
-2.393183261156082153e-01 1.106461510062217712e-02 -4.140757024288177490e-01
-2.215611487627029419e-01 5.915213003754615784e-02 -3.000220358371734619e-01
-3.351805210113525391e-01 6.564101576805114746e-02 4.015069007873535156e-01
-3.057277798652648926e-01 2.290609292685985565e-02 -6.602835655212402344e-01
-2.618680596351623535e-01 6.475725769996643066e-02 2.225418686866760254e-01
-2.559895217418670654e-01 1.648581586778163910e-02 4.705798029899597168e-01
-1.949362903833389282e-01 1.821353845298290253e-02 -5.324499607086181641e-01
-2.498632222414016724e-01 1.028474979102611542e-02 -3.838661611080169678e-01
-2.585029006004333496e-01 6.347413361072540283e-02 -2.950182259082794189e-01
-3.565165996551513672e-01 1.326314173638820648e-02 8.821766078472137451e-02
-1.553461551666259766e-01 2.061558142304420471e-02 2.798976600170135498e-01
-1.880148351192474365e-01 3.814382478594779968e-02 5.123102664947509766e-01
-1.963998377323150635e-01 1.177851110696792603e-02 2.238454669713973999e-01
-2.256126105785369873e-01 1.045012474060058594e-02 2.458686530590057373e-01
-4.601972997188568115e-01 3.597385436296463013e-02 -2.199219465255737305e-01
-3.869889974594116211e-01 2.576531283557415009e-02 -5.079562067985534668e-01
-3.288867175579071045e-01 1.628909632563591003e-02 3.993573188781738281e-01
-1.968926489353179932e-01 5.379568040370941162e-02 3.054439425468444824e-01
-4.470107853412628174e-01 6.111840903759002686e-02 2.827735543251037598e-01
-3.472730815410614014e-01 6.351137906312942505e-02 -4.526839852333068848e-01
-2.064284384250640869e-01 1.660085655748844147e-02 4.037747979164123535e-01
-2.788719534873962402e-01 8.368579670786857605e-03 -2.269034832715988159e-01
-2.193714678287506104e-01 8.751776069402694702e-03 -2.652876377105712891e-01
-2.650857865810394287e-01 5.097962915897369385e-02 6.170912981033325195e-01
-3.721845149993896484e-01 2.244492061436176300e-02 4.472374618053436279e-01
-3.925776481628417969e-01 6.799063831567764282e-02 -2.091447114944458008e-01
-4.515499174594879150e-01 6.145943701267242432e-02 -1.733621805906295776e-01
-1.601668745279312134e-01 3.987767919898033142e-02 -4.565491080284118652e-01
-3.392258286476135254e-01 5.514253675937652588e-02 6.314706802368164062e-01
-2.289349436759948730e-01 2.086567506194114685e-02 -6.340239048004150391e-01
-3.296557664871215820e-01 1.144434511661529541e-02 -2.396501153707504272e-01
-2.487072497606277466e-01 7.705738767981529236e-03 -2.129424959421157837e-01
-4.542692005634307861e-01 3.604404255747795105e-02 2.997437119483947754e-01
-3.623191118240356445e-01 1.357325538992881775e-02 -1.009299457073211670e-01
-3.073691129684448242e-01 1.054581068456172943e-02 -2.940833568572998047e-01
-2.279542684555053711e-01 8.465254679322242737e-03 1.312659233808517456e-01
-2.918213307857513428e-01 6.147343665361404419e-02 4.706229567527770996e-01
-3.044758439064025879e-01 6.857725977897644043e-02 1.636589914560317993e-01
-4.426445960998535156e-01 6.505461782217025757e-02 8.977191150188446045e-02
-3.053875863552093506e-01 6.078478693962097168e-02 5.118868350982666016e-01
-4.593137502670288086e-01 4.165810719132423401e-02 -3.233015835285186768e-01
-1.335780322551727295e-01 2.383216843008995056e-02 -2.933037579059600830e-01
-3.347416222095489502e-01 1.312597282230854034e-02 -3.240238726139068604e-01
-1.327960491180419922e-01 3.958630189299583435e-02 -1.662435084581375122e-01
-2.485015243291854858e-01 1.767694205045700073e-02 -5.979096889495849609e-01
-1.801911443471908569e-01 4.977212473750114441e-02 -3.800225555896759033e-01
-4.631897807121276855e-01 5.273500829935073853e-02 3.260170519351959229e-01
-1.944493949413299561e-01 1.138998009264469147e-02 -3.367066085338592529e-01
-4.680308103561401367e-01 3.729790076613426208e-02 1.518919914960861206e-01
-3.163557350635528564e-01 5.890830606222152710e-02 -5.643366575241088867e-01
-1.794539391994476318e-01 1.581799797713756561e-02 -4.317144155502319336e-01
-3.201690316200256348e-01 9.986532852053642273e-03 6.725502759218215942e-02
-3.865955471992492676e-01 1.955850608646869659e-02 -3.249182105064392090e-01
-3.951029479503631592e-01 6.960905343294143677e-02 -2.352984063327312469e-02
-1.277490407228469849e-01 2.880582585930824280e-02 -2.622928619384765625e-01
-1.843145638704299927e-01 2.769630029797554016e-02 4.908608496189117432e-01
-1.619579344987869263e-01 4.975071921944618225e-02 -1.794197857379913330e-01
-4.022075235843658447e-01 2.126747742295265198e-02 2.392683029174804688e-01
-1.821292042732238770e-01 4.966153576970100403e-02 3.266025781631469727e-01
-3.843985199928283691e-01 6.729745864868164062e-02 -2.706507742404937744e-01
-3.366653025150299072e-01 1.394020393490791321e-02 -3.571112453937530518e-01
-2.762598693370819092e-01 6.733297556638717651e-02 7.319509983062744141e-02
-3.969740867614746094e-01 1.900123991072177887e-02 -1.893456280231475830e-01
-3.430957794189453125e-01 1.345974020659923553e-02 2.199574857950210571e-01
-4.616271853446960449e-01 6.129620224237442017e-02 1.258553937077522278e-03
-4.524094462394714355e-01 3.048216365277767181e-02 9.339553117752075195e-02
-3.971539139747619629e-01 4.003264009952545166e-02 6.163655519485473633e-01
-3.810129165649414062e-01 3.637616708874702454e-02 -6.509681940078735352e-01
-3.106618523597717285e-01 6.431052088737487793e-02 -4.099740982055664062e-01
-2.094826996326446533e-01 1.527628861367702484e-02 3.789581358432769775e-01
-3.939409554004669189e-01 6.935872137546539307e-02 1.338204443454742432e-01
-2.957444190979003906e-01 5.885168164968490601e-02 -5.493507385253906250e-01
-4.343820214271545410e-01 6.638389825820922852e-02 2.487757429480552673e-02
-4.444899559020996094e-01 2.787260152399539948e-02 4.561239480972290039e-02
-2.370511889457702637e-01 3.689096868038177490e-02 -7.233766317367553711e-01
-4.008142948150634766e-01 5.671024322509765625e-02 -5.188847184181213379e-01
-1.766746640205383301e-01 1.913093216717243195e-02 -4.912633299827575684e-01
-1.505294740200042725e-01 1.539877615869045258e-02 -2.207442522048950195e-01
-2.640018463134765625e-01 7.366590201854705811e-03 2.223093807697296143e-02
-1.815402507781982422e-01 1.034994609653949738e-02 -1.881088912487030029e-01
-2.783857285976409912e-01 5.395878106355667114e-02 -6.246221065521240234e-01
-4.354828596115112305e-01 2.702118456363677979e-02 1.815939843654632568e-01
-1.785717010498046875e-01 1.492620632052421570e-02 2.649031281471252441e-01
-1.844663918018341064e-01 9.643387049436569214e-03 -1.165163442492485046e-01
-2.907040715217590332e-01 8.502440527081489563e-03 -1.908449530601501465e-01
-2.529257535934448242e-01 6.515368819236755371e-02 9.061408042907714844e-02
-3.757222592830657959e-01 7.035209983587265015e-02 -2.150768414139747620e-03
-3.093904554843902588e-01 6.637543439865112305e-02 3.317013978958129883e-01
-3.369857668876647949e-01 2.549805119633674622e-02 5.933520793914794922e-01
-3.510671257972717285e-01 6.862646341323852539e-02 2.710763812065124512e-01
-1.983698308467864990e-01 5.738858878612518311e-02 1.306582391262054443e-01
-2.244877964258193970e-01 1.355077698826789856e-02 -4.837171733379364014e-01
-2.061162590980529785e-01 4.758942872285842896e-02 4.945713579654693604e-01
-2.922447919845581055e-01 6.571485102176666260e-02 3.146001994609832764e-01
-2.772956192493438721e-01 1.530748233199119568e-02 -5.406799316406250000e-01
-3.790965676307678223e-01 6.257377564907073975e-02 4.788936078548431396e-01
-3.449812829494476318e-01 1.355444639921188354e-02 -2.906881570816040039e-01
-2.688474357128143311e-01 6.672621518373489380e-02 -7.726952433586120605e-02
-2.367103099822998047e-01 6.074813008308410645e-02 2.902810871601104736e-01
-1.539667099714279175e-01 1.428401470184326172e-02 -1.927016377449035645e-01
-3.181301355361938477e-01 6.395214796066284180e-02 4.414162933826446533e-01
-1.354211717844009399e-01 3.686120733618736267e-02 1.779327690601348877e-01
-2.792143821716308594e-01 1.610865816473960876e-02 4.624153375625610352e-01
-2.815052866935729980e-01 9.578790515661239624e-03 2.055809646844863892e-01
-4.486822485923767090e-01 6.365773081779479980e-02 -7.403549551963806152e-02
-3.676488101482391357e-01 1.451235450804233551e-02 -1.551682054996490479e-01
-2.846178710460662842e-01 6.261868029832839966e-02 -4.236524105072021484e-01
-2.152900397777557373e-01 6.087038293480873108e-02 -8.150502108037471771e-03
-1.494083255529403687e-01 3.569836542010307312e-02 3.222446441650390625e-01
-4.187392294406890869e-01 6.559994816780090332e-02 -2.263623476028442383e-01
-2.053713202476501465e-01 1.031249016523361206e-02 1.852244734764099121e-01
-2.802501320838928223e-01 1.226951926946640015e-02 3.403234779834747314e-01
-3.228995501995086670e-01 9.909057989716529846e-03 -1.027420684695243835e-01
-3.906977772712707520e-01 2.858988568186759949e-02 5.144535303115844727e-01
-3.191558420658111572e-01 1.449252851307392120e-02 3.599208593368530273e-01
-3.526287078857421875e-01 6.973649561405181885e-02 1.870380342006683350e-01
-4.755870103836059570e-01 4.357021674513816833e-02 1.856094598770141602e-01
-4.398227930068969727e-01 6.159183755517005920e-02 3.161759674549102783e-01
-4.456015229225158691e-01 5.924519151449203491e-02 -2.920284867286682129e-01
-4.604057371616363525e-01 3.289728611707687378e-02 -5.701363459229469299e-02
-2.753036022186279297e-01 6.739817559719085693e-02 -1.996025070548057556e-02
-3.497692048549652100e-01 1.317194849252700806e-02 1.518309265375137329e-01
-4.216597676277160645e-01 2.513773366808891296e-02 -2.714686989784240723e-01
-4.475052058696746826e-01 3.483635932207107544e-02 3.328903019428253174e-01
-2.536099553108215332e-01 5.355962365865707397e-02 -5.897903442382812500e-01
-2.105789333581924438e-01 9.575307369232177734e-03 -2.960620820522308350e-01
-3.937648534774780273e-01 2.335501089692115784e-02 -4.168273508548736572e-01
-4.046918749809265137e-01 2.196416258811950684e-02 -2.891798615455627441e-01
-2.374999523162841797e-01 4.601613059639930725e-02 6.107164621353149414e-01
-1.997792273759841919e-01 5.839260667562484741e-02 2.165072038769721985e-02
-2.249667942523956299e-01 6.176250427961349487e-02 -1.346072107553482056e-01
-2.997207045555114746e-01 1.239897683262825012e-02 3.182141184806823730e-01
-4.114287495613098145e-01 6.839044392108917236e-02 -6.312448531389236450e-02
-3.450577259063720703e-01 6.114909797906875610e-02 5.312922000885009766e-01
-3.593135178089141846e-01 1.334233768284320831e-02 5.353555828332901001e-02
-1.638646572828292847e-01 5.112629383802413940e-02 -3.917317092418670654e-02
-1.864789277315139771e-01 4.870250076055526733e-02 -4.488352835178375244e-01
-3.389392197132110596e-01 1.195159740746021271e-02 -2.116822302341461182e-01
-3.868421018123626709e-01 2.290097065269947052e-02 -4.409238100051879883e-01
-1.220644116401672363e-01 2.681358531117439270e-02 -2.648497372865676880e-02
-1.778553724288940430e-01 5.229221656918525696e-02 1.921593397855758667e-01
-4.606445431709289551e-01 6.158877909183502197e-02 4.828476905822753906e-02
-2.667740583419799805e-01 1.001363433897495270e-02 2.488941550254821777e-01
-3.633569777011871338e-01 6.484728306531906128e-02 -4.008779823780059814e-01
-3.282356560230255127e-01 1.023072190582752228e-02 -2.297810837626457214e-02
-1.818666756153106689e-01 5.512867122888565063e-02 3.067016601562500000e-03
-3.149935901165008545e-01 1.930418051779270172e-02 -5.847194194793701172e-01
-2.541911005973815918e-01 2.414324879646301270e-02 -6.917477846145629883e-01
-4.090986549854278564e-01 6.268959492444992065e-02 4.156056046485900879e-01
-3.273146748542785645e-01 5.295786261558532715e-02 6.560539007186889648e-01
-1.326831579208374023e-01 2.019472233951091766e-02 -1.806245595216751099e-01
-2.474914789199829102e-01 6.478256732225418091e-02 4.675554484128952026e-02
-3.367695808410644531e-01 4.942142590880393982e-02 -6.955738067626953125e-01
-4.049698710441589355e-01 2.913954481482505798e-02 -4.913101494312286377e-01
-3.312125205993652344e-01 6.548219919204711914e-02 -3.853713274002075195e-01
-2.479551583528518677e-01 2.386526949703693390e-02 5.916074514389038086e-01
-2.669313549995422363e-01 1.283546350896358490e-02 3.684677779674530029e-01
-2.568585872650146484e-01 6.357774138450622559e-02 2.658809125423431396e-01
-4.083113372325897217e-01 2.011818438768386841e-02 5.067848414182662964e-02
-1.939976215362548828e-01 5.472050979733467102e-02 2.447347640991210938e-01
-4.552520513534545898e-01 4.752091318368911743e-02 -3.715673089027404785e-01
-1.843797564506530762e-01 5.508118867874145508e-02 -1.551769524812698364e-01
-4.087802767753601074e-01 6.868296861648559570e-02 1.021881178021430969e-01
-3.242112398147583008e-01 2.215289324522018433e-02 5.547254085540771484e-01
-3.896897137165069580e-01 3.020512685179710388e-02 5.440638065338134766e-01
-3.075710833072662354e-01 6.226470321416854858e-02 -4.736012816429138184e-01
-3.642140328884124756e-01 6.909312307834625244e-02 -1.993108838796615601e-01
-2.361522018909454346e-01 1.559406705200672150e-02 4.331359565258026123e-01
-4.200711846351623535e-01 2.318503893911838531e-02 1.522038877010345459e-01
-3.946298360824584961e-01 6.244464218616485596e-02 4.568752050399780273e-01
-3.919824957847595215e-01 2.419490367174148560e-02 4.124011695384979248e-01
-2.844602167606353760e-01 1.342513039708137512e-02 -4.787987172603607178e-01
-1.634688079357147217e-01 3.104864060878753662e-02 4.170121848583221436e-01
-2.938285768032073975e-01 6.830947846174240112e-02 -1.106544882059097290e-01
-3.921421766281127930e-01 6.851838529109954834e-02 -1.746152192354202271e-01
-3.192339539527893066e-01 6.168253719806671143e-02 -4.998202025890350342e-01
-2.452228814363479614e-01 7.230214774608612061e-03 -1.442344933748245239e-01
-2.747818231582641602e-01 8.062558248639106750e-03 9.390972554683685303e-02
-1.996067613363265991e-01 4.951059445738792419e-02 4.332804083824157715e-01
-1.888130158185958862e-01 5.631824955344200134e-02 4.728408902883529663e-02
-1.615962684154510498e-01 4.947017878293991089e-02 1.143969744443893433e-01
-2.668910622596740723e-01 7.227104157209396362e-03 -6.185200065374374390e-02
-2.571852803230285645e-01 6.484109908342361450e-02 -1.907410621643066406e-01
-3.111261427402496338e-01 6.822518259286880493e-02 -2.099018245935440063e-01
-2.446458041667938232e-01 4.386452585458755493e-02 6.423277854919433594e-01
-4.616653025150299072e-01 4.856114834547042847e-02 3.596152663230895996e-01
-2.474851161241531372e-01 5.812641233205795288e-02 -4.651268720626831055e-01
-3.690472245216369629e-01 7.011529058218002319e-02 1.331323087215423584e-01
-2.107627391815185547e-01 3.456966951489448547e-02 -6.801594495773315430e-01
-3.284170329570770264e-01 1.098167523741722107e-02 1.182940155267715454e-01
-4.412344694137573242e-01 6.381462514400482178e-02 2.167530506849288940e-01
-3.432773649692535400e-01 6.680291891098022461e-02 -3.348344564437866211e-01
-3.554915189743041992e-01 7.018966972827911377e-02 -9.805949777364730835e-02
-4.058479368686676025e-01 6.616239994764328003e-02 3.078348040580749512e-01
-4.542648792266845703e-01 3.064217418432235718e-02 -2.579055353999137878e-02
-1.411294937133789062e-01 4.230156168341636658e-02 -2.208404242992401123e-01
-2.826278209686279297e-01 6.415576487779617310e-02 -3.573213219642639160e-01
-1.390985697507858276e-01 4.326844960451126099e-02 -9.812343120574951172e-02
-3.195579946041107178e-01 6.860591471195220947e-02 2.241077274084091187e-01
-2.356568723917007446e-01 2.252990752458572388e-02 -6.616058349609375000e-01
-2.821680903434753418e-01 2.990123629570007324e-02 -7.412711381912231445e-01
-3.069218099117279053e-01 1.010570675134658813e-02 1.667951792478561401e-01
-2.706306874752044678e-01 6.395047158002853394e-02 -3.252793550491333008e-01
-1.665548235177993774e-01 4.996980726718902588e-02 1.651683896780014038e-01
-4.820894598960876465e-01 4.941425099968910217e-02 5.542216449975967407e-02
-3.918011486530303955e-01 1.807773113250732422e-02 1.320637464523315430e-01
-3.235139548778533936e-01 6.791907548904418945e-02 2.807931900024414062e-01
-2.456800490617752075e-01 7.108286023139953613e-03 -1.427360996603965759e-02
-1.321928203105926514e-01 2.473247423768043518e-02 1.519951522350311279e-01
-2.957510352134704590e-01 1.464145816862583160e-02 -5.004427433013916016e-01
-1.609452217817306519e-01 4.782824590802192688e-02 -2.719689011573791504e-01
-2.810985743999481201e-01 1.770976744592189789e-02 5.004117488861083984e-01
-1.923376917839050293e-01 5.631744116544723511e-02 -1.809079796075820923e-01
-3.003637194633483887e-01 5.335491895675659180e-02 -6.537191867828369141e-01
-3.180029690265655518e-01 1.274865306913852692e-02 2.883272767066955566e-01
-2.958314716815948486e-01 8.323851972818374634e-03 1.434941589832305908e-02
-2.973611652851104736e-01 2.483913674950599670e-02 6.199471950531005859e-01
-1.988056153059005737e-01 4.834498465061187744e-02 -5.170862674713134766e-01
-3.735836148262023926e-01 6.567901372909545898e-02 -3.594717383384704590e-01
-3.654456734657287598e-01 1.382321119308471680e-02 -6.209158897399902344e-02
-3.284242153167724609e-01 5.943924933671951294e-02 5.621039867401123047e-01
-4.259222149848937988e-01 3.107461705803871155e-02 4.019438028335571289e-01
-4.072690904140472412e-01 5.975051224231719971e-02 -4.480431377887725830e-01
-3.593446016311645508e-01 1.589790545403957367e-02 2.670473456382751465e-01
-2.269539088010787964e-01 6.078554689884185791e-02 2.147015035152435303e-01
-4.295504391193389893e-01 4.951743781566619873e-02 -4.982750415802001953e-01
-2.443213909864425659e-01 6.260550022125244141e-02 -2.617304325103759766e-01
-4.559510946273803711e-01 4.318788275122642517e-02 3.849555850028991699e-01
-2.983589470386505127e-01 4.921852052211761475e-02 -7.028619050979614258e-01
-3.251869678497314453e-01 1.020986400544643402e-02 -1.339934766292572021e-01
-3.333434760570526123e-01 6.967943906784057617e-02 1.641736477613449097e-01
-3.054460585117340088e-01 5.609446763992309570e-02 6.034876108169555664e-01
-2.814975678920745850e-01 9.608395397663116455e-03 -3.157511055469512939e-01
-4.370087087154388428e-01 3.346160426735877991e-02 -3.833178877830505371e-01
-3.013074696063995361e-01 2.909325435757637024e-02 6.663744449615478516e-01
-2.411462068557739258e-01 4.809145629405975342e-02 -6.492702960968017578e-01
-2.398424297571182251e-01 7.067896425724029541e-03 -6.646130234003067017e-02
-2.457028031349182129e-01 9.234184399247169495e-03 -3.296658694744110107e-01
-2.068752795457839966e-01 1.965727843344211578e-02 -5.831155776977539062e-01
-4.304502606391906738e-01 3.468105196952819824e-02 4.427913129329681396e-01
-2.239167690277099609e-01 5.685403198003768921e-02 3.702746927738189697e-01
-4.492533802986145020e-01 3.224482387304306030e-02 -2.430538386106491089e-01
-1.377640664577484131e-01 3.624031692743301392e-02 2.144435942173004150e-01
-1.726405471563339233e-01 2.208338864147663116e-02 -5.186626911163330078e-01
-2.319484949111938477e-01 6.285180151462554932e-02 7.676076143980026245e-02
-4.532546401023864746e-01 3.029891848564147949e-02 1.256243884563446045e-02
-4.769057035446166992e-01 4.065660014748573303e-02 1.565134152770042419e-03
-1.985406279563903809e-01 4.781178385019302368e-02 4.585459530353546143e-01
-2.942094504833221436e-01 9.106706827878952026e-03 1.339007467031478882e-01
-1.781874597072601318e-01 5.117671191692352295e-02 -3.142398297786712646e-01
-2.010467052459716797e-01 8.739540353417396545e-03 3.828799352049827576e-02
-3.343960642814636230e-01 3.603806719183921814e-02 -7.345347404479980469e-01
-2.342914342880249023e-01 8.033916354179382324e-03 1.066931039094924927e-01
-4.240031838417053223e-01 6.750364601612091064e-02 7.287371903657913208e-02
-1.533608883619308472e-01 1.546744629740715027e-02 -2.582803964614868164e-01
-1.694914847612380981e-01 4.815639555454254150e-02 -3.464698791503906250e-01
-3.652921915054321289e-01 4.400601983070373535e-02 6.833993196487426758e-01
-3.585630059242248535e-01 5.866675078868865967e-02 -5.585495233535766602e-01
-3.766929805278778076e-01 6.062353774905204773e-02 -4.972038269042968750e-01
-2.277135550975799561e-01 6.214278936386108398e-02 1.025274693965911865e-01
-3.233208358287811279e-01 1.006191410124301910e-02 4.154262691736221313e-02
-3.429960012435913086e-01 6.304603070020675659e-02 4.857511222362518311e-01
-2.217003405094146729e-01 1.229817979037761688e-02 3.143341839313507080e-01
-2.767436206340789795e-01 3.997629508376121521e-02 7.010985612869262695e-01
-1.978743374347686768e-01 5.788068473339080811e-02 -1.108903288841247559e-01
-2.360622435808181763e-01 5.823776870965957642e-02 -4.182905554771423340e-01
-3.553091585636138916e-01 1.710058003664016724e-02 3.411171138286590576e-01
-2.734487652778625488e-01 2.190386690199375153e-02 -6.675378084182739258e-01
-3.779108524322509766e-01 4.665807262063026428e-02 6.617658138275146484e-01
-1.395151168107986450e-01 4.304601252079010010e-02 -1.410546004772186279e-01
-3.555679917335510254e-01 2.556237764656543732e-02 -6.087739467620849609e-01
-2.645616233348846436e-01 6.334920227527618408e-02 3.184137046337127686e-01
-4.037286937236785889e-01 6.920450180768966675e-02 4.207549244165420532e-02
-2.361015677452087402e-01 1.913437433540821075e-02 5.079265832901000977e-01
-3.102610707283020020e-01 1.069819927215576172e-02 1.971192508935928345e-01
-2.950487136840820312e-01 4.794326424598693848e-02 6.844322681427001953e-01
-3.645243048667907715e-01 6.846617907285690308e-02 -2.408572733402252197e-01
-1.865154206752777100e-01 1.047035865485668182e-02 9.840416908264160156e-02
-4.806138277053833008e-01 4.545539990067481995e-02 9.661414474248886108e-02
-4.355159997940063477e-01 2.648228779435157776e-02 -1.603320986032485962e-01
-2.345058321952819824e-01 1.122748851776123047e-02 2.934776544570922852e-01
-1.962760686874389648e-01 5.605492368340492249e-02 -2.512286007404327393e-01
-3.707904219627380371e-01 1.880358345806598663e-02 -3.927583694458007812e-01
-2.155894786119461060e-01 1.913465373218059540e-02 4.748730659484863281e-01
-4.111357927322387695e-01 6.323165446519851685e-02 -3.489567041397094727e-01
-2.762352526187896729e-01 5.648975074291229248e-02 -5.741643905639648438e-01
-1.728472560644149780e-01 5.278028175234794617e-02 7.441729307174682617e-02
-3.753607571125030518e-01 1.502340286970138550e-02 -6.525198929011821747e-03
-2.719843685626983643e-01 6.177131086587905884e-02 4.096899330615997314e-01
-3.431050181388854980e-01 2.242038771510124207e-02 -5.869855880737304688e-01
-4.236825406551361084e-01 5.804009735584259033e-02 -4.253714680671691895e-01
-2.777531147003173828e-01 6.104413047432899475e-02 4.496235251426696777e-01
-2.904870808124542236e-01 8.228307589888572693e-03 4.408014565706253052e-02
-2.952428460121154785e-01 6.843788176774978638e-02 1.134153008460998535e-01
-4.195325672626495361e-01 4.755329713225364685e-02 -5.456514358520507812e-01
-4.117800593376159668e-01 6.754066050052642822e-02 2.029567062854766846e-01
-2.544861137866973877e-01 8.848844096064567566e-03 -3.049302995204925537e-01
-2.718270421028137207e-01 6.711584329605102539e-02 2.463001757860183716e-02
-4.030324220657348633e-01 2.519075572490692139e-02 3.844172954559326172e-01
-3.185944557189941406e-01 1.828210614621639252e-02 -5.552983283996582031e-01
-4.368186593055725098e-01 6.125915795564651489e-02 3.430022597312927246e-01
-3.160999417304992676e-01 9.928192943334579468e-03 9.636259078979492188e-02
-3.973807990550994873e-01 1.815789006650447845e-02 -5.099688470363616943e-02
-4.289963543415069580e-01 2.811598591506481171e-02 3.000389635562896729e-01
-3.427981734275817871e-01 5.497073382139205933e-02 -6.301435232162475586e-01
-4.065999388694763184e-01 6.819994747638702393e-02 -1.272445768117904663e-01
-1.649754494428634644e-01 1.347590982913970947e-02 1.202951967716217041e-01
-3.109345138072967529e-01 5.631913244724273682e-02 -6.118532419204711914e-01
-4.171192348003387451e-01 2.156531065702438354e-02 -1.865216903388500214e-02
-3.250874280929565430e-01 1.007072813808917999e-02 1.210611686110496521e-02
-1.447867751121520996e-01 3.364714607596397400e-02 2.986351549625396729e-01
-1.732307821512222290e-01 4.955383390188217163e-02 2.575295567512512207e-01
-1.307902038097381592e-01 2.264501154422760010e-02 -2.331101000308990479e-01
-2.342610210180282593e-01 4.903978854417800903e-02 -6.210213899612426758e-01
-2.887937426567077637e-01 7.926074787974357605e-03 -1.813517510890960693e-02
-4.062032103538513184e-01 6.902767717838287354e-02 5.451776087284088135e-05
-1.474188119173049927e-01 2.008547447621822357e-02 -3.535407781600952148e-01
-3.208545446395874023e-01 3.315100818872451782e-02 6.905190944671630859e-01
-3.431730866432189941e-01 1.563135720789432526e-02 -4.026870131492614746e-01
-1.952368021011352539e-01 1.015019230544567108e-02 1.302682608366012573e-01
-4.068801403045654297e-01 2.018307149410247803e-02 -1.373955607414245605e-01
-2.836719155311584473e-01 6.022052839398384094e-02 -4.969966113567352295e-01
-2.446038275957107544e-01 1.216140389442443848e-02 -4.569058120250701904e-01
-2.908767759799957275e-01 6.687160581350326538e-02 -2.353801876306533813e-01
-4.207291007041931152e-01 6.551911681890487671e-02 2.732003629207611084e-01
-1.557881087064743042e-01 1.408895663917064667e-02 5.603908747434616089e-02
-3.090192377567291260e-01 1.629346236586570740e-02 -5.240539312362670898e-01
-3.103649616241455078e-01 6.434659659862518311e-02 4.164784252643585205e-01
-1.658460199832916260e-01 1.677026413381099701e-02 -3.934962153434753418e-01
-1.894928216934204102e-01 1.678422279655933380e-02 3.586919605731964111e-01
-1.284937262535095215e-01 3.715554997324943542e-02 4.390409588813781738e-02
-4.696893692016601562e-01 4.895684868097305298e-02 -2.487914860248565674e-01
-3.475215137004852295e-01 6.830799579620361328e-02 -2.582542598247528076e-01
-4.564092755317687988e-01 -3.696770966053009033e-01 -6.942613720893859863e-01
-4.184179306030273438e-01 -3.846885561943054199e-01 -7.049491405487060547e-01
-4.338432550430297852e-01 -4.604497551918029785e-01 -6.603548526763916016e-01
-4.452069401741027832e-01 -3.400666117668151855e-01 -7.280905842781066895e-01
-4.205447435379028320e-01 -4.069471359252929688e-01 -7.358652353286743164e-01
-4.477019906044006348e-01 -4.759135544300079346e-01 -7.093622684478759766e-01
-4.320955872535705566e-01 -4.559466540813446045e-01 -7.313313484191894531e-01
-4.186741113662719727e-01 -3.385436832904815674e-01 -7.239498496055603027e-01
-4.217461943626403809e-01 -3.971328437328338623e-01 -6.828629970550537109e-01
-4.428198039531707764e-01 -4.814486801624298096e-01 -7.098892331123352051e-01
-4.310196042060852051e-01 -4.360276758670806885e-01 -7.439639568328857422e-01
-4.611167311668395996e-01 -4.206921458244323730e-01 -6.764638423919677734e-01
-4.597123265266418457e-01 -3.895964920520782471e-01 -6.789935827255249023e-01
-4.329595863819122314e-01 -4.644026756286621094e-01 -6.673021912574768066e-01
-4.313264787197113037e-01 -4.649411439895629883e-01 -6.761460304260253906e-01
-4.432835876941680908e-01 -4.223314225673675537e-01 -7.418822646141052246e-01
-4.193654954433441162e-01 -4.016464352607727051e-01 -7.033841013908386230e-01
-4.597114920616149902e-01 -4.040809571743011475e-01 -6.870657205581665039e-01
-4.512344002723693848e-01 -4.858365058898925781e-01 -6.884790062904357910e-01
-4.270693957805633545e-01 -3.271923363208770752e-01 -6.773716211318969727e-01
-4.510120749473571777e-01 -3.723184168338775635e-01 -7.225319147109985352e-01
-4.615598618984222412e-01 -4.129001498222351074e-01 -6.623423695564270020e-01
-4.390573501586914062e-01 -3.790105283260345459e-01 -6.356373429298400879e-01
-4.528213441371917725e-01 -4.707563221454620361e-01 -7.004759311676025391e-01
-4.236469864845275879e-01 -4.339819550514221191e-01 -7.274671196937561035e-01
-4.574404954910278320e-01 -4.206286668777465820e-01 -6.322937607765197754e-01
-4.477661848068237305e-01 -3.227068781852722168e-01 -6.767014861106872559e-01
-4.204173088073730469e-01 -4.132341146469116211e-01 -7.015986442565917969e-01
-4.464695155620574951e-01 -4.164645373821258545e-01 -7.372048497200012207e-01
-4.383298158645629883e-01 -4.791893064975738525e-01 -7.123959660530090332e-01
-4.196195304393768311e-01 -3.697465360164642334e-01 -6.933292746543884277e-01
-4.254207909107208252e-01 -3.718040585517883301e-01 -7.566787600517272949e-01
-4.615505039691925049e-01 -4.293037056922912598e-01 -6.535615921020507812e-01
-4.266375899314880371e-01 -3.709674775600433350e-01 -6.624464392662048340e-01
-4.611383080482482910e-01 -4.438649117946624756e-01 -6.680637001991271973e-01
-4.190845489501953125e-01 -3.352129459381103516e-01 -7.175772190093994141e-01
-4.531134665012359619e-01 -4.576727747917175293e-01 -6.325914859771728516e-01
-4.223093092441558838e-01 -4.080936312675476074e-01 -7.431262731552124023e-01
-4.432284832000732422e-01 -3.474180102348327637e-01 -7.371257543563842773e-01
-4.601044058799743652e-01 -4.539401233196258545e-01 -6.502805948257446289e-01
-4.271160662174224854e-01 -4.272743761539459229e-01 -6.670462489128112793e-01
-4.564844369888305664e-01 -4.275235533714294434e-01 -6.302508711814880371e-01
-4.595518410205841064e-01 -4.531874060630798340e-01 -6.793814301490783691e-01
-4.578200280666351318e-01 -4.048700332641601562e-01 -6.357965469360351562e-01
-4.334077835083007812e-01 -4.085222184658050537e-01 -6.436419486999511719e-01
-4.581296443939208984e-01 -4.703426361083984375e-01 -6.709517836570739746e-01
-4.187033176422119141e-01 -3.573635220527648926e-01 -7.026449441909790039e-01
-4.571774005889892578e-01 -4.330531358718872070e-01 -7.016785144805908203e-01
-4.180116653442382812e-01 -3.899728357791900635e-01 -7.175339460372924805e-01
-4.573049545288085938e-01 -4.752083420753479004e-01 -6.684217453002929688e-01
-4.540076851844787598e-01 -3.532583713531494141e-01 -6.554322838783264160e-01
-4.178254902362823486e-01 -3.628482222557067871e-01 -7.107778787612915039e-01
-4.291727244853973389e-01 -3.710680603981018066e-01 -6.552504301071166992e-01
-4.468137621879577637e-01 -3.997158706188201904e-01 -6.266845464706420898e-01
-4.206107854843139648e-01 -3.698229193687438965e-01 -6.872405409812927246e-01
-4.373062252998352051e-01 -3.545902967453002930e-01 -7.504597902297973633e-01
-4.554759860038757324e-01 -3.544297814369201660e-01 -6.654797792434692383e-01
-4.526062607765197754e-01 -3.409590721130371094e-01 -6.899217963218688965e-01
-4.384393692016601562e-01 -4.521363377571105957e-01 -7.359448671340942383e-01
-4.441051185131072998e-01 -4.891051054000854492e-01 -6.623409390449523926e-01
-4.597446322441101074e-01 -4.405207633972167969e-01 -6.410306096076965332e-01
-4.600132703781127930e-01 -4.011065065860748291e-01 -6.472541689872741699e-01
-4.415223300457000732e-01 -3.662901222705841064e-01 -6.364129185676574707e-01
-4.309186935424804688e-01 -3.959262371063232422e-01 -6.490002870559692383e-01
-4.186156690120697021e-01 -3.439863324165344238e-01 -7.114940881729125977e-01
-4.501748383045196533e-01 -4.756939113140106201e-01 -7.040410637855529785e-01
-4.329830408096313477e-01 -3.381136357784271240e-01 -7.504261136054992676e-01
-4.523280560970306396e-01 -3.879146575927734375e-01 -7.213925123214721680e-01
-4.327581822872161865e-01 -4.169644117355346680e-01 -6.461701393127441406e-01
-4.284166693687438965e-01 -4.156723022460937500e-01 -7.510154843330383301e-01
-4.564180970191955566e-01 -3.640105724334716797e-01 -6.883316040039062500e-01
-4.547367691993713379e-01 -3.601477146148681641e-01 -6.510317921638488770e-01
-4.496487081050872803e-01 -3.799140453338623047e-01 -6.310104131698608398e-01
-4.533531367778778076e-01 -3.792391121387481689e-01 -7.155206799507141113e-01
-4.194301664829254150e-01 -3.318268060684204102e-01 -7.239884734153747559e-01
-4.518826305866241455e-01 -4.886196255683898926e-01 -6.608309745788574219e-01
-4.586868286132812500e-01 -3.757876753807067871e-01 -6.622471213340759277e-01
-4.238930940628051758e-01 -3.867406845092773438e-01 -6.713135242462158203e-01
-4.507716894149780273e-01 -4.172985851764678955e-01 -7.267826199531555176e-01
-4.193691611289978027e-01 -3.519459068775177002e-01 -7.418516874313354492e-01
-4.357033073902130127e-01 -4.665266871452331543e-01 -7.252385020256042480e-01
-4.600526690483093262e-01 -4.581716656684875488e-01 -6.670309901237487793e-01
-4.502237439155578613e-01 -3.322486579418182373e-01 -6.957820057868957520e-01
-4.535803794860839844e-01 -3.432742953300476074e-01 -6.781817674636840820e-01
-4.468173682689666748e-01 -3.391523659229278564e-01 -7.220323681831359863e-01
-4.258635044097900391e-01 -4.484582841396331787e-01 -6.923471093177795410e-01
-4.416292309761047363e-01 -4.650962650775909424e-01 -7.257976531982421875e-01
-4.489025473594665527e-01 -4.145553708076477051e-01 -7.319691181182861328e-01
-4.276291131973266602e-01 -3.653266429901123047e-01 -6.604601740837097168e-01
-4.568168818950653076e-01 -3.616159558296203613e-01 -6.666998863220214844e-01
-4.597562849521636963e-01 -4.231499433517456055e-01 -6.886566281318664551e-01
-4.526842534542083740e-01 -3.454760313034057617e-01 -6.973969340324401855e-01
-4.519114494323730469e-01 -3.373100459575653076e-01 -6.706260442733764648e-01
-4.331362843513488770e-01 -4.742548465728759766e-01 -6.810001134872436523e-01
-4.199846386909484863e-01 -3.314333856105804443e-01 -7.099414467811584473e-01
-4.310844540596008301e-01 -4.206257462501525879e-01 -6.513141393661499023e-01
-4.493039250373840332e-01 -3.582246601581573486e-01 -7.235375046730041504e-01
-4.406289756298065186e-01 -3.719623684883117676e-01 -6.355375051498413086e-01
-4.302851557731628418e-01 -3.005430400371551514e-01 -7.101276516914367676e-01
-4.519745707511901855e-01 -4.313819706439971924e-01 -7.210223078727722168e-01
-4.184588491916656494e-01 -3.657704293727874756e-01 -7.028899192810058594e-01
-4.555131196975708008e-01 -4.216016232967376709e-01 -7.106120586395263672e-01
-4.176317751407623291e-01 -3.610138893127441406e-01 -7.295083999633789062e-01
-4.509998559951782227e-01 -4.079579412937164307e-01 -7.268290519714355469e-01
-4.460921585559844971e-01 -3.886637687683105469e-01 -7.392504215240478516e-01
-4.359036982059478760e-01 -4.632328450679779053e-01 -6.556714177131652832e-01
-4.550826251506805420e-01 -3.657378852367401123e-01 -7.005707621574401855e-01
-4.207956194877624512e-01 -3.466680049896240234e-01 -7.458898425102233887e-01
-4.388321936130523682e-01 -3.192416429519653320e-01 -7.308824658393859863e-01
-4.554471075534820557e-01 -4.690451025962829590e-01 -6.915775537490844727e-01
-4.578732550144195557e-01 -4.650272727012634277e-01 -6.815878152847290039e-01
-4.610195159912109375e-01 -4.086234271526336670e-01 -6.523453593254089355e-01
-4.336578249931335449e-01 -4.457456171512603760e-01 -6.521956324577331543e-01
-4.591101109981536865e-01 -4.538975059986114502e-01 -6.434644460678100586e-01
-4.242660999298095703e-01 -4.275719523429870605e-01 -6.814897060394287109e-01
-4.516228437423706055e-01 -3.816726207733154297e-01 -7.227275371551513672e-01
-4.333913326263427734e-01 -4.696093797683715820e-01 -6.713511347770690918e-01
-4.539550542831420898e-01 -3.741434812545776367e-01 -7.111300826072692871e-01
-4.530492424964904785e-01 -4.150824248790740967e-01 -6.264151334762573242e-01
-4.255408048629760742e-01 -4.370394647121429443e-01 -6.807441711425781250e-01
-4.591062366962432861e-01 -3.880191147327423096e-01 -6.847944855690002441e-01
-4.246310591697692871e-01 -3.372756242752075195e-01 -7.501373887062072754e-01
-4.590449333190917969e-01 -3.792754113674163818e-01 -6.751611232757568359e-01
-4.295590817928314209e-01 -4.295293092727661133e-01 -6.586317420005798340e-01
-4.320518672466278076e-01 -4.506054222583770752e-01 -7.356308102607727051e-01
-4.399440884590148926e-01 -4.561426937580108643e-01 -6.418377161026000977e-01
-4.500431120395660400e-01 -3.337912559509277344e-01 -6.646035313606262207e-01
-4.242303371429443359e-01 -3.382455408573150635e-01 -6.804161667823791504e-01
-4.602520465850830078e-01 -4.239602982997894287e-01 -6.420333981513977051e-01
-4.493098855018615723e-01 -4.926493763923645020e-01 -6.704589724540710449e-01
-4.470797181129455566e-01 -3.217733204364776611e-01 -6.997997164726257324e-01
-4.288261830806732178e-01 -4.169340729713439941e-01 -6.574174761772155762e-01
-4.201968610286712646e-01 -3.467423915863037109e-01 -6.958436369895935059e-01
-4.241261482238769531e-01 -4.254599213600158691e-01 -7.382355928421020508e-01
-4.444744586944580078e-01 -3.136590719223022461e-01 -6.833360791206359863e-01
-4.348969757556915283e-01 -3.617188036441802979e-01 -7.546118497848510742e-01
-4.245145022869110107e-01 -3.861864507198333740e-01 -7.545760869979858398e-01
-4.573762416839599609e-01 -4.390430450439453125e-01 -6.330646872520446777e-01
-4.286041855812072754e-01 -4.008948504924774170e-01 -7.553469538688659668e-01
-4.546187520027160645e-01 -4.227483868598937988e-01 -6.275840997695922852e-01
-4.445102810859680176e-01 -4.129229784011840820e-01 -7.414683103561401367e-01
-4.354513585567474365e-01 -3.677740991115570068e-01 -6.429812312126159668e-01
-4.405141472816467285e-01 -3.411110639572143555e-01 -6.477507948875427246e-01
-4.229924380779266357e-01 -3.278174400329589844e-01 -7.425410747528076172e-01
-4.555678665637969971e-01 -3.536323010921478271e-01 -6.767821311950683594e-01
-4.566210508346557617e-01 -3.724094331264495850e-01 -6.482096910476684570e-01
-4.231900274753570557e-01 -3.521769940853118896e-01 -6.787532567977905273e-01
-4.443227052688598633e-01 -4.174562990665435791e-01 -6.274295449256896973e-01
-4.577133059501647949e-01 -3.808269202709197998e-01 -6.922555565834045410e-01
-4.276314973831176758e-01 -4.558826684951782227e-01 -7.173811197280883789e-01
-4.195039570331573486e-01 -3.856325149536132812e-01 -6.949815154075622559e-01
-4.253562688827514648e-01 -4.070355594158172607e-01 -6.679058074951171875e-01
-4.465090334415435791e-01 -3.715936541557312012e-01 -7.360768914222717285e-01
-4.516663551330566406e-01 -3.387625217437744141e-01 -6.953845620155334473e-01
-4.378588795661926270e-01 -4.836937189102172852e-01 -6.729214787483215332e-01
-4.216715991497039795e-01 -3.187397122383117676e-01 -7.184100151062011719e-01
-4.305696189403533936e-01 -4.688883423805236816e-01 -7.055348157882690430e-01
-4.180929660797119141e-01 -3.848190605640411377e-01 -7.304868102073669434e-01
-4.595194160938262939e-01 -4.152253568172454834e-01 -6.903523206710815430e-01
-4.358729422092437744e-01 -3.334871828556060791e-01 -7.452813982963562012e-01
-4.332335293292999268e-01 -4.714756309986114502e-01 -7.148809432983398438e-01
-4.232705533504486084e-01 -4.362050890922546387e-01 -7.200374007225036621e-01
-4.186303615570068359e-01 -3.901097178459167480e-01 -7.331917285919189453e-01
