3.845245242118835449e-01 6.120958179235458374e-02 1.773252785205841064e-01
2.444507777690887451e-01 1.256916075944900513e-01 1.435957401990890503e-01
2.264355123043060303e-01 4.319701343774795532e-02 -2.892788946628570557e-01
6.677632033824920654e-02 1.227283924818038940e-01 -2.470827400684356689e-01
-9.948046505451202393e-02 1.117440015077590942e-01 -2.152583003044128418e-01
1.249883323907852173e-02 5.247927829623222351e-02 -6.821193695068359375e-01
-1.461762040853500366e-01 1.038107126951217651e-01 -2.658515274524688721e-01
2.560831010341644287e-01 4.715486615896224976e-02 -3.140611946582794189e-01
1.086979284882545471e-01 1.255209743976593018e-01 4.055623114109039307e-01
4.361193999648094177e-02 3.861010447144508362e-02 6.275421380996704102e-01
1.147981137037277222e-01 3.518748283386230469e-02 -2.615843117237091064e-01
2.094057202339172363e-01 1.063736304640769958e-01 8.694357872009277344e-01
-8.253355324268341064e-02 4.637410119175910950e-02 -5.143000483512878418e-01
4.444025456905364990e-03 4.209666326642036438e-02 -5.153537988662719727e-01
2.859362959861755371e-01 1.093510836362838745e-01 -4.383534193038940430e-01
1.746934056282043457e-01 8.868244290351867676e-02 1.018217563629150391e+00
1.983227580785751343e-02 1.192454248666763306e-01 5.469132661819458008e-01
-1.356654167175292969e-01 1.104567795991897583e-01 3.146079182624816895e-02
1.810506582260131836e-01 1.214710921049118042e-01 5.850062966346740723e-01
-8.283971250057220459e-02 7.219582051038742065e-02 -7.204397916793823242e-01
-5.943615734577178955e-02 1.092229112982749939e-01 6.454219222068786621e-01
2.785183787345886230e-01 4.680356755852699280e-02 -2.029498815536499023e-01
1.354864835739135742e-01 5.503024905920028687e-02 9.004514217376708984e-01
-1.289439648389816284e-01 9.987379610538482666e-02 6.236071586608886719e-01
1.569682657718658447e-01 1.134277284145355225e-01 7.907693982124328613e-01
1.005364209413528442e-02 6.526881456375122070e-02 9.826493859291076660e-01
-1.765480488538742065e-01 4.382599145174026489e-02 3.010106980800628662e-01
3.181516528129577637e-01 4.949560388922691345e-02 -4.847344011068344116e-02
6.529445946216583252e-02 1.256275177001953125e-01 3.160620033740997314e-01
2.241200357675552368e-01 4.050321877002716064e-02 -1.839829683303833008e-01
-1.481159031391143799e-01 1.074202060699462891e-01 -9.223421663045883179e-02
1.189729273319244385e-01 3.188337758183479309e-02 -1.245101541280746460e-02
1.787091195583343506e-01 6.360487639904022217e-02 -7.191391587257385254e-01
-1.691862940788269043e-03 1.221841573715209961e-01 3.328352272510528564e-01
2.217267751693725586e-01 1.192914098501205444e-01 -3.345680534839630127e-01
1.644777357578277588e-01 1.258989721536636353e-01 -1.253375411033630371e-01
-1.889156550168991089e-02 4.409566149115562439e-02 7.234947085380554199e-01
2.763192057609558105e-01 5.234152823686599731e-02 6.290585994720458984e-01
3.107894361019134521e-01 4.727865755558013916e-02 1.563626825809478760e-01
3.147552609443664551e-01 4.986147955060005188e-02 3.612211346626281738e-01
6.894752383232116699e-03 1.196298599243164062e-01 5.016292333602905273e-01
2.243328690528869629e-01 1.176046580076217651e-01 -3.775992989540100098e-01
1.252358108758926392e-01 7.503733783960342407e-02 1.041035413742065430e+00
3.277856856584548950e-02 3.523417189717292786e-02 5.172193646430969238e-01
1.165526360273361206e-02 1.104406937956809998e-01 -5.324956774711608887e-01
-1.044896543025970459e-01 1.132787615060806274e-01 -9.756620973348617554e-02
3.624225854873657227e-01 1.139072775840759277e-01 2.852120399475097656e-01
2.042649537324905396e-01 3.837710991501808167e-02 3.842611014842987061e-01
-2.190376073122024536e-01 9.306086599826812744e-02 2.144169509410858154e-01
3.599500060081481934e-01 6.312146037817001343e-02 -2.469184100627899170e-01
-1.757789999246597290e-01 4.142726585268974304e-02 5.354255065321922302e-02
-5.784568190574645996e-02 1.127395480871200562e-01 5.565620064735412598e-01
-1.091379672288894653e-01 1.114598214626312256e-01 -1.733117699623107910e-01
8.123251795768737793e-02 1.145980954170227051e-01 -5.052332282066345215e-01
2.822313904762268066e-01 4.857508093118667603e-02 -2.513541281223297119e-01
1.952765434980392456e-01 3.874999284744262695e-02 4.394511580467224121e-01
1.397098898887634277e-01 3.924432769417762756e-02 -3.722014725208282471e-01
4.590709879994392395e-02 1.099842414259910583e-01 -5.739815831184387207e-01
2.803523540496826172e-01 1.145855784416198730e-01 6.347219944000244141e-01
1.915863901376724243e-02 3.185050934553146362e-02 -1.675209403038024902e-01
-4.966250061988830566e-02 3.518329933285713196e-02 -2.657218277454376221e-01
2.601796388626098633e-01 6.498365104198455811e-02 8.591423630714416504e-01
3.435063958168029785e-01 5.252194404602050781e-02 1.797386705875396729e-01
-1.341611742973327637e-01 7.322304695844650269e-02 8.048984408378601074e-01
1.878630369901657104e-01 1.224389225244522095e-01 -2.720694243907928467e-01
-2.040363997220993042e-01 4.763511195778846741e-02 -9.929909557104110718e-02
2.785842120647430420e-01 1.166838854551315308e-01 5.850194692611694336e-01
8.155278861522674561e-02 4.866764694452285767e-02 -6.290868520736694336e-01
-2.242969125509262085e-01 8.374574780464172363e-02 4.096662104129791260e-01
-3.010861575603485107e-02 1.215940862894058228e-01 1.479594707489013672e-01
-9.355135262012481689e-02 3.598444163799285889e-02 -1.932785212993621826e-01
3.936795592308044434e-01 1.072641685605049133e-01 7.184520363807678223e-03
1.817163079977035522e-02 3.002602234482765198e-02 3.454419970512390137e-02
-6.321677565574645996e-02 3.900110721588134766e-02 5.455267429351806641e-01
1.815276145935058594e-01 3.517069667577743530e-02 2.486895620822906494e-01
7.559719681739807129e-02 1.269505023956298828e-01 1.035666763782501221e-01
2.714484333992004395e-01 1.133286952972412109e-01 6.806548237800598145e-01
3.798032402992248535e-01 1.056872159242630005e-01 4.716046452522277832e-01
-1.000167876482009888e-01 3.542327880859375000e-02 -1.336273849010467529e-01
3.916607499122619629e-01 7.851003855466842651e-02 5.661469697952270508e-01
3.935793638229370117e-01 6.713364273309707642e-02 3.764357864856719971e-01
2.656444162130355835e-02 1.195371299982070923e-01 -3.130118846893310547e-01
1.198574006557464600e-01 1.242510825395584106e-01 -2.218810319900512695e-01
1.039711534976959229e-01 3.114451095461845398e-02 3.380300849676132202e-02
-1.090012639760971069e-01 1.058911904692649841e-01 5.679715275764465332e-01
2.201657742261886597e-01 1.264237612485885620e-01 2.356502711772918701e-01
7.417052239179611206e-02 1.263929605484008789e-01 2.641241550445556641e-01
1.417890787124633789e-01 1.100373268127441406e-01 8.496207594871520996e-01
3.414562344551086426e-01 8.194755017757415771e-02 -4.915516376495361328e-01
-2.253648489713668823e-01 9.179685264825820923e-02 7.057540118694305420e-03
4.099125266075134277e-01 8.024156093597412109e-02 4.641976654529571533e-01
-2.157128304243087769e-01 4.867208749055862427e-02 2.983976900577545166e-02
-6.632418930530548096e-02 3.519506379961967468e-02 3.972730338573455811e-01
-4.663003981113433838e-02 9.728237986564636230e-02 -6.515744924545288086e-01
1.428964734077453613e-01 4.128781706094741821e-02 -4.269276857376098633e-01
3.164280354976654053e-01 1.174556165933609009e-01 -1.337004005908966064e-01
1.712628006935119629e-01 1.277936100959777832e-01 1.223057210445404053e-01
1.609158515930175781e-01 1.012493520975112915e-01 -6.953963637351989746e-01
2.242347598075866699e-01 1.013773828744888306e-01 9.090176224708557129e-01
3.811050578951835632e-02 5.029091611504554749e-02 8.565713763236999512e-01
8.244494348764419556e-02 4.078094288706779480e-02 6.778568029403686523e-01
1.344337165355682373e-01 1.275213211774826050e-01 1.231829822063446045e-02
3.100501000881195068e-01 1.196284666657447815e-01 -5.434899777173995972e-02
2.114029228687286377e-01 4.982043802738189697e-02 -4.987750053405761719e-01
3.072593808174133301e-01 9.022872895002365112e-02 -5.727346539497375488e-01
3.020883351564407349e-02 2.991399541497230530e-02 1.057116463780403137e-01
2.050020098686218262e-01 6.136637181043624878e-02 -6.673727035522460938e-01
-5.452279746532440186e-02 1.189152225852012634e-01 -4.788672178983688354e-02
2.629767656326293945e-01 1.110054701566696167e-01 7.393442392349243164e-01
-2.376412600278854370e-01 6.623050570487976074e-02 3.763661086559295654e-01
3.155586719512939453e-01 1.178567335009574890e-01 4.186565876007080078e-01
-1.023804098367691040e-01 5.714289098978042603e-02 7.916850447654724121e-01
3.098065257072448730e-01 1.196233779191970825e-01 3.549203276634216309e-01
-1.925912350416183472e-01 6.069066748023033142e-02 -4.234020113945007324e-01
6.473126262426376343e-02 1.260363310575485229e-01 -2.168291062116622925e-02
-2.300243824720382690e-02 1.115679889917373657e-01 6.773880720138549805e-01
-8.327150344848632812e-02 1.120765358209609985e-01 -2.761150598526000977e-01
-1.824408620595932007e-01 4.256111755967140198e-02 8.861266076564788818e-03
3.878914713859558105e-01 1.079933568835258484e-01 3.370537161827087402e-01
3.698288276791572571e-02 3.116029128432273865e-02 -1.172708049416542053e-01
2.571275830268859863e-01 5.641318112611770630e-02 7.580720186233520508e-01
2.562955021858215332e-02 3.070788457989692688e-02 2.586289048194885254e-01
-1.656138449907302856e-01 4.379044100642204285e-02 -2.205723524093627930e-01
-1.504859179258346558e-01 4.596396535634994507e-02 -3.475194275379180908e-01
1.061956807971000671e-01 5.256564170122146606e-02 -6.706104874610900879e-01
-2.048059254884719849e-01 7.651915401220321655e-02 5.725601911544799805e-01
-1.162162572145462036e-01 3.597434610128402710e-02 -8.302553743124008179e-02
1.676433086395263672e-01 3.401929140090942383e-02 1.551678776741027832e-02
6.922097504138946533e-02 1.036177277565002441e-01 9.162454009056091309e-01
7.578369975090026855e-02 3.487104177474975586e-02 -2.978040277957916260e-01
-3.381093591451644897e-02 3.702239319682121277e-02 -3.564422130584716797e-01
2.428119629621505737e-02 1.226209327578544617e-01 -1.665438711643218994e-01
2.427183240652084351e-01 5.135604739189147949e-02 -4.572075009346008301e-01
4.330019354820251465e-01 8.886158466339111328e-02 1.311478465795516968e-01
2.630426287651062012e-01 1.146930828690528870e-01 -3.815290629863739014e-01
1.485059708356857300e-01 1.208387613296508789e-01 -3.520275354385375977e-01
-2.516098618507385254e-01 6.554581969976425171e-02 -7.793321460485458374e-02
3.786778450012207031e-01 1.116819530725479126e-01 9.759449958801269531e-02
-1.252236664295196533e-01 1.119594424962997437e-01 1.502948403358459473e-01
-1.491191089153289795e-01 8.613545447587966919e-02 7.252366542816162109e-01
-3.326064348220825195e-02 3.180439025163650513e-02 -9.905416518449783325e-02
3.393297195434570312e-01 1.157059967517852783e-01 -8.188816159963607788e-02
6.962460279464721680e-02 3.024285659193992615e-02 7.320716977119445801e-02
1.909362375736236572e-01 4.158889129757881165e-02 5.649093985557556152e-01
2.986168861389160156e-01 1.167395263910293579e-01 5.278443694114685059e-01
3.416990041732788086e-01 1.067331656813621521e-01 6.219433546066284180e-01
-5.052940547466278076e-02 3.924199193716049194e-02 -4.028064608573913574e-01
3.009245917201042175e-02 1.234975904226303101e-01 -1.279526054859161377e-01
-3.327980637550354004e-03 1.170062720775604248e-01 -3.430550694465637207e-01
1.031864061951637268e-01 4.086679592728614807e-02 -4.635850787162780762e-01
3.371838480234146118e-02 1.219157427549362183e-01 -2.275096178054809570e-01
-1.881537586450576782e-01 5.032066628336906433e-02 -2.941341102123260498e-01
2.594858407974243164e-01 9.123174846172332764e-02 9.309745430946350098e-01
1.475615501403808594e-01 3.542647138237953186e-02 4.115767180919647217e-01
3.247053027153015137e-01 5.280655622482299805e-02 -1.656637191772460938e-01
3.310867249965667725e-01 1.181829199194908142e-01 1.030694693326950073e-02
1.869210600852966309e-01 4.589324817061424255e-02 6.916549801826477051e-01
-1.558350473642349243e-01 9.778919816017150879e-02 5.565829277038574219e-01
2.243279814720153809e-01 1.244557201862335205e-01 4.017562866210937500e-01
-1.396506726741790771e-01 3.843650966882705688e-02 2.612302303314208984e-01
-1.979877501726150513e-01 5.201169103384017944e-02 4.276834428310394287e-01
-2.716769278049468994e-02 4.653083160519599915e-02 7.599697709083557129e-01
7.210557907819747925e-02 1.182663887739181519e-01 6.554886102676391602e-01
1.660680174827575684e-01 7.292564958333969116e-02 -7.792163491249084473e-01
5.606199428439140320e-02 1.229643672704696655e-01 4.653587937355041504e-01
7.709796726703643799e-02 1.219188868999481201e-01 5.425483584403991699e-01
-2.402677685022354126e-01 6.156080961227416992e-02 3.035485744476318359e-01
9.536124765872955322e-02 9.696879982948303223e-02 -7.502051591873168945e-01
7.073772698640823364e-02 3.057472780346870422e-02 2.045111060142517090e-01
-3.223729431629180908e-01 -2.452572882175445557e-01 -3.724042177200317383e-01
-2.166780978441238403e-01 -1.814548969268798828e-01 -7.079299688339233398e-01
3.604686260223388672e-01 -1.701299548149108887e-01 2.126657590270042419e-02
6.427201628684997559e-02 4.055209457874298096e-02 -4.953857362270355225e-01
9.283561259508132935e-02 6.020604074001312256e-02 2.893362641334533691e-01
-2.661772966384887695e-01 -3.128593564033508301e-01 4.969040155410766602e-01
-1.073995828628540039e-01 -4.963125586509704590e-01 1.440504789352416992e-01
2.381193339824676514e-01 -3.917436301708221436e-02 -3.934466838836669922e-01
1.583020836114883423e-01 -4.563981294631958008e-01 5.222941637039184570e-01
-2.362002283334732056e-01 4.446624219417572021e-02 -2.594165503978729248e-01
-2.257294505834579468e-01 2.389016747474670410e-02 -4.065793752670288086e-01
2.798708081245422363e-01 -3.829850256443023682e-02 -9.765952825546264648e-02
-1.007961481809616089e-01 -4.992262125015258789e-01 -5.126243829727172852e-02
-1.160397455096244812e-01 -2.327478826045989990e-01 8.320323228836059570e-01
-2.820221483707427979e-01 1.264032721519470215e-02 1.828940063714981079e-01
3.513749241828918457e-01 -3.620612025260925293e-01 6.007750704884529114e-02
2.458193898200988770e-01 -2.464671581983566284e-01 6.733706593513488770e-01
3.656204640865325928e-01 -2.901824712753295898e-01 -1.438954174518585205e-01
1.467968523502349854e-01 -1.533924043178558350e-01 7.779287695884704590e-01
1.535459458827972412e-01 -3.562499880790710449e-01 7.427857518196105957e-01
2.276990115642547607e-01 -1.764058768749237061e-01 -6.701666116714477539e-01
-2.359233200550079346e-01 5.728660523891448975e-02 -1.184592545032501221e-01
1.081460341811180115e-01 2.134948968887329102e-03 -5.722180008888244629e-01
-2.350652217864990234e-01 -4.220938682556152344e-01 -7.789941132068634033e-02
3.259182572364807129e-01 -3.651871085166931152e-01 -2.635849416255950928e-01
-2.224354445934295654e-01 -3.318077027797698975e-01 -5.456723570823669434e-01
1.572546362876892090e-01 -4.777286052703857422e-01 -3.566207587718963623e-01
2.633529603481292725e-01 -3.633020818233489990e-01 -4.987867772579193115e-01
-5.822911113500595093e-02 -5.078526735305786133e-01 2.174326330423355103e-01
8.867119252681732178e-02 -5.275602340698242188e-01 4.816269874572753906e-02
-2.407932430505752563e-01 -4.021275639533996582e-01 -2.274332791566848755e-01
1.881684735417366028e-02 -2.082731276750564575e-01 8.797838687896728516e-01
-5.900638177990913391e-02 5.236156284809112549e-02 -5.122726559638977051e-01
-7.488567382097244263e-02 1.048631817102432251e-01 -8.273477852344512939e-02
3.275232613086700439e-01 -1.797652095556259155e-01 3.803365826606750488e-01
-2.170564830303192139e-01 -3.958470821380615234e-01 -3.678607046604156494e-01
-3.046900629997253418e-01 -2.974419295787811279e-02 -3.118581473827362061e-01
3.016359508037567139e-01 -3.867894709110260010e-01 3.769722580909729004e-01
2.747534811496734619e-01 -4.464474320411682129e-01 2.346516251564025879e-01
-7.229732349514961243e-03 9.992165863513946533e-02 1.038537472486495972e-01
3.303129076957702637e-01 -3.820893168449401855e-01 -1.649571508169174194e-01
1.988494992256164551e-01 -8.006846904754638672e-02 -6.123183369636535645e-01
2.790378592908382416e-02 8.392758667469024658e-02 2.354011088609695435e-01
1.311392486095428467e-01 6.117682158946990967e-02 -1.960114091634750366e-01
-5.058528482913970947e-02 -1.825178861618041992e-01 -8.617790937423706055e-01
-1.803021132946014404e-01 7.611940801143646240e-02 1.598787456750869751e-01
-2.857879400253295898e-01 -3.665438294410705566e-01 -1.486572474241256714e-01
1.769754141569137573e-01 4.438550770282745361e-02 4.852863494306802750e-03
4.709184542298316956e-02 -5.876819789409637451e-02 7.359198927879333496e-01
3.169433772563934326e-01 -8.608396351337432861e-02 9.401227533817291260e-02
2.516820728778839111e-01 -1.274283230304718018e-02 1.030816286802291870e-01
-2.016961127519607544e-01 -3.951240777969360352e-01 4.753198027610778809e-01
2.434591650962829590e-01 -4.588469564914703369e-01 -2.348899990320205688e-01
2.052791714668273926e-01 2.670904994010925293e-02 -5.902291461825370789e-02
-1.136388182640075684e-01 -4.157594144344329834e-01 -5.370664000511169434e-01
5.951369181275367737e-02 -4.693294763565063477e-01 -4.703437685966491699e-01
-1.132402569055557251e-01 -1.038478836417198181e-01 7.822136282920837402e-01
-2.410365194082260132e-01 -3.299766480922698975e-01 -5.010055303573608398e-01
1.811419129371643066e-01 -5.078309178352355957e-01 -1.517324522137641907e-02
-1.347511541098356247e-02 -1.512775719165802002e-01 -8.604123592376708984e-01
-1.774821579456329346e-01 -4.337848424911499023e-01 -3.228163719177246094e-01
-8.369642496109008789e-02 -1.473105847835540771e-01 -8.407958149909973145e-01
-3.318102955818176270e-01 -3.086820244789123535e-01 8.534131944179534912e-02
-2.401021271944046021e-01 -3.579244017601013184e-01 -4.280878305435180664e-01
-3.292848765850067139e-01 -3.005214333534240723e-01 1.926272660493850708e-01
-2.463593780994415283e-01 -2.999541759490966797e-01 5.782613158226013184e-01
1.815194040536880493e-01 -2.016554027795791626e-01 -7.550292015075683594e-01
2.903294563293457031e-01 -4.390557110309600830e-01 1.746781170368194580e-01
9.655613452196121216e-02 -5.198982954025268555e-01 -1.345984637737274170e-01
-3.056249320507049561e-01 -1.515325456857681274e-01 -4.940937459468841553e-01
2.746005542576313019e-02 -5.267175436019897461e-01 -3.436778858304023743e-02
1.863399706780910492e-02 -5.273368954658508301e-01 6.186525151133537292e-02
-1.205269694328308105e-01 -4.717674255371093750e-01 3.473910689353942871e-01
-3.662251830101013184e-01 -1.214967146515846252e-01 4.728268086910247803e-02
7.563885301351547241e-02 -3.125420212745666504e-02 -6.924639940261840820e-01
3.605569899082183838e-01 -1.754688471555709839e-01 -7.780791819095611572e-02
1.636494398117065430e-01 4.152221977710723877e-02 -2.356285005807876587e-01
1.663157194852828979e-01 -4.183347821235656738e-01 6.209169626235961914e-01
6.532192975282669067e-02 -3.358157277107238770e-01 -7.764301896095275879e-01
-5.125476047396659851e-02 1.042674928903579712e-01 -1.252996474504470825e-01
3.345817327499389648e-01 -1.105494797229766846e-01 -3.421980887651443481e-03
-2.738806903362274170e-01 -3.400686383247375488e-02 -4.492068886756896973e-01
3.095990121364593506e-01 -2.662245631217956543e-01 5.059912204742431641e-01
-3.581595718860626221e-01 -1.529398411512374878e-01 -2.264577001333236694e-01
-1.301390975713729858e-01 8.061148226261138916e-02 -3.119838535785675049e-01
2.843648493289947510e-01 -3.084587752819061279e-01 5.633288025856018066e-01
6.271918118000030518e-02 -3.659117221832275391e-02 6.830157041549682617e-01
1.800202876329421997e-01 -4.139966964721679688e-01 -5.474615097045898438e-01
9.509692341089248657e-02 6.703738868236541748e-02 2.295110374689102173e-01
2.984178066253662109e-02 6.394495069980621338e-02 3.701653182506561279e-01
2.370306253433227539e-01 -1.095586642622947693e-01 5.682849287986755371e-01
-1.548500806093215942e-01 -5.276888608932495117e-03 5.782414674758911133e-01
-2.645160853862762451e-01 -3.210091590881347656e-01 -4.494825303554534912e-01
-4.223110154271125793e-02 -5.045257806777954102e-01 -2.112516611814498901e-01
-1.701721549034118652e-02 -4.987530708312988281e-01 -2.948209047317504883e-01
-2.792883813381195068e-01 -3.561556041240692139e-01 -2.641339302062988281e-01
-3.331904411315917969e-01 -2.776843309402465820e-01 2.532590925693511963e-01
-3.030654489994049072e-01 -3.487204015254974365e-01 1.535859405994415283e-01
9.888141602277755737e-02 -5.069372057914733887e-01 -2.554901242256164551e-01
-1.371491700410842896e-01 -3.734967112541198730e-01 -6.156448721885681152e-01
-2.399354428052902222e-01 -4.211536049842834473e-01 4.559002444148063660e-02
-2.935247719287872314e-01 -3.726357221603393555e-02 -3.871412873268127441e-01
-2.366092354059219360e-01 -4.232004582881927490e-01 -2.326350286602973938e-02
-3.402433097362518311e-01 -1.886326074600219727e-01 -3.425498306751251221e-01
-3.620508611202239990e-01 -9.964781254529953003e-02 -2.838796749711036682e-02
-1.598725765943527222e-01 8.651255071163177490e-02 1.123188138008117676e-01
1.891864240169525146e-01 -2.927480340003967285e-01 -7.207369208335876465e-01
-3.254586160182952881e-01 -5.338402092456817627e-02 2.421829700469970703e-01
-1.742393076419830322e-01 8.528150618076324463e-02 -1.152687370777130127e-01
2.430334985256195068e-01 -1.813984513282775879e-01 6.502068638801574707e-01
-3.037294745445251465e-01 -2.761543095111846924e-01 4.249133467674255371e-01
7.653120905160903931e-02 8.576248586177825928e-02 -1.158428788185119629e-01
3.446629643440246582e-01 -1.697368323802947998e-01 -2.483197599649429321e-01
3.602642416954040527e-01 -3.162850737571716309e-01 1.889508962631225586e-01
-2.866248488426208496e-01 -2.290861308574676514e-02 3.330556154251098633e-01
-2.257361821830272675e-02 5.310778319835662842e-02 4.543211758136749268e-01
3.255094289779663086e-01 -3.322085142135620117e-01 -3.455724418163299561e-01
-3.242009282112121582e-01 -2.508788406848907471e-01 3.709013760089874268e-01
1.042098850011825562e-01 -5.229490399360656738e-01 -7.362157106399536133e-02
1.085209846496582031e-01 -1.459207683801651001e-01 8.080583810806274414e-01
-2.607907056808471680e-01 -2.316405177116394043e-01 6.103498935699462891e-01
8.440702408552169800e-02 7.879124581813812256e-02 -1.989875733852386475e-01
-1.230814587324857712e-02 -1.165466308593750000e-01 8.291389942169189453e-01
3.472458422183990479e-01 -3.352235257625579834e-01 2.601055800914764404e-01
-1.115129441022872925e-01 -1.066543087363243103e-01 -8.017671108245849609e-01
1.518887430429458618e-01 -4.147857427597045898e-02 5.916036367416381836e-01
-2.265859842300415039e-01 -3.411590754985809326e-01 5.551834702491760254e-01
2.538638412952423096e-01 -2.351336181163787842e-02 1.962369978427886963e-01
-1.383469402790069580e-01 -4.850443601608276367e-01 8.805112540721893311e-02
4.025216028094291687e-02 -4.844174981117248535e-01 -4.058766067028045654e-01
-3.210993707180023193e-01 -1.421676874160766602e-01 4.238034188747406006e-01
3.258174657821655273e-01 -1.077895313501358032e-01 1.630083322525024414e-01
1.614896804094314575e-01 -2.122840732336044312e-01 7.962582111358642578e-01
-1.861757040023803711e-01 -4.462343454360961914e-01 -2.029119133949279785e-01
4.244048148393630981e-03 -1.225262880325317383e-02 -6.945736408233642578e-01
1.096408963203430176e-01 -2.930564582347869873e-01 -7.982999086380004883e-01
-2.834612429141998291e-01 -3.779145479202270508e-01 8.228422701358795166e-02
3.244382143020629883e-01 -3.659424185752868652e-01 3.253208398818969727e-01
-2.222649455070495605e-01 -2.482969164848327637e-01 -6.668761968612670898e-01
1.292754858732223511e-01 -4.978842735290527344e-01 3.694878518581390381e-01
2.696623560041189194e-04 -4.880132079124450684e-01 -3.736841976642608643e-01
-1.824351549148559570e-01 -4.403376579284667969e-01 3.314388692378997803e-01
-2.813439071178436279e-01 -1.802633106708526611e-01 5.689373612403869629e-01
1.245049238204956055e-01 -5.225566625595092773e-01 -1.606789417564868927e-03
2.213838845491409302e-01 -3.786253929138183594e-01 6.173641681671142578e-01
-3.156861960887908936e-01 -3.339374363422393799e-01 -7.438729703426361084e-02
2.277304083108901978e-01 -9.203272312879562378e-02 -5.698507428169250488e-01
6.584849208593368530e-02 -5.243306756019592285e-01 -9.980677068233489990e-02
-5.410865321755409241e-02 -1.770906150341033936e-02 -7.092620730400085449e-01
2.443486303091049194e-01 -3.570204377174377441e-01 -5.540432929992675781e-01
-6.671553105115890503e-02 6.461159884929656982e-02 4.000461101531982422e-01
2.273559421300888062e-01 -5.770233273506164551e-02 4.688192605972290039e-01
2.560650706291198730e-01 -4.094911813735961914e-01 -4.058897495269775391e-01
-2.543049305677413940e-02 -3.771774470806121826e-02 7.165867090225219727e-01
3.023432791233062744e-01 -3.590776324272155762e-01 -3.875977098941802979e-01
-2.209898531436920166e-01 6.595377624034881592e-02 4.776911810040473938e-02
-3.357647657394409180e-01 -3.893315792083740234e-02 3.972519561648368835e-02
3.090170025825500488e-01 -1.045949384570121765e-01 -2.945016026496887207e-01
-3.534559309482574463e-01 -7.731622457504272461e-02 -8.841705322265625000e-02
4.883448779582977295e-02 -7.127299904823303223e-02 -7.779223918914794922e-01
-2.312951348721981049e-02 7.334478199481964111e-02 3.532893359661102295e-01
1.305027306079864502e-01 -3.240810334682464600e-01 7.965412735939025879e-01
-1.496633440256118774e-01 -4.746121764183044434e-01 -1.182831376791000366e-01
-1.885936260223388672e-01 -5.658994615077972412e-02 -6.711844205856323242e-01
-1.322500109672546387e-01 -3.304514288902282715e-01 -7.042486071586608887e-01
4.586158692836761475e-02 2.375781536102294922e-03 -6.384611129760742188e-01
-2.587845027446746826e-01 4.479558765888214111e-02 -1.472302153706550598e-02
-2.597465412691235542e-03 5.291046202182769775e-02 -5.019207000732421875e-01
3.042999207973480225e-01 -1.275683939456939697e-01 -3.868609964847564697e-01
2.125392258167266846e-01 -7.072301208972930908e-02 5.434623360633850098e-01
2.883802950382232666e-01 -1.158192008733749390e-01 -4.286902844905853271e-01
2.247953787446022034e-02 -5.114067196846008301e-01 3.215238451957702637e-01
-1.993195414543151855e-01 -4.474161267280578613e-01 1.636461019515991211e-01
-3.067884147167205811e-01 -2.414700239896774292e-01 4.606345295906066895e-01
-3.017460703849792480e-01 -3.209633231163024902e-01 -2.848113179206848145e-01
-7.967741042375564575e-02 -1.743919700384140015e-01 8.513469696044921875e-01
-8.178739994764328003e-02 9.799613058567047119e-02 -2.133451551198959351e-01
-2.985813282430171967e-02 -5.182242989540100098e-01 -6.491491198539733887e-02
-2.236068993806838989e-01 -4.060109257698059082e-01 3.504387736320495605e-01
-3.443158864974975586e-01 -7.183855772018432617e-02 1.632882356643676758e-01
-2.733828313648700714e-02 -4.774135947227478027e-01 4.837121367454528809e-01
-3.700357079505920410e-01 -1.455554664134979248e-01 -1.009329408407211304e-02
1.221490427851676941e-01 -5.117949247360229492e-01 2.740105688571929932e-01
9.532105177640914917e-02 -1.388053297996520996e-01 -8.161368370056152344e-01
3.637456297874450684e-01 -2.648955285549163818e-01 2.216652929782867432e-01
3.221302628517150879e-01 -1.841471195220947266e-01 -4.019091725349426270e-01
-3.487224578857421875e-01 -1.805689185857772827e-01 -2.955238521099090576e-01
-1.384834945201873779e-01 7.315333187580108643e-02 2.890510261058807373e-01
2.125474810600280762e-01 -1.337334960699081421e-01 6.597303748130798340e-01
1.632373332977294922e-01 3.239852190017700195e-02 2.661086618900299072e-01
-2.676658928394317627e-01 -3.387210965156555176e-01 4.283361732959747314e-01
-3.124385476112365723e-01 -2.445107847452163696e-01 -4.184695780277252197e-01
-8.433095365762710571e-02 1.040204614400863647e-01 2.418752387166023254e-02
2.849226891994476318e-01 -4.485532641410827637e-01 -3.259566798806190491e-02
3.034664392471313477e-01 -7.122531533241271973e-02 1.363689750432968140e-01
-2.779155671596527100e-01 2.910321950912475586e-02 3.253645077347755432e-02
-1.491781771183013916e-01 -4.803308248519897461e-01 2.359570190310478210e-02
-1.546955853700637817e-01 -1.112161353230476379e-01 -7.686508297920227051e-01
1.078562252223491669e-02 -3.983399271965026855e-01 -6.757248044013977051e-01
1.875192373991012573e-01 -1.586739122867584229e-01 -7.279009819030761719e-01
8.398142457008361816e-02 7.174824178218841553e-02 -2.770971059799194336e-01
-3.493151962757110596e-01 -2.338575124740600586e-01 -2.240867167711257935e-01
2.923475205898284912e-01 -6.546726822853088379e-02 2.027834802865982056e-01
3.147049248218536377e-02 9.738339483737945557e-02 2.941402047872543335e-02
3.381321132183074951e-01 -3.683835268020629883e-01 2.215081155300140381e-01
-2.012290209531784058e-01 -3.145578205585479736e-01 -6.241287589073181152e-01
3.453221619129180908e-01 -2.596627771854400635e-01 -3.236447870731353760e-01
-7.366210222244262695e-02 -4.439054727554321289e-01 5.651032328605651855e-01
-1.668097823858261108e-02 -5.199163556098937988e-01 1.673669815063476562e-01
2.498984895646572113e-02 -4.623498916625976562e-01 5.717962980270385742e-01
-1.861876845359802246e-01 4.368869960308074951e-02 3.632855415344238281e-01
3.052171878516674042e-02 8.751578629016876221e-02 -2.582075297832489014e-01
-1.952461302280426025e-01 -2.718501687049865723e-01 7.167267799377441406e-01
-5.822777748107910156e-02 8.198343217372894287e-02 3.020909130573272705e-01
2.471174895763397217e-01 -4.772558808326721191e-01 8.421811461448669434e-02
-3.414722084999084473e-01 -7.086403667926788330e-02 -2.143244594335556030e-01
-3.659587502479553223e-01 -1.384833753108978271e-01 -1.230439245700836182e-01
2.615195810794830322e-01 -3.435867428779602051e-01 5.859442353248596191e-01
-4.583073779940605164e-02 9.869427978992462158e-02 1.537138670682907104e-01
3.218180835247039795e-01 -2.431832253932952881e-01 -4.351647496223449707e-01
1.278019603341817856e-02 -4.657995700836181641e-01 -4.801995158195495605e-01
2.997376210987567902e-02 -5.266934633255004883e-01 1.308300048112869263e-01
3.463066816329956055e-01 -1.398346722126007080e-01 1.059421747922897339e-01
-2.484433650970458984e-01 2.854856848716735840e-02 -3.080073893070220947e-01
-2.174735069274902344e-02 -4.601224064826965332e-01 5.584250688552856445e-01
2.683568596839904785e-01 -2.857071757316589355e-01 6.175246834754943848e-01
-4.066401347517967224e-02 4.316727817058563232e-02 4.967001974582672119e-01
3.247109651565551758e-01 -2.125096023082733154e-01 4.321172535419464111e-01
-2.861979901790618896e-01 -3.637056946754455566e-01 2.138915061950683594e-01
-1.108003556728363037e-01 8.909927308559417725e-02 2.078696936368942261e-01
2.129510641098022461e-01 -4.328886866569519043e-01 5.070141553878784180e-01
-2.664042115211486816e-01 -1.894073188304901123e-02 3.933512568473815918e-01
-1.697670817375183105e-01 -3.053659200668334961e-01 -6.913128495216369629e-01
-2.082871645689010620e-01 -3.756476342678070068e-01 5.181425213813781738e-01
3.181027472019195557e-01 -4.153886735439300537e-01 7.259505987167358398e-02
1.561669409275054932e-01 -5.072987079620361328e-01 2.411839812994003296e-01
4.013026133179664612e-02 9.158219397068023682e-02 1.215540319681167603e-01
-3.591262698173522949e-01 -2.028779536485671997e-01 1.967342793941497803e-01
-1.263111680746078491e-01 -3.715817630290985107e-02 6.761019229888916016e-01
-1.365682035684585571e-01 -2.092657238245010376e-01 -8.064955472946166992e-01
-2.534807026386260986e-01 -3.818678855895996094e-02 -5.167483091354370117e-01
-2.782841026782989502e-01 -1.032287850975990295e-01 -5.483109354972839355e-01
-2.538202106952667236e-01 4.526734352111816406e-03 3.518086373805999756e-01
-1.501064300537109375e-01 -3.161447942256927490e-01 7.396879792213439941e-01
-1.346069481223821640e-02 7.750163972377777100e-02 -3.837322890758514404e-01
3.703975081443786621e-01 -2.862219512462615967e-01 -7.881274819374084473e-02
3.136429190635681152e-01 -8.484822511672973633e-02 -1.469430178403854370e-01
-2.147957086563110352e-01 6.550769507884979248e-02 1.109956651926040649e-01
1.210428103804588318e-01 -2.106408327817916870e-01 8.347619771957397461e-01
2.468049973249435425e-01 -2.366626411676406860e-01 -6.478931903839111328e-01
2.200421988964080811e-01 4.804849624633789062e-03 -2.333565503358840942e-01
-6.225724890828132629e-02 3.730528056621551514e-02 -5.663092136383056641e-01
-3.621015846729278564e-01 -1.976496726274490356e-01 -1.666612625122070312e-01
-3.258668780326843262e-01 -3.211647272109985352e-01 -8.773244917392730713e-05
-3.148702681064605713e-01 -1.560440659523010254e-02 -1.646154671907424927e-01
1.888041794300079346e-01 -4.897554516792297363e-01 -2.150428593158721924e-01
8.332082629203796387e-02 -5.266165733337402344e-01 1.258238106966018677e-01
1.599514037370681763e-01 -4.945078492164611816e-01 -2.537662386894226074e-01
1.607321053743362427e-01 -4.952576756477355957e-01 3.322258293628692627e-01
-5.083267390727996826e-02 -5.146206021308898926e-01 1.285934001207351685e-01
2.070003002882003784e-01 -3.292717039585113525e-01 -6.605471968650817871e-01
1.897794753313064575e-01 -8.781757205724716187e-02 6.280065178871154785e-01
-3.355932831764221191e-01 -1.447764933109283447e-01 -3.692163825035095215e-01
-2.967455089092254639e-01 -3.104407191276550293e-01 3.800428211688995361e-01
-1.778198927640914917e-01 -2.497986555099487305e-01 -7.384455204010009766e-01
-3.418232202529907227e-01 -1.121985912322998047e-01 -3.070886433124542236e-01
2.222422808408737183e-01 -2.418275475502014160e-01 -6.936786174774169922e-01
8.622482419013977051e-03 -1.723957061767578125e-02 6.677985191345214844e-01
-5.600285157561302185e-02 -4.794278144836425781e-01 4.400593638420104980e-01
6.520039588212966919e-02 -2.698489725589752197e-01 8.644425868988037109e-01
-2.466349601745605469e-01 -1.545755863189697266e-01 -6.506689190864562988e-01
9.825081378221511841e-02 1.185923814773559570e-03 5.495288968086242676e-01
-2.221818827092647552e-02 1.040625721216201782e-01 3.536807000637054443e-02
3.703055083751678467e-01 -2.295249998569488525e-01 -9.480640292167663574e-02
-1.377272754907608032e-01 -4.697248339653015137e-01 3.035485148429870605e-01
1.447472870349884033e-01 -4.978847503662109375e-02 -6.487445235252380371e-01
-6.210842356085777283e-02 2.135935425758361816e-02 5.685679316520690918e-01
2.158349901437759399e-01 -4.651396870613098145e-01 -2.937326133251190186e-01
2.282301187515258789e-01 -2.924613654613494873e-02 3.616946041584014893e-01
1.608633697032928467e-01 -8.668687939643859863e-02 -6.900854706764221191e-01
8.730432391166687012e-02 7.806350290775299072e-02 1.375464200973510742e-01
3.411662578582763672e-02 2.647180855274200439e-02 -5.766221284866333008e-01
2.078714668750762939e-01 -4.202897250652313232e-01 -4.853055179119110107e-01
1.281842738389968872e-01 2.912826836109161377e-02 3.888881206512451172e-01
5.369979888200759888e-02 9.337939321994781494e-02 -4.035128653049468994e-02
-3.277139663696289062e-01 -3.049251735210418701e-01 -1.542298346757888794e-01
1.341874748468399048e-01 -4.787481427192687988e-01 4.642172455787658691e-01
-2.166476696729660034e-01 -2.109506726264953613e-02 5.234225392341613770e-01
-1.651065498590469360e-01 6.633101403713226318e-02 -3.425524830818176270e-01
-3.364913165569305420e-01 -2.588936984539031982e-01 -2.622287571430206299e-01
2.751167304813861847e-02 9.356276690959930420e-02 -1.919311881065368652e-01
2.064672857522964478e-01 -2.249205559492111206e-01 7.397908568382263184e-01
-1.082255095243453979e-01 -2.826645374298095703e-01 8.162841200828552246e-01
3.549351096153259277e-01 -2.157417535781860352e-01 2.669362723827362061e-01
-2.945603244006633759e-02 1.107907295227050781e-02 -6.456333398818969727e-01
7.975381612777709961e-02 8.574484288692474365e-02 2.286717481911182404e-02
-1.125308200716972351e-01 3.124850988388061523e-02 5.113182067871093750e-01
-2.048679143190383911e-01 -2.198527008295059204e-01 7.277235984802246094e-01
1.016439869999885559e-01 -4.478750824928283691e-01 6.024820804595947266e-01
-1.039967462420463562e-01 -4.945658445358276367e-01 1.976099163293838501e-01
3.657197952270507812e-01 -3.202014565467834473e-01 7.720687985420227051e-02
-2.276845509186387062e-03 9.330756962299346924e-02 1.864469796419143677e-01
4.502931237220764160e-02 7.072900235652923584e-02 -3.672474622726440430e-01
4.024805501103401184e-02 -5.061925649642944336e-01 -2.807948887348175049e-01
2.526940107345581055e-01 -4.386109709739685059e-01 -3.078871369361877441e-01
1.400476843118667603e-01 -5.093182921409606934e-01 -1.738263070583343506e-01
-2.710844874382019043e-01 -2.422693818807601929e-01 -5.606119632720947266e-01
-3.968369215726852417e-02 -4.346744418144226074e-01 6.270008683204650879e-01
-1.532622277736663818e-01 -4.756697416305541992e-01 1.463353782892227173e-01
3.013299405574798584e-01 -6.113247573375701904e-02 -3.284513950347900391e-02
1.660121977329254150e-01 -3.100267052650451660e-02 5.375518202781677246e-01
3.679690659046173096e-01 -1.986501365900039673e-01 -2.050623483955860138e-02
-1.962281167507171631e-01 -3.842109441757202148e-01 -4.727579057216644287e-01
-3.586290180683135986e-01 -1.314301639795303345e-01 1.915587484836578369e-01
1.140059232711791992e-01 -3.929970860481262207e-01 7.206171154975891113e-01
2.958400249481201172e-01 -4.145936965942382812e-01 -2.336574047803878784e-01
-2.402729541063308716e-01 4.642547667026519775e-02 1.667338311672210693e-01
1.041685342788696289e-01 -2.104015499353408813e-01 -8.335926532745361328e-01
3.261963129043579102e-01 -9.866505861282348633e-02 -8.064821362495422363e-02
1.896323114633560181e-01 -2.664646506309509277e-02 4.710667133331298828e-01
-3.590542674064636230e-01 -1.233709678053855896e-01 -1.878968328237533569e-01
2.818278074264526367e-01 -3.915894031524658203e-02 4.233833029866218567e-02
5.959363654255867004e-02 8.211417496204376221e-02 1.857599765062332153e-01
2.277200371026992798e-01 -4.774066805839538574e-01 2.484378069639205933e-01
-7.247144356369972229e-03 8.705078065395355225e-02 -3.126915097236633301e-01
-2.581282258033752441e-01 -5.533342063426971436e-02 5.071203112602233887e-01
-2.968675494194030762e-01 -1.851707696914672852e-03 -2.245181053876876831e-01
8.216013014316558838e-02 -3.199452757835388184e-01 8.291750550270080566e-01
7.473068684339523315e-02 -4.967528581619262695e-01 4.212943017482757568e-01
-1.942773461341857910e-01 -4.535390734672546387e-01 -3.821513056755065918e-02
-1.501214876770973206e-02 -3.836628794670104980e-02 -7.484047412872314453e-01
9.298305027186870575e-03 -5.113310813903808594e-01 -2.250464409589767456e-01
-1.562414318323135376e-01 -4.479869604110717773e-01 3.819430470466613770e-01
7.065449655055999756e-02 -4.660165309906005859e-01 5.574337840080261230e-01
-6.375555694103240967e-02 -5.418851971626281738e-02 -7.682374119758605957e-01
2.229283899068832397e-01 -4.507912397384643555e-01 -3.442581295967102051e-01
1.933880746364593506e-01 -4.568319022655487061e-01 4.631957709789276123e-01
2.684119343757629395e-01 -6.407830119132995605e-02 -3.609007894992828369e-01
-3.691375851631164551e-01 -1.879430115222930908e-01 5.896555632352828979e-02
1.646968573331832886e-01 -3.591366410255432129e-01 -6.758731603622436523e-01
-2.798427343368530273e-01 -4.833360016345977783e-02 4.303399622440338135e-01
2.070126831531524658e-01 -3.405031263828277588e-01 6.940362453460693359e-01
-1.456936150789260864e-01 -1.591607332229614258e-01 -7.992143034934997559e-01
-2.395775616168975830e-01 -4.154905378818511963e-01 1.784022152423858643e-01
-1.096483319997787476e-01 9.017322957515716553e-02 -2.637929320335388184e-01
2.600517868995666504e-02 -4.242835044860839844e-01 6.814810037612915039e-01
2.583803534507751465e-01 -3.050965666770935059e-01 -5.903447866439819336e-01
-2.801842987537384033e-01 -1.547766923904418945e-01 -5.715959668159484863e-01
1.722670942544937134e-01 -4.625897407531738281e-01 -4.012359082698822021e-01
-3.770277649164199829e-02 -8.155845105648040771e-02 -8.075382709503173828e-01
-1.320947408676147461e-01 -3.758705258369445801e-01 6.687363386154174805e-01
1.915611177682876587e-01 3.035305440425872803e-02 -1.742840409278869629e-01
3.074006140232086182e-01 -9.528567641973495483e-02 2.554067373275756836e-01
-2.310983687639236450e-01 -5.930086970329284668e-02 -6.041046977043151855e-01
1.787426471710205078e-01 2.268949151039123535e-02 -3.152054250240325928e-01
-2.864817380905151367e-01 -8.002814650535583496e-02 -4.975078999996185303e-01
-2.916176617145538330e-01 -2.756537795066833496e-01 -4.502024352550506592e-01
-4.372614994645118713e-02 -2.316205054521560669e-01 8.737605810165405273e-01
-3.556409776210784912e-01 -2.561045587062835693e-01 4.155341908335685730e-02
-1.173516064882278442e-01 -4.830755591392517090e-01 -1.902193576097488403e-01
-8.000265061855316162e-02 -2.614733874797821045e-01 8.488919138908386230e-01
-7.617284357547760010e-02 -5.054460167884826660e-01 -9.178781509399414062e-02
5.649153143167495728e-02 -3.965905904769897461e-01 7.381482124328613281e-01
-8.609321713447570801e-02 -5.061197280883789062e-01 4.689279571175575256e-02
2.601084113121032715e-01 -4.668963551521301270e-01 1.314083933830261230e-01
-2.578311040997505188e-02 -3.072689175605773926e-01 -8.097634911537170410e-01
3.468724191188812256e-01 -3.639403283596038818e-01 -9.134997427463531494e-02
4.153068363666534424e-02 6.386850774288177490e-02 -4.129336178302764893e-01
-3.317063450813293457e-01 -1.237252876162528992e-01 3.603246212005615234e-01
3.012031614780426025e-01 -4.320534765720367432e-01 1.259394735097885132e-01
-9.245790541172027588e-02 -4.433022439479827881e-02 7.117255926132202148e-01
-1.463597267866134644e-01 -4.291795492172241211e-01 -4.300292134284973145e-01
1.343709509819746017e-02 2.887471020221710205e-02 5.345743894577026367e-01
-7.626394182443618774e-02 -4.589447975158691406e-01 5.053625106811523438e-01
-3.143302202224731445e-01 -3.390025794506072998e-01 5.201605334877967834e-02
-3.287040591239929199e-01 -2.592842876911163330e-01 -3.117986917495727539e-01
8.955712616443634033e-02 -4.097381830215454102e-01 -6.393311619758605957e-01
-2.426712214946746826e-01 -2.607400715351104736e-01 -6.121453046798706055e-01
2.246191054582595825e-01 -4.705416560173034668e-01 3.128342032432556152e-01
-1.894026249647140503e-01 -4.045994877815246582e-01 -4.194767475128173828e-01
1.772435307502746582e-01 -4.510778188705444336e-02 -5.813214778900146484e-01
-8.457510918378829956e-02 -4.405917227268218994e-01 -4.942496716976165771e-01
1.958215385675430298e-01 -3.775835335254669189e-01 -6.043974757194519043e-01
-2.548630535602569580e-01 -1.163407862186431885e-01 -6.164548397064208984e-01
3.737766444683074951e-01 -2.507142424583435059e-01 -3.430953994393348694e-02
1.161120161414146423e-01 -3.348051905632019043e-01 -7.525256872177124023e-01
3.411187827587127686e-01 -3.152631819248199463e-01 3.383509814739227295e-01
-1.446888968348503113e-02 -5.232424139976501465e-01 1.802920922636985779e-02
3.042981922626495361e-01 -2.991887331008911133e-01 -4.713438451290130615e-01
-6.220142915844917297e-02 -4.991961717605590820e-01 2.980760931968688965e-01
-8.758188784122467041e-02 -3.287673592567443848e-01 -7.506371736526489258e-01
8.543840795755386353e-02 6.391082704067230225e-02 -3.354726433753967285e-01
-7.091137021780014038e-02 -4.853368401527404785e-01 -3.017454743385314941e-01
3.052563965320587158e-01 -1.234080195426940918e-01 3.672900497913360596e-01
-1.510058939456939697e-01 -4.061386883258819580e-01 5.623885989189147949e-01
-2.068313062191009521e-01 -4.449400305747985840e-01 1.119104027748107910e-01
-1.285665184259414673e-01 -3.979877233505249023e-01 6.236501336097717285e-01
2.955274283885955811e-01 -2.648603320121765137e-01 5.510756373405456543e-01
-2.848594784736633301e-01 -1.335600018501281738e-01 5.403661727905273438e-01
-2.868848741054534912e-01 -3.527835309505462646e-01 2.762224674224853516e-01
-6.296484917402267456e-02 -3.891638815402984619e-01 -6.616139411926269531e-01
-1.532336920499801636e-01 -4.773595333099365234e-01 -2.798222750425338745e-02
-1.783410310745239258e-01 8.530153334140777588e-02 -2.154353074729442596e-03
-5.026822909712791443e-02 -4.970948100090026855e-01 -2.579689025878906250e-01
8.271291106939315796e-02 -8.898213505744934082e-03 5.976920723915100098e-01
-3.522083461284637451e-01 -2.488077580928802490e-01 -1.486439108848571777e-01
-3.532309830188751221e-01 -2.541874945163726807e-01 1.250394731760025024e-01
-4.529539868235588074e-02 -4.403895139694213867e-01 -5.368965268135070801e-01
-3.506114007905125618e-03 -4.161181449890136719e-01 -6.305561065673828125e-01
1.499840468168258667e-01 5.679400265216827393e-02 -1.215786039829254150e-01
-2.067510038614273071e-01 4.789315164089202881e-02 2.904634773731231689e-01
-2.932688593864440918e-01 1.520681381225585938e-02 -8.197239041328430176e-02
2.733069956302642822e-01 -3.803327679634094238e-02 -1.828391551971435547e-01
-1.817793846130371094e-01 6.591589748859405518e-02 2.447636872529983521e-01
2.926125824451446533e-01 -4.105929136276245117e-01 3.350771069526672363e-01
-3.765026107430458069e-02 1.018749922513961792e-01 -1.706107854843139648e-01
-2.274083942174911499e-01 -1.683492809534072876e-01 6.876401901245117188e-01
-8.279097080230712891e-02 -2.506887614727020264e-01 -8.304270505905151367e-01
2.964525520801544189e-01 -1.765587329864501953e-01 -4.939967691898345947e-01
1.206445619463920593e-01 3.812785446643829346e-02 -4.076452851295471191e-01
3.302899422124028206e-04 -2.804336547851562500e-01 -8.386932015419006348e-01
-1.877558082342147827e-01 7.327385246753692627e-02 -2.218015193939208984e-01
3.669763803482055664e-01 -2.123799771070480347e-01 1.339004635810852051e-01
-2.982093095779418945e-01 -2.014297842979431152e-01 5.164349079132080078e-01
3.370223343372344971e-01 -3.877560198307037354e-01 -2.766241133213043213e-02
-3.137303888797760010e-01 -3.112187385559082031e-01 2.785573899745941162e-01
1.887179166078567505e-01 -1.695441901683807373e-01 7.375010848045349121e-01
-1.979762911796569824e-01 -4.109840095043182373e-02 5.999494791030883789e-01
3.169068396091461182e-01 -1.236263662576675415e-01 3.053258657455444336e-01
3.284950554370880127e-01 -3.964649438858032227e-01 1.469904631376266479e-01
-3.191661238670349121e-01 -7.136593759059906006e-02 -3.578027486801147461e-01
-2.884717583656311035e-01 -3.532395660877227783e-01 -2.191095650196075439e-01
-2.321973256766796112e-02 1.049886792898178101e-01 -5.679736658930778503e-02
-1.811886727809906006e-01 -1.481715589761734009e-01 -7.566537261009216309e-01
3.567086160182952881e-01 -3.105979859828948975e-01 -1.948281526565551758e-01
2.155796587467193604e-01 -4.181781411170959473e-02 -4.790100455284118652e-01
1.434015780687332153e-01 -4.024704396724700928e-01 6.796370148658752441e-01
-2.378418296575546265e-01 5.797542631626129150e-02 -6.442163884639739990e-02
-2.269471250474452972e-02 -4.144355058670043945e-01 6.895341873168945312e-01
-2.819890677928924561e-01 -3.806129097938537598e-01 2.094406448304653168e-02
1.187539920210838318e-01 -4.252946376800537109e-02 6.417590975761413574e-01
-1.058982014656066895e-01 9.697362780570983887e-03 -6.271292567253112793e-01
-1.531401276588439941e-01 -3.907144665718078613e-01 -5.461720824241638184e-01
1.795497089624404907e-01 -3.137596249580383301e-01 7.556135654449462891e-01
-2.911556065082550049e-01 -3.742456436157226562e-03 2.286354154348373413e-01
-2.418882250785827637e-01 -2.091172635555267334e-01 6.616246104240417480e-01
2.547712922096252441e-01 -4.139076173305511475e-01 4.622671008110046387e-01
2.318940870463848114e-02 -3.164804875850677490e-01 8.450167179107666016e-01
-4.516766592860221863e-02 -3.764078021049499512e-01 7.526774406433105469e-01
3.154645562171936035e-01 -2.972655892372131348e-01 4.724017083644866943e-01
1.947675347328186035e-01 3.159548342227935791e-02 -1.203240603208541870e-01
-1.076586544513702393e-01 -3.522522151470184326e-01 7.407701611518859863e-01
3.480757772922515869e-01 -1.385953426361083984e-01 -4.444985091686248779e-02
-7.510676234960556030e-02 -4.166177511215209961e-01 -5.821215510368347168e-01
-2.392085194587707520e-01 -4.084402918815612793e-01 2.488067597150802612e-01
2.806031107902526855e-01 -1.360012739896774292e-01 4.930413365364074707e-01
-4.415223747491836548e-02 8.993618190288543701e-02 2.429838180541992188e-01
1.708325892686843872e-01 4.199890792369842529e-02 1.367869675159454346e-01
