-4.796503484249114990e-02 5.066823959350585938e-01 -3.511228561401367188e-01
-3.957155346870422363e-01 5.206327438354492188e-01 7.416796684265136719e-02
-3.679175674915313721e-02 4.118696451187133789e-01 -1.261854767799377441e-01
-1.627033650875091553e-01 8.117835521697998047e-01 1.638164520263671875e-01
-7.120297849178314209e-02 8.035000562667846680e-01 2.676104754209518433e-02
-3.164814114570617676e-01 1.904212236404418945e-01 1.003329157829284668e-01
-6.678156554698944092e-02 8.966591358184814453e-01 -5.384609848260879517e-02
-3.926602303981781006e-01 5.943731069564819336e-01 1.111790537834167480e-03
-3.808944821357727051e-01 3.291662931442260742e-01 4.225898534059524536e-02
-1.819960176944732666e-01 2.435973286628723145e-01 -3.142410814762115479e-01
-2.397757768630981445e-02 5.362126827239990234e-01 -2.893326580524444580e-01
-3.481549322605133057e-01 6.839317083358764648e-01 1.920456737279891968e-01
-1.790674626827239990e-01 3.071193695068359375e-01 1.632585078477859497e-01
-1.966506391763687134e-01 6.963968873023986816e-01 -3.999409675598144531e-01
-2.327814251184463501e-01 1.562313139438629150e-01 -2.109971493482589722e-01
-3.315152227878570557e-01 8.644227981567382812e-01 6.831198930740356445e-02
-2.627453207969665527e-02 6.491127014160156250e-01 -7.059284299612045288e-02
-1.928938478231430054e-01 4.117846488952636719e-01 2.144732922315597534e-01
-2.417617291212081909e-01 2.148126959800720215e-01 -2.632673382759094238e-01
-3.876979351043701172e-01 5.219172239303588867e-01 1.323209702968597412e-01
-2.358252108097076416e-01 5.657652616500854492e-01 -3.812048435211181641e-01
-3.139251470565795898e-01 9.039374589920043945e-01 -9.164542704820632935e-02
-1.826243251562118530e-01 2.459344863891601562e-01 1.306631714105606079e-01
-3.671142160892486572e-01 6.427966356277465820e-01 -1.304078251123428345e-01
-3.857464194297790527e-01 4.570824503898620605e-01 -6.838144361972808838e-02
-1.140982210636138916e-01 3.176237642765045166e-01 -3.436563014984130859e-01
-3.918794691562652588e-01 4.058347642421722412e-01 4.637064039707183838e-02
-1.235013604164123535e-01 9.110642671585083008e-01 -3.340423107147216797e-01
-3.851107060909271240e-01 6.701030731201171875e-01 6.234809756278991699e-03
-9.109330177307128906e-02 4.495514631271362305e-01 8.548791706562042236e-02
-1.430963724851608276e-01 1.024623513221740723e+00 -6.098861247301101685e-02
-3.727791011333465576e-01 2.950718998908996582e-01 5.472536385059356689e-02
-3.405478000640869141e-01 8.526385426521301270e-01 -3.705862537026405334e-02
-1.991811096668243408e-01 1.712363958358764648e-01 -2.444200366735458374e-01
-1.238462775945663452e-01 7.453255653381347656e-01 1.416413486003875732e-01
-3.586565852165222168e-01 6.281885504722595215e-01 -1.644178628921508789e-01
-9.424813091754913330e-02 2.250655889511108398e-01 -1.423532664775848389e-01
-1.598171293735504150e-01 8.589219450950622559e-01 1.391669660806655884e-01
-2.394673824310302734e-01 1.003787517547607422e+00 1.728323847055435181e-02
-1.059657260775566101e-01 7.993296384811401367e-01 9.730422496795654297e-02
-2.543056011199951172e-02 4.691327512264251709e-01 -1.467849016189575195e-01
-3.528411388397216797e-01 7.539904713630676270e-01 -1.202900335192680359e-01
-3.275980949401855469e-01 8.896528482437133789e-01 -1.942886412143707275e-02
-2.751544713973999023e-01 5.361962914466857910e-01 2.634025216102600098e-01
-3.185497522354125977e-01 6.272065639495849609e-01 -2.631254792213439941e-01
-8.587904274463653564e-02 2.632939219474792480e-01 -2.380102276802062988e-01
-2.184055745601654053e-01 9.562312364578247070e-01 -2.536940574645996094e-01
-2.541700899600982666e-01 4.392619431018829346e-01 -3.511778712272644043e-01
-2.223475277423858643e-02 4.777027070522308350e-01 -1.871124207973480225e-01
-1.744352877140045166e-01 6.518614888191223145e-01 2.143605798482894897e-01
-3.529619574546813965e-01 4.586493968963623047e-01 2.130136638879776001e-01
-2.993442416191101074e-01 5.431404113769531250e-01 -3.033221960067749023e-01
-3.473101854324340820e-01 4.307008385658264160e-01 -1.972744464874267578e-01
-4.763129353523254395e-02 8.870446681976318359e-01 -1.372917294502258301e-01
-2.710549235343933105e-01 6.842503547668457031e-01 -3.299152255058288574e-01
-1.961664110422134399e-01 1.252169907093048096e-01 -1.675204932689666748e-01
-3.212050795555114746e-01 6.079599857330322266e-01 2.429165393114089966e-01
-2.645246386528015137e-01 7.316856980323791504e-01 2.352414280176162720e-01
-3.709304332733154297e-01 4.233286380767822266e-01 1.723926812410354614e-01
-3.057951927185058594e-01 8.662221431732177734e-01 -1.759840846061706543e-01
-3.765766024589538574e-01 5.976974964141845703e-01 1.590559333562850952e-01
-2.954311966896057129e-01 6.605805158615112305e-01 -2.984571456909179688e-01
-3.354920446872711182e-01 5.193042755126953125e-01 -2.357984334230422974e-01
-2.025573402643203735e-01 1.070106625556945801e-01 -9.342088550329208374e-02
-2.542617022991180420e-01 6.606512069702148438e-01 2.523007988929748535e-01
-1.066015437245368958e-01 8.462096452713012695e-01 7.673630118370056152e-02
-6.560805439949035645e-02 8.938806056976318359e-01 -2.893731594085693359e-01
-2.960925996303558350e-01 8.447836637496948242e-01 -2.186328917741775513e-01
-3.679527044296264648e-01 6.767850518226623535e-01 -1.109010279178619385e-01
-9.030952304601669312e-02 9.577307701110839844e-01 -2.555261254310607910e-01
-2.850582599639892578e-01 4.747399687767028809e-01 -3.198100924491882324e-01
-3.536361455917358398e-02 8.259772062301635742e-01 -2.637970745563507080e-01
-3.609684705734252930e-01 5.959316492080688477e-01 1.969941407442092896e-01
-5.371661484241485596e-02 7.024844288825988770e-01 1.641608774662017822e-02
-3.634585440158843994e-01 7.421916723251342773e-01 1.137323975563049316e-01
-3.139835298061370850e-01 5.120515227317810059e-01 2.527177333831787109e-01
-1.127172932028770447e-01 4.638570249080657959e-01 1.296078264713287354e-01
-7.702888548374176025e-02 4.235075712203979492e-01 -3.648532032966613770e-01
-3.048092126846313477e-02 4.308836460113525391e-01 -1.606160998344421387e-01
-2.237294316291809082e-01 7.292858958244323730e-01 2.298596352338790894e-01
-2.123489975929260254e-02 7.492073774337768555e-01 -2.600841522216796875e-01
-2.798302471637725830e-02 7.888733148574829102e-01 -2.656168937683105469e-01
-3.927712142467498779e-02 8.648252487182617188e-01 -1.639323532581329346e-01
-3.959085345268249512e-01 5.330569148063659668e-01 9.606614708900451660e-03
-2.861806750297546387e-02 6.381165385246276855e-01 -3.265048861503601074e-01
-3.713611662387847900e-01 7.497476935386657715e-01 1.993376016616821289e-02
-1.474911570549011230e-01 2.363357245922088623e-01 -3.020774126052856445e-01
-7.269652187824249268e-02 9.328081607818603516e-01 -2.536932826042175293e-01
-3.918801546096801758e-01 5.172780752182006836e-01 -3.712812438607215881e-02
-2.146341055631637573e-01 6.458838582038879395e-01 2.423033267259597778e-01
-3.958326578140258789e-01 4.602621495723724365e-01 3.627599775791168213e-02
-3.719469904899597168e-01 7.123494744300842285e-01 -6.224719434976577759e-02
-2.773660719394683838e-01 2.395518422126770020e-01 -2.419252246618270874e-01
-1.174038276076316833e-01 9.022792577743530273e-01 5.927550792694091797e-02
-2.655348181724548340e-02 8.018879890441894531e-01 -1.558358073234558105e-01
-3.902071118354797363e-01 5.787177085876464844e-01 -3.604808449745178223e-02
-2.192803025245666504e-01 6.180046796798706055e-01 -3.935606479644775391e-01
-2.836894989013671875e-01 1.498741507530212402e-01 7.742457091808319092e-02
-2.849867045879364014e-01 3.340150713920593262e-01 2.250759750604629517e-01
-1.852942854166030884e-01 6.855485439300537109e-01 2.181818634271621704e-01
-1.363779008388519287e-01 6.144818067550659180e-01 -4.275425672531127930e-01
-9.215953946113586426e-02 7.500012516975402832e-01 9.021715819835662842e-02
-2.603997886180877686e-01 1.605966985225677490e-01 -1.887854635715484619e-01
-2.046779990196228027e-01 3.028901815414428711e-01 1.848243325948715210e-01
-2.272823601961135864e-01 5.048662424087524414e-01 2.514671087265014648e-01
-3.352816104888916016e-01 4.558449387550354004e-01 -2.302041798830032349e-01
-2.493885606527328491e-01 1.009769201278686523e+00 -3.839740902185440063e-02
-1.712930798530578613e-01 1.388298869132995605e-01 -1.714595407247543335e-02
-3.203856348991394043e-01 7.643747329711914062e-01 1.918840855360031128e-01
-1.631488502025604248e-01 4.925283491611480713e-01 -4.165159463882446289e-01
-3.179202377796173096e-01 2.190975248813629150e-01 -1.491706520318984985e-01
-9.367613494396209717e-02 5.515308380126953125e-01 1.108266115188598633e-01
-2.609765827655792236e-01 3.011061847209930420e-01 2.106917649507522583e-01
-1.593255400657653809e-01 1.623207330703735352e-01 -2.170643061399459839e-01
-3.494613170623779297e-01 7.362338900566101074e-01 -1.462338268756866455e-01
-2.907500565052032471e-01 9.430779218673706055e-01 5.154150724411010742e-02
-3.879478871822357178e-01 4.904044866561889648e-01 -6.231243163347244263e-02
-1.158041208982467651e-01 3.943874835968017578e-01 1.132524907588958740e-01
-3.319197893142700195e-01 4.227832555770874023e-01 -2.308552265167236328e-01
-2.241165637969970703e-01 9.241784811019897461e-01 1.312095075845718384e-01
-1.137521490454673767e-01 6.889855861663818359e-01 1.392026841640472412e-01
-3.632225096225738525e-02 8.037439584732055664e-01 -2.909069657325744629e-01
-3.574211001396179199e-01 7.966806888580322266e-01 5.944353342056274414e-02
-2.993741929531097412e-01 7.319368124008178711e-01 -2.719373703002929688e-01
-2.721228003501892090e-01 6.306089758872985840e-01 -3.374388217926025391e-01
-1.591812372207641602e-01 9.327793121337890625e-01 8.955959975719451904e-02
-2.812296152114868164e-01 9.114571809768676758e-01 -1.917158961296081543e-01
-6.570164859294891357e-02 9.358849525451660156e-01 -2.146347463130950928e-01
-2.986761033535003662e-01 9.476541280746459961e-01 -3.097744286060333252e-02
-7.137478888034820557e-02 3.032154738903045654e-01 -2.527964711189270020e-01
-2.839963138103485107e-01 1.227059066295623779e-01 -4.636521264910697937e-02
-2.584455907344818115e-01 5.104957222938537598e-01 2.614172697067260742e-01
-2.681803703308105469e-01 2.040760517120361328e-01 -2.256516963243484497e-01
-7.158678770065307617e-02 2.778477966785430908e-01 -1.451263129711151123e-01
-1.418969631195068359e-01 6.696828603744506836e-01 1.792784184217453003e-01
-1.406402885913848877e-02 6.454384922981262207e-01 -1.490225493907928467e-01
-6.334528326988220215e-02 3.285528421401977539e-01 -7.632394880056381226e-02
-8.061057329177856445e-02 9.689475297927856445e-01 -1.846939623355865479e-01
-1.011080071330070496e-01 2.210130393505096436e-01 -8.465570956468582153e-02
-7.157172262668609619e-02 3.300592005252838135e-01 -3.685323521494865417e-02
-2.493634670972824097e-01 1.051451563835144043e-01 -6.884640455245971680e-02
-1.346365809440612793e-01 3.224278092384338379e-01 1.116926521062850952e-01
-3.238790929317474365e-01 8.192840814590454102e-01 1.485015898942947388e-01
-1.016272082924842834e-01 2.777872085571289062e-01 8.878298103809356689e-03
-8.236590027809143066e-02 4.951565563678741455e-01 7.940284907817840576e-02
-5.800336599349975586e-02 4.795284271240234375e-01 1.407739520072937012e-02
-2.120218575000762939e-01 2.265192866325378418e-01 -2.925474047660827637e-01
-9.534340351819992065e-02 3.670855164527893066e-01 5.986112356185913086e-02
-2.364300191402435303e-02 5.793466567993164062e-01 -8.784727007150650024e-02
-2.907485365867614746e-01 8.486548662185668945e-01 1.667686104774475098e-01
-1.053337305784225464e-01 9.281563758850097656e-01 -3.107354640960693359e-01
-1.504672169685363770e-01 2.581080794334411621e-01 9.585195779800415039e-02
-1.311179995536804199e-01 4.570956528186798096e-01 1.564901024103164673e-01
-1.779735535383224487e-01 4.516718983650207520e-01 2.102579921483993530e-01
-1.826720982789993286e-01 1.009967684745788574e+00 -2.179134190082550049e-01
-2.891754508018493652e-01 7.656973600387573242e-01 -2.769133448600769043e-01
-3.154059052467346191e-01 4.050816297531127930e-01 2.373711317777633667e-01
-3.638725280761718750e-01 5.007484555244445801e-01 1.994901746511459351e-01
-3.282997608184814453e-01 2.236413657665252686e-01 1.237164437770843506e-01
-1.039295569062232971e-01 2.086732685565948486e-01 -1.135263293981552124e-01
-8.776973187923431396e-02 3.440138995647430420e-01 2.692183852195739746e-02
-6.725077331066131592e-02 2.965631186962127686e-01 -1.155834347009658813e-01
-1.040572002530097961e-01 2.787402570247650146e-01 -3.011270761489868164e-01
-1.171505972743034363e-01 9.654263257980346680e-01 -1.810394227504730225e-03
-2.878721654415130615e-01 3.764656186103820801e-01 -2.946060895919799805e-01
-1.969906985759735107e-01 8.700162768363952637e-01 1.605174839496612549e-01
-8.737985789775848389e-02 6.020349860191345215e-01 1.015587598085403442e-01
-1.168420985341072083e-01 3.106732666492462158e-01 7.208582758903503418e-02
-1.789015084505081177e-01 7.802324295043945312e-01 -3.890382051467895508e-01
-2.030457556247711182e-01 5.959780216217041016e-01 2.400130778551101685e-01
-2.575848400592803955e-01 8.900612592697143555e-01 -2.575821280479431152e-01
-4.691760241985321045e-02 6.378082036972045898e-01 5.379706621170043945e-03
-3.193213939666748047e-01 8.372234106063842773e-01 -1.646150797605514526e-01
-7.700836658477783203e-02 6.360210776329040527e-01 8.006197214126586914e-02
-1.196556687355041504e-01 1.849882304668426514e-01 -9.005438536405563354e-02
-8.183199167251586914e-02 3.116571307182312012e-01 -2.945994138717651367e-01
-1.637443900108337402e-02 5.956720709800720215e-01 -1.319802105426788330e-01
-3.863143920898437500e-01 5.343574285507202148e-01 -7.215624302625656128e-02
-1.349855959415435791e-02 6.668587923049926758e-01 -2.448006272315979004e-01
-1.756931096315383911e-01 6.247886419296264648e-01 -4.189620018005371094e-01
-2.128899097442626953e-01 2.698659002780914307e-01 1.736301332712173462e-01
-3.237722814083099365e-02 4.166287481784820557e-01 -1.922074258327484131e-01
-3.595294058322906494e-02 5.539065599441528320e-01 -3.372441530227661133e-01
-3.862093687057495117e-01 3.896353840827941895e-01 -2.931619063019752502e-02
-2.137015759944915771e-02 7.779561281204223633e-01 -1.826881766319274902e-01
-3.263459801673889160e-01 4.760931134223937988e-01 -2.515836954116821289e-01
-2.838269770145416260e-01 9.677300453186035156e-01 -6.382465362548828125e-04
-5.703029036521911621e-02 7.766346931457519531e-01 2.149492502212524414e-03
-2.488884031772613525e-01 2.689206600189208984e-01 1.914187222719192505e-01
-3.127782344818115234e-01 4.059134721755981445e-01 -2.636556625366210938e-01
-3.359452486038208008e-01 6.614576578140258789e-01 -2.176794707775115967e-01
-2.394917011260986328e-01 4.502574801445007324e-01 2.498199194669723511e-01
-4.176636040210723877e-02 3.787356615066528320e-01 -2.165023684501647949e-01
-3.758436441421508789e-01 3.193182051181793213e-01 -2.636019140481948853e-02
-2.502659559249877930e-01 8.636292219161987305e-01 -2.869845926761627197e-01
-3.855128884315490723e-01 6.330039501190185547e-01 1.027162671089172363e-01
-1.014121696352958679e-01 9.160743951797485352e-01 1.902280747890472412e-02
-1.096374094486236572e-01 6.488490104675292969e-01 -4.222802519798278809e-01
-9.292569756507873535e-02 9.852057099342346191e-01 -1.178536489605903625e-01
-3.469579219818115234e-01 3.849997520446777344e-01 2.034392207860946655e-01
-4.138846695423126221e-02 6.952167749404907227e-01 -1.912948489189147949e-02
-1.487032026052474976e-01 1.466645896434783936e-01 -1.482747495174407959e-01
-2.078928053379058838e-01 9.344196915626525879e-01 -2.855771780014038086e-01
-3.204692602157592773e-01 8.651418089866638184e-01 1.059056073427200317e-01
-2.976714074611663818e-01 5.806917548179626465e-01 -3.050046563148498535e-01
-2.202910333871841431e-01 7.753697037696838379e-01 2.141964286565780640e-01
-3.304346203804016113e-01 2.001965939998626709e-01 -8.318802714347839355e-02
-3.863564133644104004e-01 3.614500761032104492e-01 2.296175062656402588e-02
-2.420365959405899048e-01 5.512064099311828613e-01 2.589685916900634766e-01
-1.601676642894744873e-01 9.712408781051635742e-01 5.365411937236785889e-02
-1.024123951792716980e-01 8.602977991104125977e-01 -3.588621616363525391e-01
-3.820027709007263184e-01 6.202117800712585449e-01 -7.171932607889175415e-02
-3.786867260932922363e-01 3.830304443836212158e-01 -7.290151715278625488e-02
-1.922753006219863892e-01 1.180329322814941406e-01 -2.847990393638610840e-02
-3.706067800521850586e-01 4.313890039920806885e-01 -1.279609650373458862e-01
-3.575403094291687012e-01 2.928425371646881104e-01 1.310756802558898926e-01
-3.878710865974426270e-01 6.420696973800659180e-01 7.141971588134765625e-02
-1.975459456443786621e-01 9.326676130294799805e-01 1.170104444026947021e-01
-3.954540789127349854e-01 5.607655048370361328e-01 5.689911544322967529e-02
-5.367566645145416260e-02 3.965454995632171631e-01 -3.037430942058563232e-01
-8.627859503030776978e-02 9.016839861869812012e-01 -3.163651227951049805e-01
-9.733595699071884155e-02 4.326601028442382812e-01 -3.884676694869995117e-01
-1.674009561538696289e-01 8.519556522369384766e-01 -3.652563691139221191e-01
-7.859510183334350586e-02 4.483026564121246338e-01 5.735592544078826904e-02
-1.505203098058700562e-01 6.498476862907409668e-01 -4.243727326393127441e-01
-1.420806944370269775e-01 2.031620144844055176e-01 2.667953819036483765e-02
-2.898683547973632812e-01 1.851254701614379883e-01 1.231104582548141479e-01
-3.544306159019470215e-01 2.581037580966949463e-01 1.000510305166244507e-01
-1.222171783447265625e-01 9.875022172927856445e-01 -2.336046472191810608e-02
-2.057514190673828125e-01 1.364796757698059082e-01 3.888061642646789551e-02
-3.860183060169219971e-01 4.039835035800933838e-01 1.097799241542816162e-01
-3.043659031391143799e-02 8.257936835289001465e-01 -2.246492803096771240e-01
-2.452857643365859985e-01 3.688624203205108643e-01 -3.416104912757873535e-01
-1.406054943799972534e-01 5.441988706588745117e-01 -4.252587556838989258e-01
-1.643013954162597656e-02 5.668685436248779297e-01 -2.572277188301086426e-01
-3.287645578384399414e-01 7.807636260986328125e-01 -1.819151341915130615e-01
-1.341565698385238647e-01 5.045179128646850586e-01 -4.202109575271606445e-01
-1.254939734935760498e-01 8.001084923744201660e-01 1.261780112981796265e-01
-5.884417891502380371e-02 7.345321774482727051e-01 2.210684865713119507e-02
-2.256764471530914307e-01 1.970713436603546143e-01 1.300436705350875854e-01
-4.825694859027862549e-02 7.275322079658508301e-01 -5.595393478870391846e-03
-3.428418040275573730e-01 8.508276939392089844e-01 1.371867954730987549e-03
-2.353634536266326904e-01 4.814957380294799805e-01 -3.759260773658752441e-01
-1.760874688625335693e-01 5.615875720977783203e-01 2.200733572244644165e-01
-2.149693816900253296e-01 1.000033259391784668e+00 -2.005801200866699219e-01
-1.016488224267959595e-01 9.901407957077026367e-01 -8.840291202068328857e-02
-2.174486219882965088e-01 2.229607999324798584e-01 1.459486782550811768e-01
-3.253515064716339111e-02 5.206283330917358398e-01 -3.164670467376708984e-01
-1.517907381057739258e-01 4.201058149337768555e-01 1.747355908155441284e-01
-1.356744766235351562e-02 6.294752359390258789e-01 -2.507593035697937012e-01
-1.133814677596092224e-01 4.770516753196716309e-01 -4.101541042327880859e-01
-1.949691772460937500e-02 6.471939086914062500e-01 -1.065156310796737671e-01
-1.331704407930374146e-01 2.477297782897949219e-01 5.597922205924987793e-02
-2.336007207632064819e-01 1.173522472381591797e-01 -1.415490955114364624e-01
-8.693218231201171875e-02 2.625657618045806885e-01 -6.508382409811019897e-02
-2.883551716804504395e-01 3.164221346378326416e-01 -2.709110081195831299e-01
-2.463759034872055054e-01 9.507862329483032227e-01 1.005866080522537231e-01
-5.703939497470855713e-02 8.050059676170349121e-01 -1.166159659624099731e-02
-1.709809899330139160e-02 5.955674052238464355e-01 -2.735065221786499023e-01
-2.316418588161468506e-01 2.501307427883148193e-01 -2.970262169837951660e-01
-1.097544953227043152e-01 6.036247014999389648e-01 1.403228342533111572e-01
-2.917993962764739990e-01 3.497785925865173340e-01 -2.797648906707763672e-01
-3.660889267921447754e-01 5.770648121833801270e-01 -1.513331383466720581e-01
-2.841964066028594971e-01 8.167867660522460938e-01 -2.606396079063415527e-01
-3.593202829360961914e-01 3.667075037956237793e-01 1.762565523386001587e-01
-2.433150261640548706e-01 9.727212190628051758e-01 -1.956809163093566895e-01
-2.136925458908081055e-01 9.072350859642028809e-01 -3.012973368167877197e-01
-1.222694143652915955e-01 7.147410511970520020e-01 -4.164194464683532715e-01
-1.343062520027160645e-01 9.557261466979980469e-01 3.845529258251190186e-02
-2.588331997394561768e-01 1.098856031894683838e-01 -1.041851192712783813e-02
-3.895666003227233887e-01 4.472527205944061279e-01 1.118865460157394409e-01
-5.294290184974670410e-02 9.040483236312866211e-01 -2.224969118833541870e-01
-1.235823184251785278e-01 2.078546583652496338e-01 -1.571597903966903687e-02
-3.682433962821960449e-01 2.740741968154907227e-01 2.252228558063507080e-02
-3.037399947643280029e-01 6.914780139923095703e-01 2.355017513036727905e-01
-2.813534140586853027e-01 7.204886078834533691e-01 -3.058525621891021729e-01
-3.209426999092102051e-01 3.561640679836273193e-01 -2.325296550989151001e-01
-2.083407640457153320e-01 8.358808755874633789e-01 -3.479118347167968750e-01
-3.357091546058654785e-02 6.232179403305053711e-01 -3.910180181264877319e-02
-5.336169898509979248e-02 3.965210318565368652e-01 -4.758666828274726868e-02
-3.707742094993591309e-01 5.019394159317016602e-01 -1.391134858131408691e-01
-3.601558506488800049e-02 6.640477776527404785e-01 -3.247343748807907104e-02
-1.880521178245544434e-01 2.161452472209930420e-01 1.137001067399978638e-01
-1.792840063571929932e-01 1.710349619388580322e-01 5.516205728054046631e-02
-1.855022907257080078e-01 3.879759311676025391e-01 -3.857360482215881348e-01
-6.621731817722320557e-02 8.562288284301757812e-01 -3.247500061988830566e-01
-7.146693766117095947e-02 7.371079325675964355e-01 5.193383991718292236e-02
-2.898132205009460449e-01 3.888389468193054199e-01 2.423363178968429565e-01
-7.385627925395965576e-02 8.110966682434082031e-01 -3.616979718208312988e-01
-8.086682856082916260e-02 2.581360936164855957e-01 -1.187625005841255188e-01
-2.140498459339141846e-01 1.001430749893188477e+00 3.976134210824966431e-02
-2.533766031265258789e-01 3.650596737861633301e-01 2.339588254690170288e-01
-1.744277030229568481e-01 6.727584600448608398e-01 -4.150086641311645508e-01
-2.556490600109100342e-01 6.643112301826477051e-01 -3.530247211456298828e-01
-3.367660641670227051e-01 1.926222145557403564e-01 -2.066534757614135742e-02
-2.533678710460662842e-01 5.265467762947082520e-01 -3.628372550010681152e-01
-3.651470243930816650e-01 7.656347155570983887e-01 -3.332352638244628906e-02
-3.352469801902770996e-01 7.207505106925964355e-01 1.954072266817092896e-01
-8.990994840860366821e-02 9.717682600021362305e-01 -2.257966995239257812e-01
-3.481641411781311035e-01 5.571185350418090820e-01 2.223731428384780884e-01
-2.179017812013626099e-01 1.028065919876098633e+00 -3.222009167075157166e-02
-3.060500621795654297e-01 9.323569536209106445e-01 8.706733584403991699e-03
-1.922503113746643066e-01 5.222786068916320801e-01 2.315479069948196411e-01
-1.894107908010482788e-01 7.332615852355957031e-01 2.108708173036575317e-01
-1.821550428867340088e-01 1.408524215221405029e-01 1.149249821901321411e-02
-2.826063334941864014e-01 5.241011381149291992e-01 -3.274346292018890381e-01
-3.581036329269409180e-01 4.647852480411529541e-01 -1.750060468912124634e-01
-2.418464422225952148e-01 3.933142721652984619e-01 2.386217862367630005e-01
-3.325998187065124512e-01 4.409651756286621094e-01 2.328657060861587524e-01
-9.342175722122192383e-02 1.955063641071319580e-02 1.721537411212921143e-01
2.188170701265335083e-01 8.972173929214477539e-02 3.747683763504028320e-01
2.971649765968322754e-01 -2.323843836784362793e-01 -2.864798605442047119e-01
3.475263118743896484e-01 -2.075141221284866333e-01 5.520359277725219727e-01
3.402472436428070068e-01 -1.503777951002120972e-01 -3.122225403785705566e-01
5.731058120727539062e-01 -3.783972263336181641e-01 3.988116383552551270e-01
1.751140654087066650e-01 -2.268100529909133911e-01 -2.656832039356231689e-01
4.060308337211608887e-01 -4.363010078668594360e-02 -2.841647267341613770e-01
6.043236851692199707e-01 -2.182566523551940918e-01 -1.141335219144821167e-01
5.419301986694335938e-01 -9.316854923963546753e-02 -1.847149729728698730e-01
2.212044447660446167e-01 2.926436066627502441e-02 4.416135251522064209e-01
9.228894114494323730e-02 1.667549759149551392e-01 2.112419903278350830e-01
1.879907250404357910e-01 4.064835608005523682e-02 4.280035793781280518e-01
3.847557306289672852e-01 9.466977417469024658e-02 -1.953378915786743164e-01
-6.756049394607543945e-02 -2.142885923385620117e-01 3.014065325260162354e-02
3.392105102539062500e-01 1.776040047407150269e-01 -2.742213010787963867e-02
3.085292875766754150e-01 1.908882409334182739e-01 2.323396503925323486e-03
-5.725309252738952637e-02 -1.870373189449310303e-01 2.896208167076110840e-01
-2.330583333969116211e-02 1.008263677358627319e-01 -1.277965307235717773e-01
1.790567338466644287e-01 -5.980283021926879883e-03 4.654233157634735107e-01
1.116421818733215332e-02 -3.336398601531982422e-01 2.359886765480041504e-01
1.713232696056365967e-01 2.669322490692138672e-02 -3.045110106468200684e-01
6.092604398727416992e-01 -9.272573888301849365e-02 -6.576427817344665527e-02
4.528762400150299072e-02 -3.619145154953002930e-01 5.792473629117012024e-02
2.862176299095153809e-02 5.578853189945220947e-02 -2.249911129474639893e-01
1.160269975662231445e-01 -1.303399354219436646e-01 4.980983138084411621e-01
3.180340230464935303e-01 -3.519056737422943115e-01 -1.947444677352905273e-01
2.731039226055145264e-01 -8.935417234897613525e-02 -3.275712430477142334e-01
4.223666191101074219e-01 1.345654875040054321e-01 -3.536890447139739990e-02
2.950156331062316895e-01 -1.660574972629547119e-02 -3.169138133525848389e-01
5.923404097557067871e-01 -4.179415106773376465e-01 3.202753067016601562e-01
4.406554698944091797e-01 -2.278421372175216675e-01 -2.572524547576904297e-01
6.657026708126068115e-02 1.793639212846755981e-01 -9.847918152809143066e-02
6.637452840805053711e-01 -2.251065522432327271e-01 2.484462708234786987e-01
-8.319750428199768066e-02 2.153086662292480469e-02 -7.499140501022338867e-02
8.772756159305572510e-02 -3.593422770500183105e-01 3.720179200172424316e-01
4.632020592689514160e-01 1.142287701368331909e-01 3.597647696733474731e-02
3.318225443363189697e-01 -5.081182122230529785e-01 2.739816606044769287e-01
2.986122071743011475e-01 1.823819428682327271e-01 -8.337365090847015381e-02
1.152735352516174316e-01 -4.202532768249511719e-01 2.731843590736389160e-01
4.169749021530151367e-01 -4.793289899826049805e-01 1.469021290540695190e-02
2.921510040760040283e-01 1.696987003087997437e-01 1.966846883296966553e-01
3.168831765651702881e-01 1.858671456575393677e-01 8.343652635812759399e-02
3.844232857227325439e-02 -8.455634862184524536e-02 4.350506663322448730e-01
5.771970152854919434e-01 -3.024596273899078369e-01 4.279803335666656494e-01
2.074191421270370483e-01 -4.782036542892456055e-01 2.083871066570281982e-01
4.086360633373260498e-01 -4.557310342788696289e-01 -4.157066345214843750e-02
-8.946558833122253418e-02 -1.856069266796112061e-01 1.192333549261093140e-01
-5.792400240898132324e-02 -5.127543956041336060e-02 -1.410377621650695801e-01
5.194683074951171875e-01 6.903204321861267090e-02 6.509377062320709229e-02
1.527756154537200928e-01 -3.195987343788146973e-01 -1.717621386051177979e-01
4.326116442680358887e-01 -3.456350266933441162e-01 -1.843894124031066895e-01
3.616064786911010742e-03 4.995495080947875977e-03 -2.200133502483367920e-01
2.529006302356719971e-01 1.244774609804153442e-01 -2.324921786785125732e-01
2.485778033733367920e-01 -3.853875100612640381e-01 4.841997325420379639e-01
4.043114781379699707e-01 -2.644803225994110107e-01 5.422902107238769531e-01
4.830760359764099121e-01 -8.772002160549163818e-02 -2.434109151363372803e-01
2.136141955852508545e-01 -1.421911716461181641e-01 -3.151607513427734375e-01
-7.988390326499938965e-02 8.452278375625610352e-02 3.519905358552932739e-02
1.446968764066696167e-01 -4.461526274681091309e-01 1.512164473533630371e-01
5.048956274986267090e-01 -4.895393252372741699e-01 2.862585783004760742e-01
-3.889530897140502930e-02 1.332251876592636108e-01 -6.549805402755737305e-03
3.729566931724548340e-01 -1.762368679046630859e-01 5.414878726005554199e-01
7.519067823886871338e-02 1.033723354339599609e-03 -2.758916318416595459e-01
1.052678972482681274e-01 4.524162411689758301e-02 -2.774727940559387207e-01
2.435019612312316895e-02 -2.624995112419128418e-01 -1.113665550947189331e-01
5.660563707351684570e-01 -8.329477906227111816e-02 -1.457426249980926514e-01
4.916235804557800293e-01 8.976879715919494629e-02 1.862958073616027832e-03
4.524989128112792969e-01 3.275598585605621338e-02 -2.015647292137145996e-01
5.104172229766845703e-01 -1.088070869445800781e-02 3.353467881679534912e-01
6.652461290359497070e-01 -3.079907894134521484e-01 2.373595684766769409e-01
3.822486698627471924e-01 -3.930588364601135254e-01 -1.451991498470306396e-01
6.122207045555114746e-01 -5.347642302513122559e-02 1.088077574968338013e-02
4.313246905803680420e-02 -3.733751177787780762e-01 1.592212170362472534e-01
-5.217248201370239258e-02 -2.591599225997924805e-01 1.215058937668800354e-01
6.575493216514587402e-01 -3.154560327529907227e-01 5.531392619013786316e-02
1.847506761550903320e-01 -4.412418007850646973e-01 2.262886613607406616e-02
6.182681322097778320e-01 -2.892499566078186035e-01 -6.398940086364746094e-02
5.590714216232299805e-01 -4.677709341049194336e-01 1.446487307548522949e-01
3.625756204128265381e-01 1.693377047777175903e-01 7.780756801366806030e-02
1.530003547668457031e-02 -2.281446158885955811e-01 3.981551826000213623e-01
7.161056995391845703e-02 1.932229250669479370e-01 9.348134696483612061e-02
2.199703902006149292e-01 -4.053816199302673340e-01 -9.198467433452606201e-02
2.490767836570739746e-01 1.874787062406539917e-01 1.651254445314407349e-01
4.656433761119842529e-01 -3.654191792011260986e-01 4.929602444171905518e-01
3.822693228721618652e-01 1.153990626335144043e-03 -2.790235280990600586e-01
9.823286533355712891e-02 9.298825263977050781e-02 3.436954021453857422e-01
4.472299814224243164e-01 1.163095235824584961e-02 3.747214078903198242e-01
4.601284861564636230e-02 1.138927489519119263e-01 2.800790369510650635e-01
2.784115076065063477e-02 1.601579040288925171e-01 1.613867729902267456e-01
9.693121910095214844e-02 -1.554203480482101440e-01 -2.657625377178192139e-01
4.157920181751251221e-01 8.062222599983215332e-02 2.967264652252197266e-01
3.801742792129516602e-01 -4.758093357086181641e-01 -2.255812287330627441e-04
3.648059666156768799e-01 1.447156816720962524e-01 -1.205818355083465576e-01
1.828166842460632324e-01 2.127397805452346802e-01 7.897831499576568604e-03
5.939573645591735840e-01 -2.993078529834747314e-02 -1.179587841033935547e-02
6.322700977325439453e-01 -3.146556317806243896e-01 3.387585580348968506e-01
1.087498366832733154e-01 -2.117794305086135864e-01 -2.413291931152343750e-01
5.108797550201416016e-02 1.912795752286911011e-01 -3.103464841842651367e-04
-4.118824005126953125e-02 1.338479667901992798e-01 4.475247859954833984e-02
5.160211920738220215e-01 -1.481296420097351074e-01 -2.230039536952972412e-01
3.215075433254241943e-01 -4.202280044555664062e-01 4.719948768615722656e-01
-4.100653529167175293e-02 -2.722029089927673340e-01 8.696300536394119263e-02
4.214549064636230469e-02 -1.115643978118896484e-02 -2.559527456760406494e-01
2.727893888950347900e-01 -6.280243396759033203e-03 4.706172943115234375e-01
4.907235503196716309e-01 -1.802453249692916870e-01 -2.412269115447998047e-01
5.867831707000732422e-01 -6.685063242912292480e-03 4.413279891014099121e-02
-1.079619824886322021e-01 -1.088576838374137878e-01 1.530292928218841553e-01
3.531269729137420654e-01 -1.102326512336730957e-01 -3.140124678611755371e-01
-5.779135227203369141e-02 -2.424304038286209106e-01 1.971924304962158203e-01
1.657125353813171387e-02 -1.949775516986846924e-01 4.138795137405395508e-01
3.165270686149597168e-01 -4.837049841880798340e-01 3.464799374341964722e-02
4.988411068916320801e-01 -3.645507097244262695e-01 -1.325269788503646851e-01
3.391971290111541748e-01 -4.068772196769714355e-01 -1.282638460397720337e-01
5.372542142868041992e-01 -1.820985823869705200e-01 -2.017411589622497559e-01
9.975869953632354736e-02 -2.574943006038665771e-01 -1.982645690441131592e-01
-8.007019758224487305e-03 -2.115772217512130737e-01 -1.228526085615158081e-01
5.272839665412902832e-01 4.869942367076873779e-02 1.693026274442672729e-01
6.299520730972290039e-01 -2.798220515251159668e-01 3.508373200893402100e-01
1.461247950792312622e-01 -3.716820180416107178e-01 4.281446635723114014e-01
5.763611197471618652e-01 -6.876394152641296387e-03 1.843835711479187012e-01
4.393535256385803223e-01 -3.058391064405441284e-02 -2.577712833881378174e-01
6.249142885208129883e-01 -1.314277052879333496e-01 -5.733802914619445801e-02
4.025553762912750244e-01 -4.460327625274658203e-01 4.428685903549194336e-01
3.805511593818664551e-01 -4.883390665054321289e-01 3.476368635892868042e-02
6.607689857482910156e-01 -3.433873355388641357e-01 1.298084408044815063e-01
4.645335674285888672e-01 9.037972986698150635e-02 1.993477046489715576e-01
3.818376660346984863e-01 -4.706659913063049316e-01 4.061812460422515869e-01
2.710463106632232666e-01 2.015689760446548462e-01 2.195907384157180786e-02
7.146686315536499023e-03 -2.688502073287963867e-01 -7.417142391204833984e-02
-1.550829410552978516e-02 2.536472678184509277e-02 -1.935699284076690674e-01
5.828251838684082031e-01 -6.292060017585754395e-02 -9.853239357471466064e-02
-4.248085618019104004e-02 1.165090501308441162e-02 -1.616316735744476318e-01
2.319543659687042236e-01 -4.333372712135314941e-01 -4.525572061538696289e-02
4.428456425666809082e-01 -3.675558418035507202e-02 4.315316677093505859e-01
3.956054747104644775e-01 -5.143316388130187988e-01 2.544025182723999023e-01
1.154743134975433350e-01 1.938822418451309204e-01 -9.495268762111663818e-02
5.367611646652221680e-01 -4.346544146537780762e-01 -1.074358820915222168e-03
1.005860120058059692e-01 -2.016030699014663696e-01 4.905647337436676025e-01
6.280454397201538086e-01 -1.505887359380722046e-01 2.976588010787963867e-01
4.721989631652832031e-01 -2.599126100540161133e-02 -2.278080284595489502e-01
1.573278009891510010e-01 -1.131266131997108459e-01 5.124940872192382812e-01
3.218883275985717773e-01 4.640053212642669678e-02 -2.807852923870086670e-01
4.957963228225708008e-01 -2.389334142208099365e-01 4.999174773693084717e-01
4.362244606018066406e-01 9.291097521781921387e-03 -2.371820509433746338e-01
1.567810177803039551e-01 -3.963527977466583252e-01 -5.643092095851898193e-02
3.868170976638793945e-01 1.527868062257766724e-01 1.230469122529029846e-01
-7.657545804977416992e-02 -1.569043099880218506e-02 -1.050047874450683594e-01
2.169706821441650391e-01 -7.939579337835311890e-02 -3.261598646640777588e-01
-4.599359631538391113e-02 -1.176080405712127686e-01 -1.376777291297912598e-01
2.171089202165603638e-01 1.502050906419754028e-01 2.763065099716186523e-01
-7.001224160194396973e-02 -1.647699922323226929e-01 -4.749777913093566895e-02
5.800369381904602051e-01 -3.427423238754272461e-01 4.120654463768005371e-01
1.550130844116210938e-01 -3.533742576837539673e-02 -3.137848675251007080e-01
5.286779403686523438e-01 5.655159056186676025e-02 7.673427462577819824e-03
5.341870784759521484e-01 2.641378343105316162e-02 2.210648208856582642e-01
4.341478645801544189e-01 -3.851420283317565918e-01 4.935706257820129395e-01
6.662291884422302246e-01 -1.644961982965469360e-01 1.321098655462265015e-01
5.169416666030883789e-01 -4.877634346485137939e-02 -1.932609677314758301e-01
-8.773043751716613770e-02 -1.034530401229858398e-01 -5.490688979625701904e-02
1.003282666206359863e-01 2.039792686700820923e-01 -2.294568717479705811e-02
9.778569638729095459e-02 3.031104803085327148e-02 4.092415571212768555e-01
8.260777592658996582e-02 -3.317665159702301025e-01 4.022943079471588135e-01
1.376787275075912476e-01 -4.625762999057769775e-02 4.783815145492553711e-01
6.468313932418823242e-01 -1.648008078336715698e-01 2.588846683502197266e-01
6.118612289428710938e-01 -2.218640148639678955e-01 3.743177354335784912e-01
1.410922110080718994e-01 -4.451628923416137695e-01 2.004934698343276978e-01
-9.003704786300659180e-02 -1.425556093454360962e-01 -8.562780916690826416e-03
3.517728447914123535e-01 -4.358873367309570312e-01 4.577909409999847412e-01
5.195757746696472168e-02 1.296501606702804565e-01 -1.813838183879852295e-01
7.578143477439880371e-02 -1.006648018956184387e-01 4.675881266593933105e-01
2.065790295600891113e-01 -4.690531492233276367e-01 2.897468209266662598e-01
5.220206081867218018e-02 -1.188192218542098999e-01 -2.497138977050781250e-01
4.272562265396118164e-02 1.795761734247207642e-01 1.126477420330047607e-01
3.895520269870758057e-01 -2.901528179645538330e-01 -2.414491176605224609e-01
5.892034769058227539e-01 -2.524508833885192871e-01 -1.263560205698013306e-01
6.452299356460571289e-01 -1.292068809270858765e-01 1.457417011260986328e-02
-5.822491645812988281e-02 9.203031659126281738e-02 1.568408608436584473e-01
-1.611140370368957520e-02 -2.908136844635009766e-01 2.980396151542663574e-02
1.356066167354583740e-01 -2.508612871170043945e-01 -2.287848889827728271e-01
4.181062877178192139e-01 -5.120571255683898926e-01 1.501172631978988647e-01
3.643553256988525391e-01 -3.572607040405273438e-01 -1.883982717990875244e-01
4.040679633617401123e-01 -2.219336032867431641e-01 -2.741483449935913086e-01
5.430580377578735352e-01 -1.457139253616333008e-01 -1.959234774112701416e-01
2.510593533515930176e-01 -2.102570235729217529e-01 -2.946409881114959717e-01
1.021897792816162109e-01 -4.020394682884216309e-01 4.455409198999404907e-02
1.356139183044433594e-01 -4.130917191505432129e-01 1.276808232069015503e-02
4.981157183647155762e-02 3.405587375164031982e-02 -2.508522868156433105e-01
5.559241771697998047e-01 -3.634081482887268066e-01 -8.509504795074462891e-02
2.506423592567443848e-01 2.014750093221664429e-01 9.039694070816040039e-02
2.070312500000000000e-01 -9.614227712154388428e-02 5.204261541366577148e-01
2.254596948623657227e-01 -4.258658289909362793e-01 4.224881827831268311e-01
3.320328891277313232e-02 -3.614950180053710938e-01 2.108584642410278320e-01
3.671281337738037109e-01 7.092759013175964355e-02 -2.373667955398559570e-01
2.603412866592407227e-01 -4.545777440071105957e-01 3.968732655048370361e-01
6.766359806060791016e-01 -2.401177585124969482e-01 1.124901771545410156e-01
3.748858273029327393e-01 -7.091032713651657104e-02 4.939901530742645264e-01
6.191631555557250977e-01 -4.077115058898925781e-01 2.649230360984802246e-01
-1.697006821632385254e-02 -6.566565483808517456e-02 -1.976847052574157715e-01
1.016157269477844238e-01 -5.575377494096755981e-02 4.668750166893005371e-01
3.922076225280761719e-01 5.328737199306488037e-02 3.626153469085693359e-01
3.774699270725250244e-01 1.246302574872970581e-01 2.413877397775650024e-01
6.478388309478759766e-01 -1.228927373886108398e-01 1.826927959918975830e-01
-5.786600708961486816e-02 -1.578171551227569580e-01 -8.516812324523925781e-02
5.328285694122314453e-01 -1.624087989330291748e-01 4.475978016853332520e-01
5.320086479187011719e-01 -1.961117237806320190e-01 4.624265134334564209e-01
2.561168372631072998e-01 -4.946544766426086426e-01 2.372461110353469849e-01
3.063768148422241211e-03 1.668858677148818970e-01 -5.619168281555175781e-03
7.230275869369506836e-02 -2.882777452468872070e-01 4.305340349674224854e-01
-1.073833703994750977e-01 -6.985606253147125244e-02 -8.522570133209228516e-04
6.267973780632019043e-01 -6.880754232406616211e-02 6.096685677766799927e-02
4.479660987854003906e-01 -1.776919513940811157e-01 5.141066312789916992e-01
4.990887939929962158e-01 5.855746567249298096e-02 2.178806662559509277e-01
2.392967492341995239e-01 -3.558675050735473633e-01 -1.735455095767974854e-01
3.187237679958343506e-01 -2.916686534881591797e-01 -2.487455308437347412e-01
5.163834095001220703e-01 -2.755391597747802734e-01 -1.894728243350982666e-01
5.878086090087890625e-01 -3.913057446479797363e-01 -7.181301712989807129e-03
2.863979637622833252e-01 -1.813773810863494873e-01 5.518994331359863281e-01
3.028520345687866211e-01 -3.864104449748992920e-01 5.003080964088439941e-01
3.136471807956695557e-01 1.257601380348205566e-02 -3.020600378513336182e-01
-1.047192811965942383e-01 -1.387346833944320679e-01 9.928966313600540161e-02
4.422200024127960205e-01 -4.031187891960144043e-01 -1.167715638875961304e-01
8.139321208000183105e-02 -8.693546801805496216e-02 -2.785960435867309570e-01
-1.557499170303344727e-02 -2.505117654800415039e-02 -2.027164399623870850e-01
2.886993885040283203e-01 -4.078425168991088867e-01 -1.184917986392974854e-01
4.510337710380554199e-01 -1.023017317056655884e-01 -2.697087526321411133e-01
3.124648332595825195e-01 -9.184437990188598633e-02 5.213217735290527344e-01
5.045512318611145020e-01 6.766964495182037354e-02 -5.060723423957824707e-02
1.408998370170593262e-01 1.836450248956680298e-01 -1.372334659099578857e-01
-2.924907207489013672e-02 1.203139573335647583e-01 1.639051437377929688e-01
3.892807960510253906e-01 1.521379500627517700e-01 -4.408742487430572510e-02
1.435261964797973633e-02 -1.608100980520248413e-01 -1.940087378025054932e-01
6.238031387329101562e-01 -6.470035761594772339e-02 1.418432146310806274e-01
3.278559446334838867e-02 -3.615961074829101562e-01 1.212978884577751160e-01
6.195667982101440430e-01 -7.680431008338928223e-02 2.095756679773330688e-01
2.352097034454345703e-01 -3.137352317571640015e-02 -3.251088261604309082e-01
4.377077221870422363e-01 -1.350480020046234131e-01 5.025329589843750000e-01
5.293348431587219238e-01 -2.266214489936828613e-01 -1.998575925827026367e-01
4.217826128005981445e-01 -2.087298035621643066e-01 5.332552194595336914e-01
4.461908936500549316e-01 -5.073606967926025391e-01 2.749838829040527344e-01
3.047456443309783936e-01 -1.336409449577331543e-01 -3.205406367778778076e-01
5.250669121742248535e-01 -3.184375166893005371e-01 -1.547388136386871338e-01
1.873124539852142334e-01 -2.074840068817138672e-01 5.349677801132202148e-01
1.636319458484649658e-01 7.624082267284393311e-02 3.862979412078857422e-01
4.918355643749237061e-01 -4.639881849288940430e-01 1.806785911321640015e-02
-1.187413930892944336e-02 1.460989266633987427e-01 1.266024559736251831e-01
6.412429809570312500e-01 -9.482834488153457642e-02 1.024914234876632690e-01
5.620900392532348633e-01 -2.712801098823547363e-03 -6.160815060138702393e-02
2.126704454421997070e-01 -2.313724756240844727e-01 -2.753642499446868896e-01
5.055952668190002441e-01 7.462695240974426270e-02 1.355497539043426514e-01
6.473844051361083984e-01 -3.772814273834228516e-01 1.591275632381439209e-01
-6.527593731880187988e-02 -2.152638435363769531e-01 2.281350493431091309e-01
3.213410079479217529e-01 1.737220734357833862e-01 1.498320400714874268e-01
4.515950083732604980e-01 1.180123835802078247e-01 -1.720763742923736572e-02
6.426884531974792480e-01 -2.895744740962982178e-01 -1.338191330432891846e-02
3.309176862239837646e-01 5.870318412780761719e-02 3.898592591285705566e-01
6.648428440093994141e-01 -1.965984553098678589e-01 4.155521094799041748e-02
6.123048067092895508e-01 -3.808682560920715332e-01 3.322330713272094727e-01
4.584703743457794189e-01 6.968261301517486572e-02 -1.454479396343231201e-01
2.834954261779785156e-01 -4.604102373123168945e-01 -1.448270678520202637e-02
5.258105397224426270e-01 -4.266785979270935059e-01 4.028334319591522217e-01
3.741285204887390137e-01 1.527683287858963013e-01 -7.865871489048004150e-02
-4.126709699630737305e-02 8.895130455493927002e-02 2.053335011005401611e-01
5.715748667716979980e-02 8.582602441310882568e-02 3.279897868633270264e-01
-9.438288211822509766e-02 4.103118181228637695e-02 -1.173406839370727539e-02
3.836881220340728760e-01 8.327931165695190430e-02 3.218658566474914551e-01
4.162005186080932617e-01 -2.549406290054321289e-01 -2.547973692417144775e-01
6.701463460922241211e-02 -3.786925077438354492e-01 2.843090295791625977e-01
2.895253598690032959e-01 1.384035795927047729e-01 -1.989681422710418701e-01
4.004668593406677246e-01 1.106898039579391479e-01 -1.518611013889312744e-01
5.408676266670227051e-01 -4.797548651695251465e-01 2.431786060333251953e-01
-1.615241169929504395e-02 -3.824081271886825562e-02 3.629649281501770020e-01
2.669576704502105713e-01 -4.691354036331176758e-01 2.016118168830871582e-02
1.891158223152160645e-01 -4.684626460075378418e-01 1.494422256946563721e-01
-4.381322860717773438e-02 9.576223790645599365e-02 -9.499728679656982422e-02
-9.657520055770874023e-02 -1.682482659816741943e-02 -5.026961863040924072e-02
6.622381210327148438e-01 -1.903291791677474976e-01 2.262411862611770630e-01
1.339344382286071777e-01 2.102505415678024292e-01 4.709977656602859497e-02
6.743611097335815430e-01 -2.525683641433715820e-01 2.015340924263000488e-01
5.550567805767059326e-02 -2.812715172767639160e-01 -1.286732852458953857e-01
-2.516141533851623535e-02 6.781373918056488037e-02 -1.580849885940551758e-01
3.554138243198394775e-01 2.636624872684478760e-02 4.177273809909820557e-01
5.548402070999145508e-01 -4.546909332275390625e-01 7.503804564476013184e-02
4.564301967620849609e-01 -4.632801413536071777e-01 3.998039066791534424e-01
7.015942037105560303e-02 6.668670475482940674e-02 3.589131832122802734e-01
2.361701279878616333e-01 -3.384937644004821777e-01 5.142040848731994629e-01
2.711293399333953857e-01 1.336856335401535034e-01 2.960196137428283691e-01
4.502815604209899902e-01 1.215852648019790649e-01 8.676025271415710449e-02
5.889451503753662109e-02 8.800359070301055908e-02 -2.277481555938720703e-01
3.049808442592620850e-01 -2.971802949905395508e-01 5.467889308929443359e-01
1.242034435272216797e-01 -4.143285751342773438e-01 3.187525868415832520e-01
4.353182315826416016e-01 -4.160633087158203125e-01 4.684080183506011963e-01
1.352142840623855591e-01 1.807897835969924927e-01 1.960227191448211670e-01
2.436889410018920898e-01 -4.868627786636352539e-01 1.258624196052551270e-01
1.855263113975524902e-01 1.751261204481124878e-01 2.205837368965148926e-01
1.471529603004455566e-01 2.086061090230941772e-01 -3.950871527194976807e-02
5.447615683078765869e-02 -3.359932005405426025e-01 -3.755335509777069092e-02
5.528097152709960938e-01 -1.359848380088806152e-01 4.109303951263427734e-01
-8.607086539268493652e-02 -1.664934307336807251e-01 2.122665345668792725e-01
-1.178598403930664062e-02 1.192302256822586060e-01 2.013138532638549805e-01
2.402662634849548340e-01 -1.670392006635665894e-01 5.456091165542602539e-01
3.639858067035675049e-01 -3.134937584400177002e-02 4.691869914531707764e-01
1.360387504100799561e-01 -3.887716531753540039e-01 3.928887546062469482e-01
-4.404431581497192383e-02 -1.457715332508087158e-01 3.378061056137084961e-01
5.139741897583007812e-01 1.678015291690826416e-02 -1.362302601337432861e-01
3.259877562522888184e-01 -1.635726094245910645e-01 5.465656518936157227e-01
-6.504935026168823242e-02 -9.327788650989532471e-02 -1.152288615703582764e-01
5.328815579414367676e-01 5.417256057262420654e-02 1.072906106710433960e-01
5.072236061096191406e-01 -4.937885403633117676e-01 1.545204967260360718e-01
2.519395947456359863e-01 1.521775573492050171e-01 -1.927563250064849854e-01
2.073466777801513672e-01 -3.693574070930480957e-01 4.778618216514587402e-01
9.854355454444885254e-02 -3.156212568283081055e-01 -1.312268972396850586e-01
-2.428978681564331055e-02 -2.042679041624069214e-01 3.490630090236663818e-01
-7.068434357643127441e-02 6.246343255043029785e-02 -7.278665900230407715e-02
-1.473829150199890137e-02 7.239423692226409912e-02 2.734669148921966553e-01
4.682561755180358887e-01 8.784861862659454346e-02 -8.846160769462585449e-02
1.969750225543975830e-01 -4.255780577659606934e-01 -3.346097469329833984e-02
2.333390712738037109e-02 1.710291653871536255e-01 -5.554948747158050537e-02
-6.583338975906372070e-02 -1.109315976500511169e-01 3.010266423225402832e-01
