-3.819074034690856934e-01 2.260265201330184937e-01 7.360155582427978516e-01
-3.446061909198760986e-01 1.726736873388290405e-01 5.876352787017822266e-01
2.940124273300170898e-01 2.317904978990554810e-01 6.961115002632141113e-01
-4.048529863357543945e-01 1.745062172412872314e-01 6.451206207275390625e-01
-2.984559834003448486e-01 2.358916699886322021e-01 6.493951678276062012e-01
-1.308596134185791016e-01 2.351768165826797485e-01 7.712832689285278320e-01
-1.806596666574478149e-01 1.716186106204986572e-01 5.205364227294921875e-01
-4.856715202331542969e-01 2.162330150604248047e-01 6.681096553802490234e-01
-3.612160384654998779e-01 1.714821159839630127e-01 6.223894357681274414e-01
1.715129315853118896e-01 2.277127504348754883e-01 7.936334609985351562e-01
-3.061160147190093994e-01 1.675353646278381348e-01 7.060564160346984863e-01
5.188094452023506165e-02 1.608770340681076050e-01 6.148046255111694336e-01
2.081317305564880371e-01 1.987182646989822388e-01 8.444932699203491211e-01
1.631109863519668579e-01 1.628164947032928467e-01 6.466111540794372559e-01
2.155462652444839478e-01 1.651325225830078125e-01 6.727394461631774902e-01
2.393940985202789307e-01 1.786012947559356689e-01 5.065838694572448730e-01
1.398063600063323975e-01 1.883315891027450562e-01 8.499334454536437988e-01
-4.822497963905334473e-01 2.133374363183975220e-01 6.080309152603149414e-01
2.875626087188720703e-01 1.788088828325271606e-01 5.256171226501464844e-01
-1.866629160940647125e-02 2.122153937816619873e-01 4.359078705310821533e-01
-3.810721635818481445e-01 2.190472781658172607e-01 5.375250577926635742e-01
-9.653720259666442871e-02 1.716238260269165039e-01 8.138493299484252930e-01
-1.831111684441566467e-02 2.273289114236831665e-01 4.743710160255432129e-01
-9.148129820823669434e-02 1.805913746356964111e-01 8.499140143394470215e-01
-1.346187144517898560e-01 1.645097136497497559e-01 7.562868595123291016e-01
-3.052572607994079590e-01 2.347586154937744141e-01 6.164644360542297363e-01
-1.619283258914947510e-01 1.819146126508712769e-01 4.715341329574584961e-01
-4.787876605987548828e-01 1.939790397882461548e-01 7.468273043632507324e-01
-3.441126346588134766e-01 2.251006364822387695e-01 7.695462703704833984e-01
2.460499852895736694e-02 1.696881800889968872e-01 8.011406064033508301e-01
-4.486303627490997314e-01 1.870281547307968140e-01 7.543358802795410156e-01
-2.319205254316329956e-01 1.962296813726425171e-01 8.602216839790344238e-01
1.823630481958389282e-01 2.379164546728134155e-01 5.861445665359497070e-01
-3.879266381263732910e-01 1.734074205160140991e-01 7.027180194854736328e-01
-2.246730029582977295e-01 1.658345758914947510e-01 7.421011328697204590e-01
-2.571841776371002197e-01 2.160610109567642212e-01 4.763198494911193848e-01
-8.515641093254089355e-02 1.603762954473495483e-01 6.985640525817871094e-01
2.508260011672973633e-01 2.358828336000442505e-01 6.669888496398925781e-01
-3.081887662410736084e-01 1.729826778173446655e-01 7.695643901824951172e-01
-3.535590171813964844e-01 2.315084189176559448e-01 6.193165183067321777e-01
-4.178189635276794434e-01 2.254229784011840820e-01 6.967830657958984375e-01
1.123924553394317627e-02 1.612740755081176758e-01 7.201757431030273438e-01
-2.071346044540405273e-01 2.304841578006744385e-01 5.169796347618103027e-01
2.263547778129577637e-01 1.685522198677062988e-01 7.301867008209228516e-01
5.446200445294380188e-02 1.811868846416473389e-01 4.623392820358276367e-01
3.075660020112991333e-02 1.952229142189025879e-01 8.722970485687255859e-01
-1.205232143402099609e-01 2.406324744224548340e-01 5.892181396484375000e-01
-4.206805229187011719e-01 2.205906659364700317e-01 5.758997201919555664e-01
-4.513255357742309570e-01 1.841534525156021118e-01 5.968579649925231934e-01
-4.439789652824401855e-01 2.149035930633544922e-01 7.541579604148864746e-01
3.925642743706703186e-02 2.269536405801773071e-01 4.736128449440002441e-01
6.468395888805389404e-02 1.629550755023956299e-01 5.792324542999267578e-01
-4.013504385948181152e-01 1.753712892532348633e-01 6.187142133712768555e-01
-2.257852703332901001e-01 2.375135123729705811e-01 7.143813371658325195e-01
1.345188468694686890e-01 2.396554350852966309e-01 6.973739266395568848e-01
6.916119158267974854e-02 2.377585470676422119e-01 7.462553977966308594e-01
2.778545916080474854e-01 2.105101048946380615e-01 4.742833375930786133e-01
7.073569297790527344e-02 2.311756759881973267e-01 7.965279817581176758e-01
-2.119343578815460205e-01 1.742494404315948486e-01 5.136213302612304688e-01
-4.273367524147033691e-01 2.077970504760742188e-01 5.370780229568481445e-01
-3.222970962524414062e-01 2.302184700965881348e-01 7.430231571197509766e-01
-2.592724561691284180e-02 2.297970056533813477e-01 8.119307160377502441e-01
-4.384992420673370361e-01 2.239503413438796997e-01 6.634896397590637207e-01
1.911416947841644287e-01 2.376921176910400391e-01 6.959108114242553711e-01
-8.118107914924621582e-02 2.380215674638748169e-01 7.515988945960998535e-01
1.593115031719207764e-01 1.651621758937835693e-01 5.812175869941711426e-01
1.113947108387947083e-02 2.421418130397796631e-01 6.904350519180297852e-01
3.385570645332336426e-01 2.164988964796066284e-01 5.128111839294433594e-01
3.062553703784942627e-03 2.330154627561569214e-01 5.026723742485046387e-01
-1.509071886539459229e-01 1.987238526344299316e-01 4.412720203399658203e-01
-3.790445625782012939e-04 1.638277620077133179e-01 5.607545375823974609e-01
3.704008460044860840e-01 2.243074029684066772e-01 6.984091997146606445e-01
2.331857681274414062e-01 2.286453694105148315e-01 7.662081718444824219e-01
2.355924248695373535e-02 2.429054975509643555e-01 6.450045108795166016e-01
-3.689232468605041504e-01 2.152159065008163452e-01 8.010133504867553711e-01
-3.636127412319183350e-01 2.307378500699996948e-01 6.932560801506042480e-01
-1.964473724365234375e-01 1.624265164136886597e-01 6.319493055343627930e-01
4.268145933747291565e-02 1.599622964859008789e-01 6.591886878013610840e-01
-4.461383819580078125e-01 2.141110002994537354e-01 5.673422217369079590e-01
-3.449333608150482178e-01 2.111411541700363159e-01 8.211123943328857422e-01
3.672322034835815430e-01 1.804524362087249756e-01 5.703807473182678223e-01
-1.640905290842056274e-01 1.632194519042968750e-01 5.939732789993286133e-01
2.625536322593688965e-01 2.339367270469665527e-01 6.963998079299926758e-01
2.468538582324981689e-01 1.671904325485229492e-01 6.169805526733398438e-01
-4.473052918910980225e-01 1.918504834175109863e-01 5.591247677803039551e-01
-2.694618403911590576e-01 1.869204491376876831e-01 4.828172922134399414e-01
2.368170320987701416e-01 2.061913013458251953e-01 4.581741094589233398e-01
-2.813446819782257080e-01 1.765465140342712402e-01 8.022742271423339844e-01
2.184773981571197510e-01 1.845708191394805908e-01 8.222250342369079590e-01
8.544406294822692871e-02 1.741410195827484131e-01 4.931137561798095703e-01
1.811776161193847656e-01 1.644041836261749268e-01 6.091485023498535156e-01
4.485581070184707642e-03 1.743215322494506836e-01 4.870120286941528320e-01
4.302502572536468506e-01 1.868645101785659790e-01 6.048265695571899414e-01
-3.403886258602142334e-01 2.330815345048904419e-01 6.382201313972473145e-01
-2.397700846195220947e-01 2.382605671882629395e-01 6.853472590446472168e-01
-4.148797392845153809e-01 1.755170077085494995e-01 6.872668266296386719e-01
4.240532219409942627e-01 1.901270300149917603e-01 7.159652113914489746e-01
-8.893719315528869629e-02 1.877048164606094360e-01 4.478026628494262695e-01
1.091068536043167114e-01 1.622434854507446289e-01 6.071040630340576172e-01
8.345983922481536865e-03 2.409771978855133057e-01 7.146551012992858887e-01
2.702595889568328857e-01 1.722629070281982422e-01 5.628622770309448242e-01
-1.924091577529907227e-01 1.634089350700378418e-01 7.219177484512329102e-01
4.820205643773078918e-02 1.696914434432983398e-01 7.984199523925781250e-01
-5.037743449211120605e-01 1.904477030038833618e-01 6.551496982574462891e-01
2.273315787315368652e-01 2.361455559730529785e-01 5.901988148689270020e-01
-1.489221602678298950e-01 2.317507266998291016e-01 5.098372101783752441e-01
4.156800508499145508e-01 1.839923262596130371e-01 6.849306821823120117e-01
-3.231792151927947998e-01 2.343978136777877808e-01 6.601755619049072266e-01
-1.316713094711303711e-01 1.611101776361465454e-01 6.224032640457153320e-01
-4.174566641449928284e-02 1.817046105861663818e-01 4.597515761852264404e-01
-4.572265595197677612e-02 1.672419011592864990e-01 5.301358103752136230e-01
1.057597622275352478e-02 1.643260121345520020e-01 7.607573866844177246e-01
1.978931128978729248e-01 1.641900837421417236e-01 6.443737745285034180e-01
-3.164839446544647217e-01 2.343388944864273071e-01 6.858884096145629883e-01
-1.346260309219360352e-01 2.241717129945755005e-01 4.724913835525512695e-01
3.798500299453735352e-01 1.775075197219848633e-01 6.428977251052856445e-01
-4.027878940105438232e-01 2.261109799146652222e-01 6.053774356842041016e-01
4.397016391158103943e-02 1.602540314197540283e-01 6.836484074592590332e-01
-3.249012529850006104e-01 1.729313880205154419e-01 5.704854726791381836e-01
6.474721431732177734e-02 1.635842919349670410e-01 7.434132695198059082e-01
1.346771717071533203e-01 1.624885052442550659e-01 6.182379722595214844e-01
2.586588263511657715e-02 2.371129691600799561e-01 5.333704352378845215e-01
-3.131611347198486328e-01 1.881673932075500488e-01 8.303263783454895020e-01
-8.370141685009002686e-02 2.423270940780639648e-01 6.175227761268615723e-01
-1.019103825092315674e-01 2.274350821971893311e-01 4.806097149848937988e-01
-3.532933890819549561e-01 2.273635566234588623e-01 5.668978691101074219e-01
-1.739067435264587402e-01 2.352076917886734009e-01 5.408055186271667480e-01
-4.359824955463409424e-01 2.206870168447494507e-01 5.937338471412658691e-01
9.140446782112121582e-02 2.378603518009185791e-01 7.399747967720031738e-01
-3.611609339714050293e-01 1.729720830917358398e-01 7.321861982345581055e-01
-4.067547321319580078e-01 2.222870439291000366e-01 7.445168495178222656e-01
4.080567359924316406e-01 2.193626612424850464e-01 6.930547952651977539e-01
4.337919950485229492e-01 2.119071036577224731e-01 5.759481191635131836e-01
-4.862300157546997070e-01 1.860332936048507690e-01 6.834731698036193848e-01
1.830263733863830566e-01 1.793663352727890015e-01 8.164396286010742188e-01
-4.106949567794799805e-01 1.833375990390777588e-01 5.620902776718139648e-01
2.679953575134277344e-01 1.729417741298675537e-01 7.461204528808593750e-01
2.365364730358123779e-01 1.855645328760147095e-01 4.799175858497619629e-01
-4.033254683017730713e-01 2.275482267141342163e-01 6.333988904953002930e-01
2.937739193439483643e-01 1.699255704879760742e-01 6.241654157638549805e-01
1.839247047901153564e-01 2.336759716272354126e-01 7.495318055152893066e-01
-1.381749100983142853e-02 1.625191867351531982e-01 7.419900298118591309e-01
3.144155442714691162e-01 2.313562482595443726e-01 6.066268086433410645e-01
-3.277511894702911377e-01 1.915496885776519775e-01 4.930316209793090820e-01
8.346959948539733887e-03 1.671158075332641602e-01 5.306364297866821289e-01
-3.948152661323547363e-01 2.264424115419387817e-01 7.179720401763916016e-01
-9.429475665092468262e-02 2.269313931465148926e-01 8.240795135498046875e-01
-2.245189994573593140e-01 1.643248200416564941e-01 7.191139459609985352e-01
-3.776128888130187988e-01 1.854312270879745483e-01 7.971704006195068359e-01
-2.306136786937713623e-01 2.338719964027404785e-01 5.499935746192932129e-01
3.670667856931686401e-02 1.614757180213928223e-01 7.187944650650024414e-01
-1.213976144790649414e-01 2.381890267133712769e-01 5.553531050682067871e-01
1.274134814739227295e-01 2.121465057134628296e-01 4.432617425918579102e-01
-6.785587966442108154e-02 2.187109440565109253e-01 4.496364593505859375e-01
-1.084394454956054688e-01 2.423892319202423096e-01 6.432148814201354980e-01
2.239470481872558594e-01 1.735025644302368164e-01 7.737710475921630859e-01
-1.830759644508361816e-02 1.699344813823699951e-01 8.055427074432373047e-01
-7.965923845767974854e-02 2.327255904674530029e-01 7.942605018615722656e-01
-1.242320984601974487e-01 2.220329344272613525e-01 8.406641483306884766e-01
-2.986189424991607666e-01 1.670493930578231812e-01 6.261898279190063477e-01
-6.295479834079742432e-02 2.426701635122299194e-01 6.715922951698303223e-01
-2.363734692335128784e-01 1.661394238471984863e-01 5.880005955696105957e-01
3.415402173995971680e-01 1.912262737751007080e-01 7.857344150543212891e-01
-5.145034790039062500e-01 1.995827406644821167e-01 6.987307667732238770e-01
-6.537997722625732422e-02 1.661691814661026001e-01 7.795778512954711914e-01
-1.914965808391571045e-01 2.336239665746688843e-01 7.709175944328308105e-01
1.451068669557571411e-01 1.717929840087890625e-01 5.163615345954895020e-01
9.810189902782440186e-02 1.695237308740615845e-01 7.886613607406616211e-01
-2.048011869192123413e-01 1.859670579433441162e-01 4.686107039451599121e-01
-1.767249405384063721e-01 1.621763855218887329e-01 6.218470931053161621e-01
-2.305769920349121094e-01 1.632794439792633057e-01 6.466221809387207031e-01
-8.457735180854797363e-02 2.404205054044723511e-01 7.211660146713256836e-01
-3.384064733982086182e-01 1.691956520080566406e-01 6.958970427513122559e-01
-1.502147763967514038e-01 1.652914136648178101e-01 5.629626512527465820e-01
-4.267492145299911499e-02 2.412573993206024170e-01 5.830678343772888184e-01
3.151379823684692383e-01 1.979807019233703613e-01 4.842000007629394531e-01
-9.142336249351501465e-02 2.355295419692993164e-01 5.254873037338256836e-01
4.083816707134246826e-01 1.897914260625839233e-01 5.564947128295898438e-01
-4.334332346916198730e-01 1.785044521093368530e-01 7.058250308036804199e-01
-4.084931015968322754e-01 1.785718202590942383e-01 5.914882421493530273e-01
-4.371804296970367432e-01 1.813791841268539429e-01 7.324581742286682129e-01
-2.392876595258712769e-01 1.635427474975585938e-01 6.769160032272338867e-01
3.572346270084381104e-02 2.341614067554473877e-01 7.819247245788574219e-01
1.735395640134811401e-01 1.720404624938964844e-01 5.221277475357055664e-01
-2.558770775794982910e-02 2.379793822765350342e-01 7.541866302490234375e-01
1.657593250274658203e-01 2.284764498472213745e-01 4.973220527172088623e-01
-2.393631041049957275e-01 2.267074286937713623e-01 5.067839622497558594e-01
1.589323133230209351e-01 1.840971410274505615e-01 4.660645127296447754e-01
2.554473578929901123e-01 2.265879809856414795e-01 7.686475515365600586e-01
-1.809443831443786621e-01 2.367151975631713867e-01 7.452557086944580078e-01
-1.511124670505523682e-01 2.371184527873992920e-01 7.493197321891784668e-01
-8.662804961204528809e-02 1.755692511796951294e-01 4.850176572799682617e-01
-1.072780191898345947e-01 1.820460408926010132e-01 4.635631740093231201e-01
-8.594107627868652344e-02 1.675824522972106934e-01 7.894192934036254883e-01
-7.388316094875335693e-02 1.623485088348388672e-01 7.388826012611389160e-01
1.036285609006881714e-01 2.416284233331680298e-01 6.276418566703796387e-01
3.398131430149078369e-01 1.733803153038024902e-01 6.365422606468200684e-01
1.821825951337814331e-01 1.644566953182220459e-01 6.993827223777770996e-01
3.769150674343109131e-01 2.208377122879028320e-01 7.211282253265380859e-01
9.824632108211517334e-02 2.191274613142013550e-01 8.417842388153076172e-01
-1.761163175106048584e-01 1.614970266819000244e-01 6.484197974205017090e-01
2.614561319351196289e-01 2.237247973680496216e-01 5.044181346893310547e-01
2.908086180686950684e-01 2.128503024578094482e-01 -1.245046555995941162e-01
9.428967535495758057e-02 2.215705960988998413e-01 -1.226546168327331543e-01
-9.115530550479888916e-02 1.758216172456741333e-01 2.139704078435897827e-01
-3.654121756553649902e-01 1.799720972776412964e-01 1.710975021123886108e-01
1.865143477916717529e-01 1.894159018993377686e-01 2.855401039123535156e-01
2.317931354045867920e-01 1.837582737207412720e-01 5.243124067783355713e-02
2.708739042282104492e-01 2.200896441936492920e-01 3.863862156867980957e-02
3.372751176357269287e-02 1.779657304286956787e-01 2.119576334953308105e-01
-2.236555367708206177e-01 1.759787350893020630e-01 1.882195621728897095e-01
-3.322098553180694580e-01 1.784399300813674927e-01 1.998937427997589111e-01
-2.661924958229064941e-01 1.767192780971527100e-01 2.053812593221664429e-01
1.973563432693481445e-02 1.858599781990051270e-01 3.898934721946716309e-01
1.762648820877075195e-01 1.918523758649826050e-01 3.230261206626892090e-01
1.739968657493591309e-01 1.855796873569488525e-01 -1.440267860889434814e-01
-7.374295592308044434e-02 1.818924695253372192e-01 3.829494714736938477e-01
-2.241325378417968750e-01 2.291850149631500244e-01 1.349608898162841797e-01
-1.192437335848808289e-01 2.090365588665008545e-01 -1.986879706382751465e-01
-4.050812125205993652e-01 2.201911062002182007e-01 1.045475453138351440e-01
-4.049132466316223145e-01 1.906628012657165527e-01 5.094323158264160156e-01
-1.294771879911422729e-01 1.769736260175704956e-01 1.139046251773834229e-02
7.912904024124145508e-02 2.173039466142654419e-01 4.158167243003845215e-01
-3.628740608692169189e-01 1.873118728399276733e-01 -2.420544624328613281e-03
3.224287033081054688e-01 1.913789361715316772e-01 2.060994505882263184e-03
-4.113048911094665527e-01 1.895843744277954102e-01 2.782413363456726074e-02
2.430015504360198975e-01 1.844866275787353516e-01 -4.747897386550903320e-03
-3.062130212783813477e-01 2.271246612071990967e-01 1.500160545110702515e-01
-3.983681201934814453e-01 2.142016887664794922e-01 1.840719580650329590e-02
-1.839249432086944580e-01 1.817963421344757080e-01 4.146711826324462891e-01
-1.983412504196166992e-01 1.796781122684478760e-01 -2.350601553916931152e-02
2.560415267944335938e-01 1.875413060188293457e-01 1.442219167947769165e-01
-4.404127299785614014e-01 1.959510892629623413e-01 1.903124153614044189e-02
1.795563101768493652e-01 2.121739685535430908e-01 -2.046431303024291992e-01
6.288278102874755859e-02 1.880567222833633423e-01 3.857620656490325928e-01
-2.861706018447875977e-01 1.776742190122604370e-01 2.754856944084167480e-01
-1.920315027236938477e-01 1.774032413959503174e-01 3.361257910728454590e-02
1.861267983913421631e-01 2.229305207729339600e-01 2.211040258407592773e-01
-1.311818510293960571e-01 2.068815380334854126e-01 5.643562078475952148e-01
2.889254689216613770e-02 1.995772868394851685e-01 -2.505990266799926758e-01
-2.052963674068450928e-01 2.244101166725158691e-01 -1.123335957527160645e-02
4.325920343399047852e-02 2.184838950634002686e-01 4.320950210094451904e-01
2.436235249042510986e-01 2.220364511013031006e-01 5.677306652069091797e-02
-3.936099410057067871e-01 1.877876222133636475e-01 4.793053269386291504e-01
4.163339734077453613e-02 2.296855896711349487e-01 1.258791536092758179e-01
-7.030034065246582031e-02 2.253943681716918945e-01 4.131055772304534912e-01
3.344690501689910889e-01 1.932503730058670044e-01 3.084200620651245117e-02
-3.434752523899078369e-01 1.813066899776458740e-01 3.777841925621032715e-01
-1.045267060399055481e-01 2.275839149951934814e-01 3.832738995552062988e-01
-4.354907274246215820e-01 2.140205055475234985e-01 6.000287830829620361e-02
-5.330169796943664551e-01 2.156690508127212524e-01 3.217676579952239990e-01
2.783213555812835693e-02 1.767038851976394653e-01 3.353238105773925781e-02
-4.248809218406677246e-01 1.835718452930450439e-01 3.634621798992156982e-01
-4.399643540382385254e-01 1.832742542028427124e-01 3.112923204898834229e-01
-6.757757067680358887e-02 2.306226640939712524e-01 2.504586875438690186e-01
-4.703985750675201416e-01 2.201361805200576782e-01 4.018925726413726807e-01
2.376167476177215576e-02 2.219810187816619873e-01 4.089267849922180176e-01
6.835466623306274414e-02 1.890570670366287231e-01 -2.106185853481292725e-01
2.604303956031799316e-01 2.066767066717147827e-01 2.823550999164581299e-01
-2.645959258079528809e-01 2.295120656490325928e-01 2.679878473281860352e-01
2.648802995681762695e-01 2.204733788967132568e-01 8.296980708837509155e-02
-2.106127440929412842e-01 2.281281352043151855e-01 8.098109066486358643e-02
1.246970891952514648e-01 1.803542524576187134e-01 1.790292263031005859e-01
-2.423452883958816528e-01 1.766594946384429932e-01 1.233068704605102539e-01
2.619644999504089355e-02 2.253987491130828857e-01 -6.157188117504119873e-02
2.528738677501678467e-01 2.010730206966400146e-01 -2.110188007354736328e-01
7.504595816135406494e-02 1.810750216245651245e-01 2.635862529277801514e-01
-1.273308247327804565e-01 1.868530660867691040e-01 -1.567333340644836426e-01
9.453162550926208496e-03 1.876480877399444580e-01 4.173388481140136719e-01
1.425171196460723877e-01 1.796506047248840332e-01 9.770216047763824463e-02
-2.531366348266601562e-01 2.237807810306549072e-01 1.065120100975036621e-02
-3.750402480363845825e-02 2.210899740457534790e-01 -1.272892355918884277e-01
5.448791384696960449e-02 2.290783077478408813e-01 7.840847969055175781e-02
8.153167366981506348e-02 2.278475165367126465e-01 3.201223909854888916e-02
1.706377565860748291e-01 1.850945651531219482e-01 2.383693754673004150e-01
1.209580004215240479e-01 1.903518140316009521e-01 -2.150367796421051025e-01
-1.356026530265808105e-01 2.303142398595809937e-01 1.201353371143341064e-01
1.185120195150375366e-01 2.243224084377288818e-01 2.865325212478637695e-01
-5.263694748282432556e-02 1.862001419067382812e-01 -1.740076541900634766e-01
-3.570527434349060059e-01 1.864665746688842773e-01 4.751988947391510010e-01
1.918964087963104248e-02 1.785929054021835327e-01 2.492027431726455688e-01
1.646086871623992920e-01 2.224123775959014893e-01 -7.872889935970306396e-02
-1.294830590486526489e-01 2.151538580656051636e-01 -1.590816974639892578e-01
-1.003974825143814087e-01 1.762209236621856689e-01 3.132955729961395264e-02
1.552491486072540283e-01 2.256641834974288940e-01 1.591753959655761719e-02
-1.925449371337890625e-01 2.207282930612564087e-01 5.113567709922790527e-01
-1.798039674758911133e-02 1.851283609867095947e-01 4.034087061882019043e-01
-3.362372517585754395e-01 2.243499904870986938e-01 1.031766980886459351e-01
3.338171839714050293e-01 2.118896842002868652e-01 1.006923615932464600e-01
-4.501999020576477051e-01 2.224197238683700562e-01 3.408890366554260254e-01
7.999494671821594238e-03 2.098271250724792480e-01 -2.283376157283782959e-01
-2.096465826034545898e-01 1.909671574831008911e-01 -1.474903821945190430e-01
-2.676227688789367676e-01 2.254552096128463745e-01 4.437724053859710693e-01
3.341922163963317871e-02 2.132529765367507935e-01 -2.118256390094757080e-01
-1.366898417472839355e-01 2.226178199052810669e-01 -7.589752972126007080e-02
-3.614794015884399414e-01 2.262358516454696655e-01 2.146842181682586670e-01
-4.631842374801635742e-01 1.849059462547302246e-01 3.340110182762145996e-01
-1.660496741533279419e-02 1.780530214309692383e-01 2.617402076721191406e-01
-2.324874103069305420e-01 2.217486053705215454e-01 -3.667056560516357422e-02
-1.241889372467994690e-01 2.310919016599655151e-01 1.982232481241226196e-01
-4.162212461233139038e-02 2.246974408626556396e-01 4.104305505752563477e-01
-2.791653573513031006e-02 1.786549091339111328e-01 2.878634929656982422e-01
-3.998541831970214844e-01 1.816199421882629395e-01 1.731814742088317871e-01
-3.191805630922317505e-02 2.302153855562210083e-01 2.485000491142272949e-01
-5.728534460067749023e-01 2.015493959188461304e-01 2.487988770008087158e-01
-3.421812057495117188e-01 1.884788870811462402e-01 5.052255392074584961e-01
-3.623426854610443115e-01 2.192162275314331055e-01 5.163272619247436523e-01
-2.689661383628845215e-01 2.208619415760040283e-01 5.147229433059692383e-01
2.790929675102233887e-01 2.163636982440948486e-01 -8.527401089668273926e-02
2.975057065486907959e-02 1.809059083461761475e-01 -1.100515127182006836e-01
2.539737820625305176e-01 2.199099659919738770e-01 -3.853818774223327637e-02
-3.199712187051773071e-02 1.807769536972045898e-01 3.405887484550476074e-01
3.510929644107818604e-02 1.869522184133529663e-01 -1.925758719444274902e-01
6.097702682018280029e-02 1.806476414203643799e-01 -9.915882349014282227e-02
-3.067565262317657471e-01 1.848128587007522583e-01 4.632968902587890625e-01
-5.426285266876220703e-01 1.933591365814208984e-01 3.970479369163513184e-01
-4.535116851329803467e-01 1.861357539892196655e-01 3.997360169887542725e-01
-1.052037551999092102e-01 1.791388690471649170e-01 -5.758558213710784912e-02
1.833230257034301758e-02 2.300809025764465332e-01 1.780814230442047119e-01
-3.349474668502807617e-01 2.227104604244232178e-01 4.764470458030700684e-01
-5.689827725291252136e-02 2.124208658933639526e-01 -2.014750242233276367e-01
1.223216354846954346e-01 2.275223433971405029e-01 7.863619178533554077e-02
1.202343851327896118e-01 1.843410134315490723e-01 2.841784954071044922e-01
-2.592112123966217041e-01 1.781284362077713013e-01 7.047746330499649048e-02
-1.231799572706222534e-01 1.754022091627120972e-01 9.449896961450576782e-02
2.671293616294860840e-01 2.199413031339645386e-01 -1.493245363235473633e-04
1.541461050510406494e-01 1.885747909545898438e-01 -1.913771331310272217e-01
3.658912181854248047e-01 2.047908902168273926e-01 2.574335038661956787e-02
-1.377627551555633545e-01 2.274060249328613281e-01 3.975401520729064941e-01
1.960624754428863525e-01 2.215080410242080688e-01 -7.424202561378479004e-02
1.623308658599853516e-01 2.180165499448776245e-01 3.334669172763824463e-01
3.267879188060760498e-01 1.932892799377441406e-01 7.819864898920059204e-02
1.213099211454391479e-01 1.791573613882064819e-01 1.258228421211242676e-01
2.049911916255950928e-01 2.242664545774459839e-01 8.160639554262161255e-02
-9.757269173860549927e-02 1.861282289028167725e-01 -1.608024239540100098e-01
-2.703489661216735840e-01 2.293378412723541260e-01 2.285558432340621948e-01
-1.554888486862182617e-01 2.309605628252029419e-01 2.076536267995834351e-01
9.546782076358795166e-02 1.864957064390182495e-01 -1.840956211090087891e-01
-2.930610626935958862e-02 1.833439618349075317e-01 -1.464452743530273438e-01
-2.568686753511428833e-02 1.758888214826583862e-01 1.626852005720138550e-01
-4.440463334321975708e-02 1.932349950075149536e-01 -2.226758301258087158e-01
2.936532497406005859e-01 1.882853507995605469e-01 8.277356624603271484e-03
1.367829293012619019e-01 1.801032721996307373e-01 -3.196322917938232422e-02
2.385427951812744141e-01 1.850166916847229004e-01 -5.537389218807220459e-02
-1.965710222721099854e-01 1.855655759572982788e-01 4.732354581356048584e-01
2.114276289939880371e-01 2.066445499658584595e-01 -2.226496338844299316e-01
-5.077348947525024414e-01 1.878141760826110840e-01 2.870057225227355957e-01
-4.354808926582336426e-01 1.853363215923309326e-01 1.270511746406555176e-01
-9.678240865468978882e-02 1.803259998559951782e-01 3.630387187004089355e-01
-4.012660980224609375e-01 1.930883377790451050e-01 -1.074294745922088623e-02
2.750475406646728516e-01 1.898723393678665161e-01 -1.166335046291351318e-01
1.534042060375213623e-01 1.811192780733108521e-01 1.568139344453811646e-01
-8.738765120506286621e-02 1.828544139862060547e-01 -1.268459558486938477e-01
-3.081118464469909668e-01 1.777739077806472778e-01 1.840486228466033936e-01
4.639093577861785889e-02 1.831508874893188477e-01 -1.469908952713012695e-01
1.263634264469146729e-01 2.259705364704132080e-01 -6.958648562431335449e-03
-1.572811007499694824e-01 1.757075339555740356e-01 9.037418663501739502e-02
-4.091891348361968994e-01 2.238647043704986572e-01 2.134800255298614502e-01
-3.727005124092102051e-01 1.798382103443145752e-01 2.197733223438262939e-01
1.017037332057952881e-01 1.781196594238281250e-01 8.082484453916549683e-02
3.842322528362274170e-02 1.772552132606506348e-01 5.377978086471557617e-03
-3.362503647804260254e-01 1.812862455844879150e-01 6.855627894401550293e-02
-7.220903038978576660e-02 1.766458153724670410e-01 6.523594260215759277e-03
9.646478295326232910e-02 1.839767992496490479e-01 3.016577959060668945e-01
-3.622204065322875977e-03 2.170490920543670654e-01 -1.773906052112579346e-01
-2.727921903133392334e-01 2.205114513635635376e-01 -2.525606751441955566e-02
-4.866258800029754639e-01 1.882180273532867432e-01 4.008965492248535156e-01
1.758776009082794189e-01 2.199678122997283936e-01 -1.189148724079132080e-01
-1.972925961017608643e-01 2.283223867416381836e-01 3.803434371948242188e-01
-5.857252702116966248e-02 1.753956228494644165e-01 9.536109864711761475e-02
-9.670295566320419312e-02 1.845475733280181885e-01 4.330206215381622314e-01
7.382014393806457520e-02 2.247667312622070312e-01 -6.778155267238616943e-02
-4.946582913398742676e-01 1.963829100131988525e-01 5.047625899314880371e-01
-4.024559855461120605e-01 1.939261257648468018e-01 5.396014451980590820e-01
-3.229981660842895508e-01 1.797902882099151611e-01 9.446506947278976440e-02
-3.710899651050567627e-01 1.913588792085647583e-01 5.278950929641723633e-01
2.065883874893188477e-01 2.234081178903579712e-01 1.585375070571899414e-01
2.094570398330688477e-01 2.143169790506362915e-01 3.127688765525817871e-01
-7.678940892219543457e-02 2.194319814443588257e-01 4.897283911705017090e-01
-1.795541644096374512e-01 1.898148059844970703e-01 5.147427320480346680e-01
-2.904037237167358398e-01 1.894358992576599121e-01 5.216872692108154297e-01
-2.636933028697967529e-01 1.776258796453475952e-01 2.934615015983581543e-01
-2.469181865453720093e-01 1.930521428585052490e-01 -1.363791525363922119e-01
-2.754750847816467285e-01 1.922814846038818359e-01 -1.140516996383666992e-01
-8.492163568735122681e-02 1.756774038076400757e-01 5.963015556335449219e-02
-2.862274646759033203e-01 1.800420731306076050e-01 4.133491218090057373e-02
-1.661278307437896729e-01 2.263182103633880615e-01 4.267126619815826416e-01
-1.195953786373138428e-01 2.240636199712753296e-01 4.531212449073791504e-01
3.188887536525726318e-01 1.933091431856155396e-01 -9.338653087615966797e-02
9.680928289890289307e-02 2.236069142818450928e-01 -8.585301041603088379e-02
-2.125190794467926025e-01 1.878391206264495850e-01 5.017071962356567383e-01
-2.138933539390563965e-01 2.272716760635375977e-01 4.087525010108947754e-01
2.141611278057098389e-02 2.206632643938064575e-01 -1.401768028736114502e-01
3.027361631393432617e-01 1.894202679395675659e-01 -2.853104472160339355e-02
-1.592147052288055420e-01 1.755088865756988525e-01 2.013563662767410278e-01
8.920001983642578125e-02 1.856577098369598389e-01 3.346999883651733398e-01
7.623009383678436279e-02 2.287337034940719604e-01 1.803651452064514160e-01
-2.840543687343597412e-01 1.793161183595657349e-01 3.499249219894409180e-01
-1.781565845012664795e-01 1.754711866378784180e-01 1.489118039608001709e-01
3.143623769283294678e-01 1.908222436904907227e-01 5.023750662803649902e-02
-2.541493177413940430e-01 2.290950119495391846e-01 1.690692603588104248e-01
8.213755488395690918e-02 2.261747419834136963e-01 -2.942575514316558838e-02
-1.985012143850326538e-01 1.802184879779815674e-01 3.851003944873809814e-01
-5.076351761817932129e-02 2.183547317981719971e-01 -1.557648777961730957e-01
9.270952641963958740e-02 2.278212010860443115e-01 2.085991203784942627e-01
-3.947289288043975830e-01 2.251617312431335449e-01 3.422887921333312988e-01
-4.260147362947463989e-02 2.263942509889602661e-01 -3.689715266227722168e-02
-3.369478583335876465e-01 2.276280820369720459e-01 2.806607186794281006e-01
-2.950817942619323730e-01 1.789374053478240967e-01 8.529897779226303101e-02
-5.416779518127441406e-01 2.138015627861022949e-01 2.744210362434387207e-01
1.667986214160919189e-01 2.259804606437683105e-01 7.690457254648208618e-02
9.823752939701080322e-02 1.780358105897903442e-01 4.905672371387481689e-02
-1.005265116691589355e-02 1.791132539510726929e-01 -7.317560911178588867e-02
-4.008227884769439697e-01 2.201612591743469238e-01 4.848830997943878174e-01
-1.316655427217483521e-02 1.987614333629608154e-01 -2.437070310115814209e-01
-1.748131513595581055e-01 1.790678054094314575e-01 3.555541634559631348e-01
3.239727914333343506e-01 1.963366270065307617e-01 -1.216005384922027588e-01
2.899490296840667725e-01 2.174392640590667725e-01 -3.455039858818054199e-02
9.059405326843261719e-02 2.069389671087265015e-01 -2.446845173835754395e-01
-4.516815543174743652e-01 2.028663903474807739e-01 5.583288669586181641e-01
3.071221411228179932e-01 2.117868512868881226e-01 1.786854863166809082e-01
2.181671559810638428e-03 2.269707471132278442e-01 3.389403223991394043e-01
-3.420161008834838867e-01 2.097185999155044556e-01 -6.547421216964721680e-02
-2.505904436111450195e-01 1.768047511577606201e-01 2.532408833503723145e-01
-3.627829551696777344e-01 2.264177203178405762e-01 3.379902839660644531e-01
-2.655317187309265137e-01 2.256848961114883423e-01 6.041669845581054688e-02
1.504053771495819092e-01 1.936866641044616699e-01 -2.298078238964080811e-01
-3.032882511615753174e-02 1.869407296180725098e-01 4.321127235889434814e-01
-5.211967229843139648e-01 1.923431307077407837e-01 4.266544878482818604e-01
1.496715098619461060e-02 2.279602885246276855e-01 3.018304407596588135e-01
-1.162827908992767334e-01 2.193134576082229614e-01 5.056321620941162109e-01
-2.266212552785873413e-01 1.811029016971588135e-01 -3.247103095054626465e-02
-2.300389558076858521e-01 1.776864975690841675e-01 5.602926760911941528e-02
-4.440280050039291382e-02 2.286878079175949097e-01 2.566008269786834717e-02
2.594728767871856689e-01 1.910813748836517334e-01 -1.532770097255706787e-01
-3.575497269630432129e-01 2.268893271684646606e-01 3.010287880897521973e-01
-5.175852775573730469e-01 2.161386460065841675e-01 4.079222083091735840e-01
1.990566849708557129e-01 1.820280700922012329e-01 1.166805624961853027e-03
-1.061872243881225586e-01 2.310526072978973389e-01 2.256737798452377319e-01
-8.896649628877639771e-02 1.770895421504974365e-01 2.728576958179473877e-01
-3.426209390163421631e-01 2.179915606975555420e-01 2.016127109527587891e-03
-3.067106008529663086e-01 1.776951998472213745e-01 2.292565852403640747e-01
-3.414339572191238403e-02 1.755417883396148682e-01 1.220737770199775696e-01
-2.134379595518112183e-01 2.137380093336105347e-01 5.657576322555541992e-01
-3.176725506782531738e-01 2.184294015169143677e-01 -1.519249379634857178e-02
-3.642686009407043457e-01 1.832558214664459229e-01 6.030888855457305908e-02
-3.883648514747619629e-01 1.804551035165786743e-01 2.523699700832366943e-01
-1.108955591917037964e-02 1.774481981992721558e-01 -2.403727173805236816e-02
-3.154692649841308594e-01 1.870453357696533203e-01 4.929318726062774658e-01
-1.345816105604171753e-01 1.829995363950729370e-01 -1.119856536388397217e-01
1.972340047359466553e-03 2.291351258754730225e-01 4.661359637975692749e-02
2.215063869953155518e-01 1.917051225900650024e-01 -1.891783475875854492e-01
-3.763265013694763184e-01 2.155516296625137329e-01 5.470906496047973633e-01
-1.293109357357025146e-01 1.756973862648010254e-01 2.190077155828475952e-01
2.380235493183135986e-01 2.220457792282104492e-01 1.682783663272857666e-02
1.372112780809402466e-01 1.792481243610382080e-01 5.488174408674240112e-02
-2.651467919349670410e-02 1.763111799955368042e-01 1.956143826246261597e-01
3.576816618442535400e-01 2.049836218357086182e-01 -6.779450178146362305e-02
-4.764136373996734619e-01 2.180946767330169678e-01 1.855312883853912354e-01
-2.071467787027359009e-02 2.247072756290435791e-01 -7.411283254623413086e-02
1.123288571834564209e-01 2.279569804668426514e-01 1.052507311105728149e-01
-1.835959255695343018e-01 1.759459674358367920e-01 2.335497736930847168e-01
-3.778049349784851074e-01 1.974094808101654053e-01 -5.141828954219818115e-02
-1.608911156654357910e-01 2.309023588895797729e-01 2.369911074638366699e-01
-6.575074791908264160e-02 1.917716860771179199e-01 4.930374026298522949e-01
-5.051485300064086914e-01 2.153789252042770386e-01 1.939198225736618042e-01
-3.003492951393127441e-01 1.999699920415878296e-01 5.849118828773498535e-01
-3.057413101196289062e-01 2.248912900686264038e-01 4.451913833618164062e-01
-1.018796414136886597e-01 1.774777323007583618e-01 -1.573176681995391846e-02
-4.568361043930053711e-01 1.843414604663848877e-01 2.208088636398315430e-01
-1.567807793617248535e-01 2.211588174104690552e-01 4.996178746223449707e-01
-1.572110205888748169e-01 1.796044260263442993e-01 -4.558801651000976562e-02
-2.204795330762863159e-01 2.260847091674804688e-01 3.310996294021606445e-02
2.847127020359039307e-01 2.172552794218063354e-01 1.454866081476211548e-01
-1.989048719406127930e-02 2.295127213001251221e-01 2.754459083080291748e-01
1.047799736261367798e-02 2.298389822244644165e-01 9.133537858724594116e-02
-2.528816461563110352e-02 1.757887899875640869e-01 6.715966761112213135e-02
-1.725933551788330078e-01 2.249553799629211426e-01 -2.017064392566680908e-02
-4.346042275428771973e-01 1.840899288654327393e-01 1.601472645998001099e-01
-4.761747717857360840e-01 1.853588968515396118e-01 2.565325498580932617e-01
-1.141289547085762024e-01 2.250785231590270996e-01 -4.444141685962677002e-02
-7.835776358842849731e-02 2.252671718597412109e-01 -5.246891081333160400e-02
2.534846961498260498e-01 1.866296231746673584e-01 -7.914240658283233643e-02
1.448741257190704346e-01 2.208825498819351196e-01 -1.185844540596008301e-01
-4.860453009605407715e-01 1.869611740112304688e-01 3.621375560760498047e-01
-1.712604761123657227e-01 1.764037311077117920e-01 2.637557983398437500e-01
3.045786917209625244e-01 2.171206772327423096e-01 2.951397001743316650e-02
-3.469773530960083008e-01 2.145226895809173584e-01 -2.902974188327789307e-02
-1.632309257984161377e-01 1.864305436611175537e-01 4.770164489746093750e-01
-1.507085859775543213e-01 2.295886874198913574e-01 3.345696926116943359e-01
-8.457626402378082275e-02 2.303062379360198975e-01 1.003150865435600281e-01
-7.362870872020721436e-02 2.310494333505630493e-01 1.892273426055908203e-01
-2.078236937522888184e-01 1.824854463338851929e-01 4.296377897262573242e-01
-3.183560371398925781e-01 1.782839596271514893e-01 2.692347168922424316e-01
-1.643208563327789307e-01 2.275715917348861694e-01 3.351406753063201904e-02
-5.220029354095458984e-01 1.892145425081253052e-01 3.131536245346069336e-01
-2.411331236362457275e-02 2.133418023586273193e-01 5.045243501663208008e-01
3.284948468208312988e-01 2.106623500585556030e-01 1.369022578001022339e-01
-5.367625951766967773e-01 2.120375186204910278e-01 4.447270333766937256e-01
5.122800171375274658e-02 2.258235663175582886e-01 -4.847942292690277100e-02
2.405296266078948975e-01 2.211970239877700806e-01 1.519977301359176636e-01
-2.275180071592330933e-01 2.281682193279266357e-01 3.815454840660095215e-01
-7.512465119361877441e-02 2.157242149114608765e-01 -1.732391417026519775e-01
-2.807447314262390137e-01 2.280829548835754395e-01 3.614180684089660645e-01
-5.179102420806884766e-01 1.897473484277725220e-01 3.707598447799682617e-01
-4.187345504760742188e-01 2.242686003446578979e-01 3.137811422348022461e-01
-5.484597384929656982e-02 1.756180822849273682e-01 1.714452505111694336e-01
-2.084561586380004883e-01 1.759407967329025269e-01 2.164817452430725098e-01
1.928398907184600830e-01 1.849218904972076416e-01 2.022982835769653320e-01
1.238782256841659546e-01 2.248914241790771484e-01 -4.365110397338867188e-02
6.292344629764556885e-02 1.791696697473526001e-01 -5.954053997993469238e-02
6.117543578147888184e-02 1.775789260864257812e-01 1.528171300888061523e-01
-1.410381644964218140e-01 1.920909434556961060e-01 5.227981805801391602e-01
-1.369751542806625366e-01 2.262119948863983154e-01 -1.252895593643188477e-02
1.262078434228897095e-02 2.297386676073074341e-01 2.266358882188796997e-01
-7.695091515779495239e-02 1.781102120876312256e-01 -4.063227772712707520e-02
-3.570321202278137207e-01 2.234402000904083252e-01 4.518081247806549072e-01
-3.508746922016143799e-01 2.269857972860336304e-01 2.414723485708236694e-01
5.204953253269195557e-02 2.283935844898223877e-01 3.538559377193450928e-02
-2.442180663347244263e-01 1.779600828886032104e-01 3.175435662269592285e-01
2.326326668262481689e-01 2.177175730466842651e-01 -1.158315241336822510e-01
-3.981534838676452637e-01 2.230589240789413452e-01 1.601556092500686646e-01
-9.318098425865173340e-03 2.305058687925338745e-01 1.500891596078872681e-01
-5.250089764595031738e-01 2.065045386552810669e-01 5.013002753257751465e-01
-3.388669490814208984e-01 1.829965710639953613e-01 3.448644280433654785e-02
-4.094591438770294189e-01 1.855188459157943726e-01 7.984244078397750854e-02
-2.546555101871490479e-01 1.830238252878189087e-01 -4.350526630878448486e-02
-3.784982264041900635e-01 2.259415537118911743e-01 2.509346604347229004e-01
-2.038561552762985229e-02 1.807868778705596924e-01 -1.079274415969848633e-01
-1.900451183319091797e-01 1.764840036630630493e-01 7.033931463956832886e-02
-1.131997257471084595e-02 2.281246185302734375e-01 6.808444857597351074e-03
-1.155039742588996887e-01 2.277075648307800293e-01 1.406168937683105469e-02
-4.749279022216796875e-01 2.206355333328247070e-01 2.750885188579559326e-01
-9.325317293405532837e-02 1.963678002357482910e-01 -2.191055715084075928e-01
2.220145761966705322e-01 1.834264397621154785e-01 8.020469546318054199e-02
-4.702726602554321289e-01 1.967821419239044189e-01 5.381408333778381348e-02
-9.298793971538543701e-02 2.310071140527725220e-01 1.624143421649932861e-01
-1.585974544286727905e-01 1.754095554351806641e-01 1.236244961619377136e-01
-4.537749290466308594e-01 1.900454014539718628e-01 8.013485372066497803e-02
-5.336707234382629395e-01 2.048819214105606079e-01 1.492135971784591675e-01
-2.799378633499145508e-01 1.867816001176834106e-01 -7.031403481960296631e-02
1.658078432083129883e-01 2.257174849510192871e-01 1.526090055704116821e-01
-8.798103779554367065e-02 1.753756850957870483e-01 8.760263025760650635e-02
1.333308517932891846e-01 1.925544142723083496e-01 3.706946969032287598e-01
-9.774550795555114746e-02 1.805826723575592041e-01 -8.852183818817138672e-02
-2.422713041305541992e-01 1.874898374080657959e-01 5.009497404098510742e-01
-3.148589134216308594e-01 1.910519897937774658e-01 -7.785056531429290771e-02
-3.303999900817871094e-01 2.268561720848083496e-01 3.695524334907531738e-01
-3.711196780204772949e-02 2.294255048036575317e-01 5.343171954154968262e-02
1.851365864276885986e-01 2.096869796514511108e-01 3.636544942855834961e-01
1.876787841320037842e-02 1.762232184410095215e-01 9.916588664054870605e-02
-7.806694507598876953e-02 1.765530854463577271e-01 2.458679676055908203e-01
2.139433324337005615e-01 2.202487736940383911e-01 2.339843213558197021e-01
1.350783705711364746e-01 2.085989564657211304e-01 4.130195379257202148e-01
6.808744370937347412e-02 2.222635596990585327e-01 3.719325959682464600e-01
-4.760783910751342773e-01 1.978191286325454712e-01 5.281339883804321289e-01
-5.943089723587036133e-03 1.843529790639877319e-01 -1.621232926845550537e-01
1.426436007022857666e-01 1.797787100076675415e-01 -7.553845643997192383e-04
-4.343036711215972900e-01 2.180726379156112671e-01 4.920521080493927002e-01
-1.207636371254920959e-01 2.297200709581375122e-01 8.297565579414367676e-02
9.029583632946014404e-02 2.286072075366973877e-01 1.278410553932189941e-01
2.583082020282745361e-02 1.820156127214431763e-01 3.262605369091033936e-01
-5.480105876922607422e-01 1.923879981040954590e-01 3.327461481094360352e-01
8.868646621704101562e-02 2.090563029050827026e-01 4.487004280090332031e-01
-4.714581072330474854e-01 2.176755219697952271e-01 4.612995386123657227e-01
-4.939072579145431519e-02 2.309056818485260010e-01 1.698461323976516724e-01
1.620974838733673096e-01 2.207530140876770020e-01 2.991067767143249512e-01
2.427097260951995850e-01 2.199518531560897827e-01 1.848635226488113403e-01
1.220595091581344604e-01 2.273410409688949585e-01 1.700123399496078491e-01
7.203370332717895508e-02 2.170615047216415405e-01 -1.814172863960266113e-01
4.113383591175079346e-02 2.272254526615142822e-01 -1.272062957286834717e-02
-1.924948394298553467e-01 2.306305170059204102e-01 2.127753198146820068e-01
2.673892378807067871e-01 1.866340190172195435e-01 -4.211685061454772949e-02
-1.099606528878211975e-01 2.300649434328079224e-01 3.048151135444641113e-01
-2.314454615116119385e-01 1.839821934700012207e-01 4.552050530910491943e-01
8.226853609085083008e-02 1.875879317522048950e-01 3.654739558696746826e-01
-1.571241915225982666e-01 2.233941107988357544e-01 -5.489379167556762695e-02
3.146496415138244629e-02 2.112763375043869019e-01 4.811809957027435303e-01
-3.354828953742980957e-01 2.256004810333251953e-01 1.376922130584716797e-01
-4.823641777038574219e-01 1.925881356000900269e-01 9.859623759984970093e-02
-7.141327857971191406e-02 2.295925766229629517e-01 6.289613246917724609e-02
-6.241899728775024414e-02 2.276143878698348999e-01 -3.789395093917846680e-03
-1.311333775520324707e-01 1.752954274415969849e-01 1.786052286624908447e-01
6.361952424049377441e-02 1.825107932090759277e-01 3.050450980663299561e-01
1.057694107294082642e-02 2.231340557336807251e-01 -1.038447022438049316e-01
-5.227367877960205078e-01 1.909819245338439941e-01 2.095915526151657104e-01
-1.899318397045135498e-01 2.221833765506744385e-01 -5.620482563972473145e-02
-2.167015671730041504e-01 2.300395518541336060e-01 1.799934357404708862e-01
6.082870066165924072e-02 2.097489386796951294e-01 -2.334400713443756104e-01
9.168104827404022217e-02 2.192272543907165527e-01 3.884168267250061035e-01
1.234070211648941040e-01 1.816240251064300537e-01 2.214218676090240479e-01
-2.660810351371765137e-01 1.811813265085220337e-01 4.036589860916137695e-01
9.068292379379272461e-02 2.272310703992843628e-01 2.392983287572860718e-01
-5.425811931490898132e-02 2.307960838079452515e-01 1.408272236585617065e-01
-3.736860454082489014e-01 2.251837253570556641e-01 1.887065321207046509e-01
-1.701086163520812988e-01 1.784723848104476929e-01 -1.253955066204071045e-02
-2.670930922031402588e-01 1.844859123229980469e-01 4.627695679664611816e-01
5.702660977840423584e-02 2.248762995004653931e-01 3.387836217880249023e-01
2.516414225101470947e-01 1.914122402667999268e-01 2.216335535049438477e-01
3.772719204425811768e-02 1.765783131122589111e-01 7.391993701457977295e-02
-3.878595829010009766e-01 2.190222293138504028e-01 6.313882768154144287e-02
-2.843267321586608887e-01 1.778303086757659912e-01 1.184997856616973877e-01
-4.319769144058227539e-01 1.865457892417907715e-01 4.334437847137451172e-01
-4.651660919189453125e-01 2.215825170278549194e-01 3.157472610473632812e-01
-3.961584270000457764e-01 1.810014247894287109e-01 2.891712784767150879e-01
1.232210099697113037e-01 1.814242601394653320e-01 -9.040957689285278320e-02
1.420251727104187012e-01 2.241861671209335327e-01 2.589758634567260742e-01
1.171429902315139771e-01 2.185402065515518188e-01 3.730644583702087402e-01
1.701881289482116699e-01 1.819165349006652832e-01 -6.091926991939544678e-02
-1.913080364465713501e-02 2.287470400333404541e-01 3.047943115234375000e-01
-2.058204263448715210e-01 2.004674226045608521e-01 -1.765096485614776611e-01
-6.969887018203735352e-02 2.274889200925827026e-01 3.707976341247558594e-01
-4.237675070762634277e-01 2.200476825237274170e-01 1.295461207628250122e-01
-1.167222857475280762e-03 2.263889908790588379e-01 -4.020218551158905029e-02
-2.524117231369018555e-01 2.167568653821945190e-01 -8.166640996932983398e-02
1.275909394025802612e-01 1.890398710966110229e-01 3.427983522415161133e-01
-1.385945975780487061e-01 1.788394004106521606e-01 3.427772521972656250e-01
-2.200433015823364258e-01 2.185605019330978394e-01 5.354439616203308105e-01
-2.558304369449615479e-01 2.163482457399368286e-01 5.551265478134155273e-01
4.927569627761840820e-02 1.807705760002136230e-01 2.810520231723785400e-01
-1.108196079730987549e-01 1.751772463321685791e-01 1.294584572315216064e-01
-5.816119909286499023e-01 1.999467015266418457e-01 3.283661007881164551e-01
-1.190032437443733215e-01 1.775397360324859619e-01 2.999052703380584717e-01
7.419587671756744385e-02 2.271641939878463745e-01 2.642761766910552979e-01
-1.603018641471862793e-01 1.811468005180358887e-01 3.983840644359588623e-01
1.110323220491409302e-01 1.789207011461257935e-01 -6.979212164878845215e-03
-1.079692915081977844e-01 1.987494081258773804e-01 5.461687445640563965e-01
2.202496528625488281e-01 2.159775048494338989e-01 -1.499534249305725098e-01
1.791461408138275146e-01 2.241905629634857178e-01 -1.313516497611999512e-02
4.795686900615692139e-02 1.911342144012451172e-01 4.255788624286651611e-01
2.284485101699829102e-01 1.904967278242111206e-01 2.447676658630371094e-01
-4.986052513122558594e-01 2.190420627593994141e-01 3.398792743682861328e-01
1.927641630172729492e-01 1.828153729438781738e-01 1.402039527893066406e-01
