5.157485604286193848e-01 -5.846329927444458008e-01 -2.163292467594146729e-01
5.399810671806335449e-01 -5.240006446838378906e-01 -2.782770246267318726e-02
3.201499581336975098e-01 -6.036428213119506836e-01 -1.681388914585113525e-01
2.048982381820678711e-01 -5.917660593986511230e-01 -5.239432677626609802e-02
5.186326503753662109e-01 -5.921892523765563965e-01 -1.078215315937995911e-01
5.041965842247009277e-01 -5.127434134483337402e-01 -4.380241036415100098e-03
1.028017103672027588e-01 -5.432158708572387695e-01 -3.116585910320281982e-01
3.162834048271179199e-01 -6.009697318077087402e-01 -2.201019227504730225e-01
3.171417117118835449e-01 -4.832845926284790039e-01 -8.011801540851593018e-02
2.301028668880462646e-01 -5.141440629959106445e-01 1.703647077083587646e-01
2.320731878280639648e-01 -5.053773522377014160e-01 1.474256515502929688e-01
5.668003559112548828e-01 -5.526428222656250000e-01 -1.697180569171905518e-01
1.035904735326766968e-01 -4.969950318336486816e-01 -1.754736453294754028e-01
4.172485470771789551e-01 -4.992372095584869385e-01 5.914405733346939087e-02
2.949588298797607422e-01 -5.878251194953918457e-01 -3.231086432933807373e-01
4.359094500541687012e-01 -5.002375841140747070e-01 -1.742135584354400635e-01
3.309352099895477295e-01 -4.922030866146087646e-01 7.808367162942886353e-02
1.801773607730865479e-01 -4.870097637176513672e-01 -1.815593540668487549e-01
1.112414449453353882e-01 -4.963788390159606934e-01 -1.531048864126205444e-02
3.033109903335571289e-01 -5.725836753845214844e-01 1.598618626594543457e-01
5.053974986076354980e-01 -5.912181735038757324e-01 -7.892064750194549561e-03
2.043575942516326904e-01 -5.708852410316467285e-01 -3.511476218700408936e-01
4.507378935813903809e-01 -5.161864161491394043e-01 1.254171729087829590e-01
5.456939935684204102e-01 -5.837206244468688965e-01 -4.956139996647834778e-02
2.566692829132080078e-01 -4.916889667510986328e-01 -2.551398277282714844e-01
5.130014419555664062e-01 -5.463886857032775879e-01 -2.798838019371032715e-01
5.434328913688659668e-01 -5.247012972831726074e-01 -5.090363696217536926e-02
5.602253675460815430e-01 -5.403635501861572266e-01 1.517103612422943115e-02
1.981377601623535156e-01 -4.852225184440612793e-01 -5.778379738330841064e-03
8.883666992187500000e-02 -5.663548707962036133e-01 -1.036773025989532471e-01
4.701845645904541016e-01 -5.410581827163696289e-01 1.636604666709899902e-01
3.118835687637329102e-01 -4.830738008022308350e-01 -5.936495959758758545e-02
2.865597009658813477e-01 -4.899121224880218506e-01 7.285726815462112427e-02
5.173828601837158203e-01 -5.920153260231018066e-01 -1.281222701072692871e-01
2.494676113128662109e-01 -4.815119504928588867e-01 -9.474983066320419312e-02
2.618276476860046387e-01 -5.030961036682128906e-01 1.470193266868591309e-01
4.225307703018188477e-01 -6.030286550521850586e-01 -1.634041070938110352e-01
2.300083637237548828e-01 -5.428402423858642578e-01 1.884987950325012207e-01
1.974489092826843262e-01 -5.580784678459167480e-01 -3.782056272029876709e-01
1.707800477743148804e-01 -5.875838398933410645e-01 -1.705976724624633789e-01
2.961014211177825928e-01 -5.906023979187011719e-01 7.011687010526657104e-02
3.097051084041595459e-01 -4.949907064437866211e-01 -2.662256658077239990e-01
1.537297666072845459e-01 -4.869020581245422363e-01 -5.703906342387199402e-02
2.978401780128479004e-01 -5.984121561050415039e-01 -2.423615455627441406e-01
4.575336277484893799e-01 -5.870465636253356934e-01 -2.815978229045867920e-01
3.049342632293701172e-01 -5.641208887100219727e-01 1.835927069187164307e-01
3.679957985877990723e-01 -5.215985178947448730e-01 -3.595610857009887695e-01
5.469161272048950195e-01 -5.840862989425659180e-01 -7.053957879543304443e-02
4.088486135005950928e-01 -5.911471843719482422e-01 8.092411607503890991e-02
2.831060886383056641e-01 -4.823281764984130859e-01 -4.003522172570228577e-02
4.136573672294616699e-01 -5.642696022987365723e-01 1.793596446514129639e-01
3.883428871631622314e-01 -4.988965392112731934e-01 -2.362688183784484863e-01
1.512051075696945190e-01 -5.205627679824829102e-01 -3.452340662479400635e-01
3.235366046428680420e-01 -5.334785580635070801e-01 2.116685807704925537e-01
1.679969578981399536e-01 -5.875944495201110840e-01 -1.429516971111297607e-01
7.955244183540344238e-02 -5.630338191986083984e-01 -1.211425736546516418e-01
2.626227438449859619e-01 -5.934694409370422363e-01 -2.676938772201538086e-01
1.206764876842498779e-01 -5.720179677009582520e-01 -2.818742394447326660e-02
9.332458674907684326e-02 -5.621858835220336914e-01 -2.327890694141387939e-01
1.824531555175781250e-01 -5.868349671363830566e-01 -2.254982888698577881e-01
3.269104361534118652e-01 -5.681654214859008789e-01 1.777702867984771729e-01
4.605893492698669434e-01 -5.043115019798278809e-01 2.918272465467453003e-02
2.544285655021667480e-01 -4.861738979816436768e-01 3.631467372179031372e-02
4.776664376258850098e-01 -5.547932982444763184e-01 -3.282743990421295166e-01
1.240533292293548584e-01 -5.776237249374389648e-01 -1.518833339214324951e-01
3.262116611003875732e-01 -6.022411584854125977e-01 -3.446730226278305054e-02
4.886941611766815186e-01 -5.519125461578369141e-01 1.499446332454681396e-01
3.442055284976959229e-01 -6.017985939979553223e-01 -1.695033907890319824e-02
4.638774991035461426e-01 -6.004880666732788086e-01 -1.339661329984664917e-01
1.896102428436279297e-01 -4.917682707309722900e-01 5.727956444025039673e-02
5.134018063545227051e-01 -5.931311249732971191e-01 -7.326338440179824829e-02
1.212940216064453125e-01 -5.106705427169799805e-01 -2.921421527862548828e-01
3.637827336788177490e-01 -6.051807403564453125e-01 -9.284368157386779785e-02
3.522342145442962646e-01 -6.015332937240600586e-01 -2.233187258243560791e-01
4.661234617233276367e-01 -5.019701719284057617e-01 -4.344804584980010986e-02
5.258686542510986328e-01 -5.193780660629272461e-01 -1.113727688789367676e-02
4.241327941417694092e-01 -4.947566688060760498e-01 -1.067981719970703125e-01
3.964335918426513672e-01 -5.149097442626953125e-01 -3.197480142116546631e-01
3.971827626228332520e-01 -5.354801416397094727e-01 2.006579935550689697e-01
1.502857506275177002e-01 -5.778930187225341797e-01 -7.593043148517608643e-03
2.348360419273376465e-01 -5.893736481666564941e-01 -2.782548964023590088e-01
1.853571534156799316e-01 -4.904604852199554443e-01 -2.261290252208709717e-01
2.197991311550140381e-01 -5.946609973907470703e-01 -1.876083910465240479e-01
3.397294580936431885e-01 -5.002127885818481445e-01 -2.853883206844329834e-01
4.677164554595947266e-02 -5.368883609771728516e-01 -6.972959637641906738e-02
2.391606569290161133e-01 -4.821528196334838867e-01 -1.263611167669296265e-01
2.879583537578582764e-01 -5.429625511169433594e-01 -4.101344048976898193e-01
3.800640702247619629e-01 -5.094536542892456055e-01 -3.083425462245941162e-01
5.189150571823120117e-01 -5.154239535331726074e-01 -6.803876161575317383e-02
4.938167631626129150e-01 -5.171677470207214355e-01 -2.061911374330520630e-01
1.223704665899276733e-01 -5.197381973266601562e-01 -3.194401264190673828e-01
3.814561665058135986e-01 -5.299013853073120117e-01 -3.721924126148223877e-01
3.040549457073211670e-01 -5.951354503631591797e-01 -2.774339914321899414e-01
4.767526388168334961e-01 -5.183545351028442383e-01 -2.456433475017547607e-01
5.011103749275207520e-01 -5.106213092803955078e-01 -9.878572076559066772e-02
4.250345230102539062e-01 -5.714628100395202637e-01 -3.538706600666046143e-01
4.038432240486145020e-01 -5.834459066390991211e-01 1.233608648180961609e-01
5.019583106040954590e-01 -5.228195190429687500e-01 8.416665345430374146e-02
5.005797743797302246e-02 -5.151650309562683105e-01 -1.330105066299438477e-01
3.813213109970092773e-01 -4.914889931678771973e-01 2.235254645347595215e-02
4.325219392776489258e-01 -5.343222618103027344e-01 -3.476926684379577637e-01
1.063606888055801392e-01 -5.438548922538757324e-01 7.447762042284011841e-02
3.389774262905120850e-01 -5.163779854774475098e-01 -3.570270240306854248e-01
3.910185098648071289e-01 -6.045112013816833496e-01 -6.952290236949920654e-02
2.007120251655578613e-01 -5.781736373901367188e-01 7.020816951990127563e-02
9.151269495487213135e-02 -5.269696712493896484e-01 6.299822777509689331e-02
3.783814013004302979e-01 -5.797536969184875488e-01 1.426412761211395264e-01
4.605050086975097656e-01 -5.304977297782897949e-01 -3.133608102798461914e-01
2.940347790718078613e-01 -4.930685758590698242e-01 9.621135145425796509e-02
5.594350695610046387e-01 -5.490179657936096191e-01 -1.884214878082275391e-01
3.161515891551971436e-01 -5.928327441215515137e-01 6.352909654378890991e-02
3.404914140701293945e-01 -6.048581004142761230e-01 -1.421530097723007202e-01
2.412327080965042114e-01 -5.800913572311401367e-01 9.765142947435379028e-02
2.893200814723968506e-01 -4.938654899597167969e-01 -2.656136155128479004e-01
3.225212991237640381e-01 -5.794701576232910156e-01 1.395778954029083252e-01
3.388339579105377197e-01 -4.884705543518066406e-01 -1.822602152824401855e-01
1.831503063440322876e-01 -5.781223773956298828e-01 4.859276860952377319e-02
2.248289585113525391e-01 -5.940927863121032715e-01 -4.341747611761093140e-02
3.073396384716033936e-01 -4.869067072868347168e-01 -1.898619085550308228e-01
1.494811922311782837e-01 -5.809283852577209473e-01 -4.488314315676689148e-02
4.417512416839599609e-01 -5.586462616920471191e-01 -3.579957485198974609e-01
4.036869108676910400e-01 -4.965818226337432861e-01 -1.932529509067535400e-01
3.227682709693908691e-01 -5.541777610778808594e-01 2.039786279201507568e-01
1.231400221586227417e-01 -5.759262442588806152e-01 -7.089374214410781860e-02
2.357674837112426758e-01 -5.745505690574645996e-01 -3.573014140129089355e-01
2.204384207725524902e-01 -5.918780565261840820e-01 -1.888592541217803955e-02
2.372426241636276245e-01 -5.973243713378906250e-01 -1.717279404401779175e-01
4.289399087429046631e-01 -5.795563459396362305e-01 1.315645873546600342e-01
2.273986041545867920e-01 -4.860179424285888672e-01 -1.971669793128967285e-01
2.818466722965240479e-01 -5.741950273513793945e-01 1.468152999877929688e-01
4.430044591426849365e-01 -5.100522637367248535e-01 1.044670268893241882e-01
5.434396266937255859e-01 -5.831848382949829102e-01 -1.492792665958404541e-01
2.023009359836578369e-01 -5.651804804801940918e-01 1.289411187171936035e-01
5.509382486343383789e-01 -5.531252622604370117e-01 6.327535957098007202e-02
5.119500756263732910e-01 -5.136295557022094727e-01 -3.721026331186294556e-02
2.310913652181625366e-01 -4.832027554512023926e-01 -1.555104553699493408e-02
1.044163405895233154e-01 -5.040011405944824219e-01 -2.384338080883026123e-01
3.975274562835693359e-01 -5.954828262329101562e-01 5.259319394826889038e-02
4.054839611053466797e-01 -6.047494411468505859e-01 -1.053339987993240356e-01
1.733461916446685791e-01 -5.443043112754821777e-01 1.504313945770263672e-01
4.674382805824279785e-01 -5.032630562782287598e-01 -1.065006852149963379e-02
3.643301129341125488e-01 -5.044959783554077148e-01 1.387153267860412598e-01
4.834030270576477051e-01 -5.910003781318664551e-01 -2.282022535800933838e-01
5.048062205314636230e-01 -5.179227590560913086e-01 -1.852252185344696045e-01
2.009156942367553711e-01 -5.327975153923034668e-01 -3.885657787322998047e-01
3.608880043029785156e-01 -4.868295788764953613e-01 -3.947051614522933960e-02
3.129803538322448730e-01 -6.003140807151794434e-01 -1.358543336391448975e-02
5.245790481567382812e-01 -5.187526941299438477e-01 -1.186836510896682739e-01
2.203584164381027222e-01 -5.830870866775512695e-01 -3.085931241512298584e-01
5.426290035247802734e-01 -5.271269083023071289e-01 -3.784000873565673828e-04
1.451920866966247559e-01 -4.970161318778991699e-01 4.918865114450454712e-02
4.661704897880554199e-01 -5.619015097618103027e-01 1.580975353717803955e-01
1.696641892194747925e-01 -4.867148995399475098e-01 -2.054712921380996704e-02
1.216672360897064209e-01 -5.016101598739624023e-01 -2.491180896759033203e-01
9.568877518177032471e-02 -5.581877827644348145e-01 6.922811269760131836e-03
1.983286738395690918e-01 -5.896044373512268066e-01 -3.363555669784545898e-02
5.479834079742431641e-01 -5.345370769500732422e-01 3.170768171548843384e-02
2.735322713851928711e-01 -5.381295680999755859e-01 2.062275707721710205e-01
5.355333089828491211e-01 -5.807664990425109863e-01 1.707486063241958618e-02
3.465095162391662598e-01 -6.004046797752380371e-01 2.995267510414123535e-03
9.354543685913085938e-02 -5.054960846900939941e-01 1.367560774087905884e-02
2.086783945560455322e-01 -4.903525710105895996e-01 -2.371873259544372559e-01
2.069830596446990967e-01 -5.730782151222229004e-01 1.026482954621315002e-01
5.535435080528259277e-01 -5.323104858398437500e-01 -1.307792663574218750e-01
8.375842869281768799e-02 -5.092739462852478027e-01 -2.299560904502868652e-01
3.932746052742004395e-01 -5.053232908248901367e-01 -2.758561968803405762e-01
7.286520302295684814e-02 -5.460521578788757324e-01 -2.514075338840484619e-01
4.507020711898803711e-01 -5.049623847007751465e-01 -1.949680745601654053e-01
1.767391562461853027e-01 -5.892118811607360840e-01 -1.201152056455612183e-01
3.816491961479187012e-01 -5.867421627044677734e-01 -3.268965184688568115e-01
1.418701112270355225e-01 -5.616973042488098145e-01 -3.234595358371734619e-01
2.793969213962554932e-01 -5.162549018859863281e-01 1.873210370540618896e-01
2.688867747783660889e-01 -4.820978939533233643e-01 -1.197991743683815002e-01
3.621587157249450684e-01 -5.867437124252319336e-01 -3.314853906631469727e-01
4.346329569816589355e-01 -4.976580739021301270e-01 2.130769193172454834e-03
4.513535201549530029e-01 -5.370527505874633789e-01 1.743619740009307861e-01
4.490915536880493164e-01 -5.082860589027404785e-01 -2.263074517250061035e-01
4.795774221420288086e-01 -5.981770157814025879e-01 -1.462268978357315063e-01
4.202604293823242188e-02 -5.274421572685241699e-01 -9.621997922658920288e-02
1.025356948375701904e-01 -4.950249791145324707e-01 -7.117442041635513306e-02
5.161618590354919434e-01 -5.851147770881652832e-01 2.658175677061080933e-02
2.787135243415832520e-01 -4.834156930446624756e-01 -7.036842405796051025e-03
2.028100490570068359e-01 -5.932681560516357422e-01 -1.042205616831779480e-01
2.675418257713317871e-01 -5.983593463897705078e-01 -3.484772890806198120e-02
1.665324121713638306e-01 -5.870594978332519531e-01 -1.023185104131698608e-01
2.603117227554321289e-01 -5.994813442230224609e-01 -7.430183142423629761e-02
4.810304045677185059e-01 -5.987591147422790527e-01 -1.098285093903541565e-01
4.396215081214904785e-01 -6.021977066993713379e-01 -6.168187409639358521e-02
3.774899244308471680e-01 -5.808119773864746094e-01 -3.506661951541900635e-01
7.260461151599884033e-02 -5.557042956352233887e-01 -2.060298174619674683e-01
1.967725753784179688e-01 -5.126991271972656250e-01 1.513281166553497314e-01
3.030584752559661865e-01 -6.018555760383605957e-01 -1.941683441400527954e-01
2.459729760885238647e-01 -5.585879087448120117e-01 -3.976105451583862305e-01
4.454168975353240967e-01 -5.985999107360839844e-01 -2.077307254076004028e-01
4.208884835243225098e-01 -5.935717225074768066e-01 6.001696735620498657e-02
5.575379133224487305e-01 -5.772930979728698730e-01 -2.828429639339447021e-02
4.900088906288146973e-01 -5.072475671768188477e-01 -7.276046276092529297e-02
2.452456653118133545e-01 -5.928598046302795410e-01 7.550261914730072021e-03
5.756736993789672852e-01 -5.662415027618408203e-01 -5.144771933555603027e-02
2.639063894748687744e-01 -5.975961089134216309e-01 -2.215383648872375488e-01
4.302169978618621826e-01 -5.114966630935668945e-01 1.253083944320678711e-01
3.047282695770263672e-01 -4.835513532161712646e-01 -1.294016838073730469e-01
2.565319538116455078e-01 -5.159620642662048340e-01 -3.700304329395294189e-01
1.937617212533950806e-01 -4.839788973331451416e-01 -1.390143632888793945e-01
5.538594126701354980e-01 -5.298159718513488770e-01 -8.862724155187606812e-02
4.365473091602325439e-01 -4.962697923183441162e-01 -7.814940065145492554e-02
4.902086853981018066e-01 -5.940632224082946777e-01 -1.875561028718948364e-01
1.612161993980407715e-01 -4.865542948246002197e-01 -1.426537036895751953e-01
2.534537911415100098e-01 -5.387641191482543945e-01 2.001028656959533691e-01
1.558885127305984497e-01 -4.902878999710083008e-01 7.064796984195709229e-03
5.519728660583496094e-01 -5.698119401931762695e-01 3.378591686487197876e-02
1.954666078090667725e-01 -5.916844010353088379e-01 -8.530072122812271118e-02
3.415196835994720459e-01 -6.050208806991577148e-01 -1.101460531353950500e-01
1.607725769281387329e-01 -5.755634307861328125e-01 -2.861537337303161621e-01
3.700276315212249756e-01 -4.935582280158996582e-01 -2.077699750661849976e-01
8.055771887302398682e-02 -5.050259828567504883e-01 -2.369845658540725708e-02
3.997459411621093750e-01 -6.045236587524414062e-01 -1.485204994678497314e-01
2.685146033763885498e-01 -5.901185274124145508e-01 5.549744516611099243e-02
7.567375898361206055e-02 -5.347063541412353516e-01 -2.720678448677062988e-01
3.535461723804473877e-01 -5.642471909523010254e-01 -3.931403160095214844e-01
1.347779333591461182e-01 -4.896799921989440918e-01 -5.014257878065109253e-02
2.039477527141571045e-01 -5.865657329559326172e-01 -2.661858499050140381e-01
4.081575274467468262e-01 -5.024632811546325684e-01 9.616806358098983765e-02
3.808546662330627441e-01 -5.001250505447387695e-01 1.047765240073204041e-01
5.298030972480773926e-01 -5.402513146400451660e-01 -2.395327985286712646e-01
3.706834614276885986e-01 -5.997487306594848633e-01 -2.431506812572479248e-01
4.113162755966186523e-01 -4.947390258312225342e-01 -1.523274779319763184e-01
4.060931503772735596e-01 -6.035240292549133301e-01 -5.187683179974555969e-02
4.714841544628143311e-01 -5.096017718315124512e-01 -1.945038139820098877e-01
4.692339599132537842e-01 -5.132165551185607910e-01 -2.271930575370788574e-01
2.181392759084701538e-01 -5.714805722236633301e-01 1.189972832798957825e-01
5.244627594947814941e-01 -5.746639370918273926e-01 -2.446393668651580811e-01
3.758757114410400391e-01 -6.053482294082641602e-01 -1.097808703780174255e-01
2.121693789958953857e-01 -5.121685862541198730e-01 -3.524614274501800537e-01
1.921446025371551514e-01 -4.870085716247558594e-01 1.352049410343170166e-02
1.460021585226058960e-01 -5.823644399642944336e-01 -1.750424206256866455e-01
6.203074753284454346e-02 -5.168809890747070312e-01 -1.886128634214401245e-02
4.134492576122283936e-01 -5.918025970458984375e-01 -2.882317900657653809e-01
3.511126339435577393e-01 -6.042642593383789062e-01 -6.286661326885223389e-02
2.015519440174102783e-01 -5.880119800567626953e-01 -6.566196680068969727e-03
2.659405767917633057e-01 -5.234875679016113281e-01 -3.879779875278472900e-01
4.102849066257476807e-01 -5.126835107803344727e-01 -2.987269163131713867e-01
4.065594077110290527e-01 -5.993951559066772461e-01 1.276696473360061646e-02
1.424857228994369507e-01 -4.879528582096099854e-01 -1.187429577112197876e-01
1.471597254276275635e-01 -5.747823119163513184e-01 -2.691819965839385986e-01
2.271095216274261475e-01 -4.871987104415893555e-01 3.972237557172775269e-02
4.985541701316833496e-01 -5.299199223518371582e-01 -2.623263001441955566e-01
3.637175559997558594e-01 -6.052936315536499023e-01 -1.322587579488754272e-01
1.718810945749282837e-01 -4.985036253929138184e-01 8.509648591279983521e-02
3.600888848304748535e-01 -5.923399329185485840e-01 -3.027939796447753906e-01
1.257958114147186279e-01 -5.771508216857910156e-01 -1.818461865186691284e-01
2.775853574275970459e-01 -4.875017702579498291e-01 5.114948004484176636e-02
3.422388434410095215e-01 -5.522717833518981934e-01 2.071063220500946045e-01
3.280653357505798340e-01 -5.870118737220764160e-01 1.049623116850852966e-01
3.009621202945709229e-01 -5.125575065612792969e-01 1.803297698497772217e-01
2.005341351032257080e-01 -5.931424498558044434e-01 -1.250408291816711426e-01
4.637366533279418945e-01 -6.002212166786193848e-01 -6.438434869050979614e-02
4.474061429500579834e-01 -5.580409765243530273e-01 1.745788455009460449e-01
4.840208590030670166e-01 -5.903156399726867676e-01 3.555545955896377563e-02
1.740225106477737427e-01 -4.844452440738677979e-01 -9.321625530719757080e-02
1.942261159420013428e-01 -5.774207711219787598e-01 -3.158165216445922852e-01
3.390881121158599854e-01 -5.078766345977783203e-01 1.615431904792785645e-01
2.174354046583175659e-01 -5.032401084899902344e-01 1.340434253215789795e-01
2.710981965065002441e-01 -6.000199317932128906e-01 -1.876533627510070801e-01
2.802251577377319336e-01 -6.018957495689392090e-01 -1.433271169662475586e-01
3.381905257701873779e-01 -5.967098474502563477e-01 3.957226127386093140e-02
3.866603672504425049e-01 -4.893562197685241699e-01 -4.678315296769142151e-02
2.502858042716979980e-01 -5.993061661720275879e-01 -1.132361665368080139e-01
2.169045507907867432e-01 -4.820674955844879150e-01 -9.675034135580062866e-02
4.357688426971435547e-01 -5.918384790420532227e-01 -2.735585570335388184e-01
4.452750086784362793e-02 -5.346620082855224609e-01 -1.688364744186401367e-01
4.311517477035522461e-01 -5.030344128608703613e-01 7.256463915109634399e-02
2.099822014570236206e-01 -5.828765034675598145e-01 5.079077929258346558e-02
1.845162063837051392e-01 -4.932501614093780518e-01 -2.495070993900299072e-01
2.400766015052795410e-01 -5.981851816177368164e-01 -1.449485868215560913e-01
2.152428925037384033e-01 -5.572548508644104004e-01 1.598671376705169678e-01
2.060829550027847290e-01 -4.936463832855224609e-01 -2.625643014907836914e-01
9.217476844787597656e-02 -5.305135250091552734e-01 -2.987828552722930908e-01
3.921961486339569092e-01 -4.987258911132812500e-01 8.508972078561782837e-02
4.644784927368164062e-01 -5.966417193412780762e-01 -1.373939216136932373e-03
3.142099678516387939e-01 -5.574238896369934082e-01 -4.058085381984710693e-01
2.865615785121917725e-01 -5.850254893302917480e-01 1.000467613339424133e-01
2.874270677566528320e-01 -5.926737785339355469e-01 4.908698052167892456e-02
5.721346139907836914e-01 -5.492559671401977539e-01 -7.472425699234008789e-03
3.358888030052185059e-01 -5.728095769882202148e-01 -3.805598616600036621e-01
4.638941884040832520e-01 -5.749664902687072754e-01 -3.184206485748291016e-01
1.037569195032119751e-01 -5.715470314025878906e-01 -1.591348052024841309e-01
5.520014762878417969e-01 -5.523347258567810059e-01 -2.135492712259292603e-01
6.205759942531585693e-02 -5.538108944892883301e-01 -1.003074645996093750e-01
1.515538394451141357e-01 -5.364678502082824707e-01 -3.635731637477874756e-01
1.441092044115066528e-01 -5.820376276969909668e-01 -9.090313315391540527e-02
1.679265499114990234e-01 -5.722946524620056152e-01 -3.129198253154754639e-01
3.294376432895660400e-01 -5.325859189033508301e-01 -3.960713744163513184e-01
2.157926261425018311e-01 -5.273249745368957520e-01 1.819971203804016113e-01
2.793564200401306152e-01 -6.006528139114379883e-01 -6.080738082528114319e-02
5.258049964904785156e-01 -5.252308845520019531e-01 4.494938999414443970e-02
1.754638999700546265e-01 -5.616642236709594727e-01 1.157363429665565491e-01
2.399781346321105957e-01 -5.237141251564025879e-01 -3.863537013530731201e-01
7.293710112571716309e-02 -5.327413082122802734e-01 2.659135311841964722e-02
2.794855833053588867e-01 -5.960940122604370117e-01 -2.552127540111541748e-01
4.362548887729644775e-01 -5.200595259666442871e-01 -3.048003315925598145e-01
7.690970599651336670e-02 -5.025056004524230957e-01 -6.936547905206680298e-02
5.968743562698364258e-02 -5.530730485916137695e-01 -1.265871822834014893e-01
4.170081615447998047e-01 -6.041624546051025391e-01 -1.309662312269210815e-01
1.134969294071197510e-01 -4.925418794155120850e-01 -1.231889128684997559e-01
1.973588019609451294e-01 -4.829167425632476807e-01 -7.543387264013290405e-02
2.567623555660247803e-01 -4.978478252887725830e-01 1.231193169951438904e-01
1.137669980525970459e-01 -4.935630261898040771e-01 -1.535666137933731079e-01
3.814855217933654785e-01 -6.001636385917663574e-01 9.769320487976074219e-03
1.189954727888107300e-01 -5.438889861106872559e-01 -3.316111862659454346e-01
4.218725562095642090e-01 -5.402679443359375000e-01 -3.646545410156250000e-01
2.210509777069091797e-01 -4.882224202156066895e-01 -2.208579480648040771e-01
1.417409181594848633e-01 -5.617040395736694336e-01 7.556571811437606812e-02
2.560210525989532471e-01 -5.906670689582824707e-01 4.029216617345809937e-02
5.785009264945983887e-02 -5.499171018600463867e-01 -1.741984188556671143e-01
4.264386296272277832e-01 -5.416694879531860352e-01 1.918457448482513428e-01
4.434832930564880371e-01 -5.162429213523864746e-01 -2.808488905429840088e-01
1.877614408731460571e-01 -5.896590948104858398e-01 -6.542924046516418457e-02
5.780507922172546387e-01 -5.620172619819641113e-01 -1.055012792348861694e-01
3.558036684989929199e-01 -5.988619327545166016e-01 2.287585288286209106e-02
4.280944168567657471e-01 -5.025634765625000000e-01 -2.136425077915191650e-01
4.491569995880126953e-01 -6.014632582664489746e-01 -1.515601426362991333e-01
3.664470613002777100e-01 -4.887396395206451416e-01 8.986070752143859863e-04
2.033741176128387451e-01 -5.457746982574462891e-01 1.708840429782867432e-01
2.563871145248413086e-01 -5.957096815109252930e-01 -1.166210323572158813e-02
4.825104176998138428e-01 -5.077637434005737305e-01 -1.415640860795974731e-01
4.530225694179534912e-01 -5.126336812973022461e-01 -2.493498027324676514e-01
4.520979523658752441e-01 -5.353651642799377441e-01 -3.329187333583831787e-01
2.215397655963897705e-01 -5.333032011985778809e-01 -3.957537710666656494e-01
2.810745537281036377e-01 -6.020383238792419434e-01 -1.146767511963844299e-01
5.095369219779968262e-01 -5.923509001731872559e-01 -3.476667404174804688e-02
2.829575240612030029e-01 -5.153462290763854980e-01 -3.673945367336273193e-01
4.072179198265075684e-01 -6.023741960525512695e-01 -1.936309933662414551e-01
3.813203573226928711e-01 -5.907673835754394531e-01 -3.073065578937530518e-01
3.957381844520568848e-01 -5.204490423202514648e-01 -3.398754298686981201e-01
6.383322179317474365e-02 -5.392940640449523926e-01 -5.530796945095062256e-03
4.872387647628784180e-01 -5.323935747146606445e-01 1.355946958065032959e-01
2.247442007064819336e-01 -5.918856859207153320e-01 -2.420426607131958008e-01
1.323387920856475830e-01 -5.406044125556945801e-01 -3.474386632442474365e-01
5.713331699371337891e-01 -5.669770240783691406e-01 -1.373459100723266602e-01
1.536785066127777100e-01 -5.845409035682678223e-01 -1.566213071346282959e-01
3.344414830207824707e-01 -5.959651470184326172e-01 -2.781614065170288086e-01
9.641790390014648438e-02 -5.009612441062927246e-01 -2.000008523464202881e-01
4.694926738739013672e-01 -5.230687260627746582e-01 -2.782340347766876221e-01
3.502137660980224609e-01 -6.042210459709167480e-01 -1.740295141935348511e-01
1.409645080566406250e-01 -5.818427801132202148e-01 -1.132536605000495911e-01
2.663638293743133545e-01 -5.614995956420898438e-01 1.774009764194488525e-01
3.194797039031982422e-01 -4.851453602313995361e-01 -1.489717662334442139e-01
4.407018423080444336e-02 -5.393292903900146484e-01 -1.295585036277770996e-01
3.206036686897277832e-01 -6.034112572669982910e-01 -6.614683568477630615e-02
4.146318733692169189e-01 -5.973272919654846191e-01 -2.480669617652893066e-01
2.390459477901458740e-01 -5.703428387641906738e-01 1.382148861885070801e-01
1.534653753042221069e-01 -4.933258593082427979e-01 -2.250052392482757568e-01
1.584679484367370605e-01 -5.126899480819702148e-01 1.240392848849296570e-01
4.896960258483886719e-01 -5.073027610778808594e-01 -4.632358253002166748e-02
1.344547271728515625e-01 -5.454524755477905273e-01 1.100037172436714172e-01
3.363508582115173340e-01 -4.848754703998565674e-01 -3.848021104931831360e-02
2.354465425014495850e-01 -4.896692931652069092e-01 6.586676090955734253e-02
4.055095016956329346e-01 -4.915916621685028076e-01 -8.065478503704071045e-02
2.431116402149200439e-01 -5.869300365447998047e-01 5.725470930337905884e-02
5.085234045982360840e-01 -5.398953557014465332e-01 1.229458823800086975e-01
4.507337808609008789e-01 -6.018992662429809570e-01 -8.431499451398849487e-02
9.670628607273101807e-02 -5.695890188217163086e-01 -1.340981125831604004e-01
7.160566747188568115e-02 -5.047980546951293945e-01 -1.531194001436233521e-01
2.781831324100494385e-01 -5.799847245216369629e-01 1.213776096701622009e-01
2.901495993137359619e-01 -5.954272150993347168e-01 2.631215006113052368e-02
5.707380175590515137e-02 -5.509842634201049805e-01 -1.498753428459167480e-01
3.344545364379882812e-01 -4.876712262630462646e-01 2.654460817575454712e-02
3.072366416454315186e-01 -5.778794288635253906e-01 -3.668276071548461914e-01
5.656681060791015625e-01 -5.369225144386291504e-01 -4.978241398930549622e-02
1.274968236684799194e-01 -4.899035692214965820e-01 -8.843036741018295288e-02
1.192316561937332153e-01 -5.742008686065673828e-01 -2.018792629241943359e-01
3.868809938430786133e-01 -4.892116785049438477e-01 -7.066462934017181396e-02
2.734122872352600098e-01 -5.631889104843139648e-01 -3.969732224941253662e-01
4.445349872112274170e-01 -5.839965343475341797e-01 1.054536476731300354e-01
3.845864534378051758e-01 -5.602738857269287109e-01 -3.879658877849578857e-01
1.064335703849792480e-01 -5.094287395477294922e-01 -2.692072391510009766e-01
3.287569582462310791e-01 -6.026597023010253906e-01 -1.990651488304138184e-01
1.816817522048950195e-01 -5.887570977210998535e-01 -1.913903951644897461e-01
3.329878151416778564e-01 -4.851641356945037842e-01 -1.271256208419799805e-01
3.869870901107788086e-01 -5.957765579223632812e-01 -2.737251222133636475e-01
3.794584274291992188e-01 -5.618050098419189453e-01 1.915278136730194092e-01
3.980861306190490723e-01 -6.026984453201293945e-01 -3.007559478282928467e-02
5.036291480064392090e-01 -5.269979238510131836e-01 -2.421480119228363037e-01
4.559113979339599609e-01 -6.015935540199279785e-01 -1.129386574029922485e-01
5.051447153091430664e-01 -5.845940113067626953e-01 -2.355778515338897705e-01
1.591016948223114014e-01 -4.927822947502136230e-01 3.543522208929061890e-02
3.057270944118499756e-01 -5.081133246421813965e-01 -3.383088707923889160e-01
1.970144808292388916e-01 -5.546127557754516602e-01 1.526258587837219238e-01
1.260900497436523438e-01 -5.607799291610717773e-01 5.551870912313461304e-02
3.051361739635467529e-01 -4.882010221481323242e-01 5.175182968378067017e-02
1.633366197347640991e-01 -5.659708976745605469e-01 -3.331036865711212158e-01
3.759156465530395508e-01 -4.881045222282409668e-01 -8.871419727802276611e-02
2.511024177074432373e-01 -4.915327727794647217e-01 8.428550511598587036e-02
2.205230742692947388e-01 -5.951043963432312012e-01 -7.850867509841918945e-02
4.272482693195343018e-01 -5.237834453582763672e-01 1.687567234039306641e-01
4.469981491565704346e-01 -4.990125000476837158e-01 -1.579997688531875610e-02
3.365852832794189453e-01 -4.895881414413452148e-01 4.911177605390548706e-02
2.782214283943176270e-01 -5.891203284263610840e-01 -3.095899522304534912e-01
5.007703304290771484e-01 -5.610435605049133301e-01 -3.011411726474761963e-01
5.308781266212463379e-01 -5.282921791076660156e-01 -1.878013908863067627e-01
1.265458017587661743e-01 -4.942482709884643555e-01 -2.490878105163574219e-03
5.583807826042175293e-02 -5.414170622825622559e-01 -3.942949697375297546e-02
1.442653238773345947e-01 -4.911597371101379395e-01 -1.900880038738250732e-01
4.090709388256072998e-01 -5.573295354843139648e-01 -3.787075281143188477e-01
3.009860217571258545e-01 -6.030982732772827148e-01 -1.532028019428253174e-01
5.533236861228942871e-01 -5.729642510414123535e-01 -1.853711307048797607e-01
2.650662064552307129e-01 -5.055306553840637207e-01 -3.341464698314666748e-01
1.764498502016067505e-01 -5.208839774131774902e-01 -3.609439134597778320e-01
3.494341373443603516e-01 -5.079697966575622559e-01 -3.205816149711608887e-01
4.864077270030975342e-01 -5.976654291152954102e-01 -7.090917229652404785e-02
2.922080159187316895e-01 -5.487087965011596680e-01 2.051997184753417969e-01
1.477950215339660645e-01 -4.975761771202087402e-01 -2.524761259555816650e-01
3.210438489913940430e-01 -4.920461177825927734e-01 -2.366156578063964844e-01
1.769545972347259521e-01 -5.801948308944702148e-01 2.430994063615798950e-02
2.415538132190704346e-01 -4.821464717388153076e-01 -3.779499232769012451e-02
3.371706008911132812e-01 -4.845722913742065430e-01 -8.102623373270034790e-02
1.027208566665649414e-01 -5.557505488395690918e-01 3.402908891439437866e-02
8.798310160636901855e-02 -5.598163604736328125e-01 -2.506466954946517944e-02
5.701285600662231445e-01 -5.412523746490478516e-01 -1.023363918066024780e-01
3.235683441162109375e-01 -5.067627429962158203e-01 -3.268941044807434082e-01
1.793684065341949463e-01 -4.843035340309143066e-01 -6.190779432654380798e-02
1.962770819664001465e-01 -4.852329790592193604e-01 -1.690276563167572021e-01
4.870796501636505127e-01 -5.078065991401672363e-01 -1.216561645269393921e-01
2.832894027233123779e-01 -5.026999711990356445e-01 -3.193553984165191650e-01
4.776415228843688965e-02 -5.273609161376953125e-01 -1.884593665599822998e-01
4.315270483493804932e-01 -5.864321589469909668e-01 -3.047453761100769043e-01
3.563550114631652832e-01 -5.876839160919189453e-01 1.060636118054389954e-01
1.607493609189987183e-01 -5.007308721542358398e-01 -2.823866605758666992e-01
3.895815014839172363e-01 -6.037319302558898926e-01 -1.798594892024993896e-01
3.979722857475280762e-01 -4.911486208438873291e-01 -2.700646966695785522e-02
3.286790549755096436e-01 -5.987138152122497559e-01 1.586631685495376587e-02
3.128196299076080322e-01 -5.134920477867126465e-01 -3.561718165874481201e-01
2.109212577342987061e-01 -4.905221462249755859e-01 6.184386461973190308e-02
2.618229091167449951e-01 -5.449936985969543457e-01 -4.090251624584197998e-01
2.581885159015655518e-01 -5.866668224334716797e-01 -3.142243623733520508e-01
3.331590890884399414e-01 -4.999140799045562744e-01 1.284092366695404053e-01
2.367758750915527344e-01 -4.964731335639953613e-01 -2.879337370395660400e-01
3.387835025787353516e-01 -4.917169809341430664e-01 -2.205567061901092529e-01
3.343632519245147705e-01 -5.207538604736328125e-01 1.964612305164337158e-01
4.880719780921936035e-01 -5.801609754562377930e-01 -2.786103487014770508e-01
4.471253156661987305e-01 -5.955358147621154785e-01 -2.368719875812530518e-01
3.152103722095489502e-01 -4.891090989112854004e-01 -2.112095057964324951e-01
2.210183143615722656e-01 -4.957070946693420410e-01 1.011864766478538513e-01
1.174383759498596191e-01 -5.114998221397399902e-01 7.697824388742446899e-02
4.788534343242645264e-01 -5.793297290802001953e-01 1.024193242192268372e-01
3.153036236763000488e-01 -6.039968729019165039e-01 -1.011213138699531555e-01
8.449937403202056885e-02 -5.617771744728088379e-01 -5.586802214384078979e-02
1.231647729873657227e-01 -5.583125352859497070e-01 -3.097679913043975830e-01
1.673280745744705200e-01 -5.667483210563659668e-01 8.827630430459976196e-02
3.469014763832092285e-01 -5.998629927635192871e-01 -2.431647479534149170e-01
4.449899792671203613e-01 -5.234468579292297363e-01 1.549639403820037842e-01
4.066184163093566895e-01 -5.817599296569824219e-01 -3.366444706916809082e-01
-9.372323751449584961e-02 -5.545454621315002441e-01 5.322369933128356934e-02
-2.093906402587890625e-01 -5.437451004981994629e-01 9.733464568853378296e-02
1.340558379888534546e-02 -5.537172555923461914e-01 6.378514319658279419e-02
-2.754376232624053955e-01 -5.451799035072326660e-01 -1.234533414244651794e-01
-1.293874531984329224e-01 -5.548014044761657715e-01 -3.237410634756088257e-02
-1.842056661844253540e-01 -5.539469122886657715e-01 6.458010524511337280e-02
-4.658974334597587585e-02 -5.516959428787231445e-01 -4.058635234832763672e-01
-2.277725338935852051e-01 -5.517090559005737305e-01 -2.927912175655364990e-01
-2.420710921287536621e-01 -5.533282756805419922e-01 -2.873697504401206970e-02
-1.074930801987648010e-01 -5.527661442756652832e-01 -3.578339815139770508e-01
-7.238018512725830078e-02 -5.549376010894775391e-01 -7.994650304317474365e-02
4.668680578470230103e-02 -5.436384081840515137e-01 -1.926926970481872559e-01
-8.566723763942718506e-02 -5.538317561149597168e-01 1.356521546840667725e-01
-3.541800379753112793e-02 -5.545034408569335938e-01 -2.005407810211181641e-01
-5.478922650218009949e-02 -5.479254126548767090e-01 3.012729585170745850e-01
5.097941309213638306e-02 -5.435832738876342773e-01 -1.688629090785980225e-01
-7.003073394298553467e-02 -5.422879457473754883e-01 -1.096860542893409729e-01
-2.058951556682586670e-01 -5.432406067848205566e-01 1.723762601613998413e-02
-5.695262551307678223e-02 -5.437310338020324707e-01 1.762354373931884766e-01
-1.776837259531021118e-01 -5.534200072288513184e-01 1.326200664043426514e-01
-1.341950297355651855e-01 -5.424913763999938965e-01 2.040090411901473999e-02
-3.800139576196670532e-02 -5.543280243873596191e-01 -2.307735681533813477e-01
-1.248487085103988647e-02 -5.545137524604797363e-01 -2.084383741021156311e-02
-1.837883591651916504e-01 -5.543746352195739746e-01 -5.723074451088905334e-02
-1.507174670696258545e-01 -5.538580417633056641e-01 -2.547273039817810059e-01
-2.985413372516632080e-02 -5.532566905021667480e-01 -3.274382054805755615e-01
1.072894409298896790e-01 -5.456919670104980469e-01 4.504248499870300293e-02
4.545696824789047241e-02 -5.517455935478210449e-01 1.583115160465240479e-01
-2.594453468918800354e-02 -5.547270774841308594e-01 -6.874117255210876465e-02
4.361522942781448364e-02 -5.451202392578125000e-01 -3.248445689678192139e-01
2.649753540754318237e-02 -5.430842041969299316e-01 -6.854116916656494141e-03
-1.021707803010940552e-02 -5.532140731811523438e-01 -3.189721703529357910e-01
1.245496645569801331e-01 -5.494666099548339844e-01 6.283608824014663696e-02
1.951526850461959839e-02 -5.428720116615295410e-01 -5.977547913789749146e-02
1.116967573761940002e-01 -5.451585054397583008e-01 -4.096444323658943176e-02
3.782184422016143799e-02 -5.489740967750549316e-01 2.345591187477111816e-01
-5.748160183429718018e-02 -5.440288186073303223e-01 -3.267993330955505371e-01
7.409016042947769165e-02 -5.470718741416931152e-01 1.752381324768066406e-01
-9.014762938022613525e-03 -5.536622405052185059e-01 -2.821201384067535400e-01
7.895239442586898804e-02 -5.459067225456237793e-01 -3.106755912303924561e-01
-1.731515526771545410e-01 -5.534763932228088379e-01 -2.635973691940307617e-01
-2.992180585861206055e-01 -5.489748716354370117e-01 1.165309920907020569e-01
7.669369131326675415e-02 -5.492455363273620605e-01 -3.674123883247375488e-01
-6.313776969909667969e-02 -5.537850260734558105e-01 1.333283483982086182e-01
-2.355927526950836182e-01 -5.533025860786437988e-01 -1.381550729274749756e-01
-8.761565387248992920e-02 -5.446801781654357910e-01 -3.617005050182342529e-01
-2.120859324932098389e-01 -5.432752966880798340e-01 -7.099217176437377930e-02
-1.174663752317428589e-01 -5.517683029174804688e-01 2.537613809108734131e-01
-2.435877323150634766e-01 -5.470014214515686035e-01 -3.070520162582397461e-01
5.506249517202377319e-02 -5.531417131423950195e-01 -2.346511781215667725e-01
-3.661012277007102966e-02 -5.423543453216552734e-01 -5.405764281749725342e-02
-1.291874498128890991e-01 -5.438160896301269531e-01 1.854540109634399414e-01
7.596522569656372070e-03 -5.428123474121093750e-01 -1.344923377037048340e-01
-2.551965415477752686e-01 -5.467330217361450195e-01 -2.783460021018981934e-01
-1.140002459287643433e-01 -5.544030666351318359e-01 7.109826058149337769e-02
5.328433960676193237e-02 -5.439097285270690918e-01 -2.132130563259124756e-01
7.267356663942337036e-02 -5.445220470428466797e-01 6.123466044664382935e-02
-2.189558446407318115e-01 -5.436101555824279785e-01 -1.332176625728607178e-01
-2.085444629192352295e-01 -5.527783632278442383e-01 -2.650398313999176025e-01
-2.642116248607635498e-01 -5.473316311836242676e-01 1.923212707042694092e-01
-1.592662334442138672e-01 -5.508900880813598633e-01 2.699523866176605225e-01
-1.694059222936630249e-01 -5.516254305839538574e-01 2.418011426925659180e-01
-1.655081361532211304e-01 -5.426223874092102051e-01 -5.305165797472000122e-02
-1.271968185901641846e-01 -5.424839258193969727e-01 -1.336652338504791260e-01
7.859207689762115479e-03 -5.542557239532470703e-01 -1.754456460475921631e-01
-4.705006629228591919e-02 -5.450382828712463379e-01 2.403148412704467773e-01
-1.825145781040191650e-01 -5.442929267883300781e-01 -2.783428728580474854e-01
-9.248499572277069092e-02 -5.425395369529724121e-01 -1.748614013195037842e-01
-7.212111353874206543e-02 -5.455539822578430176e-01 -3.990719914436340332e-01
-5.567994713783264160e-02 -5.423878431320190430e-01 1.001702249050140381e-02
-2.447614967823028564e-01 -5.446193814277648926e-01 -1.838614940643310547e-01
-4.562769830226898193e-02 -5.510655045509338379e-01 2.635247111320495605e-01
-1.528428494930267334e-01 -5.437642931938171387e-01 -2.722491323947906494e-01
-2.451563179492950439e-01 -5.515525937080383301e-01 1.639643311500549316e-01
-2.515855133533477783e-01 -5.526672005653381348e-01 6.285115331411361694e-02
-3.005865812301635742e-01 -5.507545471191406250e-01 4.140312224626541138e-02
6.486613303422927856e-02 -5.532377958297729492e-01 -1.893869042396545410e-01
-1.369180083274841309e-01 -5.547925829887390137e-01 -5.532125011086463928e-02
9.449141472578048706e-02 -5.494607090950012207e-01 -3.372828662395477295e-01
-3.296669200062751770e-02 -5.454686284065246582e-01 -3.919235467910766602e-01
-2.416537404060363770e-01 -5.499088168144226074e-01 2.230421602725982666e-01
-2.213996648788452148e-01 -5.440397858619689941e-01 -1.877486705780029297e-01
1.452755033969879150e-01 -5.473524332046508789e-01 -6.425314396619796753e-02
5.537713319063186646e-02 -5.434922575950622559e-01 -4.331222176551818848e-02
-2.048731446266174316e-01 -5.435789227485656738e-01 -1.725108027458190918e-01
-2.733860313892364502e-01 -5.524283647537231445e-01 -4.189696162939071655e-02
-2.284385859966278076e-01 -5.479631423950195312e-01 2.505469024181365967e-01
8.834356814622879028e-02 -5.462296009063720703e-01 1.254958510398864746e-01
-1.879942417144775391e-01 -5.519697666168212891e-01 -3.365181982517242432e-01
-1.283197999000549316e-01 -5.545071959495544434e-01 4.711883515119552612e-02
-9.332739561796188354e-02 -5.432074666023254395e-01 -2.608533203601837158e-01
9.002584964036941528e-02 -5.447673797607421875e-01 2.754823863506317139e-02
1.503952741622924805e-01 -5.488004088401794434e-01 -1.105934232473373413e-01
-1.458451896905899048e-01 -5.518473386764526367e-01 2.442353963851928711e-01
-3.645101189613342285e-02 -5.440774559974670410e-01 1.878224611282348633e-01
-6.882679462432861328e-02 -5.422713756561279297e-01 -2.095747739076614380e-02
1.193573102355003357e-01 -5.478578805923461914e-01 8.604324609041213989e-02
-2.213982343673706055e-01 -5.537393689155578613e-01 -1.489430293440818787e-02
-6.220176815986633301e-02 -5.528905391693115234e-01 -3.575590848922729492e-01
-1.430480927228927612e-02 -5.517342090606689453e-01 -3.947235345840454102e-01
-6.882686167955398560e-02 -5.435515046119689941e-01 -2.936949729919433594e-01
3.779150545597076416e-02 -5.528769493103027344e-01 -2.923334836959838867e-01
-8.531954884529113770e-02 -5.501834750175476074e-01 -4.397569596767425537e-01
-2.353045642375946045e-01 -5.534180402755737305e-01 -1.115720421075820923e-01
-1.886907964944839478e-02 -5.522857308387756348e-01 -3.752706646919250488e-01
-2.361541613936424255e-02 -5.536771416664123535e-01 1.163333430886268616e-01
-1.546189039945602417e-01 -5.443351864814758301e-01 2.063327431678771973e-01
3.159280121326446533e-02 -5.514949560165405273e-01 1.877728402614593506e-01
1.347078084945678711e-01 -5.505376458168029785e-01 -1.741686314344406128e-01
-3.064730465412139893e-01 -5.470682382583618164e-01 -1.236075907945632935e-01
-1.037999242544174194e-01 -5.549219846725463867e-01 -5.786666274070739746e-02
-1.744080781936645508e-01 -5.427368283271789551e-01 -7.549055665731430054e-02
-1.800675690174102783e-01 -5.542425513267517090e-01 1.929110288619995117e-02
7.467299699783325195e-03 -5.431427955627441406e-01 -2.038189172744750977e-01
-1.405368745326995850e-01 -5.508203506469726562e-01 2.782672643661499023e-01
-3.836180269718170166e-02 -5.545161366462707520e-01 2.672826498746871948e-02
-1.221684589982032776e-01 -5.439302325248718262e-01 -3.069803714752197266e-01
1.175285354256629944e-01 -5.517690777778625488e-01 -1.339383423328399658e-01
1.572723686695098877e-02 -5.495263934135437012e-01 2.521298229694366455e-01
-1.414462178945541382e-02 -5.545062422752380371e-01 -1.672367304563522339e-01
-2.566325068473815918e-01 -5.529568195343017578e-01 -7.036675512790679932e-02
-2.897473275661468506e-01 -5.471113324165344238e-01 -2.012696266174316406e-01
-2.111127674579620361e-01 -5.455718040466308594e-01 2.183071970939636230e-01
8.383683115243911743e-02 -5.443545579910278320e-01 -1.916132867336273193e-03
-2.888121828436851501e-02 -5.448580980300903320e-01 2.230773866176605225e-01
-1.101036220788955688e-01 -5.511887073516845703e-01 2.731511294841766357e-01
-2.482638955116271973e-01 -5.455059409141540527e-01 -2.411901056766510010e-01
-1.766339391469955444e-01 -5.498574972152709961e-01 2.826057672500610352e-01
-1.126026362180709839e-01 -5.424132943153381348e-01 2.442336827516555786e-02
-2.792915701866149902e-01 -5.497775673866271973e-01 1.590661704540252686e-01
2.676921337842941284e-02 -5.445740222930908203e-01 -3.129744231700897217e-01
-3.780650720000267029e-02 -5.541487336158752441e-01 -2.535341084003448486e-01
-1.903688460588455200e-01 -5.539974570274353027e-01 4.359500110149383545e-02
-1.020630598068237305e-01 -5.547624230384826660e-01 9.204640984535217285e-03
-1.695251762866973877e-01 -5.545008182525634766e-01 -2.885527908802032471e-02
-3.099540472030639648e-01 -5.470790266990661621e-01 -9.731443226337432861e-02
-6.709003448486328125e-02 -5.422453284263610840e-01 -4.455095157027244568e-02
-1.670894026756286621e-01 -5.545159578323364258e-01 -1.124363243579864502e-01
-1.827166229486465454e-01 -5.440806746482849121e-01 1.680098772048950195e-01
-1.303222924470901489e-01 -5.452247262001037598e-01 -3.704362511634826660e-01
-7.376619428396224976e-02 -5.424993038177490234e-01 -1.696819961071014404e-01
-5.472213029861450195e-02 -5.546415448188781738e-01 -1.898812055587768555e-01
-1.056660190224647522e-01 -5.437076091766357422e-01 1.830070912837982178e-01
3.912715613842010498e-02 -5.432641506195068359e-01 -1.419252157211303711e-01
-1.925996541976928711e-01 -5.433733463287353516e-01 8.395088464021682739e-02
9.452111274003982544e-02 -5.459374189376831055e-01 -2.808206677436828613e-01
7.603131979703903198e-02 -5.520635843276977539e-01 -2.813536524772644043e-01
1.488601863384246826e-01 -5.480230450630187988e-01 -1.367053687572479248e-01
3.212620317935943604e-02 -5.434931516647338867e-01 -2.074030339717864990e-01
-7.304138690233230591e-02 -5.544672608375549316e-01 6.119673699140548706e-02
-1.625778675079345703e-01 -5.530527830123901367e-01 1.738162934780120850e-01
-1.532640159130096436e-01 -5.452470779418945312e-01 -3.568624556064605713e-01
-1.667776703834533691e-01 -5.515567064285278320e-01 -3.720433712005615234e-01
3.849481046199798584e-02 -5.527204275131225586e-01 1.123696044087409973e-01
-2.976772189140319824e-01 -5.511531233787536621e-01 1.670401543378829956e-02
-2.832500636577606201e-01 -5.452189445495605469e-01 -8.112423121929168701e-03
1.102695614099502563e-02 -5.447357296943664551e-01 1.834975481033325195e-01
3.134315460920333862e-02 -5.539841651916503906e-01 -2.889189124107360840e-02
-9.939472377300262451e-02 -5.549029707908630371e-01 -1.192813366651535034e-01
-2.266456782817840576e-01 -5.449992418289184570e-01 1.705112755298614502e-01
-3.136847019195556641e-01 -5.472159385681152344e-01 -2.031214535236358643e-03
5.481637269258499146e-02 -5.528998970985412598e-01 6.470806151628494263e-02
-1.894905567169189453e-01 -5.450085997581481934e-01 -3.118223845958709717e-01
-2.052548229694366455e-01 -5.522902011871337891e-01 -2.997907996177673340e-01
-2.079995274543762207e-01 -5.431877374649047852e-01 -2.816861495375633240e-02
-6.547503173351287842e-03 -5.542236566543579102e-01 -2.117255032062530518e-01
-8.234511315822601318e-02 -5.547710061073303223e-01 7.636517286300659180e-03
-1.916317045688629150e-01 -5.530570149421691895e-01 1.471434235572814941e-01
-2.577561140060424805e-01 -5.518268942832946777e-01 1.218741759657859802e-01
1.481071114540100098e-01 -5.476433038711547852e-01 -9.062037616968154907e-02
-2.397044599056243896e-01 -5.521236658096313477e-01 1.410263478755950928e-01
