-5.503675937652587891e-01 2.380979657173156738e-01 -6.267543882131576538e-02
-6.029366254806518555e-01 2.794376611709594727e-01 -1.572421640157699585e-01
-8.223408460617065430e-01 2.574456334114074707e-01 -1.128315329551696777e-01
-5.969161391258239746e-01 1.293199956417083740e-01 -1.773369312286376953e-01
-7.791643738746643066e-01 1.589305400848388672e-01 -1.024624705314636230e-01
-7.111841440200805664e-01 3.343877196311950684e-02 -4.102284833788871765e-02
-6.318587660789489746e-01 2.297080904245376587e-01 6.421369314193725586e-02
-7.958450913429260254e-01 1.184602379798889160e-01 1.650782972574234009e-01
-7.143433094024658203e-01 1.104057431221008301e-01 1.698630303144454956e-01
-6.584037542343139648e-01 2.711367607116699219e-01 4.215903207659721375e-02
-6.918666958808898926e-01 2.896857857704162598e-01 -1.782897859811782837e-01
-5.581730008125305176e-01 2.528813481330871582e-01 -1.226213425397872925e-01
-6.125167012214660645e-01 1.011318415403366089e-01 1.328794211149215698e-01
-7.017180919647216797e-01 1.768852323293685913e-01 1.443476378917694092e-01
-8.143163323402404785e-01 2.661273777484893799e-01 1.179980933666229248e-01
-4.695668220520019531e-01 -1.220685243606567383e-02 -3.953339904546737671e-02
-8.934934735298156738e-01 3.256485760211944580e-01 7.340825162827968597e-03
-8.762124776840209961e-01 1.902113258838653564e-01 1.190888434648513794e-01
-7.408756613731384277e-01 1.157627999782562256e-02 5.229362845420837402e-02
-6.877149939537048340e-01 1.296564489603042603e-01 1.584457457065582275e-01
-7.703461647033691406e-01 8.001079410314559937e-02 -3.633459284901618958e-02
-8.354103565216064453e-01 3.413658142089843750e-01 -9.481338411569595337e-02
-7.173149585723876953e-01 1.898969709873199463e-02 -1.076225563883781433e-02
-7.223907709121704102e-01 1.640434861183166504e-01 1.569465249776840210e-01
-6.063061952590942383e-01 1.103914976119995117e-01 -1.671192497014999390e-01
2.462421357631683350e-02 -1.668267995119094849e-01 6.560041755437850952e-02
5.541232600808143616e-02 -4.111892357468605042e-02 -1.525102853775024414e-01
-3.770492970943450928e-03 -1.970326155424118042e-02 6.377544254064559937e-02
-1.586678475141525269e-01 -1.434455662965774536e-01 5.007638409733772278e-02
2.774419784545898438e-01 -1.233173012733459473e-01 1.926355808973312378e-01
-2.322895377874374390e-01 -1.225646361708641052e-01 -1.061155274510383606e-01
-8.450701832771301270e-03 -1.347298175096511841e-02 -2.395232394337654114e-02
-3.012680411338806152e-01 -1.111238375306129456e-01 -7.207496557384729385e-03
1.338222920894622803e-01 -1.662018895149230957e-02 6.809891667217016220e-03
-8.079722523689270020e-02 -1.608050316572189331e-01 9.411414153873920441e-03
2.386136054992675781e-01 -9.513963013887405396e-02 1.997415125370025635e-01
1.797476410865783691e-01 -1.986102759838104248e-02 -1.959595456719398499e-02
3.180150687694549561e-01 -3.314632922410964966e-02 2.494268678128719330e-02
2.756396532058715820e-01 -7.109708338975906372e-02 -1.524685025215148926e-01
4.129040837287902832e-01 -1.691654771566390991e-01 4.614057764410972595e-02
-2.231230586767196655e-01 -2.823987603187561035e-02 -6.980445701628923416e-03
2.934151589870452881e-01 -4.601498320698738098e-02 1.257208287715911865e-01
-1.084783822298049927e-01 -5.012593790888786316e-02 1.282304376363754272e-01
1.827705353498458862e-01 -4.765145853161811829e-02 1.527432948350906372e-01
-2.091602981090545654e-02 -6.350826472043991089e-02 1.651995927095413208e-01
3.559439778327941895e-01 -7.523109018802642822e-02 1.672717332839965820e-01
-2.133090049028396606e-01 -1.337078809738159180e-01 3.527135401964187622e-02
-1.111981123685836792e-01 -3.365366160869598389e-02 9.260116517543792725e-02
-3.195954859256744385e-02 -1.383771747350692749e-02 -2.889188006520271301e-02
4.740222096443176270e-01 -6.939814239740371704e-02 -3.066462464630603790e-02
3.102913498878479004e-01 -1.321741640567779541e-01 1.829750388860702515e-01
-3.304023146629333496e-01 -7.701699435710906982e-02 -8.065655827522277832e-02
2.412797063589096069e-01 -6.132264062762260437e-02 -1.505230665206909180e-01
1.335122734308242798e-01 -1.891651004552841187e-02 -4.788873717188835144e-02
1.193170920014381409e-01 -1.374723315238952637e-01 -1.652659326791763306e-01
6.229393184185028076e-02 -1.744512021541595459e-01 1.905068522319197655e-03
4.243682026863098145e-01 -1.435625851154327393e-01 -8.732526004314422607e-02
-1.789355427026748657e-01 -1.452655196189880371e-01 -4.336968436837196350e-02
-2.425161153078079224e-01 -4.246257990598678589e-02 4.938501119613647461e-02
8.566832542419433594e-02 -1.675729155540466309e-01 8.932641893625259399e-02
3.019190728664398193e-01 -1.423059701919555664e-01 -1.336820870637893677e-01
5.479817390441894531e-01 -1.184927821159362793e-01 9.273986518383026123e-02
-2.203413844108581543e-02 -4.925522953271865845e-02 -1.701415777206420898e-01
4.017029404640197754e-01 -1.175031736493110657e-01 1.757613867521286011e-01
1.476664692163467407e-01 -4.182802885770797729e-02 -1.391597092151641846e-01
4.746876955032348633e-01 -1.031441539525985718e-01 1.477138698101043701e-01
-8.139485120773315430e-02 -6.734566390514373779e-02 -1.860076338052749634e-01
-1.021158993244171143e-01 -1.584273427724838257e-01 -1.894021220505237579e-02
3.944229334592819214e-02 -1.413191556930541992e-01 1.527273058891296387e-01
2.460855245590209961e-02 -1.988870650529861450e-02 -8.605874329805374146e-02
3.465349078178405762e-01 -1.540384292602539062e-01 -9.838470071554183960e-02
2.411189824342727661e-01 -1.735163927078247070e-01 -5.491879209876060486e-02
3.279192745685577393e-01 -1.477549523115158081e-01 1.603905558586120605e-01
2.571167945861816406e-01 -1.763257682323455811e-01 -3.115904144942760468e-02
1.630953252315521240e-01 -2.332306653261184692e-02 -6.658323854207992554e-02
-9.172728657722473145e-02 -1.468734890222549438e-01 8.834423124790191650e-02
3.156555444002151489e-02 -1.149863675236701965e-01 1.818601638078689575e-01
-7.217265665531158447e-02 -2.472504228353500366e-02 -1.074254810810089111e-01
6.779551506042480469e-02 -6.054889783263206482e-02 -1.811988949775695801e-01
3.548387289047241211e-01 -1.747874766588211060e-01 3.090613521635532379e-02
1.674617826938629150e-01 -1.159860193729400635e-01 -1.834607124328613281e-01
1.793344914913177490e-01 -1.614495366811752319e-01 -1.113312914967536926e-01
-6.384068727493286133e-02 -1.719938963651657104e-02 3.289946168661117554e-02
9.669594466686248779e-02 -4.443136975169181824e-02 -1.541145443916320801e-01
-2.171079665422439575e-01 -8.763679862022399902e-02 -1.603772789239883423e-01
7.852780818939208984e-02 -3.058845549821853638e-02 1.136002987623214722e-01
-8.540883660316467285e-03 -1.264755576848983765e-01 -1.755478829145431519e-01
3.675282597541809082e-01 -9.458225965499877930e-02 1.816406250000000000e-01
4.658422470092773438e-01 -1.584640145301818848e-01 7.820675522089004517e-02
-1.739120632410049438e-01 -1.469722688198089600e-01 -1.424756832420825958e-02
-2.833386659622192383e-01 -9.100890904664993286e-02 -1.235931292176246643e-01
-1.339441835880279541e-01 -2.104488015174865723e-02 2.736025489866733551e-02
-6.304696202278137207e-02 -3.493378683924674988e-02 1.095860749483108521e-01
-9.706673026084899902e-02 -1.586738973855972290e-02 -3.026698715984821320e-02
2.914685010910034180e-01 -1.756832003593444824e-01 6.540802121162414551e-02
6.502373516559600830e-02 -3.253477811813354492e-02 -1.303973793983459473e-01
4.139860868453979492e-01 -6.744862347841262817e-02 -8.211477845907211304e-02
3.189922571182250977e-01 -1.769394874572753906e-01 2.090177498757839203e-02
6.759218126535415649e-02 -2.608445286750793457e-02 -1.085281893610954285e-01
1.144830882549285889e-01 -2.840790897607803345e-02 -1.077100560069084167e-01
6.802830845117568970e-02 -1.721965670585632324e-01 5.122831836342811584e-02
-3.449775278568267822e-02 -1.062764078378677368e-01 -1.915655732154846191e-01
-2.480623275041580200e-01 -3.344486653804779053e-02 -6.215577945113182068e-02
5.470355153083801270e-01 -1.228677481412887573e-01 -1.587343588471412659e-02
-2.584804594516754150e-02 -1.667473316192626953e-01 -3.049131296575069427e-02
-1.964388340711593628e-01 -1.075004637241363525e-01 -1.544853746891021729e-01
2.284841090440750122e-01 -2.477713674306869507e-02 4.563659802079200745e-02
4.640377759933471680e-01 -1.295374482870101929e-01 -8.464693278074264526e-02
-7.228711247444152832e-02 -1.549805551767349243e-01 -8.838711678981781006e-02
-3.830841183662414551e-02 -4.235965758562088013e-02 -1.581735163927078247e-01
-4.263246059417724609e-02 -1.642318069934844971e-01 2.860168367624282837e-02
-8.776120841503143311e-02 -4.132224991917610168e-02 1.182678192853927612e-01
7.142314314842224121e-02 -1.736979037523269653e-01 -3.287633135914802551e-02
6.442180275917053223e-02 -7.734178751707077026e-02 -1.943010836839675903e-01
1.237628683447837830e-01 -1.689751446247100830e-02 2.656594477593898773e-02
1.060757115483283997e-01 -2.250047028064727783e-02 -8.378238976001739502e-02
3.747379183769226074e-01 -5.660066008567810059e-02 1.227739378809928894e-01
2.783002257347106934e-01 -1.781547963619232178e-01 3.593511134386062622e-02
4.106229543685913086e-01 -1.615089178085327148e-01 -4.595411196351051331e-02
1.054325252771377563e-01 -1.657223701477050781e-01 1.036687642335891724e-01
5.001433938741683960e-02 -1.725993752479553223e-01 -3.121577389538288116e-02
-3.175156116485595703e-01 -5.495018512010574341e-02 -6.682033091783523560e-02
4.161102771759033203e-01 -1.291043013334274292e-01 -1.102214977145195007e-01
1.967236101627349854e-01 -3.290037810802459717e-02 -9.834587574005126953e-02
3.323980420827865601e-02 -7.983119785785675049e-02 1.853243708610534668e-01
1.012651175260543823e-01 -3.368560969829559326e-02 -1.278654187917709351e-01
2.691192626953125000e-01 -2.811130136251449585e-02 -1.828736998140811920e-02
3.912448137998580933e-02 -1.462488621473312378e-02 -4.089045524597167969e-02
1.264388114213943481e-01 -4.373153671622276306e-02 -1.477345079183578491e-01
3.132001757621765137e-01 -4.433516785502433777e-02 -8.188918232917785645e-02
5.095630884170532227e-03 -1.681092232465744019e-01 -4.776701331138610840e-02
2.188191711902618408e-01 -4.125697910785675049e-02 -1.170920655131340027e-01
2.968767583370208740e-01 -6.104444712400436401e-02 1.603733897209167480e-01
4.668251872062683105e-01 -1.275017410516738892e-01 1.479986160993576050e-01
-2.802401185035705566e-01 -7.525660842657089233e-02 6.799088418483734131e-02
1.006214544177055359e-01 -4.232962056994438171e-02 1.450872421264648438e-01
-2.291907519102096558e-01 -9.329384565353393555e-02 1.010149344801902771e-01
-1.007862985134124756e-01 -1.266376972198486328e-01 1.309431642293930054e-01
3.538634181022644043e-01 -3.860496729612350464e-02 3.717029839754104614e-02
-3.101137280464172363e-01 -1.085023060441017151e-01 -2.848974615335464478e-02
5.753865092992782593e-02 -1.461952179670333862e-01 -1.483854055404663086e-01
4.923819005489349365e-02 -1.934536546468734741e-02 -7.946769893169403076e-02
3.341190516948699951e-02 -1.493170112371444702e-02 2.858080714941024780e-02
-1.302763968706130981e-01 -1.785217225551605225e-02 -3.324037790298461914e-02
3.638741970062255859e-01 -9.866502881050109863e-02 -1.405154615640640259e-01
-1.823931932449340820e-02 -1.369684785604476929e-01 -1.579318344593048096e-01
3.871048688888549805e-01 -6.522560119628906250e-02 1.390151679515838623e-01
8.237816393375396729e-02 -1.564528346061706543e-01 1.291637718677520752e-01
-1.329638361930847168e-01 -8.866149187088012695e-02 -1.839787513017654419e-01
3.532644510269165039e-01 -1.454177796840667725e-01 1.604091972112655640e-01
-6.358325481414794922e-02 -3.483353182673454285e-02 -1.404756903648376465e-01
-4.510299861431121826e-02 -5.425411090254783630e-02 -1.762897074222564697e-01
2.618893384933471680e-01 -4.703371599316596985e-02 -1.158590018749237061e-01
5.411410927772521973e-01 -9.286624193191528320e-02 7.407198101282119751e-02
2.388841956853866577e-01 -1.319445818662643433e-01 -1.602180302143096924e-01
-2.717041373252868652e-01 -1.077176034450531006e-01 5.266787484288215637e-02
3.120362162590026855e-01 -1.708294004201889038e-01 -5.134510993957519531e-02
3.277985751628875732e-02 -1.659260988235473633e-01 -7.808990031480789185e-02
4.004499316215515137e-01 -1.672043949365615845e-01 7.985866069793701172e-02
2.583086490631103516e-01 -1.701861023902893066e-01 1.034309938549995422e-01
4.496400952339172363e-01 -5.861412361264228821e-02 6.322176009416580200e-02
-2.172622084617614746e-02 -1.669168621301651001e-01 2.293355204164981842e-02
8.519487828016281128e-02 -1.644608080387115479e-01 -9.735927730798721313e-02
2.712224721908569336e-01 -1.777466684579849243e-01 -1.008950546383857727e-02
-1.268789619207382202e-01 -4.761378467082977295e-02 -1.585195511579513550e-01
2.269896268844604492e-01 -2.303832769393920898e-02 8.258925750851631165e-03
4.234078526496887207e-01 -1.382036358118057251e-01 1.536104679107666016e-01
4.247459173202514648e-01 -5.227802693843841553e-02 -6.217210087925195694e-03
3.186255693435668945e-01 -1.495091319084167480e-01 -1.167870908975601196e-01
1.241015642881393433e-02 -1.335704326629638672e-02 -1.879885047674179077e-02
3.598140180110931396e-01 -1.638942658901214600e-01 1.132899150252342224e-01
-8.410167694091796875e-02 -1.237865239381790161e-01 -1.672748923301696777e-01
-2.012913972139358521e-01 -3.500976040959358215e-02 -1.082022264599800110e-01
4.189856350421905518e-02 -1.356313377618789673e-02 -3.545112907886505127e-03
4.572556614875793457e-01 -1.605800688266754150e-01 -9.185643866658210754e-03
5.310891568660736084e-02 -1.307313442230224609e-01 1.714811325073242188e-01
-3.570647537708282471e-02 -3.216590732336044312e-02 -1.348454505205154419e-01
5.511062741279602051e-01 -1.017051041126251221e-01 -2.737898845225572586e-03
2.390732616186141968e-01 -4.893228411674499512e-02 -1.289747655391693115e-01
-2.765697240829467773e-01 -3.788940981030464172e-02 -3.656528517603874207e-02
1.855763942003250122e-01 -1.418587118387222290e-01 1.738716810941696167e-01
-1.076520979404449463e-01 -1.486706435680389404e-01 7.076974958181381226e-02
-3.772151470184326172e-02 -1.007506176829338074e-01 1.734938472509384155e-01
-1.547771543264389038e-01 -1.496345400810241699e-01 7.267933338880538940e-03
-1.057606488466262817e-01 -1.856313645839691162e-02 2.455183491110801697e-02
5.234349370002746582e-01 -1.429150253534317017e-01 -7.245739456266164780e-03
1.843115240335464478e-01 -1.963430643081665039e-02 4.549225326627492905e-03
4.366539716720581055e-01 -7.626391947269439697e-02 -8.379813283681869507e-02
-5.997896194458007812e-02 -1.349766105413436890e-01 1.332104206085205078e-01
3.078523278236389160e-01 -3.198221325874328613e-02 -1.347992685623466969e-03
-2.753531932830810547e-01 -6.064652279019355774e-02 -1.231185719370841980e-01
3.481200337409973145e-01 -1.325473636388778687e-01 -1.330049186944961548e-01
4.728212952613830566e-01 -6.247142702341079712e-02 2.333261817693710327e-02
1.030210554599761963e-01 -1.530708223581314087e-01 -1.350796520709991455e-01
-2.669330239295959473e-01 -1.171411722898483276e-01 3.357015922665596008e-02
1.327881664037704468e-01 -3.817309811711311340e-02 1.341706812381744385e-01
3.177660703659057617e-01 -7.629813253879547119e-02 -1.436968594789505005e-01
2.101536691188812256e-01 -9.214942157268524170e-02 2.000493407249450684e-01
1.165433228015899658e-01 -1.765455603599548340e-01 3.139786422252655029e-02
3.796378970146179199e-01 -1.698712408542633057e-01 7.449395209550857544e-02
4.149993062019348145e-01 -1.659970283508300781e-01 -1.863249950110912323e-02
1.526975929737091064e-01 -1.739661693572998047e-01 7.306382060050964355e-02
-1.552624553442001343e-01 -1.360426992177963257e-01 8.136659860610961914e-02
5.602049231529235840e-01 -1.024181470274925232e-01 4.897604882717132568e-02
-1.957931071519851685e-01 -1.427266895771026611e-01 -2.097972109913825989e-02
-2.167197316884994507e-01 -3.675375878810882568e-02 5.045319348573684692e-02
2.908067107200622559e-01 -1.755085885524749756e-01 -2.740146405994892120e-02
1.073769479990005493e-01 -1.737702339887619019e-01 -4.857013747096061707e-02
1.403328180313110352e-01 -1.780366301536560059e-01 1.655738102272152901e-03
-5.838987231254577637e-02 -1.614676415920257568e-01 -5.539120733737945557e-02
-2.565190792083740234e-01 -4.816043004393577576e-02 -1.141600981354713440e-01
4.384803175926208496e-01 -8.212228864431381226e-02 1.456560939550399780e-01
3.334850668907165527e-01 -4.111737385392189026e-02 8.565541356801986694e-02
1.796896457672119141e-01 -1.515316516160964966e-01 -1.369300186634063721e-01
4.220060110092163086e-01 -5.699066445231437683e-02 9.071633964776992798e-02
1.605875790119171143e-01 -1.779451966285705566e-01 -1.589370146393775940e-02
-5.674920976161956787e-03 -1.456106752157211304e-01 1.308963447809219360e-01
4.038292169570922852e-01 -4.987702146172523499e-02 7.013302296400070190e-02
1.358304172754287720e-02 -1.310673803091049194e-01 1.622564643621444702e-01
3.278941512107849121e-01 -3.643945977091789246e-02 5.733697116374969482e-02
-8.406729996204376221e-02 -1.697570085525512695e-02 2.150899358093738556e-02
-2.105163186788558960e-01 -4.654340073466300964e-02 8.038023114204406738e-02
5.048270821571350098e-01 -8.955527842044830322e-02 -4.832939803600311279e-02
-9.458950161933898926e-02 -1.578226089477539062e-01 -4.942435398697853088e-02
1.032896488904953003e-01 -1.113311946392059326e-01 -1.912913024425506592e-01
2.106790095567703247e-01 -2.370837330818176270e-02 -3.780045360326766968e-02
4.193863272666931152e-01 -1.028373539447784424e-01 -1.174422875046730042e-01
-1.971405893564224243e-01 -2.437621355056762695e-02 -4.378364607691764832e-02
-5.405956506729125977e-02 -1.207529604434967041e-01 1.556228995323181152e-01
-1.673460006713867188e-02 -1.443181931972503662e-02 -4.367369413375854492e-02
2.136077284812927246e-01 -5.819890648126602173e-02 -1.536319553852081299e-01
-5.504114925861358643e-02 -6.679904460906982422e-02 1.611458510160446167e-01
-4.204942286014556885e-02 -3.048028796911239624e-02 1.015186905860900879e-01
8.815133571624755859e-02 -6.854828447103500366e-02 -1.869433373212814331e-01
9.102149307727813721e-02 -2.531231939792633057e-02 -1.008871570229530334e-01
1.648918241262435913e-01 -1.883853971958160400e-02 2.379824966192245483e-02
-1.396957039833068848e-02 -1.684955805540084839e-01 2.260645385831594467e-03
1.256311982870101929e-01 -1.456140875816345215e-01 1.617012470960617065e-01
-1.475607305765151978e-01 -2.132277190685272217e-02 -6.549517810344696045e-02
-2.634044885635375977e-01 -5.032948032021522522e-02 5.257356911897659302e-02
1.856443881988525391e-01 -1.790841519832611084e-01 1.063051074743270874e-02
3.846875429153442383e-01 -4.749855771660804749e-02 -3.534733131527900696e-02
3.028515577316284180e-01 -3.683288022875785828e-02 8.313674479722976685e-02
1.439874470233917236e-01 -1.803200691938400269e-02 -2.960337512195110321e-02
5.255836248397827148e-01 -8.166415989398956299e-02 5.761761963367462158e-02
4.604218006134033203e-01 -1.454395204782485962e-01 1.264982670545578003e-01
3.885853290557861328e-01 -4.475042968988418579e-02 -4.115291405469179153e-03
9.493693709373474121e-03 -1.073003634810447693e-01 -1.939383894205093384e-01
2.733507156372070312e-01 -1.668415069580078125e-01 -8.046504855155944824e-02
6.944246590137481689e-03 -1.621066033840179443e-01 -8.913480490446090698e-02
7.152810692787170410e-03 -1.631482988595962524e-01 7.691081613302230835e-02
4.031872749328613281e-01 -1.498031616210937500e-01 -8.524567633867263794e-02
3.036361932754516602e-01 -1.575242877006530762e-01 -1.026517227292060852e-01
-5.388680100440979004e-02 -1.544916331768035889e-01 -9.989164769649505615e-02
2.652391791343688965e-01 -5.648793280124664307e-02 -1.349571645259857178e-01
-5.064938962459564209e-02 -1.645366251468658447e-01 7.836844772100448608e-03
3.437148928642272949e-01 -4.681024327874183655e-02 -7.052215188741683960e-02
6.990663707256317139e-03 -8.848646283149719238e-02 1.837967038154602051e-01
3.286400437355041504e-02 -4.526272788643836975e-02 -1.622767746448516846e-01
8.313534408807754517e-02 -1.721799373626708984e-01 -5.391079559922218323e-02
-2.517558932304382324e-01 -6.345877051353454590e-02 -1.394237279891967773e-01
4.327740520238876343e-02 -1.194336339831352234e-01 -1.864541471004486084e-01
1.450830101966857910e-01 -1.413389146327972412e-01 -1.582602560520172119e-01
-3.428618311882019043e-01 -7.599599659442901611e-02 -3.519311547279357910e-02
2.302387654781341553e-01 -1.134452894330024719e-01 -1.755636632442474365e-01
-2.182564288377761841e-01 -1.127695292234420776e-01 -1.371489465236663818e-01
1.081577390432357788e-01 -1.705040335655212402e-01 8.147864788770675659e-02
3.428944945335388184e-01 -1.590865105390548706e-01 1.328136175870895386e-01
1.611124277114868164e-01 -1.318309605121612549e-01 -1.703281253576278687e-01
2.815288901329040527e-01 -3.070517629384994507e-02 5.533597618341445923e-02
4.850253462791442871e-01 -8.128756284713745117e-02 -5.305966362357139587e-02
2.821974456310272217e-01 -1.552247703075408936e-01 -1.135838627815246582e-01
5.462048053741455078e-01 -1.356545537710189819e-01 6.661458313465118408e-02
-1.289497017860412598e-01 -1.542705446481704712e-01 -3.088505752384662628e-02
-1.956463009119033813e-01 -2.656264603137969971e-02 -7.036674022674560547e-02
2.986531704664230347e-02 -1.490282416343688965e-01 1.341833025217056274e-01
1.737743020057678223e-01 -1.008301153779029846e-01 2.013908773660659790e-01
-6.353856623172760010e-02 -1.031078323721885681e-01 1.657940000295639038e-01
-2.033676058053970337e-01 -7.188052684068679810e-02 -1.640554815530776978e-01
1.642128527164459229e-01 -1.658493280410766602e-01 1.152808070182800293e-01
1.000079810619354248e-01 -1.518266648054122925e-02 7.149089593440294266e-03
3.786141276359558105e-01 -1.399570107460021973e-01 1.634564995765686035e-01
4.889793694019317627e-02 -1.669195592403411865e-01 7.786127179861068726e-02
1.651836037635803223e-01 -1.451066732406616211e-01 1.671841591596603394e-01
2.403162121772766113e-01 -1.781557500362396240e-01 4.655984416604042053e-02
8.985489606857299805e-02 -1.747007369995117188e-01 3.888161107897758484e-02
3.747313022613525391e-01 -1.631792485713958740e-01 -5.946224182844161987e-02
2.295946180820465088e-01 -2.407341450452804565e-02 -1.985398121178150177e-02
-2.602218389511108398e-01 -3.527565300464630127e-02 -6.291397381573915482e-03
-8.260582387447357178e-02 -1.394263952970504761e-01 1.143179982900619507e-01
-2.559971213340759277e-01 -3.347194194793701172e-02 -4.241469129920005798e-02
3.332145810127258301e-01 -1.682500988245010376e-01 1.020854935050010681e-01
-3.198879957199096680e-02 -1.252314746379852295e-01 1.572580188512802124e-01
2.139809131622314453e-01 -1.754615008831024170e-01 7.275625318288803101e-02
-2.300320714712142944e-01 -1.245898231863975525e-01 5.270329490303993225e-02
-2.744789719581604004e-01 -1.186852008104324341e-01 -7.136643677949905396e-02
-2.536813020706176758e-01 -3.867850080132484436e-02 -8.681419491767883301e-02
1.774336844682693481e-01 -2.152994275093078613e-02 5.009161308407783508e-02
2.390927821397781372e-01 -3.890823200345039368e-02 1.196265295147895813e-01
2.182379662990570068e-01 -1.789951026439666748e-01 3.093013167381286621e-02
-8.646142482757568359e-02 -3.917665779590606689e-02 -1.484798491001129150e-01
-5.239984393119812012e-02 -1.226080805063247681e-01 -1.747151911258697510e-01
2.010327577590942383e-01 -2.161700278520584106e-02 3.121894411742687225e-02
1.924041211605072021e-01 -5.317772924900054932e-02 -1.510269641876220703e-01
-3.281897902488708496e-01 -9.802635759115219116e-02 -3.512062132358551025e-02
1.465041637420654297e-01 -6.337781250476837158e-02 -1.745660006999969482e-01
7.111044228076934814e-02 -1.596949994564056396e-02 -4.731415584683418274e-02
2.399313747882843018e-01 -1.782666593790054321e-01 -1.302564330399036407e-02
-3.991517424583435059e-02 -1.338311284780502319e-01 -1.599758416414260864e-01
2.353827059268951416e-01 -2.768174558877944946e-02 -5.107891932129859924e-02
-1.487016528844833374e-01 -4.956752434372901917e-02 1.139196902513504028e-01
4.496324062347412109e-02 -2.851226925849914551e-02 -1.204128414392471313e-01
-1.411028355360031128e-01 -1.480820327997207642e-01 -7.555155456066131592e-02
4.244538545608520508e-01 -5.720132589340209961e-02 -3.998618945479393005e-02
4.112334251403808594e-01 -1.607192754745483398e-01 1.063993573188781738e-01
-1.403042227029800415e-01 -3.420643135905265808e-02 -1.271456778049468994e-01
2.067048996686935425e-01 -4.306953027844429016e-02 1.389247030019760132e-01
6.774254888296127319e-02 -1.435956954956054688e-01 1.550946235656738281e-01
1.286495178937911987e-01 -1.915467530488967896e-02 5.074538663029670715e-02
9.548178315162658691e-02 -1.320237666368484497e-01 1.772800385951995850e-01
3.595352470874786377e-01 -1.733570098876953125e-01 5.538981035351753235e-02
-7.672421634197235107e-02 -1.627863198518753052e-02 -5.296492204070091248e-02
4.347025603055953979e-02 -1.698095500469207764e-01 5.592250823974609375e-02
2.444333583116531372e-01 -1.600030958652496338e-01 -1.084921434521675110e-01
3.365861177444458008e-01 -1.746207773685455322e-01 -1.021071244031190872e-02
3.287135958671569824e-01 -3.506303206086158752e-02 -6.301187444478273392e-03
-1.238988339900970459e-02 -1.119308620691299438e-01 1.744422316551208496e-01
-1.899610906839370728e-01 -3.968757390975952148e-02 -1.266874074935913086e-01
1.543549150228500366e-01 -1.719319820404052734e-01 -6.857991218566894531e-02
1.593506932258605957e-01 -1.573261022567749023e-01 1.409467160701751709e-01
3.592801690101623535e-01 -6.440447270870208740e-02 -1.089806407690048218e-01
1.935934722423553467e-01 -7.286988198757171631e-02 1.888570040464401245e-01
8.054765313863754272e-02 -1.492007672786712646e-01 -1.432724148035049438e-01
3.017808198928833008e-01 -1.080518811941146851e-01 -1.610084027051925659e-01
1.746372580528259277e-01 -2.779917418956756592e-02 -8.581762015819549561e-02
-2.733129262924194336e-01 -4.666915535926818848e-02 -9.774746000766754150e-02
2.589917480945587158e-01 -1.789186596870422363e-01 1.762649975717067719e-02
4.126682281494140625e-01 -4.844179004430770874e-02 2.414882183074951172e-02
8.902352303266525269e-02 -7.280132919549942017e-02 1.870062947273254395e-01
4.298008084297180176e-01 -1.183274388313293457e-01 1.671517193317413330e-01
3.751508593559265137e-01 -7.252204418182373047e-02 1.573645323514938354e-01
4.438620209693908691e-01 -5.534482374787330627e-02 3.783516958355903625e-02
-2.482454031705856323e-01 -1.264130771160125732e-01 2.119902707636356354e-02
3.384654819965362549e-01 -5.233218520879745483e-02 1.273141950368881226e-01
-2.367912381887435913e-01 -1.127373054623603821e-01 7.515779882669448853e-02
-1.585376113653182983e-01 -4.464396461844444275e-02 -1.468431204557418823e-01
4.406079649925231934e-01 -9.176673740148544312e-02 -1.005524620413780212e-01
1.336035430431365967e-01 -1.701709032058715820e-01 -7.664755731821060181e-02
3.557780086994171143e-01 -7.663266360759735107e-02 -1.288949251174926758e-01
1.532112360000610352e-01 -2.689846605062484741e-02 9.262011945247650146e-02
-2.937299609184265137e-01 -1.088244765996932983e-01 -8.207736164331436157e-02
-1.681484431028366089e-01 -7.473953813314437866e-02 1.310411542654037476e-01
4.457941055297851562e-01 -6.501803547143936157e-02 -4.810662567615509033e-02
-4.851630330085754395e-02 -1.600212007761001587e-01 5.788380280137062073e-02
1.426752656698226929e-02 -2.956990897655487061e-02 -1.264613866806030273e-01
-9.252443909645080566e-02 -1.575139909982681274e-02 -4.451045300811529160e-03
-3.397154808044433594e-02 -1.615425348281860352e-01 -7.340036332607269287e-02
-6.336958706378936768e-02 -1.439267396926879883e-02 -1.129078865051269531e-02
-1.856834441423416138e-01 -1.295808851718902588e-01 -1.187092736363410950e-01
-5.119149386882781982e-02 -1.487155258655548096e-02 1.202777773141860962e-02
5.656498670578002930e-02 -7.090717554092407227e-02 1.826693117618560791e-01
-2.148972004652023315e-01 -5.880669131875038147e-02 -1.505433470010757446e-01
2.773287892341613770e-01 -3.589202091097831726e-02 9.306006133556365967e-02
-1.644123047590255737e-01 -1.210967749357223511e-01 -1.477326154708862305e-01
8.560266345739364624e-02 -1.757121682167053223e-01 -4.876097198575735092e-03
1.300192624330520630e-02 -1.550440788269042969e-01 -1.188856959342956543e-01
-6.007388234138488770e-02 -1.480126827955245972e-01 1.020601987838745117e-01
2.235909700393676758e-01 -5.363383889198303223e-02 1.600059568881988525e-01
1.110688596963882446e-01 -1.764998435974121094e-01 -1.626602374017238617e-02
9.545923769474029541e-02 -1.478919386863708496e-01 1.523942649364471436e-01
1.815122812986373901e-01 -4.099005460739135742e-02 -1.284383386373519897e-01
5.277979969978332520e-01 -9.877663850784301758e-02 -3.553812578320503235e-02
2.785166352987289429e-02 -1.694623231887817383e-01 -5.075926333665847778e-02
-1.679808944463729858e-01 -1.402131170034408569e-01 -9.333914518356323242e-02
1.872956454753875732e-01 -1.699101775884628296e-01 1.017208620905876160e-01
2.953069210052490234e-01 -1.101990640163421631e-01 1.961840838193893433e-01
8.125904947519302368e-02 -1.567849516868591309e-02 2.945166639983654022e-02
2.400253862142562866e-01 -6.330546736717224121e-02 1.739409267902374268e-01
5.267661809921264648e-01 -1.467591822147369385e-01 2.890989556908607483e-02
3.556904196739196777e-01 -1.309279203414916992e-01 1.778434813022613525e-01
1.955187916755676270e-01 -1.249440684914588928e-01 -1.735755652189254761e-01
6.591492891311645508e-02 -1.237575486302375793e-01 -1.827201992273330688e-01
1.898439526557922363e-01 -1.780002713203430176e-01 4.452577605843544006e-02
4.991441369056701660e-01 -1.539049446582794189e-01 5.908106267452239990e-02
1.095715910196304321e-02 -1.707452982664108276e-01 -1.730943447910249233e-03
2.945962548255920410e-01 -3.325156867504119873e-02 -3.921685367822647095e-02
-2.036059349775314331e-01 -1.062154620885848999e-01 1.064521893858909607e-01
8.139014244079589844e-03 -1.713199168443679810e-02 -6.995406746864318848e-02
3.118818998336791992e-01 -3.386026993393898010e-02 -2.284851297736167908e-02
4.998801946640014648e-01 -1.499892175197601318e-01 8.317145705223083496e-02
-1.798643618822097778e-01 -3.629215806722640991e-02 7.144337147474288940e-02
2.491443157196044922e-01 -1.677623987197875977e-01 -8.164097368717193604e-02
-8.658623695373535156e-02 -5.643104016780853271e-02 1.430086791515350342e-01
3.848885893821716309e-01 -1.360212713479995728e-01 -1.160149797797203064e-01
-1.129979193210601807e-01 -1.566811501979827881e-01 1.525820698589086533e-03
2.076775282621383667e-01 -1.141597777605056763e-01 1.992914825677871704e-01
2.191432416439056396e-01 -1.756392121315002441e-01 -4.347666725516319275e-02
1.789583414793014526e-01 -1.741498410701751709e-01 -5.579150468111038208e-02
-5.718773603439331055e-02 -2.225106954574584961e-02 6.663356721401214600e-02
1.962370872497558594e-01 -1.554561853408813477e-01 1.490737944841384888e-01
-1.317741870880126953e-01 -1.046997234225273132e-01 1.419863551855087280e-01
4.089363664388656616e-02 -6.129477918148040771e-02 -1.837603896856307983e-01
5.634374916553497314e-03 -3.793560341000556946e-02 1.291285008192062378e-01
5.944110080599784851e-02 -1.737500280141830444e-01 2.350393496453762054e-02
-1.022627353668212891e-01 -1.503295153379440308e-01 -9.334211051464080811e-02
3.352708220481872559e-01 -6.084246188402175903e-02 -1.141351088881492615e-01
-3.187573552131652832e-01 -5.222006514668464661e-02 -4.124501347541809082e-02
4.871933162212371826e-02 -1.657138764858245850e-02 4.458659142255783081e-02
-1.686102896928787231e-01 -2.428514510393142700e-02 -7.471289485692977905e-02
-3.160440921783447266e-01 -8.116323500871658325e-02 3.259262442588806152e-02
2.278246283531188965e-01 -7.161160558462142944e-02 -1.662983149290084839e-01
-3.991012275218963623e-02 -7.920342683792114258e-02 1.719435900449752808e-01
1.434262394905090332e-01 -1.196642443537712097e-01 -1.833427399396896362e-01
-1.236948370933532715e-01 -1.276026219129562378e-01 1.189935877919197083e-01
-2.496364712715148926e-02 -1.560499966144561768e-01 9.190387278795242310e-02
-2.973309159278869629e-01 -4.533126950263977051e-02 -8.367082104086875916e-03
3.490890264511108398e-01 -3.941526263952255249e-02 5.771820247173309326e-02
-1.406011432409286499e-01 -1.152924448251724243e-01 -1.643825620412826538e-01
-1.571559756994247437e-01 -2.007630467414855957e-02 -3.847122937440872192e-02
2.927391529083251953e-01 -8.441498875617980957e-02 1.894129812717437744e-01
2.716324925422668457e-01 -2.815987914800643921e-02 3.622633963823318481e-02
-8.563925325870513916e-02 -1.486745774745941162e-01 -1.090164408087730408e-01
4.971910715103149414e-01 -9.422898292541503906e-02 1.267447620630264282e-01
1.742063015699386597e-01 -2.176504582166671753e-02 -4.853869974613189697e-02
-4.038044810295104980e-02 -1.495781987905502319e-01 -1.226901561021804810e-01
-3.032711148262023926e-01 -6.538733839988708496e-02 -1.067132130265235901e-01
2.483416944742202759e-01 -4.724752157926559448e-02 1.417409777641296387e-01
2.295620739459991455e-01 -1.404064744710922241e-01 1.774194687604904175e-01
-2.836939096450805664e-01 -1.190671324729919434e-01 -1.683990284800529480e-02
-1.980631798505783081e-01 -8.557581901550292969e-02 1.198422536253929138e-01
2.486564666032791138e-01 -3.325814008712768555e-02 -7.482293248176574707e-02
-2.491436451673507690e-01 -1.004002839326858521e-01 -1.370194852352142334e-01
-1.155596822500228882e-01 -9.408608078956604004e-02 1.524151712656021118e-01
-1.241634190082550049e-01 -2.056445181369781494e-02 -7.242857664823532104e-02
2.451888918876647949e-01 -2.515047043561935425e-02 2.836205437779426575e-02
-1.337717175483703613e-01 -1.467799395322799683e-01 5.780028179287910461e-02
5.386272817850112915e-02 -1.605311930179595947e-01 -1.077698841691017151e-01
1.498125642538070679e-01 -1.643503010272979736e-01 -1.024071574211120605e-01
1.874862611293792725e-01 -1.671230494976043701e-01 -9.108953177928924561e-02
4.787466526031494141e-01 -9.435644000768661499e-02 -7.728382200002670288e-02
2.383747547864913940e-01 -1.623453646898269653e-01 1.325218826532363892e-01
-3.295801281929016113e-01 -8.209475129842758179e-02 1.135111320763826370e-02
7.618711888790130615e-02 -1.433515548706054688e-02 1.942382892593741417e-03
4.897057414054870605e-01 -1.509602069854736328e-01 -2.116458117961883545e-02
-1.017128229141235352e-01 -1.426010131835937500e-01 -1.225908920168876648e-01
5.299654006958007812e-01 -8.407723158597946167e-02 8.056860417127609253e-03
5.473185777664184570e-01 -1.373279541730880737e-01 2.448248490691184998e-02
2.494848668575286865e-01 -1.479316353797912598e-01 1.656925529241561890e-01
8.883966505527496338e-02 -1.825108379125595093e-02 5.361543223261833191e-02
1.292731314897537231e-01 -8.119225502014160156e-02 -1.904161423444747925e-01
-4.503829777240753174e-02 -2.550262212753295898e-02 -1.128734573721885681e-01
-9.993702173233032227e-03 -1.555368453264236450e-01 -1.114365234971046448e-01
2.379772812128067017e-01 -1.734690368175506592e-01 8.680030703544616699e-02
-1.122426688671112061e-01 -6.899315118789672852e-02 -1.832498311996459961e-01
2.066380232572555542e-01 -7.682323455810546875e-02 -1.753947883844375610e-01
3.744249343872070312e-01 -5.199655890464782715e-02 -6.669107824563980103e-02
-1.853735893964767456e-01 -8.898683637380599976e-02 -1.708646863698959351e-01
1.654535681009292603e-01 -8.244837820529937744e-02 -1.860671639442443848e-01
-2.609907984733581543e-01 -1.167398467659950256e-01 -9.721906483173370361e-02
1.517096757888793945e-01 -2.823556959629058838e-02 -9.628275781869888306e-02
4.702495336532592773e-01 -1.610082685947418213e-01 2.353754267096519470e-02
-3.288108110427856445e-02 -4.973714053630828857e-02 1.457963734865188599e-01
-1.627588719129562378e-01 -1.038236618041992188e-01 1.294381022453308105e-01
-3.108403086662292480e-01 -8.840875327587127686e-02 -1.010373458266258240e-01
1.666500568389892578e-01 -5.619174242019653320e-02 1.694758981466293335e-01
3.714157342910766602e-01 -1.710358858108520508e-01 -1.817296259105205536e-02
5.083271265029907227e-01 -1.507855057716369629e-01 6.874972023069858551e-03
1.965160965919494629e-01 -1.644795984029769897e-01 1.238268688321113586e-01
4.385748505592346191e-01 -9.823574125766754150e-02 1.615083515644073486e-01
2.094302773475646973e-01 -3.321986645460128784e-02 1.066969335079193115e-01
2.571969628334045410e-01 -1.166918799281120300e-01 1.972065120935440063e-01
1.080545485019683838e-01 -1.618118733167648315e-01 -1.097534298896789551e-01
2.846328914165496826e-02 -2.459734678268432617e-02 -1.077948138117790222e-01
2.793725579977035522e-02 -7.655094563961029053e-02 -1.952999234199523926e-01
-9.367690980434417725e-02 -1.094707325100898743e-01 1.527425199747085571e-01
5.156331658363342285e-01 -7.637904584407806396e-02 2.366227097809314728e-02
-3.199490308761596680e-01 -1.006183847784996033e-01 -5.083042196929454803e-03
7.023550570011138916e-02 -2.321736514568328857e-02 8.495741337537765503e-02
3.519596457481384277e-01 -4.614769294857978821e-02 9.781558811664581299e-02
-2.737069129943847656e-02 -1.643722653388977051e-01 4.459724575281143188e-02
-2.269398719072341919e-01 -6.912948191165924072e-02 1.003227084875106812e-01
2.278838008642196655e-01 -1.792494654655456543e-01 1.048322394490242004e-02
-2.355883270502090454e-01 -1.304896473884582520e-01 -6.827440857887268066e-02
4.174463152885437012e-01 -1.541588902473449707e-01 -6.710998713970184326e-02
3.803915977478027344e-01 -4.494934156537055969e-02 6.382617354393005371e-02
-1.343417167663574219e-01 -1.503951847553253174e-01 3.583797439932823181e-02
3.337052464485168457e-01 -1.747767627239227295e-01 5.720101669430732727e-02
2.316552698612213135e-01 -1.505748331546783447e-01 -1.330825388431549072e-01
-3.113580942153930664e-01 -5.912578478455543518e-02 2.027868479490280151e-02
-1.200392395257949829e-01 -1.723321527242660522e-02 -7.651876192539930344e-03
2.413416057825088501e-01 -3.044901043176651001e-02 8.187547326087951660e-02
3.057221323251724243e-02 -1.710353046655654907e-01 3.300401568412780762e-02
-2.158350497484207153e-01 -3.060273081064224243e-02 -7.966920733451843262e-02
-2.313685417175292969e-02 -1.812142878770828247e-02 5.098315700888633728e-02
3.291552662849426270e-01 -1.257184445858001709e-01 -1.450518071651458740e-01
4.944617152214050293e-01 -7.353866100311279297e-02 -1.708642579615116119e-02
-1.116469651460647583e-01 -1.537704318761825562e-01 -6.587834656238555908e-02
-2.403578907251358032e-01 -5.664746090769767761e-02 8.005574345588684082e-02
2.765119671821594238e-01 -1.600206792354583740e-01 1.382742971181869507e-01
-8.649295568466186523e-02 -1.357064396142959595e-01 -1.455502808094024658e-01
-3.374677896499633789e-01 -8.503964543342590332e-02 -5.874225869774818420e-02
9.056147933006286621e-02 -1.486267149448394775e-02 -1.572815142571926117e-02
-2.935656309127807617e-01 -4.495197162032127380e-02 -6.529553979635238647e-02
-1.897515505552291870e-01 -2.455095946788787842e-02 5.851528607308864594e-03
-2.808004617691040039e-03 -8.964041620492935181e-02 -1.981382966041564941e-01
-2.202402204275131226e-01 -1.364141404628753662e-01 -4.823229461908340454e-02
1.443162262439727783e-01 -1.544583141803741455e-01 -1.319199204444885254e-01
2.330747991800308228e-01 -1.245165467262268066e-01 1.935840249061584473e-01
-3.848451375961303711e-02 -1.665574312210083008e-02 3.646221384406089783e-02
2.865481376647949219e-01 -5.204767361283302307e-02 -1.176135689020156860e-01
3.721354603767395020e-01 -4.719449579715728760e-02 8.762066811323165894e-02
-1.051350682973861694e-01 -1.562816649675369263e-01 2.558403648436069489e-02
3.419462740421295166e-01 -6.436738371849060059e-02 1.542791575193405151e-01
2.899994254112243652e-01 -4.334011673927307129e-02 -9.189029037952423096e-02
-1.480362862348556519e-01 -2.454209327697753906e-02 -8.734331279993057251e-02
4.764207601547241211e-01 -7.109159231185913086e-02 9.308660030364990234e-02
2.965677976608276367e-01 -1.778767853975296021e-01 1.669120602309703827e-02
4.199309945106506348e-01 -5.106852576136589050e-02 5.238918587565422058e-02
-1.689333468675613403e-01 -3.500179573893547058e-02 -1.212467700242996216e-01
2.792041897773742676e-01 -1.474000811576843262e-01 1.655730009078979492e-01
-1.136845052242279053e-01 -6.560157239437103271e-02 1.446157246828079224e-01
-1.557805389165878296e-01 -6.004618108272552490e-02 -1.686303615570068359e-01
4.000601172447204590e-01 -7.260428369045257568e-02 -1.010413020849227905e-01
1.405406892299652100e-01 -1.772558838129043579e-01 3.597485274076461792e-02
-1.937990337610244751e-01 -2.362903207540512085e-02 -1.991936191916465759e-02
3.556765988469123840e-02 -3.962659463286399841e-02 4.809074103832244873e-01
5.512466654181480408e-02 -1.022996157407760620e-01 2.496041804552078247e-01
-1.159165129065513611e-01 -2.769125252962112427e-02 6.170505285263061523e-01
3.762822225689888000e-02 -6.263978779315948486e-02 2.295184284448623657e-01
-6.586527824401855469e-02 -3.337352722883224487e-02 4.717207551002502441e-01
-1.530469954013824463e-01 -4.123514145612716675e-02 6.685697436332702637e-01
1.203056052327156067e-01 -7.660523056983947754e-02 1.545245647430419922e-01
-1.749448711052536964e-03 -6.836017221212387085e-02 5.680457949638366699e-01
7.250766456127166748e-02 -6.790988892316818237e-02 1.900910735130310059e-01
-3.106048796325922012e-03 -8.955594897270202637e-02 4.682214856147766113e-01
4.556817188858985901e-02 -9.954074770212173462e-02 3.470094799995422363e-01
-1.160855963826179504e-02 -3.252790495753288269e-02 4.460544884204864502e-01
-3.317195549607276917e-02 -8.839370310306549072e-02 3.348163962364196777e-01
4.780010506510734558e-02 -5.893301218748092651e-02 2.364283800125122070e-01
7.402699440717697144e-02 -5.638680607080459595e-02 2.421557158231735229e-01
-1.360538601875305176e-02 -4.446418210864067078e-02 3.490190505981445312e-01
-2.751130051910877228e-02 -2.867199108004570007e-02 5.323311090469360352e-01
-5.155708268284797668e-02 -7.612244039773941040e-02 3.372587859630584717e-01
1.751272380352020264e-02 -9.953866899013519287e-02 3.302166461944580078e-01
-1.079194992780685425e-01 -7.037896662950515747e-02 5.927852392196655273e-01
-9.248123317956924438e-02 -2.581696957349777222e-02 6.152908802032470703e-01
-6.270083039999008179e-02 -6.016633287072181702e-02 6.460832357406616211e-01
8.302630856633186340e-03 -8.383309841156005859e-02 4.975880980491638184e-01
-7.232110202312469482e-02 -8.388447761535644531e-02 4.652736485004425049e-01
9.448200464248657227e-02 -8.679283410310745239e-02 3.701877593994140625e-01
-2.702696807682514191e-02 -9.130666404962539673e-02 4.474496245384216309e-01
-1.458720117807388306e-02 -3.429065644741058350e-02 4.243133962154388428e-01
1.045916602015495300e-01 -5.881908163428306580e-02 2.446489632129669189e-01
-1.539808213710784912e-01 -4.559019580483436584e-02 6.434942483901977539e-01
2.004191465675830841e-02 -9.531541168689727783e-02 2.491154372692108154e-01
-6.328331679105758667e-02 -8.603826165199279785e-02 4.453687071800231934e-01
1.044565513730049133e-01 -9.429292380809783936e-02 3.140383064746856689e-01
-2.314585819840431213e-02 -8.492790162563323975e-02 5.102639198303222656e-01
1.976155210286378860e-03 -9.531518071889877319e-02 4.089430570602416992e-01
1.618044450879096985e-02 -9.877580404281616211e-02 2.943286895751953125e-01
-3.776668012142181396e-02 -6.634938716888427734e-02 6.090595126152038574e-01
8.189687877893447876e-02 -1.029749810695648193e-01 2.169486284255981445e-01
-1.245815865695476532e-02 -5.204647779464721680e-02 3.132375478744506836e-01
5.863153934478759766e-02 -5.695001780986785889e-02 4.869337677955627441e-01
1.022062227129936218e-01 -1.026698276400566101e-01 2.104516923427581787e-01
-3.021540865302085876e-02 -7.187566161155700684e-02 2.953275740146636963e-01
1.050754114985466003e-01 -9.618211537599563599e-02 1.468291282653808594e-01
5.332512781023979187e-02 -1.000150889158248901e-01 2.197828292846679688e-01
1.402120739221572876e-01 -9.607964754104614258e-02 1.768365204334259033e-01
-5.207084491848945618e-02 -3.183531761169433594e-02 4.702396392822265625e-01
4.211599379777908325e-02 -8.752097189426422119e-02 4.442248344421386719e-01
3.039538860321044922e-02 -9.726260602474212646e-02 2.409148365259170532e-01
-7.465984672307968140e-02 -7.959757745265960693e-02 5.440908074378967285e-01
-4.420632496476173401e-02 -5.762273073196411133e-02 6.372396945953369141e-01
4.503763839602470398e-02 -4.186490923166275024e-02 4.688271880149841309e-01
-1.195549294352531433e-01 -3.604577481746673584e-02 7.041829228401184082e-01
6.896757986396551132e-03 -3.409682214260101318e-02 4.336776733398437500e-01
-1.356138736009597778e-01 -6.066413223743438721e-02 5.614654421806335449e-01
1.427218466997146606e-01 -8.694835007190704346e-02 2.483505755662918091e-01
-4.987585544586181641e-02 -7.705182582139968872e-02 5.691190958023071289e-01
-1.434250734746456146e-04 -8.049613237380981445e-02 5.216660499572753906e-01
1.029735505580902100e-01 -5.601571127772331238e-02 2.749951481819152832e-01
-1.328980326652526855e-01 -6.305739283561706543e-02 5.969798564910888672e-01
-1.488274931907653809e-01 -3.583890944719314575e-02 6.593701243400573730e-01
6.496921181678771973e-02 -1.027089506387710571e-01 2.789124846458435059e-01
5.777699127793312073e-02 -1.023350432515144348e-01 2.914095520973205566e-01
6.838136166334152222e-02 -4.925638809800148010e-02 4.426242709159851074e-01
1.282492280006408691e-01 -9.609299898147583008e-02 1.462202072143554688e-01
1.140247359871864319e-01 -8.937670290470123291e-02 3.201588690280914307e-01
-1.419491469860076904e-01 -5.712544173002243042e-02 6.317039728164672852e-01
-6.100729107856750488e-03 -3.360151872038841248e-02 4.324011504650115967e-01
-3.129825368523597717e-02 -8.309669792652130127e-02 5.255371928215026855e-01
5.198740586638450623e-02 -4.106783121824264526e-02 4.127562344074249268e-01
-1.770456135272979736e-02 -7.772214710712432861e-02 5.488709807395935059e-01
7.082860171794891357e-02 -4.563013464212417603e-02 3.901835381984710693e-01
-1.003664508461952209e-01 -7.481878995895385742e-02 5.545567274093627930e-01
1.110884845256805420e-01 -6.037725508213043213e-02 3.447536528110504150e-01
-1.440773308277130127e-01 -3.879386931657791138e-02 6.009259223937988281e-01
-8.667057007551193237e-02 -3.658520430326461792e-02 4.795407950878143311e-01
-7.099251449108123779e-02 -2.695529907941818237e-02 5.475447177886962891e-01
-1.125326901674270630e-01 -4.818389192223548889e-02 4.825176000595092773e-01
-4.593919962644577026e-03 -3.287091851234436035e-02 5.400431156158447266e-01
6.360449641942977905e-02 -5.493753030896186829e-02 2.508915662765502930e-01
-6.066754460334777832e-02 -2.823933213949203491e-02 5.183284282684326172e-01
-5.312324315309524536e-02 -4.906009510159492493e-02 6.579349040985107422e-01
1.308328360319137573e-01 -6.618884205818176270e-02 2.690589427947998047e-01
5.158940702676773071e-02 -9.551242738962173462e-02 1.967180371284484863e-01
1.177690401673316956e-01 -9.082665294408798218e-02 3.050087690353393555e-01
-1.257387995719909668e-01 -4.055798053741455078e-02 5.376315116882324219e-01
-5.111635662615299225e-03 -9.408520162105560303e-02 4.231956005096435547e-01
3.976202383637428284e-02 -1.015481725335121155e-01 3.029395341873168945e-01
1.360906362533569336e-01 -8.355438709259033203e-02 1.443975865840911865e-01
-4.774277098476886749e-03 -5.023146048188209534e-02 5.971224904060363770e-01
1.135657727718353271e-02 -8.775006979703903198e-02 4.724220931529998779e-01
-8.582050353288650513e-02 -5.010125041007995605e-02 6.832833290100097656e-01
-4.499014467000961304e-02 -6.869447231292724609e-02 3.219631016254425049e-01
8.982279151678085327e-02 -5.284040048718452454e-02 2.839476466178894043e-01
9.457350522279739380e-02 -9.287425875663757324e-02 3.407626450061798096e-01
1.775347627699375153e-02 -3.815173357725143433e-02 3.829439282417297363e-01
-1.004186943173408508e-01 -5.377651751041412354e-02 6.818383932113647461e-01
-5.163332447409629822e-02 -8.713448792695999146e-02 3.873216211795806885e-01
1.203702166676521301e-01 -9.795491397380828857e-02 2.505941987037658691e-01
-1.560200937092304230e-02 -5.042525753378868103e-02 6.125525832176208496e-01
-9.123428165912628174e-02 -7.492563128471374512e-02 5.726705789566040039e-01
