4.058067202568054199e-01 -9.309381991624832153e-02 -1.092287898063659668e-01
2.217593044042587280e-01 -1.220057308673858643e-01 5.577460527420043945e-01
3.062041699886322021e-01 -1.096297353506088257e-01 5.175055265426635742e-01
3.955968320369720459e-01 -1.039387658238410950e-01 2.161982506513595581e-01
3.746167421340942383e-01 -9.958604723215103149e-02 -2.161787152290344238e-01
2.339094877243041992e-01 -4.868284985423088074e-02 1.737355887889862061e-01
2.594517171382904053e-01 -1.254220753908157349e-01 4.924375414848327637e-01
3.980785906314849854e-01 -8.688300848007202148e-02 -1.309356391429901123e-01
1.884446442127227783e-01 -1.420480906963348389e-01 3.291116356849670410e-01
2.385353595018386841e-01 -1.498507857322692871e-01 4.473608732223510742e-02
2.209937274456024170e-01 -4.241454973816871643e-02 3.642567694187164307e-01
3.110009431838989258e-01 -4.337327554821968079e-02 1.475441455841064453e-01
3.113475739955902100e-01 -1.028955280780792236e-01 5.419461727142333984e-01
2.972185611724853516e-02 -4.182677716016769409e-02 1.413952708244323730e-01
3.861546814441680908e-01 -8.726842701435089111e-02 2.456474117934703827e-02
1.129579991102218628e-01 -1.428282260894775391e-01 -1.019868925213813782e-01
1.958597600460052490e-01 -1.469825506210327148e-01 5.368715152144432068e-02
2.272816598415374756e-01 -1.417702734470367432e-01 5.191430076956748962e-02
-7.161125540733337402e-02 -8.124806731939315796e-02 -1.840045489370822906e-02
2.149273306131362915e-01 2.154594659805297852e-02 -4.008175805211067200e-02
2.679185867309570312e-01 -1.346788108348846436e-01 8.134825155138969421e-03
1.150341331958770752e-02 -2.133499830961227417e-02 -2.388730272650718689e-02
1.898770779371261597e-01 -2.427771687507629395e-04 -1.643116772174835205e-01
2.707754373550415039e-01 1.875033229589462280e-02 3.832002729177474976e-02
2.439554929733276367e-01 -1.133723556995391846e-01 -1.574035584926605225e-01
2.560203075408935547e-01 -6.667494773864746094e-02 2.010033726692199707e-01
-2.565823495388031006e-02 -1.393992006778717041e-01 5.029944330453872681e-02
1.173320710659027100e-01 2.676524221897125244e-03 -1.024802550673484802e-01
3.320519328117370605e-01 -1.114695668220520020e-01 5.377272889018058777e-02
4.204121828079223633e-01 -2.505303546786308289e-02 1.861183717846870422e-02
7.640895247459411621e-02 -1.668823510408401489e-02 -1.385330706834793091e-01
-3.658759593963623047e-02 -1.362756341695785522e-01 3.701581433415412903e-02
1.369135677814483643e-01 -1.496279835700988770e-01 8.918618410825729370e-02
8.621004968881607056e-02 -1.136265099048614502e-01 -1.756059974431991577e-01
3.030347228050231934e-01 1.951589435338973999e-02 -7.319839298725128174e-02
2.907780408859252930e-01 -7.847043871879577637e-02 -1.952547132968902588e-01
5.983186513185501099e-02 -7.407057285308837891e-02 1.990728527307510376e-01
-7.313708961009979248e-02 -1.023686751723289490e-01 -1.938221417367458344e-02
3.287103474140167236e-01 -5.956523120403289795e-03 1.114133596420288086e-01
2.765275835990905762e-01 -1.189280748367309570e-01 -1.141330525279045105e-01
4.084042310714721680e-01 -7.106079906225204468e-02 -4.323213547468185425e-02
2.655570507049560547e-01 2.109218388795852661e-02 1.726067438721656799e-02
7.290861755609512329e-02 -1.478102356195449829e-01 -7.213081419467926025e-02
2.490835189819335938e-01 2.026413381099700928e-02 2.744686789810657501e-02
4.575121402740478516e-02 -1.465429812669754028e-01 -6.643081456422805786e-02
3.183325827121734619e-01 -1.388194039463996887e-02 -1.811833530664443970e-01
2.714335918426513672e-03 -1.473982334136962891e-01 4.367493465542793274e-02
6.763958185911178589e-02 -9.237309545278549194e-02 -1.932865083217620850e-01
3.923264145851135254e-01 -4.126389697194099426e-02 9.431307017803192139e-02
1.948642730712890625e-01 5.009844899177551270e-04 1.217229440808296204e-01
3.706356883049011230e-02 -2.223066613078117371e-02 -1.068266108632087708e-01
3.500487804412841797e-01 -3.342347592115402222e-02 1.373503655195236206e-01
3.691316246986389160e-01 -9.040670096874237061e-02 6.735361367464065552e-02
6.190480291843414307e-02 -5.605674535036087036e-02 1.866679489612579346e-01
2.866263687610626221e-01 -6.356060504913330078e-03 1.333303451538085938e-01
2.235597670078277588e-01 1.060406118631362915e-02 -1.360812336206436157e-01
3.220421671867370605e-01 1.591171324253082275e-02 -8.772946894168853760e-02
3.792856931686401367e-01 6.361983716487884521e-03 -5.517027899622917175e-02
6.945092976093292236e-02 -1.477531492710113525e-01 1.056542024016380310e-01
3.897041082382202148e-01 -6.732229888439178467e-02 8.308894932270050049e-02
1.891751736402511597e-01 -9.611853957176208496e-02 -2.065874338150024414e-01
7.250089943408966064e-02 -5.449824035167694092e-03 -8.160634338855743408e-02
6.759237498044967651e-02 -1.160147786140441895e-02 -1.083728373050689697e-01
2.453929632902145386e-01 8.768506348133087158e-03 9.589216113090515137e-02
9.521774947643280029e-02 -8.031612634658813477e-02 2.122948467731475830e-01
3.908615410327911377e-01 -2.456461265683174133e-02 8.382070809602737427e-02
1.021893098950386047e-01 -1.477800309658050537e-01 1.088617444038391113e-01
3.619924187660217285e-03 -2.804999798536300659e-02 4.979813843965530396e-02
1.665143817663192749e-01 -1.446075737476348877e-01 1.039016842842102051e-01
1.701256781816482544e-01 -1.008396744728088379e-01 -2.021893709897994995e-01
2.017940580844879150e-01 2.076029777526855469e-02 -2.404889650642871857e-02
1.931976675987243652e-01 -8.349838852882385254e-02 -2.193184942007064819e-01
1.869673132896423340e-01 -5.026983842253684998e-02 2.098468840122222900e-01
3.053898215293884277e-01 -1.318505778908729553e-02 1.397086232900619507e-01
-1.414352655410766602e-02 -1.441347897052764893e-01 1.769300363957881927e-02
3.178572356700897217e-01 1.938395202159881592e-02 -5.413810163736343384e-02
3.023353219032287598e-01 -2.314623072743415833e-02 1.569617688655853271e-01
2.141171991825103760e-01 -2.878168597817420959e-02 -2.177988588809967041e-01
2.516411244869232178e-01 -9.363642334938049316e-02 -1.935526579618453979e-01
3.422977030277252197e-02 -1.435988247394561768e-01 1.096699088811874390e-01
1.262759119272232056e-01 -1.211134642362594604e-01 1.853915601968765259e-01
5.760426819324493408e-02 -3.598394244909286499e-02 -1.660700738430023193e-01
2.332710176706314087e-01 1.576482504606246948e-02 -1.128205209970474243e-01
1.981340795755386353e-01 -7.499785721302032471e-02 2.156426906585693359e-01
1.759541481733322144e-01 -8.575350046157836914e-03 -1.810079962015151978e-01
2.867124676704406738e-01 2.200288325548171997e-02 -5.060707405209541321e-02
3.178346157073974609e-02 -1.181146875023841858e-01 1.706515401601791382e-01
-6.481374800205230713e-02 -1.195723861455917358e-01 2.940959297120571136e-02
7.170023769140243530e-02 -1.181780323386192322e-01 -1.635713726282119751e-01
4.714944958686828613e-02 -8.580241352319717407e-03 -2.587461657822132111e-02
2.492692172527313232e-01 2.286429703235626221e-02 -1.487429812550544739e-02
-1.416416466236114502e-02 -6.315352022647857666e-02 1.337366551160812378e-01
1.423782408237457275e-01 -2.795984968543052673e-02 1.785218417644500732e-01
1.962534636259078979e-01 -1.482036411762237549e-01 2.938826568424701691e-02
-3.278458118438720703e-02 -1.381713002920150757e-01 1.294196024537086487e-02
2.364231348037719727e-01 -1.402470022439956665e-01 -3.205971047282218933e-02
-6.384558975696563721e-02 -9.333870559930801392e-02 -5.934886634349822998e-02
3.095396757125854492e-01 -5.570380762219429016e-02 -2.028173506259918213e-01
3.243277072906494141e-01 1.250024139881134033e-02 4.818208143115043640e-02
2.632801234722137451e-02 -1.479471325874328613e-01 -4.118692874908447266e-02
1.073235273361206055e-02 -4.580823704600334167e-02 -1.351635009050369263e-01
2.728293538093566895e-01 -1.188957840204238892e-01 1.213339939713478088e-01
7.060380280017852783e-02 -1.173837855458259583e-02 8.799711614847183228e-02
4.018706083297729492e-02 -1.340405941009521484e-01 -1.135610640048980713e-01
3.022516369819641113e-01 -1.251948326826095581e-01 4.510389175266027451e-03
3.477927744388580322e-01 9.589098393917083740e-03 -9.911027550697326660e-02
3.445188999176025391e-01 -1.424772292375564575e-02 -1.665163040161132812e-01
2.813025414943695068e-01 -1.243573352694511414e-01 -8.139522373676300049e-02
-4.522389173507690430e-02 -5.466382950544357300e-02 4.741823673248291016e-02
1.234919577836990356e-01 1.018253713846206665e-02 -3.399829939007759094e-02
1.804953962564468384e-01 -1.493769586086273193e-01 -2.455442212522029877e-02
3.763120770454406738e-01 -9.491717070341110229e-02 -1.114741247147321701e-02
5.661343783140182495e-02 -1.297321915626525879e-01 -1.332345008850097656e-01
1.266848891973495483e-01 -1.539132446050643921e-01 -2.160363830626010895e-02
3.742673397064208984e-01 -9.554700553417205811e-02 1.083926297724246979e-02
2.644499838352203369e-01 -1.166373193264007568e-01 1.368471384048461914e-01
2.769344151020050049e-01 -1.077267006039619446e-01 1.484900265932083130e-01
6.207294762134552002e-02 -1.397435814142227173e-01 1.362280249595642090e-01
2.496595084667205811e-01 8.804574608802795410e-04 -1.701918691396713257e-01
1.227619647979736328e-01 -1.509802192449569702e-01 -5.425482243299484253e-02
4.073416292667388916e-01 -6.818871945142745972e-03 -7.225011941045522690e-03
1.382742077112197876e-01 -8.055053651332855225e-03 1.295862346887588501e-01
-2.161304652690887451e-02 -1.087441146373748779e-01 1.421039700508117676e-01
4.161186218261718750e-01 -3.547636792063713074e-02 -9.190037101507186890e-02
-5.416415631771087646e-02 -9.984800219535827637e-02 -7.828281074762344360e-02
2.193732112646102905e-01 -1.063068732619285583e-01 -1.839195042848587036e-01
2.434882819652557373e-01 2.252486348152160645e-02 -4.926155507564544678e-02
-2.469007670879364014e-02 -1.325695663690567017e-01 9.276618063449859619e-02
2.931304275989532471e-01 1.014582812786102295e-03 -1.628442406654357910e-01
3.493779897689819336e-01 -3.434378281235694885e-02 -1.794179379940032959e-01
1.307565569877624512e-01 -7.976591587066650391e-02 2.179331630468368530e-01
1.306493580341339111e-02 -2.118716016411781311e-02 1.815950497984886169e-02
1.582006961107254028e-01 -7.651244103908538818e-02 -2.239624559879302979e-01
8.687882125377655029e-02 2.525471150875091553e-03 -1.060419902205467224e-02
1.549206674098968506e-02 -7.854188233613967896e-02 1.760693043470382690e-01
3.065802454948425293e-01 -1.067939698696136475e-01 -1.256125271320343018e-01
2.891568243503570557e-01 -4.053910076618194580e-02 1.801972240209579468e-01
8.669655770063400269e-02 1.830495893955230713e-03 1.097931154072284698e-02
2.592031061649322510e-01 -2.573200687766075134e-02 -2.121596038341522217e-01
3.926973342895507812e-01 -4.519749432802200317e-02 -1.341815590858459473e-01
1.229394972324371338e-02 -5.653004348278045654e-02 1.520610451698303223e-01
4.050129652023315430e-01 -5.028441548347473145e-03 -4.782109335064888000e-02
-1.086945831775665283e-02 -1.184436976909637451e-01 -1.126044988632202148e-01
-2.701848745346069336e-02 -4.012341052293777466e-02 2.179616503417491913e-02
2.160155773162841797e-02 -1.078012660145759583e-01 -1.547747701406478882e-01
8.971139788627624512e-03 -1.241846233606338501e-01 -1.184698939323425293e-01
4.056910872459411621e-01 -4.532975703477859497e-02 7.118085771799087524e-02
4.394948482513427734e-02 -1.534216701984405518e-01 -9.170151315629482269e-04
4.279163181781768799e-01 -3.602870926260948181e-02 -3.971451148390769958e-02
1.834926903247833252e-01 -2.695993334054946899e-02 1.839468032121658325e-01
1.030717939138412476e-01 1.198448240756988525e-03 -9.123352915048599243e-02
2.646564543247222900e-01 -6.655588746070861816e-03 1.403802931308746338e-01
8.954703807830810547e-03 -1.127503663301467896e-01 -1.392533034086227417e-01
1.988001465797424316e-01 -9.887066483497619629e-02 2.025983184576034546e-01
1.796001940965652466e-01 -1.251726001501083374e-01 -1.522898823022842407e-01
1.135154813528060913e-01 -1.663679629564285278e-02 1.419892013072967529e-01
7.571281492710113525e-02 -1.508911550045013428e-01 8.851486444473266602e-02
-3.748148679733276367e-02 -6.450299918651580811e-02 -9.328231215476989746e-02
3.487713932991027832e-01 -6.664839386940002441e-02 -1.671122908592224121e-01
3.240370750427246094e-01 -6.943581998348236084e-02 -1.843654811382293701e-01
2.120968699455261230e-01 -1.049205362796783447e-01 1.913212388753890991e-01
3.473495244979858398e-01 -8.969639241695404053e-02 -1.265616416931152344e-01
3.515730500221252441e-01 -7.354628294706344604e-03 9.699804335832595825e-02
3.666757047176361084e-01 -9.721523523330688477e-02 -5.306276679039001465e-02
2.447197735309600830e-01 -1.370108723640441895e-01 6.417942792177200317e-02
1.430902183055877686e-01 -1.394428610801696777e-01 1.371074765920639038e-01
1.826649755239486694e-01 -1.144126206636428833e-01 -1.775252968072891235e-01
7.953009009361267090e-02 -1.052945852279663086e-03 -5.930891260504722595e-02
-7.660093903541564941e-02 -9.726140648126602173e-02 3.367200959473848343e-03
1.553551107645034790e-01 -1.517706364393234253e-01 5.465678498148918152e-02
8.495417237281799316e-02 -9.086355566978454590e-04 4.111489281058311462e-02
1.601752936840057373e-01 1.292783021926879883e-02 -8.399391174316406250e-02
3.908543586730957031e-01 -8.606760203838348389e-02 -1.964246388524770737e-03
5.332013219594955444e-02 -2.585718035697937012e-02 1.227319762110710144e-01
4.904948174953460693e-02 -1.078356802463531494e-02 -6.635104119777679443e-02
2.279994636774063110e-01 -9.754251688718795776e-02 -1.961708217859268188e-01
7.643699645996093750e-04 -2.776608988642692566e-02 -4.895254969596862793e-02
6.854534149169921875e-04 -6.010606512427330017e-02 -1.437192708253860474e-01
1.962303072214126587e-01 6.612814962863922119e-03 9.896135330200195312e-02
3.624071478843688965e-01 -4.440363496541976929e-02 1.317095011472702026e-01
2.168653607368469238e-01 1.782549172639846802e-02 -9.307177364826202393e-02
-6.775243580341339111e-02 -8.681139349937438965e-02 6.593885272741317749e-02
-4.504688084125518799e-02 -6.197838485240936279e-02 -7.082337886095046997e-02
2.842074036598205566e-01 -9.409045428037643433e-02 1.672249883413314819e-01
-1.487675309181213379e-02 -3.290364518761634827e-02 2.072047907859086990e-03
8.092122524976730347e-02 -1.377631872892379761e-01 -1.174905449151992798e-01
1.177019551396369934e-01 -1.554430276155471802e-01 2.634314261376857758e-02
-2.497251331806182861e-02 -5.057875066995620728e-02 8.845422416925430298e-02
3.646563589572906494e-01 -3.417737782001495361e-03 -1.286856085062026978e-01
2.598906457424163818e-01 -8.543733507394790649e-02 1.912067979574203491e-01
3.605644702911376953e-01 -7.507702708244323730e-02 -1.422796398401260376e-01
-7.113240659236907959e-02 -7.892836630344390869e-02 3.022628836333751678e-02
2.655884623527526855e-01 2.263520658016204834e-02 -7.992289029061794281e-03
1.781286150217056274e-01 5.332596600055694580e-03 9.809423238039016724e-02
2.949612438678741455e-01 -1.155555918812751770e-01 1.061934456229209900e-01
3.645173907279968262e-01 5.279123783111572266e-03 -9.820785373449325562e-02
3.525070548057556152e-01 -1.058563441038131714e-01 2.090605907142162323e-02
-5.083900690078735352e-02 -6.953296810388565063e-02 8.331123739480972290e-02
3.695817589759826660e-01 -5.026908591389656067e-02 -1.601878702640533447e-01
6.046859920024871826e-02 -5.218047648668289185e-03 -4.276260361075401306e-02
4.248164594173431396e-01 -3.451068699359893799e-02 -6.132847070693969727e-02
5.410449206829071045e-02 -1.080470532178878784e-01 1.906389445066452026e-01
1.184281557798385620e-01 -1.379006803035736084e-01 1.469398289918899536e-01
-4.778799414634704590e-02 -5.315124616026878357e-02 1.650188677012920380e-02
2.674956917762756348e-01 2.301444858312606812e-02 -2.954980544745922089e-02
3.257964253425598145e-01 1.892448216676712036e-02 -3.836111351847648621e-02
3.875719904899597168e-01 1.973874866962432861e-03 7.116832304745912552e-03
1.163494586944580078e-01 -5.470115691423416138e-02 2.058503776788711548e-01
2.107322514057159424e-01 -3.577664494514465332e-03 1.365592777729034424e-01
1.925046294927597046e-01 -1.432401239871978760e-01 -7.018410414457321167e-02
1.730254739522933960e-01 1.779044419527053833e-02 -1.288486458361148834e-02
3.439830541610717773e-01 -1.094213277101516724e-01 -3.134527057409286499e-02
2.530787885189056396e-02 -4.238706827163696289e-02 -1.460490375757217407e-01
3.078995645046234131e-01 -7.226313650608062744e-02 -1.921600848436355591e-01
8.470208942890167236e-02 -6.575417518615722656e-02 2.044789493083953857e-01
4.002742469310760498e-02 -3.059277683496475220e-02 -1.374582648277282715e-01
-1.148974895477294922e-02 -3.972571343183517456e-02 -8.173397183418273926e-02
9.700527787208557129e-02 -2.256900444626808167e-02 1.480405777692794800e-01
2.234500944614410400e-01 -1.277344375848770142e-01 1.363282650709152222e-01
4.071897268295288086e-02 -5.469866096973419189e-02 -1.761198192834854126e-01
1.988321244716644287e-01 -4.528576880693435669e-02 -2.278683036565780640e-01
2.070811539888381958e-01 -2.092053368687629700e-02 1.749606728553771973e-01
1.303796768188476562e-01 -3.452024608850479126e-02 -2.067622989416122437e-01
7.489571720361709595e-02 -8.919666707515716553e-02 2.064849734306335449e-01
1.321189403533935547e-01 8.450604975223541260e-03 -8.250306546688079834e-02
2.282285690307617188e-02 -2.545653656125068665e-02 -9.507688134908676147e-02
3.667739033699035645e-01 3.413468599319458008e-03 4.443272948265075684e-02
-5.260090529918670654e-02 -1.092967689037322998e-01 9.916089475154876709e-02
2.127885818481445312e-04 -1.159057393670082092e-01 1.540322452783584595e-01
9.585440158843994141e-03 -1.474487483501434326e-01 6.049295142292976379e-02
2.908226549625396729e-01 -1.270640045404434204e-01 -3.731346502900123596e-02
2.885036170482635498e-02 -3.102394193410873413e-02 -1.244505271315574646e-01
2.456056177616119385e-01 2.201215177774429321e-02 4.726822022348642349e-03
1.502686291933059692e-01 1.429850608110427856e-02 3.167716320604085922e-03
-6.001459062099456787e-02 -1.181692630052566528e-01 6.379666924476623535e-02
3.381049633026123047e-01 1.518577337265014648e-03 -1.390908956527709961e-01
-4.313328862190246582e-02 -5.824404582381248474e-02 7.090748846530914307e-02
4.258716106414794922e-02 -4.288714379072189331e-02 1.548677980899810791e-01
-1.480144262313842773e-02 -3.328090161085128784e-02 -2.295417524874210358e-02
2.958910763263702393e-01 -1.156327202916145325e-01 -1.048974171280860901e-01
5.944713205099105835e-02 -4.890738427639007568e-02 -1.844447106122970581e-01
3.720097243785858154e-01 -2.810865268111228943e-02 -1.572156399488449097e-01
4.092454314231872559e-01 -1.903478428721427917e-02 -9.285590052604675293e-02
1.593585014343261719e-01 -1.477178037166595459e-01 -6.309279799461364746e-02
2.511003613471984863e-01 -5.672942101955413818e-02 -2.239520549774169922e-01
4.180916547775268555e-01 -6.084212288260459900e-02 6.877641659229993820e-03
2.229256331920623779e-01 -5.011787265539169312e-02 -2.284564226865768433e-01
3.256438970565795898e-01 8.124843239784240723e-03 -1.259721815586090088e-01
-3.880879282951354980e-02 -7.213608175516128540e-02 1.120850145816802979e-01
4.063305258750915527e-02 -1.113202422857284546e-02 1.387098059058189392e-02
2.680159211158752441e-01 -9.745985269546508789e-02 -1.792490333318710327e-01
3.705886006355285645e-02 -1.254604905843734741e-01 -1.341711282730102539e-01
-5.810746550559997559e-02 -6.500616669654846191e-02 -3.423763066530227661e-02
-4.686842858791351318e-02 -1.302071511745452881e-01 5.066388100385665894e-02
1.842027902603149414e-01 -1.392801403999328613e-01 1.191591173410415649e-01
1.898049265146255493e-01 1.594137400388717651e-02 4.152355715632438660e-02
2.062700688838958740e-01 -7.351044565439224243e-03 -1.858923286199569702e-01
3.034705519676208496e-01 -1.189145147800445557e-01 7.607597857713699341e-02
1.446677893400192261e-01 -1.068429276347160339e-01 -1.941711753606796265e-01
2.220175117254257202e-01 -7.799402624368667603e-02 2.097190916538238525e-01
3.313254117965698242e-01 1.797556132078170776e-02 -1.618529483675956726e-02
4.157003760337829590e-01 -1.652727648615837097e-02 -6.608027964830398560e-02
1.182434186339378357e-01 -1.286417692899703979e-01 1.711992919445037842e-01
2.515535652637481689e-01 -2.856532484292984009e-02 1.812614053487777710e-01
3.780061006546020508e-02 -1.159548461437225342e-01 -1.528432518243789673e-01
-2.485278248786926270e-02 -4.052922874689102173e-02 -4.319028556346893311e-02
3.969046473503112793e-02 -1.319551467895507812e-02 3.741829842329025269e-02
2.039379030466079712e-01 -1.346942484378814697e-01 -1.086946502327919006e-01
5.896599590778350830e-02 -5.400996655225753784e-03 1.071135513484477997e-02
-4.545636475086212158e-02 -5.151538923382759094e-02 -1.510101370513439178e-02
2.448136210441589355e-01 6.583482027053833008e-03 -1.536390483379364014e-01
5.882988125085830688e-02 -1.505581885576248169e-01 -4.837099462747573853e-02
2.141395211219787598e-02 -1.511570513248443604e-01 1.153405196964740753e-02
2.644731104373931885e-02 -2.753874659538269043e-02 9.536252170801162720e-02
1.566512286663055420e-01 -1.152033656835556030e-01 -1.794495284557342529e-01
-1.405334472656250000e-02 -1.412368118762969971e-01 6.660352647304534912e-02
2.257646471261978149e-01 6.346620619297027588e-03 -1.525999158620834351e-01
3.245212137699127197e-02 -1.499624550342559814e-01 6.998966634273529053e-02
-1.987372338771820068e-02 -5.704010277986526489e-02 1.146689057350158691e-01
-3.794650733470916748e-02 -6.290356814861297607e-02 9.647607058286666870e-02
-7.021604478359222412e-02 -1.053126454353332520e-01 5.688552558422088623e-02
3.325741887092590332e-01 -1.147427111864089966e-01 6.358313839882612228e-03
2.777801752090454102e-01 7.795020937919616699e-04 1.176304221153259277e-01
1.935101598501205444e-01 1.792245358228683472e-02 2.486533485352993011e-02
1.598235815763473511e-01 -7.627386599779129028e-03 1.373418271541595459e-01
7.476539909839630127e-02 -1.556062549352645874e-01 1.022539660334587097e-02
3.028655648231506348e-01 -1.220299154520034790e-01 -5.356773361563682556e-02
1.049796640872955322e-01 -1.547784805297851562e-01 5.198814719915390015e-02
3.819981217384338379e-01 -9.045349061489105225e-02 -3.845223411917686462e-02
1.849128454923629761e-01 -2.010129019618034363e-02 -2.043153196573257446e-01
4.354894161224365234e-02 -1.600959524512290955e-02 6.817607581615447998e-02
1.723841577768325806e-01 -1.966335251927375793e-02 1.696366667747497559e-01
4.543645679950714111e-02 -1.475680768489837646e-01 9.675422310829162598e-02
9.824395179748535156e-02 -7.430458813905715942e-02 -2.124745249748229980e-01
2.732997834682464600e-01 1.329736411571502686e-02 7.148530334234237671e-02
7.668021321296691895e-02 -1.531581878662109375e-01 7.032372057437896729e-02
1.442119777202606201e-01 -1.538500487804412842e-01 3.141798451542854309e-02
1.683709621429443359e-01 1.628629863262176514e-02 1.155668310821056366e-02
1.111596450209617615e-01 6.990320980548858643e-03 1.435548067092895508e-02
3.322274088859558105e-01 -1.126163378357887268e-01 -4.848911613225936890e-02
3.042265176773071289e-01 -1.240541413426399231e-01 -2.193004265427589417e-02
3.389836847782135010e-02 -1.753861457109451294e-02 -7.685502618551254272e-02
1.433915197849273682e-01 1.370958983898162842e-02 -3.082182630896568298e-02
1.561023294925689697e-01 -1.245519369840621948e-01 -1.585955023765563965e-01
7.152955234050750732e-02 -2.665041014552116394e-02 1.410622745752334595e-01
3.649786710739135742e-01 7.330358028411865234e-03 2.573726326227188110e-02
2.140071988105773926e-01 -1.285987794399261475e-01 -1.272904425859451294e-01
1.925712376832962036e-01 -1.438697576522827148e-01 8.705368638038635254e-02
2.966821789741516113e-01 1.871076971292495728e-02 2.657483704388141632e-02
-1.877999305725097656e-02 -1.334477216005325317e-01 -6.217185035347938538e-02
1.880908906459808350e-01 -1.169506162405014038e-01 1.808992922306060791e-01
4.468321800231933594e-02 -1.405671536922454834e-01 1.270486563444137573e-01
1.019888520240783691e-01 -1.217187121510505676e-01 -1.641146987676620483e-01
3.814697265625000000e-01 -5.912154540419578552e-02 -1.387935131788253784e-01
1.382186710834503174e-01 1.159356534481048584e-02 1.862177439033985138e-02
1.192168593406677246e-01 2.871751785278320312e-04 8.255352079868316650e-02
3.027072846889495850e-01 -1.059311404824256897e-01 1.274428665637969971e-01
2.537791132926940918e-01 -1.342959851026535034e-01 -5.781245231628417969e-02
3.103329241275787354e-01 -3.734959661960601807e-02 1.674737185239791870e-01
2.466099858283996582e-01 -1.250388324260711670e-01 1.263438463211059570e-01
2.165836393833160400e-01 6.061226129531860352e-03 1.054174453020095825e-01
-6.051582098007202148e-02 -6.534603238105773926e-02 3.096443228423595428e-02
3.500084877014160156e-01 -8.910823613405227661e-02 1.076126769185066223e-01
1.042222306132316589e-01 -9.231351315975189209e-03 -1.412986367940902710e-01
2.345612198114395142e-01 1.831859350204467773e-03 1.211481466889381409e-01
1.545538455247879028e-01 -1.266991347074508667e-02 -1.819899082183837891e-01
1.325295567512512207e-01 -2.034395560622215271e-02 1.601236909627914429e-01
-5.880095064640045166e-02 -1.226734369993209839e-01 -1.309895981103181839e-02
2.180292010307312012e-01 -1.360474824905395508e-01 1.072588488459587097e-01
2.217693626880645752e-01 1.501452177762985229e-02 6.315454095602035522e-02
2.122159302234649658e-02 -2.059920132160186768e-02 4.639830812811851501e-02
1.880653202533721924e-01 -1.341206133365631104e-01 1.372812688350677490e-01
3.355560302734375000e-01 -7.752743363380432129e-02 1.441630870103836060e-01
4.239286482334136963e-01 -4.541127756237983704e-02 1.647434756159782410e-02
2.380891144275665283e-02 -1.500823497772216797e-01 -1.741903088986873627e-02
3.005007505416870117e-01 -1.244584545493125916e-01 3.761005774140357971e-02
3.231704533100128174e-01 -1.027646660804748535e-01 1.104283630847930908e-01
3.327282071113586426e-01 -9.953048080205917358e-02 -1.168331876397132874e-01
2.258794158697128296e-01 2.099935710430145264e-02 1.178108341991901398e-02
2.100165933370590210e-01 2.040842920541763306e-02 -5.958722904324531555e-02
3.759910464286804199e-01 -7.292355597019195557e-02 9.868191182613372803e-02
2.636660933494567871e-01 -5.198657512664794922e-03 -1.828946024179458618e-01
3.218991160392761230e-01 1.721534132957458496e-02 1.574327610433101654e-02
1.277116984128952026e-01 -2.150356769561767578e-03 1.013748794794082642e-01
1.551460474729537964e-01 -9.194807708263397217e-02 2.148595154285430908e-01
8.706866949796676636e-02 -4.176237434148788452e-02 1.806748807430267334e-01
2.756376266479492188e-01 -1.130266934633255005e-01 -1.361460238695144653e-01
-2.204217016696929932e-02 -1.049521863460540771e-01 -1.204303354024887085e-01
9.154017269611358643e-02 -3.173103928565979004e-02 1.654727905988693237e-01
3.061612546443939209e-01 -9.089250862598419189e-02 1.543477922677993774e-01
2.144656479358673096e-01 -1.456117928028106689e-01 1.779397763311862946e-02
4.721766710281372070e-02 -1.489157974720001221e-02 -9.026196599006652832e-02
2.753150761127471924e-01 6.088703870773315430e-03 -1.529990434646606445e-01
2.386864870786666870e-01 -1.216322854161262512e-01 -1.363404691219329834e-01
3.603454232215881348e-01 -9.018279612064361572e-02 -1.045811697840690613e-01
1.932819336652755737e-01 -1.402558386325836182e-01 -8.812478184700012207e-02
1.821732223033905029e-01 -1.476586163043975830e-01 6.779776513576507568e-02
7.078365236520767212e-02 -1.710943877696990967e-03 -1.317701302468776703e-03
2.287115007638931274e-01 2.213313430547714233e-02 -8.596076630055904388e-03
1.444227397441864014e-01 5.718663334846496582e-03 7.568082213401794434e-02
-3.178733587265014648e-02 -1.135987490415573120e-01 1.257476210594177246e-01
9.131080657243728638e-02 -2.959977090358734131e-02 -1.803658753633499146e-01
3.302928805351257324e-01 -9.163943678140640259e-02 1.285068839788436890e-01
1.307691633701324463e-01 -1.389529556035995483e-01 -1.167965084314346313e-01
1.800772845745086670e-01 1.807226240634918213e-02 -5.122841522097587585e-02
-1.514551043510437012e-02 -6.953151524066925049e-02 -1.334228664636611938e-01
1.014172732830047607e-01 -1.364783942699432373e-01 -1.253381967544555664e-01
6.509503722190856934e-02 -1.543643623590469360e-01 -1.234242506325244904e-02
1.524140536785125732e-01 -1.136146783828735352e-01 1.946011334657669067e-01
3.643571436405181885e-01 -9.888578951358795166e-02 3.461947664618492126e-02
2.185558974742889404e-01 1.007721573114395142e-02 8.873666077852249146e-02
2.749475538730621338e-01 1.327674835920333862e-02 -1.260376721620559692e-01
2.685599327087402344e-01 -1.330331861972808838e-01 -3.533745929598808289e-02
2.072372585535049438e-01 -1.223720312118530273e-01 -1.507712304592132568e-01
-1.680538058280944824e-02 -9.436003118753433228e-02 -1.341551393270492554e-01
-1.880221068859100342e-02 -1.279157251119613647e-01 1.150764301419258118e-01
-4.425024986267089844e-02 -1.238449290394783020e-01 -5.274109542369842529e-02
1.715451031923294067e-01 -2.932719886302947998e-03 -1.651504486799240112e-01
2.782050371170043945e-01 -5.021360516548156738e-02 1.899370104074478149e-01
2.399657964706420898e-01 -3.966429829597473145e-02 -2.238831073045730591e-01
7.089448720216751099e-02 -1.626471057534217834e-02 1.077549159526824951e-01
3.884469866752624512e-01 -7.847063243389129639e-02 6.031875684857368469e-02
2.425869852304458618e-01 -1.347912251949310303e-01 -7.199022918939590454e-02
6.190366297960281372e-02 -5.945898592472076416e-03 3.144745156168937683e-02
2.888108193874359131e-01 -1.288599520921707153e-01 -1.503077521920204163e-02
2.992549538612365723e-01 -9.406423568725585938e-02 -1.654994189739227295e-01
3.626897037029266357e-01 1.185534149408340454e-02 -4.483445733785629272e-02
1.067077368497848511e-01 4.783324897289276123e-03 -6.797782331705093384e-02
3.937835991382598877e-01 -8.138035982847213745e-02 -5.264033004641532898e-02
8.144844323396682739e-02 -1.533420383930206299e-01 -3.392426669597625732e-02
2.257734388113021851e-01 -8.675116300582885742e-02 -2.109007686376571655e-01
4.507362842559814453e-03 -4.420638084411621094e-02 1.185467913746833801e-01
3.609345853328704834e-02 -5.472161993384361267e-02 1.691202223300933838e-01
1.783454865217208862e-01 -1.469846516847610474e-01 -5.423184856772422791e-02
-2.142608165740966797e-02 -1.412252634763717651e-01 -4.933163058012723923e-03
1.976184695959091187e-01 1.216848939657211304e-02 -1.195165291428565979e-01
2.419904917478561401e-01 -1.034161746501922607e-01 1.800289303064346313e-01
3.348146975040435791e-01 -1.138694584369659424e-03 9.441402554512023926e-02
2.345919609069824219e-01 -1.337581127882003784e-01 -8.811899274587631226e-02
3.854205012321472168e-01 4.998341202735900879e-03 -2.668367139995098114e-02
2.716050744056701660e-01 -1.271682083606719971e-01 8.640136569738388062e-02
1.040057316422462463e-01 -1.119561642408370972e-01 1.977856010198593140e-01
1.498430520296096802e-01 -3.620784729719161987e-02 1.929661780595779419e-01
-3.269638121128082275e-02 -4.350763186812400818e-02 -2.503987587988376617e-02
1.178103834390640259e-01 -9.271152317523956299e-03 -1.525717675685882568e-01
-1.590967178344726562e-03 -1.393102109432220459e-01 -5.977601557970046997e-02
9.306029975414276123e-02 -1.724571734666824341e-02 -1.555675417184829712e-01
3.553381562232971191e-01 -6.949395686388015747e-02 1.311179697513580322e-01
2.597283422946929932e-01 2.246199548244476318e-02 -5.496512725949287415e-02
2.281290888786315918e-01 1.963708549737930298e-02 2.930663339793682098e-02
2.810445129871368408e-01 1.595551520586013794e-02 5.444951355457305908e-02
4.099949002265930176e-01 -5.684336647391319275e-02 -8.870487660169601440e-02
3.446611166000366211e-01 8.953392505645751953e-03 4.667200893163681030e-02
3.547239303588867188e-02 -9.915541112422943115e-02 1.883711069822311401e-01
2.024060487747192383e-01 -1.354482024908065796e-01 1.231372281908988953e-01
-2.938002347946166992e-03 -7.565351575613021851e-02 1.594671607017517090e-01
2.009183168411254883e-01 -1.458330750465393066e-01 -3.688281401991844177e-02
1.659948080778121948e-01 -2.925786003470420837e-02 1.855506151914596558e-01
1.633259356021881104e-01 -9.054914116859436035e-02 -2.142481058835983276e-01
2.359227389097213745e-01 -1.410744190216064453e-01 3.607247397303581238e-02
3.213428854942321777e-01 -1.131436228752136230e-01 -7.479706406593322754e-02
3.585088253021240234e-01 1.231607049703598022e-02 -5.696155130863189697e-03
8.832795172929763794e-02 -1.463706195354461670e-01 -8.354809880256652832e-02
-3.968505561351776123e-02 -8.713924884796142578e-02 1.248486265540122986e-01
5.860140919685363770e-02 -1.430833637714385986e-01 -8.996122330427169800e-02
2.410571128129959106e-01 -7.029750198125839233e-02 -2.210135310888290405e-01
5.499318987131118774e-02 -1.534676551818847656e-01 5.473195016384124756e-02
8.907365798950195312e-02 -6.661836057901382446e-03 -1.151041612029075623e-01
1.903311610221862793e-01 -6.310604512691497803e-03 1.415327042341232300e-01
4.200713038444519043e-01 -5.246082693338394165e-02 -6.343477964401245117e-02
1.324090212583541870e-01 -1.540406644344329834e-01 4.610390588641166687e-02
3.124159276485443115e-01 5.461029708385467529e-03 -1.428743004798889160e-01
5.826995521783828735e-02 -4.154682531952857971e-02 1.639359891414642334e-01
3.154451251029968262e-01 -1.109259724617004395e-01 -9.759172797203063965e-02
1.792386025190353394e-01 -1.393177509307861328e-01 -1.013815999031066895e-01
2.228151261806488037e-01 -1.276900619268417358e-02 -1.978845745325088501e-01
3.727881908416748047e-01 6.595648825168609619e-03 -7.454988360404968262e-02
-9.107977151870727539e-03 -4.803236946463584900e-02 -1.113697141408920288e-01
3.535878062248229980e-01 -1.019408181309700012e-01 5.262818560004234314e-02
-7.654380798339843750e-02 -9.710630029439926147e-02 2.343709580600261688e-02
1.865499317646026611e-01 -1.497249305248260498e-01 3.270959015935659409e-03
7.706160098314285278e-02 -1.364932209253311157e-01 1.494690477848052979e-01
3.948246538639068604e-01 -1.266499981284141541e-02 5.494073033332824707e-02
2.645887434482574463e-02 -1.415595710277557373e-01 -7.751293480396270752e-02
6.478077918291091919e-02 -1.548537313938140869e-01 4.001301527023315430e-02
1.198037862777709961e-01 6.674207746982574463e-03 3.903429210186004639e-02
4.270306229591369629e-02 -8.625152707099914551e-02 -1.842893213033676147e-01
1.258796453475952148e-02 -1.026564761996269226e-01 1.738630235195159912e-01
3.995253741741180420e-01 -7.902924716472625732e-02 1.133190467953681946e-02
3.095915913581848145e-01 -2.602962777018547058e-02 -1.978487521409988403e-01
-6.771057844161987305e-02 -1.017840951681137085e-01 -4.298336803913116455e-02
4.001073241233825684e-01 -4.416000097990036011e-03 -6.788267940282821655e-02
-3.346319496631622314e-02 -1.115503013134002686e-01 -9.813666343688964844e-02
1.113244369626045227e-01 -9.588569402694702148e-02 -2.037977576255798340e-01
2.253349572420120239e-01 -4.618254303932189941e-02 2.031962722539901733e-01
1.442834436893463135e-01 -1.515372246503829956e-01 -3.935559839010238647e-02
4.033642709255218506e-01 -6.095023453235626221e-02 6.339112669229507446e-02
3.984405398368835449e-01 -5.659587308764457703e-02 -1.149175018072128296e-01
-4.815652966499328613e-02 -9.792674332857131958e-02 1.138094440102577209e-01
4.821649193763732910e-02 -1.794695854187011719e-02 8.640111237764358521e-02
1.096936240792274475e-01 -1.467056274414062500e-01 -8.340284228324890137e-02
2.764370441436767578e-01 -8.331508934497833252e-02 1.840598732233047485e-01
1.370463371276855469e-01 1.264877617359161377e-02 -1.019131205976009369e-02
2.361117303371429443e-02 -3.408367186784744263e-02 1.144799441099166870e-01
-6.700713932514190674e-02 -7.104980200529098511e-02 1.167501322925090790e-02
9.960275888442993164e-02 -1.557033061981201172e-01 3.365782275795936584e-02
1.548191756010055542e-01 -1.317095905542373657e-01 -1.385080814361572266e-01
2.681380510330200195e-01 -2.522784471511840820e-02 1.726911216974258423e-01
2.294318675994873047e-01 -1.398215591907501221e-01 -5.175759643316268921e-02
3.824162781238555908e-01 4.976317286491394043e-04 -8.952445536851882935e-02
3.110883831977844238e-01 -9.816134721040725708e-02 -1.460530906915664673e-01
1.089621186256408691e-01 -2.235528454184532166e-02 -1.783749163150787354e-01
1.485803276300430298e-01 -5.976025015115737915e-02 2.145512551069259644e-01
3.815439939498901367e-01 -5.667877942323684692e-02 1.073679029941558838e-01
2.086633890867233276e-01 -1.156962066888809204e-01 -1.676160544157028198e-01
4.154658317565917969e-01 -5.712298303842544556e-02 3.376515954732894897e-02
3.360261321067810059e-01 -1.056169867515563965e-01 7.785513252019882202e-02
4.101333022117614746e-02 -1.530188918113708496e-01 4.298552498221397400e-02
-3.548666834831237793e-02 -1.339791417121887207e-01 6.371814757585525513e-02
2.843699753284454346e-01 -6.310932338237762451e-02 -2.111449688673019409e-01
2.622980773448944092e-01 -1.342008411884307861e-01 5.029843002557754517e-02
3.392989635467529297e-01 -5.536386370658874512e-02 1.535867005586624146e-01
2.666218876838684082e-01 -1.346942931413650513e-01 -1.306170318275690079e-02
3.014803528785705566e-01 1.119760423898696899e-02 7.061059772968292236e-02
1.156912744045257568e-02 -2.103422209620475769e-02 -4.450442735105752945e-03
1.815825700759887695e-01 -1.249834746122360229e-01 1.664669215679168701e-01
2.528427243232727051e-01 1.803795248270034790e-02 4.636067524552345276e-02
3.289549946784973145e-01 -4.256329685449600220e-02 -1.943900138139724731e-01
-1.157838106155395508e-02 -1.418613195419311523e-01 -2.801846526563167572e-02
1.132662445306777954e-01 -3.245944529771804810e-02 1.768269836902618408e-01
3.258473277091979980e-01 -3.621138632297515869e-03 -1.596009135246276855e-01
9.752617031335830688e-02 3.076024353504180908e-03 2.936729229986667633e-02
-4.651050269603729248e-02 -8.116754144430160522e-02 -9.418832510709762573e-02
8.568354696035385132e-02 -5.427051708102226257e-02 -2.037578672170639038e-01
1.781506091356277466e-01 1.616518199443817139e-02 -7.551454752683639526e-02
4.014073312282562256e-01 -1.019868627190589905e-02 3.336921334266662598e-02
3.649279773235321045e-01 -7.538835704326629639e-02 1.118358448147773743e-01
1.352656334638595581e-01 -1.162441968917846680e-01 -1.780009269714355469e-01
5.426988005638122559e-02 -1.045906767249107361e-01 -1.764821559190750122e-01
3.206703066825866699e-01 1.262946426868438721e-02 -1.093759387731552124e-01
1.313921213150024414e-01 -3.813312202692031860e-02 1.914990246295928955e-01
2.265049964189529419e-01 -1.313164830207824707e-01 -1.078046783804893494e-01
3.788322210311889648e-01 -1.256512850522994995e-02 7.936450093984603882e-02
9.083610028028488159e-02 3.390178084373474121e-03 -2.787184529006481171e-02
1.721819490194320679e-01 -1.337086707353591919e-01 1.462802886962890625e-01
1.352327466011047363e-01 -1.662226393818855286e-02 -1.814340800046920776e-01
3.677937984466552734e-01 -2.707260847091674805e-02 1.149889454245567322e-01
4.195100069046020508e-01 -5.988524109125137329e-02 -3.559302911162376404e-02
1.635742783546447754e-01 1.326648890972137451e-02 4.054811596870422363e-02
1.722168326377868652e-01 8.384220302104949951e-03 -1.238997727632522583e-01
4.020171761512756348e-01 -2.533108741044998169e-02 -1.161126568913459778e-01
-1.062305271625518799e-02 -1.230330020189285278e-01 1.341791749000549316e-01
1.984424889087677002e-02 -6.851861625909805298e-02 -1.683355867862701416e-01
-4.887120127677917480e-01 3.610727190971374512e-02 -7.212592661380767822e-02
-6.634179353713989258e-01 3.482371568679809570e-02 9.150928258895874023e-02
-5.107011795043945312e-01 1.283723115921020508e-01 3.619190305471420288e-02
-3.502346277236938477e-01 8.558179438114166260e-02 7.125020772218704224e-02
-3.853753209114074707e-01 2.923763729631900787e-02 -6.192977726459503174e-02
-6.987686157226562500e-01 1.074533835053443909e-01 6.011833995580673218e-02
-4.569715857505798340e-01 -4.991458356380462646e-02 -3.512805327773094177e-03
-5.474868416786193848e-01 -3.880350291728973389e-02 -2.491584233939647675e-02
-5.033501386642456055e-01 -5.126231163740158081e-02 1.217700634151697159e-02
-4.834505617618560791e-01 -5.050711333751678467e-02 6.138533353805541992e-05
-4.105057418346405029e-01 1.112958639860153198e-01 -1.575123332440853119e-02
-4.193484783172607422e-01 8.170141279697418213e-02 8.909178525209426880e-02
-3.233227729797363281e-01 5.014419183135032654e-02 -4.604248702526092529e-02
-6.849182844161987305e-01 1.058909371495246887e-01 6.527850776910781860e-02
-5.503923892974853516e-01 1.175839006900787354e-01 6.505331397056579590e-02
-5.819057226181030273e-01 1.209149882197380066e-01 -2.788256667554378510e-02
-3.897758126258850098e-01 1.126342788338661194e-01 -6.447993218898773193e-04
-7.170422077178955078e-01 3.072591871023178101e-02 -5.282729864120483398e-02
-7.562295794486999512e-01 1.618522778153419495e-02 5.535335838794708252e-02
-6.340202689170837402e-01 1.310453116893768311e-01 1.011997647583484650e-02
-4.041967988014221191e-01 5.411334335803985596e-02 9.900286048650741577e-02
-6.565281152725219727e-01 1.279698908329010010e-01 -1.206984743475914001e-03
-4.852165281772613525e-01 1.088470220565795898e-01 -3.788923472166061401e-02
-6.569249629974365234e-01 1.236824169754981995e-01 -1.532743684947490692e-02
-5.306307077407836914e-01 3.696582093834877014e-02 1.053257882595062256e-01
-7.732485532760620117e-01 1.011454313993453979e-01 3.518871963024139404e-02
-4.642792344093322754e-01 6.539474427700042725e-02 -6.595232337713241577e-02
-2.777945995330810547e-01 1.629781350493431091e-02 -3.463613241910934448e-02
-5.969352126121520996e-01 -2.708108723163604736e-02 -3.538001328706741333e-02
-7.924746274948120117e-01 1.383038051426410675e-02 1.006220187991857529e-02
-7.075623273849487305e-01 -1.654363051056861877e-02 -1.129315420985221863e-02
-8.162301182746887207e-01 7.227396965026855469e-02 3.116049244999885559e-02
-6.161540746688842773e-01 1.041306629776954651e-01 -4.753296077251434326e-02
-6.161339282989501953e-01 -3.860976547002792358e-02 3.052248433232307434e-02
-6.164536476135253906e-01 -2.511903643608093262e-02 -3.395779430866241455e-02
-3.064763247966766357e-01 -3.805652260780334473e-02 1.599481701850891113e-02
-4.073767066001892090e-01 1.005288064479827881e-01 -3.238453716039657593e-02
-5.976997017860412598e-01 1.317062526941299438e-01 2.778183482587337494e-02
-5.987397432327270508e-01 -4.272893816232681274e-02 1.047670468688011169e-02
-6.993095278739929199e-01 -4.879523068666458130e-03 -3.498860448598861694e-02
-7.458573579788208008e-01 1.021046712994575500e-01 5.002629011869430542e-02
-4.149969220161437988e-01 9.686127305030822754e-05 9.512815624475479126e-02
-2.139241099357604980e-01 7.542833685874938965e-03 2.401079423725605011e-02
-3.704440593719482422e-01 1.104256287217140198e-01 3.011111542582511902e-02
-2.366141378879547119e-01 2.678184956312179565e-02 -1.505392603576183319e-02
-5.575692653656005859e-01 -4.708231985569000244e-02 5.640237592160701752e-03
-3.697438836097717285e-01 7.506799697875976562e-02 8.478911221027374268e-02
-6.411215066909790039e-01 2.532534301280975342e-03 -5.546545982360839844e-02
-7.526946067810058594e-01 1.797892153263092041e-03 -1.647576503455638885e-02
-7.034798860549926758e-01 3.105348721146583557e-02 8.189171552658081055e-02
-8.072851300239562988e-01 3.805606812238693237e-02 3.744874894618988037e-02
-2.694158554077148438e-01 7.540097832679748535e-02 1.421548426151275635e-03
-5.086564421653747559e-01 1.302161067724227905e-01 1.282667554914951324e-02
-4.103409349918365479e-01 -2.177656441926956177e-02 -4.546312987804412842e-02
-6.584130525588989258e-01 1.168057471513748169e-01 -2.834660373628139496e-02
-4.766141176223754883e-01 7.328801602125167847e-02 -6.402350962162017822e-02
-3.126693665981292725e-01 6.021816283464431763e-02 -3.845354914665222168e-02
-7.817378044128417969e-01 1.381281204521656036e-02 -1.174050942063331604e-02
-2.757576406002044678e-01 -2.003993839025497437e-02 5.180495977401733398e-02
-5.189076066017150879e-01 -5.796667188405990601e-03 -6.111247092485427856e-02
-4.345732033252716064e-01 9.639920294284820557e-02 -4.316969960927963257e-02
-5.026909708976745605e-01 7.479619979858398438e-02 9.899893403053283691e-02
-7.099632024765014648e-01 9.850954636931419373e-03 6.980136036872863770e-02
-4.233785867691040039e-01 1.094627678394317627e-01 -2.381446771323680878e-02
-2.884600758552551270e-01 5.760804563760757446e-02 -3.066189773380756378e-02
-2.969595789909362793e-01 -3.471633791923522949e-02 3.204244747757911682e-02
-5.605406761169433594e-01 1.325779557228088379e-01 1.704141497611999512e-02
-5.294023752212524414e-01 -2.549125254154205322e-02 7.657835632562637329e-02
-5.741161108016967773e-01 9.190748631954193115e-02 -5.819540470838546753e-02
-3.101586997509002686e-01 7.919891178607940674e-02 6.292849034070968628e-02
-6.587098836898803711e-01 7.574076950550079346e-02 8.910188823938369751e-02
-3.416191339492797852e-01 -3.068955242633819580e-02 6.152255088090896606e-02
-4.484319686889648438e-01 1.239385381340980530e-01 8.739711716771125793e-03
-3.768047988414764404e-01 7.215847820043563843e-02 -4.966734349727630615e-02
-7.588998079299926758e-01 3.598565608263015747e-02 6.538889557123184204e-02
-7.497742772102355957e-01 6.771679222583770752e-02 7.020962983369827271e-02
-5.334629416465759277e-01 9.260133653879165649e-02 8.991249650716781616e-02
-8.207532167434692383e-01 6.977307796478271484e-02 -4.634967073798179626e-03
-5.482437610626220703e-01 6.111868470907211304e-02 -7.104364037513732910e-02
-5.694134235382080078e-01 9.063380956649780273e-02 9.056389331817626953e-02
-3.330190777778625488e-01 6.200529634952545166e-03 -4.828654974699020386e-02
-8.094152212142944336e-01 3.969731554388999939e-02 -1.443506032228469849e-02
-5.922892093658447266e-01 4.964620247483253479e-02 1.017516776919364929e-01
-6.197223663330078125e-01 3.526534885168075562e-02 -6.941833347082138062e-02
-7.909762859344482422e-01 9.394634515047073364e-02 -8.777465671300888062e-03
-6.862143874168395996e-01 -7.743798196315765381e-04 6.912552565336227417e-02
-6.935709714889526367e-01 6.335335969924926758e-02 8.599401265382766724e-02
-5.745369791984558105e-01 -4.241670668125152588e-02 3.871458768844604492e-02
-2.193550169467926025e-01 6.752960383892059326e-03 5.778804421424865723e-03
-6.590493321418762207e-01 1.236056312918663025e-01 4.381056502461433411e-02
-4.023196101188659668e-01 5.679841339588165283e-02 -6.098357588052749634e-02
-3.712373375892639160e-01 -3.023304790258407593e-02 6.807436794042587280e-02
-2.487319707870483398e-01 3.618607670068740845e-02 6.312139332294464111e-02
-3.873572945594787598e-01 -4.939039051532745361e-02 2.392733842134475708e-02
-5.369319915771484375e-01 8.262380957603454590e-03 9.885768592357635498e-02
-2.378792464733123779e-01 5.808670073747634888e-02 5.690513178706169128e-03
-6.686493158340454102e-01 4.399284347891807556e-02 -6.447505205869674683e-02
-6.584039330482482910e-01 1.125371232628822327e-01 6.302699446678161621e-02
-8.082159161567687988e-01 7.969711720943450928e-02 -1.119563914835453033e-02
-5.449719429016113281e-01 1.317103207111358643e-01 2.553892508149147034e-02
-7.710223197937011719e-01 1.075086817145347595e-01 1.029668375849723816e-02
-3.171841204166412354e-01 -2.505587786436080933e-02 -2.314424701035022736e-02
-2.248380184173583984e-01 -4.797823727130889893e-03 1.748166978359222412e-02
-4.222284257411956787e-01 1.207537129521369934e-01 2.042424865067005157e-02
-7.691142559051513672e-01 2.350573800504207611e-02 5.420450121164321899e-02
-7.308320999145507812e-01 2.326790988445281982e-02 7.070227712392807007e-02
-6.850218176841735840e-01 4.569239169359207153e-02 8.863916248083114624e-02
-4.061054587364196777e-01 8.932703733444213867e-02 -4.386717081069946289e-02
-4.836396872997283936e-01 -2.380162477493286133e-04 9.700728952884674072e-02
-7.164081335067749023e-01 1.209523305296897888e-01 2.277975901961326599e-02
-4.076536893844604492e-01 -3.320886194705963135e-02 -3.334541618824005127e-02
-6.171585917472839355e-01 1.187983229756355286e-01 6.026621162891387939e-02
-4.766417741775512695e-01 3.956437110900878906e-03 -6.527705490589141846e-02
-3.841750323772430420e-01 6.113997846841812134e-02 9.421940147876739502e-02
