3.863598704338073730e-01 -3.833222389221191406e-01 2.865588665008544922e-01
3.508992791175842285e-01 -6.727757453918457031e-01 2.652988731861114502e-01
3.542375266551971436e-01 -1.952383369207382202e-01 2.975611984729766846e-01
2.869926989078521729e-01 -4.766670465469360352e-01 2.448027878999710083e-01
3.837746381759643555e-01 -5.627023577690124512e-01 1.981240212917327881e-01
3.256085813045501709e-01 -4.816424846649169922e-01 2.888272404670715332e-01
3.704169690608978271e-01 -3.795471787452697754e-01 1.896512657403945923e-01
2.960316240787506104e-01 -5.586342811584472656e-01 2.513388097286224365e-01
2.947071194648742676e-01 -5.461024641990661621e-01 2.518160939216613770e-01
3.630446493625640869e-01 -5.213877558708190918e-02 2.763038277626037598e-01
2.911043167114257812e-01 -3.428182899951934814e-01 2.166860401630401611e-01
3.565767109394073486e-01 -3.907080888748168945e-01 1.860358417034149170e-01
3.869051635265350342e-01 -5.387161970138549805e-01 1.989350467920303345e-01
3.499218523502349854e-01 -6.741845607757568359e-02 2.223218083381652832e-01
4.104350209236145020e-01 -4.051434397697448730e-01 2.339658141136169434e-01
3.977373540401458740e-01 -4.895776808261871338e-01 2.073910683393478394e-01
3.389166593551635742e-01 -1.300447136163711548e-01 2.092375159263610840e-01
4.078671336174011230e-01 -2.933276593685150146e-01 2.542899250984191895e-01
2.859843969345092773e-01 -3.115061223506927490e-01 2.591590881347656250e-01
3.888895213603973389e-01 -3.355413675308227539e-01 2.017681747674942017e-01
3.789705038070678711e-01 -5.918120145797729492e-01 2.718029022216796875e-01
3.739954233169555664e-01 -5.468948483467102051e-01 2.808014154434204102e-01
3.731365501880645752e-01 -2.253995239734649658e-01 2.020643353462219238e-01
3.025487661361694336e-01 -6.173585057258605957e-01 2.451830506324768066e-01
3.963558375835418701e-01 -1.523552536964416504e-01 2.506822347640991211e-01
3.495407998561859131e-01 -4.521208405494689941e-01 1.844285875558853149e-01
3.205361962318420410e-01 -4.167485237121582031e-02 2.668922245502471924e-01
3.955073058605194092e-01 -2.439807206392288208e-01 2.174594104290008545e-01
3.481005132198333740e-01 -1.404417753219604492e-01 2.072151899337768555e-01
3.345596790313720703e-01 -4.560563564300537109e-01 2.932564914226531982e-01
2.936170101165771484e-01 -3.921171426773071289e-01 2.114270329475402832e-01
2.973037362098693848e-01 -5.876145362854003906e-01 2.425573468208312988e-01
3.356552720069885254e-01 -8.324351906776428223e-02 2.866636812686920166e-01
3.092796206474304199e-01 -1.856387704610824585e-01 2.129435092210769653e-01
2.852658629417419434e-01 -3.489517271518707275e-01 2.295677214860916138e-01
3.051979541778564453e-01 -5.354277491569519043e-01 2.030659317970275879e-01
2.915929257869720459e-01 -5.029411911964416504e-01 2.551599442958831787e-01
2.882709503173828125e-01 -3.981215655803680420e-01 2.205829620361328125e-01
3.081281483173370361e-01 -5.714102983474731445e-01 2.670084536075592041e-01
3.341630995273590088e-01 -3.592056035995483398e-02 2.753942608833312988e-01
3.168790638446807861e-01 -6.205971240997314453e-01 2.648123502731323242e-01
3.854965269565582275e-01 -6.590117812156677246e-01 2.148086130619049072e-01
3.237216472625732422e-01 -1.376862525939941406e-01 2.120292931795120239e-01
3.233607709407806396e-01 -2.242387980222702026e-01 2.952895164489746094e-01
3.105505108833312988e-01 -5.222175121307373047e-01 2.766775786876678467e-01
4.078670144081115723e-01 -5.058218836784362793e-01 2.390538305044174194e-01
3.486387431621551514e-01 -3.073084652423858643e-01 3.002243041992187500e-01
2.886879742145538330e-01 -2.257714718580245972e-01 2.576836943626403809e-01
3.332402706146240234e-01 -3.044809699058532715e-01 1.908149421215057373e-01
3.382502496242523193e-01 -5.461200475692749023e-01 1.869853138923645020e-01
4.055059552192687988e-01 -4.439215660095214844e-01 2.612734436988830566e-01
3.258395195007324219e-01 -1.131978929042816162e-01 2.878927290439605713e-01
3.139814138412475586e-01 -4.399293065071105957e-01 2.869359254837036133e-01
2.924934625625610352e-01 -4.868861436843872070e-01 2.164750993251800537e-01
2.981911003589630127e-01 -4.436110258102416992e-01 2.739491760730743408e-01
3.089975118637084961e-01 -1.705667674541473389e-01 2.155702561140060425e-01
3.239154219627380371e-01 -2.512386441230773926e-01 1.974534690380096436e-01
3.782532811164855957e-01 -2.504880726337432861e-01 2.019139081239700317e-01
3.619829416275024414e-01 -7.164003849029541016e-01 2.494067698717117310e-01
3.869612216949462891e-01 -3.621941208839416504e-01 2.867530882358551025e-01
3.996514379978179932e-01 -5.205170512199401855e-01 2.622272968292236328e-01
3.956643342971801758e-01 -4.130911231040954590e-01 2.044727206230163574e-01
3.601447939872741699e-01 -5.403701663017272949e-01 1.869679391384124756e-01
3.671209514141082764e-01 -6.777693033218383789e-01 2.027803361415863037e-01
3.306253254413604736e-01 -1.154726147651672363e-01 2.135525047779083252e-01
3.807521462440490723e-01 -8.105906844139099121e-02 2.659055292606353760e-01
3.096602261066436768e-01 -2.865435779094696045e-01 2.015199363231658936e-01
4.048824906349182129e-01 -3.215917646884918213e-01 2.659273147583007812e-01
4.096098244190216064e-01 -3.243588507175445557e-01 2.497624009847640991e-01
3.486468195915222168e-01 -1.202828288078308105e-01 2.106881588697433472e-01
3.892638087272644043e-01 -2.147787511348724365e-01 2.814700305461883545e-01
2.913091778755187988e-01 -1.918825805187225342e-01 2.395371347665786743e-01
3.243949413299560547e-01 -6.860509514808654785e-01 2.100169658660888672e-01
3.434888124465942383e-01 -7.427309751510620117e-01 2.243734151124954224e-01
2.919331789016723633e-01 -5.184990763664245605e-01 2.223291695117950439e-01
3.433424830436706543e-01 -6.239060759544372559e-01 1.918862164020538330e-01
2.886898517608642578e-01 -4.388433694839477539e-01 2.209248840808868408e-01
3.027007281780242920e-01 -1.510493308305740356e-01 2.748215794563293457e-01
3.677777349948883057e-01 -1.150460839271545410e-01 2.168796062469482422e-01
2.833687067031860352e-01 -3.422250449657440186e-01 2.431613355875015259e-01
3.959668576717376709e-01 -5.422878265380859375e-01 2.085154950618743896e-01
3.724719285964965820e-01 -3.359155654907226562e-01 2.950592637062072754e-01
3.762964308261871338e-01 -6.090267300605773926e-01 1.973909139633178711e-01
3.203010857105255127e-01 -1.920111626386642456e-01 2.925568521022796631e-01
2.845528721809387207e-01 -3.887498676776885986e-01 2.520081996917724609e-01
3.930949568748474121e-01 -5.888550281524658203e-01 2.590310275554656982e-01
4.085094928741455078e-01 -4.910095334053039551e-01 2.420340180397033691e-01
3.598177731037139893e-01 -4.958523213863372803e-01 1.856811046600341797e-01
3.635374903678894043e-01 -5.566521286964416504e-01 1.884300559759140015e-01
3.842991590499877930e-01 -6.746473312377929688e-01 2.188342362642288208e-01
3.363051712512969971e-01 -7.167923450469970703e-01 2.484825551509857178e-01
3.121774792671203613e-01 -4.680019021034240723e-01 2.836061716079711914e-01
3.693928122520446777e-01 -4.406127631664276123e-01 1.878900229930877686e-01
4.104961752891540527e-01 -4.284493029117584229e-01 2.359022200107574463e-01
2.850067615509033203e-01 -3.306615948677062988e-01 2.318046241998672485e-01
3.661963343620300293e-01 -5.322893857955932617e-01 2.853128314018249512e-01
2.980264127254486084e-01 -5.801404118537902832e-01 2.210452854633331299e-01
3.822377324104309082e-01 -6.923111081123352051e-01 2.360186278820037842e-01
2.841751575469970703e-01 -2.979663312435150146e-01 2.441211938858032227e-01
4.008333384990692139e-01 -5.709362030029296875e-01 2.222139388322830200e-01
3.824051916599273682e-01 -9.782785177230834961e-02 2.697269022464752197e-01
3.745601177215576172e-01 -1.091443896293640137e-01 2.812555730342864990e-01
3.684163987636566162e-01 -2.887926101684570312e-01 1.941430866718292236e-01
3.892236053943634033e-01 -4.450996220111846924e-01 2.812991738319396973e-01
3.915218412876129150e-01 -1.476810574531555176e-01 2.327322810888290405e-01
3.074007928371429443e-01 -2.484737932682037354e-01 2.065070271492004395e-01
2.969536483287811279e-01 -2.501354515552520752e-01 2.773164510726928711e-01
3.535184860229492188e-01 -1.556497961282730103e-01 2.053667902946472168e-01
3.915278911590576172e-01 -5.911488533020019531e-01 2.084832489490509033e-01
2.972065806388854980e-01 -3.299607336521148682e-01 2.788237333297729492e-01
3.006553351879119873e-01 -4.908981025218963623e-01 2.716091871261596680e-01
3.643108308315277100e-01 -2.696290612220764160e-02 2.468749880790710449e-01
2.879305183887481689e-01 -4.865807890892028809e-01 2.300883531570434570e-01
2.886799275875091553e-01 -2.703533470630645752e-01 2.642895877361297607e-01
2.981740236282348633e-01 -2.292630821466445923e-01 2.176519632339477539e-01
3.374326825141906738e-01 -2.449253797531127930e-01 2.992982864379882812e-01
3.762835562229156494e-01 -2.183019071817398071e-01 2.914547622203826904e-01
3.295445442199707031e-01 -4.952879846096038818e-01 1.872700899839401245e-01
3.339461982250213623e-01 -2.659172713756561279e-01 2.990828156471252441e-01
3.097310066223144531e-01 -4.191247522830963135e-01 2.857698500156402588e-01
3.186086118221282959e-01 -5.812764167785644531e-01 2.735356092453002930e-01
3.690709769725799561e-01 -7.206484675407409668e-02 2.775657176971435547e-01
3.215145468711853027e-01 -6.170457601547241211e-01 1.985416710376739502e-01
-6.209921464323997498e-02 -2.374379038810729980e-01 1.385924965143203735e-01
-1.871789693832397461e-01 -1.455038338899612427e-01 -5.194074288010597229e-02
-1.392742842435836792e-01 -1.893821656703948975e-01 -1.334471106529235840e-01
-1.393756568431854248e-01 3.264642506837844849e-02 -1.486895699054002762e-02
-1.995275020599365234e-01 -1.102491021156311035e-01 -7.363175600767135620e-02
-1.291376650333404541e-01 -2.017566561698913574e-01 -1.239794790744781494e-01
-1.463144421577453613e-01 -2.078180164098739624e-01 6.692905724048614502e-02
-1.042095944285392761e-01 -1.439987123012542725e-02 -2.062007188796997070e-01
-2.178688943386077881e-01 -5.220095068216323853e-02 5.848832055926322937e-02
-1.718832254409790039e-01 -8.426723629236221313e-02 -2.048598229885101318e-01
-1.844888627529144287e-01 -6.049688532948493958e-02 -1.771703809499740601e-01
-2.901460230350494385e-02 -5.691564455628395081e-02 6.610646843910217285e-02
-6.050264462828636169e-02 -3.930123895406723022e-02 -1.908833086490631104e-01
4.296503961086273193e-03 -1.538038551807403564e-01 -1.035324633121490479e-01
-1.230099648237228394e-01 -2.274241447448730469e-01 2.934194728732109070e-02
-2.165414392948150635e-01 -3.973167389631271362e-02 7.516253739595413208e-02
-1.630238145589828491e-01 -1.570765674114227295e-01 -1.410214751958847046e-01
-1.394839584827423096e-01 -1.974239945411682129e-01 -1.047391146421432495e-01
-4.782473668456077576e-02 -7.454995810985565186e-02 -2.251516878604888916e-01
-1.855293810367584229e-01 8.953109383583068848e-03 -9.177266806364059448e-02
-1.552709192037582397e-01 -1.918806135654449463e-01 -5.148960649967193604e-02
-1.273762583732604980e-01 2.045888453722000122e-02 1.071718856692314148e-01
6.391853094100952148e-04 -1.531023681163787842e-01 9.440518170595169067e-02
-1.089299097657203674e-01 -4.894217476248741150e-02 2.628926634788513184e-01
-9.774088859558105469e-02 -1.294726878404617310e-01 2.990202605724334717e-01
2.208203077316284180e-04 -2.043289840221405029e-01 -6.994956731796264648e-02
-1.983358711004257202e-02 -1.507988572120666504e-01 1.842618882656097412e-01
-2.002291977405548096e-01 -7.164965569972991943e-02 -1.191585212945938110e-01
-1.593556702136993408e-01 -4.866598173975944519e-02 2.625519931316375732e-01
-1.164543554186820984e-01 -2.100483775138854980e-01 -1.298373639583587646e-01
-9.053513407707214355e-02 -1.041891723871231079e-01 2.925377488136291504e-01
-9.081899374723434448e-02 -1.055252552032470703e-02 1.591071188449859619e-01
-1.520990878343582153e-01 -1.244175732135772705e-01 -2.202762365341186523e-01
-1.083777770400047302e-01 -2.112158238887786865e-01 2.001738101243972778e-01
-2.044211030006408691e-01 -7.522530853748321533e-03 -5.198461562395095825e-02
-8.663424849510192871e-02 -2.229287475347518921e-01 1.864601373672485352e-01
-1.394954919815063477e-01 -2.104043364524841309e-01 -3.351925313472747803e-02
-2.121852785348892212e-01 -8.297371864318847656e-02 -2.667494118213653564e-02
-8.751848340034484863e-02 1.169166713953018188e-02 -2.928565070033073425e-02
-4.626851156353950500e-02 -8.102744817733764648e-02 2.027593851089477539e-01
-2.125326693058013916e-01 -4.919283464550971985e-02 -5.349726974964141846e-02
-8.636881411075592041e-02 -4.434414207935333252e-03 -1.496411412954330444e-01
-1.174858808517456055e-01 -7.771399617195129395e-02 -2.745281755924224854e-01
-2.334030717611312866e-02 -6.274959444999694824e-02 4.527992010116577148e-02
-2.249064296483993530e-02 -2.137307375669479370e-01 -1.417184025049209595e-01
-1.948805153369903564e-02 -6.691082566976547241e-02 2.576142922043800354e-02
-1.702001690864562988e-01 -2.540630102157592773e-02 -1.908281594514846802e-01
-9.620964527130126953e-02 -2.355717420578002930e-01 -6.391401588916778564e-02
-1.469765007495880127e-01 2.624566107988357544e-02 9.379849582910537720e-02
-1.595308929681777954e-01 -2.389470487833023071e-02 -2.057126909494400024e-01
-2.078335583209991455e-01 -2.350623160600662231e-02 -6.507810205221176147e-02
-1.694844812154769897e-01 -1.594898104667663574e-01 -1.085660532116889954e-01
-1.647939234972000122e-01 -1.671934574842453003e-01 1.851287782192230225e-01
-1.841807663440704346e-01 -1.427224874496459961e-01 1.664116233587265015e-01
-1.765505373477935791e-01 -1.480167210102081299e-01 1.884631067514419556e-01
-1.424306184053421021e-01 -1.864891648292541504e-01 2.027266472578048706e-01
-2.071120589971542358e-01 -8.326160907745361328e-02 -7.080920785665512085e-02
-8.315386623144149780e-02 2.290196716785430908e-03 -1.052236035466194153e-01
-1.859269887208938599e-01 -1.446870267391204834e-01 1.501325666904449463e-01
-2.136378884315490723e-01 -7.912831008434295654e-02 9.948971867561340332e-02
-1.913354098796844482e-01 -1.297168433666229248e-01 -7.735726237297058105e-02
-2.030312865972518921e-01 -1.218480765819549561e-01 7.574387360364198685e-03
-1.809974014759063721e-01 -5.891300737857818604e-03 1.783237755298614502e-01
-2.004709839820861816e-01 9.058944880962371826e-03 2.852430194616317749e-02
-1.353967189788818359e-01 4.851073026657104492e-03 -1.727940142154693604e-01
-2.178193628787994385e-02 -6.157298386096954346e-02 -6.265704333782196045e-02
-2.628853172063827515e-02 -2.346316277980804443e-01 -7.766936719417572021e-02
-1.852654069662094116e-01 -4.495304077863693237e-02 -1.715745180845260620e-01
-1.727496236562728882e-01 -1.235750764608383179e-01 -1.697567403316497803e-01
-1.842129081487655640e-01 2.349247783422470093e-02 3.730720654129981995e-02
-7.861775159835815430e-02 -6.794155389070510864e-02 -2.621561288833618164e-01
-1.935983002185821533e-01 -1.444742679595947266e-01 3.405075520277023315e-02
-1.718422770500183105e-02 -1.204910427331924438e-01 1.570414900779724121e-01
-2.315657585859298706e-02 -1.919656395912170410e-01 -1.830447316169738770e-01
-1.370871365070343018e-01 -2.024997174739837646e-01 1.652397066354751587e-01
-1.744269132614135742e-01 -1.592541337013244629e-01 1.668010503053665161e-01
-9.410347044467926025e-02 -2.210831046104431152e-01 -1.366481035947799683e-01
7.315814495086669922e-03 -1.726876348257064819e-01 3.803801536560058594e-02
3.351971507072448730e-03 -1.531858891248703003e-01 7.457695156335830688e-02
-5.625113099813461304e-02 -3.365254402160644531e-02 -1.621408760547637939e-01
-7.976917177438735962e-02 -3.319440782070159912e-02 1.957063674926757812e-01
-1.383097618818283081e-01 -3.454179316759109497e-02 -2.375314235687255859e-01
-1.379877775907516479e-01 -6.610517203807830811e-02 -2.577641606330871582e-01
-1.130632311105728149e-02 -1.369853466749191284e-01 1.471872329711914062e-01
-1.368926018476486206e-01 -1.779978275299072266e-01 2.342758774757385254e-01
-8.223378658294677734e-02 -2.441526651382446289e-01 -3.603874891996383667e-02
-1.146835684776306152e-01 -3.656727075576782227e-02 -2.466198652982711792e-01
-7.086228579282760620e-02 -2.605360001325607300e-02 -1.824688762426376343e-01
-1.871183961629867554e-01 -1.559196859598159790e-01 2.367525175213813782e-02
5.815558135509490967e-03 -1.951693594455718994e-01 -3.262622281908988953e-02
-2.839185297489166260e-03 -2.010579109191894531e-01 8.453617244958877563e-02
-5.640969052910804749e-02 -2.477498352527618408e-01 7.221649587154388428e-02
-1.757784485816955566e-01 -1.121863797307014465e-01 2.427487671375274658e-01
-8.692629635334014893e-02 -1.778816133737564087e-01 -2.377989888191223145e-01
-1.550464630126953125e-01 -1.995065659284591675e-01 5.246473476290702820e-02
-6.443576514720916748e-02 -2.344211339950561523e-01 -1.167018115520477295e-01
-1.185728684067726135e-01 -1.942749619483947754e-01 2.289732992649078369e-01
-1.590967178344726562e-01 -1.456623077392578125e-01 -1.761800497770309448e-01
-5.847644060850143433e-02 -1.620399504899978638e-01 -2.536494135856628418e-01
-2.477022260427474976e-02 -6.385014951229095459e-02 -1.119549423456192017e-01
-1.383843868970870972e-01 -1.486668586730957031e-01 -2.185927778482437134e-01
-4.307526722550392151e-02 -2.414617538452148438e-01 -7.595038414001464844e-02
-9.804929792881011963e-02 -2.266131341457366943e-01 1.621129363775253296e-01
-6.021137908101081848e-02 -1.929188519716262817e-02 8.188018202781677246e-02
-1.796834915876388550e-01 1.873232424259185791e-03 -1.282831430435180664e-01
-1.939026862382888794e-01 -8.866921067237854004e-03 1.541367769241333008e-01
-1.219782307744026184e-01 -1.867896318435668945e-01 -1.826646178960800171e-01
-7.853823900222778320e-02 -2.225580960512161255e-01 -1.502907872200012207e-01
-9.094599634408950806e-02 -2.029867768287658691e-01 2.328288704156875610e-01
-1.791115105152130127e-01 -1.604927331209182739e-02 2.009652107954025269e-01
-2.728499472141265869e-02 -2.425403594970703125e-01 -5.131549201905727386e-03
-1.934470385313034058e-01 -6.092797592282295227e-02 -1.492300778627395630e-01
-1.364319324493408203e-01 -4.889231175184249878e-02 -2.506766617298126221e-01
-1.555391550064086914e-01 -1.534198820590972900e-01 2.406534552574157715e-01
-1.715986728668212891e-01 -1.640461087226867676e-01 -8.260029554367065430e-02
-9.276021271944046021e-02 -2.423695325851440430e-01 6.842728704214096069e-02
-1.568592488765716553e-01 -4.804169014096260071e-02 -2.290057390928268433e-01
-1.053743064403533936e-01 3.755725920200347900e-03 -1.570821851491928101e-01
-1.495648175477981567e-02 -2.293398827314376831e-01 -5.790474265813827515e-02
-1.173002049326896667e-01 -1.633788645267486572e-02 2.157809287309646606e-01
-1.892749369144439697e-01 -1.464009582996368408e-01 1.164369881153106689e-01
-1.395459473133087158e-02 -1.862064599990844727e-01 1.542536318302154541e-01
-5.522279441356658936e-02 -4.418070614337921143e-02 1.552884727716445923e-01
6.738051772117614746e-03 -1.577661335468292236e-01 4.454108700156211853e-02
-2.028359770774841309e-01 -1.176731586456298828e-01 -2.098451182246208191e-02
-8.419618755578994751e-02 -6.355828046798706055e-02 2.548035085201263428e-01
-1.174739748239517212e-02 -8.620344847440719604e-02 4.894943162798881531e-02
-2.514790743589401245e-02 -2.362255752086639404e-01 7.369896769523620605e-02
-1.062633618712425232e-01 -3.186614066362380981e-02 2.349043935537338257e-01
-1.321108788251876831e-01 3.143545240163803101e-02 8.845366537570953369e-03
-1.271784305572509766e-01 -2.026599943637847900e-01 1.923796683549880981e-01
-1.188097372651100159e-01 -2.528117597103118896e-02 -2.320350110530853271e-01
-3.949999809265136719e-02 -1.490016281604766846e-01 2.338494211435317993e-01
-1.517878919839859009e-01 -1.046789586544036865e-01 -2.356319427490234375e-01
-2.102381587028503418e-01 -4.191678762435913086e-02 -6.801075488328933716e-02
-3.554575890302658081e-02 -5.013855919241905212e-02 8.234934508800506592e-02
-1.177835464477539062e-02 -1.521797627210617065e-01 1.562310159206390381e-01
-1.954837739467620850e-01 -4.541210830211639404e-03 -9.204301983118057251e-02
-1.056405082345008850e-01 -1.695626676082611084e-01 2.764304578304290771e-01
-3.500633686780929565e-02 -6.556364893913269043e-02 1.329300403594970703e-01
-3.729809820652008057e-02 -9.470142424106597900e-02 1.960379481315612793e-01
-1.556785255670547485e-01 -1.573196053504943848e-01 -1.642954498529434204e-01
-3.776364773511886597e-02 -2.226475179195404053e-01 -1.446644812822341919e-01
-1.616948843002319336e-02 -7.612644135951995850e-02 -9.381106495857238770e-02
-2.787227928638458252e-02 -6.349143385887145996e-02 -1.319550126791000366e-01
-1.895872652530670166e-01 5.278393626213073730e-03 1.280591934919357300e-01
-1.093452051281929016e-01 -2.051195800304412842e-01 -1.604416221380233765e-01
-2.095661759376525879e-01 -1.314952969551086426e-02 -2.660932019352912903e-02
-1.148421987891197205e-01 2.317223697900772095e-02 -7.152238488197326660e-02
-1.600480824708938599e-01 1.972340792417526245e-02 1.255752891302108765e-01
-1.781241744756698608e-01 -1.512510329484939575e-01 -9.051444381475448608e-02
-3.448950499296188354e-02 -2.441002428531646729e-01 -3.533710911870002747e-02
-1.469550281763076782e-01 -1.189645230770111084e-01 2.859649956226348877e-01
1.355327665805816650e-03 -2.085820883512496948e-01 1.412952411919832230e-02
-5.183876305818557739e-02 -6.158629059791564941e-02 -2.148689478635787964e-01
-1.905517727136611938e-01 -1.475757956504821777e-01 -3.538801334798336029e-03
-1.145759969949722290e-02 -1.257524192333221436e-01 -1.731415092945098877e-01
2.951785922050476074e-03 -1.680461615324020386e-01 8.121664077043533325e-02
-7.705724239349365234e-02 -1.091579496860504150e-01 2.822040021419525146e-01
-1.440231055021286011e-01 -2.099854201078414917e-01 1.294781174510717392e-02
5.989007651805877686e-03 -1.339818239212036133e-01 7.787689566612243652e-03
-2.977398782968521118e-02 -2.320516854524612427e-01 1.106186211109161377e-01
-8.290902525186538696e-02 -1.723836958408355713e-01 2.731485962867736816e-01
-1.597830355167388916e-01 -1.921974718570709229e-01 9.157336503267288208e-02
-8.860851824283599854e-02 -2.042988836765289307e-01 -1.900086700916290283e-01
-2.117656469345092773e-01 -9.704178571701049805e-02 2.529709599912166595e-02
-6.624057888984680176e-02 -6.726318597793579102e-02 -2.481151074171066284e-01
-4.529371857643127441e-02 -4.072595387697219849e-02 -1.416885405778884888e-01
-1.317050457000732422e-01 -8.263002336025238037e-02 -2.662428021430969238e-01
-1.321208477020263672e-01 4.721134901046752930e-04 1.869012117385864258e-01
-2.015539705753326416e-01 -1.232027411460876465e-01 9.801407903432846069e-02
-6.728237867355346680e-02 -3.339558094739913940e-02 1.644212305545806885e-01
-1.678106486797332764e-01 -1.078673750162124634e-01 -2.004405707120895386e-01
-6.875336170196533203e-02 -1.613305211067199707e-01 2.719326615333557129e-01
-1.543153524398803711e-01 3.328352421522140503e-02 -4.913202486932277679e-03
-9.684912860393524170e-02 1.763939112424850464e-02 -1.498549710959196091e-02
-4.893869534134864807e-02 -6.789287924766540527e-02 1.886952221393585205e-01
8.949548006057739258e-03 -1.565976887941360474e-01 4.426517523825168610e-03
-2.427399903535842896e-02 -2.290175706148147583e-01 -9.815352410078048706e-02
-4.167211055755615234e-02 -1.151856556534767151e-01 -2.461994737386703491e-01
-1.020709201693534851e-01 -2.014860808849334717e-01 -1.813924610614776611e-01
-5.072548985481262207e-03 -1.015615463256835938e-01 4.317032173275947571e-02
-5.966397374868392944e-02 -9.090023487806320190e-02 -2.599245905876159668e-01
-7.443124055862426758e-02 -1.302315294742584229e-02 1.186436489224433899e-01
-7.449716329574584961e-03 -8.969354629516601562e-02 5.508241243660449982e-03
-1.853705346584320068e-01 2.118974179029464722e-02 5.917013064026832581e-02
-2.150313109159469604e-01 -2.610412240028381348e-02 3.296658396720886230e-03
-1.101242005825042725e-02 -8.360057324171066284e-02 2.386372163891792297e-02
-6.014207750558853149e-02 -2.106884866952896118e-02 -1.285008043050765991e-01
-5.952522158622741699e-03 -9.356103837490081787e-02 -5.726753920316696167e-02
-1.249605268239974976e-01 2.427471429109573364e-02 -8.777147531509399414e-02
-1.675323694944381714e-01 -4.776897653937339783e-02 -2.120455205440521240e-01
-1.007720977067947388e-01 -7.440941035747528076e-02 -2.762373983860015869e-01
-7.218144834041595459e-02 -1.390718966722488403e-01 -2.727714478969573975e-01
-1.850381195545196533e-01 -1.249160543084144592e-01 2.004354745149612427e-01
-1.516957283020019531e-01 -1.929013878107070923e-01 1.468381881713867188e-01
-2.173813879489898682e-01 -6.712764501571655273e-02 4.162031039595603943e-02
-1.881011724472045898e-01 -9.565632790327072144e-02 2.214382290840148926e-01
-5.735531449317932129e-04 -1.074392274022102356e-01 -1.986075192689895630e-03
-2.131175100803375244e-01 -4.890312626957893372e-02 1.207854226231575012e-01
-1.795595735311508179e-01 2.258756011724472046e-02 7.594618946313858032e-02
-5.731590092182159424e-02 -1.996805220842361450e-01 2.267888039350509644e-01
-2.531601488590240479e-02 -2.075410783290863037e-01 1.617148667573928833e-01
-1.306791603565216064e-02 -2.299712598323822021e-01 3.722258284687995911e-02
-9.919133782386779785e-02 -2.366729080677032471e-01 -4.491405189037322998e-02
-1.074286401271820068e-01 -1.800075322389602661e-01 -2.178323566913604736e-01
-2.490413188934326172e-02 -1.804206669330596924e-01 -1.999475359916687012e-01
-4.651507735252380371e-02 -2.398813068866729736e-01 1.133477315306663513e-01
-6.221349909901618958e-02 -9.994971752166748047e-02 2.569793462753295898e-01
4.117310047149658203e-03 -1.804402470588684082e-01 -9.327011555433273315e-02
-1.251315474510192871e-01 -9.856963157653808594e-02 -2.707655429840087891e-01
4.254922270774841309e-03 -1.278826296329498291e-01 -6.360456347465515137e-02
8.206710219383239746e-03 -1.791518330574035645e-01 -4.614316672086715698e-02
-1.455582678318023682e-03 -1.230941042304039001e-01 7.282953709363937378e-02
-1.932308077812194824e-01 -5.809167400002479553e-02 2.121971398591995239e-01
6.055764853954315186e-03 -1.519714891910552979e-01 -8.606845885515213013e-02
-8.713899552822113037e-02 -1.517491042613983154e-02 -1.864497214555740356e-01
-7.599137723445892334e-02 3.005370497703552246e-03 -4.077348485589027405e-02
-5.959719419479370117e-04 -1.894453167915344238e-01 -1.116155833005905151e-01
-1.239532679319381714e-01 -1.992004662752151489e-01 -1.464249789714813232e-01
-3.841963410377502441e-02 -2.006056606769561768e-01 -1.934310197830200195e-01
-2.297826111316680908e-02 -6.156671792268753052e-02 -8.122435957193374634e-02
-1.754769533872604370e-01 -1.683012843132019043e-01 -3.498462960124015808e-02
-3.823906183242797852e-03 -2.197544574737548828e-01 -2.708806656301021576e-03
-1.747465133666992188e-01 -5.852546542882919312e-02 -2.010822147130966187e-01
-3.419443219900131226e-02 -4.161235690116882324e-02 3.163464367389678955e-03
-1.927179396152496338e-01 -1.048757657408714294e-01 -1.208263337612152100e-01
-1.268007606267929077e-02 -1.923291087150573730e-01 -1.566160470247268677e-01
-7.707296311855316162e-02 -1.214039102196693420e-01 -2.793246805667877197e-01
-1.488023847341537476e-01 7.385931909084320068e-03 1.726517826318740845e-01
-1.440245062112808228e-01 2.497004717588424683e-02 -9.746640920639038086e-02
-1.064492240548133850e-01 5.893141031265258789e-03 1.350784450769424438e-01
-1.488499194383621216e-01 -2.034119665622711182e-01 -1.487772446125745773e-02
-1.248056590557098389e-01 2.778209000825881958e-02 -5.514891445636749268e-02
-2.753295004367828369e-02 -7.234740257263183594e-02 1.149328276515007019e-01
-2.000656723976135254e-01 -2.460993826389312744e-02 1.628790497779846191e-01
1.109197735786437988e-03 -2.005249857902526855e-01 5.591528862714767456e-02
-4.888874664902687073e-02 -2.306571602821350098e-02 -4.889152571558952332e-02
5.272254347801208496e-03 -1.715937256813049316e-01 6.109747663140296936e-02
4.071272909641265869e-03 -1.382763087749481201e-01 5.024224147200584412e-02
-5.764178931713104248e-03 -1.540662497282028198e-01 -1.605369299650192261e-01
-1.263000518083572388e-01 1.261460036039352417e-02 -1.468462049961090088e-01
-6.455307453870773315e-02 -7.736936211585998535e-03 2.140048891305923462e-02
4.821144044399261475e-03 -1.951033473014831543e-01 2.958742156624794006e-02
-1.662856042385101318e-01 -1.850547790527343750e-01 1.003826037049293518e-03
-5.219932273030281067e-02 -9.091702848672866821e-02 2.297442257404327393e-01
-3.091806918382644653e-02 -2.437061667442321777e-01 3.635621070861816406e-02
-1.038160920143127441e-02 -8.227773755788803101e-02 -4.519424587488174438e-02
-2.079956233501434326e-01 -9.602501988410949707e-02 1.239885389804840088e-01
-4.602273926138877869e-02 -2.181272357702255249e-01 -1.644264161586761475e-01
-6.171334162354469299e-02 -8.083803951740264893e-02 2.382548153400421143e-01
-1.570246815681457520e-01 3.173623234033584595e-02 -3.539941459894180298e-02
-1.817295253276824951e-01 -1.232376992702484131e-01 -1.388634145259857178e-01
-8.289570361375808716e-02 -8.637275546789169312e-02 -2.768160700798034668e-01
-1.244542300701141357e-01 -1.825225651264190674e-01 2.445815205574035645e-01
-1.758568286895751953e-01 -1.276143938302993774e-01 2.268286943435668945e-01
-1.995276808738708496e-01 4.379726946353912354e-03 -4.072158783674240112e-02
-1.208303794264793396e-01 -1.620505899190902710e-01 -2.282919287681579590e-01
-9.573592990636825562e-02 -2.414536178112030029e-01 -7.131719030439853668e-03
-5.458220466971397400e-02 -2.491471171379089355e-01 5.301446467638015747e-02
-1.979099214076995850e-02 -8.957321941852569580e-02 -1.601121127605438232e-01
-1.348605006933212280e-02 -2.315554022789001465e-01 -2.255614474415779114e-02
-5.202667415142059326e-02 -2.168818414211273193e-01 1.918192803859710693e-01
-8.691201359033584595e-02 -1.871054917573928833e-01 2.583132088184356689e-01
-4.999925568699836731e-02 -1.634539216756820679e-01 2.491142153739929199e-01
-4.046338796615600586e-02 -2.480154931545257568e-01 1.138486620038747787e-02
-5.362610146403312683e-02 -1.880013346672058105e-01 -2.242386043071746826e-01
-2.526854723691940308e-02 -2.186433076858520508e-01 1.391366124153137207e-01
-6.039735302329063416e-02 -1.162210851907730103e-02 -5.975340306758880615e-02
-1.081528216600418091e-01 -2.278128117322921753e-01 -7.412835955619812012e-02
-1.202238053083419800e-01 -1.064119860529899597e-01 3.026987612247467041e-01
-4.080605506896972656e-02 -3.485883027315139771e-02 -7.685035467147827148e-02
-4.192823544144630432e-02 -2.435961365699768066e-01 -6.000869721174240112e-02
-1.408130526542663574e-01 -1.074736863374710083e-01 -2.510017752647399902e-01
9.398825466632843018e-03 -1.713772118091583252e-01 -9.837550111114978790e-03
-1.636197566986083984e-01 -1.895821988582611084e-01 2.340010926127433777e-02
-2.869001030921936035e-02 -2.358140945434570312e-01 9.027893096208572388e-02
-1.363898515701293945e-01 -3.582935780286788940e-02 2.575082480907440186e-01
7.229864597320556641e-03 -1.445430070161819458e-01 -5.988808721303939819e-02
-1.566417813301086426e-01 -1.170955598354339600e-02 2.158983349800109863e-01
-7.950022816658020020e-03 -2.001157701015472412e-01 -1.272523701190948486e-01
-2.046934366226196289e-01 -5.588474869728088379e-02 -1.026139110326766968e-01
-1.782078742980957031e-01 -6.145535036921501160e-02 2.467881590127944946e-01
-1.084357351064682007e-01 -9.077522158622741699e-02 -2.801393866539001465e-01
-4.402046650648117065e-02 -1.799624860286712646e-01 2.306091040372848511e-01
-2.107402533292770386e-01 -9.973462671041488647e-02 7.220652699470520020e-02
-1.589325219392776489e-01 2.976534515619277954e-02 6.502396613359451294e-02
-2.809360623359680176e-02 -9.452734142541885376e-02 1.650519520044326782e-01
-7.409349083900451660e-02 -1.964729279279708862e-02 1.429037153720855713e-01
-1.928241550922393799e-01 1.326922327280044556e-02 7.722973078489303589e-02
-1.233730241656303406e-01 -8.087796717882156372e-02 2.957674264907836914e-01
-6.522089242935180664e-03 -2.007988393306732178e-01 1.057215109467506409e-01
-2.580213546752929688e-02 -1.626350879669189453e-01 2.010954767465591431e-01
-1.083481311798095703e-01 -8.811476081609725952e-02 2.958958148956298828e-01
-1.865205466747283936e-01 1.786189526319503784e-02 -4.738301783800125122e-02
-1.189035922288894653e-01 -2.154236882925033569e-01 1.662847101688385010e-01
-2.072174251079559326e-01 -8.029446750879287720e-02 1.523609310388565063e-01
-1.446332335472106934e-01 -9.697384387254714966e-02 2.927896976470947266e-01
-1.691791713237762451e-01 2.333449572324752808e-02 9.760599583387374878e-02
-1.632812619209289551e-01 -1.208907142281532288e-01 2.620126307010650635e-01
-6.259264796972274780e-02 -8.352935314178466797e-03 -6.257391534745693207e-03
-9.777943044900894165e-02 1.623013615608215332e-02 3.762834891676902771e-02
-9.030918776988983154e-02 -1.251921057701110840e-04 1.176848709583282471e-01
-1.327922642230987549e-01 -1.878504008054733276e-01 -1.561861634254455566e-01
-1.271450519561767578e-02 -1.085617393255233765e-01 -1.597251445055007935e-01
-1.783781945705413818e-01 -1.582844853401184082e-01 -6.315750628709793091e-02
-1.432674676179885864e-01 -2.017114758491516113e-01 -6.794061511754989624e-02
-1.646376103162765503e-01 -1.766662597656250000e-01 1.529644578695297241e-01
-1.049041748046875000e-01 -2.249897420406341553e-01 -9.879016131162643433e-02
-1.486998349428176880e-01 1.663086563348770142e-02 1.412217915058135986e-01
-1.321850568056106567e-01 -1.669241487979888916e-01 2.597224414348602295e-01
-1.945117115974426270e-01 -3.168988972902297974e-02 1.897873431444168091e-01
-2.047599554061889648e-01 -4.130203276872634888e-02 1.635571122169494629e-01
-1.307673603296279907e-01 1.632641255855560303e-02 1.318022906780242920e-01
-1.159960776567459106e-02 -1.446590721607208252e-01 -1.820187270641326904e-01
-1.388514041900634766e-02 -7.491561770439147949e-02 -6.134244613349437714e-03
-1.941525042057037354e-01 -1.321423947811126709e-01 1.353935152292251587e-01
-5.820230394601821899e-02 -1.606559753417968750e-02 -8.496063947677612305e-02
-5.925841256976127625e-02 -3.258147090673446655e-02 1.346732825040817261e-01
-2.334792912006378174e-02 -1.820980459451675415e-01 1.859898269176483154e-01
-1.394278705120086670e-01 -1.593874692916870117e-01 -2.007049918174743652e-01
-2.596333622932434082e-02 -7.257321476936340332e-02 -1.499987542629241943e-01
-1.506918072700500488e-01 -7.439450919628143311e-02 -2.448301762342453003e-01
-1.284663826227188110e-01 -2.173281311988830566e-01 -5.209177359938621521e-02
-1.167187914252281189e-01 -1.983828842639923096e-03 -1.858137100934982300e-01
-3.371803462505340576e-02 -1.609386503696441650e-01 2.203722745180130005e-01
-1.079008206725120544e-01 -2.361361682415008545e-01 5.117387510836124420e-03
-1.397029459476470947e-01 1.191055774688720703e-02 1.559843569993972778e-01
-2.115199863910675049e-01 -9.529288113117218018e-02 5.079948808997869492e-03
3.152340650558471680e-03 -1.319557577371597290e-01 -9.033851325511932373e-02
-9.001284837722778320e-02 -5.004064738750457764e-02 -2.528382837772369385e-01
-1.372398138046264648e-01 -1.652330905199050903e-02 2.273387461900711060e-01
-7.715712487697601318e-02 -2.171187549829483032e-01 -1.671808511018753052e-01
-1.498637795448303223e-01 -2.010440230369567871e-01 1.078259125351905823e-01
-1.526513695716857910e-01 3.311275690793991089e-02 2.201486006379127502e-02
-1.402621269226074219e-01 -2.049548327922821045e-01 1.410375386476516724e-01
-1.404947191476821899e-01 -2.633537352085113525e-02 2.442530393600463867e-01
-2.133131325244903564e-01 -1.682476699352264404e-02 4.003657773137092590e-02
-6.031633168458938599e-02 -1.073835790157318115e-02 -4.080603271722793579e-02
-1.221634969115257263e-01 2.704895287752151489e-02 4.282312095165252686e-02
-8.247349411249160767e-02 -2.370919287204742432e-01 1.341917216777801514e-01
-3.583724051713943481e-02 -1.063507050275802612e-01 -2.307223826646804810e-01
-8.229642361402511597e-02 -2.284178286790847778e-01 1.708921492099761963e-01
-1.669868826866149902e-03 -1.791946589946746826e-01 -1.303822547197341919e-01
-9.878093004226684570e-02 -1.323854923248291016e-02 1.836153715848922729e-01
-1.096125319600105286e-01 -2.250163555145263672e-01 1.464463174343109131e-01
-1.038760170340538025e-01 -2.354463040828704834e-01 9.581914544105529785e-02
-2.609782665967941284e-02 -1.388629078865051270e-01 1.998691409826278687e-01
-1.846037805080413818e-01 3.985702991485595703e-03 -1.095802411437034607e-01
-2.390333265066146851e-02 -5.649699270725250244e-02 -1.613137871026992798e-02
-1.178556308150291443e-01 -2.140565514564514160e-01 -1.108479723334312439e-01
-7.605300843715667725e-02 -2.295141816139221191e-01 -1.285940110683441162e-01
-5.592317134141921997e-02 -7.059778273105621338e-02 2.119204252958297729e-01
-2.030808180570602417e-01 -2.193896472454071045e-02 1.466161012649536133e-01
-2.108670771121978760e-02 -7.791477441787719727e-02 9.385284036397933960e-02
-1.233684644103050232e-01 2.930327504873275757e-02 -5.584167316555976868e-03
-1.000135391950607300e-02 -2.002495527267456055e-01 1.226724088191986084e-01
-1.647389233112335205e-01 -1.261326968669891357e-01 -1.894019395112991333e-01
-7.934947311878204346e-02 -3.344416618347167969e-03 -1.223801076412200928e-01
-2.031625211238861084e-01 -8.055039495229721069e-02 -9.814175963401794434e-02
-1.323902159929275513e-01 -5.347311496734619141e-03 -1.969719827175140381e-01
7.265232503414154053e-03 -1.882380247116088867e-01 7.941159419715404510e-03
-1.883515417575836182e-01 -1.265248656272888184e-01 -1.026533022522926331e-01
-1.020769923925399780e-01 2.036518603563308716e-02 1.703841611742973328e-03
-3.316603600978851318e-02 -1.185186654329299927e-01 2.082469761371612549e-01
-1.260528564453125000e-01 -2.163897901773452759e-01 -7.012545317411422729e-02
-2.065281867980957031e-01 -3.881007432937622070e-04 1.673406921327114105e-02
-3.019486367702484131e-02 -2.112795263528823853e-01 -1.622104197740554810e-01
-7.911132276058197021e-02 -4.049640893936157227e-02 -2.285857200622558594e-01
-6.084389984607696533e-02 -1.239552423357963562e-01 2.668312191963195801e-01
-6.087069585919380188e-02 -2.503568232059478760e-01 2.337956242263317108e-02
-6.021974608302116394e-02 -2.459818124771118164e-01 8.995449542999267578e-02
-1.005502492189407349e-01 -1.449536681175231934e-01 2.950100600719451904e-01
-3.367967903614044189e-02 -4.162041097879409790e-02 -2.647050842642784119e-02
-2.325484156608581543e-02 -1.105058491230010986e-01 -2.017752379179000854e-01
-1.969918459653854370e-01 -8.575167506933212280e-02 1.973197758197784424e-01
-1.017192229628562927e-01 6.824344396591186523e-03 -1.385855525732040405e-01
-1.121777370572090149e-01 -4.818199947476387024e-02 -2.586545646190643311e-01
-1.330293118953704834e-01 -2.198522984981536865e-01 5.195401608943939209e-02
-7.259547710418701172e-04 -1.703930050134658813e-01 1.047160252928733826e-01
-1.627707034349441528e-01 -1.354598402976989746e-01 2.493738234043121338e-01
4.874378442764282227e-03 -1.998185068368911743e-01 -1.427694503217935562e-02
-1.252910643815994263e-01 1.705286651849746704e-02 -1.282813549041748047e-01
-3.272678703069686890e-02 -1.602290123701095581e-01 -2.284888923168182373e-01
-2.017077207565307617e-01 -1.060694530606269836e-01 1.512563377618789673e-01
-8.804112672805786133e-03 -2.094067037105560303e-01 -1.092618107795715332e-01
-2.063339501619338989e-01 -2.242445945739746094e-03 6.280064582824707031e-02
-1.830066889524459839e-01 -8.657956123352050781e-02 -1.742602884769439697e-01
-3.641438484191894531e-02 -1.419914811849594116e-01 -2.404217869043350220e-01
-1.970398426055908203e-02 -1.637900769710540771e-01 -2.012949883937835693e-01
-1.791886836290359497e-01 2.050865441560745239e-02 -6.396811455488204956e-02
-2.320621907711029053e-02 -1.940640807151794434e-01 1.748029142618179321e-01
-1.776165664196014404e-01 -1.699487715959548950e-01 5.899849813431501389e-03
-7.514527440071105957e-02 2.764858305454254150e-03 -1.720905303955078125e-02
-1.451528370380401611e-01 -5.190797522664070129e-02 2.734707891941070557e-01
-1.678319126367568970e-01 -1.741826832294464111e-01 -6.250026822090148926e-02
-6.110563501715660095e-02 -2.311058342456817627e-02 1.057613864541053772e-01
-1.665655076503753662e-01 -6.996330618858337402e-02 -2.187710255384445190e-01
-2.092560827732086182e-01 -1.065062806010246277e-01 4.093992710113525391e-02
-1.004575192928314209e-01 -1.437768191099166870e-01 -2.665141224861145020e-01
-1.416052728891372681e-01 -1.919399946928024292e-02 -2.171411514282226562e-01
-1.804626286029815674e-01 -1.664820164442062378e-01 7.037478685379028320e-02
-7.724292576313018799e-03 -9.314653277397155762e-02 -8.431631326675415039e-02
-2.159775197505950928e-01 -7.689690589904785156e-02 5.847947299480438232e-02
-1.243725419044494629e-03 -1.356233805418014526e-01 9.181557595729827881e-02
-4.124757647514343262e-02 -1.909798383712768555e-01 2.163641750812530518e-01
-1.191109642386436462e-01 -2.016445994377136230e-01 2.106754928827285767e-01
-2.098085582256317139e-01 -3.252042084932327271e-02 1.283695250749588013e-01
-3.042510896921157837e-02 -2.418688833713531494e-01 5.612263455986976624e-02
-6.547130644321441650e-02 -2.409431636333465576e-01 -8.511801809072494507e-02
-5.243107303977012634e-02 -1.365905851125717163e-01 2.565090358257293701e-01
-2.178956270217895508e-01 -4.514454305171966553e-02 2.481484971940517426e-02
-2.030838578939437866e-01 -3.727095574140548706e-02 -1.051412597298622131e-01
-5.850727483630180359e-02 -5.876829475164413452e-02 1.982041448354721069e-01
-1.318328082561492920e-03 -1.076233014464378357e-01 -6.629043072462081909e-02
8.133284747600555420e-03 -1.439808607101440430e-01 -2.373351156711578369e-02
-1.056035310029983521e-01 1.330786943435668945e-02 -1.155137568712234497e-01
-6.222820654511451721e-02 -6.066756695508956909e-02 -2.339391261339187622e-01
3.434799611568450928e-03 -1.994424313306808472e-01 -5.443572998046875000e-02
-1.447306126356124878e-01 -1.206326261162757874e-01 -2.368939071893692017e-01
-1.952306479215621948e-01 -1.306256353855133057e-01 -4.511553049087524414e-02
2.765521407127380371e-03 -1.177628412842750549e-01 -3.324907645583152771e-02
-8.095425367355346680e-02 -1.267121434211730957e-01 2.896979153156280518e-01
-1.099242642521858215e-01 -2.322757393121719360e-01 -3.319232165813446045e-02
-1.196651682257652283e-01 -5.758482962846755981e-02 2.783898711204528809e-01
-3.893766552209854126e-02 -2.335760295391082764e-01 -1.091634705662727356e-01
-1.354098469018936157e-01 -6.539839506149291992e-02 2.862378954887390137e-01
4.330150783061981201e-03 -1.298706978559494019e-01 2.514119073748588562e-02
-1.961129009723663330e-01 -1.985765993595123291e-02 -1.171152442693710327e-01
-5.337744951248168945e-04 -1.987507045269012451e-01 -9.255163371562957764e-02
7.606990635395050049e-03 -1.638631671667098999e-01 -7.146530598402023315e-02
-1.985118091106414795e-01 1.127393543720245361e-02 7.367746904492378235e-03
-2.027649134397506714e-01 -7.497668266296386719e-03 1.146761626005172729e-01
-2.154673039913177490e-01 -6.897342205047607422e-02 -1.150109525769948959e-02
-1.460715383291244507e-01 -1.606025397777557373e-01 -1.836776137351989746e-01
-1.182306259870529175e-01 -1.769561171531677246e-01 2.600752115249633789e-01
-6.001368165016174316e-03 -1.268167793750762939e-01 1.105646938085556030e-01
-9.913477301597595215e-02 -2.409380972385406494e-01 2.131331712007522583e-02
-2.116471827030181885e-01 -1.516919583082199097e-02 -8.325989358127117157e-03
-1.193126216530799866e-01 2.376934140920639038e-02 6.656644493341445923e-02
-2.800539135932922363e-03 -1.638221591711044312e-01 -1.457663923501968384e-01
-1.586035639047622681e-01 -1.672175526618957520e-01 2.063570618629455566e-01
-8.932220190763473511e-02 -1.066130250692367554e-01 -2.828657925128936768e-01
-5.129128694534301758e-03 -1.353100985288619995e-01 -1.519445925951004028e-01
-1.136758700013160706e-01 -3.774075210094451904e-02 2.511112689971923828e-01
-2.172165215015411377e-01 -6.470878422260284424e-02 1.572767645120620728e-02
-1.003537327051162720e-01 1.870202273130416870e-02 -4.589446634054183960e-02
-1.888813376426696777e-01 -3.891261667013168335e-02 2.113689184188842773e-01
-1.425841897726058960e-01 -2.092286944389343262e-01 9.575451165437698364e-02
-6.507574021816253662e-02 -1.114674732089042664e-01 -2.730029821395874023e-01
-5.968071147799491882e-02 -2.465776801109313965e-01 -4.925766214728355408e-02
-1.011149361729621887e-01 1.599671691656112671e-02 6.030599027872085571e-02
-1.238827109336853027e-01 -2.227123677730560303e-01 1.072711795568466187e-01
-3.793045878410339355e-02 -3.949591517448425293e-02 3.865182027220726013e-02
-1.959461271762847900e-01 -4.738311469554901123e-02 -1.389351785182952881e-01
-4.591127857565879822e-02 -5.215128511190414429e-02 1.426047533750534058e-01
-1.975927352905273438e-01 -8.357539772987365723e-04 -7.235831022262573242e-02
-7.457323372364044189e-02 -1.445035636425018311e-02 -1.552006304264068604e-01
-1.023602485656738281e-02 -9.861993044614791870e-02 8.134220540523529053e-02
-1.597568392753601074e-01 1.874449104070663452e-02 -1.148780584335327148e-01
-8.599075675010681152e-02 7.895037531852722168e-03 4.597142338752746582e-02
-8.572520315647125244e-02 -7.478334009647369385e-03 1.345016211271286011e-01
-2.048811614513397217e-01 -1.028590798377990723e-01 -5.083770304918289185e-02
-7.484729588031768799e-02 4.847198724746704102e-04 -6.783010065555572510e-02
-1.266079545021057129e-01 -2.230717539787292480e-01 8.421433717012405396e-02
-4.659682512283325195e-03 -1.081589683890342712e-01 6.288027018308639526e-02
-6.725694239139556885e-02 -6.531100720167160034e-02 2.289503216743469238e-01
-1.780036836862564087e-01 -1.068411767482757568e-01 -1.733694970607757568e-01
-7.852888107299804688e-02 -2.423138916492462158e-01 -6.081172823905944824e-02
-1.094349324703216553e-01 -2.353093028068542480e-01 5.906504765152931213e-02
-2.147257626056671143e-01 -4.061269015073776245e-02 1.000221520662307739e-01
-1.327932178974151611e-01 2.631155401468276978e-02 7.896395027637481689e-02
-2.126164138317108154e-01 -7.468786090612411499e-02 1.174292862415313721e-01
-1.956846714019775391e-01 -8.457946777343750000e-02 -1.304213702678680420e-01
-9.888482838869094849e-02 -2.300278842449188232e-02 2.078516930341720581e-01
-1.525783240795135498e-01 -1.864984929561614990e-01 1.700131446123123169e-01
-1.257897466421127319e-01 -1.415307968854904175e-01 2.908665835857391357e-01
-1.481958478689193726e-02 -8.470892161130905151e-02 -1.181268841028213501e-01
-1.929945200681686401e-01 -8.171506226062774658e-02 2.129790633916854858e-01
-1.722885966300964355e-01 -1.763667464256286621e-01 9.457843750715255737e-02
-8.650773018598556519e-02 -2.406399846076965332e-01 1.065008863806724548e-01
-8.822157233953475952e-02 -3.676430881023406982e-02 2.193088382482528687e-01
-1.333437711000442505e-01 -2.175097465515136719e-01 -1.572649925947189331e-02
-1.986498683691024780e-01 -1.330993622541427612e-01 7.348319143056869507e-02
-1.706067025661468506e-01 -9.991748631000518799e-02 2.604755461215972900e-01
-1.882911324501037598e-01 -7.393354177474975586e-02 -1.637000590562820435e-01
-1.809439361095428467e-01 1.500658690929412842e-03 1.606218665838241577e-01
-1.693148761987686157e-01 3.025238960981369019e-02 3.179434314370155334e-02
-1.783213317394256592e-01 -1.700695455074310303e-01 2.652352675795555115e-02
-1.159130781888961792e-01 1.397856324911117554e-02 1.192685216665267944e-01
-3.485985100269317627e-03 -9.827027469873428345e-02 -2.076181396842002869e-02
-3.757639974355697632e-02 -4.727968946099281311e-02 -1.266048401594161987e-01
-6.522394716739654541e-02 -1.437478959560394287e-01 2.739014625549316406e-01
-8.069691061973571777e-02 -2.474641799926757812e-01 1.843553967773914337e-02
-2.397284656763076782e-02 -1.466339826583862305e-01 -2.163392156362533569e-01
-9.846657514572143555e-02 -1.216322854161262512e-01 -2.794059813022613525e-01
-9.640399366617202759e-02 9.660676121711730957e-03 8.685460686683654785e-02
-3.275132179260253906e-02 -7.803480327129364014e-02 1.529560536146163940e-01
-1.850788891315460205e-01 -1.200002431869506836e-02 -1.411136239767074585e-01
