-1.986517310142517090e-01 6.084313392639160156e-01 -2.684311568737030029e-02
-2.352968305349349976e-01 4.007315635681152344e-02 -1.051967442035675049e-01
-3.104068040847778320e-01 5.063837766647338867e-01 -2.279734909534454346e-01
-1.752843111753463745e-01 -5.063891410827636719e-03 -1.250450909137725830e-01
-1.806017756462097168e-01 5.075897574424743652e-01 -2.249309122562408447e-01
-2.195174992084503174e-01 4.580485820770263672e-02 5.372949689626693726e-02
-1.613289415836334229e-01 1.731466501951217651e-01 1.065084561705589294e-01
-3.051081597805023193e-01 4.359303712844848633e-01 -2.364928126335144043e-01
-1.651303023099899292e-01 3.520880341529846191e-01 -2.370436489582061768e-01
-1.551031470298767090e-01 3.065758347511291504e-01 -1.956943422555923462e-01
-3.135425746440887451e-01 5.077131390571594238e-01 -1.684169769287109375e-01
-2.669070959091186523e-01 2.198047041893005371e-01 4.412666708230972290e-02
-2.090984731912612915e-01 6.251057386398315430e-01 -2.484147250652313232e-01
-2.042340636253356934e-01 5.234537124633789062e-01 8.451282232999801636e-02
-1.434734761714935303e-01 2.551132738590240479e-01 -1.593329757452011108e-02
-2.761347293853759766e-01 2.074433118104934692e-01 -1.938539743423461914e-01
-3.116892874240875244e-01 5.311173796653747559e-01 -2.224825918674468994e-01
-3.040268123149871826e-01 3.789765238761901855e-01 -1.815070658922195435e-01
-2.344820797443389893e-01 8.834129571914672852e-02 5.607410520315170288e-02
-2.443875670433044434e-01 6.392368674278259277e-01 -3.272697329521179199e-01
-2.544820308685302734e-01 1.113867759704589844e-01 -1.673941463232040405e-01
-1.425693482160568237e-01 1.121694743633270264e-01 -7.174625992774963379e-02
-2.431667298078536987e-01 2.358904331922531128e-01 -3.243347406387329102e-01
-1.410891115665435791e-01 1.483609676361083984e-01 -7.361913472414016724e-02
-1.816320717334747314e-01 5.436778068542480469e-03 5.306532233953475952e-02
-2.971845269203186035e-01 3.794814646244049072e-01 -2.257350087165832520e-02
-1.552271097898483276e-01 3.613249957561492920e-01 -1.668799072504043579e-01
-2.632218897342681885e-01 1.801811903715133667e-01 2.727254480123519897e-02
-3.053085803985595703e-01 6.593732833862304688e-01 -9.804741293191909790e-02
-1.568097770214080811e-01 7.955437898635864258e-02 6.771469861268997192e-02
-3.065787553787231445e-01 4.025534987449645996e-01 -1.110257729887962341e-01
-2.884290814399719238e-01 6.808676719665527344e-01 -2.923441231250762939e-01
-2.199175506830215454e-01 3.552637696266174316e-01 -3.621728420257568359e-01
-3.034235537052154541e-01 4.629241228103637695e-01 -3.336762636899948120e-02
-3.059504032135009766e-01 6.234492659568786621e-01 -2.589394748210906982e-01
-1.489832699298858643e-01 3.385097086429595947e-01 -3.374981880187988281e-02
-2.624756097793579102e-01 6.926861405372619629e-01 -3.037689626216888428e-01
-2.143066972494125366e-01 6.784231662750244141e-01 -1.722707450389862061e-01
-1.703690141439437866e-01 4.457350373268127441e-01 3.396300226449966431e-02
-2.659796476364135742e-01 1.420301496982574463e-01 -7.118844240903854370e-02
-1.681688427925109863e-01 4.585608839988708496e-02 -1.747653782367706299e-01
-2.530159056186676025e-01 6.539928913116455078e-01 3.204666823148727417e-02
-2.873097360134124756e-01 5.936595797538757324e-01 1.953051239252090454e-02
-1.811212003231048584e-01 2.383767515420913696e-01 -2.939568459987640381e-01
-2.045681029558181763e-01 4.752187132835388184e-01 1.135630533099174500e-01
-1.929304599761962891e-01 6.097841858863830566e-01 -1.397749781608581543e-01
-1.420129239559173584e-01 1.805142015218734741e-01 -8.544325828552246094e-04
-2.214115858078002930e-01 1.796899437904357910e-01 -3.099628686904907227e-01
-2.986052632331848145e-01 5.246524810791015625e-01 -3.029780089855194092e-01
-3.062466382980346680e-01 4.522991776466369629e-01 -5.990429595112800598e-02
-1.779121458530426025e-01 3.603785634040832520e-01 -2.858457565307617188e-01
-2.637765109539031982e-01 3.837366104125976562e-01 1.080869659781455994e-01
-1.486201733350753784e-01 4.699921607971191406e-02 -4.506082460284233093e-02
-2.653035819530487061e-01 2.958808541297912598e-01 -3.198310136795043945e-01
-1.608740687370300293e-01 3.511607646942138672e-01 -2.145262956619262695e-01
-2.133042514324188232e-01 4.445425271987915039e-01 -3.529690802097320557e-01
-1.821617782115936279e-01 3.930256366729736328e-01 1.116593554615974426e-01
-1.466825306415557861e-01 3.148533105850219727e-01 -3.767813742160797119e-02
-2.144996821880340576e-01 1.023799180984497070e-03 -1.122194007039070129e-01
-1.782321333885192871e-01 -6.129890680313110352e-03 3.340185433626174927e-02
-2.866348624229431152e-01 7.390096187591552734e-01 -1.112495586276054382e-01
-2.390305399894714355e-01 4.190796613693237305e-01 1.403928399085998535e-01
-1.609538942575454712e-01 -2.625435590744018555e-03 -3.334525972604751587e-02
-1.640383899211883545e-01 2.290263026952743530e-01 -2.447410225868225098e-01
-1.464432924985885620e-01 2.469444572925567627e-01 2.553340047597885132e-02
-2.965207695960998535e-01 6.839009523391723633e-01 -7.027183473110198975e-02
-1.446548402309417725e-01 1.639402210712432861e-01 2.816676348447799683e-02
-1.563922911882400513e-01 3.408953547477722168e-01 4.155162721872329712e-02
-2.819631695747375488e-01 3.710677027702331543e-01 -3.140904307365417480e-01
-2.647104859352111816e-01 2.537319958209991455e-01 7.368860393762588501e-02
-2.223003506660461426e-01 7.017932534217834473e-01 -1.624839901924133301e-01
-1.459114700555801392e-01 9.632697701454162598e-02 1.521337032318115234e-02
-2.062013745307922363e-01 5.849872827529907227e-01 -2.775070071220397949e-01
-1.707890480756759644e-01 4.861098229885101318e-01 -1.687528192996978760e-02
-1.854116767644882202e-01 4.543744027614593506e-01 -2.828967571258544922e-01
-2.948623299598693848e-01 3.980137407779693604e-01 -2.781557738780975342e-01
-1.498998105525970459e-01 3.117836415767669678e-01 1.395635306835174561e-02
-3.093176484107971191e-01 4.659461677074432373e-01 -2.160008102655410767e-01
-1.601665616035461426e-01 4.127032160758972168e-01 -1.888521015644073486e-03
-2.892285883426666260e-01 4.967364668846130371e-01 -3.296741545200347900e-01
-2.551134824752807617e-01 1.309978812932968140e-01 -2.021675705909729004e-01
-2.131717056035995483e-01 6.592919230461120605e-01 -2.171251475811004639e-01
-2.150068134069442749e-01 6.801272034645080566e-01 -9.363393485546112061e-02
-1.939310729503631592e-01 4.449716210365295410e-01 1.115951016545295715e-01
-1.662721931934356689e-01 1.105134785175323486e-01 -2.158572673797607422e-01
-3.012222647666931152e-01 3.746145665645599365e-01 -6.282027810811996460e-02
-2.990595698356628418e-01 6.727430224418640137e-01 -2.654961347579956055e-01
-2.052792012691497803e-01 6.510235071182250977e-01 -1.662548929452896118e-01
-2.871806025505065918e-01 5.469652414321899414e-01 3.522317856550216675e-02
-2.246518284082412720e-01 4.742135405540466309e-01 -3.630563914775848389e-01
-1.894622445106506348e-01 -2.416092157363891602e-02 -1.018413901329040527e-02
-2.263397276401519775e-01 1.949620544910430908e-01 1.386499106884002686e-01
-1.874633133411407471e-01 1.230453252792358398e-01 1.345938444137573242e-01
-1.955078244209289551e-01 2.840113937854766846e-01 1.574100255966186523e-01
-1.588255763053894043e-01 3.719874918460845947e-01 -1.895655691623687744e-01
-1.836517453193664551e-01 5.015460252761840820e-01 4.293239861726760864e-02
-1.581899672746658325e-01 4.538756608963012695e-02 4.851575940847396851e-02
-1.453014314174652100e-01 3.031379580497741699e-01 -5.922296643257141113e-02
-2.496579289436340332e-01 1.118680536746978760e-01 1.776830106973648071e-02
-2.533295750617980957e-01 6.108114719390869141e-01 6.272315233945846558e-02
-2.476048916578292847e-01 5.131248831748962402e-01 1.113452687859535217e-01
-2.793551981449127197e-01 7.391268014907836914e-01 -8.819831907749176025e-02
-3.014459908008575439e-01 6.878839731216430664e-01 -1.034108325839042664e-01
-1.500519216060638428e-01 1.440071910619735718e-01 -1.639277935028076172e-01
-2.495850473642349243e-01 1.921799480915069580e-01 -2.866962254047393799e-01
-2.263718247413635254e-01 1.905724406242370605e-02 -9.866109490394592285e-02
-1.926496028900146484e-01 4.196068644523620605e-01 1.211331114172935486e-01
-3.037392795085906982e-01 4.777135550975799561e-01 -2.683435678482055664e-01
-2.913299500942230225e-01 2.827520966529846191e-01 -1.808071434497833252e-01
-1.931950151920318604e-01 3.690272867679595947e-01 1.400450766086578369e-01
-2.958282828330993652e-01 7.215433716773986816e-01 -1.234824955463409424e-01
-1.599406898021697998e-01 3.267293870449066162e-01 -2.182102501392364502e-01
-2.833811342716217041e-01 2.387665957212448120e-01 -4.995818436145782471e-02
-2.808654904365539551e-01 6.239522695541381836e-01 2.107528597116470337e-02
-2.760780453681945801e-01 1.964059621095657349e-01 -5.015643313527107239e-02
-2.998419404029846191e-01 6.109732389450073242e-01 -2.919472455978393555e-01
-1.613924801349639893e-01 3.348635137081146240e-01 7.206239551305770874e-02
-2.393882721662521362e-01 6.895595788955688477e-01 -2.767987251281738281e-01
-1.523875296115875244e-01 3.035283088684082031e-01 4.014252871274948120e-02
-1.716559231281280518e-01 1.912727206945419312e-01 1.307499706745147705e-01
-2.725182473659515381e-01 2.261665761470794678e-01 2.064370363950729370e-02
-2.959316968917846680e-01 7.307227849960327148e-01 -1.847403347492218018e-01
-1.871631145477294922e-01 5.130760669708251953e-01 -2.555814981460571289e-01
-2.414235025644302368e-01 1.651956140995025635e-01 9.710685163736343384e-02
-2.606171667575836182e-01 1.293406039476394653e-01 -3.367214649915695190e-02
-1.761445254087448120e-01 5.249592065811157227e-01 -1.606310904026031494e-01
-2.154802531003952026e-01 5.923451781272888184e-01 -3.016237318515777588e-01
-2.935512661933898926e-01 5.844064950942993164e-01 -3.174701929092407227e-01
-1.457546651363372803e-01 1.958111524581909180e-01 3.547225147485733032e-02
-2.272398471832275391e-01 6.213000416755676270e-01 -3.105340898036956787e-01
-1.424284875392913818e-01 2.522985637187957764e-01 -3.923219442367553711e-02
-1.829594671726226807e-01 5.627523660659790039e-01 -1.541718244552612305e-01
-2.500622570514678955e-01 2.273919731378555298e-01 1.057569906115531921e-01
-1.408837437629699707e-01 1.443249583244323730e-01 -3.309433162212371826e-02
-2.323361039161682129e-01 5.672897100448608398e-01 8.859457820653915405e-02
-2.950153946876525879e-01 3.961433768272399902e-01 -5.052834749221801758e-04
-1.448554694652557373e-01 2.092744112014770508e-01 -1.369823217391967773e-01
-2.921988368034362793e-01 3.368220329284667969e-01 -1.414695382118225098e-02
-2.980223298072814941e-01 5.893511176109313965e-01 -1.591975986957550049e-02
-1.648645102977752686e-01 8.627235889434814453e-02 -1.973375380039215088e-01
-1.686238050460815430e-01 4.885477721691131592e-01 -5.079563334584236145e-02
-1.617046296596527100e-01 4.343231618404388428e-01 -2.042055875062942505e-02
-2.604775130748748779e-01 7.225351333618164062e-01 -4.285290092229843140e-02
-2.385841608047485352e-01 2.664395570755004883e-01 -3.421562612056732178e-01
-2.158396095037460327e-01 2.701369225978851318e-01 1.606154441833496094e-01
-1.801071763038635254e-01 1.310762315988540649e-01 -2.576672732830047607e-01
-1.460638344287872314e-01 7.871198654174804688e-02 -8.499497920274734497e-02
-3.096643686294555664e-01 5.696870088577270508e-01 -2.457835376262664795e-01
-1.829718202352523804e-01 3.316460549831390381e-01 -3.038514554500579834e-01
-2.927968800067901611e-01 6.223392486572265625e-01 -3.106585443019866943e-01
-2.886519432067871094e-01 4.030982851982116699e-01 3.358417004346847534e-02
-2.156063020229339600e-01 6.129516959190368652e-01 -2.860843241214752197e-01
-1.606993079185485840e-01 4.284493625164031982e-01 -1.481147408485412598e-01
-1.666869968175888062e-01 1.021994352340698242e-01 1.042750105261802673e-01
-2.987786829471588135e-01 5.187211632728576660e-01 -3.471881151199340820e-03
-1.566722989082336426e-01 3.911683559417724609e-01 -7.496111094951629639e-03
-2.482220828533172607e-01 8.692497014999389648e-02 -1.538882851600646973e-01
-1.458094716072082520e-01 1.192314773797988892e-01 -1.215319782495498657e-01
-2.835285961627960205e-01 3.791622221469879150e-01 4.931152611970901489e-02
-3.036372959613800049e-01 5.716651082038879395e-01 -3.757137060165405273e-02
-1.874671578407287598e-01 2.729504108428955078e-01 -3.119341731071472168e-01
-2.536118626594543457e-01 1.797581017017364502e-01 6.908831745386123657e-02
-1.602989435195922852e-01 1.290398836135864258e-02 1.597377657890319824e-02
-2.299861311912536621e-01 7.575467228889465332e-02 -2.135214358568191528e-01
-1.502701342105865479e-01 1.415525227785110474e-01 6.189296394586563110e-02
-1.775483638048171997e-01 6.641614437103271484e-02 -2.131717503070831299e-01
-1.449410319328308105e-01 2.636232972145080566e-01 -1.222071796655654907e-01
-2.699042558670043945e-01 5.519853234291076660e-01 -3.605359792709350586e-01
-3.104378879070281982e-01 6.502990722656250000e-01 -1.879811584949493408e-01
-1.520340591669082642e-01 1.616157293319702148e-01 -1.808575391769409180e-01
-2.930577993392944336e-01 3.595041036605834961e-01 -2.620959877967834473e-01
-2.742539644241333008e-01 2.696232795715332031e-01 4.398851841688156128e-02
-2.793182134628295898e-01 5.050882697105407715e-01 -3.513308167457580566e-01
-1.923723518848419189e-01 4.626627862453460693e-01 -3.026860654354095459e-01
-2.844626903533935547e-01 2.690154314041137695e-01 -2.251175045967102051e-01
-1.707989126443862915e-01 5.076792240142822266e-01 -1.010165140032768250e-01
-2.487002611160278320e-01 6.967210173606872559e-01 -1.232909411191940308e-02
-1.998774558305740356e-01 6.369605064392089844e-01 -1.246044412255287170e-01
-1.679658293724060059e-01 3.341193199157714844e-01 -2.545084357261657715e-01
-2.706524729728698730e-01 1.642612069845199585e-01 -1.430775076150894165e-01
-3.126861453056335449e-01 6.085132360458374023e-01 -1.993690133094787598e-01
-2.859998345375061035e-01 2.381334751844406128e-01 -1.120920106768608093e-01
-1.885517239570617676e-01 5.455712676048278809e-01 -2.331759929656982422e-01
-2.727349698543548584e-01 2.919683456420898438e-01 6.183854490518569946e-02
-1.839137077331542969e-01 5.247408151626586914e-01 1.834645122289657593e-02
-1.519294679164886475e-01 3.755988478660583496e-01 -7.556273043155670166e-02
-1.925212591886520386e-01 6.092689037322998047e-01 -1.061579436063766479e-01
-2.760456800460815430e-01 2.494983226060867310e-01 2.085966616868972778e-02
-2.931218445301055908e-01 2.870011329650878906e-01 -9.338589012622833252e-02
-2.057977616786956787e-01 7.510289549827575684e-02 1.056862697005271912e-01
-3.011786639690399170e-01 4.521636962890625000e-01 -2.726935744285583496e-01
-2.783190310001373291e-01 5.747659206390380859e-01 4.896081238985061646e-02
-1.458114385604858398e-01 2.644524574279785156e-01 9.203657507896423340e-03
-1.999911069869995117e-01 6.230683326721191406e-01 -1.936033368110656738e-01
-1.492592096328735352e-01 2.806369066238403320e-01 -1.610624194145202637e-01
-1.607416272163391113e-01 4.426974952220916748e-01 -1.115122959017753601e-01
-1.499761939048767090e-01 3.344466090202331543e-01 -9.696215391159057617e-03
-1.434518992900848389e-01 2.756328880786895752e-01 -6.670120358467102051e-02
-2.188779711723327637e-01 6.932278275489807129e-01 -1.132618412375450134e-01
-3.104689717292785645e-01 4.918782711029052734e-01 -8.960557729005813599e-02
-1.784049570560455322e-01 5.220139026641845703e-01 -1.909184902906417847e-01
-1.478597819805145264e-01 1.649975627660751343e-01 -1.564204692840576172e-01
-3.027447760105133057e-01 6.909437179565429688e-01 -2.247941792011260986e-01
-3.103920519351959229e-01 4.544031918048858643e-01 -1.855030953884124756e-01
-1.963168382644653320e-01 5.782397985458374023e-01 -2.401465177536010742e-01
-3.049807846546173096e-01 5.388857126235961914e-01 -2.753908932209014893e-01
-1.518251299858093262e-01 3.466407656669616699e-01 -1.435400694608688354e-01
-1.503005921840667725e-01 3.185358345508575439e-01 -1.505157202482223511e-01
-1.562322378158569336e-01 7.303011417388916016e-02 -1.551346629858016968e-01
-2.807697653770446777e-01 7.578871250152587891e-01 -1.831358522176742554e-01
-1.578917056322097778e-01 4.219857454299926758e-01 -5.814309418201446533e-02
-2.873938083648681641e-01 5.700399875640869141e-01 2.795220166444778442e-02
-2.090176492929458618e-01 6.119838356971740723e-01 1.461225003004074097e-02
-2.542402148246765137e-01 4.755369424819946289e-01 -3.744498491287231445e-01
-1.898958086967468262e-01 3.140950798988342285e-01 1.485927104949951172e-01
-3.126403093338012695e-01 5.088142156600952148e-01 -1.981605887413024902e-01
-1.683163791894912720e-01 5.074307322502136230e-02 8.073144406080245972e-02
-2.251886725425720215e-01 7.030761241912841797e-01 -8.870538324117660522e-02
-2.813955247402191162e-01 5.299162864685058594e-01 5.524764209985733032e-02
-1.635745316743850708e-01 3.766357898712158203e-02 -1.518049836158752441e-01
-1.855781972408294678e-01 4.252412021160125732e-01 -2.944727241992950439e-01
-1.794950962066650391e-01 4.715993404388427734e-01 5.360261350870132446e-02
-2.445736974477767944e-01 4.853780269622802734e-01 1.219652220606803894e-01
-3.013938665390014648e-01 3.766590356826782227e-01 -2.154894024133682251e-01
-1.756023764610290527e-01 1.121149957180023193e-01 -2.394242286682128906e-01
-2.965461909770965576e-01 5.460406541824340820e-01 2.473883330821990967e-03
-3.065955936908721924e-01 6.346673965454101562e-01 -8.606732636690139771e-02
-2.621616125106811523e-01 2.118019312620162964e-01 -2.701279819011688232e-01
-1.457200050354003906e-01 2.950189411640167236e-01 -1.072333231568336487e-01
-1.485740542411804199e-01 2.221314907073974609e-01 -1.675025671720504761e-01
-3.029070198535919189e-01 6.976975202560424805e-01 -1.351282596588134766e-01
-1.811582148075103760e-01 4.315739274024963379e-01 8.873520046472549438e-02
-2.986247241497039795e-01 4.761738479137420654e-01 -2.470746636390686035e-03
-1.920477449893951416e-01 4.756747484207153320e-01 9.014164656400680542e-02
-1.997538208961486816e-01 9.420406818389892578e-02 -2.562580108642578125e-01
-1.578733026981353760e-01 2.557812333106994629e-01 -2.200261652469635010e-01
-3.113624155521392822e-01 6.419649720191955566e-01 -1.653303205966949463e-01
-1.981426179409027100e-01 1.803066730499267578e-01 -3.029485046863555908e-01
-3.062827885150909424e-01 5.365667343139648438e-01 -4.744834825396537781e-02
-2.051471024751663208e-01 3.444087505340576172e-01 -3.464081585407257080e-01
-2.509477436542510986e-01 7.486405372619628906e-01 -1.982035636901855469e-01
-1.783324331045150757e-01 4.575937390327453613e-01 -2.517043352127075195e-01
-1.909577399492263794e-01 5.687417387962341309e-01 -4.435360431671142578e-03
-1.549089550971984863e-01 2.304158955812454224e-01 8.115131407976150513e-02
-1.977914571762084961e-01 6.245598793029785156e-01 -7.831054180860519409e-02
-3.133710622787475586e-01 5.315396785736083984e-01 -1.233581975102424622e-01
-2.489257156848907471e-01 3.462800681591033936e-01 -3.612000942230224609e-01
-2.894147038459777832e-01 4.580115675926208496e-01 -3.221794664859771729e-01
-2.696838974952697754e-01 4.770695269107818604e-01 9.140221029520034790e-02
-2.536950707435607910e-01 7.359831929206848145e-01 -7.053323835134506226e-02
-3.139110803604125977e-01 5.803337097167968750e-01 -1.431145519018173218e-01
-2.705054581165313721e-01 6.729878187179565430e-01 5.105786025524139404e-03
-3.063457012176513672e-01 6.793816089630126953e-01 -2.050543576478958130e-01
-1.466024667024612427e-01 2.889911234378814697e-01 -1.679532229900360107e-03
-1.681695729494094849e-01 4.092336595058441162e-01 5.508584529161453247e-02
-2.915037274360656738e-01 4.391901493072509766e-01 2.742495387792587280e-02
-2.471336424350738525e-01 2.806050479412078857e-01 1.281760632991790771e-01
-2.312163859605789185e-01 3.787187039852142334e-01 -3.700676560401916504e-01
-2.202642709016799927e-01 3.321487009525299072e-01 -3.596512377262115479e-01
-2.917711138725280762e-01 5.487291216850280762e-01 -3.254054188728332520e-01
-2.171176820993423462e-01 5.700746774673461914e-01 -3.194655478000640869e-01
-2.830818295478820801e-01 2.434839606285095215e-01 -1.973180472850799561e-01
-3.105659782886505127e-01 4.517473280429840088e-01 -1.258930563926696777e-01
-2.285581231117248535e-01 3.240513801574707031e-02 -1.367832720279693604e-01
-1.494890153408050537e-01 5.161070823669433594e-02 -5.960091948509216309e-04
-2.136332094669342041e-01 5.416864156723022461e-02 7.700755447149276733e-02
-3.093098998069763184e-01 5.798470377922058105e-01 -7.885895669460296631e-02
-1.445230841636657715e-01 2.783325016498565674e-01 -2.298418432474136353e-02
-2.077256888151168823e-01 5.551413297653198242e-01 -3.036162853240966797e-01
-1.477198302745819092e-01 3.124395012855529785e-01 -1.271291077136993408e-02
-2.056238651275634766e-01 3.847433328628540039e-01 -3.470931351184844971e-01
-2.187236994504928589e-01 4.083759784698486328e-01 -3.628505766391754150e-01
-1.476914137601852417e-01 3.326056897640228271e-01 -6.378723680973052979e-02
-1.405090987682342529e-01 1.867535561323165894e-01 -6.633273512125015259e-02
-2.364835143089294434e-01 7.283173799514770508e-01 -1.897743940353393555e-01
-2.419389039278030396e-01 7.471039891242980957e-02 8.069202303886413574e-04
-1.764593124389648438e-01 5.378033518791198730e-01 -1.077171489596366882e-01
-2.312832027673721313e-01 1.124179959297180176e-01 8.761324733495712280e-02
-1.428129822015762329e-01 2.446061074733734131e-01 -9.892000257968902588e-02
-2.950004637241363525e-01 3.049962520599365234e-01 -1.762342154979705811e-01
-2.284785360097885132e-01 6.859258413314819336e-01 -3.193620592355728149e-02
-2.249524891376495361e-01 6.714823246002197266e-01 -2.554801106452941895e-01
-2.812398970127105713e-01 2.114844918251037598e-01 -1.145801395177841187e-01
-1.551798582077026367e-01 1.740329563617706299e-01 -1.997489631175994873e-01
-2.809609770774841309e-01 7.522478103637695312e-01 -2.119820863008499146e-01
-3.078688383102416992e-01 6.754876375198364258e-01 -1.706567406654357910e-01
-2.764585316181182861e-01 1.877301782369613647e-01 -9.403630346059799194e-02
-2.028751224279403687e-01 4.220941662788391113e-01 -3.386686742305755615e-01
-2.055919617414474487e-01 6.523833274841308594e-01 -8.906043320894241333e-02
-1.659927070140838623e-01 4.010278582572937012e-01 -2.196276485919952393e-01
-2.958159744739532471e-01 4.182479381561279297e-01 2.240978181362152100e-03
-1.433202922344207764e-01 9.365063905715942383e-02 -3.609701991081237793e-02
-2.376729547977447510e-01 6.124313473701477051e-01 -3.341174423694610596e-01
-3.138527572154998779e-01 5.859948396682739258e-01 -1.859800815582275391e-01
-2.927538156509399414e-01 2.997056543827056885e-01 -5.817150697112083435e-02
-2.452996224164962769e-01 7.458820343017578125e-01 -1.366022229194641113e-01
-1.479508429765701294e-01 1.897577941417694092e-01 -1.617156565189361572e-01
-2.697870135307312012e-01 2.008948028087615967e-01 1.142088323831558228e-02
-2.791149020195007324e-01 3.602091968059539795e-01 6.138607114553451538e-02
-2.643159627914428711e-01 6.052395701408386230e-01 -3.513193428516387939e-01
-2.787852287292480469e-01 4.699555337429046631e-01 7.110535353422164917e-02
-3.108983933925628662e-01 4.515517652034759521e-01 -1.548484712839126587e-01
-2.308018058538436890e-01 1.329934448003768921e-01 1.029489710927009583e-01
-3.010557293891906738e-01 4.361665844917297363e-01 -2.448856085538864136e-02
-2.718358635902404785e-01 1.787042170763015747e-01 -1.730319261550903320e-01
-3.109343647956848145e-01 6.041718721389770508e-01 -2.272063046693801880e-01
-2.894125580787658691e-01 2.586321234703063965e-01 -1.261249929666519165e-01
-1.648524403572082520e-01 1.618384718894958496e-01 -2.333063483238220215e-01
-1.881486028432846069e-01 2.093817442655563354e-01 1.521725356578826904e-01
-1.423433572053909302e-01 1.300193965435028076e-01 -6.441779434680938721e-03
-1.778712272644042969e-01 3.484120666980743408e-01 1.195160523056983948e-01
-1.479714810848236084e-01 2.169262915849685669e-01 4.730782657861709595e-02
-2.348952591419219971e-01 3.728255629539489746e-02 -6.493493914604187012e-02
-3.102645874023437500e-01 6.357077956199645996e-01 -2.147715240716934204e-01
-2.109263986349105835e-01 4.831363558769226074e-01 -3.410279154777526855e-01
-2.850395441055297852e-01 6.487874388694763184e-01 -3.528229892253875732e-03
-2.726215124130249023e-01 6.489939689636230469e-01 2.052307873964309692e-02
-2.596154212951660156e-01 1.511342227458953857e-01 1.379757374525070190e-02
-1.716869473457336426e-01 4.878600835800170898e-01 -1.800204515457153320e-01
-2.931680977344512939e-01 4.226284623146057129e-01 -2.977392375469207764e-01
-2.403392493724822998e-01 5.892453193664550781e-01 7.775510102510452271e-02
-2.837803661823272705e-01 4.128811359405517578e-01 5.450017005205154419e-02
-2.852770984172821045e-01 2.443170547485351562e-01 -1.735064387321472168e-01
-2.051870375871658325e-01 1.919506937265396118e-01 1.539258658885955811e-01
-2.854428291320800781e-01 2.907779514789581299e-01 -2.441399097442626953e-01
-2.960954606533050537e-01 6.279460787773132324e-01 -2.579276263713836670e-02
-1.724444478750228882e-01 3.022077679634094238e-01 -2.749246060848236084e-01
-1.413846462965011597e-01 2.017621397972106934e-01 -1.710275560617446899e-02
-1.903728544712066650e-01 5.014002919197082520e-01 6.712948530912399292e-02
-3.050105273723602295e-01 6.516987681388854980e-01 -2.494218051433563232e-01
-1.779313832521438599e-01 9.640723466873168945e-03 -1.546418815851211548e-01
-2.902798056602478027e-01 7.233587503433227539e-01 -2.446992397308349609e-01
-2.027074545621871948e-01 9.295725822448730469e-02 1.193947717547416687e-01
-2.965964972972869873e-01 4.940387010574340820e-01 -3.061570227146148682e-01
-2.189867794513702393e-01 9.618180990219116211e-02 1.019013300538063049e-01
-2.950329780578613281e-01 7.074744701385498047e-01 -9.232264757156372070e-02
-2.248936742544174194e-01 4.728037118911743164e-01 1.301724314689636230e-01
-3.073475062847137451e-01 4.046227633953094482e-01 -1.513345092535018921e-01
-2.188294827938079834e-01 2.410009950399398804e-01 -3.369155526161193848e-01
-1.725178658962249756e-01 2.683106064796447754e-02 6.813409179449081421e-02
-2.444869726896286011e-01 7.257877588272094727e-01 -2.365346848964691162e-01
-1.989927440881729126e-01 5.596944689750671387e-01 -2.705125510692596436e-01
-1.592647135257720947e-01 3.029465675354003906e-03 -5.887610837817192078e-02
-2.959035038948059082e-01 3.219432532787322998e-01 -1.984517872333526611e-01
-1.428351551294326782e-01 2.244502156972885132e-01 -3.255307674407958984e-03
-2.475599497556686401e-01 7.288348674774169922e-02 -7.967443019151687622e-02
-2.006819546222686768e-01 5.326281785964965820e-01 -2.953236103057861328e-01
-1.852511912584304810e-01 5.593982934951782227e-01 -1.900785267353057861e-01
-1.680851578712463379e-01 2.025725841522216797e-01 -2.539733052253723145e-01
-2.525047361850738525e-01 7.431786060333251953e-01 -2.219910025596618652e-01
-1.823245435953140259e-01 5.654013156890869141e-01 -1.245517358183860779e-01
-2.960851192474365234e-01 3.035915195941925049e-01 -1.275405436754226685e-01
-1.587820351123809814e-01 3.863015174865722656e-01 1.844232529401779175e-02
-1.795174181461334229e-01 2.933373749256134033e-01 1.373360455036163330e-01
-2.056443840265274048e-01 3.275730013847351074e-01 1.586461961269378662e-01
-2.604475617408752441e-01 1.682632416486740112e-01 -2.303558588027954102e-01
-2.296902388334274292e-01 3.375093042850494385e-01 1.544276177883148193e-01
-2.749329507350921631e-01 4.115683138370513916e-01 8.222375065088272095e-02
-2.592813074588775635e-01 2.572305798530578613e-01 -3.108468949794769287e-01
-1.419320404529571533e-01 2.462237477302551270e-01 -6.348058581352233887e-02
-2.535209953784942627e-01 9.739622473716735840e-02 -4.728702083230018616e-02
-2.733235061168670654e-01 2.370450496673583984e-01 -2.515100240707397461e-01
-2.789678871631622314e-01 3.103646039962768555e-01 -2.900528013706207275e-01
-2.013889849185943604e-01 5.799948573112487793e-01 2.723301202058792114e-02
4.163381177932024002e-03 -9.976605325937271118e-02 -3.002834320068359375e-01
2.017866261303424835e-02 -1.981075406074523926e-01 -1.434151530265808105e-01
-7.865939289331436157e-02 -1.182850673794746399e-01 1.203830689191818237e-01
6.194955110549926758e-02 -2.850709855556488037e-02 1.150745600461959839e-01
-5.652755498886108398e-02 -9.108833968639373779e-02 2.583374381065368652e-01
7.069925218820571899e-02 -1.349201947450637817e-01 -2.019285857677459717e-01
-3.037463687360286713e-02 -2.176038622856140137e-01 -1.763059198856353760e-02
7.719350606203079224e-02 -1.473014652729034424e-01 -1.234654039144515991e-01
5.686677619814872742e-02 -2.759003639221191406e-02 -2.163200229406356812e-01
1.093377079814672470e-02 -2.234858870506286621e-01 9.977559745311737061e-02
-6.861943751573562622e-02 -7.993774116039276123e-02 1.086414456367492676e-01
3.605876117944717407e-02 -3.171131759881973267e-02 2.011799961328506470e-01
9.131395071744918823e-02 -1.091159731149673462e-01 -9.820228815078735352e-02
-2.999393455684185028e-02 -5.001304298639297485e-02 -1.749727278947830200e-01
-2.054362185299396515e-02 -1.687480509281158447e-01 3.467311859130859375e-01
7.909658551216125488e-02 -4.370266199111938477e-02 -1.745523959398269653e-01
3.557391464710235596e-02 -1.528184115886688232e-02 -2.008105367422103882e-01
-7.381495833396911621e-02 -1.042167395353317261e-01 2.866681665182113647e-03
-3.992122411727905273e-02 -2.203624993562698364e-01 6.581583619117736816e-02
6.400911509990692139e-02 -8.112163841724395752e-02 2.177866697311401367e-01
3.565188497304916382e-02 -1.972866952419281006e-01 1.892633587121963501e-01
9.353802353143692017e-02 -1.018867492675781250e-01 -6.191736832261085510e-02
-2.792759798467159271e-02 -4.186674207448959351e-02 2.127657383680343628e-01
-1.129524782299995422e-02 -4.095149785280227661e-02 -2.152522057294845581e-01
5.264515802264213562e-02 -1.898260116577148438e-01 1.175674647092819214e-01
8.767687529325485229e-02 -4.572920501232147217e-02 -5.293560400605201721e-02
3.462791442871093750e-02 -9.070125222206115723e-02 3.068150877952575684e-01
6.296861171722412109e-02 -1.278016567230224609e-01 2.262620031833648682e-01
-1.136426441371440887e-02 -1.226961165666580200e-01 -2.749482393264770508e-01
-8.024790138006210327e-02 -1.383244842290878296e-01 1.039811074733734131e-01
4.747002944350242615e-02 -9.540915489196777344e-04 -3.974557295441627502e-02
-2.730742655694484711e-02 -3.903911262750625610e-02 -1.529743373394012451e-01
8.444042503833770752e-02 -1.140927001833915710e-01 -1.647421270608901978e-01
7.784356921911239624e-02 -1.267763823270797729e-01 1.436295211315155029e-01
1.706808432936668396e-02 -1.280727237462997437e-02 -1.810055226087570190e-01
1.009924709796905518e-02 -3.785848617553710938e-03 7.708200812339782715e-02
6.192921847105026245e-02 -1.807730644941329956e-02 -1.625914424657821655e-01
-1.552481204271316528e-02 -1.138275116682052612e-02 -3.809969499707221985e-02
-3.811757639050483704e-02 -7.668747752904891968e-02 -1.939974725246429443e-01
-1.377281174063682556e-02 -2.002110332250595093e-02 -1.300051510334014893e-01
-4.192792996764183044e-02 -9.793120622634887695e-02 -1.995543986558914185e-01
-5.108125880360603333e-02 -6.396761536598205566e-02 -1.008864045143127441e-01
-2.949706278741359711e-02 -2.148661017417907715e-02 -1.134969666600227356e-02
4.506145045161247253e-02 -1.245704367756843567e-01 -2.835655808448791504e-01
2.419644035398960114e-02 -6.957908719778060913e-02 2.998720407485961914e-01
-2.107297535985708237e-03 -9.848244488239288330e-03 1.054647415876388550e-01
-4.758824780583381653e-02 -1.545263826847076416e-01 3.278788030147552490e-01
-7.372426986694335938e-02 -1.770052015781402588e-01 1.478954702615737915e-01
3.859992697834968567e-02 -1.441757380962371826e-01 2.976219356060028076e-01
-5.983906984329223633e-02 -1.782534718513488770e-01 2.640925347805023193e-01
3.915182128548622131e-02 -1.683868467807769775e-02 1.394744664430618286e-01
-6.730518490076065063e-02 -1.007530018687248230e-01 2.194095849990844727e-01
-6.315075326710939407e-03 -1.988792717456817627e-01 2.879304885864257812e-01
3.907625004649162292e-02 -1.210615038871765137e-03 -1.083520501852035522e-01
5.351920146495103836e-03 -2.154753208160400391e-01 2.045902162790298462e-01
-5.395874008536338806e-02 -1.144942268729209900e-01 3.030709028244018555e-01
-9.544510394334793091e-03 -6.818190217018127441e-03 -5.895961076021194458e-04
-2.670213766396045685e-02 -5.669815838336944580e-02 2.651054263114929199e-01
2.491934597492218018e-02 -1.649706959724426270e-01 -2.394919097423553467e-01
-3.682021424174308777e-02 -5.538610368967056274e-02 -1.587471514940261841e-01
-4.956349357962608337e-02 -9.759978950023651123e-02 2.956089675426483154e-01
-1.226099766790866852e-02 -9.636250138282775879e-02 3.485785126686096191e-01
2.060281299054622650e-02 -2.042836695909500122e-02 -2.150414735078811646e-01
3.701448440551757812e-02 -2.007327675819396973e-01 -8.569790422916412354e-02
-7.382465898990631104e-02 -9.541203081607818604e-02 4.634282737970352173e-02
6.109176948666572571e-02 -2.150095254182815552e-02 -1.824851334095001221e-01
-7.339313626289367676e-02 -9.224224090576171875e-02 7.965715229511260986e-02
4.155093804001808167e-02 -6.525593250989913940e-02 2.645258605480194092e-01
-4.370443522930145264e-02 -4.768904298543930054e-02 -9.134364128112792969e-02
5.895420163869857788e-02 -1.537655740976333618e-01 2.112733125686645508e-01
-5.394126102328300476e-02 -1.302472054958343506e-01 3.136999607086181641e-01
1.887767389416694641e-02 -2.070845365524291992e-01 -1.014287918806076050e-01
7.207569479942321777e-02 -1.536596864461898804e-01 1.271774917840957642e-01
-6.991741061210632324e-02 -1.140877157449722290e-01 2.271894663572311401e-01
-5.361741036176681519e-02 -7.300819456577301025e-02 2.239867001771926880e-01
8.141412585973739624e-02 -1.277148574590682983e-01 -1.570108085870742798e-01
-4.549688100814819336e-02 -9.305574744939804077e-02 -1.821499913930892944e-01
5.806632712483406067e-02 -7.425494492053985596e-03 -8.394386619329452515e-03
4.798898473381996155e-02 -1.711521148681640625e-01 -1.852604299783706665e-01
4.011922329664230347e-02 -9.011477231979370117e-05 -8.969719707965850830e-02
2.128558792173862457e-02 -2.196621298789978027e-01 5.636678263545036316e-02
8.711178600788116455e-02 -5.671892315149307251e-02 -1.441679447889328003e-01
1.887460239231586456e-02 -2.202428728342056274e-01 2.630559913814067841e-02
8.497943729162216187e-02 -1.187136098742485046e-01 9.431694447994232178e-02
-6.931892782449722290e-02 -1.138279810547828674e-01 -6.190000846982002258e-02
-7.776959240436553955e-02 -1.239215731620788574e-01 1.617485433816909790e-01
-1.509253308176994324e-02 -1.010777056217193604e-02 1.379440817981958389e-02
5.745021998882293701e-02 -4.421996325254440308e-02 1.812878251075744629e-01
-7.458726316690444946e-02 -1.456154584884643555e-01 -1.228667050600051880e-02
-1.751559786498546600e-02 -2.017161250114440918e-01 -1.254279017448425293e-01
-7.343684881925582886e-02 -1.701762825250625610e-01 1.879769563674926758e-01
7.164409011602401733e-02 -1.584790349006652832e-01 1.125813573598861694e-01
9.086175262928009033e-02 -1.124697402119636536e-01 2.552965283393859863e-02
-6.412313133478164673e-02 -9.537578374147415161e-02 -8.060088753700256348e-02
-2.915682829916477203e-02 -2.245662808418273926e-01 5.337735265493392944e-02
-6.506168097257614136e-02 -1.876473128795623779e-01 1.267719361931085587e-02
-5.197597295045852661e-02 -1.992853879928588867e-01 -2.769577875733375549e-02
4.930201172828674316e-02 -1.470396816730499268e-01 2.617334425449371338e-01
-7.598249614238739014e-02 -1.100560426712036133e-01 1.528941690921783447e-01
6.205815821886062622e-02 -1.370564699172973633e-01 -2.299276888370513916e-01
-5.533136893063783646e-03 -7.008522748947143555e-03 6.114411354064941406e-02
8.165715634822845459e-02 -1.331346184015274048e-01 -1.386726051568984985e-01
-8.358128368854522705e-03 -9.133480489253997803e-03 -7.435685396194458008e-02
-3.120204899460077286e-03 -2.251331210136413574e-01 1.145137473940849304e-02
9.290259331464767456e-02 -7.460638880729675293e-02 -2.803094685077667236e-03
2.700563054531812668e-03 -1.851809322834014893e-01 3.113636672496795654e-01
4.383601248264312744e-03 -2.258715331554412842e-01 5.562894046306610107e-02
9.246058762073516846e-02 -9.543436765670776367e-02 2.310571074485778809e-02
-2.434949763119220734e-02 -2.479744702577590942e-02 1.354898065328598022e-01
7.493051141500473022e-02 -4.169309139251708984e-02 -1.929430812597274780e-01
7.081791758537292480e-02 -1.094136536121368408e-01 1.983855366706848145e-01
-2.017783373594284058e-02 -2.035965174436569214e-01 2.785459458827972412e-01
-2.939098514616489410e-02 -1.050634384155273438e-01 -2.413120865821838379e-01
6.154648959636688232e-02 -1.599144488573074341e-01 -1.736458539962768555e-01
4.941623285412788391e-02 -1.068242117762565613e-01 2.796593010425567627e-01
-5.665189027786254883e-02 -6.112813204526901245e-02 1.485192775726318359e-01
-7.716596871614456177e-02 -1.462524384260177612e-01 1.847948729991912842e-01
3.475096449255943298e-02 -6.420113146305084229e-03 -1.566814184188842773e-01
8.080656081438064575e-02 -3.952804207801818848e-02 3.619765117764472961e-02
8.892438560724258423e-02 -1.281603276729583740e-01 -2.178309857845306396e-02
6.421382725238800049e-02 -1.497611999511718750e-01 -1.931833028793334961e-01
8.925352990627288818e-02 -5.111937224864959717e-02 -7.752174139022827148e-02
5.529781430959701538e-02 -1.806083917617797852e-01 1.507584750652313232e-01
9.323767572641372681e-02 -9.010604768991470337e-02 8.474852889776229858e-03
7.814078032970428467e-02 -1.437912285327911377e-01 1.030693799257278442e-01
8.819737285375595093e-02 -5.210275575518608093e-02 -1.130540519952774048e-01
-6.349308788776397705e-02 -8.785157650709152222e-02 2.114039659500122070e-01
3.984250500798225403e-02 -1.256419271230697632e-01 3.045157194137573242e-01
-9.771600365638732910e-03 -3.071642667055130005e-02 2.078356444835662842e-01
-6.080126017332077026e-02 -2.019256204366683960e-01 7.234677672386169434e-02
7.489950209856033325e-02 -2.926390618085861206e-02 -1.465186327695846558e-01
5.730859935283660889e-02 -8.079633116722106934e-03 9.573576971888542175e-03
-6.452871114015579224e-02 -7.934771478176116943e-02 1.700246483087539673e-01
-7.198657840490341187e-02 -1.585622429847717285e-01 2.255685031414031982e-01
8.265640586614608765e-02 -3.422517329454421997e-02 -6.917648017406463623e-02
-4.521698132157325745e-02 -2.177523374557495117e-01 8.478581905364990234e-02
-3.385891392827033997e-02 -2.658857405185699463e-02 -2.678067982196807861e-02
-7.240156084299087524e-02 -1.748040020465850830e-01 3.584247827529907227e-02
-7.679436355829238892e-02 -1.065055578947067261e-01 6.573393940925598145e-02
8.229525387287139893e-02 -1.480439603328704834e-01 -1.745354384183883667e-02
4.443506523966789246e-02 -1.212705671787261963e-02 1.022092103958129883e-01
-4.292563349008560181e-02 -3.663280606269836426e-02 -1.806937158107757568e-02
4.603265970945358276e-02 -5.286734178662300110e-02 2.329577207565307617e-01
-6.169710308313369751e-02 -1.895167827606201172e-01 2.233483642339706421e-01
-6.392200291156768799e-02 -1.622041165828704834e-01 2.700853943824768066e-01
2.153785713016986847e-02 -6.036728620529174805e-03 1.018647551536560059e-01
-6.203555315732955933e-02 -6.407979130744934082e-02 7.726738601922988892e-02
-4.196991398930549622e-02 -3.659955412149429321e-02 1.025710701942443848e-01
8.438351005315780640e-02 -4.065299034118652344e-02 -6.398770958185195923e-03
6.936296820640563965e-02 -4.190623760223388672e-02 -2.172090560197830200e-01
-6.823793798685073853e-02 -1.605021804571151733e-01 2.490742206573486328e-01
8.270306140184402466e-02 -4.020330309867858887e-02 1.731904223561286926e-02
8.899667300283908844e-04 -2.241104841232299805e-03 -3.119637444615364075e-02
-1.113652624189853668e-02 -1.702440977096557617e-01 -2.190621197223663330e-01
8.923349902033805847e-03 -2.189476490020751953e-01 1.700596213340759277e-01
-6.557070463895797729e-02 -7.720105350017547607e-02 -9.815987199544906616e-03
5.570913851261138916e-02 -1.676547378301620483e-01 1.955479085445404053e-01
8.535499125719070435e-02 -7.281421124935150146e-02 9.089878201484680176e-02
4.954498633742332458e-02 -1.964440047740936279e-01 -3.366135433316230774e-02
-1.056238822638988495e-02 -1.790782362222671509e-01 3.324485123157501221e-01
7.786985486745834351e-02 -1.577266156673431396e-01 1.110161282122135162e-02
-5.049769207835197449e-02 -1.414232999086380005e-01 -1.626582145690917969e-01
-1.058396697044372559e-02 -2.176932692527770996e-01 2.164498567581176758e-01
7.648631930351257324e-02 -1.586717516183853149e-01 4.326087236404418945e-02
-6.259786430746316910e-03 -1.457500010728836060e-01 3.622248470783233643e-01
-7.734769582748413086e-02 -1.083965599536895752e-01 8.373869955539703369e-02
7.125670462846755981e-02 -4.127105325460433960e-02 1.136894673109054565e-01
-2.251325361430644989e-02 -1.663231849670410156e-02 6.334891915321350098e-02
-3.463659435510635376e-02 -1.953842043876647949e-01 2.914202809333801270e-01
-1.964257284998893738e-02 -6.415259838104248047e-02 2.943480014801025391e-01
1.558746676892042160e-03 -1.565329730510711670e-01 -2.546653747558593750e-01
6.505823880434036255e-02 -1.795285642147064209e-01 -1.717225462198257446e-02
3.720765933394432068e-02 -4.056415706872940063e-02 2.239787429571151733e-01
4.544227197766304016e-02 -1.227832883596420288e-01 2.904675006866455078e-01
2.106714434921741486e-02 2.555958926677703857e-03 -1.061641052365303040e-02
3.023405559360980988e-02 -5.603825300931930542e-02 2.693376839160919189e-01
6.260935962200164795e-02 -1.833779215812683105e-01 2.366179600358009338e-02
-7.293405383825302124e-02 -1.011244580149650574e-01 1.661776751279830933e-01
-5.087256431579589844e-02 -5.524246022105216980e-02 -6.760445237159729004e-02
2.762158773839473724e-02 -1.938825845718383789e-01 2.355337888002395630e-01
-1.804079115390777588e-02 -1.387925893068313599e-01 -2.528641521930694580e-01
4.190480709075927734e-02 -7.438242435455322266e-03 7.952114939689636230e-02
2.323201484978199005e-02 -4.208305478096008301e-02 -2.703271210193634033e-01
-7.062964141368865967e-02 -8.708298951387405396e-02 1.279570609331130981e-01
-2.616890706121921539e-02 -7.311962544918060303e-02 -2.300160825252532959e-01
1.719604805111885071e-02 -1.272689849138259888e-01 3.467601537704467773e-01
8.400452323257923126e-03 -2.042466402053833008e-01 -1.276971697807312012e-01
-7.713656127452850342e-02 -1.079614385962486267e-01 1.065737456083297729e-01
9.182289987802505493e-02 -7.239772379398345947e-02 -1.162662506103515625e-01
4.327937215566635132e-02 -1.768628656864166260e-01 2.289831340312957764e-01
-7.062178105115890503e-02 -1.547977626323699951e-01 -3.710390254855155945e-02
7.094044238328933716e-02 -1.309212893247604370e-01 1.830791234970092773e-01
-5.254107341170310974e-02 -6.199856847524642944e-02 1.875395178794860840e-01
-3.467622399330139160e-02 -1.132902577519416809e-01 -2.270972430706024170e-01
4.029610753059387207e-02 9.028464555740356445e-04 -1.472030207514762878e-02
-3.898985683917999268e-02 -5.213977396488189697e-02 2.155566960573196411e-01
-7.133368402719497681e-02 -1.813849806785583496e-01 5.767366290092468262e-02
-4.132112488150596619e-02 -5.006467550992965698e-02 -1.177420020103454590e-01
-6.725029554218053818e-03 -2.134026885032653809e-01 2.355585247278213501e-01
2.741564065217971802e-03 -1.585754901170730591e-01 3.483260869979858398e-01
-6.844943761825561523e-02 -9.584239125251770020e-02 1.969000846147537231e-01
7.979133725166320801e-02 -5.114946886897087097e-02 8.871176838874816895e-02
-2.339305821806192398e-03 -4.735544323921203613e-03 -5.831176415085792542e-02
6.628718227148056030e-02 -5.958115682005882263e-02 1.804642677307128906e-01
6.018021702766418457e-02 -5.531456321477890015e-02 1.960732787847518921e-01
8.555877208709716797e-02 -8.941791206598281860e-02 -1.835913658142089844e-01
-5.690622329711914062e-02 -1.909346282482147217e-01 2.445113956928253174e-01
5.614190176129341125e-02 -1.005936935544013977e-01 2.573451995849609375e-01
7.646243274211883545e-02 -1.106932684779167175e-01 -2.166814357042312622e-01
-5.463933944702148438e-02 -5.084999278187751770e-02 4.550234973430633545e-02
-3.326585888862609863e-02 -2.229404598474502563e-01 1.465880572795867920e-01
1.730728708207607269e-02 -1.964630633592605591e-01 2.569341957569122314e-01
-3.878516331315040588e-02 -1.715276241302490234e-01 3.290713131427764893e-01
-5.541269481182098389e-02 -5.492666736245155334e-02 1.128824204206466675e-01
6.648555397987365723e-02 -7.414646446704864502e-02 2.007947713136672974e-01
7.618749141693115234e-02 -2.713407576084136963e-02 7.120750844478607178e-03
5.171846970915794373e-02 -6.974264979362487793e-02 2.457784861326217651e-01
-6.013533473014831543e-02 -1.408884823322296143e-01 2.956020236015319824e-01
3.255386650562286377e-02 -1.604453474283218384e-01 2.957263588905334473e-01
-1.934815198183059692e-02 -2.170675992965698242e-01 -4.860438033938407898e-02
7.944469153881072998e-02 -1.521157324314117432e-01 -6.318125128746032715e-02
-2.566413767635822296e-02 -2.080927193164825439e-01 2.605372965335845947e-01
2.089480496942996979e-02 -2.095398604869842529e-01 1.900458633899688721e-01
-7.919801771640777588e-02 -1.531650424003601074e-01 8.348517119884490967e-02
-4.575818777084350586e-02 -3.837366402149200439e-02 5.163792520761489868e-02
-5.993677675724029541e-02 -1.980094462633132935e-01 2.366887591779232025e-02
6.905601173639297485e-02 -1.534635275602340698e-01 -1.580049991607666016e-01
-1.033900491893291473e-02 -7.476276159286499023e-02 3.216468095779418945e-01
5.361792072653770447e-02 -1.836720854043960571e-01 -1.080910116434097290e-01
2.683993987739086151e-02 -2.024647295475006104e-01 2.036858499050140381e-01
-1.770199090242385864e-02 -1.062811836600303650e-01 -2.682349681854248047e-01
-4.000767320394515991e-02 -2.146657705307006836e-01 2.017318010330200195e-01
-5.450330302119255066e-02 -1.127595528960227966e-01 -1.532685458660125732e-01
8.792923763394355774e-04 -2.133133411407470703e-01 -8.491083979606628418e-02
-3.484253212809562683e-02 -2.203794866800308228e-01 1.727546304464340210e-01
-3.812399506568908691e-02 -5.667044967412948608e-02 2.351311743259429932e-01
-3.290042281150817871e-02 -3.284917026758193970e-02 -9.260971844196319580e-02
7.745229452848434448e-02 -1.583031266927719116e-01 -3.366104885935783386e-02
-9.443370625376701355e-03 -1.084785014390945435e-01 -2.825037837028503418e-01
-3.798384219408035278e-02 -1.936718523502349854e-01 -1.075305789709091187e-01
-2.899237908422946930e-02 -1.140908747911453247e-01 3.518642187118530273e-01
7.989646494388580322e-02 -1.522738933563232422e-01 2.680334262549877167e-02
-7.493145763874053955e-02 -1.734529584646224976e-01 7.822147011756896973e-02
8.401689678430557251e-02 -1.425039768218994141e-01 1.309705059975385666e-02
8.250148594379425049e-02 -1.432137489318847656e-01 4.626790061593055725e-02
2.601513080298900604e-02 -2.128617763519287109e-01 -3.651376441121101379e-02
8.901444077491760254e-02 -1.276216059923171997e-01 -4.050568118691444397e-02
8.186650276184082031e-02 -1.239438131451606750e-01 1.155154407024383545e-01
2.742342837154865265e-02 -2.286448329687118530e-02 1.833259165287017822e-01
2.736153826117515564e-02 -1.034834906458854675e-01 3.273310363292694092e-01
7.156539708375930786e-02 -7.573218643665313721e-02 -2.491391599178314209e-01
-6.244105845689773560e-02 -1.063411980867385864e-01 -1.060614585876464844e-01
4.633357748389244080e-02 -1.995756626129150391e-01 9.339286386966705322e-02
-3.477409482002258301e-04 -1.099023222923278809e-02 -1.303491741418838501e-01
3.925079852342605591e-02 -1.483275890350341797e-01 -2.578219771385192871e-01
-6.765164434909820557e-02 -7.661424577236175537e-02 4.538771510124206543e-02
1.597561128437519073e-02 -2.182209789752960205e-01 1.461729556322097778e-01
6.262837350368499756e-02 -5.451026186347007751e-02 -2.574478387832641602e-01
-2.816175110638141632e-02 -7.749101519584655762e-02 3.092931509017944336e-01
2.025104872882366180e-02 -2.184892296791076660e-01 1.140306740999221802e-01
-7.109142374247312546e-03 -3.457617759704589844e-02 2.259868532419204712e-01
