-3.736526370048522949e-01 1.099082678556442261e-01 8.766890764236450195e-01
-1.246044039726257324e-02 -4.979130998253822327e-02 6.534837484359741211e-01
-1.691151112318038940e-01 6.823179870843887329e-02 6.542110443115234375e-01
-6.883005797863006592e-02 -5.581879988312721252e-02 4.563710987567901611e-01
-9.245754033327102661e-02 2.902895584702491760e-02 4.701257944107055664e-01
-1.693557649850845337e-01 1.122159510850906372e-02 4.194504916667938232e-01
-3.803484737873077393e-01 4.789061844348907471e-02 8.733446002006530762e-01
-2.439941465854644775e-01 6.157062947750091553e-02 1.041059732437133789e+00
-8.959329873323440552e-02 -4.174759611487388611e-02 4.016860723495483398e-01
-1.943755745887756348e-01 -2.215901389718055725e-03 9.284707307815551758e-01
-3.873497545719146729e-01 9.652392566204071045e-02 1.080516934394836426e+00
-4.173157811164855957e-01 7.544775307178497314e-02 9.286831617355346680e-01
-1.869114041328430176e-01 2.992068231105804443e-02 4.521045684814453125e-01
-3.228864073753356934e-01 7.293526828289031982e-02 6.500861048698425293e-01
-2.972882986068725586e-01 1.071047876030206680e-02 8.750461339950561523e-01
-2.026131153106689453e-01 4.792310297489166260e-02 1.005310893058776855e+00
-5.192489922046661377e-02 6.048887968063354492e-03 4.058046042919158936e-01
-2.827441096305847168e-01 3.568448498845100403e-02 5.625666379928588867e-01
-1.311990618705749512e-02 3.772644326090812683e-03 6.442359089851379395e-01
-1.969563663005828857e-01 3.416854888200759888e-03 4.535244405269622803e-01
-2.406401932239532471e-01 8.807042241096496582e-02 9.248040318489074707e-01
-3.483068943023681641e-02 -4.505026713013648987e-02 6.992083191871643066e-01
-9.281895309686660767e-02 -5.450974032282829285e-02 5.793380737304687500e-01
-2.432140707969665527e-01 7.813757658004760742e-02 6.341507434844970703e-01
-9.370208531618118286e-02 3.510813415050506592e-02 5.091062784194946289e-01
-7.345855981111526489e-02 3.570973873138427734e-02 5.988481640815734863e-01
-1.418274343013763428e-01 6.058424338698387146e-02 6.469865441322326660e-01
-2.814736366271972656e-01 8.427409827709197998e-02 6.636070609092712402e-01
-4.146687984466552734e-01 8.053168654441833496e-02 8.730635046958923340e-01
-3.411483466625213623e-01 9.879255294799804688e-02 7.652833461761474609e-01
-3.448780775070190430e-01 8.683125674724578857e-02 1.091199040412902832e+00
-3.264030218124389648e-01 7.866399735212326050e-02 6.682441830635070801e-01
-8.117507398128509521e-02 2.061253972351551056e-02 4.390901625156402588e-01
-1.617234498262405396e-01 3.744911402463912964e-02 4.643834531307220459e-01
-2.839814126491546631e-01 8.308982849121093750e-02 1.047276973724365234e+00
-4.465961456298828125e-02 -2.845999225974082947e-02 7.629816532135009766e-01
-1.104890778660774231e-01 -3.505418449640274048e-02 4.084770679473876953e-01
-2.815580368041992188e-01 6.063221022486686707e-02 5.797644853591918945e-01
-4.051477909088134766e-01 6.447377800941467285e-02 9.197788834571838379e-01
-1.958212554454803467e-01 7.221565395593643188e-02 9.132528901100158691e-01
1.821899414062500000e-02 -1.354794204235076904e-02 4.717515110969543457e-01
-1.777413189411163330e-01 -2.716872468590736389e-02 5.214340686798095703e-01
-3.842672109603881836e-01 1.034739017486572266e-01 8.367100954055786133e-01
-5.286057293415069580e-02 -5.782119557261466980e-02 4.395284950733184814e-01
-2.911535501480102539e-01 3.391383588314056396e-02 5.798991918563842773e-01
-1.907549351453781128e-01 7.812881469726562500e-02 7.526146173477172852e-01
-1.045079976320266724e-01 -4.877349361777305603e-02 4.825286865234375000e-01
-3.474384546279907227e-03 -2.204186096787452698e-02 3.652967214584350586e-01
-1.513547152280807495e-01 -2.338352054357528687e-02 4.377909898757934570e-01
-3.300763070583343506e-01 2.156414091587066650e-02 8.236312270164489746e-01
-3.602732419967651367e-01 3.665379807353019714e-02 8.784886002540588379e-01
-3.126649260520935059e-01 1.052597910165786743e-01 8.372402191162109375e-01
-2.115457952022552490e-01 1.598463952541351318e-02 4.641658067703247070e-01
-2.144040316343307495e-01 7.698685675859451294e-02 9.360537528991699219e-01
-1.710498929023742676e-01 -3.586703538894653320e-02 6.262680888175964355e-01
-9.675461053848266602e-02 4.426018893718719482e-02 7.359213829040527344e-01
-1.932256072759628296e-01 3.078398667275905609e-02 9.984019994735717773e-01
-8.456110954284667969e-04 -6.150812283158302307e-02 5.620548129081726074e-01
-1.241954937577247620e-01 5.638610199093818665e-02 7.143366932868957520e-01
-2.897612750530242920e-02 -6.133841350674629211e-02 5.780892372131347656e-01
-1.873759925365447998e-02 -6.423692405223846436e-02 4.595927894115447998e-01
-2.584726810455322266e-01 9.390124678611755371e-02 9.213747382164001465e-01
-2.876500487327575684e-01 9.854295849800109863e-02 9.678460955619812012e-01
-7.903929054737091064e-02 9.490314871072769165e-03 8.407392501831054688e-01
-8.424026519060134888e-02 2.973218634724617004e-02 8.006212115287780762e-01
-2.131905406713485718e-01 -9.520065039396286011e-03 5.188009738922119141e-01
-1.844923496246337891e-01 1.181576587259769440e-02 4.336442947387695312e-01
-1.387254744768142700e-01 5.348188430070877075e-02 8.523307442665100098e-01
-2.554377317428588867e-01 -3.110472112894058228e-03 6.184263825416564941e-01
-3.704759180545806885e-01 7.044951617717742920e-02 1.078541874885559082e+00
-2.194451540708541870e-01 8.569322526454925537e-02 8.518963456153869629e-01
-8.843506127595901489e-02 4.209236055612564087e-02 7.003606557846069336e-01
-2.873656749725341797e-01 1.023261845111846924e-01 8.814369440078735352e-01
-2.887873053550720215e-01 1.859190687537193298e-02 6.100893616676330566e-01
-2.853664755821228027e-01 2.454977482557296753e-03 7.595499753952026367e-01
-2.739060819149017334e-01 4.588417708873748779e-02 5.504906177520751953e-01
-1.477490365505218506e-02 -5.380896851420402527e-02 3.692729473114013672e-01
-1.492499560117721558e-01 -3.612428158521652222e-02 5.026710033416748047e-01
-3.869335055351257324e-01 1.038776785135269165e-01 1.061693072319030762e+00
-1.758810877799987793e-01 -4.320913925766944885e-03 9.208939075469970703e-01
-1.360881030559539795e-01 -1.143890246748924255e-02 8.864325881004333496e-01
-1.738097369670867920e-01 -3.441451862454414368e-02 6.880540251731872559e-01
-3.353169560432434082e-01 1.090064048767089844e-01 8.711374402046203613e-01
-1.028853878378868103e-01 1.898243278264999390e-02 4.165075123310089111e-01
-2.998633682727813721e-01 2.112113498151302338e-02 6.339725255966186523e-01
-2.261471599340438843e-01 2.976532094180583954e-02 1.019642472267150879e+00
-4.264901876449584961e-01 9.743496775627136230e-02 1.005029678344726562e+00
-3.550831675529479980e-01 3.446872532367706299e-02 8.169882893562316895e-01
-6.668858975172042847e-02 -5.926374718546867371e-02 5.461192131042480469e-01
-1.578298807144165039e-01 -3.772344440221786499e-02 6.970881223678588867e-01
-1.456456035375595093e-01 5.732610821723937988e-02 5.909493565559387207e-01
-1.184872910380363464e-01 -4.675219580531120300e-02 6.676451563835144043e-01
-7.582272589206695557e-02 -4.355832561850547791e-02 7.297413349151611328e-01
-1.116534620523452759e-01 -4.931629076600074768e-02 6.406998634338378906e-01
2.265980839729309082e-02 -2.286095917224884033e-02 5.977361798286437988e-01
-4.075656533241271973e-01 6.768854707479476929e-02 8.915432691574096680e-01
-5.037316679954528809e-02 -6.057718023657798767e-02 5.714742541313171387e-01
-1.793980598449707031e-03 -5.893800780177116394e-02 3.876649737358093262e-01
-2.431850433349609375e-01 6.761308759450912476e-03 5.317950844764709473e-01
-3.695048391819000244e-01 8.873663842678070068e-02 1.092674374580383301e+00
-3.259178698062896729e-01 3.061904385685920715e-02 9.747757911682128906e-01
-1.253767013549804688e-01 -4.587577655911445618e-02 5.265328288078308105e-01
-2.593561708927154541e-01 7.073111832141876221e-02 5.958776473999023438e-01
-9.426759183406829834e-02 -4.887095466256141663e-02 6.815807223320007324e-01
-1.666122078895568848e-01 7.087242603302001953e-02 7.591724395751953125e-01
-4.002048075199127197e-02 -5.046701803803443909e-02 3.745247721672058105e-01
-1.288847476243972778e-01 -4.206838831305503845e-02 4.915189146995544434e-01
-1.267530024051666260e-01 4.432270675897598267e-02 5.187287330627441406e-01
-3.711207509040832520e-01 1.115734428167343140e-01 8.992906808853149414e-01
9.529009461402893066e-03 -6.439310312271118164e-02 5.072293281555175781e-01
-3.031002283096313477e-01 1.078191120177507401e-02 7.380437850952148438e-01
3.631320595741271973e-02 -5.967876687645912170e-02 4.835820496082305908e-01
-3.831223845481872559e-01 9.636910259723663330e-02 8.011592626571655273e-01
-1.124554127454757690e-01 -8.700542151927947998e-03 8.774983882904052734e-01
-4.362449049949645996e-02 -6.249813362956047058e-02 5.258944034576416016e-01
-3.702726066112518311e-01 4.216073453426361084e-02 8.940646648406982422e-01
-6.770156323909759521e-02 3.375946730375289917e-02 6.621153950691223145e-01
-4.049465954303741455e-01 7.933928072452545166e-02 8.300322890281677246e-01
-5.632564425468444824e-03 -6.536330282688140869e-02 4.736310243606567383e-01
-3.390716016292572021e-02 1.819280534982681274e-02 5.721006393432617188e-01
-2.121390551328659058e-01 -2.360367029905319214e-02 6.727446317672729492e-01
-1.793794333934783936e-01 6.708723306655883789e-02 8.969551920890808105e-01
-4.473999142646789551e-02 2.184501104056835175e-02 5.439730286598205566e-01
-3.967417478561401367e-01 1.028661280870437622e-01 8.558759689331054688e-01
-1.998846828937530518e-01 7.904786616563796997e-02 7.120603322982788086e-01
-1.361851394176483154e-02 7.834218442440032959e-03 5.761123895645141602e-01
-1.826899498701095581e-01 5.830952152609825134e-02 5.486724972724914551e-01
-1.935534179210662842e-02 7.100883871316909790e-03 4.873696267604827881e-01
-1.179191619157791138e-01 -1.707205548882484436e-03 3.773247003555297852e-01
-2.827560007572174072e-01 8.583514951169490814e-03 9.011461138725280762e-01
-1.010782495141029358e-01 -1.869808509945869446e-02 8.445347547531127930e-01
-1.571453660726547241e-01 -3.967626020312309265e-02 6.139675378799438477e-01
-9.390970319509506226e-02 -2.645468339323997498e-02 3.672176301479339600e-01
-1.048275828361511230e-02 1.665187999606132507e-03 4.716959595680236816e-01
-3.677955865859985352e-01 9.101527929306030273e-02 7.577461600303649902e-01
-7.832475751638412476e-02 1.590278372168540955e-02 4.206439852714538574e-01
-1.821544915437698364e-01 -3.002527356147766113e-02 5.687335133552551270e-01
-3.566863536834716797e-01 1.024990081787109375e-01 7.994275689125061035e-01
-2.310394942760467529e-01 8.519195020198822021e-02 7.090879082679748535e-01
-2.435450553894042969e-01 7.474323362112045288e-02 1.011961817741394043e+00
-3.202522397041320801e-01 2.232333458960056305e-02 9.208332896232604980e-01
-1.798555701971054077e-01 7.437174022197723389e-02 8.073514103889465332e-01
-2.732076048851013184e-01 1.481624785810709000e-02 9.620083570480346680e-01
-1.117739975452423096e-01 -2.788448706269264221e-02 3.893131017684936523e-01
-3.217593431472778320e-01 1.999893598258495331e-02 8.836494088172912598e-01
-2.260141670703887939e-01 -1.561785861849784851e-02 6.069957613945007324e-01
-2.440167665481567383e-01 -1.200613379478454590e-02 7.711776494979858398e-01
-2.633005082607269287e-01 7.265713810920715332e-02 1.046447873115539551e+00
-1.265859454870223999e-01 -4.644826427102088928e-02 5.455455780029296875e-01
-2.265941947698593140e-01 6.751864403486251831e-02 5.795115828514099121e-01
-3.058704137802124023e-01 8.304502069950103760e-02 6.659558415412902832e-01
-2.030784487724304199e-01 7.184289395809173584e-03 9.615686535835266113e-01
-3.220488131046295166e-01 1.082964390516281128e-01 9.098884463310241699e-01
-4.537963867187500000e-02 1.791949197649955750e-02 7.127625942230224609e-01
-2.697586119174957275e-01 8.693873882293701172e-02 6.820934414863586426e-01
-3.815842568874359131e-01 6.094137206673622131e-02 1.030144453048706055e+00
7.574215531349182129e-03 -1.321546733379364014e-02 6.352717280387878418e-01
-2.710508108139038086e-01 2.926845103502273560e-03 8.776505589485168457e-01
-1.325394213199615479e-02 6.336007267236709595e-03 5.165365338325500488e-01
-1.008129119873046875e-01 -1.477394253015518188e-03 3.709420561790466309e-01
-2.659517526626586914e-02 7.733549922704696655e-03 6.898878216743469238e-01
-2.315801978111267090e-01 -7.394328713417053223e-03 8.710833787918090820e-01
-7.655790448188781738e-02 3.118680603802204132e-02 5.182273387908935547e-01
-2.247249782085418701e-01 -1.833831146359443665e-02 6.417782902717590332e-01
-3.820697069168090820e-01 6.976836919784545898e-02 7.611307501792907715e-01
-2.811328172683715820e-01 8.915419876575469971e-02 1.019761800765991211e+00
-3.249820470809936523e-01 1.056004613637924194e-01 9.898753166198730469e-01
-2.737233340740203857e-01 9.901003539562225342e-02 8.244072198867797852e-01
-1.665001958608627319e-01 -3.714279830455780029e-02 6.463810205459594727e-01
-2.934032976627349854e-01 1.257667038589715958e-02 6.582124829292297363e-01
-1.650384217500686646e-01 5.545589327812194824e-02 9.199458360671997070e-01
-1.886979937553405762e-01 6.425511837005615234e-02 5.807253122329711914e-01
-2.648279070854187012e-01 9.408465027809143066e-02 7.555751800537109375e-01
-9.678164124488830566e-02 4.521914571523666382e-02 7.163417935371398926e-01
-2.348839938640594482e-01 -1.613622158765792847e-02 7.142477631568908691e-01
-3.363950550556182861e-02 -5.896482244133949280e-02 4.155171811580657959e-01
-1.853415220975875854e-01 1.489139068871736526e-02 9.743982553482055664e-01
-7.891727983951568604e-02 -5.241553857922554016e-02 6.575209498405456543e-01
-3.057267069816589355e-01 3.568221256136894226e-02 6.086179614067077637e-01
-2.615614235401153564e-01 8.088758587837219238e-02 6.453706026077270508e-01
-1.192617416381835938e-02 -6.063910201191902161e-02 4.045194089412689209e-01
4.686130583286285400e-02 -5.258992686867713928e-02 4.539927244186401367e-01
3.055924177169799805e-02 -2.154924347996711731e-02 4.839435219764709473e-01
-2.725783586502075195e-01 -1.996168866753578186e-03 7.899509668350219727e-01
-4.552346467971801758e-02 -5.449923500418663025e-02 4.004169106483459473e-01
-2.595202922821044922e-01 9.150250256061553955e-02 9.537749290466308594e-01
-2.474992126226425171e-01 9.296903014183044434e-02 7.942104339599609375e-01
-2.924093604087829590e-01 1.026986092329025269e-01 8.411601781845092773e-01
-1.285191327333450317e-01 5.126465111970901489e-02 8.297793865203857422e-01
2.707388997077941895e-02 -5.933760479092597961e-02 4.020252227783203125e-01
-1.219727843999862671e-01 -4.825523123145103455e-02 5.671212077140808105e-01
-2.230439186096191406e-01 5.914022773504257202e-02 1.018181443214416504e+00
4.526032507419586182e-02 -4.300146177411079407e-02 4.279669225215911865e-01
-1.613301932811737061e-01 6.238826736807823181e-02 6.060867309570312500e-01
-1.885969638824462891e-01 7.376287877559661865e-02 6.685971617698669434e-01
-1.339877396821975708e-01 -2.742150053381919861e-02 4.207207560539245605e-01
2.889172732830047607e-02 -2.701038122177124023e-02 5.784619450569152832e-01
-9.097694605588912964e-02 -5.495002493262290955e-02 5.462949275970458984e-01
-8.832585811614990234e-02 4.262544587254524231e-02 6.488844156265258789e-01
-3.459239006042480469e-01 3.015822917222976685e-02 7.969037294387817383e-01
-1.457377970218658447e-01 6.295587122440338135e-02 6.735486388206481934e-01
-1.707210838794708252e-01 -1.564964652061462402e-02 8.731896281242370605e-01
-1.233100146055221558e-01 5.544272065162658691e-02 7.431901097297668457e-01
-4.015995860099792480e-01 1.107896268367767334e-01 9.367300868034362793e-01
-1.665185093879699707e-01 -2.818267419934272766e-02 7.941693067550659180e-01
-3.446022868156433105e-01 1.059678941965103149e-01 1.023072719573974609e+00
-1.965516656637191772e-01 -2.621266990900039673e-02 5.910191535949707031e-01
-1.836575418710708618e-01 6.610405445098876953e-02 6.002402305603027344e-01
-2.842942774295806885e-01 9.406055510044097900e-02 9.977487325668334961e-01
-2.627110779285430908e-01 2.036023698747158051e-02 5.423759818077087402e-01
-1.352708935737609863e-01 5.839424580335617065e-02 7.857322692871093750e-01
-1.337135434150695801e-01 2.395718917250633240e-02 4.248153865337371826e-01
-2.779704928398132324e-01 4.684936255216598511e-03 6.524066329002380371e-01
-4.475544393062591553e-02 1.658331044018268585e-02 4.817315638065338135e-01
-1.007564142346382141e-01 4.588457942008972168e-02 6.083471179008483887e-01
-3.315789103507995605e-01 5.445279181003570557e-02 6.463625431060791016e-01
-1.791475862264633179e-01 6.054716929793357849e-02 9.330505728721618652e-01
-3.289855718612670898e-01 1.009721904993057251e-01 1.034772634506225586e+00
-2.233725935220718384e-01 -1.392561569809913635e-02 8.271921873092651367e-01
-2.572319209575653076e-01 9.545874595642089844e-02 8.112239241600036621e-01
-3.264962136745452881e-01 3.012081608176231384e-02 6.855399012565612793e-01
-1.046535670757293701e-01 4.133230075240135193e-02 5.366898179054260254e-01
-2.564780116081237793e-01 9.573447704315185547e-02 8.438106775283813477e-01
-1.220721304416656494e-01 5.007356405258178711e-02 8.123824000358581543e-01
-2.224081754684448242e-01 7.763285934925079346e-02 6.461260318756103516e-01
-2.605125010013580322e-01 9.211750328540802002e-02 7.379556894302368164e-01
-2.376633286476135254e-01 -1.484479010105133057e-02 6.818853020668029785e-01
-5.934888124465942383e-02 -3.915375843644142151e-02 7.445942759513854980e-01
-2.551724612712860107e-01 -5.415931344032287598e-03 8.313217163085937500e-01
-1.691537797451019287e-01 5.002380907535552979e-02 9.474382400512695312e-01
-7.865575700998306274e-02 -2.060747146606445312e-02 3.521564006805419922e-01
-1.575782448053359985e-01 1.105202455073595047e-02 9.490125775337219238e-01
-1.855255365371704102e-01 -2.046468481421470642e-02 8.334514498710632324e-01
-2.572094798088073730e-01 5.021671205759048462e-02 1.056244850158691406e+00
-9.312946349382400513e-02 -4.085339978337287903e-02 7.472112178802490234e-01
-3.119080364704132080e-01 1.406291220337152481e-02 8.379139900207519531e-01
-2.559477090835571289e-01 8.459818363189697266e-02 9.936980009078979492e-01
-9.429895877838134766e-02 -8.508674800395965576e-04 8.677822947502136230e-01
-7.613003253936767578e-04 -6.354948878288269043e-02 4.257069826126098633e-01
-2.536593675613403320e-01 7.485030591487884521e-02 1.027960062026977539e+00
-2.691655457019805908e-01 -3.648258745670318604e-03 7.260820269584655762e-01
-2.636358737945556641e-01 9.626889228820800781e-02 9.042394161224365234e-01
-1.082176715135574341e-01 -4.400539025664329529e-02 4.499366283416748047e-01
-3.133165538311004639e-01 8.745414018630981445e-02 6.894953846931457520e-01
-1.906635910272598267e-01 4.926053434610366821e-02 5.045847892761230469e-01
-1.379320025444030762e-01 6.112134084105491638e-02 6.956216096878051758e-01
-1.806967705488204956e-01 -1.635776460170745850e-02 4.707475900650024414e-01
3.586530685424804688e-02 -3.309969976544380188e-02 5.562152862548828125e-01
-3.602192997932434082e-01 4.773395508527755737e-02 7.366132140159606934e-01
-5.322256684303283691e-02 -5.228537693619728088e-02 6.676555871963500977e-01
-3.370937108993530273e-01 1.081212759017944336e-01 8.519759774208068848e-01
-5.984644591808319092e-02 2.988983690738677979e-02 5.860844850540161133e-01
-6.807705014944076538e-02 -4.897025600075721741e-02 4.022177755832672119e-01
-2.332128882408142090e-01 9.006538987159729004e-02 8.179135918617248535e-01
-3.136137425899505615e-01 4.582566022872924805e-02 1.055601835250854492e+00
-2.050924748182296753e-01 -1.575505733489990234e-02 8.449623584747314453e-01
-1.990076452493667603e-01 7.722996175289154053e-02 8.784904479980468750e-01
1.076436042785644531e-02 -3.777771443128585815e-02 3.537378609180450439e-01
-2.177767455577850342e-02 -1.915959268808364868e-02 7.343139052391052246e-01
-2.294062525033950806e-01 7.466945052146911621e-02 6.188439130783081055e-01
-2.510181665420532227e-01 8.726872503757476807e-02 6.990699768066406250e-01
-1.489298194646835327e-01 4.091312736272811890e-02 9.295662641525268555e-01
-2.761930525302886963e-01 1.000752747058868408e-01 8.617002964019775391e-01
-2.211322337388992310e-01 9.126367978751659393e-03 9.674057364463806152e-01
-4.017520844936370850e-01 6.576237827539443970e-02 8.559432029724121094e-01
1.585438847541809082e-03 -1.823350414633750916e-02 3.844304382801055908e-01
-3.304432630538940430e-01 1.055670678615570068e-01 8.210386633872985840e-01
-2.130435407161712646e-01 3.719843924045562744e-02 4.806023240089416504e-01
-3.061335086822509766e-01 8.237704634666442871e-02 1.073465228080749512e+00
-1.738519668579101562e-01 -2.360893040895462036e-02 4.872235059738159180e-01
-1.622273176908493042e-01 6.902013719081878662e-02 7.808870077133178711e-01
-2.177545428276062012e-01 1.611156389117240906e-03 9.381796717643737793e-01
-3.308589756488800049e-01 1.094270646572113037e-01 9.301050901412963867e-01
-1.414807587862014771e-01 6.254342198371887207e-02 7.266426682472229004e-01
-2.084292173385620117e-01 6.811331957578659058e-02 5.900474190711975098e-01
-3.405582904815673828e-01 3.101448528468608856e-02 9.342949986457824707e-01
-2.264515161514282227e-01 6.301464140415191650e-02 5.589917898178100586e-01
-6.660839915275573730e-02 -5.853042379021644592e-02 4.934835433959960938e-01
-4.272211194038391113e-01 8.932772278785705566e-02 9.741743803024291992e-01
-2.257832586765289307e-01 -9.174235165119171143e-03 5.528055429458618164e-01
-2.827578783035278320e-01 9.283885359764099121e-02 7.214501500129699707e-01
-1.476290524005889893e-01 -5.273858085274696350e-03 3.998101353645324707e-01
-2.315338253974914551e-01 8.667556941509246826e-02 7.286282777786254883e-01
-2.111057192087173462e-01 -2.048343792557716370e-02 7.822315692901611328e-01
-2.850842773914337158e-01 9.600175917148590088e-02 7.493361830711364746e-01
-4.197855591773986816e-01 9.642288088798522949e-02 1.038397550582885742e+00
-3.844073116779327393e-01 5.519478768110275269e-02 9.833329916000366211e-01
-1.482610702514648438e-01 -3.422576561570167542e-02 7.636926174163818359e-01
-3.715279102325439453e-01 5.421814695000648499e-02 7.567756772041320801e-01
-1.997946351766586304e-01 7.244414836168289185e-02 6.308968067169189453e-01
-3.164042234420776367e-01 1.073618680238723755e-01 8.888114690780639648e-01
3.967727720737457275e-02 -4.283042624592781067e-02 4.007041752338409424e-01
-2.884450554847717285e-01 6.695140153169631958e-03 6.883620023727416992e-01
-3.144014477729797363e-01 7.341069728136062622e-02 1.088580965995788574e+00
-1.471154987812042236e-01 -3.885184600949287415e-02 5.231143236160278320e-01
-2.638356685638427734e-01 9.566080570220947266e-02 7.839404940605163574e-01
-3.454522788524627686e-02 4.851263016462326050e-03 4.255001842975616455e-01
-3.688336014747619629e-01 4.770578816533088684e-02 7.747347354888916016e-01
-2.418616116046905518e-01 -2.876246348023414612e-03 5.672067403793334961e-01
-7.600611448287963867e-02 -1.167246699333190918e-02 8.326967954635620117e-01
-3.007250130176544189e-01 1.030173450708389282e-01 9.521608352661132812e-01
-2.612149119377136230e-01 7.651037722826004028e-02 6.218950748443603516e-01
-4.135824441909790039e-01 7.158882915973663330e-02 9.459732770919799805e-01
-2.049422264099121094e-01 6.135075166821479797e-02 5.541899800300598145e-01
-1.514393091201782227e-01 -3.144349157810211182e-02 7.842497825622558594e-01
-2.890021800994873047e-01 1.008571386337280273e-01 8.090264201164245605e-01
-2.673289477825164795e-01 -4.267185926437377930e-03 7.722643017768859863e-01
-2.045419514179229736e-01 -2.123347297310829163e-02 5.686398744583129883e-01
-2.251642942428588867e-01 -1.901440322399139404e-02 7.313507199287414551e-01
-4.435469210147857666e-02 1.318158209323883057e-02 7.364277839660644531e-01
-1.226326152682304382e-01 3.432754799723625183e-02 8.898279070854187012e-01
-7.889045029878616333e-02 -3.744825348258018494e-02 7.631476521492004395e-01
-3.892525136470794678e-01 1.121377944946289062e-01 9.962302446365356445e-01
-3.989979624748229980e-03 -3.410501778125762939e-02 6.849595308303833008e-01
-1.139697879552841187e-01 4.796979576349258423e-02 7.940638065338134766e-01
-1.044593080878257751e-01 1.152827125042676926e-02 3.946284651756286621e-01
-3.170328140258789062e-01 4.142663627862930298e-02 6.257746815681457520e-01
-3.093574047088623047e-01 1.019978076219558716e-01 7.931814789772033691e-01
-3.297664523124694824e-01 2.255395241081714630e-02 7.723288536071777344e-01
-3.610539436340332031e-01 5.729455128312110901e-02 1.051343679428100586e+00
-3.838597238063812256e-01 5.254638940095901489e-02 9.586078524589538574e-01
-2.252348661422729492e-01 -1.819188147783279419e-02 7.560638785362243652e-01
-2.364246547222137451e-01 2.462940476834774017e-02 4.948330521583557129e-01
-4.219655394554138184e-01 9.972992539405822754e-02 9.225324988365173340e-01
-2.458881437778472900e-01 -6.551984697580337524e-03 8.479830026626586914e-01
-1.791497319936752319e-01 -2.866379544138908386e-02 7.672131657600402832e-01
-4.254826903343200684e-01 1.013076901435852051e-01 9.597248435020446777e-01
-7.506965100765228271e-02 -5.111919716000556946e-03 3.629460632801055908e-01
-2.709807455539703369e-02 1.458823867142200470e-02 6.135366559028625488e-01
-2.857772111892700195e-01 5.470061674714088440e-03 8.541276454925537109e-01
1.660731434822082520e-02 -6.214051321148872375e-02 5.270777344703674316e-01
2.692997455596923828e-02 -5.570643022656440735e-02 5.526415705680847168e-01
-2.425003051757812500e-02 -4.302051290869712830e-02 3.462385535240173340e-01
-3.524197041988372803e-01 5.661613121628761292e-02 6.923180222511291504e-01
-3.812058866024017334e-01 1.129706054925918579e-01 9.431329965591430664e-01
-4.026950001716613770e-01 1.065564155578613281e-01 1.041862487792968750e+00
-4.033913612365722656e-01 1.113153249025344849e-01 9.591298699378967285e-01
1.857408881187438965e-02 -1.201582327485084534e-02 5.122507214546203613e-01
-3.434222936630249023e-01 1.089242547750473022e-01 9.901793003082275391e-01
-1.189150288701057434e-01 4.381942003965377808e-02 8.436859250068664551e-01
-2.388100922107696533e-01 7.198064774274826050e-02 6.000781059265136719e-01
-2.251885831356048584e-02 1.212943904101848602e-02 5.475478172302246094e-01
-7.996220141649246216e-02 2.840589918196201324e-02 4.869498312473297119e-01
-7.347182184457778931e-02 -5.785711482167243958e-02 5.140079855918884277e-01
-2.582304775714874268e-01 -7.862828671932220459e-03 7.455722093582153320e-01
-1.596970558166503906e-01 -2.536150440573692322e-02 8.221181035041809082e-01
-6.225335597991943359e-02 2.465958334505558014e-02 5.001519918441772461e-01
-1.480853855609893799e-01 -3.098058328032493591e-02 4.638643264770507812e-01
-3.339552879333496094e-01 2.393066696822643280e-02 8.615582585334777832e-01
-1.851309537887573242e-01 -2.387591078877449036e-02 8.055524230003356934e-01
-2.483742237091064453e-01 4.875917732715606689e-02 5.274766087532043457e-01
-3.715711534023284912e-01 1.113561391830444336e-01 1.002209424972534180e+00
-1.418707519769668579e-01 -4.231707379221916199e-02 6.702433824539184570e-01
-1.416358947753906250e-01 -4.371093586087226868e-02 6.033440232276916504e-01
-1.913426965475082397e-01 4.210059717297554016e-02 4.813970625400543213e-01
-2.810641527175903320e-01 4.280461370944976807e-02 1.055385231971740723e+00
-6.822227686643600464e-02 2.501659095287322998e-03 8.248414397239685059e-01
-1.276291906833648682e-02 5.658078938722610474e-03 6.202949285507202148e-01
-1.078615635633468628e-01 1.346834562718868256e-02 8.904061913490295410e-01
-1.147911399602890015e-01 3.880526497960090637e-02 4.991730451583862305e-01
-2.729321122169494629e-01 -6.014667451381683350e-05 8.315882682800292969e-01
3.879936039447784424e-02 -3.094900026917457581e-02 4.492724239826202393e-01
-4.970660805702209473e-02 2.415289171040058136e-02 6.751949787139892578e-01
-3.736718297004699707e-01 7.642835378646850586e-02 7.398488521575927734e-01
-8.935865759849548340e-02 -2.404969558119773865e-02 8.203585147857666016e-01
-2.958932518959045410e-01 9.853616356849670410e-02 7.660729885101318359e-01
-7.977691292762756348e-02 5.664423108100891113e-03 3.851296901702880859e-01
-1.226811856031417847e-01 -3.122368082404136658e-02 8.013144135475158691e-01
-3.649429082870483398e-01 4.007583111524581909e-02 9.121105074882507324e-01
-1.673376113176345825e-01 6.961941719055175781e-02 6.862280964851379395e-01
-1.832506954669952393e-01 -3.242724761366844177e-02 6.609110832214355469e-01
-3.541192412376403809e-01 1.103690415620803833e-01 8.783277273178100586e-01
-1.852774769067764282e-01 -1.108689233660697937e-02 8.910760879516601562e-01
-1.822386831045150757e-01 7.437824457883834839e-02 7.047830820083618164e-01
-3.016274571418762207e-01 9.078547358512878418e-03 7.937186360359191895e-01
2.212384343147277832e-02 -1.647458970546722412e-02 5.627504587173461914e-01
-2.037032544612884521e-01 5.924168229103088379e-02 9.880259633064270020e-01
-2.358185350894927979e-01 1.347304880619049072e-02 9.800384044647216797e-01
1.289360225200653076e-02 -8.093681186437606812e-03 5.391149520874023438e-01
-2.994211614131927490e-01 6.806264817714691162e-02 6.133152842521667480e-01
-1.554063856601715088e-01 -1.930147409439086914e-02 8.587261438369750977e-01
-3.594230115413665771e-02 -3.182128071784973145e-02 7.436524629592895508e-01
-2.600014209747314453e-01 1.127796061336994171e-02 5.579662322998046875e-01
-9.453381597995758057e-02 -5.385860428214073181e-02 5.287311077117919922e-01
-3.974856734275817871e-01 1.121767908334732056e-01 9.793609380722045898e-01
-4.115776419639587402e-01 7.241818308830261230e-02 9.876191616058349609e-01
-1.029496863484382629e-01 -4.536570236086845398e-02 7.086687088012695312e-01
-1.117256507277488708e-01 4.543124139308929443e-02 5.575711131095886230e-01
-1.133669838309288025e-01 -4.972060397267341614e-02 6.221917271614074707e-01
-2.450488954782485962e-01 9.151971340179443359e-02 7.693349123001098633e-01
-1.190635785460472107e-01 -2.161994948983192444e-02 8.450595736503601074e-01
-1.733035743236541748e-01 4.582838714122772217e-02 4.933210015296936035e-01
-3.821549713611602783e-01 8.898395299911499023e-02 7.769486308097839355e-01
-3.131662011146545410e-01 2.306256629526615143e-02 9.485860466957092285e-01
-3.893834352493286133e-01 5.338349938392639160e-02 8.995177149772644043e-01
-3.353581428527832031e-01 2.661390602588653564e-02 9.043294191360473633e-01
-2.424965053796768188e-01 -1.062384247779846191e-02 6.339738965034484863e-01
2.299189567565917969e-02 -2.628498151898384094e-02 4.007072746753692627e-01
-2.171236723661422729e-01 8.533279597759246826e-02 7.676244378089904785e-01
-2.170797139406204224e-01 -2.205502986907958984e-02 6.934967041015625000e-01
-3.446797728538513184e-01 8.405604958534240723e-02 7.048624157905578613e-01
-1.644908189773559570e-01 -3.294895961880683899e-02 7.492762207984924316e-01
-1.943271607160568237e-01 7.937936484813690186e-02 7.741123437881469727e-01
-5.803564190864562988e-02 2.750964649021625519e-02 6.931517720222473145e-01
2.517983317375183105e-03 -4.731939360499382019e-02 6.407577395439147949e-01
-1.612314730882644653e-01 9.576845914125442505e-04 9.322421550750732422e-01
-3.961633145809173584e-01 7.640429586172103882e-02 8.006448745727539062e-01
-2.621795833110809326e-01 2.667313441634178162e-03 6.026250720024108887e-01
1.491241157054901123e-02 -6.404855847358703613e-02 4.358018040657043457e-01
-3.831049799919128418e-01 1.081458330154418945e-01 1.039583444595336914e+00
-2.502296864986419678e-01 9.338656067848205566e-02 8.860949873924255371e-01
-1.269644498825073242e-01 -4.329010471701622009e-02 6.988712549209594727e-01
-1.316161006689071655e-01 -4.549675807356834412e-02 6.417832374572753906e-01
-3.110662400722503662e-01 2.275161072611808777e-02 6.652914881706237793e-01
-4.085951447486877441e-01 8.885245025157928467e-02 1.061280965805053711e+00
-2.066218703985214233e-01 7.067742943763732910e-02 9.527640938758850098e-01
-2.119803428649902344e-01 -2.335619926452636719e-02 6.534254550933837891e-01
-3.396123945713043213e-01 2.971488982439041138e-02 7.510362267494201660e-01
2.031068503856658936e-02 -5.111598595976829529e-02 5.906307697296142578e-01
-2.275969237089157104e-01 4.239296540617942810e-03 5.050935745239257812e-01
-3.810564875602722168e-01 5.135774612426757812e-02 8.216674923896789551e-01
-3.617784380912780762e-01 4.077867045998573303e-02 9.453210830688476562e-01
-6.077565252780914307e-02 2.744988538324832916e-02 7.127308249473571777e-01
-3.646588027477264404e-01 9.734782576560974121e-02 7.783062458038330078e-01
-1.457479000091552734e-01 -2.412082254886627197e-02 8.359131813049316406e-01
-3.869286179542541504e-01 1.121035069227218628e-01 9.249364137649536133e-01
-3.509514331817626953e-01 1.115667968988418579e-01 9.150198101997375488e-01
1.852941513061523438e-02 -5.569436773657798767e-02 3.766988515853881836e-01
-3.080348074436187744e-01 9.212182462215423584e-02 7.122322320938110352e-01
-2.781095504760742188e-01 9.823694825172424316e-02 9.388286471366882324e-01
4.241269826889038086e-02 -3.635938465595245361e-02 5.179882049560546875e-01
-1.619762331247329712e-01 5.945256724953651428e-02 5.783892869949340820e-01
-3.450528383255004883e-01 5.811585113406181335e-02 1.069923043251037598e+00
-2.812150418758392334e-01 1.815296709537506104e-03 7.127390503883361816e-01
-2.799668908119201660e-01 1.306301727890968323e-02 9.421660900115966797e-01
-1.410967111587524414e-02 -7.380675524473190308e-04 6.786004900932312012e-01
-1.088950261473655701e-01 3.408914059400558472e-02 4.783799052238464355e-01
-1.857910603284835815e-01 7.542011141777038574e-02 8.322724103927612305e-01
-3.445155620574951172e-01 9.676137566566467285e-02 1.069927096366882324e+00
-3.371518850326538086e-02 -5.283350124955177307e-02 6.567363739013671875e-01
-1.875427365303039551e-02 -2.368883788585662842e-02 3.489664494991302490e-01
-3.446693718433380127e-01 4.076742380857467651e-02 1.000151157379150391e+00
-2.663324773311614990e-01 -2.244260162115097046e-03 6.657214164733886719e-01
-1.340605467557907104e-01 3.748266026377677917e-03 3.899733424186706543e-01
-5.072352290153503418e-02 8.195655420422554016e-03 7.750285267829895020e-01
6.619215011596679688e-03 -7.654007524251937866e-03 6.086474061012268066e-01
-1.004804521799087524e-01 3.928699344396591187e-02 8.051401376724243164e-01
-2.105186730623245239e-01 -2.360432967543601990e-02 7.214391231536865234e-01
-1.968585997819900513e-01 -7.363740354776382446e-03 4.744285047054290771e-01
-6.364898383617401123e-02 2.888159081339836121e-02 5.408189296722412109e-01
-2.245460301637649536e-01 2.086252532899379730e-02 4.797019958496093750e-01
-8.812789618968963623e-02 3.799850493669509888e-02 5.519864559173583984e-01
-3.027141690254211426e-01 9.614185988903045654e-02 1.020997047424316406e+00
-2.256899178028106689e-01 4.643888771533966064e-02 5.066928267478942871e-01
-2.438259124755859375e-01 1.558359432965517044e-02 5.139854550361633301e-01
-2.057771980762481689e-01 -1.755196973681449890e-02 5.424919724464416504e-01
-7.976319640874862671e-02 -4.941153898835182190e-02 4.252033531665802002e-01
-8.602523803710937500e-02 -5.418504402041435242e-02 6.209969520568847656e-01
2.116411924362182617e-02 -2.994574606418609619e-02 6.185079216957092285e-01
-1.776224970817565918e-01 4.836731404066085815e-02 9.670463800430297852e-01
-6.902020424604415894e-02 -2.926417812705039978e-02 7.879130244255065918e-01
1.198083162307739258e-03 -5.652669444680213928e-02 5.992962718009948730e-01
-3.467996120452880859e-01 3.854976594448089600e-02 7.239420413970947266e-01
-2.052886486053466797e-01 8.221353590488433838e-02 8.224278688430786133e-01
-1.036413013935089111e-02 5.422122776508331299e-03 5.964865684509277344e-01
-9.713114053010940552e-02 -2.975253015756607056e-02 8.046121597290039062e-01
-1.444877237081527710e-01 -4.152366891503334045e-02 5.508508682250976562e-01
-2.980500757694244385e-01 5.408108606934547424e-02 5.894497632980346680e-01
-3.277461230754852295e-02 -1.034203916788101196e-02 3.678313195705413818e-01
-4.049381017684936523e-01 1.050802916288375854e-01 8.881173729896545410e-01
-7.816895097494125366e-02 3.253510221838951111e-02 7.589612007141113281e-01
-2.429088503122329712e-01 -1.738810911774635315e-03 8.965496420860290527e-01
-3.620366156101226807e-01 1.119274348020553589e-01 9.769866466522216797e-01
-3.692274093627929688e-01 1.043925881385803223e-01 8.234178423881530762e-01
-2.539841532707214355e-01 2.113291621208190918e-02 1.001958370208740234e+00
-1.738316565752029419e-01 -3.449572250247001648e-02 6.009927988052368164e-01
-2.236755341291427612e-01 8.264066278934478760e-02 9.193895459175109863e-01
-9.489711374044418335e-02 -4.668805375695228577e-02 4.381902217864990234e-01
-5.925613641738891602e-02 -5.863806977868080139e-02 5.944417715072631836e-01
-3.244809806346893311e-02 -7.803913205862045288e-03 7.544274926185607910e-01
-1.756340563297271729e-01 5.202192068099975586e-02 5.196624994277954102e-01
-2.440252602100372314e-01 9.228286147117614746e-02 8.681496381759643555e-01
-3.143623471260070801e-01 9.823724627494812012e-02 7.547961473464965820e-01
-3.279826641082763672e-01 9.338277578353881836e-02 7.269224524497985840e-01
-6.393909454345703125e-02 3.239041566848754883e-02 6.259108781814575195e-01
-1.653672754764556885e-02 4.992820322513580322e-04 4.403140246868133545e-01
-4.031062126159667969e-01 6.431668251752853394e-02 9.633487462997436523e-01
-3.989868760108947754e-01 1.100116372108459473e-01 1.019319653511047363e+00
-3.421244025230407715e-01 1.100569069385528564e-01 9.663343429565429688e-01
-7.781895995140075684e-02 -3.963044658303260803e-02 3.781609833240509033e-01
-2.874473333358764648e-01 -2.295832186937332153e-01 -7.196538448333740234e-01
-2.373331338167190552e-01 -3.588413596153259277e-01 -7.068150639533996582e-01
-2.576356828212738037e-01 -4.854730367660522461e-01 -7.325654029846191406e-01
-2.316152602434158325e-01 -4.571205079555511475e-01 -7.172075510025024414e-01
-2.819846272468566895e-01 -2.061386108398437500e-01 -7.203814387321472168e-01
-2.775429487228393555e-01 -2.742007672786712646e-01 -7.326447963714599609e-01
-2.283060550689697266e-01 -3.101812601089477539e-01 -7.268795967102050781e-01
-2.388270646333694458e-01 -4.440916478633880615e-01 -7.106488347053527832e-01
-2.413375079631805420e-01 -3.045998811721801758e-01 -7.056377530097961426e-01
-2.828814089298248291e-01 -2.225086539983749390e-01 -7.255625128746032715e-01
-2.356980443000793457e-01 -1.965895146131515503e-01 -7.131160497665405273e-01
-2.741377949714660645e-01 -3.648511171340942383e-01 -7.067945599555969238e-01
-2.891702950000762939e-01 -3.060699105262756348e-01 -7.312940955162048340e-01
-2.339944839477539062e-01 -3.468963205814361572e-01 -7.301684617996215820e-01
-2.500441074371337891e-01 -3.912737071514129639e-01 -7.346261739730834961e-01
-2.683036625385284424e-01 -2.227656692266464233e-01 -7.090981602668762207e-01
-2.422352284193038940e-01 -3.103619515895843506e-01 -7.323461174964904785e-01
-2.947739660739898682e-01 -4.819102883338928223e-01 -7.250628471374511719e-01
-2.388549000024795532e-01 -4.539328515529632568e-01 -7.115411162376403809e-01
-2.635889649391174316e-01 -2.227027714252471924e-01 -7.302973270416259766e-01
-2.374375611543655396e-01 -3.694202899932861328e-01 -7.314503788948059082e-01
-2.782864570617675781e-01 -3.805281221866607666e-01 -7.357589602470397949e-01
-2.772310078144073486e-01 -2.568889856338500977e-01 -7.315304875373840332e-01
-2.638161182403564453e-01 -3.280473649501800537e-01 -7.356523871421813965e-01
-2.417740672826766968e-01 -4.244033098220825195e-01 -7.317590117454528809e-01
-2.964441180229187012e-01 -4.415513277053833008e-01 -7.290259003639221191e-01
-2.830547988414764404e-01 -4.712183475494384766e-01 -7.330904006958007812e-01
-2.682321965694427490e-01 -5.332678556442260742e-01 -7.173120379447937012e-01
-2.330928593873977661e-01 -4.518601894378662109e-01 -7.144280076026916504e-01
-2.857961952686309814e-01 -4.811059832572937012e-01 -7.317435145378112793e-01
-2.530311942100524902e-01 -2.866308689117431641e-01 -7.050071358680725098e-01
-2.910383939743041992e-01 -3.327141106128692627e-01 -7.123506069183349609e-01
-2.370871007442474365e-01 -2.648651599884033203e-01 -7.290867567062377930e-01
-2.775755226612091064e-01 -2.492251396179199219e-01 -7.099200487136840820e-01
-2.244118154048919678e-01 -2.649237215518951416e-01 -7.212404012680053711e-01
-2.487217485904693604e-01 -3.603523969650268555e-01 -7.344781756401062012e-01
-2.527815699577331543e-01 -1.636763215065002441e-01 -7.155203819274902344e-01
-2.655515670776367188e-01 -1.740298122167587280e-01 -7.148941159248352051e-01
-2.222057580947875977e-01 -3.442294001579284668e-01 -7.216812372207641602e-01
-2.868467569351196289e-01 -2.458809912204742432e-01 -7.268736958503723145e-01
-2.264791429042816162e-01 -4.073909521102905273e-01 -7.235136628150939941e-01
-2.582255005836486816e-01 -4.287402331829071045e-01 -7.070671916007995605e-01
-2.860535383224487305e-01 -3.714582622051239014e-01 -7.100698351860046387e-01
-2.858248353004455566e-01 -4.055544734001159668e-01 -7.106640934944152832e-01
-2.981534302234649658e-01 -3.408548533916473389e-01 -7.277222275733947754e-01
-2.254643291234970093e-01 -2.869344651699066162e-01 -7.112847566604614258e-01
-2.391613125801086426e-01 -4.646139740943908691e-01 -7.125703692436218262e-01
-2.240213304758071899e-01 -2.772482037544250488e-01 -7.219394445419311523e-01
-2.569174170494079590e-01 -3.205385208129882812e-01 -7.350761890411376953e-01
-2.368337512016296387e-01 -1.847958415746688843e-01 -7.185866832733154297e-01
-2.988250255584716797e-01 -3.634970188140869141e-01 -7.281062602996826172e-01
-2.763630151748657227e-01 -2.440585196018218994e-01 -7.306711077690124512e-01
-2.363660037517547607e-01 -3.815358281135559082e-01 -7.077340483665466309e-01
-2.489342838525772095e-01 -4.093603491783142090e-01 -7.341279387474060059e-01
-2.421805560588836670e-01 -2.609601616859436035e-01 -7.304249405860900879e-01
-2.939258813858032227e-01 -4.582139551639556885e-01 -7.174713015556335449e-01
-2.342860996723175049e-01 -3.826142549514770508e-01 -7.300172448158264160e-01
-2.249545007944107056e-01 -2.935798466205596924e-01 -7.114831805229187012e-01
-2.695747315883636475e-01 -3.088676631450653076e-01 -7.060121297836303711e-01
-2.509951591491699219e-01 -5.241670012474060059e-01 -7.255647778511047363e-01
-2.678359150886535645e-01 -4.328106343746185303e-01 -7.077730894088745117e-01
-2.306372225284576416e-01 -2.071043848991394043e-01 -7.164455056190490723e-01
-2.565239667892456055e-01 -2.549495697021484375e-01 -7.059197425842285156e-01
-2.462041825056076050e-01 -2.014956921339035034e-01 -7.093402147293090820e-01
-2.790271341800689697e-01 -2.347299754619598389e-01 -7.290726900100708008e-01
-2.358948439359664917e-01 -2.293325066566467285e-01 -7.261129617691040039e-01
-2.321989834308624268e-01 -2.781122028827667236e-01 -7.277667522430419922e-01
-2.947973608970642090e-01 -4.464338421821594238e-01 -7.171093821525573730e-01
-2.650991082191467285e-01 -3.647955060005187988e-01 -7.055110335350036621e-01
-2.633410990238189697e-01 -3.800624907016754150e-01 -7.056344747543334961e-01
-2.811233997344970703e-01 -4.183171391487121582e-01 -7.351863384246826172e-01
-2.474439144134521484e-01 -5.212895274162292480e-01 -7.197877764701843262e-01
-2.990286350250244141e-01 -4.007054865360260010e-01 -7.282620072364807129e-01
-2.649220526218414307e-01 -2.723352015018463135e-01 -7.060846090316772461e-01
-2.451732158660888672e-01 -2.519120872020721436e-01 -7.306276559829711914e-01
-2.684259414672851562e-01 -2.452561706304550171e-01 -7.077209353446960449e-01
-2.482610791921615601e-01 -1.920960545539855957e-01 -7.101285457611083984e-01
-2.708482742309570312e-01 -3.517994284629821777e-01 -7.061021924018859863e-01
-2.775351405143737793e-01 -3.228622376918792725e-01 -7.348430752754211426e-01
-2.932786941528320312e-01 -3.750599920749664307e-01 -7.133790850639343262e-01
-2.370915114879608154e-01 -2.362111508846282959e-01 -7.272000312805175781e-01
-2.470211088657379150e-01 -3.118830025196075439e-01 -7.049728035926818848e-01
-2.447425723075866699e-01 -5.008000135421752930e-01 -7.154464721679687500e-01
-2.856786847114562988e-01 -2.972609996795654297e-01 -7.320361733436584473e-01
-2.385966926813125610e-01 -4.416763782501220703e-01 -7.296740412712097168e-01
-2.962002754211425781e-01 -3.696509599685668945e-01 -7.152504920959472656e-01
-2.323663681745529175e-01 -2.882146537303924561e-01 -7.078869938850402832e-01
-2.749433219432830811e-01 -2.819641232490539551e-01 -7.334799766540527344e-01
-2.302038073539733887e-01 -3.326559960842132568e-01 -7.283161878585815430e-01
-2.794835567474365234e-01 -3.573702573776245117e-01 -7.353829741477966309e-01
-2.782590389251708984e-01 -2.578047513961791992e-01 -7.096506953239440918e-01
-2.554084658622741699e-01 -3.193945884704589844e-01 -7.047041654586791992e-01
-2.506353855133056641e-01 -2.141781896352767944e-01 -7.287952303886413574e-01
-2.535126209259033203e-01 -4.850058853626251221e-01 -7.111430764198303223e-01
-2.333181649446487427e-01 -4.688283801078796387e-01 -7.182383537292480469e-01
-2.903032600879669189e-01 -5.062310695648193359e-01 -7.240278720855712891e-01
-2.757375836372375488e-01 -3.296498656272888184e-01 -7.352520823478698730e-01
-2.561587989330291748e-01 -5.331916809082031250e-01 -7.184201478958129883e-01
-2.774816155433654785e-01 -5.385357141494750977e-01 -7.219308018684387207e-01
-2.809637188911437988e-01 -3.871448040008544922e-01 -7.087077498435974121e-01
-2.859721183776855469e-01 -2.621955275535583496e-01 -7.293059229850769043e-01
-2.472035586833953857e-01 -3.296009004116058350e-01 -7.338702678680419922e-01
-2.298317551612854004e-01 -2.507929205894470215e-01 -7.102828025817871094e-01
-2.745828330516815186e-01 -4.389742016792297363e-01 -7.090244889259338379e-01
-2.544800937175750732e-01 -4.069808721542358398e-01 -7.351668477058410645e-01
-2.249765098094940186e-01 -3.686338663101196289e-01 -7.126098871231079102e-01
-2.632906138896942139e-01 -4.105433821678161621e-01 -7.360089421272277832e-01
-2.837292850017547607e-01 -4.459773898124694824e-01 -7.116491794586181641e-01
-2.779031395912170410e-01 -1.978570073843002319e-01 -7.165124416351318359e-01
-2.453206032514572144e-01 -4.693210721015930176e-01 -7.305445075035095215e-01
-2.722327113151550293e-01 -1.965910792350769043e-01 -7.258908152580261230e-01
-2.984353005886077881e-01 -3.750877678394317627e-01 -7.287675738334655762e-01
-2.631870508193969727e-01 -3.104848265647888184e-01 -7.051759362220764160e-01
-2.532618045806884766e-01 -3.997751772403717041e-01 -7.059811353683471680e-01
-2.851068377494812012e-01 -2.812343537807464600e-01 -7.111477255821228027e-01
-2.724642753601074219e-01 -3.520209491252899170e-01 -7.359789013862609863e-01
-2.838040590286254883e-01 -3.002717196941375732e-01 -7.098738551139831543e-01
-2.603082656860351562e-01 -5.380800962448120117e-01 -7.188451290130615234e-01
-2.593728005886077881e-01 -5.169726610183715820e-01 -7.144351601600646973e-01
-2.271586209535598755e-01 -3.022445738315582275e-01 -7.099122405052185059e-01
-2.714657783508300781e-01 -2.322888970375061035e-01 -7.304893732070922852e-01
-2.562058568000793457e-01 -3.670054674148559570e-01 -7.050886750221252441e-01
-2.491859942674636841e-01 -3.811416327953338623e-01 -7.056332230567932129e-01
-2.457927912473678589e-01 -1.893196105957031250e-01 -7.248994708061218262e-01
-2.453388124704360962e-01 -2.286135852336883545e-01 -7.073919177055358887e-01
-2.355596125125885010e-01 -3.951904177665710449e-01 -7.302955389022827148e-01
-2.749421000480651855e-01 -4.179822206497192383e-01 -7.082031965255737305e-01
-2.522044181823730469e-01 -5.162149667739868164e-01 -7.155224084854125977e-01
-2.688264548778533936e-01 -2.547368407249450684e-01 -7.324874401092529297e-01
-2.945812046527862549e-01 -2.853611111640930176e-01 -7.259215712547302246e-01
-2.551681399345397949e-01 -4.009241461753845215e-01 -7.353503108024597168e-01
-2.476556003093719482e-01 -1.981227844953536987e-01 -7.265506982803344727e-01
-2.852839529514312744e-01 -3.872858285903930664e-01 -7.346157431602478027e-01
-2.713911831378936768e-01 -2.881168723106384277e-01 -7.341415286064147949e-01
-2.525149583816528320e-01 -2.299525737762451172e-01 -7.303828597068786621e-01
-2.451553344726562500e-01 -4.011004567146301270e-01 -7.333986759185791016e-01
