-2.481479644775390625e-01 -3.917058706283569336e-01 3.450964391231536865e-01
-2.690624892711639404e-01 -3.784156441688537598e-01 3.539337217807769775e-01
-2.618576288223266602e-01 -3.554342985153198242e-01 3.518359065055847168e-01
-2.631854414939880371e-01 -3.956141173839569092e-01 3.622565269470214844e-01
-2.366668134927749634e-01 -3.367424905300140381e-01 3.575101792812347412e-01
-2.554461359977722168e-01 -2.836622893810272217e-01 3.681335747241973877e-01
-2.637668251991271973e-01 -3.441916406154632568e-01 3.668451011180877686e-01
-2.498844712972640991e-01 -3.947323262691497803e-01 3.559977114200592041e-01
-2.629289627075195312e-01 -4.192979037761688232e-01 3.583980202674865723e-01
-2.350883185863494873e-01 -3.483712375164031982e-01 3.505734205245971680e-01
-2.367606461048126221e-01 -2.507366538047790527e-01 3.554916977882385254e-01
-2.642558217048645020e-01 -3.617266416549682617e-01 3.525711894035339355e-01
-2.690122425556182861e-01 -3.869856595993041992e-01 3.636505007743835449e-01
-2.305569648742675781e-01 -2.466824650764465332e-01 3.655687868595123291e-01
-2.567577958106994629e-01 -3.361808955669403076e-01 3.514996767044067383e-01
-2.356741279363632202e-01 -2.679520845413208008e-01 3.665703833103179932e-01
-2.268832325935363770e-01 -2.428333908319473267e-01 3.549634218215942383e-01
-2.512404024600982666e-01 -4.136031270027160645e-01 3.516058027744293213e-01
-2.599715888500213623e-01 -3.792145252227783203e-01 3.635904788970947266e-01
-2.507384121417999268e-01 -4.107425212860107422e-01 3.458822667598724365e-01
-2.329026907682418823e-01 -3.297192454338073730e-01 3.487226665019989014e-01
-2.613414525985717773e-01 -4.056206643581390381e-01 3.602128922939300537e-01
-2.735480070114135742e-01 -3.904232680797576904e-01 3.611535131931304932e-01
-2.591189444065093994e-01 -3.428911566734313965e-01 3.670650422573089600e-01
-2.441183924674987793e-01 -3.111566901206970215e-01 3.661070168018341064e-01
-2.358059585094451904e-01 -2.948831915855407715e-01 3.638088107109069824e-01
-2.564539909362792969e-01 -3.100030422210693359e-01 3.686791360378265381e-01
-2.681796550750732422e-01 -4.439159631729125977e-01 3.549560010433197021e-01
-2.499632090330123901e-01 -3.550449013710021973e-01 3.465865850448608398e-01
-2.679666280746459961e-01 -3.417936265468597412e-01 3.625947833061218262e-01
-2.522754967212677002e-01 -4.208704531192779541e-01 3.477507233619689941e-01
-2.360681444406509399e-01 -3.253490328788757324e-01 3.472466766834259033e-01
-2.744081020355224609e-01 -4.231050908565521240e-01 3.533232212066650391e-01
-2.701686322689056396e-01 -4.226111769676208496e-01 3.595350682735443115e-01
-2.337084412574768066e-01 -2.732852399349212646e-01 3.513458073139190674e-01
-2.435560822486877441e-01 -2.793456912040710449e-01 3.685923218727111816e-01
-2.589224874973297119e-01 -2.953680157661437988e-01 3.625001609325408936e-01
-2.369692474603652954e-01 -3.167188465595245361e-01 3.614729046821594238e-01
-2.471605688333511353e-01 -3.056830465793609619e-01 3.510697484016418457e-01
-2.402703762054443359e-01 -2.861533164978027344e-01 3.669956326484680176e-01
-2.735998928546905518e-01 -4.263491332530975342e-01 3.586453497409820557e-01
-2.421715259552001953e-01 -3.411903977394104004e-01 3.610603809356689453e-01
-2.256897836923599243e-01 -2.670887708663940430e-01 3.529673516750335693e-01
-2.600843310356140137e-01 -4.203923046588897705e-01 3.568843901157379150e-01
-2.436161041259765625e-01 -3.650269210338592529e-01 3.454279005527496338e-01
-2.558462917804718018e-01 -3.437949419021606445e-01 3.664879798889160156e-01
-2.650038897991180420e-01 -3.883939981460571289e-01 3.634784221649169922e-01
-2.720178663730621338e-01 -4.117119312286376953e-01 3.520151674747467041e-01
-2.722993791103363037e-01 -4.162880778312683105e-01 3.517809808254241943e-01
-2.423498779535293579e-01 -3.588329851627349854e-01 3.579169809818267822e-01
-2.347823530435562134e-01 -2.406425476074218750e-01 3.566535115242004395e-01
-2.442103177309036255e-01 -2.387352585792541504e-01 3.642027974128723145e-01
-2.302427589893341064e-01 -2.926912009716033936e-01 3.497762680053710938e-01
-2.636559903621673584e-01 -4.157891869544982910e-01 3.592950403690338135e-01
-2.467142194509506226e-01 -3.679944872856140137e-01 3.452813923358917236e-01
-2.301384955644607544e-01 -2.575106620788574219e-01 3.529379367828369141e-01
-2.452425062656402588e-01 -3.455823361873626709e-01 3.622159063816070557e-01
-2.493077665567398071e-01 -3.368713259696960449e-01 3.652715086936950684e-01
-2.535249590873718262e-01 -3.052245676517486572e-01 3.545264303684234619e-01
-2.564890384674072266e-01 -4.322104156017303467e-01 3.471504151821136475e-01
-2.583302855491638184e-01 -3.681167066097259521e-01 3.645076453685760498e-01
-2.279601842164993286e-01 -2.717422246932983398e-01 3.609955906867980957e-01
-2.544175088405609131e-01 -3.197901248931884766e-01 3.681573569774627686e-01
-2.550465166568756104e-01 -4.284781515598297119e-01 3.472039699554443359e-01
-2.691722512245178223e-01 -4.141010046005249023e-01 3.496214747428894043e-01
-2.625562250614166260e-01 -3.663229942321777344e-01 3.654551208019256592e-01
-2.483182698488235474e-01 -2.505035996437072754e-01 3.665930628776550293e-01
-2.560567855834960938e-01 -4.243879318237304688e-01 3.456715941429138184e-01
-2.260380536317825317e-01 -2.579031288623809814e-01 3.609592318534851074e-01
-2.576807439327239990e-01 -3.051903545856475830e-01 3.578100800514221191e-01
-2.616728544235229492e-01 -3.115650713443756104e-01 3.668795824050903320e-01
-2.533727884292602539e-01 -2.957788407802581787e-01 3.691293597221374512e-01
-2.400972992181777954e-01 -2.298124134540557861e-01 3.676328957080841064e-01
-2.260057479143142700e-01 -2.279308438301086426e-01 3.575920760631561279e-01
-2.284684926271438599e-01 -2.322397232055664062e-01 3.566918671131134033e-01
-2.468014508485794067e-01 -3.583852350711822510e-01 3.457351326942443848e-01
-2.418646514415740967e-01 -2.532139420509338379e-01 3.691595494747161865e-01
-2.689718604087829590e-01 -4.040834307670593262e-01 3.504402041435241699e-01
-2.506446540355682373e-01 -2.774580717086791992e-01 3.581378161907196045e-01
-2.621972560882568359e-01 -3.183839619159698486e-01 3.671727478504180908e-01
-2.349785864353179932e-01 -3.261049091815948486e-01 3.581148982048034668e-01
-2.381388694047927856e-01 -3.559252321720123291e-01 3.469564020633697510e-01
-2.707094550132751465e-01 -3.675070703029632568e-01 3.582792878150939941e-01
-2.391967028379440308e-01 -3.608794510364532471e-01 3.541544377803802490e-01
-2.610053420066833496e-01 -4.264700710773468018e-01 3.560067713260650635e-01
-2.428326755762100220e-01 -3.111706674098968506e-01 3.489142954349517822e-01
-2.617848515510559082e-01 -3.288022279739379883e-01 3.564252555370330811e-01
-2.528561353683471680e-01 -3.535464704036712646e-01 3.645711541175842285e-01
-2.392853945493698120e-01 -3.698307871818542480e-01 3.494282364845275879e-01
-2.320529520511627197e-01 -2.861823439598083496e-01 3.624167442321777344e-01
-2.564935386180877686e-01 -4.207320809364318848e-01 3.453274071216583252e-01
-2.648422718048095703e-01 -3.503194451332092285e-01 3.664347827434539795e-01
-2.518238127231597900e-01 -2.822897434234619141e-01 3.692883849143981934e-01
-2.312042415142059326e-01 -2.172486782073974609e-01 3.610623776912689209e-01
-2.596020400524139404e-01 -3.718731105327606201e-01 3.643847107887268066e-01
-2.354206293821334839e-01 -3.443908691406250000e-01 3.538893461227416992e-01
-2.732110917568206787e-01 -4.381889104843139648e-01 3.511278331279754639e-01
-2.588122487068176270e-01 -2.921564877033233643e-01 3.645817041397094727e-01
-2.741683423519134521e-01 -3.930430412292480469e-01 3.587099313735961914e-01
-2.556248903274536133e-01 -4.099977016448974609e-01 3.450413942337036133e-01
-2.746566832065582275e-01 -4.427874088287353516e-01 3.546095788478851318e-01
-2.262232452630996704e-01 -2.306809723377227783e-01 3.635217249393463135e-01
-2.470532655715942383e-01 -2.639147341251373291e-01 3.585369586944580078e-01
-2.290219962596893311e-01 -2.384413480758666992e-01 3.556404113769531250e-01
-2.693777084350585938e-01 -4.528593420982360840e-01 3.521786928176879883e-01
-2.648216485977172852e-01 -3.534043133258819580e-01 3.543894886970520020e-01
-2.691280245780944824e-01 -3.867498338222503662e-01 3.527099788188934326e-01
-2.573742866516113281e-01 -4.168376624584197998e-01 3.452225327491760254e-01
-2.628214955329895020e-01 -4.023742377758026123e-01 3.472201526165008545e-01
-2.293223440647125244e-01 -2.639295160770416260e-01 3.631783425807952881e-01
-2.551759183406829834e-01 -3.835915029048919678e-01 3.612857460975646973e-01
-2.372009009122848511e-01 -2.605445384979248047e-01 3.677382171154022217e-01
-2.584798932075500488e-01 -4.374376535415649414e-01 3.473947644233703613e-01
-2.475021630525588989e-01 -3.556563854217529297e-01 3.619034588336944580e-01
-2.382292151451110840e-01 -2.324484586715698242e-01 3.603672981262207031e-01
-2.607567012310028076e-01 -3.058346211910247803e-01 3.669050633907318115e-01
-2.298219352960586548e-01 -2.702416777610778809e-01 3.515057861804962158e-01
-2.632933855056762695e-01 -3.375583887100219727e-01 3.560296893119812012e-01
-2.655441164970397949e-01 -3.580371737480163574e-01 3.542006313800811768e-01
-2.489913105964660645e-01 -4.091131389141082764e-01 3.498619496822357178e-01
-2.524341940879821777e-01 -3.852064907550811768e-01 3.596530258655548096e-01
-2.567658722400665283e-01 -3.560286164283752441e-01 3.654668033123016357e-01
-2.376877814531326294e-01 -3.459353744983673096e-01 3.564413785934448242e-01
-2.403803616762161255e-01 -3.435719311237335205e-01 3.593711555004119873e-01
-2.418971955776214600e-01 -3.681380748748779297e-01 3.458517491817474365e-01
-2.489760369062423706e-01 -2.798618972301483154e-01 3.563688993453979492e-01
-2.367224395275115967e-01 -3.563542068004608154e-01 3.511552810668945312e-01
-2.405553758144378662e-01 -2.495048046112060547e-01 3.689998686313629150e-01
-2.419272959232330322e-01 -2.329595685005187988e-01 3.673864305019378662e-01
-2.710540294647216797e-01 -3.912270069122314453e-01 3.538366258144378662e-01
-2.345265001058578491e-01 -3.397711217403411865e-01 3.539703190326690674e-01
-2.435693889856338501e-01 -3.506921231746673584e-01 3.458549380302429199e-01
-2.388352155685424805e-01 -2.691472172737121582e-01 3.531725406646728516e-01
-2.437473982572555542e-01 -3.456633985042572021e-01 3.461377918720245361e-01
-2.309552133083343506e-01 -2.733832001686096191e-01 3.632710278034210205e-01
-2.253400832414627075e-01 -2.786796987056732178e-01 3.552281558513641357e-01
-2.617057859897613525e-01 -4.370335340499877930e-01 3.536168932914733887e-01
-2.603562474250793457e-01 -4.157873094081878662e-01 3.579736053943634033e-01
-2.570878565311431885e-01 -3.697556257247924805e-01 3.476307094097137451e-01
-2.468883395195007324e-01 -2.462811321020126343e-01 3.647142350673675537e-01
-2.659235596656799316e-01 -4.390782713890075684e-01 3.553619384765625000e-01
-2.315266430377960205e-01 -3.160728812217712402e-01 3.564308285713195801e-01
-2.485640794038772583e-01 -2.851592302322387695e-01 3.550719022750854492e-01
-2.562314271926879883e-01 -3.876954317092895508e-01 3.610935211181640625e-01
-2.363774329423904419e-01 -3.456887900829315186e-01 3.472997546195983887e-01
-2.558161914348602295e-01 -2.948930859565734863e-01 3.585147559642791748e-01
-2.708681225776672363e-01 -4.230450391769409180e-01 3.500554859638214111e-01
-2.464274913072586060e-01 -3.670750856399536133e-01 3.593148887157440186e-01
-2.545859813690185547e-01 -3.584269285202026367e-01 3.477614223957061768e-01
-2.659367322921752930e-01 -3.358866274356842041e-01 3.596540093421936035e-01
-2.374697327613830566e-01 -3.608097732067108154e-01 3.502512276172637939e-01
-2.451810836791992188e-01 -2.470119297504425049e-01 3.686459660530090332e-01
-2.548467814922332764e-01 -4.239931106567382812e-01 3.519396185874938965e-01
-2.630873620510101318e-01 -4.438804090023040771e-01 3.522485494613647461e-01
-2.275117188692092896e-01 -2.388453483581542969e-01 3.641230762004852295e-01
-2.468984723091125488e-01 -3.140277862548828125e-01 3.668534159660339355e-01
-2.600164711475372314e-01 -4.405648112297058105e-01 3.473767340183258057e-01
-2.606134414672851562e-01 -3.771800100803375244e-01 3.484462499618530273e-01
-2.433868795633316040e-01 -2.410267889499664307e-01 3.684478700160980225e-01
-2.323557734489440918e-01 -2.218618392944335938e-01 3.600812256336212158e-01
-2.327208071947097778e-01 -2.786356210708618164e-01 3.506577610969543457e-01
-2.490680664777755737e-01 -2.704979181289672852e-01 3.585273325443267822e-01
-2.523040771484375000e-01 -3.609547615051269531e-01 3.633972704410552979e-01
-2.502132952213287354e-01 -3.884726762771606445e-01 3.576472997665405273e-01
-2.275959998369216919e-01 -2.199232727289199829e-01 3.593818843364715576e-01
-2.312643676996231079e-01 -2.544852793216705322e-01 3.653917610645294189e-01
-2.412287592887878418e-01 -3.123871982097625732e-01 3.646453917026519775e-01
-2.516954243183135986e-01 -3.301196694374084473e-01 3.497822582721710205e-01
-2.550714910030364990e-01 -3.740825653076171875e-01 3.465241789817810059e-01
-2.678909897804260254e-01 -3.827196061611175537e-01 3.522651493549346924e-01
-2.537595033645629883e-01 -3.400339484214782715e-01 3.494640588760375977e-01
-2.287447005510330200e-01 -2.768339514732360840e-01 3.510972261428833008e-01
-2.645071148872375488e-01 -3.995983898639678955e-01 3.482227027416229248e-01
-2.414685040712356567e-01 -2.839979529380798340e-01 3.519000113010406494e-01
-2.382857948541641235e-01 -3.011705279350280762e-01 3.489936292171478271e-01
-2.280525416135787964e-01 -2.910081744194030762e-01 3.576202690601348877e-01
-2.282073050737380981e-01 -2.887344956398010254e-01 3.507437705993652344e-01
-2.346198558807373047e-01 -2.639222741127014160e-01 3.663997650146484375e-01
-2.265523076057434082e-01 -2.473726868629455566e-01 3.626659810543060303e-01
-2.521722316741943359e-01 -3.636655807495117188e-01 3.464854657649993896e-01
-2.347568273544311523e-01 -3.365882039070129395e-01 3.477615416049957275e-01
-2.515653371810913086e-01 -2.939824461936950684e-01 3.553147614002227783e-01
-2.579019069671630859e-01 -4.280229806900024414e-01 3.535179793834686279e-01
-2.518829107284545898e-01 -2.706232070922851562e-01 3.686336874961853027e-01
-2.487009614706039429e-01 -2.736532092094421387e-01 3.694547712802886963e-01
-2.603758573532104492e-01 -3.464717864990234375e-01 3.521916270256042480e-01
-2.577101886272430420e-01 -3.015210330486297607e-01 3.587488234043121338e-01
-2.613009512424468994e-01 -3.112670183181762695e-01 3.603872358798980713e-01
-2.389075160026550293e-01 -3.493863046169281006e-01 3.568840622901916504e-01
-2.662555277347564697e-01 -4.451163113117218018e-01 3.475414514541625977e-01
-2.528107166290283203e-01 -3.802135884761810303e-01 3.607169389724731445e-01
-2.482488751411437988e-01 -3.282612562179565430e-01 3.486660718917846680e-01
-2.643671631813049316e-01 -3.667160570621490479e-01 3.519143760204315186e-01
-2.579359710216522217e-01 -3.304803967475891113e-01 3.530991375446319580e-01
-2.515816986560821533e-01 -4.021409749984741211e-01 3.555395901203155518e-01
-2.350433021783828735e-01 -2.577857375144958496e-01 3.670489490032196045e-01
-2.666814625263214111e-01 -3.942460417747497559e-01 3.499766588211059570e-01
-2.385608702898025513e-01 -3.270365595817565918e-01 3.609383702278137207e-01
-2.669866681098937988e-01 -3.594694137573242188e-01 3.656146526336669922e-01
-2.687454223632812500e-01 -3.747380971908569336e-01 3.542463779449462891e-01
-2.260833829641342163e-01 -2.257444858551025391e-01 3.634922206401824951e-01
-2.299367040395736694e-01 -2.578316032886505127e-01 3.642619848251342773e-01
-2.676524817943572998e-01 -3.551291227340698242e-01 3.569163680076599121e-01
-2.371743321418762207e-01 -3.009427189826965332e-01 3.638602495193481445e-01
-2.655943632125854492e-01 -3.926924467086791992e-01 3.630567789077758789e-01
-2.274428606033325195e-01 -2.466745376586914062e-01 3.543766736984252930e-01
-2.270286530256271362e-01 -2.936097085475921631e-01 3.524141013622283936e-01
-2.389528155326843262e-01 -2.243702709674835205e-01 3.647121489048004150e-01
-2.417563945055007935e-01 -2.781534790992736816e-01 3.528762459754943848e-01
-2.709117531776428223e-01 -4.187667071819305420e-01 3.601011633872985840e-01
-2.382191717624664307e-01 -2.853619158267974854e-01 3.507441580295562744e-01
-2.431051731109619141e-01 -3.044467270374298096e-01 3.663941919803619385e-01
-2.609657943248748779e-01 -3.971726298332214355e-01 3.468430042266845703e-01
-2.739721834659576416e-01 -4.035876989364624023e-01 3.553995788097381592e-01
-2.277499288320541382e-01 -2.150119841098785400e-01 3.640421330928802490e-01
-2.486499100923538208e-01 -4.059873223304748535e-01 3.464986383914947510e-01
-2.407274097204208374e-01 -3.082750737667083740e-01 3.648916184902191162e-01
-2.425405830144882202e-01 -2.661903500556945801e-01 3.552468121051788330e-01
-2.538652122020721436e-01 -3.975222110748291016e-01 3.581379354000091553e-01
-2.439103871583938599e-01 -3.333662748336791992e-01 3.470330536365509033e-01
-2.686323821544647217e-01 -3.629033565521240234e-01 3.563836812973022461e-01
-2.258229404687881470e-01 -2.811773717403411865e-01 3.530254065990447998e-01
-2.302418053150177002e-01 -2.514365911483764648e-01 3.537588119506835938e-01
-2.352972626686096191e-01 -3.131151199340820312e-01 3.478835225105285645e-01
-2.405339032411575317e-01 -2.956276237964630127e-01 3.500839471817016602e-01
-2.597329616546630859e-01 -3.007031679153442383e-01 3.616995215415954590e-01
-2.507548034191131592e-01 -3.488365709781646729e-01 3.643716871738433838e-01
-2.440166175365447998e-01 -3.329171240329742432e-01 3.633946776390075684e-01
-2.594913840293884277e-01 -3.528260886669158936e-01 3.507440388202667236e-01
-2.695971727371215820e-01 -4.358211755752563477e-01 3.571633696556091309e-01
-2.566413879394531250e-01 -3.355820477008819580e-01 3.673338592052459717e-01
-2.449710816144943237e-01 -3.734810948371887207e-01 3.452470898628234863e-01
-2.362527102231979370e-01 -3.478458821773529053e-01 3.540685176849365234e-01
-2.508539557456970215e-01 -3.668684661388397217e-01 3.459165394306182861e-01
-2.560227513313293457e-01 -3.140124976634979248e-01 3.546353578567504883e-01
-2.528216242790222168e-01 -4.065698087215423584e-01 3.554077744483947754e-01
-2.572596669197082520e-01 -4.237984418869018555e-01 3.542596995830535889e-01
-2.679035365581512451e-01 -3.673654496669769287e-01 3.650735914707183838e-01
-2.459284365177154541e-01 -3.227375447750091553e-01 3.655708134174346924e-01
-2.614304721355438232e-01 -3.419078290462493896e-01 3.536577224731445312e-01
-2.478560656309127808e-01 -3.032299578189849854e-01 3.680728077888488770e-01
-2.591945528984069824e-01 -3.848623633384704590e-01 3.471099734306335449e-01
-2.478820681571960449e-01 -3.714967668056488037e-01 3.594431877136230469e-01
-2.267599403858184814e-01 -2.188324630260467529e-01 3.638103008270263672e-01
-2.317198365926742554e-01 -2.917037904262542725e-01 3.613508641719818115e-01
-2.566457092761993408e-01 -3.100771903991699219e-01 3.558525741100311279e-01
-2.532363831996917725e-01 -3.285775184631347656e-01 3.672932982444763184e-01
-2.622004449367523193e-01 -3.264522254467010498e-01 3.674665987491607666e-01
-2.630059123039245605e-01 -4.406576156616210938e-01 3.533545434474945068e-01
-2.667877972126007080e-01 -3.380956947803497314e-01 3.650136888027191162e-01
-2.305546551942825317e-01 -2.408458888530731201e-01 3.659182190895080566e-01
-2.557467520236968994e-01 -3.646798133850097656e-01 3.641708493232727051e-01
-2.739869058132171631e-01 -4.314861297607421875e-01 3.577178120613098145e-01
-2.357415407896041870e-01 -2.938188314437866211e-01 3.493821620941162109e-01
-2.254611104726791382e-01 -2.639373540878295898e-01 3.593401908874511719e-01
-2.312896847724914551e-01 -3.157586455345153809e-01 3.490804135799407959e-01
-2.533831298351287842e-01 -4.189567565917968750e-01 3.521902561187744141e-01
-2.637279331684112549e-01 -3.822450041770935059e-01 3.495337069034576416e-01
-2.399785220623016357e-01 -3.232434093952178955e-01 3.624766767024993896e-01
-2.469872832298278809e-01 -2.897813320159912109e-01 3.687734901905059814e-01
-2.412567585706710815e-01 -2.305001616477966309e-01 3.642506003379821777e-01
-2.512145638465881348e-01 -3.147956728935241699e-01 3.516408801078796387e-01
-2.312546670436859131e-01 -3.211110532283782959e-01 3.544767200946807861e-01
-2.535575926303863525e-01 -3.578834533691406250e-01 3.642802536487579346e-01
-2.486942261457443237e-01 -2.616266310214996338e-01 3.690254688262939453e-01
-2.586197555065155029e-01 -3.893640041351318359e-01 3.465443849563598633e-01
-2.426346689462661743e-01 -3.830203711986541748e-01 3.510909974575042725e-01
-2.736153900623321533e-01 -4.391995370388031006e-01 3.563942015171051025e-01
-2.618979811668395996e-01 -4.193352460861206055e-01 3.460319936275482178e-01
-2.462146729230880737e-01 -3.619218170642852783e-01 3.601137697696685791e-01
-2.330931723117828369e-01 -3.065746724605560303e-01 3.484884202480316162e-01
-2.490374147891998291e-01 -2.998996376991271973e-01 3.528046905994415283e-01
-2.572317421436309814e-01 -3.390400111675262451e-01 3.671458363533020020e-01
-2.237879633903503418e-01 -2.515161037445068359e-01 3.585360646247863770e-01
-2.382512688636779785e-01 -2.436021268367767334e-01 3.575825691223144531e-01
-2.407913506031036377e-01 -3.189224004745483398e-01 3.477328121662139893e-01
-2.486727535724639893e-01 -2.551434934139251709e-01 3.681242763996124268e-01
-2.430852204561233521e-01 -2.465320825576782227e-01 3.599561750888824463e-01
-2.517043054103851318e-01 -2.848104238510131836e-01 3.572984933853149414e-01
-2.459738552570343018e-01 -3.866446018218994141e-01 3.545384407043457031e-01
-2.533964812755584717e-01 -2.746228873729705811e-01 3.682580888271331787e-01
-2.247994691133499146e-01 -2.731045484542846680e-01 3.549500107765197754e-01
-2.599858939647674561e-01 -3.930642008781433105e-01 3.617042303085327148e-01
-2.287952899932861328e-01 -2.850279211997985840e-01 3.505944907665252686e-01
-2.253424078226089478e-01 -2.543691694736480713e-01 3.606246411800384521e-01
-2.236848473548889160e-01 -2.292304188013076782e-01 3.600001335144042969e-01
-2.708922922611236572e-01 -3.669385015964508057e-01 3.631843626499176025e-01
-2.496767938137054443e-01 -3.203895092010498047e-01 3.501599431037902832e-01
-2.498657703399658203e-01 -2.665345966815948486e-01 3.603096008300781250e-01
-2.616895437240600586e-01 -3.064194321632385254e-01 3.636301159858703613e-01
-2.726857662200927734e-01 -4.071579873561859131e-01 3.611388504505157471e-01
-2.680670320987701416e-01 -3.729023039340972900e-01 3.647655546665191650e-01
-2.456312775611877441e-01 -2.765196263790130615e-01 3.691681325435638428e-01
-2.332244962453842163e-01 -3.231322467327117920e-01 3.481271564960479736e-01
-2.474926859140396118e-01 -2.668952345848083496e-01 3.694438040256500244e-01
-2.376706153154373169e-01 -3.342915177345275879e-01 3.467329144477844238e-01
-2.629604339599609375e-01 -3.228763043880462646e-01 3.591636717319488525e-01
-2.425708919763565063e-01 -3.550845682621002197e-01 3.456894755363464355e-01
-2.646442949771881104e-01 -4.116469621658325195e-01 3.602792918682098389e-01
-2.519167363643646240e-01 -2.632595300674438477e-01 3.652496635913848877e-01
-2.546013295650482178e-01 -4.131059050559997559e-01 3.551129996776580811e-01
-2.454141974449157715e-01 -2.546828985214233398e-01 3.692373335361480713e-01
-2.675964534282684326e-01 -3.831049203872680664e-01 3.641028404235839844e-01
-2.284005880355834961e-01 -3.009433746337890625e-01 3.555553555488586426e-01
-2.449645847082138062e-01 -2.848981022834777832e-01 3.686116933822631836e-01
-2.580761313438415527e-01 -4.036200940608978271e-01 3.455646932125091553e-01
-2.687042951583862305e-01 -4.317781031131744385e-01 3.577907383441925049e-01
-2.647209465503692627e-01 -4.275695383548736572e-01 3.574646413326263428e-01
-2.632165551185607910e-01 -3.197104334831237793e-01 3.605507314205169678e-01
-2.573708593845367432e-01 -4.077149629592895508e-01 3.580807447433471680e-01
-2.662207484245300293e-01 -3.324853181838989258e-01 3.646669387817382812e-01
-2.247927486896514893e-01 -2.223157882690429688e-01 3.618689179420471191e-01
-2.306235432624816895e-01 -2.772641181945800781e-01 3.625322878360748291e-01
-2.276104241609573364e-01 -2.968407869338989258e-01 3.551497459411621094e-01
-2.399019002914428711e-01 -2.597332000732421875e-01 3.551712632179260254e-01
-2.328336387872695923e-01 -2.470653504133224487e-01 3.548780977725982666e-01
-2.580013573169708252e-01 -3.262321650981903076e-01 3.538562953472137451e-01
-2.338977605104446411e-01 -2.620728015899658203e-01 3.528278470039367676e-01
-2.339711636304855347e-01 -3.420059680938720703e-01 3.511467874050140381e-01
-2.617115974426269531e-01 -4.019870758056640625e-01 3.609202206134796143e-01
-2.449135631322860718e-01 -3.816271126270294189e-01 3.548384606838226318e-01
-2.292284965515136719e-01 -3.111436069011688232e-01 3.513639867305755615e-01
-2.706600725650787354e-01 -4.498878121376037598e-01 3.496797978878021240e-01
-2.337904125452041626e-01 -3.329959809780120850e-01 3.549875617027282715e-01
-2.557818889617919922e-01 -3.030056357383728027e-01 3.688550889492034912e-01
-2.361617386341094971e-01 -2.355968654155731201e-01 3.681655824184417725e-01
-2.570461928844451904e-01 -3.789182603359222412e-01 3.467985987663269043e-01
-2.688927054405212402e-01 -3.496475815773010254e-01 3.636853098869323730e-01
-2.489303648471832275e-01 -3.317879438400268555e-01 3.657132685184478760e-01
-2.525081336498260498e-01 -2.920148968696594238e-01 3.692198395729064941e-01
-2.372260987758636475e-01 -3.514199256896972656e-01 3.543732166290283203e-01
-2.438599914312362671e-01 -3.273349106311798096e-01 3.640680611133575439e-01
-2.439489364624023438e-01 -2.627512216567993164e-01 3.566922247409820557e-01
-2.419013679027557373e-01 -3.619951307773590088e-01 3.568331003189086914e-01
-2.446231096982955933e-01 -3.373842537403106689e-01 3.630863726139068604e-01
-2.754545807838439941e-01 -4.156798422336578369e-01 3.581304252147674561e-01
-2.378301173448562622e-01 -2.422474920749664307e-01 3.685468435287475586e-01
-2.487403154373168945e-01 -2.847673594951629639e-01 3.692682087421417236e-01
-2.276105582714080811e-01 -2.995531857013702393e-01 3.525922596454620361e-01
-2.524716854095458984e-01 -3.939348161220550537e-01 3.580077290534973145e-01
-2.710290551185607910e-01 -3.763228356838226318e-01 3.634624481201171875e-01
-2.435678690671920776e-01 -2.581815123558044434e-01 3.693154752254486084e-01
-2.670647203922271729e-01 -3.681768178939819336e-01 3.538032174110412598e-01
-2.503235042095184326e-01 -3.682395815849304199e-01 3.614051342010498047e-01
-2.613591253757476807e-01 -3.334064185619354248e-01 3.551239669322967529e-01
-2.664824724197387695e-01 -3.787398636341094971e-01 3.645170927047729492e-01
-2.373378127813339233e-01 -3.336084187030792236e-01 3.587876260280609131e-01
-2.673328816890716553e-01 -3.470934629440307617e-01 3.584990501403808594e-01
-2.684831619262695312e-01 -4.478027522563934326e-01 3.539250791072845459e-01
-2.430249750614166260e-01 -2.741786837577819824e-01 3.540672957897186279e-01
-2.251743972301483154e-01 -2.404102087020874023e-01 3.619387149810791016e-01
-2.343932092189788818e-01 -2.177031487226486206e-01 3.663200139999389648e-01
-2.440207749605178833e-01 -3.543429076671600342e-01 3.600259423255920410e-01
-2.694759666919708252e-01 -3.976237773895263672e-01 3.626498878002166748e-01
-2.701334953308105469e-01 -4.398434758186340332e-01 3.488946557044982910e-01
-2.665219902992248535e-01 -4.045078456401824951e-01 3.617086112499237061e-01
-2.306114435195922852e-01 -2.310162484645843506e-01 3.662937283515930176e-01
-2.457898408174514771e-01 -2.910138666629791260e-01 3.526163995265960693e-01
-2.495814263820648193e-01 -3.506809473037719727e-01 3.468524515628814697e-01
-2.427427768707275391e-01 -2.720944881439208984e-01 3.687841296195983887e-01
-2.556785941123962402e-01 -3.217790126800537109e-01 3.530670404434204102e-01
-2.380763739347457886e-01 -3.213439881801605225e-01 3.473152816295623779e-01
-2.458413094282150269e-01 -3.000746369361877441e-01 3.513033390045166016e-01
-2.469048649072647095e-01 -2.880450487136840820e-01 3.536365330219268799e-01
-2.734150290489196777e-01 -4.002612531185150146e-01 3.551528751850128174e-01
-2.393379360437393188e-01 -2.386721372604370117e-01 3.686903119087219238e-01
-2.413471341133117676e-01 -3.741127848625183105e-01 3.467138707637786865e-01
-2.695957422256469727e-01 -3.551371991634368896e-01 3.601868748664855957e-01
-2.393798977136611938e-01 -2.646498978137969971e-01 3.540967106819152832e-01
-2.616980969905853271e-01 -4.140439331531524658e-01 3.461451530456542969e-01
-2.658064961433410645e-01 -3.284784853458404541e-01 3.633151650428771973e-01
-2.275416851043701172e-01 -2.764514982700347900e-01 3.598151206970214844e-01
-2.638300955295562744e-01 -3.439907729625701904e-01 3.552511632442474365e-01
-2.335570752620697021e-01 -2.830948233604431152e-01 3.502541482448577881e-01
-2.407111376523971558e-01 -3.314227461814880371e-01 3.616906404495239258e-01
-2.376284599304199219e-01 -2.917227149009704590e-01 3.652181625366210938e-01
-2.470259219408035278e-01 -4.026418328285217285e-01 3.480174541473388672e-01
-2.632494568824768066e-01 -4.348497688770294189e-01 3.463529944419860840e-01
-2.492170184850692749e-01 -3.623821437358856201e-01 3.617600798606872559e-01
-2.513306140899658203e-01 -2.882392704486846924e-01 3.693011701107025146e-01
-2.368266880512237549e-01 -2.241196036338806152e-01 3.674071133136749268e-01
-2.240166366100311279e-01 -2.575656473636627197e-01 3.551097512245178223e-01
-2.560730576515197754e-01 -4.026182889938354492e-01 3.583878874778747559e-01
-2.414897531270980835e-01 -3.725362718105316162e-01 3.535144031047821045e-01
-2.701124548912048340e-01 -4.331805109977722168e-01 3.490104675292968750e-01
-2.324581146240234375e-01 -3.099986016750335693e-01 3.485064506530761719e-01
-2.660765051841735840e-01 -3.422415554523468018e-01 3.580377995967864990e-01
-2.670683562755584717e-01 -4.213961362838745117e-01 3.592909872531890869e-01
-2.457136809825897217e-01 -3.951447904109954834e-01 3.511182963848114014e-01
-2.354906052350997925e-01 -2.243154942989349365e-01 3.610402941703796387e-01
-2.403362989425659180e-01 -3.357248604297637939e-01 3.607366979122161865e-01
-2.584981322288513184e-01 -3.403989076614379883e-01 3.519119620323181152e-01
-2.250887006521224976e-01 -2.395346164703369141e-01 3.558547794818878174e-01
-2.473118007183074951e-01 -3.834781050682067871e-01 3.450343906879425049e-01
-2.555100619792938232e-01 -2.858351469039916992e-01 3.607365489006042480e-01
-2.474776208400726318e-01 -2.986295819282531738e-01 3.683156669139862061e-01
-2.431259751319885254e-01 -2.532294392585754395e-01 3.582737743854522705e-01
-2.660324573516845703e-01 -3.904487192630767822e-01 3.499886989593505859e-01
-2.663238942623138428e-01 -4.051327407360076904e-01 3.486991822719573975e-01
-2.591962516307830811e-01 -4.113348722457885742e-01 3.582940995693206787e-01
-2.378318905830383301e-01 -3.102824389934539795e-01 3.481093347072601318e-01
-2.500025629997253418e-01 -4.057430922985076904e-01 3.530262708663940430e-01
-2.429900914430618286e-01 -3.238305449485778809e-01 3.640882074832916260e-01
-2.312364280223846436e-01 -3.023956120014190674e-01 3.490996956825256348e-01
-2.576536238193511963e-01 -3.295724391937255859e-01 3.678444027900695801e-01
-2.653020620346069336e-01 -4.414835572242736816e-01 3.470633924007415771e-01
-2.278549522161483765e-01 -2.221306562423706055e-01 3.647845089435577393e-01
-2.449394464492797852e-01 -3.084217309951782227e-01 3.498670756816864014e-01
-2.672842741012573242e-01 -4.208188056945800781e-01 3.480619490146636963e-01
-2.337736189365386963e-01 -2.665626108646392822e-01 3.521954119205474854e-01
-2.288136929273605347e-01 -3.068079948425292969e-01 3.543383479118347168e-01
-2.236554026603698730e-01 -2.348836064338684082e-01 3.601196706295013428e-01
-2.519870400428771973e-01 -3.450191020965576172e-01 3.652867078781127930e-01
-2.357239723205566406e-01 -3.175822198390960693e-01 3.476121723651885986e-01
-2.464544177055358887e-01 -3.517040610313415527e-01 3.619467616081237793e-01
-2.572433948516845703e-01 -3.602597117424011230e-01 3.651246428489685059e-01
-2.636966109275817871e-01 -3.701349496841430664e-01 3.509925603866577148e-01
-2.474528551101684570e-01 -2.562464475631713867e-01 3.610091507434844971e-01
-2.564397454261779785e-01 -3.920189440250396729e-01 3.604792058467864990e-01
-2.367184013128280640e-01 -3.061777651309967041e-01 3.483626842498779297e-01
-2.551596462726593018e-01 -2.792730927467346191e-01 3.675780892372131348e-01
-2.737006843090057373e-01 -3.956541419029235840e-01 3.611050248146057129e-01
-2.474617063999176025e-01 -3.792688548564910889e-01 3.450269699096679688e-01
-2.576418817043304443e-01 -3.960351645946502686e-01 3.458115458488464355e-01
-2.587097585201263428e-01 -3.198301494121551514e-01 3.682505786418914795e-01
-2.386236190795898438e-01 -2.392787337303161621e-01 3.587894737720489502e-01
-2.278786897659301758e-01 -2.601994872093200684e-01 3.527179062366485596e-01
-2.495955079793930054e-01 -3.064271509647369385e-01 3.682448267936706543e-01
-2.307545095682144165e-01 -2.682142555713653564e-01 3.637334406375885010e-01
-2.610736191272735596e-01 -3.184591829776763916e-01 3.580675423145294189e-01
-2.724602520465850830e-01 -4.508690834045410156e-01 3.530973792076110840e-01
-2.369014918804168701e-01 -2.289814949035644531e-01 3.679955005645751953e-01
-2.252409160137176514e-01 -2.530867159366607666e-01 3.542024195194244385e-01
-2.310985922813415527e-01 -2.253181934356689453e-01 3.586917221546173096e-01
-2.434939444065093994e-01 -3.236836493015289307e-01 3.478024899959564209e-01
-2.567268908023834229e-01 -2.992179989814758301e-01 3.686538040637969971e-01
-2.556335031986236572e-01 -3.505030274391174316e-01 3.657687008380889893e-01
-2.419668734073638916e-01 -3.790942728519439697e-01 3.517027795314788818e-01
-2.692344486713409424e-01 -4.101668894290924072e-01 3.612281978130340576e-01
-2.431522905826568604e-01 -3.169700801372528076e-01 3.650262057781219482e-01
-2.664261460304260254e-01 -3.506420850753784180e-01 3.564860522747039795e-01
-2.396612763404846191e-01 -2.361216396093368530e-01 3.603111207485198975e-01
-2.395437210798263550e-01 -3.192597627639770508e-01 3.627905249595642090e-01
-2.468883842229843140e-01 -3.424128592014312744e-01 3.635275661945343018e-01
-2.711076736450195312e-01 -3.840835094451904297e-01 3.551042079925537109e-01
-2.293107807636260986e-01 -2.885050177574157715e-01 3.596447110176086426e-01
-2.375784665346145630e-01 -2.759533524513244629e-01 3.517984151840209961e-01
-2.727102339267730713e-01 -3.826239109039306641e-01 3.619428873062133789e-01
-2.245382815599441528e-01 -2.692823410034179688e-01 3.559883236885070801e-01
-2.541381418704986572e-01 -3.184549212455749512e-01 3.526693284511566162e-01
-2.571660280227661133e-01 -2.923570871353149414e-01 3.680473268032073975e-01
-2.462859898805618286e-01 -2.956336736679077148e-01 3.521375954151153564e-01
-2.519280910491943359e-01 -3.481427431106567383e-01 3.478229045867919922e-01
-2.644474804401397705e-01 -4.112362563610076904e-01 3.473164141178131104e-01
-2.528727650642395020e-01 -3.438527286052703857e-01 3.486391603946685791e-01
-2.532583475112915039e-01 -3.926213383674621582e-01 3.450541198253631592e-01
-2.309121638536453247e-01 -2.299423962831497192e-01 3.575867116451263428e-01
-2.527512609958648682e-01 -2.746767103672027588e-01 3.609590828418731689e-01
-2.323389500379562378e-01 -3.105852305889129639e-01 3.586215078830718994e-01
-2.399465292692184448e-01 -2.673410773277282715e-01 3.682692646980285645e-01
-2.592692375183105469e-01 -3.634013831615447998e-01 3.652486205101013184e-01
-2.449520081281661987e-01 -3.888430297374725342e-01 3.461383581161499023e-01
-2.578133344650268555e-01 -4.325413107872009277e-01 3.518305420875549316e-01
-2.392579764127731323e-01 -3.621321320533752441e-01 3.467880785465240479e-01
-2.653818726539611816e-01 -4.320099353790283203e-01 3.567852079868316650e-01
-2.480218410491943359e-01 -3.643493056297302246e-01 3.455646038055419922e-01
-2.641307413578033447e-01 -3.334692418575286865e-01 3.578265011310577393e-01
-2.608581781387329102e-01 -3.844282627105712891e-01 3.631581068038940430e-01
-3.741229772567749023e-01 -7.173495292663574219e-01 -3.644633889198303223e-01
-3.675682246685028076e-01 -6.521086692810058594e-01 -3.664957284927368164e-01
-3.298277258872985840e-01 -6.072095036506652832e-01 -3.675756454467773438e-01
-3.494524657726287842e-01 -5.642637014389038086e-01 -3.545086979866027832e-01
-3.638687729835510254e-01 -6.589810252189636230e-01 -3.442991077899932861e-01
-3.170106410980224609e-01 -5.810062885284423828e-01 -3.509496748447418213e-01
-3.248320817947387695e-01 -5.090525746345520020e-01 -3.690044879913330078e-01
-3.867600560188293457e-01 -7.003905177116394043e-01 -3.467792272567749023e-01
-3.509266078472137451e-01 -6.917613148689270020e-01 -3.611331284046173096e-01
-3.147561550140380859e-01 -4.866263866424560547e-01 -3.539193570613861084e-01
-3.828240931034088135e-01 -6.808195114135742188e-01 -3.620770871639251709e-01
-2.876412570476531982e-01 -4.330996572971343994e-01 -3.694569766521453857e-01
-3.900234401226043701e-01 -8.010911941528320312e-01 -3.499500751495361328e-01
-3.601598441600799561e-01 -6.940747499465942383e-01 -3.648069798946380615e-01
-3.659003376960754395e-01 -6.122558712959289551e-01 -3.611803352832794189e-01
-2.866530120372772217e-01 -4.623134136199951172e-01 -3.681781291961669922e-01
-3.428179323673248291e-01 -6.653711199760437012e-01 -3.482025265693664551e-01
-3.604338467121124268e-01 -7.128708958625793457e-01 -3.615343272686004639e-01
-3.908438682556152344e-01 -7.499465942382812500e-01 -3.432838618755340576e-01
-3.130901455879211426e-01 -5.796799063682556152e-01 -3.541899621486663818e-01
-3.676944971084594727e-01 -7.001916170120239258e-01 -3.654142618179321289e-01
-3.758009076118469238e-01 -6.786445975303649902e-01 -3.651814460754394531e-01
-3.531895279884338379e-01 -5.836510062217712402e-01 -3.657547533512115479e-01
-3.996217548847198486e-01 -7.669683098793029785e-01 -3.442742228507995605e-01
-3.972267210483551025e-01 -7.452532649040222168e-01 -3.603048920631408691e-01
-3.643948435783386230e-01 -6.146125197410583496e-01 -3.512355983257293701e-01
-3.468846082687377930e-01 -5.517281293869018555e-01 -3.581599295139312744e-01
-3.589387834072113037e-01 -5.910809040069580078e-01 -3.622657656669616699e-01
-3.334728479385375977e-01 -6.140483617782592773e-01 -3.678626120090484619e-01
-3.313086926937103271e-01 -5.950685739517211914e-01 -3.693309128284454346e-01
-3.566557765007019043e-01 -6.684487462043762207e-01 -3.439438939094543457e-01
-3.215488791465759277e-01 -5.204920768737792969e-01 -3.504743576049804688e-01
-3.232335150241851807e-01 -5.864203572273254395e-01 -3.484886288642883301e-01
-3.254449367523193359e-01 -5.116970539093017578e-01 -3.529618382453918457e-01
-4.022017121315002441e-01 -7.454787492752075195e-01 -3.568035364151000977e-01
-3.353918194770812988e-01 -6.331292986869812012e-01 -3.475884795188903809e-01
-3.077602386474609375e-01 -4.517143368721008301e-01 -3.656469583511352539e-01
-2.935014367103576660e-01 -5.082514882087707520e-01 -3.578364849090576172e-01
-3.276554644107818604e-01 -5.688587427139282227e-01 -3.473480641841888428e-01
-3.434772789478302002e-01 -6.750228404998779297e-01 -3.500539362430572510e-01
-3.297563493251800537e-01 -6.384032964706420898e-01 -3.587580621242523193e-01
-4.014178216457366943e-01 -7.719176411628723145e-01 -3.444895446300506592e-01
-2.912025451660156250e-01 -4.197194576263427734e-01 -3.664827048778533936e-01
-3.449980616569519043e-01 -6.187965869903564453e-01 -3.451486825942993164e-01
-3.016113638877868652e-01 -5.326145887374877930e-01 -3.545137345790863037e-01
-3.074099719524383545e-01 -5.364106893539428711e-01 -3.686301410198211670e-01
-3.464415371417999268e-01 -6.435577869415283203e-01 -3.449309766292572021e-01
-3.990519642829895020e-01 -7.515430450439453125e-01 -3.454788029193878174e-01
-2.955870628356933594e-01 -4.730061888694763184e-01 -3.540835082530975342e-01
-3.644878268241882324e-01 -7.401428818702697754e-01 -3.525973260402679443e-01
-3.328434824943542480e-01 -5.721831917762756348e-01 -3.471132218837738037e-01
-2.944182157516479492e-01 -5.154538750648498535e-01 -3.597061336040496826e-01
-3.330892622470855713e-01 -6.410453319549560547e-01 -3.622294962406158447e-01
-3.680184483528137207e-01 -7.341003417968750000e-01 -3.604175746440887451e-01
-3.132055997848510742e-01 -5.185847878456115723e-01 -3.712698519229888916e-01
-2.991987168788909912e-01 -5.162911415100097656e-01 -3.674937784671783447e-01
-4.135560691356658936e-01 -7.941597700119018555e-01 -3.506684601306915283e-01
-3.428403437137603760e-01 -6.383775472640991211e-01 -3.674763143062591553e-01
-3.937081992626190186e-01 -7.142052054405212402e-01 -3.488855361938476562e-01
-3.685293495655059814e-01 -6.784189939498901367e-01 -3.665864467620849609e-01
-3.566851317882537842e-01 -6.150959134101867676e-01 -3.677771985530853271e-01
-4.085518121719360352e-01 -7.826770544052124023e-01 -3.467638492584228516e-01
-4.020439386367797852e-01 -7.598115801811218262e-01 -3.587524592876434326e-01
-3.651641309261322021e-01 -7.372257113456726074e-01 -3.572425842285156250e-01
-3.924705684185028076e-01 -7.423624992370605469e-01 -3.618656694889068604e-01
-3.374826312065124512e-01 -5.976923704147338867e-01 -3.699002265930175781e-01
-3.672187328338623047e-01 -7.165114879608154297e-01 -3.440345525741577148e-01
-3.279561996459960938e-01 -5.172726511955261230e-01 -3.688096106052398682e-01
-3.463797271251678467e-01 -6.052365899085998535e-01 -3.695295453071594238e-01
-3.703174591064453125e-01 -7.026710510253906250e-01 -3.431404232978820801e-01
-3.817102909088134766e-01 -7.167649269104003906e-01 -3.434008359909057617e-01
-3.627623617649078369e-01 -6.897287964820861816e-01 -3.435996472835540771e-01
-3.854444921016693115e-01 -7.909272909164428711e-01 -3.523567616939544678e-01
-2.993676662445068359e-01 -4.518153667449951172e-01 -3.700501918792724609e-01
-3.276278376579284668e-01 -5.474305748939514160e-01 -3.485512435436248779e-01
-3.338939547538757324e-01 -6.392018795013427734e-01 -3.493519425392150879e-01
-3.222038149833679199e-01 -6.122639775276184082e-01 -3.608567416667938232e-01
-3.381364643573760986e-01 -6.164107322692871094e-01 -3.687202632427215576e-01
-3.001935482025146484e-01 -4.618351757526397705e-01 -3.547684550285339355e-01
-3.007578253746032715e-01 -4.355400800704956055e-01 -3.624258935451507568e-01
-3.593241274356842041e-01 -7.184237241744995117e-01 -3.591633141040802002e-01
-3.530164659023284912e-01 -6.937510967254638672e-01 -3.470094501972198486e-01
-2.983157038688659668e-01 -5.028767585754394531e-01 -3.690254092216491699e-01
-3.840976059436798096e-01 -7.590777277946472168e-01 -3.610751032829284668e-01
-3.234153687953948975e-01 -5.927091240882873535e-01 -3.672009408473968506e-01
-3.070528507232666016e-01 -4.841895699501037598e-01 -3.527534008026123047e-01
-3.617357015609741211e-01 -6.341822743415832520e-01 -3.461445868015289307e-01
-4.036704599857330322e-01 -8.172433376312255859e-01 -3.458265960216522217e-01
-3.984860181808471680e-01 -7.301505804061889648e-01 -3.575385212898254395e-01
-2.842254340648651123e-01 -4.359160065650939941e-01 -3.582774698734283447e-01
-3.439002037048339844e-01 -5.627973675727844238e-01 -3.507855236530303955e-01
-3.692033290863037109e-01 -6.556369662284851074e-01 -3.458144068717956543e-01
-3.503424823284149170e-01 -5.912405848503112793e-01 -3.483621776103973389e-01
-4.063092172145843506e-01 -7.746934890747070312e-01 -3.572427630424499512e-01
-3.479755818843841553e-01 -6.942753791809082031e-01 -3.532235920429229736e-01
-3.454006910324096680e-01 -6.821042299270629883e-01 -3.503772616386413574e-01
-3.405218124389648438e-01 -5.565775632858276367e-01 -3.504673838615417480e-01
-3.147506117820739746e-01 -5.423448085784912109e-01 -3.703100681304931641e-01
-3.447412252426147461e-01 -5.590673685073852539e-01 -3.666598796844482422e-01
-3.321715891361236572e-01 -6.020974516868591309e-01 -3.466501533985137939e-01
-3.721500337123870850e-01 -7.468344569206237793e-01 -3.593926727771759033e-01
-3.417024910449981689e-01 -6.592296361923217773e-01 -3.478235304355621338e-01
-3.244435191154479980e-01 -5.535674095153808594e-01 -3.480619192123413086e-01
-3.489001989364624023e-01 -6.444212794303894043e-01 -3.679928481578826904e-01
-3.694082200527191162e-01 -6.643697023391723633e-01 -3.664403259754180908e-01
-3.956958353519439697e-01 -7.467578649520874023e-01 -3.446222245693206787e-01
-3.219801783561706543e-01 -4.836509227752685547e-01 -3.623034656047821045e-01
-3.673573136329650879e-01 -7.452468872070312500e-01 -3.557483553886413574e-01
-3.516255617141723633e-01 -6.967368721961975098e-01 -3.600800335407257080e-01
-3.512831926345825195e-01 -6.051082611083984375e-01 -3.467759490013122559e-01
-2.875549793243408203e-01 -4.158102869987487793e-01 -3.670278191566467285e-01
-2.937484681606292725e-01 -4.347552359104156494e-01 -3.691647648811340332e-01
-4.031373858451843262e-01 -7.992528676986694336e-01 -3.442679047584533691e-01
-3.998408913612365723e-01 -8.049371838569641113e-01 -3.565370440483093262e-01
-3.033061325550079346e-01 -5.461263656616210938e-01 -3.561383783817291260e-01
-2.879851162433624268e-01 -4.538927376270294189e-01 -3.564651906490325928e-01
-3.460997343063354492e-01 -5.680578351020812988e-01 -3.507879376411437988e-01
-3.274833858013153076e-01 -5.884693264961242676e-01 -3.691215813159942627e-01
-3.811599016189575195e-01 -7.587574720382690430e-01 -3.440695106983184814e-01
-2.966714203357696533e-01 -4.455186724662780762e-01 -3.567319214344024658e-01
-3.859719038009643555e-01 -6.777631640434265137e-01 -3.531538546085357666e-01
-3.969633281230926514e-01 -7.398811578750610352e-01 -3.459981083869934082e-01
-3.454417288303375244e-01 -5.489090681076049805e-01 -3.625790774822235107e-01
-2.771779298782348633e-01 -4.218205213546752930e-01 -3.649250864982604980e-01
-3.312868773937225342e-01 -5.231783390045166016e-01 -3.680981397628784180e-01
-3.981426060199737549e-01 -8.105537295341491699e-01 -3.462794423103332520e-01
-3.123840391635894775e-01 -5.016505122184753418e-01 -3.513927757740020752e-01
-3.043318092823028564e-01 -5.099170207977294922e-01 -3.516159057617187500e-01
-3.065128326416015625e-01 -5.289687514305114746e-01 -3.692181706428527832e-01
-3.130168020725250244e-01 -5.609053373336791992e-01 -3.508078157901763916e-01
-3.658206760883331299e-01 -6.849904060363769531e-01 -3.664137125015258789e-01
-3.536348640918731689e-01 -6.852568387985229492e-01 -3.455395698547363281e-01
-3.329660296440124512e-01 -5.596461296081542969e-01 -3.480663597583770752e-01
-3.438358902931213379e-01 -5.668804049491882324e-01 -3.682745397090911865e-01
-2.976562976837158203e-01 -4.290735423564910889e-01 -3.645420074462890625e-01
-3.092745244503021240e-01 -5.595623850822448730e-01 -3.653546571731567383e-01
-3.293615877628326416e-01 -5.404462814331054688e-01 -3.495225608348846436e-01
-3.176470100879669189e-01 -5.423032641410827637e-01 -3.489379584789276123e-01
-3.575395643711090088e-01 -5.857374072074890137e-01 -3.619005978107452393e-01
-4.004549980163574219e-01 -7.826074361801147461e-01 -3.591439425945281982e-01
-3.308509290218353271e-01 -5.066074132919311523e-01 -3.610116541385650635e-01
-3.035979568958282471e-01 -4.447349905967712402e-01 -3.668698668479919434e-01
-3.082040250301361084e-01 -5.519581437110900879e-01 -3.663588166236877441e-01
-3.807078003883361816e-01 -7.362455725669860840e-01 -3.429532945156097412e-01
-3.917970657348632812e-01 -7.078589200973510742e-01 -3.488042652606964111e-01
-3.756659328937530518e-01 -7.513766288757324219e-01 -3.450137674808502197e-01
-3.684919476509094238e-01 -6.367198824882507324e-01 -3.647954463958740234e-01
-3.761870265007019043e-01 -7.116599082946777344e-01 -3.430604338645935059e-01
-3.559711277484893799e-01 -6.699469685554504395e-01 -3.667327165603637695e-01
-2.801469266414642334e-01 -4.084892272949218750e-01 -3.633224368095397949e-01
-3.870608210563659668e-01 -7.199167013168334961e-01 -3.443506360054016113e-01
-3.263031542301177979e-01 -5.468964576721191406e-01 -3.710109889507293701e-01
-3.130387961864471436e-01 -4.727507531642913818e-01 -3.683999180793762207e-01
