3.432074785232543945e-01 -5.794584751129150391e-03 6.685504317283630371e-01
3.491207957267761230e-01 -1.865803599357604980e-01 6.932799816131591797e-01
3.090506196022033691e-01 -8.350808173418045044e-02 7.453939318656921387e-01
2.868788838386535645e-01 -3.275468945503234863e-03 7.305061221122741699e-01
2.926766276359558105e-01 -2.315253019332885742e-02 6.865361928939819336e-01
3.166029155254364014e-01 -8.302944898605346680e-02 7.454677224159240723e-01
3.174626827239990234e-01 -2.135128974914550781e-01 6.898533105850219727e-01
3.027963042259216309e-01 -4.906587675213813782e-02 6.707622408866882324e-01
3.368154764175415039e-01 -1.585324406623840332e-01 7.226834893226623535e-01
3.051314055919647217e-01 -1.127279251813888550e-01 6.661721467971801758e-01
3.306826353073120117e-01 -2.167408168315887451e-01 6.848650574684143066e-01
2.825814187526702881e-01 -7.051797956228256226e-02 7.132569551467895508e-01
3.110656738281250000e-01 3.486838191747665405e-02 7.438098192214965820e-01
3.318888843059539795e-01 6.604436784982681274e-02 7.231574654579162598e-01
2.935306429862976074e-01 4.407556354999542236e-02 7.204782366752624512e-01
3.046521246433258057e-01 5.901119858026504517e-02 7.334834337234497070e-01
3.562222421169281006e-01 -1.985386759042739868e-02 7.133938670158386230e-01
3.286472856998443604e-01 -1.753404736518859863e-01 6.600815057754516602e-01
3.432504534721374512e-01 4.105345904827117920e-02 7.204621434211730957e-01
3.501676917076110840e-01 -4.869900643825531006e-02 6.634382009506225586e-01
3.218956291675567627e-01 -1.660850793123245239e-01 6.603296399116516113e-01
3.573904037475585938e-01 -5.448877811431884766e-03 7.029544115066528320e-01
3.555262684822082520e-01 -7.211121171712875366e-02 7.177349328994750977e-01
3.133079111576080322e-01 1.969555020332336426e-02 6.769287586212158203e-01
3.508423864841461182e-01 -8.605825901031494141e-02 7.237312197685241699e-01
3.213965594768524170e-01 -1.925171017646789551e-01 6.674957275390625000e-01
2.851324379444122314e-01 -9.334944188594818115e-02 6.990766525268554688e-01
3.050324320793151855e-01 -7.423861324787139893e-02 6.666828393936157227e-01
2.871291637420654297e-01 -1.132343411445617676e-01 7.201415300369262695e-01
2.936682701110839844e-01 2.422229945659637451e-02 6.995129585266113281e-01
3.548060953617095947e-01 -1.319407820701599121e-01 6.641144752502441406e-01
2.956101298332214355e-01 -1.422642320394515991e-01 6.820516586303710938e-01
3.375438153743743896e-01 -1.244432330131530762e-01 6.540088057518005371e-01
3.177548348903656006e-01 -9.688843041658401489e-02 7.434973120689392090e-01
3.417320847511291504e-01 5.053200572729110718e-02 6.944817304611206055e-01
2.907220721244812012e-01 -2.579233050346374512e-02 7.397579550743103027e-01
3.201080858707427979e-01 -2.105458080768585205e-01 7.016364336013793945e-01
2.851196825504302979e-01 -1.088322848081588745e-01 7.108055353164672852e-01
3.052382469177246094e-01 -1.645901501178741455e-01 7.241405844688415527e-01
3.124259114265441895e-01 -1.995843350887298584e-01 6.790380477905273438e-01
2.882217168807983398e-01 -7.527775317430496216e-02 7.333220839500427246e-01
3.634907007217407227e-01 -7.692499458789825439e-02 6.889508962631225586e-01
3.129948675632476807e-01 -1.563513576984405518e-01 6.638549566268920898e-01
3.392287194728851318e-01 -7.536609470844268799e-02 6.555155515670776367e-01
3.151507675647735596e-01 2.183115482330322266e-02 7.459468841552734375e-01
2.892328500747680664e-01 5.534015595912933350e-03 7.013058066368103027e-01
3.431516587734222412e-01 4.922004789113998413e-02 7.143366336822509766e-01
3.268384039402008057e-01 2.526821941137313843e-02 7.417615652084350586e-01
3.173525929450988770e-01 -1.855457425117492676e-01 6.675482392311096191e-01
3.232650458812713623e-01 -1.802052259445190430e-01 6.627964973449707031e-01
3.175976574420928955e-01 -1.045141965150833130e-01 7.423362135887145996e-01
2.926208972930908203e-01 -1.499843895435333252e-01 7.140014171600341797e-01
2.883751690387725830e-01 2.151999622583389282e-02 7.193939685821533203e-01
3.245383501052856445e-01 1.160287857055664062e-02 6.706014871597290039e-01
3.056151270866394043e-01 6.226222962141036987e-02 7.027574777603149414e-01
3.161026239395141602e-01 -1.511976420879364014e-01 7.319504022598266602e-01
3.186497390270233154e-01 7.504724711179733276e-02 7.264721989631652832e-01
3.286384344100952148e-01 7.252912968397140503e-02 7.213083505630493164e-01
3.195458054542541504e-01 3.237906098365783691e-02 7.433953881263732910e-01
3.541857600212097168e-01 -1.501152515411376953e-01 6.664930582046508789e-01
3.426006436347961426e-01 -2.646893262863159180e-04 7.328333854675292969e-01
3.378106951713562012e-01 -6.442439556121826172e-02 7.384147644042968750e-01
3.175724744796752930e-01 4.255936294794082642e-02 6.829736828804016113e-01
3.177259266376495361e-01 -5.883413553237915039e-02 7.475635409355163574e-01
3.112543225288391113e-01 -1.805692017078399658e-01 6.710875630378723145e-01
3.502733111381530762e-01 -3.540208563208580017e-02 7.261993288993835449e-01
3.339065909385681152e-01 -1.980939507484436035e-01 6.670768260955810547e-01
3.287523388862609863e-01 -2.660627663135528564e-02 7.449642419815063477e-01
3.631588518619537354e-01 -6.517408043146133423e-02 6.925145983695983887e-01
3.538127243518829346e-01 -7.983795553445816040e-02 7.200465798377990723e-01
3.053019642829895020e-01 -2.117823064327239990e-02 6.726846098899841309e-01
2.908142805099487305e-01 1.968212425708770752e-03 7.373247742652893066e-01
3.516448140144348145e-01 7.725343108177185059e-03 6.816641092300415039e-01
2.884534001350402832e-01 -3.340266272425651550e-02 7.368685603141784668e-01
3.020967245101928711e-01 2.961597591638565063e-02 7.424020767211914062e-01
3.454711437225341797e-01 -8.141584694385528564e-02 7.304277420043945312e-01
3.011772036552429199e-01 -2.753016725182533264e-02 6.752789616584777832e-01
3.517922759056091309e-01 -9.032834321260452271e-03 6.747650504112243652e-01
3.494282066822052002e-01 -1.894128024578094482e-01 6.792179942131042480e-01
3.156417906284332275e-01 -1.763310730457305908e-01 6.660660505294799805e-01
3.465729355812072754e-01 3.336727619171142578e-03 6.736410856246948242e-01
3.163047134876251221e-01 7.699564844369888306e-02 7.066636681556701660e-01
2.876282036304473877e-01 -8.521564304828643799e-02 7.304654121398925781e-01
3.632262051105499268e-01 -9.927361458539962769e-02 6.847460269927978516e-01
2.843931615352630615e-01 -1.013009324669837952e-01 7.112799286842346191e-01
2.944397330284118652e-01 -1.640713363885879517e-01 7.016637325286865234e-01
3.094743192195892334e-01 7.274133712053298950e-02 7.263399362564086914e-01
3.606045842170715332e-01 -5.318993330001831055e-02 6.775054335594177246e-01
3.610373735427856445e-01 -1.315282732248306274e-01 6.887445449829101562e-01
3.463318347930908203e-01 1.965025067329406738e-02 7.237398028373718262e-01
3.095560073852539062e-01 -2.016007900238037109e-01 6.867985129356384277e-01
3.038192987442016602e-01 -6.158709526062011719e-02 6.686171293258666992e-01
3.347970545291900635e-01 -5.361823737621307373e-02 6.572465300559997559e-01
3.038953840732574463e-01 -1.285450607538223267e-01 6.683863997459411621e-01
2.931321263313293457e-01 -1.030181795358657837e-01 7.341853380203247070e-01
2.996791005134582520e-01 -1.474125087261199951e-01 6.763753294944763184e-01
3.108726143836975098e-01 -1.372588872909545898e-01 6.630154848098754883e-01
3.124502897262573242e-01 -1.101378574967384338e-01 6.604781150817871094e-01
3.309912681579589844e-01 -7.968919724225997925e-02 7.413725852966308594e-01
2.922362387180328369e-01 6.595551967620849609e-04 6.931481361389160156e-01
3.126213252544403076e-01 -1.594298183917999268e-01 7.290039658546447754e-01
2.830173671245574951e-01 -6.258976459503173828e-02 7.060085535049438477e-01
3.278531432151794434e-01 -8.683076500892639160e-02 7.420476078987121582e-01
3.464443087577819824e-01 -1.670133620500564575e-01 6.621688008308410645e-01
2.968176305294036865e-01 -3.952085971832275391e-03 6.849730610847473145e-01
3.035435676574707031e-01 -1.896539032459259033e-01 7.042524814605712891e-01
3.269980847835540771e-01 -2.124323248863220215e-01 6.766548156738281250e-01
3.548663854598999023e-01 -4.797745868563652039e-02 7.192905545234680176e-01
3.576742410659790039e-01 -5.804936587810516357e-02 7.138622999191284180e-01
3.631893396377563477e-01 -9.298671782016754150e-02 6.826610565185546875e-01
3.328557610511779785e-01 4.851285368204116821e-02 6.849482655525207520e-01
2.969221770763397217e-01 -1.695583462715148926e-01 6.921228766441345215e-01
2.972550392150878906e-01 -1.207426041364669800e-01 7.335879802703857422e-01
3.084388077259063721e-01 -1.600548923015594482e-01 6.684153079986572266e-01
2.982705235481262207e-01 -1.274401247501373291e-01 6.749892234802246094e-01
2.847501039505004883e-01 -2.079862728714942932e-02 7.277235388755798340e-01
3.460039794445037842e-01 2.604667097330093384e-02 6.829358935356140137e-01
3.413147628307342529e-01 5.550013482570648193e-02 7.125167846679687500e-01
3.268028199672698975e-01 6.927677243947982788e-02 6.971979737281799316e-01
3.179722428321838379e-01 -5.073998123407363892e-02 7.480043768882751465e-01
3.331313133239746094e-01 2.302534878253936768e-02 7.381115555763244629e-01
3.396041989326477051e-01 -2.048251330852508545e-01 6.743408441543579102e-01
3.131277263164520264e-01 -6.117774173617362976e-02 6.620184183120727539e-01
3.169918656349182129e-01 -1.831077337265014648e-01 7.200803756713867188e-01
2.830186188220977783e-01 -6.144061312079429626e-02 7.215951681137084961e-01
3.335539698600769043e-01 -1.009751111268997192e-01 7.373759746551513672e-01
3.586126565933227539e-01 -2.688910812139511108e-02 7.078543305397033691e-01
2.833108007907867432e-01 -2.616241201758384705e-02 7.120408415794372559e-01
2.851733267307281494e-01 -8.722440898418426514e-02 7.241272926330566406e-01
3.604840338230133057e-01 -4.667799174785614014e-02 6.790465116500854492e-01
3.239237964153289795e-01 -3.561579063534736633e-02 6.607923507690429688e-01
3.007247745990753174e-01 -1.277654618024826050e-02 6.784898638725280762e-01
2.923620343208312988e-01 -8.382426202297210693e-02 7.371993660926818848e-01
3.276442885398864746e-01 -1.366566121578216553e-01 7.335131764411926270e-01
3.395258486270904541e-01 -8.590377867221832275e-02 6.548307538032531738e-01
3.601205945014953613e-01 -1.403523981571197510e-01 6.874057054519653320e-01
3.579072952270507812e-01 -8.379340171813964844e-02 7.122320532798767090e-01
3.527715802192687988e-01 2.132363617420196533e-02 6.992805004119873047e-01
3.504932224750518799e-01 -1.566072106361389160e-01 7.084537148475646973e-01
2.893490195274353027e-01 -4.598575085401535034e-02 6.885756254196166992e-01
2.877924442291259766e-01 -5.769106373190879822e-02 7.348436713218688965e-01
2.856478691101074219e-01 -6.565071642398834229e-03 7.078931331634521484e-01
2.908504605293273926e-01 -1.432148739695549011e-02 7.393350005149841309e-01
2.893453836441040039e-01 1.222793012857437134e-02 7.320818305015563965e-01
3.522007465362548828e-01 -1.619570553302764893e-01 6.668629646301269531e-01
2.974091172218322754e-01 -2.542315050959587097e-02 7.454255223274230957e-01
2.948619127273559570e-01 7.690198719501495361e-03 6.909953951835632324e-01
2.913993000984191895e-01 -1.185126453638076782e-01 6.854759454727172852e-01
3.365053534507751465e-01 -1.774885803461074829e-01 6.604527831077575684e-01
2.896991372108459473e-01 -6.433454900979995728e-02 7.368820905685424805e-01
3.151738643646240234e-01 -9.990386664867401123e-02 6.588633060455322266e-01
3.429761826992034912e-01 -1.393162906169891357e-01 7.230024933815002441e-01
3.197068572044372559e-01 -1.598349213600158691e-01 6.602936387062072754e-01
3.446588516235351562e-01 -1.127558946609497070e-01 7.270235419273376465e-01
3.416469693183898926e-01 -2.048614025115966797e-01 6.911422014236450195e-01
2.904849350452423096e-01 -9.713873267173767090e-02 6.848565340042114258e-01
3.550349473953247070e-01 -1.135102361440658569e-01 7.133053541183471680e-01
2.944543659687042236e-01 -1.176356673240661621e-01 6.795881390571594238e-01
2.883750796318054199e-01 -2.381331473588943481e-02 6.942769885063171387e-01
2.828872799873352051e-01 -3.140565007925033569e-02 7.187976241111755371e-01
3.147880733013153076e-01 -6.781991571187973022e-02 6.605495214462280273e-01
3.589145839214324951e-01 -1.048587858676910400e-01 6.685001850128173828e-01
3.537099659442901611e-01 -1.104976609349250793e-02 7.175068259239196777e-01
3.392708897590637207e-01 -7.646626234054565430e-02 7.364016771316528320e-01
3.005446195602416992e-01 -1.598914265632629395e-01 6.783489584922790527e-01
3.624243438243865967e-01 -9.842818975448608398e-02 6.963095068931579590e-01
3.579801321029663086e-01 -4.286727681756019592e-02 7.124051451683044434e-01
3.269293010234832764e-01 4.644614458084106445e-02 6.828354597091674805e-01
3.119380176067352295e-01 -5.366063863039016724e-02 7.483562827110290527e-01
2.951839566230773926e-01 -1.542750895023345947e-01 6.872552037239074707e-01
3.349368274211883545e-01 -3.767475485801696777e-03 6.664083003997802734e-01
3.526366353034973145e-01 -3.009456396102905273e-02 7.222206592559814453e-01
3.143568038940429688e-01 -1.412465274333953857e-01 7.347053289413452148e-01
2.893221080303192139e-01 -5.941615998744964600e-02 6.873100399971008301e-01
3.148530423641204834e-01 -1.979656517505645752e-01 7.108888030052185059e-01
3.336524069309234619e-01 -1.189796254038810730e-01 6.536811590194702148e-01
3.084848821163177490e-01 -9.705583751201629639e-02 6.631855368614196777e-01
3.503178954124450684e-01 -2.642958611249923706e-02 6.681028604507446289e-01
3.269973993301391602e-01 -1.532381772994995117e-01 6.567673683166503906e-01
3.153166174888610840e-01 -4.424577951431274414e-02 6.627334356307983398e-01
3.056641817092895508e-01 2.251253277063369751e-02 7.451384067535400391e-01
3.232463896274566650e-01 -1.054264307022094727e-01 6.553738713264465332e-01
2.842716574668884277e-01 -5.201137810945510864e-02 7.007474899291992188e-01
3.419875204563140869e-01 -1.790178939700126648e-02 6.649333238601684570e-01
2.935486137866973877e-01 4.143320024013519287e-02 7.122828364372253418e-01
3.009623885154724121e-01 6.217140704393386841e-02 7.126429080963134766e-01
3.190653026103973389e-01 -2.909300476312637329e-02 7.483980059623718262e-01
3.613409698009490967e-01 -4.863829165697097778e-02 7.019593119621276855e-01
2.991270124912261963e-01 -8.639676868915557861e-02 7.419034242630004883e-01
2.994801104068756104e-01 7.657632231712341309e-03 6.848410964012145996e-01
2.847270965576171875e-01 -7.037509232759475708e-03 7.222172021865844727e-01
2.924456298351287842e-01 -1.467102766036987305e-01 6.916617751121520996e-01
2.971495687961578369e-01 -9.403554350137710571e-02 7.394535541534423828e-01
2.889444530010223389e-01 -1.299837529659271240e-01 7.165220379829406738e-01
2.873161733150482178e-01 -4.883933812379837036e-02 7.347046136856079102e-01
3.010352253913879395e-01 -8.773958683013916016e-02 6.699005365371704102e-01
3.463249504566192627e-01 -1.933597624301910400e-01 6.740655303001403809e-01
3.062340915203094482e-01 7.202193886041641235e-02 7.146690487861633301e-01
3.179677128791809082e-01 -7.381304353475570679e-02 6.585855484008789062e-01
3.373326659202575684e-01 6.442122906446456909e-02 7.046871781349182129e-01
3.417648673057556152e-01 3.059087693691253662e-02 7.273651361465454102e-01
3.154510557651519775e-01 6.809822469949722290e-02 6.979918479919433594e-01
2.944290935993194580e-01 -7.491461932659149170e-02 6.781850457191467285e-01
2.906132340431213379e-01 -1.467677503824234009e-01 7.034593224525451660e-01
3.516766130924224854e-01 -1.059659570455551147e-01 6.596205830574035645e-01
2.941927015781402588e-01 1.390799134969711304e-02 7.394258379936218262e-01
3.492546081542968750e-01 -5.731172859668731689e-02 7.276799082756042480e-01
3.328205347061157227e-01 -7.208213210105895996e-02 7.410885095596313477e-01
3.562568724155426025e-01 -1.330764591693878174e-01 7.059230804443359375e-01
3.430689573287963867e-01 3.807935863733291626e-02 6.864431500434875488e-01
3.255789279937744141e-01 -1.505720615386962891e-02 6.640756726264953613e-01
3.279828727245330811e-01 -4.650259017944335938e-02 7.450714111328125000e-01
3.429855704307556152e-01 3.232911229133605957e-02 6.829550266265869141e-01
2.962828278541564941e-01 -6.796561181545257568e-02 6.760686635971069336e-01
3.009667396545410156e-01 5.379537492990493774e-02 7.034673094749450684e-01
3.492439091205596924e-01 -1.096809953451156616e-01 7.225045561790466309e-01
3.507778644561767578e-01 2.943141758441925049e-02 7.011326551437377930e-01
3.036452829837799072e-01 2.116411924362182617e-04 6.786174178123474121e-01
3.480549156665802002e-01 -1.766929626464843750e-01 6.667149066925048828e-01
3.206398785114288330e-01 -2.144775688648223877e-01 6.957228779792785645e-01
3.427343368530273438e-01 -1.171210035681724548e-01 6.549156308174133301e-01
2.979149818420410156e-01 -1.764252334833145142e-01 6.988781094551086426e-01
3.417445421218872070e-01 -1.540023982524871826e-01 7.200551629066467285e-01
2.980839312076568604e-01 -1.626933962106704712e-01 6.841076612472534180e-01
3.201471567153930664e-01 5.488090962171554565e-02 6.878305077552795410e-01
3.104329109191894531e-01 -7.653411477804183960e-03 7.487726211547851562e-01
3.241831958293914795e-01 -1.603480130434036255e-01 7.281540632247924805e-01
2.838993072509765625e-01 -9.115524590015411377e-02 7.056055665016174316e-01
3.036543428897857666e-01 -3.915313631296157837e-02 7.479084730148315430e-01
2.917393445968627930e-01 -4.362943768501281738e-02 7.407184243202209473e-01
3.617803454399108887e-01 -1.098104268312454224e-01 6.963459253311157227e-01
3.183994889259338379e-01 -1.988206058740615845e-02 6.651802062988281250e-01
3.474471867084503174e-01 -8.461575955152511597e-03 7.278686761856079102e-01
3.435015976428985596e-01 -8.818773925304412842e-02 7.316380143165588379e-01
2.855515182018280029e-01 -3.502048552036285400e-02 6.991053223609924316e-01
3.492898941040039062e-01 -7.473413646221160889e-02 7.267272472381591797e-01
3.436717391014099121e-01 1.175060868263244629e-02 6.744227409362792969e-01
3.150291740894317627e-01 -1.422550082206726074e-01 6.606615185737609863e-01
3.422319591045379639e-01 -1.043910011649131775e-01 6.547623276710510254e-01
3.570157885551452637e-01 -1.156518608331680298e-01 6.657515168190002441e-01
3.016180694103240967e-01 4.374942928552627563e-02 6.961287260055541992e-01
3.487033843994140625e-01 3.245049715042114258e-02 7.116411328315734863e-01
3.455006182193756104e-01 -1.824525296688079834e-01 7.040079832077026367e-01
3.402276039123535156e-01 -3.232808411121368408e-02 6.613738536834716797e-01
3.497967422008514404e-01 -3.644200414419174194e-02 6.654261946678161621e-01
3.531161248683929443e-01 1.802375912666320801e-02 7.054201364517211914e-01
2.981302440166473389e-01 -1.685596853494644165e-01 7.134935855865478516e-01
3.372360765933990479e-01 -1.730960160493850708e-01 7.172806859016418457e-01
3.557434082031250000e-01 -8.944573998451232910e-02 6.640685796737670898e-01
2.865124046802520752e-01 -1.180196851491928101e-01 7.020572423934936523e-01
2.855289876461029053e-01 -1.012356877326965332e-01 6.993347406387329102e-01
2.915126681327819824e-01 -1.363239288330078125e-01 6.898262500762939453e-01
3.496036231517791748e-01 -1.739145964384078979e-01 7.018316388130187988e-01
3.402824997901916504e-01 -4.067286849021911621e-02 6.599482893943786621e-01
2.911921739578247070e-01 -1.403889209032058716e-01 7.168462872505187988e-01
3.135970532894134521e-01 6.917604058980941772e-02 7.313742041587829590e-01
2.826119661331176758e-01 -4.895708337426185608e-02 7.198653817176818848e-01
2.955073416233062744e-01 -1.313249915838241577e-01 6.798334717750549316e-01
3.110185265541076660e-01 7.281667739152908325e-02 7.061017751693725586e-01
3.375818729400634766e-01 -2.670847252011299133e-02 7.393777966499328613e-01
2.966841161251068115e-01 -1.506479382514953613e-01 7.221539020538330078e-01
2.978705167770385742e-01 5.608277767896652222e-02 7.235941290855407715e-01
3.516948521137237549e-01 -9.377575665712356567e-02 7.216838002204895020e-01
3.604425787925720215e-01 -2.548921853303909302e-02 6.922671198844909668e-01
3.079460561275482178e-01 -1.888005733489990234e-01 6.788043975830078125e-01
2.836673259735107422e-01 -1.768745481967926025e-02 7.194783091545104980e-01
3.601347804069519043e-01 -1.074540019035339355e-01 7.031068801879882812e-01
3.623084425926208496e-01 -1.019021123647689819e-01 6.779142618179321289e-01
3.410243391990661621e-01 -1.593632251024246216e-01 6.578806638717651367e-01
3.065781295299530029e-01 5.168277770280838013e-02 7.380878329277038574e-01
3.183451294898986816e-01 -2.019515931606292725e-01 6.739831566810607910e-01
3.622004985809326172e-01 -4.494619369506835938e-02 6.916680932044982910e-01
3.259179294109344482e-01 3.976095467805862427e-02 7.392954230308532715e-01
2.835524976253509521e-01 -8.878119289875030518e-02 7.147257924079895020e-01
3.251947164535522461e-01 7.668390125036239624e-02 7.056970000267028809e-01
3.364890217781066895e-01 6.123875826597213745e-02 7.194998264312744141e-01
2.927288711071014404e-01 -1.422280818223953247e-02 6.883515119552612305e-01
3.416176438331604004e-01 -1.985887587070465088e-01 6.986599564552307129e-01
3.329920470714569092e-01 6.006232649087905884e-02 7.259918451309204102e-01
2.884307205677032471e-01 -5.326516553759574890e-02 6.895910501480102539e-01
3.367490470409393311e-01 5.104594677686691284e-02 7.260696291923522949e-01
3.423469066619873047e-01 -1.927940547466278076e-01 7.020974755287170410e-01
3.081429302692413330e-01 -1.229469329118728638e-01 7.383664250373840332e-01
3.324547111988067627e-01 -3.836669027805328369e-02 6.593156456947326660e-01
3.491126894950866699e-01 -6.578907370567321777e-02 6.602982282638549805e-01
3.477578163146972656e-01 -1.451032757759094238e-01 6.590790152549743652e-01
2.954693734645843506e-01 5.018161982297897339e-02 7.174649238586425781e-01
3.330857753753662109e-01 1.465459913015365601e-02 6.712852716445922852e-01
3.090607225894927979e-01 -1.021895185112953186e-02 6.720070242881774902e-01
3.242784440517425537e-01 -2.417969703674316406e-02 6.626021265983581543e-01
2.849492132663726807e-01 -3.208816051483154297e-03 7.160108089447021484e-01
3.533872961997985840e-01 -1.461295783519744873e-01 7.073206901550292969e-01
3.089520335197448730e-01 -5.493567511439323425e-02 6.652362346649169922e-01
3.564616441726684570e-01 -1.556098014116287231e-01 6.951204538345336914e-01
2.842069566249847412e-01 -1.659155637025833130e-02 7.104095220565795898e-01
3.092709779739379883e-01 -2.016691267490386963e-01 7.007156610488891602e-01
3.607911467552185059e-01 -6.600996851921081543e-02 7.056643366813659668e-01
3.241065144538879395e-01 6.496184319257736206e-02 7.311915755271911621e-01
3.106588423252105713e-01 -1.438314095139503479e-02 7.490325570106506348e-01
3.576599955558776855e-01 -1.575976014137268066e-01 6.846943497657775879e-01
3.342969715595245361e-01 -1.430254876613616943e-01 7.287042140960693359e-01
2.977422773838043213e-01 4.779481142759323120e-02 7.053231000900268555e-01
3.390372991561889648e-01 2.845869213342666626e-02 6.781611442565917969e-01
3.408568501472473145e-01 5.808853358030319214e-02 7.060725688934326172e-01
3.616403639316558838e-01 -7.324091345071792603e-02 6.765385270118713379e-01
2.892069816589355469e-01 -7.906220108270645142e-02 6.867983937263488770e-01
3.141358196735382080e-01 5.624070763587951660e-02 7.378647923469543457e-01
2.941652834415435791e-01 -8.153821527957916260e-02 6.783838868141174316e-01
3.391982316970825195e-01 5.814702063798904419e-02 6.982709765434265137e-01
3.110735118389129639e-01 5.443807691335678101e-02 6.921248435974121094e-01
3.051859140396118164e-01 -1.469817161560058594e-01 7.307944893836975098e-01
3.066638410091400146e-01 -1.799281239509582520e-01 7.173960804939270020e-01
2.859176695346832275e-01 -1.094751805067062378e-01 7.005422711372375488e-01
3.463509082794189453e-01 -1.028073877096176147e-01 7.269060611724853516e-01
2.901388406753540039e-01 -9.392631053924560547e-02 7.325878143310546875e-01
3.277449011802673340e-01 5.376708507537841797e-02 6.865888833999633789e-01
3.459357917308807373e-01 4.528446495532989502e-02 7.023542523384094238e-01
2.831482291221618652e-01 -3.693172335624694824e-02 7.229022979736328125e-01
3.224606812000274658e-01 6.386069208383560181e-02 6.926649808883666992e-01
3.087760806083679199e-01 -3.300539031624794006e-02 6.681310534477233887e-01
3.585030138492584229e-01 -1.151288300752639771e-02 6.909936070442199707e-01
3.089717626571655273e-01 -1.469328701496124268e-01 6.656823754310607910e-01
3.073468804359436035e-01 -8.761219680309295654e-02 6.642361283302307129e-01
3.185320794582366943e-01 4.067863523960113525e-02 7.418986558914184570e-01
3.179761469364166260e-01 -9.311497211456298828e-02 6.576200127601623535e-01
3.049907088279724121e-01 1.441641896963119507e-02 7.461035251617431641e-01
3.139565587043762207e-01 -2.035302817821502686e-01 7.054846286773681641e-01
3.247171640396118164e-01 -5.645959451794624329e-02 7.459189891815185547e-01
3.035385906696319580e-01 -6.216247007250785828e-02 7.465302944183349609e-01
3.195748329162597656e-01 -1.201998144388198853e-01 6.569019556045532227e-01
2.929455935955047607e-01 -4.516500607132911682e-02 6.826569437980651855e-01
3.598690032958984375e-01 -1.334767043590545654e-01 6.751605868339538574e-01
2.957683801651000977e-01 4.107342660427093506e-02 7.048146128654479980e-01
3.628105521202087402e-01 -8.187923580408096313e-02 6.802529692649841309e-01
2.917780578136444092e-01 1.980849355459213257e-02 7.345294356346130371e-01
3.273339569568634033e-01 9.971782565116882324e-03 7.436060905456542969e-01
3.266171514987945557e-01 -1.885837316513061523e-01 7.164484262466430664e-01
3.409894108772277832e-01 -2.089596167206764221e-02 7.362506985664367676e-01
3.402472138404846191e-01 -1.887297332286834717e-01 7.072758078575134277e-01
3.558779954910278320e-01 9.763017296791076660e-04 7.064723968505859375e-01
3.223091661930084229e-01 -6.681198626756668091e-02 7.459608912467956543e-01
3.565486073493957520e-01 -1.457069218158721924e-01 7.003793716430664062e-01
3.051472306251525879e-01 -1.020207703113555908e-01 7.418036460876464844e-01
3.100845515727996826e-01 7.634982466697692871e-04 7.482632398605346680e-01
2.982087433338165283e-01 -6.832831352949142456e-02 7.437202334403991699e-01
3.560045659542083740e-01 -1.660692691802978516e-01 6.852815747261047363e-01
3.340924680233001709e-01 2.495565265417098999e-02 6.749266982078552246e-01
2.978511154651641846e-01 3.747221082448959351e-02 6.984714269638061523e-01
2.938703894615173340e-01 -5.408434569835662842e-02 6.803489327430725098e-01
3.202168047428131104e-01 1.615209132432937622e-02 7.456951737403869629e-01
3.603955805301666260e-01 -3.963522613048553467e-02 7.042251229286193848e-01
3.214077055454254150e-01 -8.912849426269531250e-02 7.438808679580688477e-01
2.990085780620574951e-01 -9.404999762773513794e-02 6.720700263977050781e-01
3.585979640483856201e-01 -1.155230402946472168e-02 6.994035840034484863e-01
3.595705032348632812e-01 -7.282324880361557007e-02 7.090886831283569336e-01
3.558208346366882324e-01 -3.954172134399414062e-04 6.871752738952636719e-01
3.054086565971374512e-01 -1.751468181610107422e-01 6.762039661407470703e-01
3.236615955829620361e-01 -1.748139262199401855e-01 7.232002615928649902e-01
3.372399806976318359e-01 3.147032856941223145e-02 7.325924038887023926e-01
3.473846614360809326e-01 3.624548017978668213e-02 6.929631829261779785e-01
3.288527727127075195e-01 3.249971568584442139e-02 7.392434477806091309e-01
3.511422276496887207e-01 -5.638315528631210327e-02 6.629900932312011719e-01
3.241024017333984375e-01 -7.127688080072402954e-02 6.566282510757446289e-01
3.474476635456085205e-01 -1.318833529949188232e-01 7.201164364814758301e-01
3.480224311351776123e-01 -1.932440698146820068e-01 6.875861287117004395e-01
3.118477463722229004e-01 -4.207796975970268250e-02 7.489183545112609863e-01
2.826495766639709473e-01 -4.307901486754417419e-02 7.110863327980041504e-01
3.227886855602264404e-01 -7.871536165475845337e-02 7.447231411933898926e-01
3.575990200042724609e-01 -1.394644528627395630e-01 6.702505350112915039e-01
3.542655110359191895e-01 -1.233950182795524597e-01 6.626374721527099609e-01
2.876414358615875244e-01 -1.292805373668670654e-01 7.059837579727172852e-01
3.605687320232391357e-01 -4.035777226090431213e-02 6.816664934158325195e-01
3.140309453010559082e-01 7.912643998861312866e-02 7.145162224769592285e-01
2.909910976886749268e-01 3.422489762306213379e-02 7.183616757392883301e-01
3.033953309059143066e-01 5.095691233873367310e-02 6.978280544281005859e-01
3.477359116077423096e-01 -1.499678492546081543e-01 7.147642970085144043e-01
3.592309951782226562e-01 -1.346941590309143066e-01 6.969607472419738770e-01
3.515368103981018066e-01 -1.839229911565780640e-01 6.828750967979431152e-01
3.398119211196899414e-01 -5.804492160677909851e-02 6.573826074600219727e-01
2.854609787464141846e-01 -3.213284909725189209e-02 7.310901284217834473e-01
3.627039790153503418e-01 -5.308066308498382568e-02 6.915245056152343750e-01
2.911717891693115234e-01 -8.900081366300582886e-02 6.832016110420227051e-01
3.308663964271545410e-01 7.390353828668594360e-02 7.128615975379943848e-01
3.588933646678924561e-01 -1.195932254195213318e-01 7.035541534423828125e-01
3.391910195350646973e-01 -1.049326211214065552e-01 7.330394983291625977e-01
2.972930073738098145e-01 -1.424227952957153320e-01 7.265261411666870117e-01
3.148413598537445068e-01 -1.767957061529159546e-01 7.226520776748657227e-01
2.943291664123535156e-01 -9.209458529949188232e-02 6.781473755836486816e-01
2.920634746551513672e-01 -1.166262775659561157e-01 7.291938066482543945e-01
3.582166433334350586e-01 -5.690863355994224548e-02 6.713196635246276855e-01
3.537284731864929199e-01 -1.723466813564300537e-01 6.915605664253234863e-01
3.290185630321502686e-01 -1.371393203735351562e-01 6.548717021942138672e-01
3.513777852058410645e-01 2.365122735500335693e-02 6.927341222763061523e-01
3.366928398609161377e-01 -9.030979126691818237e-03 7.392444610595703125e-01
3.624129295349121094e-01 -1.170203387737274170e-01 6.861438751220703125e-01
3.361687660217285156e-01 3.940563648939132690e-02 6.816813349723815918e-01
3.339636921882629395e-01 -1.053867191076278687e-01 6.536419987678527832e-01
3.475990891456604004e-01 -2.070069685578346252e-02 7.289350628852844238e-01
3.348373472690582275e-01 -1.542785167694091797e-01 6.560996770858764648e-01
3.505564033985137939e-01 6.312727928161621094e-03 7.198295593261718750e-01
3.225564658641815186e-01 -1.467740535736083984e-02 7.472581267356872559e-01
3.413784503936767578e-01 9.755015373229980469e-03 7.327173948287963867e-01
3.110836744308471680e-01 -1.228676959872245789e-01 6.618155241012573242e-01
3.017827570438385010e-01 -1.369718611240386963e-01 6.717076897621154785e-01
3.592789769172668457e-01 -9.234412014484405518e-02 6.692510843276977539e-01
3.224563300609588623e-01 1.665391027927398682e-03 6.684619188308715820e-01
3.358030319213867188e-01 5.288035422563552856e-02 6.891754865646362305e-01
2.873374819755554199e-01 6.890147924423217773e-03 7.081872224807739258e-01
3.508216738700866699e-01 2.555117756128311157e-02 7.094331979751586914e-01
3.548727929592132568e-01 7.535606622695922852e-03 7.063990235328674316e-01
3.616503477096557617e-01 -3.781617432832717896e-02 6.931102275848388672e-01
2.985283136367797852e-01 -1.358706206083297729e-01 7.300969958305358887e-01
3.056323528289794922e-01 -7.242169231176376343e-02 7.460963726043701172e-01
3.596438467502593994e-01 -1.422416865825653076e-01 6.789946556091308594e-01
2.927491962909698486e-01 3.276228904724121094e-02 7.068052291870117188e-01
2.939734756946563721e-01 4.192115366458892822e-02 7.274476885795593262e-01
3.180724382400512695e-01 5.979709327220916748e-03 7.472600936889648438e-01
3.630472123622894287e-01 -9.168718755245208740e-02 6.938439607620239258e-01
3.466325998306274414e-01 1.806972175836563110e-02 6.796404719352722168e-01
3.244571685791015625e-01 -3.694829344749450684e-02 7.467543482780456543e-01
3.065981864929199219e-01 3.401996195316314697e-02 6.864451766014099121e-01
3.554390966892242432e-01 -1.623647809028625488e-01 6.939222812652587891e-01
3.404286205768585205e-01 -4.223706573247909546e-02 7.371590137481689453e-01
3.577718436717987061e-01 -1.485992074012756348e-01 6.740152835845947266e-01
3.560387790203094482e-01 -1.618767380714416504e-01 6.758482456207275391e-01
3.453808128833770752e-01 -1.354611217975616455e-01 6.567755341529846191e-01
3.322861194610595703e-01 -1.864649355411529541e-01 6.625944375991821289e-01
3.262591958045959473e-01 -1.216337680816650391e-01 6.546983122825622559e-01
2.996072173118591309e-01 -4.597004503011703491e-02 7.461417317390441895e-01
2.955397367477416992e-01 -3.718804419040679932e-01 6.998459696769714355e-01
3.024215400218963623e-01 -4.877671003341674805e-01 6.584538221359252930e-01
3.009665310382843018e-01 -3.398405611515045166e-01 6.694791316986083984e-01
3.450554311275482178e-01 -4.592365920543670654e-01 6.497794985771179199e-01
3.476293385028839111e-01 -4.870993793010711670e-01 6.535232663154602051e-01
3.028242588043212891e-01 -5.590859055519104004e-01 6.656036972999572754e-01
3.104399144649505615e-01 -2.735152542591094971e-01 6.829224228858947754e-01
3.593504428863525391e-01 -4.099190235137939453e-01 6.656777858734130859e-01
3.137359023094177246e-01 -4.020148217678070068e-01 6.497738957405090332e-01
3.167265951633453369e-01 -6.403701305389404297e-01 6.957234740257263184e-01
3.335651755332946777e-01 -6.046319603919982910e-01 6.662502884864807129e-01
2.943860590457916260e-01 -3.799777030944824219e-01 6.989288330078125000e-01
3.221283853054046631e-01 -5.573564171791076660e-01 7.184220552444458008e-01
2.908229529857635498e-01 -4.195977449417114258e-01 6.806664466857910156e-01
3.425374329090118408e-01 -3.317491710186004639e-01 7.077040672302246094e-01
3.576158285140991211e-01 -4.804158806800842285e-01 6.938782930374145508e-01
3.607158362865447998e-01 -3.836722970008850098e-01 6.734926700592041016e-01
2.957241833209991455e-01 -5.380532145500183105e-01 7.072607874870300293e-01
3.582901954650878906e-01 -4.185249507427215576e-01 6.953703761100769043e-01
3.523034155368804932e-01 -4.122694134712219238e-01 6.542575955390930176e-01
2.933255136013031006e-01 -3.755726814270019531e-01 6.824384331703186035e-01
3.035396933555603027e-01 -5.508054494857788086e-01 7.143319845199584961e-01
2.891437709331512451e-01 -4.913888573646545410e-01 6.904811859130859375e-01
3.397331833839416504e-01 -2.563368678092956543e-01 6.865196228027343750e-01
3.327008187770843506e-01 -5.382105112075805664e-01 6.521231532096862793e-01
3.513371944427490234e-01 -3.207335174083709717e-01 6.611921787261962891e-01
3.172499537467956543e-01 -4.884256720542907715e-01 7.229427695274353027e-01
3.294550180435180664e-01 -6.203460097312927246e-01 6.701193451881408691e-01
2.897748351097106934e-01 -4.283701181411743164e-01 6.864018440246582031e-01
3.522871434688568115e-01 -3.934972584247589111e-01 6.545736789703369141e-01
3.004345297813415527e-01 -4.911844432353973389e-01 7.159756422042846680e-01
3.150111436843872070e-01 -5.478606820106506348e-01 6.552816033363342285e-01
3.142690956592559814e-01 -2.807656526565551758e-01 6.985891461372375488e-01
3.583393394947052002e-01 -3.574413657188415527e-01 6.681539416313171387e-01
3.614714145660400391e-01 -4.016735851764678955e-01 6.780931353569030762e-01
3.513227701187133789e-01 -4.041669368743896484e-01 7.065272331237792969e-01
3.422324657440185547e-01 -3.978484869003295898e-01 7.145609259605407715e-01
3.504515588283538818e-01 -3.074495792388916016e-01 6.937723159790039062e-01
3.187171518802642822e-01 -3.569760322570800781e-01 7.171205878257751465e-01
3.463157415390014648e-01 -3.569205105304718018e-01 7.079493999481201172e-01
2.961326539516448975e-01 -4.014934599399566650e-01 6.679310202598571777e-01
3.294327855110168457e-01 -2.581502199172973633e-01 6.946270465850830078e-01
2.934834957122802734e-01 -4.981321990489959717e-01 7.071301341056823730e-01
3.418635427951812744e-01 -4.265877902507781982e-01 7.159551978111267090e-01
3.279916644096374512e-01 -6.405391693115234375e-01 6.842100024223327637e-01
2.914844751358032227e-01 -4.001173675060272217e-01 6.933576464653015137e-01
3.420785367488861084e-01 -3.048093914985656738e-01 7.030636072158813477e-01
3.221734464168548584e-01 -3.675534129142761230e-01 7.185932993888854980e-01
3.565263748168945312e-01 -4.670683741569519043e-01 6.625071167945861816e-01
3.033057749271392822e-01 -3.096611201763153076e-01 6.752332448959350586e-01
3.079516291618347168e-01 -4.785155653953552246e-01 7.208073735237121582e-01
3.066857755184173584e-01 -3.021150231361389160e-01 6.981153488159179688e-01
3.393101990222930908e-01 -5.317536592483520508e-01 6.534408330917358398e-01
3.477144539356231689e-01 -4.269319474697113037e-01 6.504337191581726074e-01
3.456477820873260498e-01 -5.406892895698547363e-01 7.067652344703674316e-01
2.954058647155761719e-01 -5.087248682975769043e-01 6.689864397048950195e-01
2.955783009529113770e-01 -5.764295458793640137e-01 6.849292516708374023e-01
3.096709847450256348e-01 -2.791099548339843750e-01 6.900638341903686523e-01
3.234436213970184326e-01 -4.423712193965911865e-01 6.458230018615722656e-01
3.105759918689727783e-01 -5.873374342918395996e-01 6.643487811088562012e-01
3.208674490451812744e-01 -5.671954751014709473e-01 6.562924981117248535e-01
3.203832805156707764e-01 -4.746345877647399902e-01 6.474212408065795898e-01
3.481164276599884033e-01 -4.179188013076782227e-01 6.506416797637939453e-01
3.614512681961059570e-01 -4.315960705280303955e-01 6.760968565940856934e-01
3.130966722965240479e-01 -5.354667305946350098e-01 7.200474739074707031e-01
3.529677689075469971e-01 -5.509358048439025879e-01 6.877968311309814453e-01
2.980037331581115723e-01 -4.672414064407348633e-01 6.627583503723144531e-01
3.596902191638946533e-01 -3.799795806407928467e-01 6.879564523696899414e-01
2.955230772495269775e-01 -4.581205546855926514e-01 7.106248736381530762e-01
3.359763324260711670e-01 -3.916179537773132324e-01 6.460053324699401855e-01
3.101491034030914307e-01 -4.081063866615295410e-01 6.517343521118164062e-01
3.524574935436248779e-01 -4.532358348369598389e-01 7.056859135627746582e-01
3.553743958473205566e-01 -3.842986226081848145e-01 6.993045806884765625e-01
2.933050692081451416e-01 -4.169170260429382324e-01 6.724873185157775879e-01
3.553563356399536133e-01 -5.228368043899536133e-01 6.913613677024841309e-01
2.894223332405090332e-01 -4.611081480979919434e-01 6.832067370414733887e-01
3.214700520038604736e-01 -3.115706443786621094e-01 6.545708179473876953e-01
3.086558580398559570e-01 -4.188173711299896240e-01 6.524520516395568848e-01
2.954548299312591553e-01 -5.390994548797607422e-01 6.730071902275085449e-01
3.215975463390350342e-01 -5.401536226272583008e-01 7.201949954032897949e-01
3.505880236625671387e-01 -5.055926442146301270e-01 7.048786878585815430e-01
3.550634682178497314e-01 -4.360864162445068359e-01 7.019693255424499512e-01
3.391760289669036865e-01 -5.593112111091613770e-01 6.578933000564575195e-01
2.985408306121826172e-01 -5.278487801551818848e-01 7.121887207031250000e-01
3.514167964458465576e-01 -3.968195319175720215e-01 7.060157060623168945e-01
2.919939458370208740e-01 -4.060499370098114014e-01 6.782280802726745605e-01
3.301814198493957520e-01 -3.050416707992553711e-01 6.535552144050598145e-01
3.339828848838806152e-01 -5.552816390991210938e-01 7.147071361541748047e-01
3.536876142024993896e-01 -3.342154026031494141e-01 6.948683261871337891e-01
2.959767580032348633e-01 -5.624285340309143066e-01 7.029821872711181641e-01
3.380303084850311279e-01 -2.503381669521331787e-01 6.822257041931152344e-01
3.385631442070007324e-01 -6.127204895019531250e-01 6.748118996620178223e-01
3.466163873672485352e-01 -5.136018395423889160e-01 7.091076374053955078e-01
3.306407332420349121e-01 -3.449102342128753662e-01 6.484605073928833008e-01
3.057093918323516846e-01 -3.928287625312805176e-01 6.560322642326354980e-01
3.051547110080718994e-01 -4.258358776569366455e-01 7.181540727615356445e-01
2.979250848293304443e-01 -4.466341733932495117e-01 6.627296209335327148e-01
3.056589961051940918e-01 -2.972494363784790039e-01 6.755772233009338379e-01
2.922933697700500488e-01 -4.672016799449920654e-01 6.728288531303405762e-01
3.100770711898803711e-01 -4.914985895156860352e-01 7.214131355285644531e-01
3.173409104347229004e-01 -3.618823885917663574e-01 6.503324508666992188e-01
3.596358299255371094e-01 -4.649100303649902344e-01 6.890509724617004395e-01
3.321996033191680908e-01 -4.357288479804992676e-01 6.451756358146667480e-01
3.102180361747741699e-01 -6.115356087684631348e-01 6.713165640830993652e-01
3.177276551723480225e-01 -4.292602539062500000e-01 7.225292325019836426e-01
3.514440953731536865e-01 -3.458288013935089111e-01 6.572214961051940918e-01
3.610586225986480713e-01 -3.922329545021057129e-01 6.742905378341674805e-01
3.208174109458923340e-01 -3.393988013267517090e-01 6.510146856307983398e-01
3.332867026329040527e-01 -5.348049402236938477e-01 7.173529863357543945e-01
3.118100762367248535e-01 -5.752574205398559570e-01 6.611190438270568848e-01
3.290796279907226562e-01 -5.791764855384826660e-01 6.582133769989013672e-01
3.512836694717407227e-01 -4.789453148841857910e-01 7.061858773231506348e-01
3.171840906143188477e-01 -5.896955132484436035e-01 6.615226864814758301e-01
3.501611053943634033e-01 -2.840288281440734863e-01 6.821374893188476562e-01
3.361144661903381348e-01 -5.522260665893554688e-01 6.551604270935058594e-01
3.052898645401000977e-01 -3.131193220615386963e-01 6.691666841506958008e-01
2.929363250732421875e-01 -4.784623980522155762e-01 6.716650128364562988e-01
3.554763793945312500e-01 -5.343586802482604980e-01 6.813896894454956055e-01
3.495621681213378906e-01 -3.314845860004425049e-01 7.007797956466674805e-01
3.068881630897521973e-01 -5.945343971252441406e-01 7.092130184173583984e-01
3.426985442638397217e-01 -3.516672551631927490e-01 6.502254605293273926e-01
3.335294127464294434e-01 -2.845907211303710938e-01 7.030965685844421387e-01
2.921970784664154053e-01 -5.417688488960266113e-01 6.832967996597290039e-01
3.567812144756317139e-01 -4.562952518463134766e-01 6.619333028793334961e-01
3.160428702831268311e-01 -3.728934526443481445e-01 7.183839082717895508e-01
2.911218404769897461e-01 -4.876600205898284912e-01 7.022555470466613770e-01
2.991022765636444092e-01 -4.746621847152709961e-01 7.149687409400939941e-01
3.010884821414947510e-01 -5.824477672576904297e-01 6.730638742446899414e-01
3.379095792770385742e-01 -4.035593271255493164e-01 7.174366712570190430e-01
3.090903759002685547e-01 -4.401655495166778564e-01 7.207726836204528809e-01
3.585091829299926758e-01 -4.781735539436340332e-01 6.690557599067687988e-01
2.961667180061340332e-01 -3.519273996353149414e-01 6.939384341239929199e-01
2.943617701530456543e-01 -3.885678648948669434e-01 7.011088728904724121e-01
3.023902773857116699e-01 -3.334020972251892090e-01 7.024989128112792969e-01
3.589852452278137207e-01 -4.942933619022369385e-01 6.831346750259399414e-01
3.369689881801605225e-01 -2.643073201179504395e-01 6.943241357803344727e-01
3.363718688488006592e-01 -4.461596608161926270e-01 6.459488272666931152e-01
3.615398705005645752e-01 -4.173464179039001465e-01 6.813158988952636719e-01
3.102060258388519287e-01 -3.311497271060943604e-01 6.587669253349304199e-01
3.571316301822662354e-01 -3.429216444492340088e-01 6.884385347366333008e-01
3.257254064083099365e-01 -3.252865970134735107e-01 6.512169241905212402e-01
2.933602929115295410e-01 -5.014950037002563477e-01 6.722679734230041504e-01
3.611096143722534180e-01 -3.898352682590484619e-01 6.811498999595642090e-01
3.531270027160644531e-01 -5.429544448852539062e-01 6.916977167129516602e-01
3.044965565204620361e-01 -5.709940791130065918e-01 6.660503745079040527e-01
2.939366996288299561e-01 -4.217770397663116455e-01 7.056331634521484375e-01
3.030534386634826660e-01 -5.951642990112304688e-01 6.740266680717468262e-01
3.491635918617248535e-01 -5.447393059730529785e-01 7.008522748947143555e-01
3.442504703998565674e-01 -3.747873306274414062e-01 6.493816971778869629e-01
2.953540980815887451e-01 -4.654319286346435547e-01 7.105557918548583984e-01
3.058509528636932373e-01 -3.839298486709594727e-01 6.565434336662292480e-01
3.611591458320617676e-01 -4.481512010097503662e-01 6.820445060729980469e-01
3.572317361831665039e-01 -4.663279056549072266e-01 6.964824795722961426e-01
3.390142619609832764e-01 -2.910573482513427734e-01 6.575099229812622070e-01
2.890380024909973145e-01 -4.586808979511260986e-01 6.915152668952941895e-01
3.329450488090515137e-01 -5.037474632263183594e-01 7.197366356849670410e-01
3.207259178161621094e-01 -3.680436313152313232e-01 6.484886407852172852e-01
2.930094003677368164e-01 -5.580239892005920410e-01 6.925938725471496582e-01
3.347839713096618652e-01 -2.549903094768524170e-01 6.685947179794311523e-01
3.275858163833618164e-01 -4.105899333953857422e-01 7.213267087936401367e-01
3.420494198799133301e-01 -5.195949077606201172e-01 7.129870057106018066e-01
3.573890030384063721e-01 -4.424309134483337402e-01 6.620822548866271973e-01
2.980643510818481445e-01 -5.950368642807006836e-01 6.884334087371826172e-01
3.073151111602783203e-01 -2.846085131168365479e-01 6.859250068664550781e-01
3.358888626098632812e-01 -3.544310629367828369e-01 7.144773602485656738e-01
3.170257508754730225e-01 -6.436906456947326660e-01 6.862740516662597656e-01
3.026069402694702148e-01 -5.466993451118469238e-01 6.638560891151428223e-01
3.076592981815338135e-01 -4.014481306076049805e-01 6.538532972335815430e-01
2.894876301288604736e-01 -4.758090674877166748e-01 6.962586641311645508e-01
2.907948493957519531e-01 -4.205616712570190430e-01 6.963960528373718262e-01
3.512174189090728760e-01 -5.149605274200439453e-01 7.027215957641601562e-01
3.405826091766357422e-01 -3.782587647438049316e-01 7.142965793609619141e-01
2.991416454315185547e-01 -4.170299470424652100e-01 6.619691252708435059e-01
3.452584743499755859e-01 -2.756883203983306885e-01 6.901463866233825684e-01
3.306077122688293457e-01 -3.133840560913085938e-01 6.522048711776733398e-01
3.397410213947296143e-01 -4.729429185390472412e-01 6.480247974395751953e-01
3.019732236862182617e-01 -4.843184649944305420e-01 7.173232436180114746e-01
3.438625633716583252e-01 -3.265776634216308594e-01 6.535303592681884766e-01
2.958717346191406250e-01 -4.075742959976196289e-01 7.073599696159362793e-01
3.106650114059448242e-01 -3.639284670352935791e-01 7.154846191406250000e-01
3.355063498020172119e-01 -2.721167802810668945e-01 6.614818572998046875e-01
3.103557527065277100e-01 -6.304150819778442383e-01 6.803535819053649902e-01
3.433603048324584961e-01 -5.826363563537597656e-01 7.003598809242248535e-01
2.944753170013427734e-01 -4.819005727767944336e-01 7.092984914779663086e-01
2.982363998889923096e-01 -3.334674835205078125e-01 6.913791298866271973e-01
3.283127248287200928e-01 -5.850090980529785156e-01 7.128524184226989746e-01
3.298560976982116699e-01 -3.957027792930603027e-01 6.454731822013854980e-01
3.168383836746215820e-01 -4.442526698112487793e-01 6.477771997451782227e-01
3.219375908374786377e-01 -3.224648237228393555e-01 7.125074863433837891e-01
2.918098270893096924e-01 -4.461395740509033203e-01 6.743106245994567871e-01
3.609405755996704102e-01 -4.554818868637084961e-01 6.822602152824401855e-01
3.383536934852600098e-01 -6.195703744888305664e-01 6.899505257606506348e-01
3.154210746288299561e-01 -5.193612575531005859e-01 7.215365767478942871e-01
3.150823712348937988e-01 -5.379916429519653320e-01 6.540452837944030762e-01
3.175910413265228271e-01 -5.071763992309570312e-01 6.501844525337219238e-01
2.956894040107727051e-01 -5.793585777282714844e-01 6.939495205879211426e-01
2.907200455665588379e-01 -4.852990508079528809e-01 6.780364513397216797e-01
3.460781276226043701e-01 -4.966497123241424561e-01 7.111249566078186035e-01
3.523711562156677246e-01 -4.505819678306579590e-01 6.552771925926208496e-01
3.570492267608642578e-01 -4.327138960361480713e-01 6.609816551208496094e-01
3.417887687683105469e-01 -3.481333851814270020e-01 7.104948163032531738e-01
3.400030136108398438e-01 -2.601841688156127930e-01 6.690979003906250000e-01
3.057371079921722412e-01 -5.819299221038818359e-01 6.671359539031982422e-01
