-1.758552789688110352e-01 -7.390043735504150391e-01 3.621653914451599121e-01
-1.636223495006561279e-01 -4.242929816246032715e-01 3.625080883502960205e-01
-1.691650748252868652e-01 -3.346028625965118408e-01 3.541504740715026855e-01
-2.341551929712295532e-01 -5.342804193496704102e-01 2.175472080707550049e-01
-2.486272454261779785e-01 -3.352723419666290283e-01 2.803373634815216064e-01
-2.347859144210815430e-01 -2.514092326164245605e-01 2.581094503402709961e-01
-2.542581260204315186e-01 -5.398627519607543945e-01 3.032703995704650879e-01
-2.034117132425308228e-01 -5.166482925415039062e-01 4.481977224349975586e-01
-2.229770272970199585e-01 -7.885361909866333008e-01 3.201183676719665527e-01
-1.780382543802261353e-01 -2.436691522598266602e-01 3.281950354576110840e-01
-1.790027767419815063e-01 -3.919495046138763428e-01 1.898441463708877563e-01
-1.586475968360900879e-01 -6.129467487335205078e-01 3.338394761085510254e-01
-1.695696711540222168e-01 -2.902887165546417236e-01 2.493393421173095703e-01
-1.639771908521652222e-01 -3.194730579853057861e-01 3.053272366523742676e-01
-1.570447087287902832e-01 -6.153584122657775879e-01 2.883513271808624268e-01
-1.710911393165588379e-01 -6.819741129875183105e-01 3.754545152187347412e-01
-1.841658204793930054e-01 -3.044401407241821289e-01 3.869577646255493164e-01
-1.655308455228805542e-01 -6.538251638412475586e-01 3.625610768795013428e-01
-2.418522387742996216e-01 -3.502498567104339600e-01 2.428532093763351440e-01
-2.518934607505798340e-01 -5.275628566741943359e-01 3.892061114311218262e-01
-1.852204054594039917e-01 -5.275099277496337891e-01 4.298522174358367920e-01
-2.473033964633941650e-01 -5.650212168693542480e-01 4.047007560729980469e-01
-1.687403172254562378e-01 -2.776562571525573730e-01 2.799828052520751953e-01
-2.480900883674621582e-01 -3.625159859657287598e-01 3.836312890052795410e-01
-1.996690183877944946e-01 -7.785347700119018555e-01 3.878790438175201416e-01
-1.568176299333572388e-01 -6.018056869506835938e-01 2.769570946693420410e-01
-1.725473105907440186e-01 -6.499980688095092773e-01 3.907019197940826416e-01
-1.747825145721435547e-01 -2.537747621536254883e-01 2.554245591163635254e-01
-2.543669342994689941e-01 -4.835492372512817383e-01 2.920268774032592773e-01
-2.261357307434082031e-01 -3.890555799007415771e-01 1.996877193450927734e-01
-1.605167984962463379e-01 -4.867484867572784424e-01 3.586406409740447998e-01
-2.390589118003845215e-01 -2.551198005676269531e-01 3.562572896480560303e-01
-1.793939173221588135e-01 -6.904258728027343750e-01 3.973873853683471680e-01
-2.508847713470458984e-01 -5.204946994781494141e-01 2.734269499778747559e-01
-2.016053050756454468e-01 -3.321561813354492188e-01 1.864428073167800903e-01
-1.613751649856567383e-01 -5.487783551216125488e-01 2.293214499950408936e-01
-2.414379268884658813e-01 -3.664374649524688721e-01 4.066937267780303955e-01
-1.752552241086959839e-01 -2.467300146818161011e-01 3.129848837852478027e-01
-2.469606995582580566e-01 -3.782691359519958496e-01 3.936387002468109131e-01
-1.856072247028350830e-01 -2.002866566181182861e-01 2.988844811916351318e-01
-1.636294424533843994e-01 -5.452888011932373047e-01 3.746573030948638916e-01
-2.387926131486892700e-01 -6.947563886642456055e-01 3.891185522079467773e-01
-1.874746680259704590e-01 -7.111647725105285645e-01 2.260907143354415894e-01
-1.642299890518188477e-01 -4.875151216983795166e-01 3.755345940589904785e-01
-2.552969455718994141e-01 -3.947185873985290527e-01 3.318037092685699463e-01
-2.534085810184478760e-01 -5.933202505111694336e-01 3.395485877990722656e-01
-1.664496660232543945e-01 -2.937175035476684570e-01 2.833967506885528564e-01
-1.675639450550079346e-01 -6.265211105346679688e-01 3.794805407524108887e-01
-1.596581637859344482e-01 -6.542553901672363281e-01 2.950114309787750244e-01
-1.798591911792755127e-01 -3.395973443984985352e-01 3.905186057090759277e-01
-2.444729208946228027e-01 -4.145932495594024658e-01 2.421218156814575195e-01
-1.928066015243530273e-01 -3.183178901672363281e-01 1.907887309789657593e-01
-1.856766790151596069e-01 -6.649467945098876953e-01 4.169832468032836914e-01
-1.553004831075668335e-01 -4.718059003353118896e-01 2.643798291683197021e-01
-1.804759502410888672e-01 -2.944784164428710938e-01 2.110353410243988037e-01
-1.909116208553314209e-01 -4.718058705329895020e-01 4.350611567497253418e-01
-1.956273019313812256e-01 -1.780118346214294434e-01 3.036080598831176758e-01
3.548113405704498291e-01 -9.494609385728836060e-02 6.375727057456970215e-02
2.550328075885772705e-01 1.863881945610046387e-03 -2.283934950828552246e-01
2.333085238933563232e-01 -7.300069183111190796e-02 4.819856584072113037e-01
1.786070466041564941e-01 -1.220770776271820068e-01 -1.304869949817657471e-01
3.092848360538482666e-01 -1.026904881000518799e-01 -7.796169072389602661e-02
3.720790445804595947e-01 -6.204035133123397827e-02 3.557985424995422363e-01
2.638222873210906982e-01 -1.012933850288391113e-01 -1.673402488231658936e-01
2.864875197410583496e-01 4.789264127612113953e-02 5.351780354976654053e-02
3.512911796569824219e-01 -9.313520789146423340e-02 2.518971264362335205e-01
3.254621028900146484e-01 3.845297917723655701e-02 -1.366298496723175049e-01
3.259260058403015137e-01 5.011598393321037292e-02 1.913481950759887695e-01
2.138203233480453491e-01 1.276817172765731812e-02 2.757348716259002686e-01
4.261827766895294189e-01 -4.305189102888107300e-02 4.998881742358207703e-02
2.495282292366027832e-01 1.964563503861427307e-02 -1.559908092021942139e-01
4.394652247428894043e-01 1.826326921582221985e-02 -4.162121564149856567e-02
1.736730933189392090e-01 -1.474796384572982788e-01 6.949895620346069336e-02
1.085534691810607910e-01 -5.813469737768173218e-02 2.943200767040252686e-01
3.321185410022735596e-01 -1.077271550893783569e-01 1.350043267011642456e-01
3.751886188983917236e-01 -5.616556853055953979e-02 -1.303896009922027588e-01
1.920564472675323486e-01 -1.177946627140045166e-01 4.025241434574127197e-01
1.170220077037811279e-01 -1.446217149496078491e-01 8.620491623878479004e-02
1.285817027091979980e-01 -4.841382056474685669e-02 -1.394535303115844727e-01
4.404018223285675049e-01 3.424527868628501892e-02 2.566319704055786133e-02
1.046760976314544678e-01 -9.433554112911224365e-02 -1.150185987353324890e-01
4.005560874938964844e-01 -6.208932027220726013e-02 2.339257001876831055e-01
1.876202821731567383e-01 -7.931626588106155396e-02 4.617298543453216553e-01
8.927698433399200439e-02 -1.222454458475112915e-01 2.536674737930297852e-01
4.326823353767395020e-01 1.705402508378028870e-02 -7.100114971399307251e-02
2.515534460544586182e-01 9.759575128555297852e-03 -2.009966969490051270e-01
2.228459119796752930e-01 2.559467777609825134e-02 1.822869479656219482e-01
3.644213974475860596e-01 5.446032807230949402e-02 -1.046100258827209473e-02
2.354722172021865845e-01 -1.061501055955886841e-01 -1.743140220642089844e-01
4.429289698600769043e-01 3.522348776459693909e-02 9.138563275337219238e-02
2.900713384151458740e-01 4.606305435299873352e-02 -2.153151482343673706e-02
2.434622049331665039e-01 3.555062785744667053e-02 1.235859990119934082e-01
2.822410762310028076e-01 2.758969739079475403e-02 3.171033263206481934e-01
2.173874080181121826e-01 -1.412681788206100464e-01 2.294322848320007324e-01
4.528224766254425049e-01 -1.074589788913726807e-03 1.426454186439514160e-01
1.016463488340377808e-01 -4.880603402853012085e-02 -2.717254310846328735e-02
2.274055033922195435e-01 -8.696359395980834961e-02 -2.321294844150543213e-01
4.173333346843719482e-01 -1.253329217433929443e-02 3.251564800739288330e-01
1.978922784328460693e-01 -1.410701423883438110e-01 4.548199474811553955e-03
2.686851024627685547e-01 -1.214468479156494141e-01 3.128691017627716064e-01
4.375292658805847168e-01 -1.306396350264549255e-02 -3.475830703973770142e-02
2.524537742137908936e-01 2.587661519646644592e-02 -1.250242292881011963e-01
3.547790050506591797e-01 -5.402209982275962830e-02 4.141129255294799805e-01
2.869361340999603271e-01 -1.226808875799179077e-01 3.689020872116088867e-02
4.147452414035797119e-01 -5.545191466808319092e-02 1.635717749595642090e-01
1.274887323379516602e-01 -2.004093490540981293e-02 5.591261759400367737e-02
1.899454593658447266e-01 -1.596949808299541473e-02 3.690255284309387207e-01
1.412171572446823120e-01 -1.152561902999877930e-01 -1.357337534427642822e-01
1.923092007637023926e-01 1.671281084418296814e-02 6.713980436325073242e-02
1.953426599502563477e-01 1.607910543680191040e-02 1.549455523490905762e-01
2.499154359102249146e-01 -1.307545304298400879e-01 2.760723233222961426e-01
2.015973925590515137e-01 -1.454522460699081421e-01 8.568402379751205444e-02
3.425676822662353516e-01 -1.016059890389442444e-01 1.915503293275833130e-01
2.312261909246444702e-01 -1.270227134227752686e-03 -2.124694883823394775e-01
1.033865213394165039e-01 -1.377561241388320923e-01 2.157004177570343018e-01
1.377819925546646118e-01 -1.797187142074108124e-02 -2.903691679239273071e-02
2.959701716899871826e-01 4.509746655821800232e-02 1.968598514795303345e-01
3.496403098106384277e-01 1.779188588261604309e-02 -2.065446972846984863e-01
1.127332597970962524e-01 -1.172821968793869019e-01 3.325620889663696289e-01
4.105222821235656738e-01 -1.037842407822608948e-02 3.439932763576507568e-01
3.221508562564849854e-01 5.373549088835716248e-02 1.116355285048484802e-01
3.882076442241668701e-01 5.321384593844413757e-02 -2.189420163631439209e-03
3.609616458415985107e-01 -7.465080916881561279e-02 -9.135773032903671265e-02
3.439326882362365723e-01 -9.281329810619354248e-02 -3.259483724832534790e-02
3.229966759681701660e-01 2.830566838383674622e-02 -1.818145215511322021e-01
1.417535394430160522e-01 -1.302736252546310425e-02 1.687368750572204590e-01
3.726574182510375977e-01 -7.089629024267196655e-02 -7.093562930822372437e-02
3.606608510017395020e-01 -8.678041398525238037e-03 4.228672683238983154e-01
1.031443774700164795e-01 -7.429486513137817383e-02 3.161010444164276123e-01
2.754317522048950195e-01 1.432225853204727173e-02 -2.081095576286315918e-01
1.906352341175079346e-01 -1.087710559368133545e-01 -1.793368756771087646e-01
9.957127273082733154e-02 -6.237079203128814697e-02 -7.293321937322616577e-02
9.843304753303527832e-02 -1.244497299194335938e-01 2.772210538387298584e-01
1.933129876852035522e-01 -1.473346799612045288e-01 1.263500452041625977e-01
1.944230645895004272e-01 1.352533698081970215e-02 -3.545398265123367310e-02
3.058860599994659424e-01 2.975691482424736023e-02 -1.697448194026947021e-01
1.855909526348114014e-01 -1.096073240041732788e-01 4.238238036632537842e-01
2.331412583589553833e-01 -1.331655830144882202e-01 -1.814305782318115234e-02
3.750502765178680420e-01 -1.288636401295661926e-02 4.093981385231018066e-01
4.218439459800720215e-01 -4.920527711510658264e-02 8.190310001373291016e-02
4.302727580070495605e-01 -8.583690971136093140e-03 2.843599319458007812e-01
3.519056737422943115e-01 -9.803635627031326294e-02 1.372865140438079834e-01
3.063448965549468994e-01 5.177490040659904480e-02 5.315991118550300598e-02
7.734577357769012451e-02 -1.266552507877349854e-01 1.170898824930191040e-01
1.247129738330841064e-01 -6.005506590008735657e-02 3.514707088470458984e-01
3.791832327842712402e-01 -7.184549421072006226e-02 -3.661332279443740845e-02
2.855297923088073730e-01 -6.924095749855041504e-02 -2.395251989364624023e-01
4.289497435092926025e-01 -4.267869889736175537e-02 1.029303967952728271e-01
3.728610873222351074e-01 1.442021504044532776e-02 -1.943508386611938477e-01
2.432682365179061890e-01 -1.373504549264907837e-01 7.852940261363983154e-02
3.831606507301330566e-01 -4.823776334524154663e-02 3.654982149600982666e-01
2.765022814273834229e-01 -1.221415698528289795e-01 2.851997911930084229e-01
3.536561429500579834e-01 -1.686767674982547760e-02 -2.339904904365539551e-01
3.519468307495117188e-01 5.371178314089775085e-02 1.682327091693878174e-01
1.612105071544647217e-01 -2.223674207925796509e-03 1.790693700313568115e-01
3.748007714748382568e-01 4.916821047663688660e-02 -6.222396343946456909e-02
2.615715265274047852e-01 -1.262290477752685547e-01 -1.793158799409866333e-02
1.689699292182922363e-01 -7.993771135807037354e-02 -2.236613631248474121e-01
3.451005816459655762e-01 -7.375639677047729492e-02 3.837475478649139404e-01
1.920323669910430908e-01 -5.656661838293075562e-02 -2.511936426162719727e-01
3.288112580776214600e-01 -1.087310165166854858e-01 9.496675431728363037e-02
6.971952319145202637e-02 -1.090156435966491699e-01 5.698449909687042236e-02
1.796025037765502930e-01 -2.173089981079101562e-02 -1.900681257247924805e-01
2.547127604484558105e-01 -1.339523196220397949e-01 2.110708951950073242e-01
4.023953974246978760e-01 -6.619402766227722168e-02 1.008768230676651001e-01
2.339935749769210815e-01 -9.918261319398880005e-02 -1.987190246582031250e-01
3.065607845783233643e-01 -1.035280227661132812e-01 3.410247266292572021e-01
4.255419969558715820e-01 4.551069065928459167e-02 4.263245686888694763e-02
3.800016343593597412e-01 3.634694591164588928e-02 -1.300169229507446289e-01
1.925444006919860840e-01 -1.279843151569366455e-01 -9.979938715696334839e-02
2.070789188146591187e-01 -9.493768215179443359e-03 3.766020536422729492e-01
9.430375695228576660e-02 -8.925854414701461792e-02 3.055434226989746094e-01
3.619062304496765137e-01 -6.235366687178611755e-02 3.807826936244964600e-01
3.383507430553436279e-01 4.659659788012504578e-02 2.393352687358856201e-01
4.448596537113189697e-01 -1.974481716752052307e-02 5.767352506518363953e-02
1.205058246850967407e-01 -4.983227327466011047e-02 3.097391128540039062e-01
3.909004926681518555e-01 -8.786976337432861328e-03 3.837320506572723389e-01
7.722245156764984131e-02 -7.790762931108474731e-02 1.950299292802810669e-01
2.025748342275619507e-01 5.225855857133865356e-03 2.949690818786621094e-01
1.788431704044342041e-01 -1.025906577706336975e-02 -1.477815210819244385e-01
2.410626411437988281e-01 2.183504775166511536e-02 2.819291651248931885e-01
2.618906199932098389e-01 4.080097004771232605e-02 1.249198615550994873e-02
1.620877087116241455e-01 -1.398909687995910645e-01 -2.649921923875808716e-02
8.550663292407989502e-02 -6.896791607141494751e-02 -1.821505278348922729e-02
1.263519674539566040e-01 -1.003068685531616211e-01 -1.507175564765930176e-01
1.748346388339996338e-01 -1.004233509302139282e-01 -1.969463825225830078e-01
1.435140371322631836e-01 -1.012782379984855652e-02 1.346136629581451416e-01
2.979067862033843994e-01 -7.477372884750366211e-02 4.528760910034179688e-01
2.244005650281906128e-01 2.975416556000709534e-02 8.601074665784835815e-02
3.090353608131408691e-01 5.091550573706626892e-02 4.336684942245483398e-03
3.543125987052917480e-01 -8.390831202268600464e-02 -5.858283489942550659e-02
2.374411672353744507e-01 -1.264442652463912964e-01 -6.759051233530044556e-02
2.379398345947265625e-01 2.701895311474800110e-02 -7.897446304559707642e-02
3.430961668491363525e-01 3.781486675143241882e-02 3.009122610092163086e-01
1.664761155843734741e-01 -1.492682993412017822e-01 1.216765567660331726e-01
3.384267687797546387e-01 -3.219735994935035706e-02 4.537374079227447510e-01
1.741437017917633057e-01 -1.428302675485610962e-01 2.664759755134582520e-03
1.257461011409759521e-01 -9.765353053808212280e-02 3.828669190406799316e-01
1.848968565464019775e-01 -5.655191838741302490e-03 3.100523352622985840e-01
2.765902280807495117e-01 2.529814466834068298e-02 -1.654814779758453369e-01
2.608174383640289307e-01 -1.295958906412124634e-01 2.551029026508331299e-01
1.233513057231903076e-01 -1.453948616981506348e-01 1.897060871124267578e-01
8.575968444347381592e-02 -1.251822859048843384e-01 1.887541264295578003e-02
3.171817958354949951e-01 -3.298952057957649231e-02 -2.607544958591461182e-01
2.873173952102661133e-01 4.353892430663108826e-02 -4.919185489416122437e-02
4.023655056953430176e-01 -2.069196850061416626e-02 3.596242070198059082e-01
2.896310389041900635e-01 -6.740724295377731323e-02 4.706769585609436035e-01
3.901493251323699951e-01 5.507742241024971008e-02 1.083264127373695374e-01
8.475469052791595459e-02 -1.292042285203933716e-01 5.430270358920097351e-02
3.874953389167785645e-01 -7.704342901706695557e-02 1.205997467041015625e-01
2.327966839075088501e-01 -9.969547390937805176e-02 4.448495507240295410e-01
1.079330146312713623e-01 -1.422231793403625488e-01 1.765776872634887695e-01
4.496679306030273438e-01 2.407468855381011963e-03 1.865273267030715942e-01
1.629426181316375732e-01 -1.795504800975322723e-02 -1.372625529766082764e-01
1.935396641492843628e-01 -5.411572754383087158e-03 3.312829136848449707e-01
1.465304493904113770e-01 -1.489918678998947144e-01 1.114504858851432800e-01
1.921330988407135010e-01 4.918128252029418945e-05 -1.333751678466796875e-01
2.124159336090087891e-01 9.926952421665191650e-03 -1.319538354873657227e-01
3.474097549915313721e-01 5.651674792170524597e-02 5.490754917263984680e-02
1.603028774261474609e-01 6.554871797561645508e-04 9.620869159698486328e-02
1.195074021816253662e-01 -3.789893910288810730e-02 2.503406703472137451e-01
6.878994405269622803e-02 -1.119159758090972900e-01 8.569012582302093506e-02
3.210663199424743652e-01 2.920180931687355042e-02 3.392912447452545166e-01
1.328183412551879883e-01 -1.361912488937377930e-01 -3.480174392461776733e-02
2.402321696281433105e-01 -1.309341192245483398e-01 2.972091138362884521e-01
1.727503538131713867e-01 -1.103606075048446655e-01 -1.707777976989746094e-01
3.247561156749725342e-01 1.134165376424789429e-02 -2.287696003913879395e-01
4.532404541969299316e-01 7.457382977008819580e-03 4.941699281334877014e-02
1.135290712118148804e-01 -4.003182053565979004e-02 -4.816760867834091187e-02
3.779375553131103516e-01 -7.235088944435119629e-02 2.870531082153320312e-01
3.655956983566284180e-01 5.054204538464546204e-02 2.076711952686309814e-01
2.544198036193847656e-01 3.968105092644691467e-02 8.321941643953323364e-02
6.718361377716064453e-02 -9.618743509054183960e-02 1.385995298624038696e-01
4.026366770267486572e-01 -5.937986820936203003e-02 -1.196935772895812988e-04
3.335097730159759521e-01 5.444338545203208923e-02 1.300047188997268677e-01
1.057497411966323853e-01 -1.330048143863677979e-01 -5.577504634857177734e-03
1.991956532001495361e-01 -1.449085175991058350e-01 6.432607024908065796e-02
4.429458975791931152e-01 2.621934190392494202e-02 -2.717517316341400146e-03
1.045882552862167358e-01 -7.243538647890090942e-02 -1.108013167977333069e-01
3.210861682891845703e-01 -1.113807410001754761e-01 7.239054143428802490e-02
2.396707087755203247e-01 -1.282065510749816895e-01 3.203259706497192383e-01
1.483411192893981934e-01 -9.016800671815872192e-03 -5.247674882411956787e-03
3.503664433956146240e-01 -7.593354582786560059e-02 3.632801473140716553e-01
2.257054597139358521e-01 -1.359582692384719849e-01 2.783289849758148193e-01
8.506025373935699463e-02 -1.257368475198745728e-01 2.188833057880401611e-01
3.162005245685577393e-01 3.414143249392509460e-02 3.115381896495819092e-01
2.720342874526977539e-01 4.196696355938911438e-02 1.639969944953918457e-01
4.425178766250610352e-01 2.709979191422462463e-02 1.832285970449447632e-01
1.662685573101043701e-01 -1.464756429195404053e-01 2.271926254034042358e-01
3.987832963466644287e-01 5.353381112217903137e-02 3.736511617898941040e-02
2.569216191768646240e-01 3.880557045340538025e-02 1.456836909055709839e-01
3.577246665954589844e-01 -9.467698633670806885e-02 1.594562381505966187e-01
1.848947405815124512e-01 -1.337931752204895020e-01 -6.758036464452743530e-02
1.632371544837951660e-01 -1.459938883781433105e-01 3.776600211858749390e-02
2.607406973838806152e-01 3.303197398781776428e-02 2.385759055614471436e-01
2.343631535768508911e-01 -1.386221051216125488e-01 2.168649286031723022e-01
4.341688156127929688e-01 -3.262329846620559692e-02 3.485944867134094238e-02
3.164902627468109131e-01 1.885457709431648254e-02 -2.114940583705902100e-01
1.010125130414962769e-01 -1.110107302665710449e-01 3.172211647033691406e-01
3.819861710071563721e-01 5.631132051348686218e-02 8.218800276517868042e-02
4.006910324096679688e-01 -5.035518482327461243e-02 3.023892343044281006e-01
3.591338098049163818e-01 4.508825019001960754e-02 -1.000746116042137146e-01
4.135302305221557617e-01 4.959202930331230164e-02 1.291484087705612183e-01
1.141501814126968384e-01 -1.386112272739410400e-01 2.435727119445800781e-01
2.626972496509552002e-01 -1.183130890130996704e-01 3.467288017272949219e-01
6.849108636379241943e-02 -8.725103735923767090e-02 1.077655926346778870e-01
7.579645514488220215e-02 -8.049239218235015869e-02 1.520745456218719482e-02
2.155822515487670898e-01 -1.157135665416717529e-01 4.052867591381072998e-01
1.711240857839584351e-01 -9.673386812210083008e-04 -6.420909613370895386e-02
2.991307377815246582e-01 -1.208498179912567139e-01 1.788960397243499756e-01
2.016225010156631470e-01 1.518072560429573059e-02 2.081550061702728271e-01
2.727570235729217529e-01 4.135369881987571716e-02 -3.267005831003189087e-02
1.670414358377456665e-01 -6.024477630853652954e-02 -2.268867790699005127e-01
2.902870774269104004e-01 7.811248302459716797e-03 4.071123003959655762e-01
1.600313186645507812e-01 -8.958318829536437988e-02 -2.057045996189117432e-01
2.090802490711212158e-01 -1.302295029163360596e-01 -7.589828222990036011e-02
2.827665507793426514e-01 -4.036578536033630371e-02 -2.747526466846466064e-01
2.857474386692047119e-01 -8.903005719184875488e-02 4.336509108543395996e-01
1.682597398757934570e-01 -2.356851659715175629e-02 -1.716575026512145996e-01
2.345881909132003784e-01 -1.384586095809936523e-02 -2.459703385829925537e-01
3.667522370815277100e-01 4.213058575987815857e-02 2.721861898899078369e-01
3.419974148273468018e-01 -5.516347289085388184e-02 -2.031708657741546631e-01
3.262802958488464355e-01 5.018051713705062866e-03 4.200305938720703125e-01
3.737613856792449951e-01 5.655711516737937927e-02 4.659437760710716248e-02
4.486311078071594238e-01 2.216285839676856995e-02 1.609441339969635010e-01
3.985678553581237793e-01 3.315972909331321716e-02 2.872913479804992676e-01
3.425221443176269531e-01 1.119268685579299927e-02 4.012572467327117920e-01
1.400659382343292236e-01 -1.209257990121841431e-01 -1.159910187125205994e-01
4.054324328899383545e-01 5.272929742932319641e-02 5.925144627690315247e-02
2.209149301052093506e-01 1.181781664490699768e-02 3.011165261268615723e-01
1.934309303760528564e-01 1.680846884846687317e-02 1.123019084334373474e-01
1.387977004051208496e-01 -2.545971423387527466e-02 2.645958065986633301e-01
4.017378985881805420e-01 -6.678017973899841309e-02 1.416047364473342896e-01
7.056722044944763184e-02 -8.318754285573959351e-02 7.108260691165924072e-02
1.731522679328918457e-01 -4.205589368939399719e-02 -2.203056514263153076e-01
1.451704800128936768e-01 -3.104786947369575500e-02 -1.362691521644592285e-01
3.857114911079406738e-01 3.267271444201469421e-02 3.055463731288909912e-01
1.882190406322479248e-01 -1.461291611194610596e-01 2.120856940746307373e-01
2.478610277175903320e-01 -1.720481738448143005e-02 -2.605967521667480469e-01
3.020616173744201660e-01 -1.202216744422912598e-01 1.523354202508926392e-01
2.465755045413970947e-01 -1.083970814943313599e-01 -1.561850011348724365e-01
8.947944641113281250e-02 -1.160555630922317505e-01 -3.454928845167160034e-02
3.250411748886108398e-01 -6.228867918252944946e-02 4.442354738712310791e-01
3.843030631542205811e-01 -6.282442808151245117e-02 3.127577900886535645e-01
4.134339094161987305e-01 4.526001587510108948e-02 1.855077743530273438e-01
1.893774271011352539e-01 -1.363450139760971069e-01 -4.715376347303390503e-02
2.465114742517471313e-01 -1.318039298057556152e-01 -6.335228681564331055e-05
1.738021373748779297e-01 -3.930855542421340942e-03 2.624804675579071045e-01
2.859281599521636963e-01 -1.116822659969329834e-01 3.408728241920471191e-01
4.139822721481323242e-01 -5.308217182755470276e-02 2.075963616371154785e-01
3.913573324680328369e-01 -1.905312202870845795e-02 -1.747757196426391602e-01
4.073728322982788086e-01 -7.608782500028610229e-03 -1.485420465469360352e-01
2.273840308189392090e-01 -1.753728091716766357e-02 4.293036460876464844e-01
2.655357420444488525e-01 1.546474173665046692e-02 3.587784767150878906e-01
4.322360157966613770e-01 3.341346606612205505e-02 2.025090754032135010e-01
4.297939538955688477e-01 -4.163460433483123779e-02 1.363519877195358276e-01
4.502657055854797363e-01 4.062056541442871094e-05 2.458411455154418945e-02
2.753296792507171631e-01 2.921042218804359436e-02 -1.433582603931427002e-01
3.060285449028015137e-01 1.322971656918525696e-02 3.962156474590301514e-01
2.595450878143310547e-01 3.464105352759361267e-02 -7.101453095674514771e-02
1.202811300754547119e-01 -1.361631900072097778e-01 2.746613621711730957e-01
1.818364709615707397e-01 -1.411344856023788452e-01 2.817137837409973145e-01
4.293850362300872803e-01 -3.954413160681724548e-02 1.818916499614715576e-01
3.387980461120605469e-01 -4.575111716985702515e-02 -2.259281575679779053e-01
1.761238574981689453e-01 -1.477729976177215576e-01 1.957858651876449585e-01
1.588912010192871094e-01 -1.163087934255599976e-01 3.946063518524169922e-01
1.436516642570495605e-01 -4.528965428471565247e-02 -1.712165176868438721e-01
3.366186916828155518e-01 -7.566091418266296387e-02 -1.510010659694671631e-01
2.567797303199768066e-01 -4.593998193740844727e-02 -2.769485712051391602e-01
2.180270254611968994e-01 -1.280530691146850586e-01 3.483449816703796387e-01
1.742383241653442383e-01 3.078155219554901123e-03 2.000063359737396240e-01
3.421224951744079590e-01 -1.005289405584335327e-01 4.678297042846679688e-02
4.302547574043273926e-01 -1.649443060159683228e-02 -6.251876801252365112e-02
3.370339870452880859e-01 -1.030897647142410278e-01 2.167982161045074463e-01
2.608036994934082031e-01 -7.991936802864074707e-02 -2.342889308929443359e-01
2.953945994377136230e-01 -1.159289777278900146e-01 -1.197999715805053711e-02
2.864897549152374268e-01 3.447211906313896179e-02 -1.266018748283386230e-01
3.073908984661102295e-01 -1.160179823637008667e-01 5.139506235718727112e-02
2.239064872264862061e-01 2.539027854800224304e-02 -4.136540740728378296e-02
1.527202427387237549e-01 -2.065698429942131042e-02 -1.172277554869651794e-01
3.093255758285522461e-01 -1.073222979903221130e-01 3.075430393218994141e-01
4.410647749900817871e-01 8.950900286436080933e-03 2.376024425029754639e-01
7.770739495754241943e-02 -1.010499000549316406e-01 2.397730350494384766e-01
1.461095213890075684e-01 -7.589105516672134399e-03 6.502093374729156494e-02
1.113530844449996948e-01 -4.101189970970153809e-02 2.246965169906616211e-01
2.832739353179931641e-01 -1.183605343103408813e-01 -2.991939336061477661e-02
3.649127483367919922e-01 -8.781801164150238037e-02 3.599735349416732788e-02
4.252932369709014893e-01 4.641014710068702698e-02 6.768613308668136597e-02
2.864647805690765381e-01 3.684938326478004456e-02 2.602629363536834717e-01
4.426882863044738770e-01 3.515521809458732605e-02 6.876559555530548096e-02
3.106277585029602051e-01 4.112992808222770691e-02 2.603983581066131592e-01
3.869261145591735840e-01 1.617032662034034729e-02 -1.746374070644378662e-01
9.419815242290496826e-02 -1.367872208356857300e-01 7.962941378355026245e-02
2.821743488311767578e-01 2.205294743180274963e-02 3.461688160896301270e-01
1.925704777240753174e-01 6.167821586132049561e-03 2.560545206069946289e-01
3.716970980167388916e-01 4.488034918904304504e-02 2.518418729305267334e-01
2.193930745124816895e-01 -1.380045264959335327e-01 5.799271166324615479e-03
4.404984116554260254e-01 -1.084522157907485962e-02 2.335085868835449219e-01
3.446428775787353516e-01 4.800612851977348328e-02 -7.957752794027328491e-02
2.790001928806304932e-01 -1.280848234891891479e-01 1.698098331689834595e-01
2.232941687107086182e-01 2.153911069035530090e-02 2.325334250926971436e-01
2.340540140867233276e-01 -5.903046578168869019e-03 4.034305810928344727e-01
2.399827241897583008e-01 -1.391983181238174438e-01 1.286587566137313843e-01
1.895793080329895020e-01 -1.447808891534805298e-01 2.331923544406890869e-01
3.135909140110015869e-01 -7.823273539543151855e-02 4.268608391284942627e-01
3.193354308605194092e-01 -1.094392538070678711e-01 2.441104352474212646e-01
2.279739081859588623e-01 -1.379695832729339600e-01 2.646350115537643433e-02
1.108440756797790527e-01 -8.792240917682647705e-02 3.527866303920745850e-01
1.115761548280715942e-01 -3.203953057527542114e-02 6.488227844238281250e-02
1.743969172239303589e-01 -3.788556531071662903e-02 4.067233204841613770e-01
1.268342733383178711e-01 -1.470271497964859009e-01 1.612327098846435547e-01
1.788412332534790039e-01 7.205132395029067993e-03 -1.895314455032348633e-02
3.966241478919982910e-01 2.206817641854286194e-02 -1.498813033103942871e-01
2.579528689384460449e-01 -1.343938559293746948e-01 1.696499884128570557e-01
2.514449656009674072e-01 -6.199798732995986938e-02 4.874152541160583496e-01
2.818838655948638916e-01 4.010250791907310486e-02 2.208083271980285645e-01
1.534521579742431641e-01 -4.244189709424972534e-03 2.523159235715866089e-02
1.690685749053955078e-01 -1.691809855401515961e-02 3.236800432205200195e-01
1.095987856388092041e-01 -3.349471837282180786e-02 1.009470894932746887e-01
1.009286493062973022e-01 -4.152083769440650940e-02 1.198241114616394043e-01
1.727025508880615234e-01 6.739050149917602539e-03 1.200617477297782898e-01
3.529294133186340332e-01 2.534681186079978943e-02 -1.862811446189880371e-01
2.718226313591003418e-01 -1.251832246780395508e-01 3.764867782592773438e-03
4.052039384841918945e-01 -2.730944566428661346e-02 -1.281490325927734375e-01
4.055037796497344971e-01 -4.491494596004486084e-02 -7.247880846261978149e-02
1.981554180383682251e-01 -2.840924821794033051e-02 4.205956161022186279e-01
9.630587697029113770e-02 -4.828603938221931458e-02 2.465866506099700928e-02
1.167856901884078979e-01 -1.213761270046234131e-01 -8.395280689001083374e-02
3.255074024200439453e-01 -1.713828369975090027e-02 4.555158019065856934e-01
3.477859795093536377e-01 2.128917723894119263e-03 -2.318605482578277588e-01
1.923326849937438965e-01 -9.470954537391662598e-02 -2.152296602725982666e-01
3.872706294059753418e-01 -7.398343831300735474e-02 2.144292891025543213e-01
3.067266941070556641e-01 5.176007375121116638e-02 9.471653401851654053e-02
3.886488080024719238e-01 -4.258071631193161011e-02 -1.370152533054351807e-01
2.107525467872619629e-01 -1.444821059703826904e-01 1.793674230575561523e-01
3.023065626621246338e-01 -8.401112258434295654e-02 -1.815797984600067139e-01
2.395323514938354492e-01 3.422138467431068420e-02 1.964767277240753174e-02
3.859098553657531738e-01 -5.653809756040573120e-02 3.329795300960540771e-01
4.135136008262634277e-01 4.429994896054267883e-02 -3.005435317754745483e-02
2.896937429904937744e-01 -9.416757524013519287e-02 -1.620982289314270020e-01
4.412957429885864258e-01 -2.451298013329505920e-02 1.719097197055816650e-01
3.565452098846435547e-01 5.597544088959693909e-02 1.931241154670715332e-02
3.237996697425842285e-01 -9.053058922290802002e-02 -1.127248331904411316e-01
2.740701735019683838e-01 4.467313364148139954e-02 1.073281392455101013e-01
1.894678473472595215e-01 7.369961589574813843e-03 2.330763339996337891e-01
1.206902265548706055e-01 -7.542786002159118652e-02 3.667924106121063232e-01
3.298708200454711914e-01 -6.792044639587402344e-02 -1.898198425769805908e-01
2.269358187913894653e-01 5.217671394348144531e-03 3.494377434253692627e-01
4.378400743007659912e-01 3.897355869412422180e-02 1.108647286891937256e-01
4.372789859771728516e-01 -2.370882593095302582e-02 3.209576010704040527e-03
1.144481897354125977e-01 -1.447987407445907593e-01 1.115468069911003113e-01
3.740435838699340820e-01 -8.056335151195526123e-02 1.222518831491470337e-02
3.606072068214416504e-01 -8.721061050891876221e-02 -1.382254064083099365e-03
2.596490085124969482e-01 1.734897866845130920e-02 -1.812968850135803223e-01
3.445957601070404053e-01 -8.478380739688873291e-02 3.394227027893066406e-01
3.207734227180480957e-01 1.941684260964393616e-02 3.788968324661254883e-01
4.436351656913757324e-01 -5.154807120561599731e-03 -1.681462675333023071e-02
1.447603553533554077e-01 -1.483376920223236084e-01 8.988931030035018921e-02
1.466830670833587646e-01 -2.032882720232009888e-02 -9.298602491617202759e-02
2.461110651493072510e-01 3.123998641967773438e-03 3.864544630050659180e-01
2.053063660860061646e-01 -1.353977173566818237e-01 3.116942048072814941e-01
3.979603648185729980e-01 4.534363374114036560e-02 -5.990529805421829224e-02
8.199572563171386719e-02 -9.269411861896514893e-02 -3.968977183103561401e-02
1.440060585737228394e-01 -1.379793584346771240e-01 2.963635325431823730e-01
2.614624798297882080e-01 3.428835421800613403e-03 4.014520943164825439e-01
3.014403879642486572e-01 5.008692666888237000e-02 1.254560500383377075e-01
1.598616242408752441e-01 -4.308066517114639282e-02 3.925702273845672607e-01
3.772926330566406250e-01 -8.193983137607574463e-02 6.109796836972236633e-02
4.191388487815856934e-01 -3.498356789350509644e-02 2.794896364212036133e-01
7.577443122863769531e-02 -1.098580807447433472e-01 1.011640578508377075e-02
3.256386220455169678e-01 -1.110079512000083923e-02 -2.556693851947784424e-01
2.699010968208312988e-01 -1.305599957704544067e-01 9.094717353582382202e-02
1.353873312473297119e-01 -6.247757747769355774e-02 3.818095028400421143e-01
2.209385633468627930e-01 -1.427533924579620361e-01 1.002846732735633850e-01
3.771502077579498291e-01 -4.308898001909255981e-02 -1.643142700195312500e-01
2.638676762580871582e-01 -2.373930439352989197e-02 4.666413068771362305e-01
2.361356467008590698e-01 -1.391705125570297241e-01 1.944595426321029663e-01
3.836609125137329102e-01 5.395620688796043396e-02 1.510181128978729248e-01
3.034062683582305908e-01 3.699682280421257019e-02 2.827720940113067627e-01
1.130944937467575073e-01 -9.139017760753631592e-02 -1.364981830120086670e-01
3.548549115657806396e-01 -9.630887210369110107e-02 1.082897037267684937e-01
3.594218194484710693e-01 3.676925227046012878e-02 -1.434202790260314941e-01
2.336403429508209229e-01 2.224580571055412292e-02 -1.062093153595924377e-01
1.444364786148071289e-01 -1.459939032793045044e-01 2.246932834386825562e-01
3.368974924087524414e-01 -9.308709204196929932e-02 3.160317838191986084e-01
2.639091908931732178e-01 2.592520043253898621e-02 3.003356754779815674e-01
4.491486549377441406e-01 -1.446434855461120605e-02 1.124180480837821960e-01
2.061164826154708862e-01 -1.399441808462142944e-01 2.702154219150543213e-01
1.770232021808624268e-01 -1.866642013192176819e-02 3.516759276390075684e-01
6.969475746154785156e-02 -8.917160332202911377e-02 1.598940193653106689e-01
3.000555336475372314e-01 4.745182767510414124e-02 1.745154112577438354e-01
4.230154156684875488e-01 -2.095723710954189301e-02 -8.230758458375930786e-02
1.398003995418548584e-01 -7.075311988592147827e-02 -1.907626092433929443e-01
3.513368368148803711e-01 -9.383784234523773193e-02 1.695414632558822632e-02
1.493529975414276123e-01 -1.492124944925308228e-01 1.543158739805221558e-01
3.472632765769958496e-01 2.291088178753852844e-02 3.655900955200195312e-01
2.034161686897277832e-01 -1.116788014769554138e-02 -2.019744515419006348e-01
3.715969622135162354e-01 -8.558684587478637695e-02 1.923091709613800049e-01
2.995439767837524414e-01 -1.156298369169235229e-01 2.677129507064819336e-01
2.613586187362670898e-01 2.950429543852806091e-02 2.702442407608032227e-01
2.199516594409942627e-01 2.296165004372596741e-02 2.032155841588973999e-01
2.243955880403518677e-01 -1.227291673421859741e-01 3.711337447166442871e-01
2.124850898981094360e-01 2.399382367730140686e-02 1.066536456346511841e-02
2.178017795085906982e-01 -1.436791568994522095e-01 1.201467812061309814e-01
1.368295699357986450e-01 -9.199546277523040771e-02 -1.769062280654907227e-01
2.873683869838714600e-01 -1.157246530055999756e-01 3.089654445648193359e-01
1.395399570465087891e-01 -3.061779960989952087e-02 2.961775660514831543e-01
4.175040423870086670e-01 -4.775374382734298706e-02 1.078066229820251465e-02
2.199524492025375366e-01 -1.201395988464355469e-01 -1.251499652862548828e-01
3.748947381973266602e-01 -8.492864668369293213e-02 1.502872854471206665e-01
8.173772692680358887e-02 -6.351308524608612061e-02 1.386031508445739746e-01
8.542743325233459473e-02 -6.725488603115081787e-02 2.103197127580642700e-01
3.804517984390258789e-01 5.220006033778190613e-02 -2.750819176435470581e-02
3.795852959156036377e-01 4.168177768588066101e-02 -1.062515005469322205e-01
3.716050088405609131e-01 -7.932143658399581909e-02 2.677657604217529297e-01
3.997370004653930664e-01 -6.653706729412078857e-02 1.890901029109954834e-01
3.121993541717529297e-01 -1.495275646448135376e-03 4.354787468910217285e-01
2.026021629571914673e-01 -8.257322013378143311e-02 -2.390099763870239258e-01
1.160988211631774902e-01 -3.477568924427032471e-02 -2.806656807661056519e-02
2.222604453563690186e-01 -3.270426020026206970e-02 4.559579193592071533e-01
2.071792185306549072e-01 -2.378523349761962891e-03 -1.788294017314910889e-01
4.153480529785156250e-01 5.354776978492736816e-03 -1.311232149600982666e-01
9.599664807319641113e-02 -1.045586019754409790e-01 -8.052205294370651245e-02
2.281282097101211548e-01 -1.139037311077117920e-03 3.785577118396759033e-01
1.324875354766845703e-01 -2.469270862638950348e-02 -5.350673943758010864e-02
3.218640983104705811e-01 -5.833471566438674927e-02 -2.247156798839569092e-01
3.836222290992736816e-01 -6.666190922260284424e-03 -1.954834163188934326e-01
4.452484250068664551e-01 -2.067929878830909729e-02 1.417044699192047119e-01
3.416228592395782471e-01 5.622558668255805969e-02 7.928910106420516968e-02
3.975187540054321289e-01 4.011346027255058289e-02 2.550844252109527588e-01
1.854209899902343750e-01 1.256300508975982666e-02 2.145432680845260620e-02
2.202156633138656616e-01 -1.079198271036148071e-01 4.280476868152618408e-01
2.019623517990112305e-01 1.778599247336387634e-02 1.751696169376373291e-01
2.884028255939483643e-01 4.830821231007575989e-02 8.818080276250839233e-02
2.052861750125885010e-01 -1.236026436090469360e-01 3.785058259963989258e-01
1.621404737234115601e-01 6.034076213836669922e-04 1.370081007480621338e-01
3.912785053253173828e-01 -7.063010334968566895e-02 2.851668745279312134e-02
2.243028730154037476e-01 9.329143911600112915e-03 3.234176933765411377e-01
4.410361647605895996e-01 3.466122969985008240e-02 1.396230310201644897e-01
3.008554577827453613e-01 -1.180843114852905273e-01 2.282039523124694824e-01
2.982997894287109375e-01 4.967289045453071594e-02 2.200876921415328979e-02
4.316218495368957520e-01 3.899801895022392273e-02 1.662353277206420898e-01
2.933715581893920898e-01 -5.688223242759704590e-02 -2.545637786388397217e-01
3.311055302619934082e-01 -1.009245067834854126e-01 2.781215310096740723e-01
1.514929383993148804e-01 -3.535379841923713684e-02 3.517126441001892090e-01
3.768132925033569336e-01 -8.327541500329971313e-02 8.664048463106155396e-02
2.842934727668762207e-01 -7.800364494323730469e-02 -2.208923399448394775e-01
3.957622051239013672e-01 -4.069933295249938965e-02 3.484706580638885498e-01
2.745777368545532227e-01 -9.979262948036193848e-02 4.137963950634002686e-01
3.447441458702087402e-01 5.620694532990455627e-02 9.943746030330657959e-02
2.216909229755401611e-01 -3.888312354683876038e-02 -2.661668956279754639e-01
3.283106684684753418e-01 4.512345418334007263e-02 -9.499687701463699341e-02
1.133052110671997070e-01 -3.384194523096084595e-02 3.796577453613281250e-03
4.283976256847381592e-01 3.046118840575218201e-02 -5.465733259916305542e-02
7.397043704986572266e-02 -1.098758876323699951e-01 2.088707387447357178e-01
7.899068295955657959e-02 -6.979545950889587402e-02 3.629877418279647827e-02
4.544498324394226074e-01 1.095248013734817505e-02 7.513830065727233887e-02
1.356279551982879639e-01 -1.450364664196968079e-02 1.137735545635223389e-01
1.281392276287078857e-01 -1.296495050191879272e-01 3.204924166202545166e-01
3.722160160541534424e-01 4.759963974356651306e-02 2.312315106391906738e-01
1.536502242088317871e-01 -1.277818232774734497e-01 -9.789393097162246704e-02
4.251855313777923584e-01 -3.225585073232650757e-02 -3.449075669050216675e-02
3.032809793949127197e-01 4.361862316727638245e-02 2.282731235027313232e-01
1.314054578542709351e-01 -3.478198871016502380e-02 -1.045126095414161682e-01
3.260129094123840332e-01 -1.030012890696525574e-01 -1.753605902194976807e-02
2.597437202930450439e-01 -1.095942109823226929e-01 -1.356373429298400879e-01
2.257195562124252319e-01 3.010960295796394348e-02 4.899914935231208801e-02
3.364374339580535889e-01 5.543957278132438660e-02 3.751005232334136963e-02
1.912816464900970459e-01 -2.464823797345161438e-02 4.001818001270294189e-01
2.175323218107223511e-01 -9.256267547607421875e-02 4.607141315937042236e-01
1.964388787746429443e-01 -1.329276114702224731e-01 3.346307873725891113e-01
3.554415702819824219e-01 -8.316294848918914795e-02 3.123749792575836182e-01
4.065594077110290527e-01 1.881182566285133362e-02 3.202770054340362549e-01
1.753258258104324341e-01 -2.326421439647674561e-03 -9.300690144300460815e-02
2.552526593208312988e-01 3.394440189003944397e-02 2.127814590930938721e-01
1.740282624959945679e-01 -1.484671831130981445e-01 9.701375663280487061e-02
2.192690521478652954e-01 -1.435280889272689819e-01 1.405602991580963135e-01
2.755248546600341797e-01 1.151595637202262878e-02 3.849203288555145264e-01
2.499329000711441040e-01 -1.211546212434768677e-01 -8.432567864656448364e-02
4.203358888626098633e-01 2.115331962704658508e-02 2.851664721965789795e-01
1.921131610870361328e-01 1.658243313431739807e-02 8.993779122829437256e-02
3.591419756412506104e-01 4.159572347998619080e-02 -1.204702034592628479e-01
3.479246199131011963e-01 4.951057210564613342e-02 2.170140147209167480e-01
2.820312678813934326e-01 -1.273224800825119019e-01 1.219106763601303101e-01
3.044512569904327393e-01 3.524687513709068298e-02 -1.414077877998352051e-01
9.914878010749816895e-02 -5.511981621384620667e-02 2.373777925968170166e-01
2.885117530822753906e-01 -1.110628545284271240e-01 -7.452856749296188354e-02
4.544530808925628662e-01 1.379704102873802185e-02 1.040845215320587158e-01
1.525534689426422119e-01 -1.361191570758819580e-01 -5.121240764856338501e-02
1.215192824602127075e-01 -4.188846051692962646e-02 2.809586524963378906e-01
4.292071163654327393e-01 -2.305631339550018311e-02 2.669521570205688477e-01
3.940401077270507812e-01 -7.195346802473068237e-02 1.631070524454116821e-01
2.937645614147186279e-01 2.249545231461524963e-02 -1.920731365680694580e-01
9.385134279727935791e-02 -5.017631128430366516e-02 1.535930037498474121e-01
3.705317676067352295e-01 -8.509688079357147217e-02 2.123823463916778564e-01
1.378401219844818115e-01 -8.150301873683929443e-02 4.050939679145812988e-01
3.950975239276885986e-01 4.190043732523918152e-02 -8.543085306882858276e-02
3.889560103416442871e-01 -1.277731955051422119e-01 5.328866839408874512e-02
1.004913300275802612e-01 -1.048396825790405273e-01 -5.390443801879882812e-01
3.728598654270172119e-01 -8.196994662284851074e-03 -2.004689574241638184e-01
2.318768650293350220e-01 -1.584582924842834473e-01 -1.269793063402175903e-01
5.169622898101806641e-01 -1.122229248285293579e-01 -2.836655378341674805e-01
4.082618951797485352e-01 -1.422305107116699219e-01 -3.391967117786407471e-01
3.066006600856781006e-01 -1.212716102600097656e-03 -2.999971508979797363e-01
5.377655029296875000e-01 -8.406036347150802612e-02 5.511569976806640625e-02
5.578766465187072754e-01 -7.888033986091613770e-02 -2.729602456092834473e-01
2.382739782333374023e-01 -3.246568888425827026e-02 -2.242390811443328857e-01
5.409416556358337402e-01 -1.283306032419204712e-01 4.895105957984924316e-02
3.295222222805023193e-01 -1.095972955226898193e-02 -2.172277271747589111e-01
3.277296721935272217e-01 -8.733078837394714355e-03 -5.401576161384582520e-01
3.213787972927093506e-01 -1.726663708686828613e-01 -2.463460415601730347e-01
2.007592469453811646e-01 -8.441639691591262817e-02 -1.467926055192947388e-01
4.050630927085876465e-01 3.731474280357360840e-03 -4.069564938545227051e-01
2.760489881038665771e-01 -1.307162195444107056e-01 -3.275746107101440430e-02
2.848419547080993652e-01 2.225026488304138184e-03 -3.611584305763244629e-01
5.267885923385620117e-01 -2.653418853878974915e-02 -3.182650804519653320e-01
1.866156607866287231e-01 -1.200850307941436768e-02 -4.393815398216247559e-01
3.198598027229309082e-01 7.665313780307769775e-03 -4.020439386367797852e-01
3.705534934997558594e-01 -1.732263267040252686e-01 -1.895042061805725098e-01
3.095614016056060791e-01 6.696209311485290527e-03 -4.502005577087402344e-01
2.903852462768554688e-01 -1.757479608058929443e-01 -1.972573101520538330e-01
4.026419520378112793e-01 -7.080381363630294800e-02 -5.043550133705139160e-01
1.844261735677719116e-01 -1.620225757360458374e-01 -2.787313461303710938e-01
2.166197896003723145e-01 -1.682643294334411621e-01 -2.487256675958633423e-01
3.648787438869476318e-01 7.855691015720367432e-03 -4.029787182807922363e-01
4.639189839363098145e-01 -3.706083446741104126e-02 -4.433069825172424316e-01
2.026939243078231812e-01 -9.407192468643188477e-03 -4.159699380397796631e-01
1.081912815570831299e-01 -4.252300783991813660e-02 -4.620220065116882324e-01
2.887024283409118652e-01 -1.679836958646774292e-01 -3.057368397712707520e-01
5.349438190460205078e-01 -4.406575858592987061e-02 -3.302918970584869385e-01
3.348826467990875244e-01 -1.714751720428466797e-01 -7.005919516086578369e-02
4.398053586483001709e-01 -3.109814599156379700e-02 -7.162955403327941895e-02
1.491297036409378052e-01 -1.322412788867950439e-01 -4.895414710044860840e-01
4.401677846908569336e-01 2.201735973358154297e-03 -3.468579649925231934e-01
9.526434540748596191e-02 -1.252695918083190918e-01 -4.308863580226898193e-01
4.643132686614990234e-01 -1.392770409584045410e-01 6.519657373428344727e-02
3.494967222213745117e-01 -3.652789443731307983e-02 -1.002670377492904663e-01
1.503494828939437866e-01 -8.101226389408111572e-02 -2.292275279760360718e-01
5.207366347312927246e-01 -1.777856051921844482e-02 -1.600522994995117188e-01
2.431244999170303345e-01 -1.719385683536529541e-01 -2.234559506177902222e-01
4.654166698455810547e-01 -1.612576544284820557e-01 -1.344521045684814453e-01
2.818155884742736816e-01 -6.807237863540649414e-03 -5.544053316116333008e-01
4.398373067378997803e-01 -2.320491522550582886e-02 -4.612272381782531738e-01
2.036394327878952026e-01 -1.297078728675842285e-01 -1.191109567880630493e-01
3.991685509681701660e-01 -1.629350185394287109e-01 2.300441265106201172e-04
4.179451763629913330e-01 -8.740253746509552002e-03 -1.783801466226577759e-01
3.786649107933044434e-01 -1.583536267280578613e-01 -2.976951003074645996e-01
5.967590212821960449e-01 -1.010715812444686890e-01 -1.011319011449813843e-01
3.595465123653411865e-01 7.920511066913604736e-03 -3.605273962020874023e-01
5.501281023025512695e-01 -1.337176561355590820e-01 -1.124156415462493896e-01
5.562269687652587891e-01 -1.324324756860733032e-01 3.441929817199707031e-03
5.042317509651184082e-01 -1.109617799520492554e-01 -3.086780607700347900e-01
3.896541893482208252e-01 7.003560662269592285e-03 -3.384884297847747803e-01
5.136827826499938965e-01 -1.380856335163116455e-01 5.090415477752685547e-02
2.298277318477630615e-01 -9.756997227668762207e-03 -3.499347865581512451e-01
4.689432978630065918e-01 -2.302436158061027527e-02 -4.203324913978576660e-01
4.287300407886505127e-01 -5.586202815175056458e-02 -4.137188196182250977e-03
4.874239265918731689e-01 -1.401119679212570190e-01 -2.345301359891891479e-01
3.688918352127075195e-01 -1.610829830169677734e-01 -3.197342157363891602e-03
5.928299427032470703e-01 -5.565994977951049805e-02 -7.535432279109954834e-02
4.361822605133056641e-01 2.605892717838287354e-03 -2.863456904888153076e-01
1.302929371595382690e-01 -1.199094504117965698e-01 -5.232638120651245117e-01
3.405436873435974121e-01 2.694658935070037842e-03 -2.990072071552276611e-01
1.472555994987487793e-01 -3.396893292665481567e-02 -3.780839741230010986e-01
1.995991617441177368e-01 -3.384381905198097229e-02 -2.747886478900909424e-01
1.292164474725723267e-01 -1.321109682321548462e-01 -4.730335474014282227e-01
2.773684859275817871e-01 -1.538453102111816406e-01 -5.697673559188842773e-02
1.252780705690383911e-01 -4.148340225219726562e-02 -3.988956809043884277e-01
4.133742451667785645e-01 -1.711234152317047119e-01 -6.669133901596069336e-02
3.338693380355834961e-01 -1.341254115104675293e-01 -4.376994371414184570e-01
