-2.231862023472785950e-02 -3.196669816970825195e-01 -3.906835615634918213e-02
-1.554914657026529312e-02 -6.626346707344055176e-02 -1.247689276933670044e-01
1.055910438299179077e-02 -4.924664795398712158e-01 -1.289263516664505005e-01
1.180128194391727448e-02 -2.640594840049743652e-01 1.956061273813247681e-01
-1.847771182656288147e-02 -4.167436361312866211e-01 -4.904094710946083069e-02
1.592845655977725983e-02 -1.946830749511718750e-01 5.107852444052696228e-02
1.675011776387691498e-02 -3.431205153465270996e-01 -8.190091699361801147e-02
-1.758114621043205261e-02 -2.781984210014343262e-02 -4.997260123491287231e-02
-2.156239748001098633e-02 -3.360939621925354004e-01 -6.028166040778160095e-02
-1.788690872490406036e-02 -1.232800036668777466e-01 1.969128996133804321e-01
1.764297857880592346e-02 -3.688496053218841553e-01 -3.191255964338779449e-03
1.502187177538871765e-02 -4.484305381774902344e-01 4.800597950816154480e-02
-1.356951054185628891e-02 -4.860339760780334473e-01 1.557387411594390869e-02
-1.577185280621051788e-02 -4.102250933647155762e-01 1.192624717950820923e-01
-2.079633809626102448e-02 -3.048382997512817383e-01 1.172401532530784607e-01
-2.006411366164684296e-02 -2.655472159385681152e-01 1.564974039793014526e-01
-6.376208737492561340e-03 -5.275179147720336914e-01 6.437936425209045410e-02
-1.494172867387533188e-02 -3.025320172309875488e-02 1.750114709138870239e-01
9.213030338287353516e-03 -8.783084154129028320e-02 -6.951595097780227661e-02
-2.023147232830524445e-02 -3.481180667877197266e-01 -1.000806316733360291e-01
4.274975508451461792e-03 -9.756614267826080322e-02 2.210090905427932739e-01
6.840985268354415894e-03 -2.965813875198364258e-02 7.604241371154785156e-02
1.589189842343330383e-02 -2.389882355928421021e-01 1.063153073191642761e-01
1.007516216486692429e-02 -6.853994727134704590e-02 6.081750616431236267e-02
-1.797053962945938110e-02 -4.064627587795257568e-01 7.170681655406951904e-02
-2.775424160063266754e-03 -4.654876589775085449e-01 -2.131764441728591919e-01
-1.962082646787166595e-02 -2.523430287837982178e-01 -1.519071310758590698e-01
1.776245608925819397e-02 -3.245062232017517090e-01 3.532711789011955261e-02
-1.484900992363691330e-02 -3.772469162940979004e-01 1.665102541446685791e-01
1.366143859922885895e-02 -3.600000143051147461e-01 1.523966640233993530e-01
1.059788092970848083e-02 -4.130125641822814941e-01 -1.838049292564392090e-01
2.797859488055109978e-03 2.721995115280151367e-03 9.835714101791381836e-02
-1.902576908469200134e-02 -4.046049118041992188e-01 2.804552018642425537e-02
1.049308292567729950e-02 -5.285792350769042969e-01 -3.321620821952819824e-02
1.325267367064952850e-02 -1.501496285200119019e-01 1.170222982764244080e-01
-2.217883989214897156e-02 -3.187496960163116455e-01 4.879631474614143372e-02
-1.465062703937292099e-02 -2.544821798801422119e-01 -2.110233157873153687e-01
-1.946007460355758667e-02 -3.443100452423095703e-01 -1.244002282619476318e-01
6.809316575527191162e-03 -1.672673374414443970e-01 2.321086823940277100e-01
1.187805831432342529e-02 -1.139549463987350464e-01 -4.106893762946128845e-02
-2.379518374800682068e-02 -2.544660866260528564e-01 2.045166119933128357e-02
1.362661644816398621e-02 -4.902999997138977051e-01 -7.089917548000812531e-03
3.402017755433917046e-03 -2.273543179035186768e-02 1.519496142864227295e-01
-2.297757565975189209e-02 -2.882167398929595947e-01 -4.150561988353729248e-02
-2.261717058718204498e-02 -2.814970016479492188e-01 7.636355608701705933e-02
1.050565578043460846e-02 -2.437994182109832764e-01 -1.799108833074569702e-01
1.317678578197956085e-02 -2.537766098976135254e-01 -1.456897258758544922e-01
-1.536316424608230591e-02 -4.583806991577148438e-01 -8.120000362396240234e-02
1.516395993530750275e-02 -4.525042772293090820e-01 -6.078853830695152283e-02
3.005229635164141655e-03 -5.338621139526367188e-01 -1.428317725658416748e-01
-2.063964493572711945e-02 -1.281727403402328491e-01 -1.011806055903434753e-01
1.675280742347240448e-02 -3.988994657993316650e-01 4.399673640727996826e-02
-1.386349461972713470e-02 -4.195727109909057617e-01 1.391039639711380005e-01
1.447846740484237671e-02 -4.474779367446899414e-01 6.858099251985549927e-02
-1.384169235825538635e-02 -3.898026645183563232e-01 -1.885174363851547241e-01
-1.992470584809780121e-02 -3.519162535667419434e-02 6.998018920421600342e-02
-1.837107725441455841e-02 -3.446945548057556152e-02 1.259339451789855957e-01
-1.864083483815193176e-02 -8.421763777732849121e-02 -1.025267764925956726e-01
-2.277028374373912811e-02 -2.777070403099060059e-01 -6.380175054073333740e-02
5.153912119567394257e-03 -1.540431529283523560e-01 -1.864893436431884766e-01
-2.150137536227703094e-02 -1.558932512998580933e-01 1.431559175252914429e-01
5.146944895386695862e-04 2.233582735061645508e-02 5.339046940207481384e-02
-1.840914599597454071e-02 -2.503381669521331787e-01 -1.702983975410461426e-01
1.603537425398826599e-02 -2.869591414928436279e-01 -9.572628885507583618e-02
-1.943002454936504364e-02 -3.571390509605407715e-01 1.022315621376037598e-01
-1.416328642517328262e-02 -4.825969338417053223e-01 -3.827768936753273010e-02
2.454866422340273857e-03 -6.826105713844299316e-02 2.147189378738403320e-01
-1.374100055545568466e-02 -4.878697693347930908e-01 -1.761776581406593323e-02
-1.610828563570976257e-02 -4.114165902137756348e-01 -1.384055763483047485e-01
3.339025890454649925e-03 -5.591568946838378906e-01 1.660320907831192017e-02
1.300380751490592957e-02 -4.505927562713623047e-01 9.987515956163406372e-02
6.401486694812774658e-03 -4.487465322017669678e-02 1.373684853315353394e-01
-2.201342023909091949e-02 -9.114831686019897461e-02 8.908482640981674194e-02
-7.447470910847187042e-03 -5.363523960113525391e-01 1.527985092252492905e-02
-1.270916312932968140e-02 2.857449650764465332e-02 8.254988119006156921e-03
9.148006327450275421e-03 -5.365836620330810547e-01 -6.182889267802238464e-02
1.607887260615825653e-02 -2.465479522943496704e-01 -7.177938520908355713e-02
-2.323972061276435852e-02 -2.857380807399749756e-01 -2.007561549544334412e-02
3.644048934802412987e-03 -3.008289635181427002e-02 -7.064242660999298096e-02
1.383937150239944458e-02 -1.386053562164306641e-01 -2.571320161223411560e-03
1.478285714983940125e-02 -4.669437408447265625e-01 1.225370541214942932e-02
-4.554723855108022690e-04 -4.528507590293884277e-01 1.892481297254562378e-01
1.597424969077110291e-02 -3.225299715995788574e-01 -1.058607771992683411e-01
1.533233001828193665e-02 -4.236739277839660645e-01 -9.279228746891021729e-02
-6.083243992179632187e-03 -3.738866150379180908e-01 2.328009456396102905e-01
-1.405902486294507980e-02 -4.310922026634216309e-01 -1.544839739799499512e-01
-2.003058791160583496e-02 -1.618272066116333008e-01 -1.296441107988357544e-01
1.693121902644634247e-02 -2.952653765678405762e-01 -6.752250343561172485e-02
-1.991995237767696381e-02 -1.269427984952926636e-01 1.675799340009689331e-01
-1.307681109756231308e-02 -5.220945179462432861e-02 2.093994617462158203e-01
-2.925259061157703400e-03 5.664855241775512695e-03 -6.901612132787704468e-02
-1.777314767241477966e-02 -1.246862113475799561e-02 9.752465039491653442e-02
1.385216973721981049e-02 -4.410240650177001953e-01 -1.181544661521911621e-01
1.336247287690639496e-02 -1.268146038055419922e-01 6.028182804584503174e-02
1.577022112905979156e-02 -3.248134255409240723e-01 1.204910352826118469e-01
-2.226603589951992035e-02 -1.313104331493377686e-01 1.143244504928588867e-01
-1.256448868662118912e-02 -4.984192848205566406e-01 -5.498498305678367615e-02
7.718541659414768219e-03 -3.971858024597167969e-01 -2.146962881088256836e-01
-1.285756006836891174e-02 -4.190647602081298828e-01 -1.809994131326675415e-01
1.641468703746795654e-02 -2.099617719650268555e-01 3.876500576734542847e-02
1.346859522163867950e-02 -1.354053616523742676e-01 8.177162706851959229e-02
-1.531401649117469788e-02 -4.334300756454467773e-03 -4.514889046549797058e-02
8.230539038777351379e-03 -5.447237491607666016e-01 -7.102404721081256866e-03
-2.279193513095378876e-02 -2.603559792041778564e-01 -7.243316620588302612e-02
1.139074796810746193e-03 -2.164441943168640137e-01 -2.368079274892807007e-01
-1.003387570381164551e-02 -5.162379741668701172e-01 -8.253366500139236450e-02
1.660412363708019257e-02 -4.198163151741027832e-01 1.124285347759723663e-02
-1.250849477946758270e-02 -3.011115193367004395e-01 -2.265068888664245605e-01
-1.726270094513893127e-02 -6.878176331520080566e-02 1.792570799589157104e-01
1.498487219214439392e-02 -3.824470639228820801e-01 -1.242814958095550537e-01
1.673336885869503021e-02 -3.781321942806243896e-01 6.678086519241333008e-02
-1.469157286919653416e-03 -3.632554113864898682e-01 -2.537253797054290771e-01
-2.234830334782600403e-02 -2.398212850093841553e-01 1.132738217711448669e-01
-1.953300088644027710e-02 -8.040812611579895020e-02 1.506148874759674072e-01
-1.595909520983695984e-02 -3.598158955574035645e-01 -1.777952015399932861e-01
1.201558671891689301e-02 -4.375016689300537109e-01 1.293502002954483032e-01
2.888123737648129463e-03 7.278025150299072266e-03 4.272563382983207703e-02
-2.124590612947940826e-02 -1.990310102701187134e-01 -1.182069778442382812e-01
-2.389503456652164459e-02 -2.441186308860778809e-01 -7.442389614880084991e-03
-2.746498677879571915e-03 2.497129440307617188e-01 2.765396796166896820e-02
-2.528105117380619049e-02 2.269687652587890625e-01 -1.646532304584980011e-02
2.250945381820201874e-02 1.277534663677215576e-01 -4.239122942090034485e-02
1.094606425613164902e-02 2.158225178718566895e-01 -4.476340487599372864e-02
1.471281889826059341e-02 2.142108380794525146e-01 -2.930944785475730896e-02
-1.377196423709392548e-02 2.453500330448150635e-01 4.080906510353088379e-02
-1.106785982847213745e-02 5.597311258316040039e-02 1.807049475610256195e-02
2.566514350473880768e-02 4.359365254640579224e-02 -7.881118915975093842e-03
2.715490758419036865e-02 7.483185827732086182e-02 -5.836302880197763443e-03
7.247592322528362274e-03 9.955257177352905273e-03 5.054298322647809982e-03
-1.017837505787611008e-02 1.090124920010566711e-01 5.884062498807907104e-02
-4.235212225466966629e-03 1.343891620635986328e-01 -5.112901329994201660e-02
2.176276966929435730e-02 1.469763666391372681e-01 9.440721012651920319e-03
-1.680104993283748627e-02 8.393247425556182861e-02 2.622613310813903809e-02
-2.648002700880169868e-03 1.604552417993545532e-01 -5.643754079937934875e-02
-1.560449227690696716e-02 7.680113613605499268e-02 1.978482306003570557e-02
-6.256719119846820831e-03 3.947577625513076782e-02 2.527084015309810638e-02
1.616194657981395721e-02 1.958813220262527466e-01 5.712913349270820618e-03
-2.705428749322891235e-02 1.761659085750579834e-01 3.069381788372993469e-02
1.857452094554901123e-02 8.799156546592712402e-02 3.466710448265075684e-02
-2.645058743655681610e-02 2.139831036329269409e-01 -1.087215263396501541e-02
-1.481225527822971344e-02 1.607323139905929565e-01 5.907164141535758972e-02
2.174455113708972931e-02 4.883901774883270264e-02 -3.153716027736663818e-02
-5.306422826834022999e-04 2.239485383033752441e-01 -5.382526293396949768e-02
2.679655328392982483e-02 9.494830667972564697e-02 -3.406041767448186874e-03
-6.867974996566772461e-03 8.280711621046066284e-02 -2.957652322947978973e-02
8.460964076220989227e-03 4.947537928819656372e-02 4.663916304707527161e-02
-4.383469931781291962e-03 4.138150811195373535e-02 -5.277265328913927078e-03
1.160637196153402328e-02 1.550700813531875610e-01 -5.816189199686050415e-02
-1.118835527449846268e-02 1.329571604728698730e-01 6.078346073627471924e-02
2.666979283094406128e-02 1.036339551210403442e-01 -2.319783344864845276e-02
2.293166331946849823e-02 2.529827505350112915e-02 -8.716644369997084141e-04
7.597522810101509094e-03 2.451052665710449219e-01 -2.529776189476251602e-03
-3.491521347314119339e-03 1.062541604042053223e-01 -4.501975700259208679e-02
-4.629354923963546753e-03 6.751324981451034546e-02 -2.625542692840099335e-02
1.871403865516185760e-02 6.978710740804672241e-02 -4.331753402948379517e-02
6.567658390849828720e-03 1.745068579912185669e-01 4.450726136565208435e-02
2.548771724104881287e-02 1.085378974676132202e-01 -3.213221952319145203e-02
1.923484914004802704e-02 1.624188423156738281e-01 1.374608930200338364e-02
-2.076785452663898468e-02 1.573811769485473633e-01 5.142399668693542480e-02
1.530908606946468353e-02 1.923236846923828125e-01 1.285977754741907120e-02
2.691761963069438934e-02 6.928338110446929932e-02 -1.835808902978897095e-02
6.940728053450584412e-03 2.337563633918762207e-01 1.426240056753158569e-02
-1.377713773399591446e-02 7.466376572847366333e-02 1.491202507168054581e-03
-2.644371055066585541e-02 2.112913131713867188e-01 3.658190369606018066e-02
-1.633786968886852264e-02 2.736975550651550293e-01 -2.756765112280845642e-02
-1.864371821284294128e-02 1.227654665708541870e-01 -1.454751938581466675e-02
-2.284175343811511993e-02 2.768934965133666992e-01 1.054491661489009857e-02
1.842516101896762848e-02 1.038891673088073730e-01 3.382515534758567810e-02
-2.520233578979969025e-02 2.536703944206237793e-01 -1.147803850471973419e-02
2.597517147660255432e-02 1.229046732187271118e-01 -1.119645684957504272e-02
-1.894968561828136444e-02 2.588410675525665283e-01 -2.947603352367877960e-02
-9.031724184751510620e-03 2.133532017469406128e-01 -5.136257037520408630e-02
2.403691038489341736e-02 1.492590308189392090e-01 -1.922308094799518585e-02
4.228150006383657455e-03 2.518040537834167480e-01 -3.558343276381492615e-02
1.384188141673803329e-02 5.067960917949676514e-02 4.090746864676475525e-02
-2.818066626787185669e-03 1.927330046892166138e-01 -5.718722939491271973e-02
1.187892351299524307e-02 1.374104171991348267e-01 -5.799965932965278625e-02
9.745091199874877930e-03 2.375118434429168701e-01 -5.141656380146741867e-03
-2.903778571635484695e-03 3.073561191558837891e-02 4.861506167799234390e-03
-2.658278867602348328e-02 1.662513315677642822e-01 6.568635813891887665e-03
-3.970324061810970306e-03 2.302873432636260986e-01 -5.212751775979995728e-02
1.132029574364423752e-02 1.886144727468490601e-01 2.884170599281787872e-02
1.232784241437911987e-02 1.165247336030006409e-01 -5.617890879511833191e-02
-5.924213677644729614e-03 2.418233156204223633e-01 3.694694489240646362e-02
1.679050736129283905e-02 1.606166362762451172e-02 1.959266886115074158e-02
1.724121742881834507e-03 1.018221378326416016e-01 5.867683142423629761e-02
2.522277645766735077e-02 1.010739058256149292e-01 -3.411082923412322998e-02
1.442532241344451904e-02 8.982211351394653320e-03 1.463973708450794220e-02
-1.678901351988315582e-02 8.722817897796630859e-02 3.324877470731735229e-02
-1.981327123939990997e-02 1.102532297372817993e-01 1.017916831187903881e-03
2.040199749171733856e-02 3.571952134370803833e-02 2.257091924548149109e-02
-2.876469865441322327e-02 2.276598513126373291e-01 1.167264766991138458e-02
-6.301952525973320007e-04 8.620620518922805786e-02 5.807396396994590759e-02
1.439888589084148407e-02 7.094144821166992188e-03 5.445263814181089401e-03
-1.421725843101739883e-02 8.303343504667282104e-02 -5.460002459585666656e-03
-1.204341184347867966e-02 2.724872231483459473e-01 -3.313810750842094421e-02
-2.777957729995250702e-02 2.283191531896591187e-01 -2.507821423932909966e-03
-2.574680373072624207e-02 1.841003745794296265e-01 3.986114263534545898e-02
-1.496706716716289520e-02 2.222479283809661865e-01 -4.314425960183143616e-02
2.226091921329498291e-03 2.563620209693908691e-01 9.103081189095973969e-03
1.119278464466333389e-02 2.045243829488754272e-01 -4.953204840421676636e-02
1.331677660346031189e-02 1.807951331138610840e-01 -5.314595997333526611e-02
-2.142798714339733124e-02 2.320581078529357910e-01 4.262900725007057190e-02
3.494878765195608139e-03 6.191044300794601440e-02 -3.716024011373519897e-02
-2.133712172508239746e-02 1.243901103734970093e-01 -1.817867625504732132e-03
1.313022896647453308e-02 2.220908403396606445e-01 -2.962771244347095490e-02
9.145411895588040352e-04 2.218060195446014404e-02 1.722200657241046429e-03
2.290207147598266602e-02 6.416076421737670898e-02 2.108488231897354126e-02
1.284929364919662476e-02 1.963346004486083984e-01 2.001746557652950287e-02
-3.204855136573314667e-03 1.809650212526321411e-01 -5.707212164998054504e-02
-1.820395514369010925e-02 2.069614380598068237e-01 -3.729165345430374146e-02
-5.654326174408197403e-03 2.546577453613281250e-01 -4.423748329281806946e-02
-1.897883228957653046e-02 1.690601259469985962e-01 5.494109541177749634e-02
7.851126603782176971e-03 1.458192020654678345e-01 -5.946011468768119812e-02
1.130598131567239761e-03 1.757398098707199097e-01 -5.924886465072631836e-02
-2.616209723055362701e-02 2.507866322994232178e-01 2.386173233389854431e-02
1.135612279176712036e-02 1.185358986258506775e-01 4.731434583663940430e-02
-2.404182776808738708e-02 2.367809414863586426e-01 -2.039923891425132751e-02
-1.281870994716882706e-02 2.494360208511352539e-01 -4.176785796880722046e-02
-1.437903009355068207e-02 9.366859495639801025e-02 -1.347877364605665207e-02
-1.367850136011838913e-02 6.784173101186752319e-02 2.445274032652378082e-02
-1.653258688747882843e-02 9.168201684951782227e-02 3.965232148766517639e-02
-1.253202464431524277e-02 8.209086954593658447e-02 -1.222601160407066345e-02
3.597934264689683914e-03 1.431813836097717285e-02 1.064385566860437393e-02
1.880176248960196972e-03 2.002804726362228394e-01 4.394125565886497498e-02
-1.697487756609916687e-02 1.624157875776290894e-01 -3.433160856366157532e-02
-1.976417563855648041e-02 2.680398821830749512e-01 -2.385068871080875397e-02
2.103972993791103363e-02 1.303227990865707397e-01 1.980170235037803650e-02
-1.441463129594922066e-03 3.912686556577682495e-02 4.085634648799896240e-02
-2.534854784607887268e-02 1.999893933534622192e-01 4.137036204338073730e-02
-2.312333323061466217e-03 2.757263928651809692e-02 2.232193760573863983e-02
-2.116779796779155731e-02 1.186878681182861328e-01 2.358007244765758514e-03
-1.780498586595058441e-02 1.155830025672912598e-01 -1.384781580418348312e-02
-2.122764848172664642e-02 2.422709763050079346e-01 3.922191634774208069e-02
2.719108760356903076e-02 6.953104585409164429e-02 -1.133111491799354553e-02
-1.606534980237483978e-02 2.848187685012817383e-01 -1.859174109995365143e-02
2.561642415821552277e-02 4.477606713771820068e-02 -1.344892196357250214e-03
-2.146233990788459778e-02 1.341462284326553345e-01 -8.132828399538993835e-03
1.597710140049457550e-02 1.059167087078094482e-02 -5.737322382628917694e-03
7.519033737480640411e-03 1.270073652267456055e-02 -3.233713563531637192e-03
2.442046813666820526e-02 9.953536093235015869e-02 1.289999857544898987e-02
-2.794688381254673004e-02 1.836591660976409912e-01 1.029966678470373154e-02
-1.133840810507535934e-02 1.208307743072509766e-01 -3.564308583736419678e-02
2.086316980421543121e-02 2.078764140605926514e-02 9.977844543755054474e-03
-2.661629952490329742e-02 2.579851746559143066e-01 1.322492398321628571e-02
1.520193740725517273e-02 1.212573349475860596e-01 3.933501243591308594e-02
-1.229402422904968262e-02 2.570343315601348877e-01 -4.000990465283393860e-02
1.680726930499076843e-02 8.595868945121765137e-02 -4.894732311367988586e-02
-2.866413444280624390e-03 6.762871891260147095e-02 5.358926951885223389e-02
2.639663219451904297e-02 1.164163053035736084e-01 -1.277258619666099548e-02
1.348916999995708466e-02 8.398262411355972290e-02 4.525940492749214172e-02
-6.630582734942436218e-03 4.901570826768875122e-02 -5.021211225539445877e-03
-2.259287796914577484e-02 2.638236284255981445e-01 -1.769203320145606995e-02
-1.941564492881298065e-02 1.754969954490661621e-01 -3.068768046796321869e-02
-2.161743305623531342e-02 1.133930087089538574e-01 2.193424291908740997e-02
-2.791658043861389160e-02 2.159961163997650146e-01 2.869920246303081512e-02
-8.482235134579241276e-04 7.349479198455810547e-02 5.571637675166130066e-02
-1.313235796988010406e-02 1.279053092002868652e-01 -3.393187373876571655e-02
1.819778420031070709e-02 1.593282073736190796e-01 1.968277432024478912e-02
1.055067870765924454e-02 2.600673586130142212e-02 -2.259869500994682312e-02
-1.046647131443023682e-02 8.499379456043243408e-02 -2.135666273534297943e-02
1.508174464106559753e-02 1.053316071629524231e-01 4.156777262687683105e-02
-5.400364752858877182e-03 4.916609078645706177e-02 4.162930697202682495e-02
2.491209469735622406e-02 4.812318086624145508e-02 7.865515537559986115e-03
5.048160906881093979e-03 8.131010830402374268e-02 5.502660199999809265e-02
-1.567899994552135468e-02 2.348053902387619019e-01 -4.073837399482727051e-02
1.637306436896324158e-02 1.819727867841720581e-01 1.505037117749452591e-02
2.427187561988830566e-02 1.438762098550796509e-01 -2.548970840871334076e-02
-5.894204135984182358e-03 2.840820848941802979e-01 -1.462932489812374115e-02
1.814006641507148743e-02 1.613270640373229980e-01 -4.826316982507705688e-02
1.456835120916366577e-02 5.768883973360061646e-02 4.111674800515174866e-02
1.677485927939414978e-02 1.133284345269203186e-01 3.681857883930206299e-02
2.479257807135581970e-02 5.587647855281829834e-02 1.124749984592199326e-02
-2.396865002810955048e-02 2.218471616506576538e-01 -2.165144868195056915e-02
1.414324995130300522e-02 1.391930133104324341e-01 3.829621151089668274e-02
8.113645948469638824e-03 2.200088798999786377e-01 2.078387700021266937e-02
1.689006574451923370e-02 1.396579742431640625e-01 3.105088509619235992e-02
-7.104639429599046707e-03 1.185640171170234680e-01 -4.313747212290763855e-02
5.315337330102920532e-03 3.507895022630691528e-02 -2.372944355010986328e-02
1.582371443510055542e-02 1.751285940408706665e-01 -4.999366030097007751e-02
-6.662725005298852921e-03 3.989995270967483521e-02 1.408546604216098785e-02
-2.462217584252357483e-02 1.948828250169754028e-01 -1.681375876069068909e-02
-1.453196629881858826e-02 1.276528090238571167e-01 5.752738565206527710e-02
-2.406437695026397705e-02 1.549134552478790283e-01 4.106158390641212463e-02
1.258639735169708729e-03 1.688001751899719238e-01 -5.923593044281005859e-02
-1.645605638623237610e-02 1.228969395160675049e-01 -2.267022058367729187e-02
1.132340636104345322e-02 8.126407861709594727e-03 -2.659552847035229206e-04
-2.413962222635746002e-02 1.365985721349716187e-01 1.057715248316526413e-02
-2.101622521877288818e-02 1.723184287548065186e-01 -2.516003698110580444e-02
2.216603048145771027e-02 1.659649312496185303e-01 -1.181804668158292770e-02
2.733286470174789429e-03 1.008052676916122437e-01 -5.045093223452568054e-02
2.809251192957162857e-03 2.649083435535430908e-01 -1.443489547818899155e-02
-1.733185909688472748e-02 1.006460189819335938e-01 -5.278061144053936005e-03
1.478535868227481842e-02 2.043087631464004517e-01 5.611282773315906525e-03
2.136590518057346344e-02 1.542591303586959839e-01 7.445429451763629913e-03
2.204369381070137024e-02 1.589255481958389282e-01 -3.379306197166442871e-02
-2.380546182394027710e-02 1.342143416404724121e-01 2.997593022882938385e-02
2.169330045580863953e-02 1.108345091342926025e-01 -4.548901692032814026e-02
-2.285315655171871185e-02 1.925195753574371338e-01 -2.314871177077293396e-02
1.849856041371822357e-02 9.328728914260864258e-02 -4.885829985141754150e-02
5.025647580623626709e-03 1.649380475282669067e-01 4.945211112499237061e-02
8.592381142079830170e-03 1.106843352317810059e-02 2.177136018872261047e-02
-1.850234717130661011e-02 9.584386646747589111e-02 9.174965322017669678e-03
-2.162731066346168518e-02 2.391226440668106079e-01 -2.761442027986049652e-02
1.909279078245162964e-02 1.406622380018234253e-01 -4.969635233283042908e-02
-2.632309496402740479e-02 2.396232783794403076e-01 -1.005373615771532059e-02
9.139519184827804565e-03 2.419497221708297729e-01 -2.410816214978694916e-02
-1.620697230100631714e-02 1.330495029687881470e-01 -2.765641920268535614e-02
1.380055956542491913e-02 7.351810485124588013e-02 -4.696947336196899414e-02
1.844326779246330261e-02 1.314769089221954346e-01 2.860357053577899933e-02
8.773765526711940765e-03 2.295501530170440674e-01 -4.175128042697906494e-02
2.458803169429302216e-02 8.932647109031677246e-02 1.367109455168247223e-02
-2.320194058120250702e-02 1.333051770925521851e-01 4.151134751737117767e-03
-3.333047963678836823e-03 1.195892021059989929e-01 -4.893740266561508179e-02
2.091966196894645691e-02 1.233991160988807678e-01 2.232416160404682159e-02
-1.603351719677448273e-02 1.352469176054000854e-01 5.668514594435691833e-02
3.282574471086263657e-03 3.040864318609237671e-02 -1.629866659641265869e-02
-7.725676521658897400e-03 9.094493836164474487e-02 -3.161081671714782715e-02
-2.242653630673885345e-02 1.221143975853919983e-01 2.962250448763370514e-02
-2.474568225443363190e-02 2.445499300956726074e-01 -1.635935716331005096e-02
-4.306400660425424576e-03 2.717383801937103271e-01 -3.292844071984291077e-02
9.447118267416954041e-03 1.473494917154312134e-01 4.612499102950096130e-02
5.987450480461120605e-03 4.337581992149353027e-02 -3.017582930624485016e-02
-2.323016710579395294e-02 2.132734358310699463e-01 4.467255249619483948e-02
-9.486002847552299500e-03 5.061860382556915283e-02 2.548983693122863770e-02
1.153885386884212494e-02 3.297973424196243286e-02 3.820475563406944275e-02
-1.320655271410942078e-02 8.070975542068481445e-02 4.415665566921234131e-02
-2.764380909502506256e-02 1.926976144313812256e-01 3.067157045006752014e-02
5.200982093811035156e-03 2.561559081077575684e-01 -7.729057688266038895e-03
-2.815391682088375092e-02 1.991830170154571533e-01 2.731904201209545135e-02
6.369903218001127243e-03 1.271600574254989624e-01 5.376594141125679016e-02
1.996400766074657440e-02 1.846374422311782837e-01 -1.739301718771457672e-02
2.619871497154235840e-02 1.183675378561019897e-01 -2.150579355657100677e-02
1.013843063265085220e-02 2.065181583166122437e-01 2.296635694801807404e-02
-2.492963522672653198e-02 1.438569575548171997e-01 1.096900459378957748e-02
-6.706077838316559792e-04 3.463456034660339355e-02 -1.059173047542572021e-02
2.698522433638572693e-02 1.033543795347213745e-01 -1.439643744379281998e-02
1.538709178566932678e-02 2.112364321947097778e-01 -8.567857556045055389e-03
-1.074158865958452225e-02 2.389033287763595581e-01 4.246408864855766296e-02
-1.048119086772203445e-02 9.764492511749267578e-02 -2.816705033183097839e-02
-1.986900903284549713e-02 2.850112318992614746e-01 -6.805844604969024658e-03
2.043553441762924194e-02 1.472545564174652100e-01 -4.534521326422691345e-02
-1.974811032414436340e-02 2.802464365959167480e-01 -1.504252757877111435e-02
-2.346025966107845306e-02 1.290093064308166504e-01 1.388227008283138275e-02
6.987080909311771393e-03 8.106891810894012451e-02 -4.771611839532852173e-02
2.218042686581611633e-02 8.286953717470169067e-02 2.416943013668060303e-02
2.567454054951667786e-02 1.278430372476577759e-01 -2.104081772267818451e-02
7.618485949933528900e-03 1.840478181838989258e-01 -5.823691561818122864e-02
1.061929389834403992e-02 9.358522295951843262e-02 4.980033263564109802e-02
-1.928365416824817657e-02 1.549090892076492310e-01 -2.585903927683830261e-02
5.593955516815185547e-03 2.049672752618789673e-01 3.538836538791656494e-02
-1.149076037108898163e-02 6.251018494367599487e-02 3.610799787566065788e-03
-2.019571885466575623e-02 1.058209240436553955e-01 2.974506653845310211e-02
-1.624906994402408600e-02 9.867460280656814575e-02 4.551560431718826294e-02
-1.608330942690372467e-02 1.441455632448196411e-01 -3.176509961485862732e-02
-1.107095391489565372e-03 2.663387954235076904e-01 8.961871266365051270e-03
-9.087392129004001617e-03 2.665845751762390137e-01 2.532146498560905457e-02
4.871349316090345383e-03 1.953215897083282471e-02 -7.671326864510774612e-03
-3.258123993873596191e-03 2.780888080596923828e-01 -2.637096215039491653e-03
-9.687920100986957550e-03 1.778962612152099609e-01 -5.030684918165206909e-02
-1.012155553326010704e-05 5.933450907468795776e-02 -3.076528571546077728e-02
-2.537838742136955261e-02 2.615259885787963867e-01 1.873946376144886017e-02
1.234809588640928268e-02 2.054880559444427490e-01 1.594499312341213226e-02
-1.328698731958866119e-02 1.459534466266632080e-01 -3.889503329992294312e-02
-2.789067476987838745e-02 1.819468289613723755e-01 2.378496900200843811e-02
-2.500264719128608704e-02 1.636120975017547607e-01 3.938141837716102600e-02
-8.524671429768204689e-04 3.222773969173431396e-02 3.578725084662437439e-02
-1.889366284012794495e-02 9.648117423057556152e-02 2.761057391762733459e-02
-1.821663603186607361e-02 2.202896922826766968e-01 4.881590232253074646e-02
-2.807881496846675873e-02 2.226762622594833374e-01 2.615367248654365540e-02
-3.783058200497180223e-04 2.730548977851867676e-01 -1.813143864274024963e-02
2.404970489442348480e-02 7.441569119691848755e-02 -3.522625565528869629e-02
-2.303614281117916107e-02 1.834675371646881104e-01 -2.075053378939628601e-02
1.079028937965631485e-02 1.818360090255737305e-01 3.314921259880065918e-02
-1.876399293541908264e-02 1.037119403481483459e-01 5.286653758957982063e-04
-2.844674699008464813e-02 2.330472171306610107e-01 1.780355721712112427e-02
2.134329825639724731e-02 9.142401069402694702e-02 2.647538855671882629e-02
2.633993700146675110e-02 5.150961130857467651e-02 -9.371245279908180237e-03
-2.425717003643512726e-02 2.700110971927642822e-01 1.437853462994098663e-02
-1.655109226703643799e-02 2.880165278911590576e-01 -1.248988509178161621e-02
-2.729771845042705536e-02 1.760818809270858765e-01 6.998331751674413681e-03
-2.223497815430164337e-02 1.183205619454383850e-01 1.681001670658588409e-02
-2.832492627203464508e-02 2.008826285600662231e-01 5.298254545778036118e-03
1.993448473513126373e-02 1.511481404304504395e-02 -2.456244314089417458e-03
-8.680115453898906708e-03 7.384552806615829468e-02 -1.959456875920295715e-02
3.028912469744682312e-03 9.222014248371124268e-02 5.734156444668769836e-02
-2.820101752877235413e-02 1.902811080217361450e-01 9.188245981931686401e-03
-2.001013234257698059e-02 1.314297020435333252e-01 4.804818704724311829e-02
1.319995895028114319e-02 1.288087218999862671e-01 4.242524132132530212e-02
-8.558085188269615173e-03 2.872287034988403320e-01 -3.451575525104999542e-03
8.327278308570384979e-03 1.979399174451828003e-01 3.235768526792526245e-02
-2.595716901123523712e-02 2.629351317882537842e-01 1.209517125971615314e-03
-1.889821141958236694e-02 2.566937208175659180e-01 3.452847525477409363e-02
-1.560129225254058838e-02 1.500485837459564209e-01 5.837309360504150391e-02
8.379196748137474060e-03 2.115721702575683594e-01 -5.143519863486289978e-02
-2.698864322155714035e-03 7.831230759620666504e-02 -3.571645915508270264e-02
2.524942718446254730e-02 1.046425104141235352e-01 6.880505476146936417e-03
1.649430766701698303e-02 1.995693892240524292e-01 -3.135827719233930111e-04
9.581382619217038155e-05 4.901058971881866455e-02 4.794281721115112305e-02
2.212473191320896149e-02 7.003785669803619385e-02 2.430361323058605194e-02
2.021012827754020691e-02 3.057389706373214722e-02 -2.318861894309520721e-02
-1.246287208050489426e-02 1.412717103958129883e-01 6.044492870569229126e-02
-1.352512836456298828e-02 1.565661430358886719e-01 -4.082915559411048889e-02
1.835356093943119049e-02 1.957163065671920776e-01 -1.929704658687114716e-02
3.834090661257505417e-03 6.748096644878387451e-02 5.359900742769241333e-02
2.467568963766098022e-02 1.227694153785705566e-01 -3.401064127683639526e-02
1.135459356009960175e-02 2.331446409225463867e-01 -2.184320986270904541e-02
-2.509957738220691681e-02 1.544825136661529541e-01 1.634022686630487442e-03
1.298406044952571392e-03 2.184146046638488770e-01 3.761317580938339233e-02
1.244304422289133072e-02 2.201237976551055908e-01 2.253528451547026634e-03
2.282654494047164917e-02 1.352365911006927490e-01 -3.981634601950645447e-02
-2.197975106537342072e-02 1.922226846218109131e-01 4.959278553724288940e-02
-4.236529581248760223e-03 1.941020339727401733e-01 5.293069034814834595e-02
2.638702839612960815e-02 1.113192737102508545e-01 -6.508992053568363190e-03
-2.324898913502693176e-02 1.526929438114166260e-01 -9.201882407069206238e-03
-6.178367417305707932e-03 9.325003623962402344e-02 5.845785140991210938e-02
1.625326811335980892e-03 1.332163512706756592e-01 -5.635296180844306946e-02
1.009974069893360138e-02 8.924371004104614258e-02 -5.124492198228836060e-02
-2.166434004902839661e-02 2.301534116268157959e-01 -2.848247624933719635e-02
1.016370486468076706e-02 1.059031784534454346e-01 -5.487721413373947144e-02
1.538088917732238770e-02 5.130942910909652710e-02 -3.856412693858146667e-02
1.877022907137870789e-02 1.776259392499923706e-01 6.134790834039449692e-03
4.867245908826589584e-03 2.450287938117980957e-01 -4.000097513198852539e-02
9.742167778313159943e-03 1.371307522058486938e-01 4.751071706414222717e-02
-2.153227105736732483e-02 1.288616061210632324e-01 4.154181852936744690e-02
1.160864718258380890e-02 2.180029451847076416e-02 3.208737447857856750e-02
4.393134731799364090e-03 2.180311381816864014e-01 3.172528371214866638e-02
-2.409580908715724945e-02 1.698331087827682495e-01 4.424007982015609741e-02
-2.038172446191310883e-02 1.408641338348388672e-01 -1.664651930332183838e-02
-2.676309458911418915e-02 1.628131866455078125e-01 2.348454296588897705e-02
4.557042848318815231e-03 1.622822880744934082e-01 -5.991731211543083191e-02
-1.620760373771190643e-02 1.112300828099250793e-01 5.106028914451599121e-02
5.437172017991542816e-03 1.925157159566879272e-01 4.069656133651733398e-02
1.758091966621577740e-04 4.460214078426361084e-02 -2.161802537739276886e-02
-1.075372006744146347e-02 2.390076518058776855e-01 -4.629896581172943115e-02
1.272920612245798111e-02 3.984552621841430664e-02 3.946661949157714844e-02
2.342280466109514236e-03 2.291275411844253540e-01 3.017225675284862518e-02
-1.325496844947338104e-02 2.069026976823806763e-01 -4.636259004473686218e-02
1.946098357439041138e-02 1.463965475559234619e-01 2.025959827005863190e-02
-1.045293640345335007e-02 1.198155432939529419e-01 6.013203039765357971e-02
-1.787696592509746552e-02 1.241733804345130920e-01 5.133196339011192322e-02
-8.864827454090118408e-03 2.053789198398590088e-01 5.295273289084434509e-02
-1.538609527051448822e-02 2.885806858539581299e-01 5.353810265660285950e-03
1.711576431989669800e-02 2.034493684768676758e-01 -1.751274615526199341e-02
2.023458108305931091e-02 4.606122523546218872e-02 2.655053883790969849e-02
-2.852846123278141022e-02 2.249384522438049316e-01 4.737594164907932281e-03
-2.593982964754104614e-02 2.639414072036743164e-01 9.596569463610649109e-03
-6.159560289233922958e-04 2.278847992420196533e-02 1.214295160025358200e-02
2.072741277515888214e-03 2.373833656311035156e-01 2.574531920254230499e-02
2.278184890747070312e-02 5.044244974851608276e-02 1.921310275793075562e-02
-8.865266107022762299e-03 6.469495594501495361e-02 4.512195661664009094e-02
1.123647857457399368e-02 2.284043431282043457e-01 -9.674908942542970181e-04
2.623894996941089630e-02 5.576421320438385010e-02 1.529101864434778690e-04
-2.304019220173358917e-02 1.761859059333801270e-01 -1.893677189946174622e-02
-2.273336611688137054e-02 1.263366341590881348e-01 7.826796732842922211e-03
-3.479020204395055771e-03 1.125982925295829773e-01 -4.690263792872428894e-02
1.092762872576713562e-02 1.362164318561553955e-02 -1.020262297242879868e-02
1.565658673644065857e-02 1.977974176406860352e-02 2.525752596557140350e-02
-2.883327193558216095e-02 2.226419746875762939e-01 1.623047515749931335e-02
-7.594488095492124557e-03 4.710429906845092773e-02 3.236394003033638000e-02
-6.336068268865346909e-03 2.562069892883300781e-01 2.912550047039985657e-02
2.292901277542114258e-02 3.654816746711730957e-02 -2.117526903748512268e-02
7.091732695698738098e-03 2.422050833702087402e-01 4.904335364699363708e-03
-2.679964713752269745e-02 2.207534313201904297e-01 -9.268619120121002197e-03
-2.677400596439838409e-02 2.279248833656311035e-01 -9.201221168041229248e-03
-2.102182991802692413e-02 1.483508348464965820e-01 4.952944815158843994e-02
1.407303381711244583e-02 1.641758084297180176e-01 -5.505731329321861267e-02
3.411047160625457764e-03 2.501958608627319336e-01 1.151508931070566177e-02
1.953654736280441284e-02 1.854824721813201904e-01 -2.745177969336509705e-02
5.556140094995498657e-04 2.363409101963043213e-01 -4.985704272985458374e-02
-9.603121317923069000e-03 5.861508101224899292e-02 -2.451931824907660484e-03
-7.252524606883525848e-03 1.568434089422225952e-01 -5.117251351475715637e-02
2.499515935778617859e-02 6.437795609235763550e-02 1.171218603849411011e-02
-2.846539719030261040e-04 2.037265449762344360e-01 -5.728209391236305237e-02
5.762598942965269089e-03 2.544514536857604980e-01 -2.346724458038806915e-02
5.148496013134717941e-03 2.526664137840270996e-01 4.355966811999678612e-04
1.401380263268947601e-02 1.981495320796966553e-01 -4.590192437171936035e-02
-2.715270780026912689e-02 1.837885677814483643e-01 3.243859112262725830e-02
2.150943689048290253e-02 1.367676854133605957e-01 1.546967960894107819e-02
-2.887113392353057861e-02 2.170662879943847656e-01 1.082972809672355652e-02
-1.393011305481195450e-02 7.121873646974563599e-02 3.068817034363746643e-02
2.673548460006713867e-02 8.503893017768859863e-02 -3.924869815818965435e-04
-2.163560129702091217e-02 1.388750672340393066e-01 4.531383141875267029e-02
2.081309445202350616e-02 2.051374316215515137e-02 -1.096608210355043411e-02
-2.754394896328449249e-03 2.571052908897399902e-01 2.232166379690170288e-02
2.465119585394859314e-02 1.359473317861557007e-01 -2.834849245846271515e-02
-2.849205583333969116e-02 2.184054255485534668e-01 3.845362458378076553e-03
-1.685280352830886841e-02 8.359667658805847168e-02 1.748974807560443878e-02
1.104148291051387787e-02 1.757828295230865479e-01 -5.682595074176788330e-02
-7.632027845829725266e-04 2.142068445682525635e-01 4.262734204530715942e-02
-1.874407753348350525e-02 1.464115679264068604e-01 -2.475977130234241486e-02
2.083494141697883606e-02 1.698010414838790894e-01 -3.400781378149986267e-02
-2.644686773419380188e-02 2.232145667076110840e-01 3.433828428387641907e-02
2.015069499611854553e-02 1.544740349054336548e-01 -4.440876096487045288e-02
-2.603384479880332947e-02 2.346870750188827515e-01 3.232907503843307495e-02
1.588852144777774811e-02 3.372447937726974487e-02 3.246790170669555664e-02
-1.560314372181892395e-02 8.279386162757873535e-02 3.341482020914554596e-03
-1.630733907222747803e-02 9.343786537647247314e-02 -4.321055952459573746e-03
-3.581621218472719193e-03 1.676916331052780151e-01 5.793746933341026306e-02
-2.053056657314300537e-02 2.636606097221374512e-01 2.905973233282566071e-02
9.006435982882976532e-03 2.068009972572326660e-02 -1.632874459028244019e-02
1.606347411870956421e-02 1.735917925834655762e-01 2.091502957046031952e-02
3.375348169356584549e-03 2.625638246536254883e-01 -2.106810547411441803e-02
2.171760238707065582e-02 1.710957437753677368e-01 -1.894104853272438049e-02
9.249063208699226379e-03 1.022254899144172668e-01 5.158267542719841003e-02
3.230025526136159897e-03 2.601563036441802979e-01 -1.340599730610847473e-03
-2.710793912410736084e-02 2.414758354425430298e-01 2.470071241259574890e-02
-1.768114045262336731e-02 2.258886098861694336e-01 -3.806170821189880371e-02
-2.607677876949310303e-02 1.605339050292968750e-01 3.101173415780067444e-02
-6.765351165086030960e-03 5.459158867597579956e-02 -1.048871967941522598e-02
-5.164708942174911499e-03 3.805030882358551025e-02 4.038663581013679504e-03
-7.434240542352199554e-03 2.833551168441772461e-01 3.218905068933963776e-03
1.925349421799182892e-02 1.114726364612579346e-01 3.042642027139663696e-02
2.608844079077243805e-02 1.062141060829162598e-01 -1.589411986060440540e-04
2.291074767708778381e-02 1.605132967233657837e-01 -1.648451201617717743e-02
-1.747653819620609283e-02 2.764909267425537109e-01 2.137142419815063477e-02
2.495192363858222961e-02 9.297089278697967529e-02 -3.508658707141876221e-02
-1.930775865912437439e-02 1.394505798816680908e-01 5.179775878787040710e-02
-3.155068494379520416e-03 2.243903875350952148e-01 4.166769608855247498e-02
-3.978847817052155733e-04 2.709408104419708252e-01 -1.758368685841560364e-03
-2.585815452039241791e-02 1.754826605319976807e-01 -4.938128404319286346e-03
1.149859651923179626e-02 2.252004444599151611e-01 -3.571952506899833679e-02
-2.393104135990142822e-03 2.778333127498626709e-01 -9.597464464604854584e-03
-1.305778976529836655e-02 1.944712400436401367e-01 -4.642511531710624695e-02
1.893051527440547943e-02 2.440752834081649780e-02 2.084531448781490326e-02
-1.915357657708227634e-03 7.172966748476028442e-02 -3.396204113960266113e-02
-8.454935625195503235e-03 5.115214735269546509e-02 1.572478795424103737e-03
-1.412430219352245331e-02 8.853954821825027466e-02 4.625058919191360474e-02
2.049412764608860016e-02 1.770441681146621704e-01 -6.970502901822328568e-03
7.092994637787342072e-03 1.127350926399230957e-01 5.392614379525184631e-02
-5.729199619963765144e-04 2.431251853704452515e-01 -4.780844971537590027e-02
-5.256645847111940384e-03 2.670303285121917725e-01 1.898021623492240906e-02
8.513125590980052948e-03 2.396129965782165527e-01 -3.322694823145866394e-02
-3.103236667811870575e-03 3.470093756914138794e-02 -1.583155244588851929e-03
2.360446564853191376e-02 1.410344988107681274e-01 -3.382372856140136719e-02
1.306229084730148315e-02 2.254831492900848389e-01 -1.767130382359027863e-02
1.513659954071044922e-02 1.477100104093551636e-01 -5.531723797321319580e-02
2.722776122391223907e-02 8.982720971107482910e-02 -9.067903272807598114e-03
2.739057876169681549e-03 1.524550318717956543e-01 5.480280891060829163e-02
2.591488417237997055e-03 1.775956600904464722e-01 4.979423433542251587e-02
-1.785909384489059448e-02 1.767788827419281006e-01 5.595993623137474060e-02
1.836011745035648346e-02 1.197518780827522278e-01 3.152922913432121277e-02
-2.219368517398834229e-02 2.728216648101806641e-01 -1.334872655570507050e-02
2.277594245970249176e-02 1.025802940130233765e-01 -4.259437695145606995e-02
1.378296688199043274e-02 6.575128436088562012e-02 4.352488741278648376e-02
-1.777075976133346558e-02 2.435903698205947876e-01 -3.568895906209945679e-02
2.542772702872753143e-02 4.606419056653976440e-02 -1.625297218561172485e-02
1.785116642713546753e-02 1.967231631278991699e-01 -9.148467332124710083e-03
9.293665643781423569e-04 1.403405815362930298e-01 -5.689449235796928406e-02
-2.736623957753181458e-02 2.499680221080780029e-01 2.587364753708243370e-03
-1.062296330928802490e-02 2.811172008514404297e-01 1.337301731109619141e-02
2.453653514385223389e-02 1.285614818334579468e-01 1.706242794170975685e-03
1.936344802379608154e-02 8.094239234924316406e-02 3.277572244405746460e-02
9.864417836070060730e-03 2.281141132116317749e-01 7.361548021435737610e-03
-7.718496490269899368e-03 5.802451074123382568e-02 4.316283389925956726e-02
1.642577932216227055e-03 1.835660636425018311e-02 1.964780874550342560e-02
1.431245263665914536e-02 1.703991442918777466e-01 2.812220901250839233e-02
-2.515383623540401459e-02 1.452219188213348389e-01 2.654490619897842407e-02
-1.667075790464878082e-02 1.948431134223937988e-01 5.494431778788566589e-02
2.103131078183650970e-02 1.649139076471328735e-01 1.833973685279488564e-03
1.970289647579193115e-02 5.900440365076065063e-02 3.052857518196105957e-02
-2.171769551932811737e-02 1.988014727830886841e-01 -2.767222560942173004e-02
-2.769613452255725861e-02 1.756409704685211182e-01 1.952831447124481201e-02
2.475220896303653717e-02 1.392985880374908447e-01 -1.055451203137636185e-02
-1.423435285687446594e-02 2.631677389144897461e-01 -3.562541678547859192e-02
-9.519618004560470581e-03 2.525796294212341309e-01 3.489422425627708435e-02
-2.389744389802217484e-03 1.361551731824874878e-01 6.063438206911087036e-02
1.390270772390067577e-04 2.753853797912597656e-02 -4.391787573695182800e-03
2.846272662281990051e-03 1.163250878453254700e-01 -5.418686196208000183e-02
-1.044147554785013199e-02 2.810235619544982910e-01 -2.717736177146434784e-02
-2.306877635419368744e-02 1.775772422552108765e-01 4.776016250252723694e-02
1.629303768277168274e-02 2.069017440080642700e-01 -2.621891908347606659e-02
2.306811325252056122e-02 8.819143474102020264e-02 -4.046532139182090759e-02
7.390308193862438202e-03 6.972021609544754028e-02 -4.402432963252067566e-02
-7.371502928435802460e-03 1.004403457045555115e-01 -3.643131256103515625e-02
-2.439152635633945465e-02 1.642550975084304810e-01 -8.613077923655509949e-03
-1.613919809460639954e-02 1.057911664247512817e-01 -1.458192616701126099e-02
1.393782556988298893e-03 2.660303413867950439e-01 -2.633713930845260620e-02
1.762142218649387360e-02 1.196966618299484253e-01 -5.259098857641220093e-02
2.552615664899349213e-02 1.157207936048507690e-01 -3.040827251970767975e-02
-8.173979818820953369e-03 1.459603160619735718e-01 -4.808115586638450623e-02
-2.699770778417587280e-02 1.938798427581787109e-01 -4.154587630182504654e-03
-2.064155228435993195e-02 1.650615036487579346e-01 -2.447950094938278198e-02
3.485484980046749115e-03 2.524478733539581299e-02 -1.142920181155204773e-02
2.607911266386508942e-02 5.429742485284805298e-02 -1.781897805631160736e-02
-2.489244379103183746e-02 1.407370418310165405e-01 1.982539147138595581e-02
-2.172184921801090240e-02 2.501366138458251953e-01 -2.523404173552989960e-02
-1.811600103974342346e-02 1.091257184743881226e-01 4.488588869571685791e-02
-1.143236644566059113e-02 1.545588225126266479e-01 6.084643304347991943e-02
2.413534745573997498e-02 1.230492517352104187e-01 7.286559790372848511e-03
2.458814904093742371e-02 7.572057098150253296e-02 1.448236405849456787e-02
1.809270307421684265e-02 1.907341629266738892e-01 -3.384844586253166199e-02
-2.177598886191844940e-03 1.295781880617141724e-01 6.081534922122955322e-02
2.592101693153381348e-02 7.177589833736419678e-02 -2.717456221580505371e-02
-1.424019690603017807e-02 2.635167837142944336e-01 3.120970726013183594e-02
-3.327045589685440063e-03 5.818763375282287598e-02 4.974398016929626465e-02
1.920087449252605438e-02 1.840599775314331055e-01 -3.341289702802896500e-03
-2.630722336471080780e-02 1.579096615314483643e-01 1.245328783988952637e-02
2.337605692446231842e-02 1.528927981853485107e-01 -2.685392275452613831e-02
2.730808779597282410e-02 7.604992389678955078e-02 -1.258987654000520706e-02
-1.901047118008136749e-02 2.356395423412322998e-01 -3.440476208925247192e-02
-1.908790692687034607e-02 1.951770782470703125e-01 -3.446061909198760986e-02
2.230730094015598297e-02 6.653796881437301636e-02 -3.729275614023208618e-02
-1.145765744149684906e-02 5.876968055963516235e-02 1.152656786143779755e-02
1.088836789131164551e-02 3.584321588277816772e-02 -2.980033308267593384e-02
-1.460538525134325027e-02 7.477580755949020386e-02 8.082634769380092621e-03
8.818239904940128326e-03 4.758226871490478516e-02 -3.518147021532058716e-02
-4.559108056128025055e-03 2.348243892192840576e-01 3.874504193663597107e-02
2.432822994887828827e-02 1.313473433256149292e-01 -3.335519880056381226e-02
1.642151176929473877e-02 1.888691782951354980e-01 -4.314389079809188843e-02
2.691486291587352753e-02 9.494465589523315430e-02 -2.218347042798995972e-02
-3.137647174298763275e-03 1.195497512817382812e-01 6.122309714555740356e-02
1.341542974114418030e-02 1.888708472251892090e-01 2.229382470250129700e-02
1.391015388071537018e-02 2.125827372074127197e-01 -3.671279177069664001e-02
-2.093368954956531525e-02 1.191909536719322205e-01 3.862622380256652832e-02
2.438675425946712494e-02 3.394620120525360107e-02 -8.849618956446647644e-03
-2.443634904921054840e-02 2.097096443176269531e-01 -1.950106211006641388e-02
1.052168197929859161e-03 1.121094971895217896e-01 5.933539196848869324e-02
-2.152748405933380127e-02 2.703158855438232422e-01 2.267330698668956757e-02
1.884619519114494324e-02 3.658342361450195312e-01 1.306867226958274841e-02
2.390982210636138916e-02 1.850974261760711670e-01 8.115445263683795929e-03
-1.335891336202621460e-02 2.981686592102050781e-01 7.820630446076393127e-03
9.721636772155761719e-03 1.759893298149108887e-01 -7.786951959133148193e-03
-1.250910945236682892e-02 3.287836015224456787e-01 1.910977251827716827e-02
-7.889759726822376251e-04 2.437594681978225708e-01 -2.286870591342449188e-02
-1.360692828893661499e-02 3.047865033149719238e-01 -3.143206005915999413e-03
2.601035684347152710e-02 1.988479942083358765e-01 5.614497698843479156e-03
-1.316015608608722687e-03 4.194834828376770020e-01 1.717401295900344849e-02
1.326183322817087173e-03 3.180043697357177734e-01 -3.421471640467643738e-02
