-1.059669852256774902e-01 -9.829110465943813324e-03 -5.600107312202453613e-01
6.261702626943588257e-03 1.301175821572542191e-02 -4.064145982265472412e-01
-1.490960419178009033e-01 2.014448866248130798e-03 -6.479884386062622070e-01
-5.963135957717895508e-01 -6.461813300848007202e-02 1.121427863836288452e-02
-2.974188625812530518e-01 -2.596480585634708405e-02 2.560083195567131042e-02
-5.882982015609741211e-01 7.477189600467681885e-02 -8.400060981512069702e-02
-6.092209815979003906e-01 1.186648607254028320e-01 9.672162123024463654e-03
-3.360470533370971680e-01 5.927696079015731812e-02 5.647231638431549072e-02
-3.699741959571838379e-01 3.412443399429321289e-02 -7.633160054683685303e-02
-6.457758545875549316e-01 -6.217572838068008423e-02 -1.222226303070783615e-02
-6.612429618835449219e-01 1.083054915070533752e-01 -4.382545500993728638e-02
-8.405877947807312012e-01 5.631440877914428711e-02 4.181193560361862183e-02
-7.602124214172363281e-01 -4.629514366388320923e-02 -4.284503869712352753e-03
-5.750851035118103027e-01 1.188644170761108398e-01 -1.667348667979240417e-02
-7.430497407913208008e-01 -4.094687104225158691e-02 3.254277631640434265e-02
-8.099653720855712891e-01 2.291969209909439087e-02 5.909156054258346558e-02
-5.477570891380310059e-01 1.278156694024801254e-02 -9.579686820507049561e-02
-4.424087405204772949e-01 -4.429057240486145020e-02 5.121623724699020386e-02
-6.366517543792724609e-01 1.061029732227325439e-02 -9.408810734748840332e-02
-8.139489889144897461e-01 -2.221789397299289703e-02 2.935474365949630737e-02
-7.992027997970581055e-01 -9.943125769495964050e-03 -5.906399339437484741e-02
-5.804235935211181641e-01 -6.260392814874649048e-02 2.328402549028396606e-02
-4.654217362403869629e-01 5.186177790164947510e-02 8.368391543626785278e-02
-6.934713721275329590e-01 -4.656400531530380249e-02 3.901045396924018860e-02
-3.435294926166534424e-01 8.635589480400085449e-02 2.726663462817668915e-02
-5.254498720169067383e-01 -5.643432587385177612e-02 -4.427225142717361450e-02
-3.370703458786010742e-01 5.033720284700393677e-02 -6.320553272962570190e-02
-8.242050409317016602e-01 -2.870032005012035370e-02 -5.112238228321075439e-03
-4.025960266590118408e-01 1.039822623133659363e-01 -1.492727082222700119e-02
-2.753272950649261475e-01 3.666871413588523865e-02 4.304954037070274353e-02
-6.795370578765869141e-01 -5.839833617210388184e-02 9.026333689689636230e-03
-4.826173782348632812e-01 1.011520624160766602e-01 -5.160217359662055969e-02
-4.966362416744232178e-01 1.159624233841896057e-01 -1.275843195617198944e-02
-6.559623479843139648e-01 7.567546516656875610e-02 -8.095155656337738037e-02
-8.144249916076660156e-01 -3.041198290884494781e-02 9.295984171330928802e-03
-5.718742609024047852e-01 9.569206833839416504e-02 -6.652788072824478149e-02
-8.389487862586975098e-01 7.508922368288040161e-02 2.546487376093864441e-02
-6.009038686752319336e-01 -4.705811291933059692e-02 -5.898697301745414734e-02
-2.745839059352874756e-01 3.467112779617309570e-03 4.109142720699310303e-02
-3.384515047073364258e-01 -1.906618289649486542e-02 5.322343483567237854e-02
-7.607560753822326660e-01 -3.826836496591567993e-02 -3.856585174798965454e-02
-2.801890671253204346e-01 4.204206913709640503e-02 -4.377950727939605713e-02
-3.293055593967437744e-01 -4.117387533187866211e-02 -1.197107974439859390e-02
-6.568440794944763184e-01 -2.988890372216701508e-02 6.596206873655319214e-02
-7.233459949493408203e-01 6.901690363883972168e-02 -7.735947519540786743e-02
-3.099386096000671387e-01 7.499000430107116699e-02 -2.872999012470245361e-02
-6.245629191398620605e-01 3.259036689996719360e-02 8.941154927015304565e-02
-4.864205121994018555e-01 -5.385030806064605713e-02 4.218588769435882568e-02
-5.148447155952453613e-01 3.803793713450431824e-02 8.998716622591018677e-02
-4.572360515594482422e-01 -1.261039264500141144e-02 -8.215711265802383423e-02
-7.487367987632751465e-01 4.938690736889839172e-02 7.184117287397384644e-02
-7.115429043769836426e-01 1.490467507392168045e-02 7.972317934036254883e-02
-4.755196869373321533e-01 -6.014838069677352905e-02 -2.874607779085636139e-02
-6.980292797088623047e-01 1.020466461777687073e-01 4.021563380956649780e-02
-3.883115947246551514e-01 3.011486865580081940e-02 7.823397219181060791e-02
-4.167337417602539062e-01 1.030995249748229980e-01 -2.845821715891361237e-02
-4.320715069770812988e-01 -3.714758157730102539e-02 -6.065741553902626038e-02
-5.916633605957031250e-01 -6.579762324690818787e-03 -9.066348522901535034e-02
-5.898576378822326660e-01 1.196816265583038330e-01 1.961559755727648735e-03
-7.554466128349304199e-01 -4.937568679451942444e-03 -7.409365475177764893e-02
-7.788994312286376953e-01 4.615611582994461060e-02 6.605520099401473999e-02
-3.232480585575103760e-01 7.205825299024581909e-02 3.993040323257446289e-02
-4.589830935001373291e-01 3.337723389267921448e-02 -9.069579839706420898e-02
-6.957347989082336426e-01 -5.406566709280014038e-02 -2.728325687348842621e-02
-3.973278701305389404e-01 -1.593521423637866974e-02 6.933396309614181519e-02
-6.987655162811279297e-01 1.103493422269821167e-01 2.111935243010520935e-02
-4.307317733764648438e-01 -1.483383215963840485e-02 -7.763979583978652954e-02
-2.527428567409515381e-01 -7.056901231408119202e-03 1.140213850885629654e-02
-6.587103605270385742e-01 -9.341580793261528015e-03 7.890797406435012817e-02
-8.680299520492553711e-01 2.295401319861412048e-02 3.406962007284164429e-02
-3.992224931716918945e-01 -4.764284193515777588e-02 -3.776356205344200134e-02
-7.842260599136352539e-01 -3.500938415527343750e-02 -3.276153653860092163e-02
-4.144487679004669189e-01 9.301627427339553833e-02 4.502344131469726562e-02
-2.676493227481842041e-01 -1.349908672273159027e-02 2.056129835546016693e-02
-2.677607238292694092e-01 6.285141408443450928e-02 -3.115643979981541634e-03
-3.137421607971191406e-01 5.303559824824333191e-02 -5.360385030508041382e-02
-6.775460839271545410e-01 -2.684458903968334198e-02 -7.293936610221862793e-02
-8.104463815689086914e-01 9.138762205839157104e-02 1.277665700763463974e-02
-4.586765766143798828e-01 -5.850487202405929565e-02 -2.967171370983123779e-02
-5.674584507942199707e-01 1.901278831064701080e-02 9.125068038702011108e-02
-4.891835451126098633e-01 -2.455770783126354218e-02 7.461099326610565186e-02
-5.734985470771789551e-01 1.192321777343750000e-01 6.958919577300548553e-03
-5.042219758033752441e-01 1.165535077452659607e-01 7.178684696555137634e-03
-3.640573024749755859e-01 -4.802676290273666382e-02 1.773332245647907257e-02
-3.013035356998443604e-01 -3.622297197580337524e-03 5.017225444316864014e-02
-7.266874313354492188e-01 8.361946791410446167e-02 5.709305405616760254e-02
-4.865023195743560791e-01 -4.137349873781204224e-02 5.988486483693122864e-02
-6.780563592910766602e-01 3.515224531292915344e-02 -9.266088157892227173e-02
-2.867914736270904541e-01 5.485102534294128418e-02 3.866627812385559082e-02
-2.802994847297668457e-01 6.841160356998443604e-02 1.057143509387969971e-02
-6.030766367912292480e-01 7.272077351808547974e-02 7.828917354345321655e-02
-4.559902250766754150e-01 1.125188991427421570e-01 -7.478711195290088654e-03
-5.515952110290527344e-01 -6.076636910438537598e-02 -3.510432690382003784e-02
-5.155323743820190430e-01 -9.673846885561943054e-03 8.381503820419311523e-02
-3.157503902912139893e-01 5.971594899892807007e-02 4.877172410488128662e-02
-7.572928071022033691e-01 6.943720579147338867e-02 6.128441914916038513e-02
-6.753514409065246582e-01 -5.794374272227287292e-03 7.858501374721527100e-02
-7.528748512268066406e-01 -1.236326992511749268e-03 6.744253635406494141e-02
-7.473181486129760742e-01 8.388683199882507324e-02 -6.182665005326271057e-02
-6.705549359321594238e-01 7.900297641754150391e-03 8.358750492334365845e-02
-5.297900438308715820e-01 1.122787818312644958e-01 3.106906637549400330e-02
-6.190149188041687012e-01 -2.718001417815685272e-02 7.191422581672668457e-02
-3.611403703689575195e-01 -4.886820167303085327e-02 -1.155897136777639389e-02
-4.923324882984161377e-01 2.052090875804424286e-02 -9.392454475164413452e-02
-5.051554441452026367e-01 1.001705825328826904e-01 -5.637134239077568054e-02
-5.152859687805175781e-01 1.011424884200096130e-01 5.080398544669151306e-02
-6.639133095741271973e-01 4.017027094960212708e-02 -9.329938143491744995e-02
-8.875162601470947266e-01 5.659551173448562622e-02 -1.187463942915201187e-02
-2.341685295104980469e-01 1.886785775423049927e-02 -2.718297764658927917e-03
-8.388324975967407227e-01 8.260077983140945435e-02 -2.084296382963657379e-02
-7.462139129638671875e-01 -1.675799302756786346e-02 6.006974354386329651e-02
-5.439794659614562988e-01 -4.358038306236267090e-02 5.971335247159004211e-02
-3.773123323917388916e-01 9.606923162937164307e-02 2.388619258999824524e-02
-4.369036257266998291e-01 1.079270020127296448e-01 1.838960126042366028e-02
-4.356811046600341797e-01 1.991995796561241150e-02 8.503215014934539795e-02
-4.027298390865325928e-01 -2.003937400877475739e-02 -6.986662000417709351e-02
-4.712520837783813477e-01 1.220044028013944626e-02 8.755999058485031128e-02
-6.182305216789245605e-01 9.920015931129455566e-02 -6.195002421736717224e-02
-3.479002118110656738e-01 7.656747102737426758e-02 4.520503431558609009e-02
-7.122381925582885742e-01 9.482321143150329590e-02 4.786400869488716125e-02
-6.429237723350524902e-01 -4.586890339851379395e-02 5.032338574528694153e-02
-7.159262299537658691e-01 -5.315863341093063354e-02 1.055360678583383560e-02
-6.971703171730041504e-01 -4.802998155355453491e-04 7.778636366128921509e-02
-5.757834911346435547e-01 9.076706320047378540e-02 6.526702642440795898e-02
-5.633659362792968750e-01 -4.963286966085433960e-02 -5.662943422794342041e-02
-7.333614826202392578e-01 5.247253552079200745e-02 -8.285696059465408325e-02
-3.987327218055725098e-01 9.661093354225158691e-02 3.337690234184265137e-02
-4.045970439910888672e-01 -4.487587139010429382e-03 7.594960182905197144e-02
-7.526507973670959473e-01 9.668471291661262512e-03 -8.032724261283874512e-02
-8.863569498062133789e-01 5.021965503692626953e-02 1.351059880107641220e-02
-7.898346185684204102e-01 -1.747464947402477264e-02 4.634598270058631897e-02
-8.661183118820190430e-01 6.527426838874816895e-02 1.757423020899295807e-02
-3.437424600124359131e-01 -4.544737190008163452e-02 -7.938181981444358826e-03
-7.864868640899658203e-01 7.427503913640975952e-02 4.994314908981323242e-02
-5.094412565231323242e-01 -1.254975236952304840e-02 -8.655863255262374878e-02
-4.827086925506591797e-01 8.772092312574386597e-02 6.352274119853973389e-02
-2.423499822616577148e-01 2.804442495107650757e-02 2.040774747729301453e-02
-6.383116841316223145e-01 -2.665963582694530487e-02 7.062043994665145874e-02
-3.666174411773681641e-01 -2.577091567218303680e-02 5.569058656692504883e-02
-4.165547490119934082e-01 7.843476533889770508e-02 6.222258135676383972e-02
-4.801762700080871582e-01 6.685926020145416260e-02 7.858129590749740601e-02
-7.282918691635131836e-01 1.095608100295066833e-01 8.237818256020545959e-03
-2.989203035831451416e-01 -3.269893676042556763e-02 1.206625485792756081e-03
-7.843993306159973145e-01 -2.732699550688266754e-02 -4.650394991040229797e-02
-3.370375037193298340e-01 2.017261460423469543e-03 6.429333984851837158e-02
-6.074376106262207031e-01 -2.892501465976238251e-02 -7.735146582126617432e-02
-3.780466616153717041e-01 -5.200163275003433228e-02 -1.254106499254703522e-02
-8.609360456466674805e-01 3.149345517158508301e-02 -5.024914070963859558e-02
-4.506318271160125732e-01 1.001599878072738647e-01 -4.663004353642463684e-02
-3.197896182537078857e-01 6.597909331321716309e-02 -4.635691642761230469e-02
-7.871442437171936035e-01 -3.944632411003112793e-02 -1.300774235278367996e-02
-6.173998713493347168e-01 4.484493285417556763e-02 -9.500168263912200928e-02
-8.530591726303100586e-01 7.849231362342834473e-02 2.058593090623617172e-04
-6.334766149520874023e-01 -3.794534504413604736e-02 6.109362468123435974e-02
-7.912807464599609375e-01 6.581608951091766357e-02 -6.485971808433532715e-02
-5.280082225799560547e-01 9.114127606153488159e-02 -6.927655637264251709e-02
-5.116591453552246094e-01 1.155523061752319336e-01 -2.205216325819492340e-02
-7.063004374504089355e-01 4.821380227804183960e-02 7.920258492231369019e-02
-5.426798462867736816e-01 1.162412241101264954e-01 -2.610318735241889954e-02
-4.447521865367889404e-01 1.044339984655380249e-01 3.230781480669975281e-02
-4.246457815170288086e-01 6.030129641294479370e-02 -7.881295680999755859e-02
-7.658132910728454590e-01 1.023035570979118347e-01 1.279515307396650314e-02
-5.929614305496215820e-01 8.633952587842941284e-02 6.900947540998458862e-02
-4.783211946487426758e-01 3.010104410350322723e-02 8.881925046443939209e-02
-6.414824128150939941e-01 7.893830537796020508e-02 7.219229638576507568e-02
-3.607285320758819580e-01 -3.138767555356025696e-03 -6.974399834871292114e-02
-5.071937441825866699e-01 -3.701390326023101807e-02 -6.960059702396392822e-02
-7.654963731765747070e-01 2.056319825351238251e-02 -7.998643815517425537e-02
-8.167756199836730957e-01 4.168868064880371094e-02 5.622141435742378235e-02
-3.165488839149475098e-01 -2.197564579546451569e-02 -4.277542233467102051e-02
-5.428903698921203613e-01 7.405786961317062378e-02 -8.350629359483718872e-02
-5.048913955688476562e-01 -6.394314020872116089e-02 -2.019925974309444427e-02
-2.957234382629394531e-01 7.645898312330245972e-02 1.563130645081400871e-03
-7.969425320625305176e-01 8.499110490083694458e-02 -4.505431279540061951e-02
-4.745301604270935059e-01 8.419463783502578735e-02 -7.034733891487121582e-02
-6.264687776565551758e-01 8.516509830951690674e-02 6.851784884929656982e-02
-6.310490369796752930e-01 -5.656203255057334900e-03 8.296530693769454956e-02
-6.177403330802917480e-01 -6.423713266849517822e-02 -1.109291519969701767e-02
-5.208355784416198730e-01 -4.054976254701614380e-02 6.264453381299972534e-02
-7.182241678237915039e-01 -3.642406314611434937e-02 -5.580644309520721436e-02
-4.266929030418395996e-01 2.164580859243869781e-02 -8.701319992542266846e-02
-5.480136871337890625e-01 -3.944300115108489990e-03 -9.159193933010101318e-02
-4.121814370155334473e-01 8.859474211931228638e-02 -5.384932458400726318e-02
-4.591996669769287109e-01 8.090087026357650757e-02 -7.102451473474502563e-02
-7.485014200210571289e-01 9.971960633993148804e-02 -3.934751451015472412e-02
-5.678429603576660156e-01 -3.994901478290557861e-02 6.338860839605331421e-02
-5.763029456138610840e-01 -5.390586704015731812e-02 4.442423582077026367e-02
-2.547667622566223145e-01 2.512014657258987427e-02 -3.259488940238952637e-02
-6.776718497276306152e-01 -5.091547220945358276e-02 -4.191651195287704468e-02
-3.970633149147033691e-01 1.020045578479766846e-01 1.676901429891586304e-02
-7.658610343933105469e-01 -5.681978538632392883e-03 6.217936798930168152e-02
-4.082531929016113281e-01 -5.010517314076423645e-03 -7.867165654897689819e-02
-4.717254638671875000e-01 -1.734768040478229523e-02 -8.121307939291000366e-02
-6.612967848777770996e-01 9.511429816484451294e-02 5.575016513466835022e-02
-6.555200815200805664e-01 -5.872265994548797607e-02 -2.678019180893898010e-02
-4.972282648086547852e-01 5.736656486988067627e-02 8.414373546838760376e-02
-6.966035366058349609e-01 6.318423897027969360e-02 7.535706460475921631e-02
-6.309357285499572754e-01 1.092362254858016968e-01 3.777346760034561157e-02
-2.756175994873046875e-01 1.166886836290359497e-02 -4.447822645306587219e-02
-3.999114036560058594e-01 -5.558420717716217041e-02 1.093037240207195282e-02
-7.606400251388549805e-01 1.014243438839912415e-01 -2.951964735984802246e-02
-8.009774088859558105e-01 -3.349598497152328491e-02 -2.356770634651184082e-02
-5.132366418838500977e-01 1.079114153981208801e-01 -4.443264752626419067e-02
-3.595474362373352051e-01 9.396740794181823730e-02 1.725473999977111816e-02
-5.043814182281494141e-01 -5.854143202304840088e-02 -3.789732977747917175e-02
-6.359869241714477539e-01 1.126448735594749451e-01 -3.712517023086547852e-02
-4.813837110996246338e-01 -3.964152187108993530e-03 8.434042334556579590e-02
-8.390172719955444336e-01 -1.167204789817333221e-02 -3.885544463992118835e-02
-8.599860072135925293e-01 -2.344423905014991760e-03 -3.520929813385009766e-02
-5.448400378227233887e-01 -2.478439174592494965e-02 7.624657452106475830e-02
-5.355721712112426758e-01 -4.672943800687789917e-02 -6.022208556532859802e-02
-7.376879453659057617e-01 1.015275269746780396e-01 2.988712862133979797e-02
-4.921997189521789551e-01 -6.082842499017715454e-02 2.648117952048778534e-02
-4.844942092895507812e-01 1.110038012266159058e-01 2.618156559765338898e-02
-4.759556651115417480e-01 -5.904403328895568848e-02 2.901004627346992493e-02
-3.368333876132965088e-01 -3.413043916225433350e-02 3.546373918652534485e-02
-6.779893636703491211e-01 6.877030432224273682e-02 -8.307666331529617310e-02
-5.944775938987731934e-01 5.593048036098480225e-02 -9.261088818311691284e-02
-8.289820551872253418e-01 8.138039708137512207e-02 -3.321786969900131226e-02
-5.766268968582153320e-01 5.956007540225982666e-02 8.520971238613128662e-02
-4.122236669063568115e-01 7.778411358594894409e-02 -6.512831896543502808e-02
-5.294676423072814941e-01 -3.392191976308822632e-02 -7.357893139123916626e-02
-5.321854352951049805e-01 4.514698684215545654e-02 -9.443142265081405640e-02
-3.857777714729309082e-01 -2.478448860347270966e-02 6.105278059840202332e-02
-4.220885336399078369e-01 -2.431348897516727448e-02 -7.035001367330551147e-02
-6.363595724105834961e-01 8.031038194894790649e-02 -7.907534390687942505e-02
-7.773280143737792969e-01 -4.194862395524978638e-02 3.657361259683966637e-03
-3.081640303134918213e-01 3.416560217738151550e-02 5.783981457352638245e-02
-3.885622620582580566e-01 9.849574416875839233e-02 -2.652602083981037140e-02
-7.067689299583435059e-01 -1.219530589878559113e-02 -7.895423471927642822e-02
-5.318673253059387207e-01 2.979344688355922699e-02 9.125193208456039429e-02
-6.349065303802490234e-01 1.785315200686454773e-02 8.842519670724868774e-02
-3.678674697875976562e-01 1.555308699607849121e-02 7.431257516145706177e-02
-5.883830785751342773e-01 7.204694300889968872e-02 7.909732311964035034e-02
-6.123774051666259766e-01 -6.392305344343185425e-02 1.065134722739458084e-02
-4.100611507892608643e-01 4.074468091130256653e-02 8.012412488460540771e-02
-8.591797947883605957e-01 -1.185788400471210480e-02 7.766679860651493073e-03
-5.488935112953186035e-01 1.097522005438804626e-01 3.853714093565940857e-02
-7.400857210159301758e-01 7.951743900775909424e-04 -7.970523834228515625e-02
-3.753550648689270020e-01 8.894721418619155884e-02 -4.104045778512954712e-02
-3.829462528228759766e-01 6.658665090799331665e-02 6.434714049100875854e-02
-4.392205476760864258e-01 -6.063053011894226074e-02 9.349967353045940399e-03
-7.680690288543701172e-01 1.261213514953851700e-02 6.860109418630599976e-02
-8.555213212966918945e-01 7.656313478946685791e-03 -4.647617042064666748e-02
-6.367165446281433105e-01 -6.166197359561920166e-02 1.448970567435026169e-02
-4.675945937633514404e-01 1.082452908158302307e-01 -3.396731615066528320e-02
-4.310552477836608887e-01 6.040333956480026245e-02 7.640550285577774048e-02
-3.305774927139282227e-01 -4.075997322797775269e-02 1.511611510068178177e-02
-8.954522609710693359e-01 4.275578632950782776e-02 -1.790310256183147430e-02
-4.355774521827697754e-01 -5.759511142969131470e-02 -2.505105175077915192e-02
-2.634879946708679199e-01 8.726306259632110596e-04 -3.231050074100494385e-02
-3.954337835311889648e-01 4.700647294521331787e-02 -7.874326407909393311e-02
-6.409608125686645508e-01 -5.098576843738555908e-02 -4.895929247140884399e-02
-5.252876281738281250e-01 -6.889129057526588440e-03 -8.977719396352767944e-02
-3.421446681022644043e-01 3.097137808799743652e-02 6.845620274543762207e-02
-3.991664052009582520e-01 6.422226130962371826e-02 6.920070201158523560e-02
-5.305384993553161621e-01 -2.021604217588901520e-02 7.893676310777664185e-02
-5.945496559143066406e-01 1.028826683759689331e-01 -5.760709196329116821e-02
-6.133439540863037109e-01 5.595405027270317078e-02 8.543756604194641113e-02
-2.872697710990905762e-01 6.114908307790756226e-02 -3.317028656601905823e-02
-4.355676174163818359e-01 -5.140284448862075806e-02 -4.093120247125625610e-02
-4.379309415817260742e-01 4.869084060192108154e-02 8.180014789104461670e-02
-7.544356584548950195e-01 -2.873576991260051727e-02 -5.545269325375556946e-02
-2.677342295646667480e-01 5.447290837764739990e-02 -2.537591569125652313e-02
-5.922696590423583984e-01 3.675057739019393921e-02 9.046518802642822266e-02
-5.488926172256469727e-01 5.068969726562500000e-02 -9.371524304151535034e-02
-4.418334364891052246e-01 1.099591851234436035e-01 -1.529362611472606659e-02
-8.331471085548400879e-01 3.812499344348907471e-03 4.466069489717483521e-02
-5.844646692276000977e-01 1.128666475415229797e-01 3.243760392069816589e-02
-6.973224878311157227e-01 1.837059482932090759e-02 8.222039788961410522e-02
-8.648729324340820312e-01 3.782080113887786865e-02 3.619499877095222473e-02
-8.364371657371520996e-01 3.361742943525314331e-02 -6.098328158259391785e-02
-4.119837582111358643e-01 1.517817936837673187e-02 8.170180022716522217e-02
-8.392904400825500488e-01 6.706859916448593140e-02 -4.582747071981430054e-02
-4.186991155147552490e-01 -5.374924093484878540e-02 -3.049276582896709442e-02
-8.018324375152587891e-01 -3.092134930193424225e-02 2.066785469651222229e-02
-7.082189917564392090e-01 -1.606027223169803619e-02 6.842675805091857910e-02
-7.439651489257812500e-01 8.252312242984771729e-02 5.432523787021636963e-02
-4.213179349899291992e-01 -5.928590893745422363e-02 -7.228893227875232697e-04
-7.600978016853332520e-01 -3.237783163785934448e-02 4.004504159092903137e-02
-5.588390231132507324e-01 1.195291131734848022e-01 -1.230662455782294273e-03
-2.612210512161254883e-01 2.979453653097152710e-03 3.230809047818183899e-02
-3.644238114356994629e-01 -4.070399701595306396e-02 -3.760008141398429871e-02
-5.986973047256469727e-01 5.651878193020820618e-03 -9.443953633308410645e-02
-7.813814878463745117e-01 9.856130182743072510e-02 -2.474427781999111176e-02
-8.093614578247070312e-01 6.025940179824829102e-02 5.201221629977226257e-02
-6.324527859687805176e-01 4.564844816923141479e-02 8.718110620975494385e-02
-5.661357641220092773e-01 3.371680155396461487e-02 9.123887121677398682e-02
-6.134902834892272949e-01 1.101891621947288513e-01 3.730152547359466553e-02
-2.383932471275329590e-01 1.008887402713298798e-02 1.059075444936752319e-02
-8.331190943717956543e-01 -2.072077430784702301e-02 -2.793256752192974091e-02
-3.029027879238128662e-01 6.549816578626632690e-02 3.712084889411926270e-02
-6.307741403579711914e-01 -4.226048290729522705e-02 -6.283137947320938110e-02
-5.975347757339477539e-01 -5.838990956544876099e-02 3.357472270727157593e-02
-3.115856051445007324e-01 7.740236073732376099e-02 2.377947978675365448e-02
-7.213399410247802734e-01 8.991243690252304077e-02 -6.102466583251953125e-02
-4.504533410072326660e-01 6.542331725358963013e-02 -8.014233410358428955e-02
-6.955253481864929199e-01 -2.207201160490512848e-02 -7.417274266481399536e-02
-5.261028409004211426e-01 -5.591362714767456055e-02 4.118847101926803589e-02
-4.926016032695770264e-01 2.144965901970863342e-02 8.978530764579772949e-02
-4.521472454071044922e-01 1.104856282472610474e-01 1.549106184393167496e-02
-3.794322609901428223e-01 6.287457793951034546e-02 -6.835685670375823975e-02
-2.499157786369323730e-01 1.532206032425165176e-02 2.842338755726814270e-02
-4.396697878837585449e-01 4.947149008512496948e-02 -8.522243052721023560e-02
-5.574753284454345703e-01 -3.559766709804534912e-02 -7.272533327341079712e-02
-5.486117601394653320e-01 -6.525386869907379150e-02 1.361834350973367691e-02
-6.221066117286682129e-01 1.189081370830535889e-01 -1.205877307802438736e-02
-7.856136560440063477e-01 -2.546440809965133667e-04 -6.915552169084548950e-02
-4.352264404296875000e-01 1.010167300701141357e-01 -4.076654836535453796e-02
-7.290372848510742188e-01 1.040907576680183411e-01 -3.674539178609848022e-02
-3.528856635093688965e-01 4.739190638065338135e-02 -6.894683837890625000e-02
-6.351969838142395020e-01 1.058214828372001648e-01 -5.134063959121704102e-02
-3.692324459552764893e-01 9.453706443309783936e-02 -2.560807205736637115e-02
-5.667985677719116211e-01 -2.578183822333812714e-02 7.539195567369461060e-02
-8.496561646461486816e-01 -2.320216968655586243e-03 3.164431080222129822e-02
-6.698435544967651367e-01 5.499793589115142822e-02 8.163398504257202148e-02
-5.943641662597656250e-01 -1.936773024499416351e-02 7.854856550693511963e-02
-5.745834708213806152e-01 -3.173770755529403687e-02 -7.603259384632110596e-02
-3.403089940547943115e-01 6.431890279054641724e-02 -5.597813427448272705e-02
-3.195985555648803711e-01 -3.166075795888900757e-02 -3.084826841950416565e-02
-4.857622981071472168e-01 -6.439022719860076904e-02 7.738053798675537109e-03
-3.670539259910583496e-01 -6.632143631577491760e-03 6.819335371255874634e-02
-8.016953468322753906e-01 -2.027987502515316010e-02 -4.817094281315803528e-02
-6.989202499389648438e-01 -5.394577980041503906e-02 1.867331936955451965e-02
-8.786542415618896484e-01 -7.835719734430313110e-04 2.371777547523379326e-03
-4.752278625965118408e-01 -4.693674296140670776e-02 5.198268219828605652e-02
-5.019654035568237305e-01 -4.637511819601058960e-02 5.497990921139717102e-02
-7.360528111457824707e-01 -5.001475661993026733e-02 8.808542974293231964e-03
-3.981119990348815918e-01 8.423285186290740967e-02 5.228039249777793884e-02
-6.848595738410949707e-01 -3.827669471502304077e-02 -6.042145192623138428e-02
-4.375187158584594727e-01 1.038215495645999908e-02 -8.726070821285247803e-02
-7.060012221336364746e-01 6.202268600463867188e-02 -8.320690691471099854e-02
-4.881411790847778320e-01 7.356125116348266602e-02 -7.990666478872299194e-02
-5.605977773666381836e-01 3.970131278038024902e-03 -9.421390295028686523e-02
-6.003240346908569336e-01 1.179767176508903503e-01 -2.185500413179397583e-02
-6.569103598594665527e-01 1.097113490104675293e-01 3.331056237220764160e-02
-7.368377447128295898e-01 9.238836169242858887e-02 -5.471781641244888306e-02
-2.442517280578613281e-01 1.272248104214668274e-02 -2.124966308474540710e-02
-5.334024429321289062e-01 1.186677366495132446e-01 -8.476991206407546997e-05
-7.457608580589294434e-01 -4.854136705398559570e-02 -1.470122393220663071e-02
-5.277607440948486328e-01 1.143876761198043823e-01 -3.033508174121379852e-02
-4.477357268333435059e-01 -4.389179870486259460e-03 8.142255991697311401e-02
-4.066093266010284424e-01 3.242136165499687195e-02 -8.361539989709854126e-02
-5.726757645606994629e-01 7.378666847944259644e-02 -8.450229465961456299e-02
-8.193752765655517578e-01 8.261305093765258789e-02 2.635663934051990509e-02
-7.472181320190429688e-01 -4.460651427507400513e-02 -3.029626421630382538e-02
-5.275898575782775879e-01 5.365024507045745850e-02 8.683963119983673096e-02
-8.662797212600708008e-01 1.577101647853851318e-05 2.154484950006008148e-02
-7.583779096603393555e-01 -2.286053262650966644e-02 5.170182883739471436e-02
-3.530535995960235596e-01 2.219585515558719635e-02 -7.309763878583908081e-02
-5.848513841629028320e-01 -6.487970054149627686e-02 -1.744312606751918793e-02
-7.280924916267395020e-01 1.113890577107667923e-02 7.631973177194595337e-02
-6.660279035568237305e-01 2.535050734877586365e-02 -9.385643899440765381e-02
-4.703860878944396973e-01 1.133561804890632629e-01 -1.482324302196502686e-02
-3.855191469192504883e-01 -4.315862804651260376e-02 3.974796086549758911e-02
-4.827358126640319824e-01 -7.439056411385536194e-03 -8.691137284040451050e-02
-5.196799635887145996e-01 -6.477274745702743530e-02 -1.845506019890308380e-02
-5.522648692131042480e-01 1.105796396732330322e-01 -4.311915114521980286e-02
-4.986782371997833252e-01 -5.182673037052154541e-02 -5.050727352499961853e-02
-5.093611478805541992e-01 4.723501205444335938e-02 -9.273425489664077759e-02
-7.103285789489746094e-01 7.717366516590118408e-02 -7.413899153470993042e-02
-6.455844640731811523e-01 -2.251060679554939270e-03 8.305203914642333984e-02
-3.274284601211547852e-01 4.300773143768310547e-02 6.170626357197761536e-02
-7.005268931388854980e-01 4.049028083682060242e-02 -8.982682228088378906e-02
-3.927833437919616699e-01 6.182599812746047974e-03 -7.946610450744628906e-02
-4.501517415046691895e-01 -5.581127107143402100e-02 3.211798518896102905e-02
-8.094524741172790527e-01 5.113208666443824768e-03 -6.460337340831756592e-02
-2.921643257141113281e-01 -1.026354730129241943e-03 -4.782549291849136353e-02
-7.598495483398437500e-01 -1.791143976151943207e-02 -6.457083672285079956e-02
-5.166578292846679688e-01 8.204566314816474915e-03 8.927553147077560425e-02
-6.207636594772338867e-01 -2.158669568598270416e-02 -8.189596235752105713e-02
-4.374489188194274902e-01 7.010518014430999756e-02 -7.550776004791259766e-02
-6.395542025566101074e-01 9.688888490200042725e-02 -6.359229236841201782e-02
-5.858860611915588379e-01 2.124944515526294708e-02 -9.704141318798065186e-02
-6.033271551132202148e-01 1.146782413125038147e-01 2.693686261773109436e-02
-3.416400253772735596e-01 -4.135209321975708008e-02 -2.376597933471202850e-02
-2.849526405334472656e-01 -2.708570100367069244e-02 3.549196990206837654e-03
-4.229110181331634521e-01 -2.524674497544765472e-02 6.733242422342300415e-02
-6.771399378776550293e-01 -5.724164098501205444e-02 -2.379646711051464081e-02
-4.781649708747863770e-01 -4.557686299085617065e-02 -5.743919312953948975e-02
-6.052206158638000488e-01 3.017634153366088867e-03 8.739686012268066406e-02
-8.788663148880004883e-01 1.740462519228458405e-02 -3.604952618479728699e-02
-5.685054659843444824e-01 -6.633163243532180786e-02 1.690933713689446449e-03
-4.807392656803131104e-01 1.148062497377395630e-01 6.116150878369808197e-03
-6.457351446151733398e-01 3.971794992685317993e-02 -9.456419199705123901e-02
-7.153820395469665527e-01 -3.289055824279785156e-02 5.276970565319061279e-02
-7.896170616149902344e-01 2.274101786315441132e-02 6.495912373065948486e-02
-5.450235605239868164e-01 -6.555332988500595093e-02 -1.613815315067768097e-02
-4.931173622608184814e-01 1.060638874769210815e-01 3.986109793186187744e-02
-7.043253779411315918e-01 7.759536057710647583e-02 6.593790650367736816e-02
-6.454749703407287598e-01 9.264277666807174683e-02 6.012022867798805237e-02
-6.355893015861511230e-01 -5.618808418512344360e-02 3.293764218688011169e-02
-4.572541713714599609e-01 6.357710063457489014e-02 7.806690037250518799e-02
-4.617261886596679688e-01 -4.468046873807907104e-02 -5.647023394703865051e-02
-8.126510977745056152e-01 9.268487989902496338e-02 -1.470743771642446518e-02
-6.835411787033081055e-01 1.139720007777214050e-01 -2.148846909403800964e-02
-7.554057240486145020e-01 9.159219264984130859e-02 -5.078336223959922791e-02
-6.321046352386474609e-01 1.188146844506263733e-01 4.665756132453680038e-04
-2.549339234828948975e-01 4.885823279619216919e-02 -1.844786852598190308e-02
-5.854850411415100098e-01 1.148128360509872437e-01 -3.399460762739181519e-02
-4.912256300449371338e-01 5.298465490341186523e-02 -8.978782594203948975e-02
-3.004538118839263916e-01 7.670028507709503174e-02 -1.428963895887136459e-02
-5.699135065078735352e-01 5.266870558261871338e-02 -9.359589219093322754e-02
-4.621419906616210938e-01 -6.083548069000244141e-02 1.958510093390941620e-02
-5.019775032997131348e-01 -6.552002578973770142e-02 2.942337887361645699e-03
-6.649542450904846191e-01 -6.085261702537536621e-02 -3.203400876373052597e-03
-6.572463512420654297e-01 4.206203296780586243e-02 8.597502112388610840e-02
-7.166910171508789062e-01 4.652871191501617432e-02 -8.678465336561203003e-02
-8.931881189346313477e-01 2.678567916154861450e-02 1.310001220554113388e-02
-6.518009305000305176e-01 6.569981575012207031e-02 7.903897017240524292e-02
-6.796531081199645996e-01 -1.002023182809352875e-02 -8.360903710126876831e-02
-6.923544406890869141e-01 -4.684562236070632935e-02 -4.620350897312164307e-02
-7.065058350563049316e-01 9.579315036535263062e-02 -5.672863870859146118e-02
-7.664560079574584961e-01 1.042821630835533142e-01 -4.361357074230909348e-03
-3.902644515037536621e-01 1.027188822627067566e-02 7.769553363323211670e-02
-8.877632617950439453e-01 4.010742530226707458e-02 -3.028019890189170837e-02
-7.336882352828979492e-01 -2.731011994183063507e-02 5.415829643607139587e-02
-6.571439504623413086e-01 9.670431911945343018e-02 -6.236466392874717712e-02
-7.806124687194824219e-01 1.011264026165008545e-01 9.439489804208278656e-04
-3.257587850093841553e-01 -7.429951801896095276e-03 5.693487077951431274e-02
-3.507076501846313477e-01 9.406705200672149658e-02 -3.241742029786109924e-03
-7.419142723083496094e-01 6.236651539802551270e-02 6.837938725948333740e-02
-2.781938612461090088e-01 -2.235265262424945831e-02 -1.289828214794397354e-02
-8.807693719863891602e-01 1.114599127322435379e-02 1.875231228768825531e-02
-5.572492480278015137e-01 -5.773158371448516846e-02 3.772745653986930847e-02
-7.819699048995971680e-01 3.324585780501365662e-02 -7.699866592884063721e-02
-7.101343870162963867e-01 1.118978857994079590e-01 -1.767456158995628357e-02
-8.682675361633300781e-01 -8.525637909770011902e-03 -9.283703751862049103e-03
-4.631825685501098633e-01 8.732244372367858887e-02 6.153110042214393616e-02
-4.857951402664184570e-01 1.101401671767234802e-01 -3.391097113490104675e-02
-7.535958290100097656e-01 -4.650831222534179688e-02 9.273606352508068085e-03
-7.383044958114624023e-01 2.795568481087684631e-02 7.650487124919891357e-02
-3.865535855293273926e-01 -3.529289364814758301e-02 -5.272822827100753784e-02
-3.651618361473083496e-01 7.048521190881729126e-02 -5.916107818484306335e-02
-6.392555832862854004e-01 -2.887179888784885406e-02 -7.535515725612640381e-02
-4.477649629116058350e-01 7.389787584543228149e-02 7.078862190246582031e-02
-5.452780723571777344e-01 -7.735176011919975281e-03 8.514462411403656006e-02
-4.952262639999389648e-01 1.627858728170394897e-04 8.645140379667282104e-02
-5.210543274879455566e-01 7.504360377788543701e-02 -8.170881122350692749e-02
-6.156230568885803223e-01 1.080812960863113403e-01 -4.862060397863388062e-02
-5.791994333267211914e-01 -5.902152508497238159e-02 -3.889249265193939209e-02
-8.936244249343872070e-01 2.332445606589317322e-02 -2.304279059171676636e-02
-5.599856376647949219e-01 7.762219756841659546e-02 7.585345953702926636e-02
-3.401868939399719238e-01 -2.492269687354564667e-02 -4.942478984594345093e-02
-3.231086730957031250e-01 8.528737723827362061e-02 -1.217057090252637863e-02
-4.349070191383361816e-01 -3.468848019838333130e-02 6.105509027838706970e-02
-2.519146203994750977e-01 -5.833024159073829651e-03 -1.207089424133300781e-02
-8.694262504577636719e-01 7.021301984786987305e-02 -1.169967581517994404e-03
-4.480662643909454346e-01 3.444713354110717773e-02 8.585999161005020142e-02
-7.721666693687438965e-01 -4.298026859760284424e-02 -1.433404348790645599e-02
-4.519576728343963623e-01 -6.240488588809967041e-02 -4.631237126886844635e-03
-6.796613335609436035e-01 1.040730699896812439e-01 -4.894324392080307007e-02
-8.754862546920776367e-01 4.981657117605209351e-02 -3.646500781178474426e-02
-2.953884601593017578e-01 3.664758801460266113e-02 -5.300881341099739075e-02
-4.814014434814453125e-01 3.416598588228225708e-02 -9.280935674905776978e-02
-3.054720163345336914e-01 6.133735924959182739e-02 -4.381606355309486389e-02
-4.036518633365631104e-01 -4.010898619890213013e-02 4.921448603272438049e-02
-4.104987084865570068e-01 -3.138415515422821045e-02 -6.238766014575958252e-02
-7.325490713119506836e-01 -4.039259999990463257e-02 -4.583018273115158081e-02
-5.488819479942321777e-01 1.170368045568466187e-01 1.753441430628299713e-02
-8.526701927185058594e-01 -1.228960044682025909e-02 -2.650684677064418793e-02
-5.261861681938171387e-01 9.046447277069091797e-02 6.434669345617294312e-02
-2.866064012050628662e-01 -1.438725553452968597e-02 3.478507697582244873e-02
-6.822529435157775879e-01 9.304422140121459961e-02 5.532744526863098145e-02
-6.205655336380004883e-01 -5.981889367103576660e-02 2.616589330136775970e-02
-8.030880689620971680e-01 8.324790745973587036e-03 5.786033347249031067e-02
-5.692590475082397461e-01 1.096004992723464966e-01 -4.605580493807792664e-02
-7.423124313354492188e-01 1.058088019490242004e-01 -2.561201527714729309e-02
-7.943770885467529297e-01 -3.744293749332427979e-02 4.088971763849258423e-03
-5.230397582054138184e-01 -6.616353988647460938e-02 3.020325908437371254e-03
-6.233681440353393555e-01 1.755852624773979187e-02 -9.580822288990020752e-02
-4.313790798187255859e-01 7.651589810848236084e-02 6.643885374069213867e-02
-5.271986722946166992e-01 1.026051715016365051e-01 -5.522135645151138306e-02
-6.144303083419799805e-01 -8.000796660780906677e-03 -8.940069377422332764e-02
-7.665570974349975586e-01 3.561028838157653809e-02 -8.016460388898849487e-02
-3.057871460914611816e-01 1.556216739118099213e-02 5.781845375895500183e-02
-5.385923385620117188e-01 7.086237519979476929e-02 7.963486760854721069e-02
-6.611732244491577148e-01 -2.785346470773220062e-02 -7.407718896865844727e-02
-8.997070789337158203e-01 2.598704211413860321e-02 -8.935639634728431702e-03
-7.155939340591430664e-01 -5.442416667938232422e-02 -5.414054729044437408e-03
-5.370600223541259766e-01 1.022972539067268372e-02 9.010994434356689453e-02
-8.403086066246032715e-01 -2.254253067076206207e-02 -5.468207877129316330e-03
-2.893887460231781006e-01 3.678451851010322571e-02 4.983401671051979065e-02
-8.267062902450561523e-01 5.195091664791107178e-02 4.970019310712814331e-02
-3.966352045536041260e-01 -5.510149896144866943e-02 -1.258218009024858475e-02
-6.032452583312988281e-01 9.320513904094696045e-02 -6.921115517616271973e-02
-6.967158913612365723e-01 2.019955031573772430e-02 -9.057759493589401245e-02
-2.645018398761749268e-01 5.380709469318389893e-02 2.278518117964267731e-02
-5.151987671852111816e-01 -6.143835932016372681e-02 2.735135518014431000e-02
-4.678994417190551758e-01 1.079625114798545837e-01 3.029085695743560791e-02
-6.644670367240905762e-01 -5.312168598175048828e-02 3.349927440285682678e-02
-8.335664272308349609e-01 2.751061134040355682e-02 5.125756189227104187e-02
-7.044945955276489258e-01 1.127634197473526001e-01 7.072619162499904633e-03
-6.735044717788696289e-01 -4.463490098714828491e-02 4.684371501207351685e-02
-5.598726868629455566e-01 -1.945149712264537811e-02 -8.459370583295822144e-02
-3.192228674888610840e-01 -3.008600324392318726e-04 -5.890100076794624329e-02
-8.347380161285400391e-01 1.489590480923652649e-02 -5.927673727273941040e-02
-7.028940916061401367e-01 1.758066937327384949e-03 -8.576861768960952759e-02
-5.386266112327575684e-01 1.019847691059112549e-01 5.127549543976783752e-02
-2.997356355190277100e-01 -3.079619817435741425e-02 -1.576862111687660217e-02
-6.821358203887939453e-01 8.755481988191604614e-02 -6.938113272190093994e-02
-8.838475346565246582e-01 3.801152110099792480e-03 -1.472050324082374573e-02
-6.861422061920166016e-01 7.405013591051101685e-02 7.087785750627517700e-02
2.056323289871215820e-01 -7.645454257726669312e-02 3.270352780818939209e-01
3.667984604835510254e-01 -8.179698884487152100e-02 2.505639791488647461e-01
2.586514353752136230e-01 -1.045325100421905518e-01 3.524636328220367432e-01
2.351685017347335815e-01 -9.188187122344970703e-02 2.579528093338012695e-01
3.731823563575744629e-01 -5.423732474446296692e-02 3.177067935466766357e-01
3.100925981998443604e-01 -1.067912429571151733e-01 3.512817025184631348e-01
2.887251675128936768e-01 -4.203381761908531189e-02 2.698434293270111084e-01
3.442603647708892822e-01 -9.057578444480895996e-02 3.469282984733581543e-01
2.048465311527252197e-01 -9.435483068227767944e-02 2.805498540401458740e-01
2.381456792354583740e-01 -8.595310151576995850e-02 3.501414060592651367e-01
3.199454843997955322e-01 -1.343068182468414307e-01 2.695367932319641113e-01
2.629901468753814697e-01 -3.845010697841644287e-02 3.114046156406402588e-01
2.477904856204986572e-01 -4.793241992592811584e-02 2.789151966571807861e-01
2.019222378730773926e-01 -8.539692312479019165e-02 3.270720839500427246e-01
3.540401756763458252e-01 -1.015963479876518250e-01 2.487810403108596802e-01
2.730483114719390869e-01 -1.257326155900955200e-01 2.599405646324157715e-01
2.471622079610824585e-01 -1.244459003210067749e-01 2.675227224826812744e-01
3.758690655231475830e-01 -6.759404391050338745e-02 2.593312263488769531e-01
3.002781271934509277e-01 -8.532056957483291626e-02 3.562083244323730469e-01
3.180354237556457520e-01 -1.133098006248474121e-01 3.466034829616546631e-01
3.954362869262695312e-01 -9.524122625589370728e-02 3.097423315048217773e-01
3.862720429897308350e-01 -7.833011448383331299e-02 2.619896829128265381e-01
3.440504372119903564e-01 -5.470029264688491821e-02 2.561070919036865234e-01
3.552418351173400879e-01 -4.414368420839309692e-02 3.159939050674438477e-01
2.875851690769195557e-01 -1.229823231697082520e-01 2.549926042556762695e-01
2.607198655605316162e-01 -1.233327761292457581e-01 2.610692679882049561e-01
3.690088391304016113e-01 -1.245580837130546570e-01 3.039696812629699707e-01
2.380272299051284790e-01 -7.377770543098449707e-02 3.471560776233673096e-01
2.964425683021545410e-01 -1.043398454785346985e-01 2.439937442541122437e-01
3.557687997817993164e-01 -7.514689117670059204e-02 3.415551185607910156e-01
3.110392987728118896e-01 -8.616080135107040405e-02 3.550340533256530762e-01
3.251077830791473389e-01 -9.408796578645706177e-02 3.519263267517089844e-01
3.742561340332031250e-01 -1.012342423200607300e-01 2.572790384292602539e-01
3.043500185012817383e-01 -1.280656307935714722e-01 3.369922041893005371e-01
2.876433432102203369e-01 -3.850255534052848816e-02 2.770963311195373535e-01
2.460196316242218018e-01 -1.010075658559799194e-01 2.543500065803527832e-01
3.082460761070251465e-01 -1.325077712535858154e-01 2.648307383060455322e-01
2.616510391235351562e-01 -4.348682984709739685e-02 2.781101465225219727e-01
3.025909364223480225e-01 -1.040242761373519897e-01 3.532953560352325439e-01
2.489014267921447754e-01 -1.311192661523818970e-01 3.286975920200347900e-01
3.426054120063781738e-01 -1.120964959263801575e-01 2.507342994213104248e-01
2.890800237655639648e-01 -1.405649930238723755e-01 2.815495133399963379e-01
2.663998007774353027e-01 -1.378755420446395874e-01 2.804249227046966553e-01
2.688092589378356934e-01 -4.880442842841148376e-02 2.662314474582672119e-01
2.960607707500457764e-01 -1.231676191091537476e-01 2.544091939926147461e-01
3.314251303672790527e-01 -4.071804508566856384e-02 2.713703513145446777e-01
2.141594290733337402e-01 -1.235793232917785645e-01 3.083808124065399170e-01
3.232865631580352783e-01 -1.346866041421890259e-01 3.217970430850982666e-01
3.841306567192077637e-01 -7.924586534500122070e-02 3.250685930252075195e-01
2.842770814895629883e-01 -1.421141326427459717e-01 2.887315154075622559e-01
3.710170090198516846e-01 -4.880315437912940979e-02 3.102473318576812744e-01
3.184498846530914307e-01 -5.380647629499435425e-02 3.421279489994049072e-01
3.089104592800140381e-01 -1.420640945434570312e-01 2.916505932807922363e-01
3.860167860984802246e-01 -1.145439445972442627e-01 2.888577580451965332e-01
2.539069652557373047e-01 -6.474196910858154297e-02 3.474599719047546387e-01
3.005186915397644043e-01 -4.316137731075286865e-02 3.326504230499267578e-01
2.237243205308914185e-01 -5.956709384918212891e-02 3.280355930328369141e-01
2.671601176261901855e-01 -8.964046835899353027e-02 3.560595810413360596e-01
2.276145219802856445e-01 -5.899578332901000977e-02 2.785589993000030518e-01
2.459409981966018677e-01 -4.451880604028701782e-02 2.892656624317169189e-01
3.544217348098754883e-01 -1.315005421638488770e-01 2.851001918315887451e-01
3.079133629798889160e-01 -1.377568095922470093e-01 2.744533717632293701e-01
3.272877335548400879e-01 -3.501972556114196777e-02 2.869185507297515869e-01
3.120225369930267334e-01 -1.210935041308403015e-01 2.526157796382904053e-01
3.455250561237335205e-01 -1.329195499420166016e-01 2.789917290210723877e-01
2.243870496749877930e-01 -6.370338797569274902e-02 3.336261212825775146e-01
3.049269020557403564e-01 -3.612646460533142090e-02 3.184802234172821045e-01
3.917749822139739990e-01 -7.274247705936431885e-02 2.692672312259674072e-01
3.992193341255187988e-01 -9.644100815057754517e-02 2.829330265522003174e-01
3.248947560787200928e-01 -3.476350754499435425e-02 3.081543445587158203e-01
2.693976163864135742e-01 -1.419663727283477783e-01 3.014798760414123535e-01
3.877809047698974609e-01 -5.785572528839111328e-02 3.032578229904174805e-01
3.101683855056762695e-01 -1.387640386819839478e-01 3.174235820770263672e-01
2.000199407339096069e-01 -7.486398518085479736e-02 2.991827130317687988e-01
2.586912214756011963e-01 -7.751543074846267700e-02 3.536425530910491943e-01
2.280851304531097412e-01 -1.013150513172149658e-01 3.450208008289337158e-01
3.400567173957824707e-01 -4.496975988149642944e-02 2.662979960441589355e-01
3.964627981185913086e-01 -1.028666496276855469e-01 2.867417335510253906e-01
3.250766992568969727e-01 -1.360190510749816895e-01 2.747695744037628174e-01
2.557550072669982910e-01 -1.389198452234268188e-01 2.913438081741333008e-01
2.355617284774780273e-01 -7.546554505825042725e-02 2.607078552246093750e-01
2.616527378559112549e-01 -1.111817657947540283e-01 3.501328825950622559e-01
3.537249863147735596e-01 -1.264026165008544922e-01 3.185594379901885986e-01
3.708078265190124512e-01 -1.031091809272766113e-01 3.303652703762054443e-01
3.688504099845886230e-01 -1.054517179727554321e-01 2.565311491489410400e-01
1.945779919624328613e-01 -8.982815593481063843e-02 3.121395409107208252e-01
3.824332356452941895e-01 -1.006521061062812805e-01 2.625347971916198730e-01
2.915115356445312500e-01 -4.599965363740921021e-02 3.364836275577545166e-01
2.373894900083541870e-01 -4.761952906847000122e-02 3.171738386154174805e-01
2.790680825710296631e-01 -1.404033303260803223e-01 3.164117634296417236e-01
3.634984195232391357e-01 -5.069046095013618469e-02 2.680588662624359131e-01
2.527271211147308350e-01 -1.019530892372131348e-01 2.521193921566009521e-01
3.545301258563995361e-01 -5.424436926841735840e-02 3.306733071804046631e-01
3.260793983936309814e-01 -6.415393948554992676e-02 2.471310049295425415e-01
2.416749000549316406e-01 -6.680626422166824341e-02 2.619193196296691895e-01
3.844016492366790771e-01 -1.094571948051452637e-01 3.122772574424743652e-01
2.459751963615417480e-01 -1.167396903038024902e-01 2.613893151283264160e-01
2.889103591442108154e-01 -6.140892580151557922e-02 2.502079010009765625e-01
2.236023247241973877e-01 -1.282212883234024048e-01 2.946909666061401367e-01
4.021555185317993164e-01 -8.207496255636215210e-02 2.982948720455169678e-01
3.742032647132873535e-01 -5.759647116065025330e-02 2.663731575012207031e-01
3.522104024887084961e-01 -1.101975068449974060e-01 2.523480057716369629e-01
2.627813220024108887e-01 -7.620820403099060059e-02 2.495566457509994507e-01
3.390695750713348389e-01 -5.728232115507125854e-02 3.395725488662719727e-01
2.276847362518310547e-01 -1.042225882411003113e-01 2.641895115375518799e-01
2.908049523830413818e-01 -8.538727462291717529e-02 3.567522168159484863e-01
3.191888332366943359e-01 -8.734089136123657227e-02 3.537057638168334961e-01
2.650753557682037354e-01 -3.987077623605728149e-02 3.191426396369934082e-01
2.634270787239074707e-01 -1.182990521192550659e-01 2.562656402587890625e-01
3.198401927947998047e-01 -5.060170590877532959e-02 2.565599977970123291e-01
3.120912611484527588e-01 -6.735241413116455078e-02 2.452390342950820923e-01
2.454508244991302490e-01 -1.075764298439025879e-01 2.566551566123962402e-01
3.856654167175292969e-01 -9.466821700334548950e-02 2.623944282531738281e-01
2.240109741687774658e-01 -1.108714640140533447e-01 3.386941552162170410e-01
3.282668590545654297e-01 -8.931301534175872803e-02 2.416665107011795044e-01
3.549254238605499268e-01 -6.109848991036415100e-02 2.541702985763549805e-01
3.286620974540710449e-01 -1.310696899890899658e-01 3.260123133659362793e-01
3.634571433067321777e-01 -4.434729740023612976e-02 2.813424766063690186e-01
2.817953228950500488e-01 -4.658091440796852112e-02 3.365004658699035645e-01
3.200845718383789062e-01 -4.024043306708335876e-02 2.704637646675109863e-01
2.353970408439636230e-01 -5.613931640982627869e-02 3.325007259845733643e-01
3.937488198280334473e-01 -6.414440274238586426e-02 2.814145982265472412e-01
