-4.756971001625061035e-01 7.109456062316894531e-01 2.454372644424438477e-01
-5.592446327209472656e-01 8.507794141769409180e-01 -1.504734307527542114e-01
-2.806538939476013184e-01 9.154722094535827637e-02 -4.011034369468688965e-01
-5.571180582046508789e-01 7.702115178108215332e-01 -2.320757061243057251e-01
-4.763923883438110352e-01 9.177225232124328613e-01 5.824866890907287598e-02
-3.084454536437988281e-01 6.519507169723510742e-01 -2.973583340644836426e-01
-2.857525348663330078e-01 4.302490651607513428e-01 -4.351354241371154785e-01
-2.137117236852645874e-01 3.756309151649475098e-01 6.738483905792236328e-02
-3.622053265571594238e-01 8.170994520187377930e-01 -1.382352411746978760e-01
-2.372906506061553955e-01 2.821842133998870850e-01 -3.911310434341430664e-01
-4.341472983360290527e-01 2.679340839385986328e-01 -3.812652230262756348e-01
-2.473618239164352417e-01 5.246750116348266602e-01 -2.237116098403930664e-01
-5.576317310333251953e-01 8.749980926513671875e-01 -7.021228969097137451e-02
-1.769046932458877563e-01 1.939828097820281982e-01 -1.078724712133407593e-01
-1.805844902992248535e-01 1.801772713661193848e-01 -1.914753168821334839e-01
-2.666134238243103027e-01 -8.022159337997436523e-03 -2.895941138267517090e-01
-4.101342558860778809e-01 4.648476541042327881e-01 2.991987168788909912e-01
-2.997069954872131348e-01 -3.351488709449768066e-02 -1.262248158454895020e-01
-5.587633848190307617e-01 8.687610626220703125e-01 -1.044650822877883911e-01
-4.029068648815155029e-01 6.349257826805114746e-01 -4.581002891063690186e-01
-4.980723857879638672e-01 4.627132713794708252e-01 -3.635879456996917725e-01
-3.866177201271057129e-01 1.618767082691192627e-01 -3.754247128963470459e-01
-4.627895951271057129e-01 2.955476641654968262e-01 -3.233747482299804688e-01
-5.432504415512084961e-01 7.172824144363403320e-01 1.218217909336090088e-01
-5.145723819732666016e-01 9.151482582092285156e-01 4.590888321399688721e-02
-3.125660717487335205e-01 6.848909854888916016e-01 1.042365878820419312e-01
-3.944852948188781738e-01 2.553517818450927734e-01 -4.441434442996978760e-01
-3.663021028041839600e-01 5.378681421279907227e-01 -4.811879694461822510e-01
-4.200932085514068604e-01 1.497389376163482666e-01 -2.343415319919586182e-01
-2.075137346982955933e-01 -2.391964197158813477e-03 -2.192652225494384766e-02
-2.405853271484375000e-01 -4.514348506927490234e-02 -6.640472263097763062e-02
-5.581640005111694336e-01 8.286211490631103516e-01 -1.880300045013427734e-01
-4.931463599205017090e-01 3.261659145355224609e-01 -2.005849182605743408e-01
-4.655515849590301514e-01 2.945310473442077637e-01 8.353358507156372070e-02
-4.831576347351074219e-01 3.509009182453155518e-01 9.246581792831420898e-02
-5.086365938186645508e-01 7.361556291580200195e-01 2.002470493316650391e-01
-3.180263340473175049e-01 7.374409437179565430e-01 -1.170189008116722107e-01
-1.786854118108749390e-01 8.321693539619445801e-02 -1.451404690742492676e-01
-3.946349918842315674e-01 8.609831333160400391e-02 -1.402714848518371582e-01
-2.823536098003387451e-01 -1.639056205749511719e-02 1.626931875944137573e-02
-5.406823158264160156e-01 4.920881986618041992e-01 -7.126636803150177002e-02
-3.135201036930084229e-01 1.408723890781402588e-01 2.035308778285980225e-01
-2.637159824371337891e-01 2.188281863927841187e-01 -4.386332333087921143e-01
-4.009260833263397217e-01 3.371263742446899414e-01 2.643514871597290039e-01
-4.423159062862396240e-01 3.233269751071929932e-01 -4.098042845726013184e-01
-3.905317783355712891e-01 7.605637311935424805e-01 1.996741294860839844e-01
-3.349789679050445557e-01 7.399514317512512207e-01 9.042477607727050781e-02
-5.231285095214843750e-01 4.165417551994323730e-01 -1.242719143629074097e-01
-5.407272577285766602e-01 5.115770101547241211e-01 -1.986238360404968262e-01
-2.505964040756225586e-01 5.459217429161071777e-01 -1.979590654373168945e-01
-4.291861653327941895e-01 8.546435832977294922e-01 -2.740617096424102783e-01
-1.843025982379913330e-01 2.560371756553649902e-01 -3.560595214366912842e-02
-4.435891211032867432e-01 8.962539434432983398e-01 7.268717885017395020e-02
-2.594779133796691895e-01 3.393371105194091797e-01 2.269269227981567383e-01
-2.250563502311706543e-01 3.229054212570190430e-01 -3.427925109863281250e-01
-1.922833621501922607e-01 1.564191281795501709e-01 5.731275677680969238e-02
-1.824329346418380737e-01 7.944115996360778809e-02 -1.878313720226287842e-01
-5.379024147987365723e-01 4.800152778625488281e-01 -1.420045942068099976e-01
-4.951548278331756592e-01 3.267675638198852539e-01 -4.935834556818008423e-02
-3.519915342330932617e-01 7.939749360084533691e-01 2.660481631755828857e-02
-2.910675108432769775e-01 2.728092074394226074e-01 -4.699508547782897949e-01
-3.446730971336364746e-01 2.732777595520019531e-02 -2.394260466098785400e-01
-4.557434916496276855e-01 6.006643772125244141e-01 2.773103117942810059e-01
-5.142356157302856445e-01 3.847403526306152344e-01 -8.212605118751525879e-02
-2.797257006168365479e-01 4.627484977245330811e-01 2.272896468639373779e-01
-3.176513612270355225e-01 -8.495070338249206543e-01 4.288793504238128662e-01
-2.715090513229370117e-01 -5.559209585189819336e-01 2.713935375213623047e-01
-1.673251241445541382e-01 -3.725813329219818115e-01 3.168538510799407959e-01
-9.456226974725723267e-02 -3.641923666000366211e-01 3.503804504871368408e-01
-3.227507472038269043e-01 -9.205015897750854492e-01 3.917975723743438721e-01
-9.118262678384780884e-02 -4.721236824989318848e-01 5.256570577621459961e-01
-1.485043913125991821e-01 -3.393862545490264893e-01 4.969758391380310059e-01
-3.126714825630187988e-01 -5.797805190086364746e-01 3.636103272438049316e-01
-7.267214357852935791e-02 -5.432068705558776855e-01 4.263370633125305176e-01
-2.437234222888946533e-01 -5.163803100585937500e-01 4.830193221569061279e-01
-2.565704882144927979e-01 -9.093056917190551758e-01 3.178108334541320801e-01
-1.846612691879272461e-01 -5.151545405387878418e-01 5.294812917709350586e-01
-1.314878910779953003e-01 -3.954633772373199463e-01 3.153295814990997314e-01
-1.584909260272979736e-01 -7.643810510635375977e-01 3.551101982593536377e-01
-1.465939283370971680e-01 -4.739184975624084473e-01 2.914938330650329590e-01
-9.324301034212112427e-02 -6.179503202438354492e-01 4.176222980022430420e-01
-1.069091185927391052e-01 -3.747766613960266113e-01 5.256327390670776367e-01
-2.549652755260467529e-01 -8.818511962890625000e-01 2.931455969810485840e-01
-5.219751596450805664e-02 -3.600814640522003174e-01 4.284103214740753174e-01
-1.714653819799423218e-01 -5.092006921768188477e-01 2.747462987899780273e-01
-2.799536883831024170e-01 -5.834710597991943359e-01 2.661321461200714111e-01
-1.926150321960449219e-01 -5.024675130844116211e-01 2.694854140281677246e-01
-1.157020851969718933e-01 -5.787411928176879883e-01 3.278855085372924805e-01
-6.756594777107238770e-02 -3.674433231353759766e-01 5.066861510276794434e-01
-1.861701607704162598e-01 -6.486369967460632324e-01 2.670519053936004639e-01
-2.934996485710144043e-01 -9.327416419982910156e-01 3.956103920936584473e-01
-2.728869616985321045e-01 -5.627937316894531250e-01 4.611528813838958740e-01
-3.291221857070922852e-01 -6.585829854011535645e-01 2.959543466567993164e-01
-2.719157934188842773e-01 -5.975647568702697754e-01 2.562563419342041016e-01
-3.308682143688201904e-01 -6.904134750366210938e-01 4.021145105361938477e-01
-1.199161335825920105e-01 -5.278443098068237305e-01 5.337927937507629395e-01
-1.920898258686065674e-01 -3.353620469570159912e-01 4.236708581447601318e-01
-1.691631078720092773e-01 -6.546284556388854980e-01 2.821057438850402832e-01
-3.511599898338317871e-01 -9.125716686248779297e-01 3.468627929687500000e-01
-2.532284259796142578e-01 -7.908617258071899414e-01 2.537950575351715088e-01
-2.273845970630645752e-01 -6.530200242996215820e-01 2.467572540044784546e-01
-2.078423202037811279e-01 -7.470904588699340820e-01 5.010145902633666992e-01
-3.527735471725463867e-01 -7.473765611648559570e-01 3.540976643562316895e-01
-7.150523364543914795e-02 -5.292649269104003906e-01 4.127107560634613037e-01
-8.518404513597488403e-02 -5.908645987510681152e-01 4.498225152492523193e-01
-1.697090566158294678e-01 -3.398679792881011963e-01 4.760313928127288818e-01
-1.867109090089797974e-01 -5.819448232650756836e-01 2.629337310791015625e-01
-1.710842698812484741e-01 -3.342685699462890625e-01 3.466695249080657959e-01
-7.995779812335968018e-02 -5.136500000953674316e-01 3.744102120399475098e-01
-3.533903360366821289e-01 -8.963273167610168457e-01 3.025090992450714111e-01
-2.065813541412353516e-01 -7.702193856239318848e-01 2.807727456092834473e-01
-2.439050674438476562e-01 -6.747102141380310059e-01 5.052244067192077637e-01
-7.764504849910736084e-02 -4.064095616340637207e-01 3.641308844089508057e-01
-3.374117612838745117e-01 -6.662973761558532715e-01 3.543723821640014648e-01
-2.997192144393920898e-01 -5.697066783905029297e-01 2.998974323272705078e-01
-2.087356895208358765e-01 -5.137215256690979004e-01 5.153253674507141113e-01
-1.683434098958969116e-01 -7.961135506629943848e-01 4.287780523300170898e-01
-6.659997999668121338e-02 -5.135077834129333496e-01 4.243551194667816162e-01
-3.203417062759399414e-01 -8.954023122787475586e-01 4.094167351722717285e-01
-1.783539801836013794e-01 -3.698397874832153320e-01 4.878981709480285645e-01
-1.483581215143203735e-01 -4.264669418334960938e-01 2.993947267532348633e-01
-6.324888765811920166e-02 -3.965423703193664551e-01 5.030260682106018066e-01
-3.146278858184814453e-01 -6.752421855926513672e-01 4.314060807228088379e-01
-5.477425456047058105e-02 -3.259730637073516846e-01 4.694506227970123291e-01
-1.963387727737426758e-01 -7.710726261138916016e-01 4.878264367580413818e-01
-1.729766577482223511e-01 -5.996226072311401367e-01 2.714675366878509521e-01
-2.749155163764953613e-01 -7.388098239898681641e-01 4.817091822624206543e-01
-3.264605402946472168e-01 -7.496888041496276855e-01 2.575106024742126465e-01
-1.008361056447029114e-01 -5.157532691955566406e-01 3.360672891139984131e-01
-3.006686568260192871e-01 -6.269204020500183105e-01 4.403643310070037842e-01
-2.070872485637664795e-01 -8.255570530891418457e-01 3.113676011562347412e-01
-3.351244628429412842e-01 -8.325838446617126465e-01 4.110729992389678955e-01
-6.689046323299407959e-02 -4.207751750946044922e-01 5.069198608398437500e-01
-2.067790478467941284e-01 -5.621739625930786133e-01 5.231863856315612793e-01
-2.594734430313110352e-01 -9.026327729225158691e-01 4.215385615825653076e-01
-3.326389491558074951e-01 -9.181934595108032227e-01 2.898682951927185059e-01
-2.583768069744110107e-01 -5.348387360572814941e-01 2.714585661888122559e-01
-3.283471465110778809e-01 -9.475179314613342285e-01 3.244982361793518066e-01
-2.707616090774536133e-01 -7.840796709060668945e-01 2.461366802453994751e-01
-2.294418662786483765e-01 -3.985337018966674805e-01 3.476351201534271240e-01
-3.403582274913787842e-01 -8.159940242767333984e-01 4.042146801948547363e-01
-7.245786488056182861e-02 -4.968822598457336426e-01 3.874404728412628174e-01
-2.994012832641601562e-01 -8.164137005805969238e-01 4.525837004184722900e-01
-2.905333042144775391e-01 -5.195690393447875977e-01 3.417448997497558594e-01
-1.407298147678375244e-01 -3.647257685661315918e-01 5.144879817962646484e-01
-3.452551066875457764e-01 -7.784553766250610352e-01 2.753724455833435059e-01
-3.075471520423889160e-01 -9.189390540122985840e-01 4.042576253414154053e-01
-1.842849254608154297e-01 -5.362116098403930664e-01 5.314849615097045898e-01
-5.861221253871917725e-02 -4.774090647697448730e-01 4.462660849094390869e-01
-8.691976964473724365e-02 -3.760713934898376465e-01 5.216373205184936523e-01
-1.265986412763595581e-01 -4.692706465721130371e-01 5.381885170936584473e-01
-1.576823294162750244e-01 -7.377215623855590820e-01 4.786358177661895752e-01
-2.138944119215011597e-01 -3.998095393180847168e-01 3.207698166370391846e-01
-3.570025563240051270e-01 -7.706136107444763184e-01 3.442158401012420654e-01
-9.860887378454208374e-02 -4.691782593727111816e-01 3.344478309154510498e-01
-2.460480034351348877e-01 -5.498473644256591797e-01 2.603344619274139404e-01
-2.916396260261535645e-01 -5.891962051391601562e-01 4.410454630851745605e-01
-3.242474198341369629e-01 -8.790790438652038574e-01 2.672426104545593262e-01
-1.302910745143890381e-01 -5.493924617767333984e-01 5.342765450477600098e-01
-1.574921011924743652e-01 -6.943591237068176270e-01 3.078295886516571045e-01
-9.970796853303909302e-02 -6.388512253761291504e-01 4.393878579139709473e-01
-2.006623148918151855e-01 -7.855867147445678711e-01 2.944288849830627441e-01
-2.648968994617462158e-01 -6.211268901824951172e-01 4.863008260726928711e-01
-3.475257158279418945e-01 -8.374673128128051758e-01 2.754169106483459473e-01
-1.822729259729385376e-01 -5.254452228546142578e-01 2.685601413249969482e-01
-2.817058265209197998e-01 -7.586116790771484375e-01 4.749166965484619141e-01
-1.456667333841323853e-01 -7.552735209465026855e-01 3.978226780891418457e-01
-2.670322060585021973e-01 -8.626677989959716797e-01 4.515361785888671875e-01
-1.691003888845443726e-01 -4.705348014831542969e-01 2.818867266178131104e-01
-9.383986890316009521e-02 -4.912000298500061035e-01 3.428958058357238770e-01
-3.238304257392883301e-01 -6.144011020660400391e-01 3.544643521308898926e-01
-2.512656152248382568e-01 -7.669241428375244141e-01 2.493274360895156860e-01
-1.109467372298240662e-01 -6.168305277824401855e-01 3.515054881572723389e-01
-2.456477135419845581e-01 -8.397191166877746582e-01 4.643682241439819336e-01
-5.491100251674652100e-02 -3.400609791278839111e-01 4.241240322589874268e-01
-1.015075743198394775e-01 -4.458632469177246094e-01 3.310232162475585938e-01
-2.856441140174865723e-01 -6.430656313896179199e-01 4.669284820556640625e-01
-1.566529124975204468e-01 -6.048638820648193359e-01 2.849774956703186035e-01
-1.307539790868759155e-01 -5.549192428588867188e-01 3.040374219417572021e-01
-1.756560802459716797e-01 -7.282484173774719238e-01 4.991526603698730469e-01
-5.903291702270507812e-02 -3.694887161254882812e-01 4.036081433296203613e-01
-1.803938150405883789e-01 -7.026571035385131836e-01 2.834160923957824707e-01
-3.568438887596130371e-01 -7.938029170036315918e-01 3.591074943542480469e-01
-2.098964601755142212e-01 -8.525385856628417969e-01 3.330583870410919189e-01
-3.263926208019256592e-01 -9.333161115646362305e-01 3.765132427215576172e-01
-2.365571856498718262e-01 -4.621267616748809814e-01 4.673615396022796631e-01
-1.268362551927566528e-01 -6.614295244216918945e-01 3.433558940887451172e-01
-2.693896293640136719e-01 -4.814381599426269531e-01 3.253005445003509521e-01
-2.756697535514831543e-01 -6.841239333152770996e-01 4.822384715080261230e-01
-2.772620320320129395e-01 -5.220158100128173828e-01 4.303045272827148438e-01
-2.594802975654602051e-01 -7.998865246772766113e-01 4.783316552639007568e-01
-1.031472086906433105e-01 -5.949519276618957520e-01 4.997248053550720215e-01
-1.883366554975509644e-01 -4.533578157424926758e-01 2.828757464885711670e-01
-6.372101604938507080e-02 -4.979318678379058838e-01 4.658590257167816162e-01
-1.339534223079681396e-01 -7.217323780059814453e-01 4.464932978153228760e-01
-2.283093035221099854e-01 -8.252649903297424316e-01 2.845325171947479248e-01
-3.306595087051391602e-01 -7.429773807525634766e-01 4.175734519958496094e-01
-8.472835272550582886e-02 -3.919222950935363770e-01 3.556300997734069824e-01
-6.814672052860260010e-02 -4.082400500774383545e-01 3.807412087917327881e-01
-2.410547733306884766e-01 -5.958805680274963379e-01 2.491006255149841309e-01
-6.100864708423614502e-02 -4.830179810523986816e-01 4.257849752902984619e-01
-1.777037978172302246e-01 -3.132871091365814209e-01 4.073941707611083984e-01
-2.263524383306503296e-01 -7.549171447753906250e-01 4.984372556209564209e-01
-2.615467607975006104e-01 -4.639626145362854004e-01 3.288978934288024902e-01
-2.700854837894439697e-01 -9.057866334915161133e-01 2.978143095970153809e-01
-3.058789074420928955e-01 -5.659398436546325684e-01 3.818196654319763184e-01
-1.610006093978881836e-01 -5.241256952285766602e-01 2.786636948585510254e-01
-3.602240085601806641e-01 -8.363598585128784180e-01 3.048349618911743164e-01
-3.165246844291687012e-01 -7.419488430023193359e-01 4.399287998676300049e-01
-3.548361063003540039e-01 -7.693569660186767578e-01 3.030020296573638916e-01
-2.157024741172790527e-01 -5.370569229125976562e-01 5.146320462226867676e-01
-1.402937173843383789e-01 -7.345052957534790039e-01 3.762877285480499268e-01
-1.176895201206207275e-01 -6.894154548645019531e-01 4.128667116165161133e-01
-3.250841498374938965e-01 -6.412497758865356445e-01 2.992519736289978027e-01
-2.408110499382019043e-01 -4.812422692775726318e-01 4.715605974197387695e-01
-2.489856928586959839e-01 -4.550638198852539062e-01 3.136482238769531250e-01
-3.116775155067443848e-01 -6.401557326316833496e-01 4.244993925094604492e-01
-1.915773749351501465e-01 -5.540263056755065918e-01 5.296726822853088379e-01
-2.857331037521362305e-01 -8.590852022171020508e-01 2.617940902709960938e-01
-3.022080361843109131e-01 -6.040309667587280273e-01 4.272147417068481445e-01
-3.408294916152954102e-01 -7.251237630844116211e-01 2.836456894874572754e-01
-3.591630160808563232e-01 -8.582910299301147461e-01 3.028693795204162598e-01
-2.654055356979370117e-01 -4.801214337348937988e-01 4.221428036689758301e-01
-1.045822799205780029e-01 -4.272773563861846924e-01 5.330096483230590820e-01
-1.072253957390785217e-01 -5.564359426498413086e-01 5.202433466911315918e-01
-9.258076548576354980e-02 -5.857710242271423340e-01 4.861321151256561279e-01
-1.446347087621688843e-01 -7.239587903022766113e-01 3.495901525020599365e-01
-2.083779424428939819e-01 -6.273671388626098633e-01 2.531841397285461426e-01
-2.734551429748535156e-01 -9.361920356750488281e-01 3.798301219940185547e-01
-2.609515190124511719e-01 -4.639690220355987549e-01 4.159930348396301270e-01
-2.282959073781967163e-01 -8.128224611282348633e-01 4.761825501918792725e-01
-7.608921825885772705e-02 -4.995934963226318359e-01 5.019897222518920898e-01
-2.347880601882934570e-01 -7.018526196479797363e-01 2.466630041599273682e-01
-1.518039554357528687e-01 -3.806009292602539062e-01 5.148371458053588867e-01
-3.515898883342742920e-01 -7.297235727310180664e-01 3.333170115947723389e-01
-2.247369289398193359e-01 -4.826005697250366211e-01 2.774147689342498779e-01
-1.567815542221069336e-01 -5.883188843727111816e-01 5.338780283927917480e-01
-5.875149369239807129e-02 -4.630581736564636230e-01 4.215563833713531494e-01
-2.965900301933288574e-01 -6.522407531738281250e-01 4.542995095252990723e-01
-7.423686981201171875e-02 -2.817304730415344238e-01 4.209578037261962891e-01
-5.180911719799041748e-02 -4.251784980297088623e-01 4.467611312866210938e-01
-2.488376349210739136e-01 -9.185482263565063477e-01 3.739067018032073975e-01
-1.246435642242431641e-01 -6.737641096115112305e-01 3.571273684501647949e-01
-2.087437510490417480e-01 -6.476774215698242188e-01 2.537080943584442139e-01
-1.675273329019546509e-01 -7.978459596633911133e-01 3.809908926486968994e-01
-1.213188171386718750e-01 -6.693673729896545410e-01 4.779981970787048340e-01
-1.014736294746398926e-01 -3.118573725223541260e-01 3.664138317108154297e-01
-1.147103384137153625e-01 -2.761165499687194824e-01 4.671407938003540039e-01
-2.097243517637252808e-01 -4.413490295410156250e-01 4.917413592338562012e-01
-5.662438273429870605e-02 -4.422909319400787354e-01 4.776165783405303955e-01
-8.967313170433044434e-02 -5.106182694435119629e-01 3.532781302928924561e-01
-3.584254980087280273e-01 -8.341021537780761719e-01 3.582799136638641357e-01
-1.499002128839492798e-01 -5.815600156784057617e-01 2.882223427295684814e-01
-2.498377710580825806e-01 -4.781908392906188965e-01 4.553001224994659424e-01
-2.010672092437744141e-01 -4.297475814819335938e-01 2.937927544116973877e-01
-2.726837396621704102e-01 -8.839148283004760742e-01 4.386082887649536133e-01
-4.987466335296630859e-02 -3.866177499294281006e-01 4.628628790378570557e-01
-2.666582465171813965e-01 -5.710024833679199219e-01 2.621171772480010986e-01
-1.353331208229064941e-01 -7.065379619598388672e-01 3.576867580413818359e-01
-2.118235081434249878e-01 -4.703575074672698975e-01 2.787914872169494629e-01
-6.348264217376708984e-02 -3.839550614356994629e-01 3.914449512958526611e-01
-3.167713582515716553e-01 -7.905623912811279297e-01 4.394923448562622070e-01
-1.575576961040496826e-01 -3.533385097980499268e-01 3.271753787994384766e-01
-3.567366600036621094e-01 -8.545728325843811035e-01 3.621418476104736328e-01
-2.820234596729278564e-01 -7.277826666831970215e-01 2.405174672603607178e-01
-1.566760838031768799e-01 -4.084112346172332764e-01 3.020044267177581787e-01
-1.803482174873352051e-01 -8.239340186119079590e-01 3.963455259799957275e-01
-3.235292136669158936e-01 -6.758202314376831055e-01 4.136914312839508057e-01
-8.885602653026580811e-02 -2.857914566993713379e-01 4.837013781070709229e-01
-1.581713557243347168e-01 -3.255941271781921387e-01 4.776767194271087646e-01
-8.701206743717193604e-02 -5.789481997489929199e-01 3.924805521965026855e-01
-2.965051233768463135e-01 -9.023693799972534180e-01 4.211022257804870605e-01
-1.411706358194351196e-01 -2.868445217609405518e-01 4.535558819770812988e-01
-2.748422622680664062e-01 -4.791749119758605957e-01 3.677033782005310059e-01
-3.434484004974365234e-01 -6.922731399536132812e-01 3.513386845588684082e-01
-1.177470609545707703e-01 -6.785374879837036133e-01 3.848704397678375244e-01
-3.372896313667297363e-01 -7.283684015274047852e-01 4.002823829650878906e-01
-3.194039762020111084e-01 -6.235960721969604492e-01 2.992117702960968018e-01
-2.544223368167877197e-01 -4.897378683090209961e-01 2.926502227783203125e-01
-1.577782183885574341e-01 -3.093186914920806885e-01 3.657409250736236572e-01
-1.677516400814056396e-01 -3.217642903327941895e-01 4.604524374008178711e-01
-2.147743254899978638e-01 -6.530912518501281738e-01 5.194811224937438965e-01
-2.543173432350158691e-01 -4.423395991325378418e-01 3.434360921382904053e-01
-2.563307583332061768e-01 -5.828073620796203613e-01 4.879808127880096436e-01
-2.623266875743865967e-01 -6.968990564346313477e-01 2.404828220605850220e-01
-2.736126780509948730e-01 -5.235224366188049316e-01 2.919778525829315186e-01
-4.997646808624267578e-02 -4.005922079086303711e-01 4.492514729499816895e-01
-3.499673306941986084e-01 -9.216052293777465820e-01 3.299283683300018311e-01
-1.718278974294662476e-01 -7.047796845436096191e-01 5.075694322586059570e-01
-2.177027761936187744e-01 -8.614550828933715820e-01 4.331687092781066895e-01
-1.135927513241767883e-01 -5.998840928077697754e-01 3.384469449520111084e-01
-1.823258250951766968e-01 -7.507995963096618652e-01 4.914500117301940918e-01
-1.154648736119270325e-01 -5.270801782608032227e-01 3.181153833866119385e-01
-3.601082563400268555e-01 -7.927024960517883301e-01 3.307246565818786621e-01
-2.584439218044281006e-01 -5.369536876678466797e-01 4.717971682548522949e-01
-2.769741117954254150e-01 -7.778348922729492188e-01 4.753438234329223633e-01
-2.578507065773010254e-01 -6.109940409660339355e-01 2.483976185321807861e-01
-2.851371765136718750e-01 -5.310412645339965820e-01 3.049380481243133545e-01
-1.741286069154739380e-01 -6.725506782531738281e-01 2.814419865608215332e-01
-2.848054468631744385e-01 -6.873674392700195312e-01 2.432214021682739258e-01
-1.968271881341934204e-01 -8.430739641189575195e-01 3.545126914978027344e-01
-5.063705146312713623e-02 -3.873694539070129395e-01 4.350655376911163330e-01
-3.565567135810852051e-01 -7.945196032524108887e-01 2.982623279094696045e-01
-1.562488377094268799e-01 -2.947893738746643066e-01 3.904106318950653076e-01
-1.121901199221611023e-01 -4.915168583393096924e-01 3.191428184509277344e-01
-2.385905086994171143e-01 -6.293421387672424316e-01 2.452909648418426514e-01
-1.452452242374420166e-01 -4.113372564315795898e-01 5.274984836578369141e-01
-1.926155686378479004e-01 -8.026781082153320312e-01 3.169341683387756348e-01
-3.179876506328582764e-01 -6.176601052284240723e-01 3.937874734401702881e-01
-1.959742158651351929e-01 -3.476069569587707520e-01 4.373345375061035156e-01
-1.535296738147735596e-01 -6.990175247192382812e-01 4.992279410362243652e-01
-3.122617304325103760e-01 -7.638850212097167969e-01 2.473968714475631714e-01
-7.948395609855651855e-02 -4.947007894515991211e-01 3.693642020225524902e-01
-2.976754605770111084e-01 -8.447104096412658691e-01 2.547097206115722656e-01
-3.286672234535217285e-01 -7.937673926353454590e-01 4.238475859165191650e-01
-1.167189106345176697e-01 -6.774674654006958008e-01 4.555726945400238037e-01
-1.827133148908615112e-01 -3.580621182918548584e-01 4.740524291992187500e-01
-2.017485052347183228e-01 -6.652054786682128906e-01 5.211962461471557617e-01
-2.344618141651153564e-01 -9.031059741973876953e-01 3.748583495616912842e-01
-1.370800584554672241e-01 -7.362163066864013672e-01 4.017268121242523193e-01
-2.120352834463119507e-01 -5.384894609451293945e-01 2.598120570182800293e-01
-1.375038623809814453e-01 -4.107985496520996094e-01 3.081930279731750488e-01
-3.121640086174011230e-01 -7.244190573692321777e-01 2.504529356956481934e-01
-7.299371063709259033e-02 -3.066737949848175049e-01 3.994482755661010742e-01
-1.023864448070526123e-01 -5.061672329902648926e-01 5.283149480819702148e-01
-6.356622278690338135e-02 -3.107180893421173096e-01 4.819653630256652832e-01
-1.137509644031524658e-01 -3.007019758224487305e-01 4.923770427703857422e-01
-1.551258713006973267e-01 -7.736961841583251953e-01 4.237624406814575195e-01
-3.565347790718078613e-01 -8.956426382064819336e-01 3.411388993263244629e-01
-1.379979848861694336e-01 -5.710027217864990234e-01 2.984545230865478516e-01
-1.325893849134445190e-01 -2.862483859062194824e-01 3.818288147449493408e-01
-1.947273910045623779e-01 -6.784226298332214355e-01 2.654067277908325195e-01
-3.487574458122253418e-01 -7.592700719833374023e-01 2.877640426158905029e-01
-9.880536794662475586e-02 -6.248266696929931641e-01 4.647443592548370361e-01
-7.462549209594726562e-02 -4.666975736618041992e-01 3.732033967971801758e-01
-1.191540062427520752e-01 -4.105918407440185547e-01 3.192039728164672852e-01
-3.285082280635833740e-01 -6.334819197654724121e-01 3.613830804824829102e-01
-1.371091306209564209e-01 -4.537066817283630371e-01 5.367790460586547852e-01
-1.563737839460372925e-01 -5.521146655082702637e-01 5.373381376266479492e-01
-3.269848525524139404e-01 -9.454649090766906738e-01 3.579806685447692871e-01
-2.997941374778747559e-01 -5.567611455917358398e-01 3.139961361885070801e-01
-1.458649784326553345e-01 -6.712770462036132812e-01 3.148831129074096680e-01
-1.423152238130569458e-01 -7.451583147048950195e-01 4.330352842807769775e-01
-5.923065543174743652e-02 -4.708972871303558350e-01 4.692011177539825439e-01
-2.788670063018798828e-01 -7.030337452888488770e-01 4.799111783504486084e-01
-7.048954069614410400e-02 -5.171395540237426758e-01 4.782450497150421143e-01
-3.004204928874969482e-01 -6.701514720916748047e-01 4.527109861373901367e-01
-3.423178195953369141e-01 -8.612061738967895508e-01 3.941020071506500244e-01
-2.997103333473205566e-01 -6.138260960578918457e-01 2.715522348880767822e-01
-8.298745751380920410e-02 -3.332979977130889893e-01 5.091574788093566895e-01
-3.353937268257141113e-01 -6.691827774047851562e-01 3.723666965961456299e-01
-2.007971704006195068e-01 -6.073366999626159668e-01 5.267511010169982910e-01
-3.185377120971679688e-01 -6.016559600830078125e-01 3.242617547512054443e-01
-1.277402788400650024e-01 -5.357457995414733887e-01 3.052344322204589844e-01
-6.246665120124816895e-02 -3.432532548904418945e-01 4.952685534954071045e-01
-3.544604182243347168e-01 -8.198712468147277832e-01 3.720949292182922363e-01
-5.407015979290008545e-02 -3.622846603393554688e-01 4.825325012207031250e-01
-9.304141253232955933e-02 -3.489622473716735840e-01 5.172760486602783203e-01
-2.075984328985214233e-01 -5.891705751419067383e-01 5.241851806640625000e-01
-2.579371333122253418e-01 -9.206918478012084961e-01 3.339786827564239502e-01
-2.043015211820602417e-01 -8.565406203269958496e-01 4.151743352413177490e-01
-2.481930851936340332e-01 -5.672979354858398438e-01 2.560272216796875000e-01
-2.484078258275985718e-01 -8.495476245880126953e-01 2.788696885108947754e-01
-2.076799422502517700e-01 -4.111443758010864258e-01 3.072180151939392090e-01
-2.254423648118972778e-01 -6.080333590507507324e-01 5.156728625297546387e-01
-7.581534981727600098e-02 -3.667203783988952637e-01 3.721365332603454590e-01
-2.779647111892700195e-01 -9.266984462738037109e-01 3.119876384735107422e-01
-1.207236498594284058e-01 -4.332335591316223145e-01 3.142081797122955322e-01
-3.365721702575683594e-01 -8.977379798889160156e-01 3.895310163497924805e-01
-2.918606400489807129e-01 -8.016047477722167969e-01 4.611841440200805664e-01
-5.630977451801300049e-02 -4.308834671974182129e-01 4.165229201316833496e-01
-2.324055582284927368e-01 -5.349697470664978027e-01 5.006139874458312988e-01
-1.654965281486511230e-01 -7.543106675148010254e-01 3.289017677307128906e-01
-1.490496098995208740e-01 -4.316747486591339111e-01 5.307093858718872070e-01
-2.729278504848480225e-01 -6.592537164688110352e-01 4.831066429615020752e-01
-7.917392253875732422e-02 -5.619840621948242188e-01 4.659532308578491211e-01
-2.118586152791976929e-01 -4.967118501663208008e-01 2.698648273944854736e-01
-1.335684210062026978e-01 -5.040707588195800781e-01 5.387769937515258789e-01
-2.788396179676055908e-01 -5.007032155990600586e-01 3.253945410251617432e-01
-1.844000071287155151e-01 -3.327857255935668945e-01 3.632570505142211914e-01
-3.615756034851074219e-01 -8.157448172569274902e-01 3.341524302959442139e-01
-8.581208437681198120e-02 -2.871888279914855957e-01 3.974204063415527344e-01
-2.781017124652862549e-01 -8.356459140777587891e-01 2.562705278396606445e-01
-2.689059078693389893e-01 -5.261316895484924316e-01 4.502729177474975586e-01
-2.204581946134567261e-01 -3.756409287452697754e-01 3.710094392299652100e-01
-2.035797834396362305e-01 -8.084959387779235840e-01 3.041837513446807861e-01
-2.884498834609985352e-01 -6.085363626480102539e-01 4.540841579437255859e-01
-3.125417828559875488e-01 -7.185493111610412598e-01 4.433077573776245117e-01
-1.261520832777023315e-01 -4.137400388717651367e-01 5.325973033905029297e-01
-1.008731126785278320e-01 -6.328034400939941406e-01 3.955774903297424316e-01
-1.162414401769638062e-01 -2.647085785865783691e-01 4.239648282527923584e-01
-2.220885008573532104e-01 -8.379262089729309082e-01 2.992936372756958008e-01
-1.101803258061408997e-01 -6.542748212814331055e-01 3.834368288516998291e-01
-2.184156626462936401e-01 -8.793306350708007812e-01 3.573459982872009277e-01
-5.447740852832794189e-02 -3.865999877452850342e-01 4.161401987075805664e-01
-2.414585202932357788e-01 -7.200173139572143555e-01 5.021505355834960938e-01
-7.320955395698547363e-02 -4.819920361042022705e-01 5.034400820732116699e-01
-2.753387987613677979e-01 -9.256237745285034180e-01 4.013307988643646240e-01
-2.191412299871444702e-01 -5.644059181213378906e-01 2.547196745872497559e-01
-3.408522009849548340e-01 -7.016403079032897949e-01 2.973760962486267090e-01
-5.168305337429046631e-02 -4.127187132835388184e-01 4.671347737312316895e-01
-3.339436054229736328e-01 -8.506216406822204590e-01 4.094940721988677979e-01
-3.231995999813079834e-01 -7.874042987823486328e-01 2.525813579559326172e-01
-2.235711812973022461e-01 -8.884808421134948730e-01 3.906738162040710449e-01
-3.232540786266326904e-01 -6.451311707496643066e-01 3.982126414775848389e-01
-3.544121086597442627e-01 -8.098084926605224609e-01 2.883650064468383789e-01
-2.106901109218597412e-01 -7.504143118858337402e-01 2.700402736663818359e-01
-1.142150685191154480e-01 -6.429540514945983887e-01 4.864404797554016113e-01
-2.504605650901794434e-01 -8.180043101310729980e-01 4.741465747356414795e-01
-1.213202029466629028e-01 -2.692894637584686279e-01 4.464780092239379883e-01
-1.394638717174530029e-01 -6.666273474693298340e-01 5.040021538734436035e-01
-9.218002110719680786e-02 -3.351917266845703125e-01 3.623781502246856689e-01
-3.077862858772277832e-01 -8.031444549560546875e-01 2.475678622722625732e-01
-1.080642864108085632e-01 -3.209528923034667969e-01 5.063903927803039551e-01
-3.472394049167633057e-01 -7.083716988563537598e-01 3.444576263427734375e-01
-3.098466396331787109e-01 -9.337928891181945801e-01 2.991446852684020996e-01
-2.281236499547958374e-01 -4.772858619689941406e-01 4.863674044609069824e-01
-3.056523501873016357e-01 -7.328774333000183105e-01 4.533396363258361816e-01
-1.315046846866607666e-01 -7.063971161842346191e-01 4.620232284069061279e-01
-1.190834268927574158e-01 -4.439152777194976807e-01 5.363998413085937500e-01
-1.155469790101051331e-01 -3.816702365875244141e-01 3.285530209541320801e-01
-2.180124521255493164e-01 -4.186390340328216553e-01 4.680620729923248291e-01
-9.641527384519577026e-02 -5.409255027770996094e-01 3.490637540817260742e-01
-2.009523212909698486e-01 -3.513250052928924561e-01 3.634032309055328369e-01
-3.394284844398498535e-01 -7.931213378906250000e-01 2.656421661376953125e-01
-1.206284984946250916e-01 -4.911417961120605469e-01 5.372650027275085449e-01
-2.102430164813995361e-01 -6.715047359466552734e-01 2.548064291477203369e-01
-1.782673895359039307e-01 -4.664722681045532227e-01 5.249087810516357422e-01
-3.422015607357025146e-01 -9.296132326126098633e-01 3.532266318798065186e-01
-1.647412925958633423e-01 -6.826738715171813965e-01 2.942181527614593506e-01
-1.407190859317779541e-01 -7.038460373878479004e-01 4.822978079319000244e-01
-1.910292506217956543e-01 -4.017522633075714111e-01 3.054978847503662109e-01
-3.416832089424133301e-01 -7.133384943008422852e-01 3.812560141086578369e-01
-2.863528132438659668e-01 -5.066859722137451172e-01 3.562477827072143555e-01
-2.395826280117034912e-01 -8.681802153587341309e-01 4.442195594310760498e-01
-1.505801826715469360e-01 -5.592027902603149414e-01 2.858310937881469727e-01
-2.219476550817489624e-01 -3.862893283367156982e-01 4.257092475891113281e-01
-3.539218306541442871e-01 -7.710427045822143555e-01 3.634546995162963867e-01
-1.869218051433563232e-01 -8.318744301795959473e-01 3.707692027091979980e-01
-1.702084094285964966e-01 -6.131095886230468750e-01 5.311201810836791992e-01
-9.159141033887863159e-02 -5.619803071022033691e-01 4.994346797466278076e-01
-3.417462706565856934e-01 -9.266117215156555176e-01 3.063496053218841553e-01
-2.617419660091400146e-01 -5.064600706100463867e-01 2.893441915512084961e-01
-1.722254455089569092e-01 -7.225916981697082520e-01 3.001022934913635254e-01
-1.797576248645782471e-01 -3.197017908096313477e-01 4.284424185752868652e-01
-3.065221309661865234e-01 -9.505048990249633789e-01 3.262548446655273438e-01
-2.185151875019073486e-01 -7.876236438751220703e-01 2.764204740524291992e-01
-1.278745830059051514e-01 -6.307899355888366699e-01 3.263430893421173096e-01
-1.924562752246856689e-01 -8.179053664207458496e-01 3.309668600559234619e-01
-2.206334024667739868e-01 -3.740166723728179932e-01 3.945471942424774170e-01
-1.888061612844467163e-01 -7.697029113769531250e-01 3.011685609817504883e-01
-1.540608108043670654e-01 -7.619302272796630859e-01 4.459073543548583984e-01
-8.635051548480987549e-02 -5.341098904609680176e-01 3.672668337821960449e-01
-3.325701951980590820e-01 -6.763459444046020508e-01 2.918518483638763428e-01
-6.389790773391723633e-02 -4.696818590164184570e-01 4.027569890022277832e-01
-2.311008870601654053e-01 -6.820696592330932617e-01 2.465250343084335327e-01
-1.194818317890167236e-01 -3.063353002071380615e-01 3.615622222423553467e-01
-4.990823566913604736e-02 -3.560521602630615234e-01 4.573581218719482422e-01
-1.463399827480316162e-01 -2.828896343708038330e-01 4.071129262447357178e-01
-8.620051294565200806e-02 -5.910671353340148926e-01 4.122405350208282471e-01
-3.103081583976745605e-01 -5.794946551322937012e-01 3.211272060871124268e-01
-2.737569808959960938e-01 -6.531806588172912598e-01 2.447858452796936035e-01
-2.498851418495178223e-01 -7.399828433990478516e-01 4.955878853797912598e-01
-8.366414904594421387e-02 -4.544957280158996582e-01 3.550039529800415039e-01
-6.133377552032470703e-02 -4.594889879226684570e-01 4.857248663902282715e-01
-9.346740692853927612e-02 -6.057800054550170898e-01 4.694775342941284180e-01
-2.378672212362289429e-01 -5.962345004081726074e-01 5.065972805023193359e-01
-1.799879074096679688e-01 -5.885039567947387695e-01 5.328143835067749023e-01
-1.714960187673568726e-01 -3.205751478672027588e-01 3.638328313827514648e-01
-1.907505393028259277e-01 -3.820198476314544678e-01 4.812554419040679932e-01
-2.341609746217727661e-01 -5.239635705947875977e-01 2.650741934776306152e-01
-2.329515516757965088e-01 -4.207028746604919434e-01 4.417860507965087891e-01
-2.990987598896026611e-01 -6.318682432174682617e-01 2.634657621383666992e-01
-2.378866225481033325e-01 -4.176508188247680664e-01 4.248459339141845703e-01
-2.914229929447174072e-01 -5.467849969863891602e-01 4.141249656677246094e-01
-3.419610857963562012e-01 -6.823351383209228516e-01 3.355987071990966797e-01
-2.273547500371932983e-01 -7.806559801101684570e-01 4.899456799030303955e-01
-1.253591477870941162e-01 -3.268932104110717773e-01 3.463062644004821777e-01
-1.150821670889854431e-01 -5.584037899971008301e-01 3.237678110599517822e-01
-6.824031472206115723e-02 -4.536064863204956055e-01 5.033036470413208008e-01
-9.295014292001724243e-02 -6.167342066764831543e-01 4.468370974063873291e-01
-2.673653960227966309e-01 -8.550784587860107422e-01 2.683055400848388672e-01
-7.753507792949676514e-02 -4.331262707710266113e-01 5.182486772537231445e-01
-1.211657747626304626e-01 -3.878447413444519043e-01 5.279245376586914062e-01
-1.341398507356643677e-01 -6.788324713706970215e-01 3.390363156795501709e-01
-2.118519991636276245e-01 -7.073739767074584961e-01 2.588679194450378418e-01
-1.482080817222595215e-01 -4.691993594169616699e-01 5.365526676177978516e-01
-3.560254871845245361e-01 -7.575847506523132324e-01 3.293112218379974365e-01
-2.123733162879943848e-01 -4.008814096450805664e-01 4.637687206268310547e-01
-2.352833151817321777e-01 -7.688474059104919434e-01 2.577612996101379395e-01
-2.001896202564239502e-01 -8.189777135848999023e-01 4.581586718559265137e-01
-2.564556896686553955e-01 -6.489036679267883301e-01 4.966591894626617432e-01
-1.859473288059234619e-01 -4.966756105422973633e-01 5.263605117797851562e-01
-1.285636126995086670e-01 -5.963050723075866699e-01 5.234071016311645508e-01
-3.226624131202697754e-01 -8.427697420120239258e-01 2.572690248489379883e-01
-1.101099476218223572e-01 -3.571584224700927734e-01 3.398981690406799316e-01
-2.440509200096130371e-01 -4.193009138107299805e-01 3.546635210514068604e-01
-9.569858759641647339e-02 -6.084558963775634766e-01 3.880109786987304688e-01
-1.961629986763000488e-01 -7.555381059646606445e-01 2.856087684631347656e-01
-1.940820962190628052e-01 -8.459666967391967773e-01 4.014641642570495605e-01
-2.252787798643112183e-01 -8.795081377029418945e-01 3.358339071273803711e-01
-1.353120803833007812e-01 -3.782479763031005859e-01 3.191770911216735840e-01
-1.912506520748138428e-01 -4.149785339832305908e-01 4.989012479782104492e-01
-1.255905032157897949e-01 -5.037524104118347168e-01 3.057466745376586914e-01
-2.757743000984191895e-01 -8.088589906692504883e-01 2.498131990432739258e-01
-3.520359396934509277e-01 -8.684470057487487793e-01 3.722135722637176514e-01
-3.242437243461608887e-01 -6.160828471183776855e-01 3.343565762042999268e-01
-3.278946876525878906e-01 -7.078754305839538574e-01 2.684889435768127441e-01
-2.570801675319671631e-01 -7.055452466011047363e-01 4.958972632884979248e-01
-1.779913306236267090e-01 -7.998188734054565430e-01 4.482788443565368652e-01
-1.923378705978393555e-01 -5.585126876831054688e-01 2.616409063339233398e-01
-3.622041046619415283e-01 -8.468666076660156250e-01 3.210424184799194336e-01
-2.814330458641052246e-01 -5.154281258583068848e-01 4.128109812736511230e-01
-1.038396060466766357e-01 -4.055143892765045166e-01 3.327006101608276367e-01
-1.435814499855041504e-01 -6.876550912857055664e-01 3.263714015483856201e-01
-1.646904051303863525e-01 -5.118686556816101074e-01 5.361644029617309570e-01
-1.221715286374092102e-01 -4.675759971141815186e-01 3.096107244491577148e-01
-1.168224141001701355e-01 -6.604816317558288574e-01 3.673634231090545654e-01
-6.093394756317138672e-02 -3.110531270503997803e-01 4.224295914173126221e-01
-3.160529732704162598e-01 -5.895140767097473145e-01 3.376979827880859375e-01
-1.909445524215698242e-01 -7.034499049186706543e-01 5.130805373191833496e-01
-6.722174584865570068e-02 -2.948927879333496094e-01 4.746529161930084229e-01
-3.035370111465454102e-01 -5.519044399261474609e-01 3.605475127696990967e-01
-3.503648042678833008e-01 -7.377821207046508789e-01 3.054198920726776123e-01
-9.691448509693145752e-02 -3.935794234275817871e-01 5.276872515678405762e-01
-2.128045111894607544e-01 -6.972146034240722656e-01 5.139706730842590332e-01
-3.332892060279846191e-01 -8.564583063125610352e-01 2.650179266929626465e-01
-1.974666416645050049e-01 -7.208408117294311523e-01 2.726175189018249512e-01
-7.004529237747192383e-02 -2.799622118473052979e-01 4.385859966278076172e-01
-1.839755624532699585e-01 -7.325693964958190918e-01 2.899163365364074707e-01
-2.472354769706726074e-01 -5.583075881004333496e-01 4.917781352996826172e-01
-1.597984135150909424e-01 -2.940714061260223389e-01 4.167620539665222168e-01
-1.462781131267547607e-01 -3.007779717445373535e-01 4.666495919227600098e-01
-3.581852912902832031e-01 -8.778858184814453125e-01 3.478095233440399170e-01
-7.763341069221496582e-02 -2.725456058979034424e-01 4.566676616668701172e-01
-2.038387358188629150e-01 -4.592081606388092041e-01 5.046951770782470703e-01
-1.678229719400405884e-01 -5.414916872978210449e-01 2.739365100860595703e-01
-1.900881081819534302e-01 -3.803292512893676758e-01 3.187207281589508057e-01
-1.644790172576904297e-01 -7.820149660110473633e-01 4.431320726871490479e-01
-2.124436646699905396e-01 -6.007482409477233887e-01 2.523063421249389648e-01
-2.894176840782165527e-01 -9.110242724418640137e-01 2.877863645553588867e-01
-2.862913608551025391e-01 -5.717940330505371094e-01 4.426252245903015137e-01
-2.345172464847564697e-01 -4.561490416526794434e-01 2.964915931224822998e-01
-1.493725478649139404e-01 -4.900428652763366699e-01 5.379973649978637695e-01
-6.947040557861328125e-02 -4.479227364063262939e-01 3.811317980289459229e-01
-2.779654562473297119e-01 -6.113752126693725586e-01 4.695941805839538574e-01
-9.931956976652145386e-02 -2.684943377971649170e-01 4.098636209964752197e-01
-1.635614037513732910e-01 -3.708233833312988281e-01 5.024439096450805664e-01
-5.997569859027862549e-02 -3.457319438457489014e-01 4.066933691501617432e-01
-9.874157607555389404e-02 -5.389506816864013672e-01 5.178877711296081543e-01
-8.567172288894653320e-02 -3.013128340244293213e-01 4.947057366371154785e-01
-2.139513045549392700e-01 -8.743203878402709961e-01 4.000911712646484375e-01
-1.480762362480163574e-01 -6.053637862205505371e-01 5.293394923210144043e-01
-1.393012851476669312e-01 -6.484666466712951660e-01 5.121011734008789062e-01
-3.005664944648742676e-01 -7.029635906219482422e-01 4.573451280593872070e-01
-1.865322887897491455e-01 -8.203340768814086914e-01 3.485907912254333496e-01
-1.568589508533477783e-01 -2.970716953277587891e-01 4.420378506183624268e-01
-1.545868515968322754e-01 -7.503130435943603516e-01 4.624018669128417969e-01
-7.901395857334136963e-02 -5.351164340972900391e-01 3.872316777706146240e-01
-2.418271899223327637e-01 -7.246356606483459473e-01 2.464358806610107422e-01
-8.820489048957824707e-02 -4.742707908153533936e-01 3.495794534683227539e-01
-2.590187788009643555e-01 -4.457061290740966797e-01 3.842930197715759277e-01
-1.957929283380508423e-01 -8.353959321975708008e-01 4.335305094718933105e-01
-1.620987653732299805e-01 -7.896239757537841797e-01 4.108771681785583496e-01
-1.318463832139968872e-01 -7.250543236732482910e-01 4.158761203289031982e-01
-1.741528511047363281e-03 -3.088733851909637451e-01 3.912869691848754883e-01
4.300677180290222168e-01 -1.472466439008712769e-01 -3.157430589199066162e-01
-1.165564060211181641e-01 -3.368667364120483398e-01 1.249469965696334839e-01
4.588430523872375488e-01 -3.270520567893981934e-01 2.543710470199584961e-01
6.723122298717498779e-02 -1.045282334089279175e-01 7.825154066085815430e-02
2.781124711036682129e-01 -4.054748415946960449e-01 2.540189623832702637e-01
-3.603598475456237793e-02 -4.431475996971130371e-01 -7.397251576185226440e-02
-3.096678853034973145e-02 -2.921956479549407959e-01 3.639428019523620605e-01
3.686870038509368896e-01 -3.080019652843475342e-01 4.047430455684661865e-01
5.662078857421875000e-01 -2.654134035110473633e-01 -1.647599041461944580e-01
-1.226796507835388184e-01 -3.246551156044006348e-01 3.286202996969223022e-02
-9.350296854972839355e-02 -3.033920824527740479e-01 -1.237125024199485779e-01
2.707729041576385498e-01 -3.322224318981170654e-02 2.257713079452514648e-01
3.161536753177642822e-01 -3.228596746921539307e-01 4.180552363395690918e-01
5.057243704795837402e-01 -1.593044251203536987e-01 4.013175666332244873e-01
2.495730519294738770e-01 -7.586111128330230713e-02 4.157878756523132324e-01
4.593510627746582031e-01 -1.608350574970245361e-01 4.495257735252380371e-01
2.468006908893585205e-01 -5.131904780864715576e-02 3.277297019958496094e-01
3.084923624992370605e-01 -6.106153130531311035e-02 4.005301296710968018e-01
1.806031763553619385e-01 -4.598985314369201660e-01 -2.034363448619842529e-01
3.451023995876312256e-01 -4.310763478279113770e-01 -4.592474550008773804e-02
1.723135560750961304e-01 -4.199942648410797119e-01 2.669233083724975586e-01
4.023045301437377930e-01 -1.217113733291625977e-01 -2.867408692836761475e-01
2.530404925346374512e-01 -7.131724059581756592e-02 -1.281423866748809814e-01
1.829259991645812988e-01 -1.051370650529861450e-01 -1.786639690399169922e-01
4.522224664688110352e-01 -3.719283938407897949e-01 8.368399739265441895e-02
-7.550370693206787109e-02 -2.145091891288757324e-01 1.039398834109306335e-01
2.015329748392105103e-01 -3.228988051414489746e-01 -4.356266558170318604e-01
8.847491443157196045e-02 -1.381991207599639893e-01 4.028491675853729248e-01
2.290622442960739136e-01 -5.153471231460571289e-02 -1.302242279052734375e-03
3.149171471595764160e-01 -4.412876665592193604e-01 -8.679347485303878784e-02
1.089237332344055176e-01 -4.715285897254943848e-01 5.572147667407989502e-03
4.861721396446228027e-01 -2.051598429679870605e-01 4.076468050479888916e-01
4.450784027576446533e-01 -3.504380583763122559e-01 -2.721140384674072266e-01
1.716530323028564453e-02 -3.200075328350067139e-01 -3.323930799961090088e-01
6.016661226749420166e-02 -1.090315133333206177e-01 2.143438756465911865e-01
8.657515048980712891e-03 -4.439132213592529297e-01 1.296840310096740723e-01
2.191061228513717651e-01 -4.360234737396240234e-01 -2.892090976238250732e-01
4.366164207458496094e-01 -6.588247418403625488e-02 -1.449991762638092041e-01
5.282471179962158203e-01 -2.110437005758285522e-01 -2.809519469738006592e-01
4.738909304141998291e-01 -9.132067859172821045e-02 3.976360261440277100e-01
5.946477651596069336e-01 -1.317298561334609985e-01 -9.624161571264266968e-02
1.388879418373107910e-01 -2.656604349613189697e-01 -4.033365845680236816e-01
2.017377018928527832e-01 -1.186776310205459595e-01 4.721837937831878662e-01
2.482710033655166626e-01 -3.852369785308837891e-01 3.318655788898468018e-01
5.951008200645446777e-01 -9.405055642127990723e-02 1.470448225736618042e-01
5.854485034942626953e-01 -2.605251073837280273e-01 8.337471634149551392e-02
3.877844810485839844e-01 -1.563235223293304443e-01 4.972239732742309570e-01
4.083353877067565918e-01 -3.994892239570617676e-01 -1.529367566108703613e-01
9.981167316436767578e-02 -4.183732867240905762e-01 -3.305937349796295166e-01
5.204190015792846680e-01 -2.774364054203033447e-01 2.580378055572509766e-01
4.054558873176574707e-01 -1.999645829200744629e-01 4.828223586082458496e-01
1.926580071449279785e-02 -4.561421275138854980e-01 -1.471416652202606201e-01
9.805409610271453857e-02 -9.707444906234741211e-02 2.829698324203491211e-01
-4.514852166175842285e-02 -3.652607202529907227e-01 -2.455032765865325928e-01
4.546407163143157959e-01 -3.799700736999511719e-01 -5.792731791734695435e-02
5.710780024528503418e-01 -1.824150383472442627e-01 -2.020252048969268799e-01
5.632093548774719238e-01 -2.510755658149719238e-01 -1.975912749767303467e-01
