2.574390172958374023e-01 6.542561203241348267e-02 -2.213516086339950562e-02
2.842673957347869873e-01 1.348940730094909668e-01 -8.472941070795059204e-02
3.233440816402435303e-01 1.358297616243362427e-01 2.774569019675254822e-02
2.451047003269195557e-01 7.761950790882110596e-02 -6.779868155717849731e-02
-1.342772245407104492e-01 1.720198541879653931e-01 1.166702136397361755e-01
2.884336113929748535e-01 1.067584007978439331e-01 3.835129737854003906e-02
-1.202595308423042297e-01 2.703544497489929199e-01 -7.488515973091125488e-02
4.897956922650337219e-02 4.399216175079345703e-02 5.077166855335235596e-02
-5.921699106693267822e-02 2.709115147590637207e-01 9.584516286849975586e-02
3.336550891399383545e-01 1.993622332811355591e-01 -2.539839409291744232e-02
9.943459928035736084e-02 9.793821722269058228e-02 9.823146462440490723e-02
1.743896007537841797e-01 4.724713414907455444e-02 -5.580049753189086914e-02
2.523978352546691895e-01 1.464463025331497192e-01 -1.010275855660438538e-01
1.952052116394042969e-02 2.915912270545959473e-01 -6.711855530738830566e-02
1.197918206453323364e-01 1.179264485836029053e-01 1.052337884902954102e-01
4.772039875388145447e-02 2.302527427673339844e-01 1.169565841555595398e-01
-1.488695442676544189e-01 1.855512708425521851e-01 -1.110259741544723511e-01
-1.068297103047370911e-01 2.538831233978271484e-01 -9.215085208415985107e-02
-5.722978711128234863e-02 2.446412742137908936e-01 -1.059953793883323669e-01
2.992304265499114990e-01 2.348721027374267578e-01 1.278182677924633026e-02
1.640370786190032959e-01 2.514848709106445312e-01 8.565157651901245117e-02
-1.265108287334442139e-01 1.855921894311904907e-01 -1.161301583051681519e-01
1.987820267677307129e-01 2.476863712072372437e-01 7.621248066425323486e-02
6.197459623217582703e-02 2.603015303611755371e-02 -6.433836184442043304e-03
2.975594997406005859e-01 2.272819429636001587e-01 2.960295602679252625e-02
1.114974692463874817e-01 2.146730720996856689e-01 -1.205389648675918579e-01
1.346212178468704224e-01 2.421606034040451050e-01 -1.032619252800941467e-01
-1.860734224319458008e-01 1.784695386886596680e-01 1.057678237557411194e-01
-2.083395123481750488e-01 2.085709422826766968e-01 9.659761190414428711e-02
2.048290148377418518e-02 2.633304595947265625e-01 1.021410450339317322e-01
2.124510109424591064e-01 2.819204032421112061e-01 -5.339763127267360687e-03
5.198585987091064453e-02 2.625736296176910400e-01 -9.728987514972686768e-02
1.263018697500228882e-03 1.932210624217987061e-01 1.267021447420120239e-01
-8.451702445745468140e-02 2.521336376667022705e-01 1.062085852026939392e-01
2.040024697780609131e-01 1.983128935098648071e-01 -1.097048595547676086e-01
1.875698566436767578e-01 2.393296062946319580e-01 -9.332495927810668945e-02
-5.600745975971221924e-02 7.135912775993347168e-02 8.095176517963409424e-02
1.669553816318511963e-01 1.067067310214042664e-01 -1.142896264791488647e-01
2.294772863388061523e-01 2.059319615364074707e-01 8.531461656093597412e-02
1.611042320728302002e-01 5.069996416568756104e-02 3.758801519870758057e-02
1.446427404880523682e-01 1.416827291250228882e-01 -1.265466064214706421e-01
2.176284790039062500e-02 8.340357244014739990e-02 9.462544322013854980e-02
-3.116917237639427185e-02 2.040184438228607178e-01 1.253637224435806274e-01
1.394381821155548096e-01 2.847720384597778320e-01 5.921526253223419189e-02
-3.152180090546607971e-02 2.245443910360336304e-01 1.209541633725166321e-01
1.644162535667419434e-01 1.442031711339950562e-01 1.051421463489532471e-01
-2.969146966934204102e-01 1.493802815675735474e-01 3.944436833262443542e-02
2.714394330978393555e-01 2.316137105226516724e-01 4.964586347341537476e-02
1.588512957096099854e-01 7.153368741273880005e-02 6.632917374372482300e-02
-2.385446131229400635e-01 1.090678423643112183e-01 -5.877691507339477539e-02
8.042842894792556763e-02 5.841869860887527466e-02 -9.307591617107391357e-02
-1.896237134933471680e-01 9.187401831150054932e-02 6.625211238861083984e-02
-1.346797645092010498e-01 5.312481522560119629e-02 3.347139805555343628e-02
6.402996927499771118e-02 1.831389218568801880e-01 1.240154355764389038e-01
1.832740604877471924e-01 4.768399149179458618e-02 1.947754062712192535e-02
-1.073806062340736389e-01 1.652728021144866943e-01 1.200334280729293823e-01
-2.301789224147796631e-01 2.522007226943969727e-01 6.399145722389221191e-02
-6.944203376770019531e-02 3.128175735473632812e-01 8.937904611229896545e-03
2.693615481257438660e-02 2.451942116022109985e-01 1.122264415025711060e-01
2.738984823226928711e-01 2.341358661651611328e-01 -5.789085850119590759e-02
-2.926576733589172363e-01 1.693639755249023438e-01 5.272379890084266663e-02
2.765788435935974121e-01 8.140210062265396118e-02 -4.722533747553825378e-02
1.825797259807586670e-01 1.845427900552749634e-01 1.039882749319076538e-01
-2.856566011905670166e-01 2.389254868030548096e-01 1.700119674205780029e-02
-2.112509906291961670e-01 1.741751879453659058e-01 9.785312414169311523e-02
-2.557037472724914551e-01 1.953970938920974731e-01 7.878303527832031250e-02
1.198968291282653809e-01 1.927381306886672974e-01 -1.263628602027893066e-01
6.918087601661682129e-04 2.251073420047760010e-01 -1.201900914311408997e-01
5.524638108909130096e-03 1.634326279163360596e-01 -1.337437331676483154e-01
1.948077082633972168e-01 4.408293962478637695e-02 -1.329291984438896179e-02
-1.265390515327453613e-01 2.473948895931243896e-01 -9.240091592073440552e-02
-2.112241983413696289e-01 2.813908755779266357e-01 -2.951371017843484879e-03
3.165119290351867676e-01 1.465527266263961792e-01 -6.568165868520736694e-02
6.710878014564514160e-02 7.777113467454910278e-02 -1.100315675139427185e-01
9.122237563133239746e-02 2.841991186141967773e-02 1.849536783993244171e-05
1.475128829479217529e-01 2.440612316131591797e-01 9.498362243175506592e-02
-8.266938477754592896e-02 5.181960016489028931e-02 -6.919167935848236084e-02
-6.135311722755432129e-02 2.058516442775726318e-01 1.237722337245941162e-01
-1.118407323956489563e-01 6.630776822566986084e-02 6.482407450675964355e-02
-1.636440455913543701e-01 7.402363419532775879e-02 -6.695657968521118164e-02
-4.512403905391693115e-02 3.142952322959899902e-01 1.542220637202262878e-02
2.767204120755195618e-02 2.358257025480270386e-01 -1.155699864029884338e-01
2.603918612003326416e-01 1.426171064376831055e-01 7.352262735366821289e-02
-4.122234135866165161e-02 8.152562379837036133e-02 -1.073003709316253662e-01
1.837827563285827637e-01 2.107292413711547852e-01 9.923141449689865112e-02
1.739571690559387207e-01 2.781855165958404541e-01 -5.543916672468185425e-02
-1.424099206924438477e-01 5.262816697359085083e-02 -4.130783304572105408e-02
1.670482158660888672e-01 1.602733880281448364e-01 -1.238692402839660645e-01
-5.733171477913856506e-03 5.352709442377090454e-02 -8.657073229551315308e-02
1.547777950763702393e-01 4.015241563320159912e-02 -4.727922752499580383e-02
9.766778349876403809e-02 2.430482357740402222e-01 1.056836619973182678e-01
2.975786626338958740e-01 1.205315291881561279e-01 -7.091525942087173462e-02
-1.249719634652137756e-01 6.395391374826431274e-02 -7.140001654624938965e-02
3.420585393905639648e-01 1.837486773729324341e-01 -2.260703034698963165e-02
-3.407114371657371521e-02 2.434172481298446655e-01 -1.089813113212585449e-01
1.707066595554351807e-01 1.045344248414039612e-01 8.849801123142242432e-02
-8.566667884588241577e-02 1.565242409706115723e-01 1.212622374296188354e-01
8.437515050172805786e-02 2.061234563589096069e-01 1.196331903338432312e-01
6.107224896550178528e-02 2.111676037311553955e-01 -1.254416406154632568e-01
1.881984174251556396e-01 2.696191370487213135e-01 -6.241700425744056702e-02
2.033073902130126953e-01 2.629849016666412354e-01 5.957107245922088623e-02
6.725326180458068848e-02 2.990448474884033203e-01 -5.058374255895614624e-02
-1.921795904636383057e-01 2.088648378849029541e-01 -9.283335506916046143e-02
2.294898331165313721e-01 2.421323657035827637e-01 6.663180142641067505e-02
-5.524470657110214233e-02 1.731926798820495605e-01 1.256144791841506958e-01
8.676119893789291382e-02 2.918478250503540039e-01 -6.010909751057624817e-02
-9.773404896259307861e-02 4.852026700973510742e-02 -5.791275203227996826e-02
1.923854053020477295e-01 6.579133868217468262e-02 -7.857119292020797729e-02
2.510298490524291992e-01 2.597086429595947266e-01 2.863776311278343201e-02
2.634026408195495605e-01 2.471166253089904785e-01 -4.887172952294349670e-02
2.540674805641174316e-01 2.076772004365921021e-01 -8.903473615646362305e-02
-5.585282295942306519e-02 1.923770457506179810e-01 -1.261450648307800293e-01
3.105315752327442169e-02 2.677658200263977051e-02 -3.225455060601234436e-02
1.433511078357696533e-01 6.211841851472854614e-02 -8.833768218755722046e-02
-1.105243042111396790e-01 3.027496337890625000e-01 -2.456629276275634766e-02
3.256340324878692627e-01 2.137093693017959595e-01 -7.385683245956897736e-03
2.238739430904388428e-01 1.115094274282455444e-01 7.592424750328063965e-02
-2.843204736709594727e-01 2.255585938692092896e-01 -2.883146889507770538e-02
5.954552441835403442e-02 3.358148038387298584e-02 -5.597886443138122559e-02
-2.841708362102508545e-01 1.995133161544799805e-01 -4.679863154888153076e-02
-8.334974944591522217e-02 1.741585731506347656e-01 1.235272288322448730e-01
2.486296594142913818e-01 7.444331049919128418e-02 2.871289849281311035e-02
-7.634358108043670654e-02 2.892433106899261475e-01 -6.213986501097679138e-02
1.781609356403350830e-01 1.209521219134330750e-01 9.456928074359893799e-02
2.001908421516418457e-01 1.994633525609970093e-01 9.705672413110733032e-02
-3.115957230329513550e-02 2.808474004268646240e-02 -1.296436414122581482e-02
-3.597635775804519653e-02 3.064387440681457520e-01 5.049962550401687622e-02
1.669521927833557129e-01 4.119478166103363037e-02 1.060158759355545044e-02
4.207253828644752502e-02 3.118197619915008545e-02 2.318361029028892517e-02
-1.953211128711700439e-01 8.005553483963012695e-02 4.846556112170219421e-02
-1.056030616164207458e-01 3.931841254234313965e-02 4.565013106912374496e-03
3.390395939350128174e-01 1.905822157859802246e-01 1.550613902509212494e-03
3.291784524917602539e-01 1.281141787767410278e-01 -4.334150627255439758e-02
-1.828069090843200684e-01 2.484041154384613037e-01 -7.473516464233398438e-02
1.532635986804962158e-01 2.984521389007568359e-01 -6.936387158930301666e-03
4.395536333322525024e-02 3.138640522956848145e-01 -3.184630302712321281e-03
1.230219081044197083e-01 2.674984931945800781e-01 -8.449978381395339966e-02
1.089390888810157776e-01 4.069064557552337646e-02 3.540459647774696350e-02
-1.822018921375274658e-01 2.329250574111938477e-01 9.683138877153396606e-02
2.599841952323913574e-01 1.173425018787384033e-01 6.347746402025222778e-02
6.920490413904190063e-04 2.570628523826599121e-01 1.069106906652450562e-01
1.030721440911293030e-01 3.079714179039001465e-01 6.001485045999288559e-03
-1.322887837886810303e-01 1.006116047501564026e-01 -1.003963351249694824e-01
-2.371641993522644043e-02 1.343554556369781494e-01 1.199255287647247314e-01
-2.753940224647521973e-01 1.088330894708633423e-01 1.185099221765995026e-02
1.292859315872192383e-01 4.769033938646316528e-02 -7.258925586938858032e-02
-2.510191500186920166e-01 2.585421204566955566e-01 -1.787808723747730255e-02
-1.616041362285614014e-01 2.316433787345886230e-01 1.028336361050605774e-01
8.501772582530975342e-02 2.899058163166046143e-01 6.826183944940567017e-02
2.777511179447174072e-01 7.516656816005706787e-02 -1.664404384791851044e-02
-2.768973708152770996e-01 1.627101004123687744e-01 6.410507857799530029e-02
9.812121838331222534e-02 3.031128644943237305e-02 -3.779988363385200500e-02
1.586207747459411621e-01 2.945671975612640381e-01 -2.410047501325607300e-02
3.028671145439147949e-01 1.327982544898986816e-01 4.510074108839035034e-02
-1.975558996200561523e-01 7.218643277883529663e-02 3.204655274748802185e-02
-1.868779361248016357e-01 7.348883152008056641e-02 -5.227488651871681213e-02
-6.769796833395957947e-03 3.156020939350128174e-01 2.116994466632604599e-03
-2.031424939632415771e-01 6.678095459938049316e-02 -1.713980338536202908e-03
2.171445488929748535e-01 2.181844264268875122e-01 -9.753610193729400635e-02
9.312093257904052734e-02 9.464196860790252686e-02 -1.183900386095046997e-01
-1.192393228411674500e-01 1.160265803337097168e-01 1.034690141677856445e-01
-1.175807341933250427e-01 2.684983015060424805e-01 9.009213745594024658e-02
7.151865959167480469e-02 9.337893873453140259e-02 -1.189548224210739136e-01
1.281951665878295898e-01 3.143826127052307129e-02 -1.029620785266160965e-02
2.236249446868896484e-01 5.384399741888046265e-02 -3.302888199687004089e-02
-2.236614748835563660e-02 3.762733936309814453e-02 -5.926935374736785889e-02
8.947093039751052856e-02 3.794041275978088379e-02 -6.258574128150939941e-02
-1.018661037087440491e-01 2.776305973529815674e-01 -7.151334732770919800e-02
2.522659003734588623e-01 2.246352881193161011e-01 -7.961340993642807007e-02
-3.673687577247619629e-02 2.927778959274291992e-01 -6.297272443771362305e-02
3.469853401184082031e-01 1.620420366525650024e-01 -1.436524651944637299e-02
-2.411578297615051270e-01 8.482474088668823242e-02 -5.488957278430461884e-03
2.074813544750213623e-01 1.033286228775978088e-01 7.698383927345275879e-02
7.111811637878417969e-02 3.085507750511169434e-01 -2.377146109938621521e-02
-2.638739645481109619e-01 1.001238822937011719e-01 -1.322405226528644562e-02
2.594712972640991211e-01 2.617811560630798340e-01 -1.351656205952167511e-02
3.226875662803649902e-01 1.950245797634124756e-01 -4.948155954480171204e-02
-1.823338270187377930e-01 1.254548430442810059e-01 9.319337457418441772e-02
-1.648315042257308960e-02 6.214819103479385376e-02 7.489281892776489258e-02
-4.463065788149833679e-02 9.189546853303909302e-02 9.873572736978530884e-02
-2.437322735786437988e-01 8.925146609544754028e-02 -2.300579100847244263e-02
5.332643911242485046e-02 2.811725139617919922e-01 -7.897537201642990112e-02
1.327492296695709229e-01 1.302429437637329102e-01 1.076139807701110840e-01
1.079468727111816406e-01 1.461758911609649658e-01 -1.310495287179946899e-01
-9.294010698795318604e-02 1.903339028358459473e-01 1.226560026407241821e-01
-1.064906492829322815e-01 2.094426751136779785e-01 -1.145769879221916199e-01
-2.508133053779602051e-01 9.273396432399749756e-02 1.639108359813690186e-02
2.245087027549743652e-01 2.757070958614349365e-01 -2.073918655514717102e-02
1.944000422954559326e-01 2.873602509498596191e-01 9.524390101432800293e-03
-1.275593936443328857e-01 2.059900164604187012e-01 -1.114834845066070557e-01
2.148171663284301758e-01 7.925722748041152954e-02 5.454211309552192688e-02
7.331779599189758301e-02 3.993484377861022949e-02 4.097786545753479004e-02
-4.228828474879264832e-03 1.472084224224090576e-01 -1.327871829271316528e-01
-1.879411339759826660e-01 2.902333438396453857e-01 4.740938078612089157e-03
-1.342228055000305176e-01 2.550697028636932373e-01 9.674232453107833862e-02
7.274082303047180176e-02 4.141357541084289551e-02 -7.111965119838714600e-02
-2.065550982952117920e-01 2.776264846324920654e-01 -2.367987111210823059e-02
1.987709999084472656e-01 7.043504714965820312e-02 5.141573026776313782e-02
7.811453938484191895e-02 2.724280953407287598e-02 -2.742681652307510376e-02
-1.142971403896808624e-02 1.937961280345916748e-01 -1.295005679130554199e-01
-2.253240644931793213e-01 1.602783501148223877e-01 9.067878127098083496e-02
-2.228785753250122070e-01 2.192471772432327271e-01 8.817938715219497681e-02
7.954131811857223511e-02 1.244670823216438293e-01 -1.296320259571075439e-01
1.608350574970245361e-01 2.755475640296936035e-01 6.368809193372726440e-02
1.815760433673858643e-01 9.213906526565551758e-02 7.764153182506561279e-02
5.133612826466560364e-02 1.075986251235008240e-01 1.080848649144172668e-01
-1.497389674186706543e-01 2.310775071382522583e-01 -9.625889360904693604e-02
2.587163150310516357e-01 8.837965875864028931e-02 4.081483557820320129e-02
-1.313759014010429382e-02 2.220702767372131348e-01 1.218741089105606079e-01
1.096626520156860352e-01 1.188994199037551880e-01 -1.261804550886154175e-01
1.391005516052246094e-01 2.799603939056396484e-01 -6.563571840524673462e-02
2.267971932888031006e-01 6.730844825506210327e-02 -6.438703835010528564e-02
-1.362701654434204102e-01 4.581049829721450806e-02 2.837520558387041092e-03
2.092083096504211426e-01 7.932581752538681030e-02 -8.653695881366729736e-02
-2.480848133563995361e-01 9.990520775318145752e-02 -3.987788408994674683e-02
-2.674655914306640625e-01 2.293598949909210205e-01 5.796442180871963501e-02
1.825772523880004883e-01 1.434871852397918701e-01 1.006393730640411377e-01
1.120888143777847290e-01 1.740348935127258301e-01 -1.302886158227920532e-01
-1.550960838794708252e-01 2.988213896751403809e-01 1.905327476561069489e-02
-2.346647381782531738e-01 1.862073987722396851e-01 -8.131415396928787231e-02
-1.168543472886085510e-01 2.839157581329345703e-01 7.439446449279785156e-02
1.211623474955558777e-01 3.048132658004760742e-01 1.078069768846035004e-02
1.410859525203704834e-01 2.669766843318939209e-01 7.987680286169052124e-02
-2.620204091072082520e-01 1.204704493284225464e-01 -4.975960031151771545e-02
-2.276881337165832520e-01 2.124804556369781494e-01 -7.718051970005035400e-02
2.102110981941223145e-01 2.340939342975616455e-01 8.075778931379318237e-02
-2.898817062377929688e-01 1.340660154819488525e-01 -3.079843334853649139e-02
2.336749136447906494e-01 1.407493054866790771e-01 -1.068621277809143066e-01
1.317727863788604736e-01 3.650914132595062256e-02 -4.735942929983139038e-02
-1.421140134334564209e-01 1.480893045663833618e-01 1.112555339932441711e-01
2.288836240768432617e-01 1.553205847740173340e-01 8.886197954416275024e-02
9.770535677671432495e-02 2.559899091720581055e-01 -9.867490828037261963e-02
1.478894948959350586e-01 1.061992868781089783e-01 -1.173561885952949524e-01
-1.144212260842323303e-01 4.832322895526885986e-02 -4.921982809901237488e-02
3.606016933917999268e-02 6.619669497013092041e-02 7.951197028160095215e-02
-6.243419647216796875e-02 2.893678843975067139e-01 7.693364471197128296e-02
-1.356161236763000488e-01 6.483429670333862305e-02 5.504664406180381775e-02
2.748070657253265381e-01 1.963646709918975830e-01 -8.440185338258743286e-02
6.794136017560958862e-02 6.987735629081726074e-02 8.093971759080886841e-02
-2.933779358863830566e-01 2.210761308670043945e-01 3.704582899808883667e-02
-2.327209115028381348e-01 8.737874031066894531e-02 3.018157929182052612e-02
-1.507201045751571655e-02 2.836764752864837646e-01 8.590699732303619385e-02
1.095656082034111023e-01 3.013002872467041016e-01 -3.299910947680473328e-02
-2.336648404598236084e-01 1.024988517165184021e-01 5.317590013146400452e-02
-1.597698926925659180e-01 1.748304516077041626e-01 1.119545623660087585e-01
-9.548737108707427979e-02 1.001098453998565674e-01 9.836049377918243408e-02
2.068381905555725098e-01 2.666777968406677246e-01 -5.759612098336219788e-02
-3.526305407285690308e-02 1.168008893728256226e-01 -1.246066465973854065e-01
-1.193268969655036926e-02 2.984915375709533691e-01 -5.580115690827369690e-02
-1.633185148239135742e-01 1.104390174150466919e-01 9.040125459432601929e-02
-1.598066091537475586e-02 3.079652786254882812e-01 4.780718311667442322e-02
9.800218790769577026e-02 1.474862992763519287e-01 1.172746270895004272e-01
-7.856066524982452393e-02 1.604419499635696411e-01 -1.261516660451889038e-01
-7.965510338544845581e-02 3.081153035163879395e-01 -2.072250470519065857e-02
-2.163915634155273438e-01 7.850740104913711548e-02 2.801792696118354797e-02
6.933511793613433838e-02 1.080494970083236694e-01 1.069466173648834229e-01
-2.816337049007415771e-01 1.299891620874404907e-01 4.106033593416213989e-02
-1.600885391235351562e-01 2.045468538999557495e-01 -1.040489301085472107e-01
-8.857744187116622925e-02 2.704141736030578613e-01 -8.180571347475051880e-02
2.393325790762901306e-02 1.609057188034057617e-01 1.253377348184585571e-01
2.138146162033081055e-01 4.996413737535476685e-02 -5.731026642024517059e-03
-7.544448971748352051e-02 3.481835126876831055e-02 8.426623418927192688e-03
2.013143897056579590e-01 5.564762651920318604e-02 2.676484733819961548e-02
-5.222782492637634277e-02 1.511266380548477173e-01 1.229301095008850098e-01
9.922218322753906250e-02 2.272950410842895508e-01 -1.163306981325149536e-01
-1.547500789165496826e-01 2.712141275405883789e-01 7.832300662994384766e-02
-9.649790823459625244e-03 1.728245913982391357e-01 1.269604861736297607e-01
-1.718108057975769043e-01 1.533874720335006714e-01 -1.055531129240989685e-01
-1.796446442604064941e-01 2.850469052791595459e-01 -2.873780205845832825e-02
3.361046612262725830e-01 1.372951269149780273e-01 9.965540841221809387e-03
-5.653578042984008789e-02 6.395161151885986328e-02 -9.050930291414260864e-02
6.745546311140060425e-02 3.115653991699218750e-01 1.715007051825523376e-02
2.440783977508544922e-01 1.291898936033248901e-01 7.624858617782592773e-02
2.835639715194702148e-01 2.010595947504043579e-01 6.000337004661560059e-02
-2.011436820030212402e-01 2.258442640304565430e-01 -8.228712528944015503e-02
-5.561615526676177979e-02 3.052922487258911133e-01 -3.659083321690559387e-02
-8.130417764186859131e-02 3.430727124214172363e-02 -1.534859649837017059e-02
6.996250152587890625e-02 1.513317227363586426e-01 -1.336793154478073120e-01
1.499456465244293213e-01 1.910912841558456421e-01 1.110793575644493103e-01
2.306951284408569336e-01 9.543611854314804077e-02 6.247755885124206543e-02
7.722739875316619873e-02 2.661013305187225342e-01 -9.239958971738815308e-02
-8.189835399389266968e-02 2.353711426258087158e-01 1.143533885478973389e-01
-4.324993118643760681e-03 2.954088151454925537e-01 7.141987979412078857e-02
-2.741920650005340576e-01 2.451943755149841309e-01 -1.171155832707881927e-02
-7.745245844125747681e-02 1.348355859518051147e-01 1.167467981576919556e-01
-1.160223260521888733e-01 2.102877944707870483e-01 1.174759268760681152e-01
2.207068502902984619e-01 2.730977535247802734e-01 3.021465986967086792e-02
1.910888589918613434e-02 2.221189141273498535e-01 1.212156414985656738e-01
-1.468549966812133789e-01 1.028731539845466614e-01 8.987257629632949829e-02
-2.086879611015319824e-01 -3.056745529174804688e-01 -1.179180108010768890e-02
-2.263697534799575806e-01 -2.673275172710418701e-01 2.350341156125068665e-02
2.929203212261199951e-02 -3.220298886299133301e-01 -7.481451146304607391e-03
-3.616670519113540649e-02 -3.336808085441589355e-01 -2.882100269198417664e-02
-1.423586457967758179e-01 -2.367312312126159668e-01 -3.376556932926177979e-02
2.651274204254150391e-02 -2.488353848457336426e-01 1.437610480934381485e-02
-6.396742165088653564e-02 -2.816613614559173584e-01 3.354321420192718506e-02
-1.164337396621704102e-01 -2.877830862998962402e-01 3.462753444910049438e-02
-1.322482079267501831e-01 -1.672867238521575928e-01 -1.194623392075300217e-02
1.560359448194503784e-02 -2.745981216430664062e-01 -2.885459549725055695e-02
-7.238008826971054077e-02 -1.618388742208480835e-01 4.864210728555917740e-03
-2.711921930313110352e-03 -2.577697336673736572e-01 -3.168558329343795776e-02
-1.812535226345062256e-01 -2.254938632249832153e-01 3.706274926662445068e-02
-2.391435801982879639e-01 -2.282675206661224365e-01 2.360772155225276947e-02
-5.647118762135505676e-02 -2.991597354412078857e-01 2.949592471122741699e-02
-2.128238528966903687e-01 -1.931406110525131226e-01 -1.099245809018611908e-02
-5.084246397018432617e-02 -2.298249602317810059e-01 3.412727266550064087e-02
-1.933895200490951538e-01 -2.808021008968353271e-01 -2.560349181294441223e-02
-3.994305431842803955e-02 -3.543006777763366699e-01 -1.074432209134101868e-02
-3.476209938526153564e-02 -3.391424417495727539e-01 1.128726266324520111e-02
7.096365094184875488e-03 -3.341180086135864258e-01 1.064248266629874706e-03
-1.999748647212982178e-01 -3.113823831081390381e-01 -1.333758421242237091e-02
-1.301022171974182129e-01 -2.757106423377990723e-01 -3.667914494872093201e-02
-1.788579821586608887e-01 -1.699411422014236450e-01 -7.646968588232994080e-03
-8.782659471035003662e-02 -2.248966395854949951e-01 -3.418205678462982178e-02
-1.562763303518295288e-01 -1.932209581136703491e-01 -2.272448129951953888e-02
-1.977171003818511963e-01 -1.669033020734786987e-01 2.581831300631165504e-03
-3.030400723218917847e-02 -2.506642341613769531e-01 -3.499648347496986389e-02
-9.646096080541610718e-02 -2.006467878818511963e-01 3.558489680290222168e-02
-8.423790335655212402e-02 -3.212491273880004883e-01 2.469540387392044067e-02
-1.930048167705535889e-01 -2.189435511827468872e-01 3.531643375754356384e-02
-2.331546992063522339e-01 -2.893082201480865479e-01 6.002013571560382843e-03
-1.768282502889633179e-01 -3.261546790599822998e-01 1.123947370797395706e-02
-2.642895281314849854e-02 -3.449598550796508789e-01 4.782212432473897934e-03
-4.828105121850967407e-02 -3.351547122001647949e-01 1.574561186134815216e-02
-4.437854513525962830e-02 -3.218731582164764404e-01 2.131054922938346863e-02
-2.356631457805633545e-01 -2.421935200691223145e-01 2.452261932194232941e-02
-2.412434518337249756e-01 -2.788434326648712158e-01 1.829006359912455082e-03
-2.034509479999542236e-01 -2.930821180343627930e-01 -1.990503445267677307e-02
-2.266448736190795898e-01 -2.171341031789779663e-01 -1.366091892123222351e-02
-8.569982647895812988e-02 -1.749246418476104736e-01 -1.581279747188091278e-02
-2.146576493978500366e-01 -2.939690947532653809e-01 1.780262961983680725e-02
-4.659065604209899902e-02 -3.004189729690551758e-01 2.810661867260932922e-02
-1.878841221332550049e-01 -3.190198242664337158e-01 -1.466902531683444977e-02
7.083371281623840332e-03 -2.014061212539672852e-01 2.281244844198226929e-03
-1.216615214943885803e-01 -2.131414860486984253e-01 -3.106313943862915039e-02
3.877699375152587891e-03 -2.219504714012145996e-01 -2.123923413455486298e-02
-2.155130952596664429e-01 -2.660653889179229736e-01 2.743629924952983856e-02
3.449603915214538574e-02 -3.147821128368377686e-01 -1.236510835587978363e-02
-1.084490865468978882e-02 -2.908882498741149902e-01 2.412723563611507416e-02
-1.562959700822830200e-02 -3.120421767234802246e-01 1.990158483386039734e-02
-9.439863264560699463e-02 -2.916958928108215332e-01 -3.815436735749244690e-02
-9.970185905694961548e-02 -1.843027174472808838e-01 -2.173771522939205170e-02
1.430144160985946655e-02 -3.306040167808532715e-01 -1.684532500803470612e-02
-7.414671033620834351e-02 -2.632836997509002686e-01 -3.875238075852394104e-02
-8.057841658592224121e-02 -3.356779813766479492e-01 1.794823631644248962e-02
-1.571558415889739990e-02 -2.076568901538848877e-01 -2.099458314478397369e-02
-8.615075051784515381e-02 -3.110347688198089600e-01 2.830635011196136475e-02
1.875060051679611206e-02 -2.142939567565917969e-01 -7.592497393488883972e-03
-2.436128109693527222e-01 -2.133467793464660645e-01 -3.709192853420972824e-03
-9.994132071733474731e-02 -1.893441379070281982e-01 3.323341533541679382e-02
-3.146618604660034180e-02 -1.849159598350524902e-01 1.674091257154941559e-02
-1.816743463277816772e-01 -2.955647706985473633e-01 -2.612082846462726593e-02
-1.064956188201904297e-03 -2.346013933420181274e-01 -2.690386772155761719e-02
-1.346617639064788818e-01 -3.486486077308654785e-01 -7.177415769547224045e-03
-3.424238413572311401e-02 -2.051579654216766357e-01 -2.409687452018260956e-02
-1.233159825205802917e-01 -2.815089523792266846e-01 -3.704727441072463989e-02
-8.418555557727813721e-02 -2.715024352073669434e-01 -3.903212025761604309e-02
-1.635825932025909424e-01 -2.234758436679840088e-01 -2.944841608405113220e-02
-2.090539336204528809e-01 -2.471154928207397461e-01 -2.295048721134662628e-02
-2.081159055233001709e-01 -1.710736453533172607e-01 3.576852614060044289e-03
-1.330133527517318726e-02 -1.895621120929718018e-01 -6.362722255289554596e-03
-1.609367430210113525e-01 -2.716360390186309814e-01 3.557943180203437805e-02
4.745724797248840332e-02 -2.896711528301239014e-01 -6.171590182930231094e-03
-3.417510539293289185e-02 -1.775144338607788086e-01 -3.802786115556955338e-03
4.553878307342529297e-02 -2.567153573036193848e-01 -4.933014279231429100e-04
-1.685907691717147827e-02 -2.757084667682647705e-01 -3.529280051589012146e-02
-4.078780487179756165e-02 -2.810791730880737305e-01 -3.777207806706428528e-02
-8.009149134159088135e-02 -2.176731675863265991e-01 -3.243069350719451904e-02
-2.344882190227508545e-01 -2.380095124244689941e-01 -1.339238602668046951e-02
-1.889738738536834717e-01 -2.096284031867980957e-01 -2.246269211173057556e-02
-1.159778237342834473e-01 -1.966503858566284180e-01 -2.659710682928562164e-02
-2.584803849458694458e-02 -3.453433513641357422e-01 -2.050918154418468475e-02
-7.919819653034210205e-02 -2.296992540359497070e-01 -3.495387732982635498e-02
-1.386184245347976685e-02 -1.965550482273101807e-01 -1.379610504955053329e-02
-1.469660550355911255e-01 -2.061388641595840454e-01 3.784177079796791077e-02
-1.746679246425628662e-01 -3.071952760219573975e-01 -2.495952881872653961e-02
-1.271637380123138428e-01 -1.854083538055419922e-01 -2.200075797736644745e-02
-5.203189328312873840e-02 -3.114950358867645264e-01 2.575448527932167053e-02
-1.923488974571228027e-01 -2.591061890125274658e-01 -2.735602296888828278e-02
-1.704310625791549683e-01 -2.699245512485504150e-01 3.494058549404144287e-02
-1.313222944736480713e-02 -3.378289341926574707e-01 6.829265039414167404e-03
-1.446169465780258179e-01 -3.011532127857208252e-01 -3.245926648378372192e-02
-2.088552117347717285e-01 -1.863095909357070923e-01 2.614795230329036713e-02
-2.215855717658996582e-01 -2.167396545410156250e-01 2.933483570814132690e-02
-7.984022796154022217e-02 -2.907465100288391113e-01 -3.856904059648513794e-02
-1.487196236848831177e-02 -2.130757421255111694e-01 2.357455529272556305e-02
-9.693577885627746582e-02 -2.716372013092041016e-01 -3.877702727913856506e-02
-1.017677560448646545e-01 -1.565369367599487305e-01 1.121607143431901932e-02
-1.744732707738876343e-01 -2.226497679948806763e-01 -2.772061154246330261e-02
-2.020586729049682617e-01 -3.181718885898590088e-01 -2.082360151689499617e-04
-3.621450066566467285e-02 -2.508395612239837646e-01 3.252817690372467041e-02
-5.451412871479988098e-02 -3.298709392547607422e-01 1.910885050892829895e-02
2.580806612968444824e-02 -3.016369640827178955e-01 1.002710592001676559e-02
-1.792416721582412720e-02 -1.844132542610168457e-01 -8.017845684662461281e-04
-8.868595957756042480e-02 -2.150008976459503174e-01 -3.198644146323204041e-02
-8.531417697668075562e-02 -2.361127734184265137e-01 -3.612831607460975647e-02
-1.964003741741180420e-01 -3.164600729942321777e-01 1.063214894384145737e-02
-2.086190134286880493e-02 -2.362193614244461060e-01 2.903600037097930908e-02
-6.801644712686538696e-02 -3.205467462539672852e-01 -3.430057689547538757e-02
-8.517497777938842773e-02 -1.602808535099029541e-01 1.268395222723484039e-02
-2.582505345344543457e-02 -2.597465515136718750e-01 -3.548635542392730713e-02
-1.858025193214416504e-01 -1.806359887123107910e-01 -1.269977912306785583e-02
-1.859686523675918579e-01 -2.060868144035339355e-01 3.504082188010215759e-02
-6.601888686418533325e-02 -3.358154892921447754e-01 -2.944664470851421356e-02
-1.524730771780014038e-01 -2.816317379474639893e-01 3.439214825630187988e-02
-1.461846381425857544e-01 -3.426473438739776611e-01 4.912789911031723022e-03
-1.830272376537322998e-01 -3.081994950771331787e-01 -2.215453982353210449e-02
-1.378259658813476562e-01 -2.606195509433746338e-01 3.840782493352890015e-02
-1.869136691093444824e-01 -3.243679404258728027e-01 7.581796031445264816e-03
-1.889486461877822876e-01 -2.318952083587646484e-01 3.618625923991203308e-02
-1.790703833103179932e-01 -2.667743563652038574e-01 3.443991765379905701e-02
-2.217904925346374512e-01 -1.802265793085098267e-01 2.175334375351667404e-03
-1.544431298971176147e-01 -2.509003579616546631e-01 -3.369910269975662231e-02
-2.256198674440383911e-01 -1.899858713150024414e-01 -3.739603329449892044e-03
-1.841618865728378296e-02 -2.652940154075622559e-01 2.877421677112579346e-02
-5.168667808175086975e-02 -3.517895638942718506e-01 -1.853241771459579468e-02
-1.996340751647949219e-01 -1.732303202152252197e-01 -3.787176217883825302e-03
-2.257511466741561890e-01 -2.945919334888458252e-01 9.895632043480873108e-03
-1.254037916660308838e-01 -3.192451000213623047e-01 2.490648999810218811e-02
-8.196987211704254150e-02 -1.916328966617584229e-01 -2.417912520468235016e-02
-2.213994860649108887e-01 -2.541185021400451660e-01 -1.904164068400859833e-02
-1.422570347785949707e-01 -2.687917351722717285e-01 -3.556852415204048157e-02
-5.601928383111953735e-02 -2.580027878284454346e-01 3.511037304997444153e-02
-1.903176903724670410e-01 -2.907255291938781738e-01 -2.478581108152866364e-02
-1.978839188814163208e-01 -2.337469905614852905e-01 3.484413027763366699e-02
-2.513415515422821045e-01 -2.259837388992309570e-01 1.513365935534238815e-02
3.728243708610534668e-02 -2.775764465332031250e-01 8.946392685174942017e-03
1.955892890691757202e-02 -2.130767554044723511e-01 1.899964176118373871e-03
-1.810669898986816406e-01 -2.165135741233825684e-01 3.665738552808761597e-02
-3.007715940475463867e-02 -2.068204879760742188e-01 2.626013942062854767e-02
-1.290073990821838379e-01 -2.844386398792266846e-01 3.506591543555259705e-02
-6.957642734050750732e-03 -2.088753879070281982e-01 -1.888464950025081635e-02
-1.826417446136474609e-01 -3.138643801212310791e-01 1.840110309422016144e-02
-9.581077843904495239e-02 -2.207491248846054077e-01 -3.336355835199356079e-02
-1.565011590719223022e-02 -3.444218635559082031e-01 1.516599790193140507e-03
-1.992150396108627319e-02 -1.947464197874069214e-01 1.808481663465499878e-02
-1.327987611293792725e-01 -1.695656776428222656e-01 2.760419435799121857e-02
-2.389207780361175537e-01 -2.647469043731689453e-01 -9.426203556358814240e-03
1.477504521608352661e-02 -2.624107003211975098e-01 2.000586129724979401e-02
-2.728544920682907104e-02 -2.778623104095458984e-01 -3.658026829361915588e-02
-1.899985671043395996e-01 -1.843109130859375000e-01 2.959201484918594360e-02
-2.115099132061004639e-01 -2.019952535629272461e-01 -1.475351955741643906e-02
-5.533246695995330811e-02 -1.772805750370025635e-01 -1.253173965960741043e-02
-6.679750978946685791e-02 -2.925758361816406250e-01 3.185848891735076904e-02
-1.949601918458938599e-01 -2.307230681180953979e-01 -2.509296871721744537e-02
4.973597824573516846e-03 -3.297436833381652832e-01 -2.217055298388004303e-02
-2.199081331491470337e-02 -2.350634783506393433e-01 -3.119159862399101257e-02
-2.068003416061401367e-01 -2.786844968795776367e-01 -2.187840826809406281e-02
-1.296625584363937378e-01 -2.955143153667449951e-01 3.252135217189788818e-02
2.753166854381561279e-02 -3.163332641124725342e-01 2.241292037069797516e-03
-4.131684824824333191e-02 -2.703360319137573242e-01 3.230965510010719299e-02
-2.030398249626159668e-01 -1.806618571281433105e-01 -7.910572923719882965e-03
-1.452323198318481445e-01 -2.667973339557647705e-01 3.737331554293632507e-02
-7.309392094612121582e-02 -3.559165596961975098e-01 -1.331134885549545288e-02
3.094677627086639404e-02 -3.069072663784027100e-01 5.173789337277412415e-03
-1.206671670079231262e-01 -2.233953475952148438e-01 -3.326988965272903442e-02
-1.092936396598815918e-01 -2.286863178014755249e-01 -3.466271609067916870e-02
-1.155378147959709167e-01 -3.118614852428436279e-01 2.814934402704238892e-02
-1.074506789445877075e-01 -2.857660055160522461e-01 -3.794132918119430542e-02
-1.427966058254241943e-01 -2.010094225406646729e-01 -2.652860246598720551e-02
-1.413215398788452148e-01 -2.911066412925720215e-01 -3.436174243688583374e-02
-3.269571065902709961e-02 -1.931530535221099854e-01 2.209771238267421722e-02
4.235215485095977783e-03 -3.118970394134521484e-01 -2.875859662890434265e-02
-1.434454023838043213e-01 -2.545890808105468750e-01 -3.516077622771263123e-02
-6.395960599184036255e-02 -2.677882611751556396e-01 3.524940833449363708e-02
-1.105732619762420654e-01 -1.806414276361465454e-01 3.131914883852005005e-02
-9.494390338659286499e-02 -2.414053380489349365e-01 -3.684087842702865601e-02
-5.701722949743270874e-02 -1.704062521457672119e-01 1.485151238739490509e-02
-1.786466687917709351e-01 -1.890391111373901367e-01 3.258802369236946106e-02
-1.767897903919219971e-01 -1.945550143718719482e-01 -2.030790038406848907e-02
-1.453951001167297363e-01 -1.733132302761077881e-01 2.940518036484718323e-02
-1.684068739414215088e-01 -3.365373015403747559e-01 4.791943647433072329e-04
-1.694656312465667725e-01 -3.319234848022460938e-01 8.427850902080535889e-03
-1.917801201343536377e-01 -2.998163700103759766e-01 2.299001812934875488e-02
1.911087334156036377e-02 -2.891022861003875732e-01 1.590414345264434814e-02
-2.103372663259506226e-02 -3.099699914455413818e-01 -3.357894718647003174e-02
-4.845412448048591614e-02 -3.068178892135620117e-01 -3.637634217739105225e-02
-2.424456924200057983e-01 -2.409532815217971802e-01 -9.306857362389564514e-03
-1.719950884580612183e-01 -3.076518177986145020e-01 2.407749556005001068e-02
-1.085612624883651733e-01 -2.785938680171966553e-01 3.629632666707038879e-02
3.869464993476867676e-02 -3.083211481571197510e-01 -3.263522172346711159e-03
-1.994924992322921753e-02 -3.386556506156921387e-01 -2.404738590121269226e-02
-3.160312771797180176e-02 -2.677314877510070801e-01 3.103720024228096008e-02
-2.162933945655822754e-01 -1.810709238052368164e-01 2.072802372276782990e-02
-1.358781158924102783e-01 -1.537356972694396973e-01 8.528130128979682922e-03
-1.309029906988143921e-01 -1.808831989765167236e-01 3.231853619217872620e-02
-3.649349510669708252e-02 -1.946974843740463257e-01 -1.963588781654834747e-02
-5.697417259216308594e-02 -1.995333433151245117e-01 -2.519764006137847900e-02
-2.029722332954406738e-01 -2.096651643514633179e-01 -1.931956782937049866e-02
-7.073939591646194458e-02 -3.423511981964111328e-01 1.345985569059848785e-02
-2.777563780546188354e-02 -2.571857273578643799e-01 3.093946352601051331e-02
-2.164565920829772949e-01 -1.741869449615478516e-01 1.172660011798143387e-02
2.221736311912536621e-02 -2.341359555721282959e-01 1.375406794250011444e-02
-1.816632598638534546e-01 -2.762996852397918701e-01 3.227116912603378296e-02
-2.706594765186309814e-03 -3.347737193107604980e-01 5.394050851464271545e-03
-8.217875659465789795e-02 -2.014353126287460327e-01 3.436264768242835999e-02
-2.379312515258789062e-01 -2.188783586025238037e-01 -8.910818025469779968e-03
-8.691757917404174805e-02 -3.324654996395111084e-01 -3.025982901453971863e-02
-8.666917681694030762e-03 -3.008858859539031982e-01 2.150439471006393433e-02
-8.943977206945419312e-02 -1.654331088066101074e-01 -8.714504539966583252e-03
-8.808005601167678833e-02 -1.899086833000183105e-01 3.220231458544731140e-02
-1.810529977083206177e-01 -3.301992416381835938e-01 2.096035052090883255e-03
-1.092945039272308350e-02 -3.013697862625122070e-01 -3.338731080293655396e-02
-7.857067137956619263e-02 -3.407351076602935791e-01 -2.699138969182968140e-02
2.901208400726318359e-02 -2.818657457828521729e-01 1.292588002979755402e-02
1.040583103895187378e-02 -2.202074974775314331e-01 1.562140788882970810e-02
2.072665095329284668e-02 -3.189663887023925781e-01 -2.094194479286670685e-02
-1.128217279911041260e-01 -2.151430398225784302e-01 -3.185941278934478760e-02
-1.917089670896530151e-01 -1.626920700073242188e-01 8.863542228937149048e-03
-8.244051039218902588e-02 -1.780256628990173340e-01 2.704241685569286346e-02
4.308685660362243652e-02 -2.841931283473968506e-01 3.584684105589985847e-03
-5.918167531490325928e-03 -3.116748631000518799e-01 -3.095597773790359497e-02
-1.637382805347442627e-01 -1.561678946018218994e-01 6.700452882796525955e-03
-9.712720662355422974e-02 -2.241064161062240601e-01 3.856527432799339294e-02
1.957763731479644775e-02 -3.255840837955474854e-01 8.382064988836646080e-04
-3.536325693130493164e-02 -2.278489470481872559e-01 -3.143508359789848328e-02
4.293011128902435303e-02 -2.877872288227081299e-01 -1.621921360492706299e-02
-1.969653666019439697e-01 -2.408277094364166260e-01 -2.567720972001552582e-02
4.753762483596801758e-02 -2.721811532974243164e-01 -4.927065456286072731e-04
-7.378654181957244873e-02 -2.748399376869201660e-01 3.531486168503761292e-02
-1.685717403888702393e-01 -1.798276007175445557e-01 3.074220009148120880e-02
-1.914384067058563232e-01 -2.589761018753051758e-01 3.384718298912048340e-02
-3.841661661863327026e-02 -2.039042711257934570e-01 2.754157036542892456e-02
-1.147630810737609863e-01 -3.366435766220092773e-01 -2.580793015658855438e-02
-4.436168819665908813e-02 -3.215500414371490479e-01 -3.332808986306190491e-02
4.496590793132781982e-02 -2.662740647792816162e-01 -1.351304538547992706e-02
1.332601159811019897e-02 -3.132720291614532471e-01 -2.589397504925727844e-02
-1.231282949447631836e-01 -3.510063290596008301e-01 -7.798288716003298759e-04
-1.974875032901763916e-01 -1.995585709810256958e-01 -1.777800172567367554e-02
-1.495413333177566528e-01 -3.278413414955139160e-01 1.775817945599555969e-02
2.925848960876464844e-02 -2.286342531442642212e-01 -1.056453026831150055e-02
-1.934649795293807983e-02 -3.298680186271667480e-01 1.345413457602262497e-02
-1.824991106986999512e-01 -1.614988297224044800e-01 2.931842813268303871e-03
-3.133024275302886963e-02 -3.518462181091308594e-01 -1.354410313069820404e-02
-3.871425241231918335e-02 -2.161482870578765869e-01 3.032817505300045013e-02
-1.793937385082244873e-01 -2.868132889270782471e-01 3.003616444766521454e-02
-1.804616302251815796e-02 -2.237775921821594238e-01 -2.759988605976104736e-02
-8.247662335634231567e-02 -2.811495363712310791e-01 3.499122709035873413e-02
-1.572412699460983276e-01 -1.579150706529617310e-01 1.740553788840770721e-02
-1.027237549424171448e-01 -2.604391872882843018e-01 3.838935494422912598e-02
-1.163227632641792297e-01 -2.680217921733856201e-01 3.785149380564689636e-02
-1.334026306867599487e-01 -2.224315106868743896e-01 -3.232643753290176392e-02
-2.232284992933273315e-01 -1.884836554527282715e-01 2.183346822857856750e-02
3.135201334953308105e-02 -2.384563684463500977e-01 -1.504010055214166641e-02
-7.125666737556457520e-02 -1.962540447711944580e-01 -2.529869042336940765e-02
-1.505252718925476074e-01 -1.746663004159927368e-01 -1.520825363695621490e-02
-1.376077532768249512e-03 -2.266332358121871948e-01 2.232754230499267578e-02
-9.084658324718475342e-02 -2.692092657089233398e-01 3.704641014337539673e-02
-7.474887371063232422e-02 -1.865321844816207886e-01 2.928402088582515717e-02
1.982539892196655273e-03 -2.621611058712005615e-01 2.403081767261028290e-02
-1.109771057963371277e-01 -3.473108112812042236e-01 8.434130810201168060e-03
-4.634251073002815247e-02 -2.501529753208160400e-01 3.410037234425544739e-02
-2.061816751956939697e-01 -2.466712594032287598e-01 3.262784704566001892e-02
-4.842232540249824524e-02 -1.976145952939987183e-01 -2.325624041259288788e-02
-4.258947074413299561e-02 -1.909368932247161865e-01 2.409660071134567261e-02
7.237344980239868164e-03 -3.370103240013122559e-01 -1.453419774770736694e-02
-2.183780819177627563e-01 -2.786626219749450684e-01 2.298539131879806519e-02
-2.104933559894561768e-01 -2.267499417066574097e-01 3.252488002181053162e-02
-3.089042752981185913e-02 -3.150866031646728516e-01 -3.372138738632202148e-02
-3.369633108377456665e-02 -3.508351147174835205e-01 -1.282450102735310793e-04
-1.476068198680877686e-01 -1.576751917600631714e-01 1.815543323755264282e-02
-1.967208385467529297e-01 -3.199077844619750977e-01 -7.189282681792974472e-03
-1.388467848300933838e-03 -2.527394294738769531e-01 2.500707097351551056e-02
-2.514424920082092285e-01 -2.463923841714859009e-01 -1.558395684696733952e-03
-4.337294772267341614e-02 -3.526009321212768555e-01 1.081464288290590048e-04
-7.978339493274688721e-02 -2.479358315467834473e-01 -3.760968893766403198e-02
-1.029786169528961182e-01 -1.747966110706329346e-01 2.827858179807662964e-02
-6.384050846099853516e-02 -1.961980611085891724e-01 3.055024892091751099e-02
-2.046399414539337158e-01 -1.721264421939849854e-01 1.896510459482669830e-02
-3.887772560119628906e-03 -2.483501434326171875e-01 -3.053379990160465240e-02
4.371613264083862305e-02 -2.517423033714294434e-01 -9.107907302677631378e-03
-6.649832427501678467e-02 -3.075906336307525635e-01 -3.678737208247184753e-02
-4.474561661481857300e-02 -2.272398918867111206e-01 -3.235983476042747498e-02
-1.936853229999542236e-01 -2.827479541301727295e-01 2.854326739907264709e-02
2.088494598865509033e-02 -2.410892993211746216e-01 -2.169659361243247986e-02
-1.560831218957901001e-01 -3.412913084030151367e-01 8.339050691574811935e-04
-5.388105288147926331e-02 -2.671876251697540283e-01 -3.830703347921371460e-02
-2.463271617889404297e-01 -2.576073408126831055e-01 1.521723810583353043e-02
-1.340503841638565063e-01 -3.351427614688873291e-01 -2.313436381518840790e-02
-5.755260214209556580e-02 -2.143007069826126099e-01 3.338073194026947021e-02
-1.539059877395629883e-01 -2.411485761404037476e-01 3.911509364843368530e-02
-1.627378165721893311e-03 -2.022262215614318848e-01 1.316471025347709656e-02
-1.295421570539474487e-01 -2.074994444847106934e-01 3.815330564975738525e-02
-1.595119386911392212e-01 -2.707744240760803223e-01 -3.327186778187751770e-02
-1.676878333091735840e-01 -2.600011825561523438e-01 -3.211883082985877991e-02
-1.224214956164360046e-01 -1.743985116481781006e-01 2.955894917249679565e-02
-1.700786948204040527e-01 -2.800035774707794189e-01 3.301737830042839050e-02
-5.531897768378257751e-02 -2.322192341089248657e-01 -3.431164100766181946e-02
-2.421740889549255371e-01 -1.998109519481658936e-01 2.681998303160071373e-03
-1.582128852605819702e-01 -3.310511112213134766e-01 1.348803564906120300e-02
-5.158899724483489990e-02 -3.312535285949707031e-01 -3.082599304616451263e-02
-2.408596277236938477e-01 -1.950075328350067139e-01 1.020240411162376404e-02
-1.885859370231628418e-01 -1.927322596311569214e-01 -1.741606555879116058e-02
4.848405718803405762e-02 -2.801803350448608398e-01 -9.190457873046398163e-03
-2.488192021846771240e-01 -2.618370950222015381e-01 -1.492353912908583879e-04
-1.551788449287414551e-01 -1.558556407690048218e-01 3.492073854431509972e-03
-1.247748211026191711e-01 -3.093864619731903076e-01 2.864558622241020203e-02
1.554121822118759155e-02 -3.047097027301788330e-01 -2.712053619325160980e-02
-1.182619929313659668e-01 -3.202394843101501465e-01 -3.162050619721412659e-02
-2.389290928840637207e-02 -2.946426868438720703e-01 -3.571666777133941650e-02
-1.471857428550720215e-01 -3.127158284187316895e-01 -2.947311848402023315e-02
-7.702146470546722412e-02 -3.034650683403015137e-01 3.005010262131690979e-02
-2.799046784639358521e-02 -2.252799570560455322e-01 2.945321239531040192e-02
-2.186054587364196777e-01 -2.356922477483749390e-01 3.052551299333572388e-02
7.773891091346740723e-03 -2.075028121471405029e-01 1.035608444362878799e-02
-1.305288225412368774e-01 -2.915526628494262695e-01 -3.558677807450294495e-02
-1.057587936520576477e-01 -3.286969959735870361e-01 2.155251614749431610e-02
-1.406002938747406006e-01 -1.762832701206207275e-01 -1.695250533521175385e-02
-9.596880525350570679e-02 -3.438190817832946777e-01 -2.406558766961097717e-02
2.119854092597961426e-03 -3.041029274463653564e-01 1.792286708950996399e-02
-5.948630347847938538e-02 -3.437549471855163574e-01 -2.542708255350589752e-02
6.593659520149230957e-03 -2.601272761821746826e-01 -2.995145507156848907e-02
-5.948651209473609924e-02 -2.418175041675567627e-01 -3.618843480944633484e-02
2.317388355731964111e-02 -2.647289633750915527e-01 1.675138622522354126e-02
-9.391553699970245361e-03 -3.231302499771118164e-01 1.425108127295970917e-02
-1.704188436269760132e-01 -2.882620096206665039e-01 -2.995783835649490356e-02
-2.544351816177368164e-01 -2.265330553054809570e-01 5.289688706398010254e-03
-9.677170217037200928e-02 -2.364656329154968262e-01 3.901682794094085693e-02
-1.097312569618225098e-02 -2.332814633846282959e-01 -2.879945002496242523e-02
-1.302304118871688843e-01 -2.319477796554565430e-01 -3.412488102912902832e-02
-1.879706382751464844e-01 -2.374769449234008789e-01 -2.731268294155597687e-02
-4.723607003688812256e-02 -1.792729943990707397e-01 1.905059255659580231e-02
-3.440993279218673706e-02 -2.651949822902679443e-01 -3.681762143969535828e-02
-7.044231891632080078e-02 -2.487515509128570557e-01 -3.751700371503829956e-02
-1.700139641761779785e-01 -1.915991455316543579e-01 3.406623378396034241e-02
