2.218936942517757416e-02 2.035101056098937988e-01 -6.345978938043117523e-03
9.004400344565510750e-04 9.380225092172622681e-02 -6.996870506554841995e-03
-7.076991721987724304e-03 1.794847697019577026e-01 3.033384494483470917e-02
-1.477289013564586639e-02 1.678192019462585449e-01 -3.323132405057549477e-03
-9.851337410509586334e-03 1.395137459039688110e-01 3.659677226096391678e-03
6.246447097510099411e-03 2.814048826694488525e-01 -1.002112403512001038e-02
3.164934692904353142e-03 2.359638512134552002e-01 3.162458166480064392e-02
-2.032225579023361206e-02 2.246128469705581665e-01 -1.484068203717470169e-02
-6.520259194076061249e-04 1.159525364637374878e-01 2.034258842468261719e-02
-1.992611959576606750e-02 2.316535413265228271e-01 2.115500159561634064e-02
-2.648644335567951202e-02 3.295091986656188965e-01 4.286253824830055237e-03
9.722835384309291840e-03 2.706960737705230713e-01 -1.950208679772913456e-03
-1.365081034600734711e-02 2.368425279855728149e-01 3.057770803570747375e-02
-1.227902341634035110e-02 2.051478177309036255e-01 -2.654990740120410919e-02
1.489990483969449997e-02 2.455347180366516113e-01 2.786597702652215958e-03
-2.470574527978897095e-02 2.602164149284362793e-01 -1.058804150670766830e-02
-2.568826079368591309e-02 3.040480613708496094e-01 -1.128361839801073074e-02
-4.931514151394367218e-03 2.999541163444519043e-01 2.156139537692070007e-02
2.848813775926828384e-03 1.365711390972137451e-01 3.052422590553760529e-02
8.299185894429683685e-03 2.766190469264984131e-01 -3.243551356717944145e-03
-3.688393393531441689e-03 1.605239808559417725e-01 3.010772541165351868e-02
8.872544392943382263e-03 7.150224596261978149e-02 -1.238069031387567520e-02
2.274914830923080444e-02 1.812451183795928955e-01 -1.908751949667930603e-02
-2.779421629384160042e-03 2.437063306570053101e-01 -3.272311761975288391e-02
-1.448227651417255402e-02 1.668600142002105713e-01 7.624180056154727936e-03
1.963512413203716278e-02 2.185694575309753418e-01 4.587683826684951782e-03
2.448314987123012543e-02 1.532562375068664551e-01 -2.284544892609119415e-02
1.398618333041667938e-02 2.346450388431549072e-01 1.689966954290866852e-02
1.215846464037895203e-02 5.565910041332244873e-02 5.116240354254841805e-04
1.420424785465002060e-02 2.372344881296157837e-01 -1.695139892399311066e-02
-2.565967151895165443e-03 3.148039579391479492e-01 -5.450279917567968369e-03
2.738310396671295166e-02 1.674887686967849731e-01 -1.639221445657312870e-03
-1.307288557291030884e-02 3.200548887252807617e-01 1.966893672943115234e-02
-1.420084759593009949e-02 2.472507953643798828e-01 3.046690113842487335e-02
2.560623176395893097e-02 9.391018003225326538e-02 -2.455127984285354614e-02
1.832574047148227692e-02 4.743883013725280762e-02 -1.000389363616704941e-02
-1.052220165729522705e-02 3.337256610393524170e-01 7.155213970690965652e-03
-2.062082476913928986e-02 2.078636735677719116e-01 -3.530076472088694572e-03
-1.254620729014277458e-03 1.003784984350204468e-01 -2.964868210256099701e-03
2.607657946646213531e-02 9.216071665287017822e-02 2.112375758588314056e-02
2.888750098645687103e-02 1.487495005130767822e-01 -1.009270921349525452e-02
2.765578962862491608e-02 1.411439329385757446e-01 -1.809268817305564880e-02
6.844743154942989349e-03 7.331735640764236450e-02 7.954414933919906616e-03
3.349091857671737671e-02 9.066376835107803345e-02 -7.622748962603509426e-04
3.119504638016223907e-02 1.270986199378967285e-01 -7.680107373744249344e-03
3.603136865422129631e-03 8.443199843168258667e-02 -7.924589328467845917e-03
2.766285836696624756e-02 6.821242719888687134e-02 -1.910528168082237244e-02
-2.180096926167607307e-03 3.141574859619140625e-01 4.124077502638101578e-03
-6.323678418993949890e-03 2.037448287010192871e-01 3.364894166588783264e-02
-1.232322119176387787e-02 1.562828719615936279e-01 1.003561913967132568e-02
2.619840018451213837e-02 1.747730672359466553e-01 3.812141716480255127e-03
5.707336589694023132e-03 2.811144590377807617e-01 1.135853864252567291e-02
-2.120686881244182587e-02 3.439800739288330078e-01 5.127213895320892334e-03
-2.685469761490821838e-02 2.878156006336212158e-01 1.105227787047624588e-02
2.979929745197296143e-02 1.237029954791069031e-01 -1.580112986266613007e-02
1.911752857267856598e-02 1.200169175863265991e-01 2.861487865447998047e-02
-6.960816681385040283e-03 1.459611058235168457e-01 2.132512815296649933e-02
7.629756815731525421e-03 2.462822198867797852e-01 2.479930408298969269e-02
1.552678458392620087e-02 2.315866351127624512e-01 -1.622535102069377899e-02
-2.695988677442073822e-02 2.783441841602325439e-01 -4.484033677726984024e-03
-2.311695180833339691e-02 2.784712314605712891e-01 2.069857344031333923e-02
-2.717142924666404724e-02 3.245632648468017578e-01 1.843675272539258003e-03
3.147007524967193604e-02 4.869265854358673096e-02 -1.681058085523545742e-03
1.985898939892649651e-03 1.351300030946731567e-01 -2.904506772756576538e-02
-3.516518743708729744e-03 1.991303563117980957e-01 -3.364159911870956421e-02
-2.674711868166923523e-02 2.717682123184204102e-01 7.456415798515081406e-03
-7.018378004431724548e-03 1.273871064186096191e-01 -5.888673476874828339e-03
2.567565301433205605e-03 2.978382706642150879e-01 5.299710202962160110e-03
2.190805971622467041e-02 1.702697724103927612e-01 2.135920897126197815e-02
-2.800360321998596191e-02 3.036842644214630127e-01 3.801804734393954277e-03
2.856745943427085876e-02 1.571255624294281006e-01 2.342850348213687539e-05
-5.831099115312099457e-03 2.341516911983489990e-01 -3.306802734732627869e-02
1.635447517037391663e-02 7.207522541284561157e-02 2.094689942896366119e-02
-2.535456605255603790e-02 3.237944245338439941e-01 1.182368490844964981e-02
-1.588963903486728668e-02 1.794535517692565918e-01 -8.820500224828720093e-03
3.191017359495162964e-02 6.747362017631530762e-02 -1.156542170792818069e-02
-2.162943594157695770e-02 3.232840299606323242e-01 1.731823943555355072e-02
-3.717183368280529976e-03 3.154710531234741211e-01 9.446716867387294769e-03
-2.016375772655010223e-02 2.685329020023345947e-01 2.496096678078174591e-02
2.158381603658199310e-02 1.574268490076065063e-01 -2.695791795849800110e-02
1.283522415906190872e-02 1.861271858215332031e-01 -3.245997801423072815e-02
3.268957883119583130e-02 6.058222055435180664e-02 2.330512506887316704e-03
5.147995427250862122e-03 1.483733952045440674e-01 -3.323084861040115356e-02
-1.925103738903999329e-02 2.113899439573287964e-01 -1.336204726248979568e-02
7.405733689665794373e-03 9.449942409992218018e-02 -2.267398498952388763e-02
-2.198336459696292877e-02 3.441116213798522949e-01 -2.740431227721273899e-04
2.383020520210266113e-02 1.905530840158462524e-01 5.871862173080444336e-03
3.137580305337905884e-02 1.287171542644500732e-01 -2.360313665121793747e-03
-1.142970984801650047e-03 2.547045946121215820e-01 3.103887662291526794e-02
1.496912539005279541e-02 7.073621451854705811e-02 -2.068855427205562592e-02
1.170781534165143967e-02 2.327491044998168945e-01 2.266773395240306854e-02
-9.035130962729454041e-03 3.202103674411773682e-01 -1.545426528900861740e-02
-9.808054193854331970e-03 1.502744555473327637e-01 1.614930480718612671e-02
1.004992984235286713e-02 2.025840282440185547e-01 3.135776519775390625e-02
4.613190889358520508e-03 1.623097360134124756e-01 -3.438264876604080200e-02
1.412614714354276657e-02 2.424040138721466064e-01 -1.373557746410369873e-02
-2.101392671465873718e-02 2.447414398193359375e-01 -1.803097315132617950e-02
-1.118221879005432129e-02 2.414911091327667236e-01 3.231040015816688538e-02
-1.650217222049832344e-03 3.023926615715026855e-01 -1.547589525580406189e-02
-2.216659858822822571e-02 2.194371670484542847e-01 -2.009994816035032272e-03
-1.841574721038341522e-02 1.930584907531738281e-01 -5.451549310237169266e-03
-5.333944223821163177e-03 2.790547609329223633e-01 2.832430414855480194e-02
-1.091423211619257927e-03 1.433915197849273682e-01 2.888749167323112488e-02
3.184175118803977966e-03 2.537163496017456055e-01 -2.854733541607856750e-02
-1.050767768174409866e-02 2.376103103160858154e-01 -3.089347854256629944e-02
-1.031372044235467911e-02 1.783582419157028198e-01 2.608072385191917419e-02
-3.976876847445964813e-03 2.537328004837036133e-01 -3.170283138751983643e-02
3.142309933900833130e-02 1.010749489068984985e-01 1.054765656590461731e-02
1.845607999712228775e-03 2.677767574787139893e-01 -2.594797126948833466e-02
1.215681154280900955e-02 1.646343618631362915e-01 -3.409148380160331726e-02
-1.032593473792076111e-02 1.822099983692169189e-01 -2.484306879341602325e-02
2.405702695250511169e-02 1.057114303112030029e-01 -2.665108256042003632e-02
3.195479884743690491e-02 1.210472732782363892e-01 -6.381242419593036175e-04
-5.786179564893245697e-03 3.128252327442169189e-01 1.623338460922241211e-02
5.665719509124755859e-04 1.220580041408538818e-01 2.469050139188766479e-02
-7.603890262544155121e-03 2.034842222929000854e-01 -3.131218627095222473e-02
-6.187380291521549225e-03 1.404597461223602295e-01 2.055498212575912476e-02
-1.613833243027329445e-03 3.065987229347229004e-01 1.201851200312376022e-02
-2.702204138040542603e-02 2.795725464820861816e-01 8.451933041214942932e-03
8.847095072269439697e-03 1.087171435356140137e-01 2.800805866718292236e-02
1.458467915654182434e-02 1.730735301971435547e-01 3.072694316506385803e-02
4.807358607649803162e-03 1.969402283430099487e-01 -3.505316376686096191e-02
-1.721649803221225739e-02 1.935800462961196899e-01 -1.223958004266023636e-02
-2.659265138208866119e-02 2.862134873867034912e-01 -8.119739592075347900e-03
-1.771924644708633423e-02 2.132754474878311157e-01 -1.846016198396682739e-02
-2.630595304071903229e-02 2.941786646842956543e-01 1.354231592267751694e-02
-2.481167018413543701e-02 2.967702150344848633e-01 -1.381230354309082031e-02
-1.301815034821629524e-03 1.169760078191757202e-01 -1.831754483282566071e-02
-6.668283604085445404e-03 2.496863603591918945e-01 3.308663517236709595e-02
-1.269474253058433533e-02 1.551971882581710815e-01 -2.272772602736949921e-03
-1.009923685342073441e-02 1.416623890399932861e-01 -3.684263443574309349e-03
-1.128925709053874016e-03 2.957229316234588623e-01 1.833317056298255920e-02
-4.117828793823719025e-03 2.098232060670852661e-01 3.474463522434234619e-02
1.402146299369633198e-03 1.252928972244262695e-01 -2.590713836252689362e-02
-1.362005807459354401e-02 3.389253020286560059e-01 -5.750857759267091751e-03
-1.209352537989616394e-02 1.743056476116180420e-01 -1.903202757239341736e-02
2.898455783724784851e-02 1.138259172439575195e-01 -1.950099878013134003e-02
-1.907684840261936188e-02 2.445128262042999268e-01 2.488396503031253815e-02
2.724211663007736206e-03 1.148745641112327576e-01 -2.423947863280773163e-02
1.531807798892259598e-02 4.895047843456268311e-02 2.901139436289668083e-03
-1.541936956346035004e-02 2.169037908315658569e-01 -2.384668216109275818e-02
-1.765905506908893585e-02 2.558090686798095703e-01 2.755290269851684570e-02
2.880896069109439850e-02 1.201272830367088318e-01 1.568811573088169098e-02
2.203165367245674133e-02 1.412322521209716797e-01 -2.809586003422737122e-02
5.817004945129156113e-03 2.591970562934875488e-01 -2.410687506198883057e-02
1.354597881436347961e-02 2.416208386421203613e-01 1.425462216138839722e-02
1.561729516834020615e-02 4.807518422603607178e-02 -2.729368861764669418e-03
6.603869609534740448e-03 2.261327803134918213e-01 -3.151590749621391296e-02
-1.698448136448860168e-02 2.002323418855667114e-01 1.913465186953544617e-02
-6.851867772638797760e-03 1.506821811199188232e-01 -2.151622436940670013e-02
2.238895557820796967e-02 7.741452008485794067e-02 2.207968942821025848e-02
1.792321540415287018e-02 2.269358038902282715e-01 -9.359915740787982941e-03
-2.270115539431571960e-02 3.242193758487701416e-01 -1.300214044749736786e-02
-2.317802608013153076e-02 3.311878740787506104e-01 1.283621322363615036e-02
8.596274070441722870e-03 2.027281373739242554e-01 -3.340570628643035889e-02
1.089716516435146332e-02 2.483946233987808228e-01 1.788936182856559753e-02
2.459014393389225006e-02 1.066254526376724243e-01 2.347862534224987030e-02
-2.391088195145130157e-02 2.498790174722671509e-01 1.442129537463188171e-02
3.061882592737674713e-02 5.969671905040740967e-02 -1.276664249598979950e-02
1.609083265066146851e-02 2.191814482212066650e-01 1.861952245235443115e-02
1.055043935775756836e-02 1.332015246152877808e-01 3.224239870905876160e-02
6.377987563610076904e-03 2.697347700595855713e-01 1.738075539469718933e-02
9.473686106503009796e-03 1.434897184371948242e-01 -3.379819914698600769e-02
1.906277239322662354e-02 1.177576780319213867e-01 -3.048026934266090393e-02
2.913773059844970703e-02 7.544121891260147095e-02 1.536511536687612534e-02
-1.649689674377441406e-02 2.295365035533905029e-01 2.685930952429771423e-02
1.565051823854446411e-02 2.133224308490753174e-01 2.175233885645866394e-02
2.522678114473819733e-03 2.446477562189102173e-01 3.055900894105434418e-02
-1.194935571402311325e-02 3.252660930156707764e-01 -1.516017504036426544e-02
5.024021491408348083e-03 1.016780361533164978e-01 -2.244499512016773224e-02
-1.990224979817867279e-02 2.812477648258209229e-01 -2.225180342793464661e-02
-2.587355114519596100e-02 2.679576277732849121e-01 -7.637501694262027740e-03
-2.014664001762866974e-02 2.941436767578125000e-01 2.399271726608276367e-02
2.829912118613719940e-02 1.288155615329742432e-01 -1.904574595391750336e-02
1.569023542106151581e-02 1.938046813011169434e-01 -2.866493538022041321e-02
-1.558885211125016212e-03 1.644439548254013062e-01 -3.146642446517944336e-02
1.043822988867759705e-02 1.561150252819061279e-01 -3.447042405605316162e-02
-2.328631281852722168e-02 3.068527579307556152e-01 1.901003159582614899e-02
2.113174833357334137e-02 1.446370780467987061e-01 2.636563777923583984e-02
-6.014166399836540222e-03 3.080488145351409912e-01 1.916561461985111237e-02
-7.217411883175373077e-03 2.857508957386016846e-01 -2.679421566426753998e-02
1.620815880596637726e-02 2.373310327529907227e-01 -7.883433252573013306e-03
3.003350086510181427e-02 1.395126283168792725e-01 -8.397157303988933563e-03
-8.004885166883468628e-03 3.287149667739868164e-01 6.559155415743589401e-03
-5.173156969249248505e-03 2.165286242961883545e-01 3.454677015542984009e-02
1.443414576351642609e-02 -3.163294494152069092e-02 1.221296712756156921e-01
-1.897388510406017303e-02 -2.262575924396514893e-01 -5.877446755766868591e-02
-4.170032590627670288e-02 4.484540224075317383e-02 1.142993196845054626e-01
2.626280672848224640e-02 -3.134251385927200317e-02 1.523306034505367279e-02
-1.202159468084573746e-02 -1.430887877941131592e-01 2.230986356735229492e-01
1.197589654475450516e-02 -1.149816811084747314e-02 1.108209639787673950e-01
4.731670767068862915e-02 -2.214032113552093506e-01 -6.073253229260444641e-02
4.172056168317794800e-02 -1.399223208427429199e-01 1.013641804456710815e-02
3.697764873504638672e-02 -2.475671768188476562e-01 9.060876071453094482e-02
3.500824421644210815e-02 -8.149594068527221680e-02 -9.336423128843307495e-02
-4.143279045820236206e-02 -1.235042810440063477e-01 1.844214834272861481e-02
-4.813871905207633972e-02 -2.494619786739349365e-02 1.013327091932296753e-01
-2.547972276806831360e-02 -2.156663537025451660e-01 1.292428672313690186e-01
-2.518125623464584351e-02 -2.041899561882019043e-01 -4.312897846102714539e-02
-4.779908806085586548e-02 1.605208218097686768e-02 6.773864477872848511e-02
-2.545427903532981873e-02 -1.716483831405639648e-01 -8.378517627716064453e-02
-4.096150398254394531e-02 -7.029689103364944458e-02 1.685059219598770142e-01
4.284364357590675354e-02 -2.481351196765899658e-01 4.445846378803253174e-02
8.033438585698604584e-03 3.163626790046691895e-02 5.508640408515930176e-02
-6.492102984338998795e-03 -2.276560515165328979e-01 -1.264269649982452393e-01
3.775200992822647095e-02 -9.339000284671783447e-02 -6.853154301643371582e-02
2.961390186101198196e-03 -1.777618825435638428e-01 2.104508727788925171e-01
4.479642957448959351e-02 -1.582876294851303101e-01 -5.684891715645790100e-02
-4.833984002470970154e-02 -4.558732360601425171e-02 6.509737670421600342e-02
-3.655057772994041443e-02 -1.588240712881088257e-01 1.240575313568115234e-01
-4.925890360027551651e-03 -6.713815033435821533e-03 -1.622498482465744019e-01
4.252083972096443176e-02 -2.280226796865463257e-01 -1.266656219959259033e-01
-9.273771196603775024e-03 -1.532027423381805420e-01 -1.671809554100036621e-01
-3.178962320089340210e-02 -1.369877010583877563e-01 -7.178154587745666504e-02
-3.428579866886138916e-02 -1.533314287662506104e-01 -3.205636888742446899e-02
3.861821815371513367e-02 -1.071623042225837708e-01 3.598019480705261230e-03
-8.102743886411190033e-03 -2.590421438217163086e-01 1.518607139587402344e-01
-8.337986655533313751e-03 -2.573316395282745361e-01 -7.965214550495147705e-02
-3.712690621614456177e-02 -1.652388572692871094e-01 4.563476517796516418e-02
8.405946195125579834e-03 6.173357367515563965e-03 1.058137118816375732e-01
4.374251142144203186e-02 -2.853011488914489746e-01 -5.982740595936775208e-02
3.843004256486892700e-02 -2.587575316429138184e-01 7.644972205162048340e-02
-1.073565054684877396e-02 7.536458969116210938e-02 6.120147183537483215e-02
2.176318317651748657e-02 -5.687003582715988159e-02 1.061899214982986450e-01
-3.738262876868247986e-02 3.674113750457763672e-02 -5.265351757407188416e-02
-4.644273594021797180e-02 3.140464425086975098e-02 7.606977224349975586e-02
3.979039937257766724e-02 -3.070528507232666016e-01 -5.355489626526832581e-02
-4.042094573378562927e-02 -1.052299141883850098e-02 -5.608982220292091370e-02
3.906551748514175415e-02 -1.012639105319976807e-01 -4.878780990839004517e-02
3.230690211057662964e-02 -8.738864958286285400e-02 5.731148645281791687e-02
-3.029851708561182022e-03 4.055370390415191650e-02 1.084509789943695068e-01
1.853254623711109161e-02 -4.031427204608917236e-03 -9.867677092552185059e-02
4.311202559620141983e-03 -3.105086088180541992e-01 8.781443536281585693e-02
3.811310231685638428e-02 -1.207211688160896301e-01 3.655888885259628296e-02
4.696821048855781555e-02 -1.972118318080902100e-01 -4.298578575253486633e-02
2.738442830741405487e-02 -9.270631521940231323e-02 1.044568121433258057e-01
1.329978182911872864e-02 2.374050021171569824e-02 1.658255979418754578e-02
-5.079632624983787537e-03 -3.506446629762649536e-02 1.944812685251235962e-01
-3.457588329911231995e-02 -7.039273530244827271e-02 1.976034492254257202e-01
-4.463395848870277405e-02 -1.866213977336883545e-02 -2.024798095226287842e-02
-1.870527677237987518e-02 3.729866445064544678e-02 -1.163024753332138062e-01
-2.594347856938838959e-02 -2.272461056709289551e-01 7.518422603607177734e-02
-2.799535356462001801e-02 -2.146972119808197021e-01 2.334641851484775543e-02
2.803314849734306335e-02 -1.023174375295639038e-01 -1.689615994691848755e-01
-3.734339401125907898e-02 4.363849759101867676e-03 -7.201293110847473145e-02
-1.661617495119571686e-02 7.912659645080566406e-02 7.599563151597976685e-02
-1.497870963066816330e-02 -1.995808184146881104e-01 1.964713782072067261e-01
1.116115786135196686e-02 -2.379499375820159912e-01 1.801606118679046631e-01
3.460782766342163086e-02 -7.027213275432586670e-02 -3.318230062723159790e-02
-3.356405720114707947e-02 -1.091859489679336548e-01 -7.943861931562423706e-02
1.715733669698238373e-02 -2.145673334598541260e-01 -1.842783540487289429e-01
-6.780575029551982880e-03 -2.863029837608337402e-01 1.006292775273323059e-01
1.805313304066658020e-02 -5.379647016525268555e-03 5.265093594789505005e-02
2.174876257777214050e-02 -6.767586618661880493e-02 1.175425127148628235e-01
3.607075288891792297e-02 -1.719572544097900391e-01 9.451474994421005249e-02
1.541297230869531631e-02 2.023218572139739990e-02 -2.512311190366744995e-02
4.296458885073661804e-02 -2.703498005867004395e-01 -9.600138664245605469e-02
4.373199492692947388e-02 -1.876265257596969604e-01 2.912547066807746887e-02
1.089417748153209686e-02 5.744144320487976074e-03 9.063741564750671387e-02
2.346570231020450592e-02 -3.158064782619476318e-01 8.489131182432174683e-02
3.428148478269577026e-02 -7.058583199977874756e-02 -1.386664342135190964e-02
4.021833837032318115e-02 -1.857816129922866821e-01 6.652526557445526123e-02
8.349449373781681061e-03 -1.331418454647064209e-01 2.016798406839370728e-01
1.838863454759120941e-02 -7.099622488021850586e-02 1.390424668788909912e-01
-4.383056610822677612e-02 -5.979100614786148071e-02 1.503227055072784424e-01
-3.967529907822608948e-02 9.034216403961181641e-03 -5.546053871512413025e-02
2.770884335041046143e-02 -3.148856759071350098e-02 -4.510828852653503418e-02
-4.379535466432571411e-02 -1.132904887199401855e-01 6.646259874105453491e-02
-2.383134141564369202e-02 -1.664208322763442993e-01 -9.877248108386993408e-02
4.991807509213685989e-03 -3.094537854194641113e-01 -4.598248377442359924e-02
-2.072520554065704346e-02 -2.499995976686477661e-01 5.019788071513175964e-02
4.510781913995742798e-02 -2.266216427087783813e-01 -1.041240394115447998e-01
2.989112213253974915e-02 -4.661180824041366577e-02 -7.597937434911727905e-02
-6.520116701722145081e-03 2.449640631675720215e-02 1.455664038658142090e-01
-1.441470067948102951e-02 -2.669559717178344727e-01 -3.049442544579505920e-03
-1.321541145443916321e-02 -2.573140859603881836e-01 1.328136771917343140e-01
3.364327177405357361e-02 -1.554044932126998901e-01 -1.695362925529479980e-01
-6.332386285066604614e-03 -8.486069738864898682e-03 1.783884763717651367e-01
2.653152868151664734e-02 -6.480218470096588135e-02 8.033078908920288086e-02
-3.051606565713882446e-02 -7.636696100234985352e-04 1.887113153934478760e-01
3.626373782753944397e-02 -9.677018970251083374e-02 -1.078831106424331665e-01
5.077409557998180389e-03 -3.953793644905090332e-02 1.702192127704620361e-01
-1.565137505531311035e-02 -1.585836857557296753e-01 -1.432628929615020752e-01
4.640254378318786621e-02 -2.529438138008117676e-01 -6.778214126825332642e-02
-4.387131333351135254e-02 1.788651943206787109e-02 1.310907453298568726e-01
2.678261697292327881e-02 -2.050482332706451416e-01 1.486945897340774536e-01
-3.095131553709506989e-02 8.506259322166442871e-02 -7.684342563152313232e-04
2.853554300963878632e-02 -8.603433519601821899e-02 8.951219916343688965e-02
4.373325407505035400e-02 -2.114190757274627686e-01 3.825613483786582947e-02
3.136634360998868942e-03 5.291998386383056641e-02 -5.260613933205604553e-02
-2.426469698548316956e-02 -1.044403985142707825e-01 -1.320852637290954590e-01
2.534179575741291046e-02 -1.482839286327362061e-01 -1.912119090557098389e-01
-1.811572164297103882e-02 -2.141338586807250977e-02 -1.523794084787368774e-01
8.943123975768685341e-05 5.518387258052825928e-02 5.316623300313949585e-02
-3.240750730037689209e-02 2.767807245254516602e-02 -8.485776931047439575e-02
4.063525050878524780e-02 -2.719517648220062256e-01 5.123635381460189819e-02
-1.495279930531978607e-02 -2.700776755809783936e-01 6.721942126750946045e-02
8.324726484715938568e-03 -8.889503777027130127e-02 1.888693869113922119e-01
4.130520671606063843e-02 -1.637980043888092041e-01 4.312478378415107727e-02
-4.575980082154273987e-02 3.855322301387786865e-02 4.533913359045982361e-02
-4.321081936359405518e-02 2.996470034122467041e-02 -1.317653525620698929e-02
9.463960304856300354e-03 3.938700258731842041e-02 -1.186081673949956894e-02
-1.413372904062271118e-02 -2.093196511268615723e-01 -1.108187437057495117e-01
2.758442983031272888e-02 -2.234013676643371582e-01 1.430907398462295532e-01
1.742251776158809662e-02 -2.932879328727722168e-02 1.009596958756446838e-01
4.715485125780105591e-02 -2.108471989631652832e-01 -2.739026769995689392e-02
3.829236328601837158e-02 -3.156380653381347656e-01 -1.591710001230239868e-02
3.604155406355857849e-02 -1.420123577117919922e-01 -1.534598469734191895e-01
3.787055984139442444e-02 -2.279804944992065430e-01 -1.509942412376403809e-01
4.632154107093811035e-02 -1.822689026594161987e-01 -5.338354036211967468e-02
4.530294239521026611e-02 -1.699585616588592529e-01 -2.178552374243736267e-02
-6.866324227303266525e-03 -9.233486652374267578e-02 2.199344784021377563e-01
-3.065964020788669586e-02 -1.741808354854583740e-01 -3.888828679919242859e-02
-3.849370032548904419e-02 -1.026432216167449951e-01 -4.495108127593994141e-02
4.707963205873966217e-03 -3.191221356391906738e-01 2.601563930511474609e-03
-1.448342576622962952e-02 -2.295228242874145508e-01 1.701292842626571655e-01
4.329957813024520874e-02 -2.878490984439849854e-01 -2.824825234711170197e-03
-3.433335106819868088e-03 3.669272363185882568e-02 -1.190980225801467896e-01
-7.946593686938285828e-03 -2.861030399799346924e-01 -1.226326543837785721e-02
-4.143530875444412231e-02 -1.323975622653961182e-01 9.431385993957519531e-02
3.835206478834152222e-02 -2.937366962432861328e-01 4.739908128976821899e-02
-8.258164860308170319e-03 -1.140448153018951416e-01 -1.806312799453735352e-01
-9.451285935938358307e-03 -2.877718806266784668e-01 5.270019546151161194e-02
-4.344068933278322220e-03 -2.452176511287689209e-01 -1.161217242479324341e-01
-3.043845668435096741e-02 -2.045497298240661621e-01 3.878353163599967957e-02
-4.839279875159263611e-02 -1.214960217475891113e-02 4.226957261562347412e-02
3.148397430777549744e-02 -3.227728307247161865e-01 3.883830457925796509e-02
-3.924348577857017517e-02 -1.416089534759521484e-01 1.625324040651321411e-02
2.651350013911724091e-02 -3.020575642585754395e-02 -7.737420499324798584e-02
-3.385955095291137695e-02 -1.388558745384216309e-01 -5.349184945225715637e-02
-1.376326754689216614e-02 -2.181865423917770386e-01 1.839950084686279297e-01
4.346372094005346298e-03 -2.134588658809661865e-01 -1.694465130567550659e-01
-7.998793385922908783e-03 -2.872868776321411133e-01 8.560190349817276001e-02
-2.147624455392360687e-02 -1.822197735309600830e-01 -9.812398999929428101e-02
-4.024981986731290817e-03 -9.821941703557968140e-02 -1.896535456180572510e-01
-1.736943610012531281e-02 8.626817166805267334e-02 4.910515993833541870e-02
-1.112085860222578049e-02 6.289279460906982422e-02 9.850494563579559326e-02
1.114768814295530319e-02 1.901660859584808350e-02 -9.956772625446319580e-02
-2.195662446320056915e-02 -1.958467066287994385e-01 -8.048694580793380737e-02
3.649654332548379898e-03 -4.469893872737884521e-03 1.431650072336196899e-01
-4.402259364724159241e-02 3.558325767517089844e-02 2.592016942799091339e-03
-4.665470495820045471e-02 -3.580059856176376343e-02 1.261003166437149048e-01
1.592843793332576752e-02 -1.558439433574676514e-02 9.104207903146743774e-02
4.441389441490173340e-02 -1.615924537181854248e-01 -8.290570974349975586e-02
3.130589425563812256e-02 -2.411703169345855713e-01 -1.631986498832702637e-01
-3.786608204245567322e-02 -1.380927562713623047e-01 1.436483860015869141e-01
-2.121202647686004639e-02 8.014608919620513916e-02 -4.689167067408561707e-02
4.705031961202621460e-02 -2.472754716873168945e-01 -5.162937566637992859e-02
-3.964124247431755066e-02 -3.745557367801666260e-02 -6.282079964876174927e-02
1.264187600463628769e-02 -2.974876165390014648e-01 -1.026688069105148315e-01
-1.991487853229045868e-02 -1.755467802286148071e-01 -1.126166731119155884e-01
-4.836726188659667969e-02 -3.554426878690719604e-02 9.093375504016876221e-02
1.857121847569942474e-02 -1.750793755054473877e-01 1.781540364027023315e-01
-3.158445283770561218e-02 8.353170752525329590e-02 7.022307068109512329e-02
3.935379907488822937e-02 -1.604820489883422852e-01 6.154362857341766357e-02
3.965065628290176392e-02 -1.244840472936630249e-01 2.008650079369544983e-02
-5.270243156701326370e-03 -2.788650393486022949e-01 -5.778322741389274597e-02
9.698938578367233276e-03 1.685868203639984131e-02 7.769307494163513184e-02
-2.391254156827926636e-02 -2.279619872570037842e-01 -2.906971611082553864e-03
-4.017655923962593079e-02 -1.004271954298019409e-01 -3.017419204115867615e-02
-4.437542334198951721e-02 4.875957965850830078e-02 6.738213449716567993e-02
-2.217575907707214355e-02 6.639891862869262695e-02 -7.453125715255737305e-02
-3.106110543012619019e-02 -4.576846212148666382e-02 2.047843933105468750e-01
-3.872767835855484009e-02 3.619825839996337891e-02 1.412476301193237305e-01
-4.598595201969146729e-02 -5.726058036088943481e-02 1.280108094215393066e-01
-8.988473564386367798e-03 -1.720029860734939575e-01 2.168606519699096680e-01
4.028121940791606903e-03 5.386154353618621826e-02 -2.934548631310462952e-02
-2.627966459840536118e-03 -1.984741091728210449e-01 -1.623647660017013550e-01
1.438942737877368927e-02 -2.309538424015045166e-02 -1.513155549764633179e-01
3.339476138353347778e-02 -1.011452823877334595e-01 6.432224065065383911e-02
4.076373949646949768e-02 -2.424643039703369141e-01 6.524793803691864014e-02
-4.732635617256164551e-02 -5.658026784658432007e-02 1.040098294615745544e-01
2.550348173826932907e-03 -2.255541086196899414e-01 1.937968879938125610e-01
-3.513842076063156128e-02 -6.284530460834503174e-02 -8.839364349842071533e-02
2.415984869003295898e-02 -3.333871364593505859e-01 3.195236250758171082e-02
-4.323076084256172180e-02 -7.830589264631271362e-02 1.475578695535659790e-01
-2.880348078906536102e-02 -1.061913520097732544e-01 -1.096702143549919128e-01
4.081607982516288757e-02 -2.136372029781341553e-01 6.758539378643035889e-02
-3.910098597407341003e-02 -1.356740593910217285e-01 1.233296468853950500e-03
-3.247317299246788025e-02 -8.004114031791687012e-02 -9.935738891363143921e-02
2.486727666109800339e-03 -1.942694634199142456e-01 2.069514542818069458e-01
2.998644858598709106e-02 -8.187509328126907349e-02 -1.429878771305084229e-01
3.529891371726989746e-02 -1.555615067481994629e-01 9.285289794206619263e-02
-4.870054498314857483e-02 -9.623095393180847168e-03 7.314977049827575684e-02
3.330898471176624298e-03 -3.103017807006835938e-01 -3.124075382947921753e-02
-4.813915491104125977e-02 -4.426571726799011230e-02 4.821392893791198730e-02
4.158085957169532776e-02 -2.439303100109100342e-01 -1.264103949069976807e-01
2.464970201253890991e-02 -8.777992427349090576e-02 -1.722343415021896362e-01
-3.114684484899044037e-02 -1.890154182910919189e-01 -4.889088682830333710e-03
3.141817077994346619e-02 -5.103488266468048096e-02 -3.496739640831947327e-02
-8.345213718712329865e-03 7.171916961669921875e-02 -5.544985458254814148e-02
-3.703714534640312195e-02 -1.462408155202865601e-02 -7.883704453706741333e-02
3.222981840372085571e-02 -2.072421908378601074e-01 1.237718462944030762e-01
-1.544935442507266998e-02 -2.691026628017425537e-01 3.888104483485221863e-02
-3.484250232577323914e-02 -1.749401986598968506e-01 1.099101006984710693e-01
1.322138588875532150e-02 -1.515796184539794922e-01 -2.007436454296112061e-01
4.389650747179985046e-02 -2.023859024047851562e-01 -1.177002042531967163e-01
-4.323721677064895630e-02 -1.161346808075904846e-01 4.714544489979743958e-02
2.586044184863567352e-02 -3.777101635932922363e-02 3.983569890260696411e-02
2.029425092041492462e-02 2.790987491607666016e-05 -5.749623104929924011e-02
-4.617646336555480957e-02 -3.206342458724975586e-03 7.238807156682014465e-04
2.438427507877349854e-02 -1.160511299967765808e-01 -1.862637996673583984e-01
5.467326380312442780e-03 -1.052671670913696289e-01 2.022350877523422241e-01
3.940911218523979187e-02 -1.462770849466323853e-01 -1.330880820751190186e-01
-2.212047763168811798e-02 1.178298890590667725e-02 1.838737279176712036e-01
4.456093907356262207e-02 -2.700483202934265137e-01 -7.825689762830734253e-02
1.471890788525342941e-02 -2.007045000791549683e-01 -1.891134083271026611e-01
-2.256902307271957397e-02 -2.284779697656631470e-01 -1.963695883750915527e-02
-1.398183871060609818e-02 -2.438583821058273315e-01 -6.592051684856414795e-02
-4.807271528989076614e-03 7.076506316661834717e-02 -3.763754665851593018e-02
2.531525120139122009e-02 -4.701777547597885132e-02 6.441385298967361450e-02
-3.238597139716148376e-02 -1.922527998685836792e-01 9.738858789205551147e-02
3.954921290278434753e-02 -1.095888167619705200e-01 -1.271283533424139023e-02
-3.840802609920501709e-02 -8.479018509387969971e-02 1.789077818393707275e-01
-3.495291993021965027e-02 -1.720889806747436523e-01 1.391233690083026886e-02
-3.419557958841323853e-02 -1.664236187934875488e-01 1.385876834392547607e-01
-1.077086012810468674e-02 4.964663088321685791e-02 -1.070745885372161865e-01
1.759094372391700745e-02 -1.986680179834365845e-01 1.797854751348495483e-01
2.329551987349987030e-02 -1.102906912565231323e-01 1.410208046436309814e-01
-4.385274648666381836e-02 -1.031734347343444824e-01 1.127133592963218689e-01
-3.329933807253837585e-02 -1.440262049436569214e-01 1.726954579353332520e-01
-2.598160132765769958e-02 -1.019942462444305420e-01 2.156136631965637207e-01
4.170804470777511597e-02 -1.245907172560691833e-01 -3.407569602131843567e-02
-2.642291225492954254e-02 -2.230148315429687500e-01 9.091810137033462524e-02
6.341694388538599014e-03 -4.124663770198822021e-03 -1.518113911151885986e-01
-2.724682353436946869e-02 -2.138160020112991333e-01 4.423673264682292938e-03
1.825082302093505859e-02 -3.318229913711547852e-01 -2.994978800415992737e-02
9.459742344915866852e-03 -2.774675190448760986e-02 1.428643912076950073e-01
2.896545641124248505e-02 -2.402759194374084473e-01 1.331588476896286011e-01
2.439570240676403046e-02 -2.713924646377563477e-02 -9.843166172504425049e-02
-4.745246842503547668e-02 -5.332633107900619507e-02 3.600909560918807983e-02
3.120642341673374176e-02 -1.237617954611778259e-01 1.028205007314682007e-01
1.597789465449750423e-03 -1.518094539642333984e-02 1.616665720939636230e-01
-2.055761218070983887e-02 -2.412919551134109497e-01 -8.668004535138607025e-03
1.331564388237893581e-03 -1.482286602258682251e-01 -1.916315704584121704e-01
3.458147868514060974e-02 -2.684546709060668945e-01 9.437582641839981079e-02
3.911213949322700500e-02 -1.255848705768585205e-01 -1.166427135467529297e-01
-3.210785984992980957e-02 -1.765811741352081299e-01 -1.886416226625442505e-02
2.781465649604797363e-02 -5.322448909282684326e-02 4.945617169141769409e-02
-7.872033864259719849e-03 4.938319325447082520e-03 1.702594161033630371e-01
-4.616224393248558044e-02 3.793716430664062500e-03 1.210879608988761902e-01
-4.436649009585380554e-02 -4.178773611783981323e-02 1.492290794849395752e-01
4.097549244761466980e-02 -1.174954175949096680e-01 -5.607175454497337341e-02
2.209353446960449219e-02 -2.957867085933685303e-02 6.402421742677688599e-02
-3.294378519058227539e-02 -1.932027190923690796e-02 -1.013223826885223389e-01
-1.996673457324504852e-02 -2.515129446983337402e-01 7.706568390130996704e-02
-2.246917411684989929e-02 5.311118066310882568e-02 1.404093205928802490e-01
8.032075129449367523e-03 -5.713365972042083740e-02 1.725604832172393799e-01
1.445951219648122787e-02 -1.010831445455551147e-01 1.741870939731597900e-01
1.249044481664896011e-02 1.595756411552429199e-02 5.539957806468009949e-02
4.083451628684997559e-02 -3.034861087799072266e-01 -2.838334999978542328e-03
1.711004041135311127e-02 -1.327222883701324463e-01 -2.000173628330230713e-01
1.185021828860044479e-02 -3.069249987602233887e-01 -8.319763839244842529e-02
-4.703608527779579163e-02 2.281591296195983887e-02 3.954971581697463989e-02
-2.325953729450702667e-02 -3.232634812593460083e-02 -1.412344425916671753e-01
-4.197946935892105103e-02 5.552063882350921631e-02 8.933318406343460083e-02
4.478658363223075867e-02 -2.232078909873962402e-01 2.645421028137207031e-02
-3.386367112398147583e-02 4.028651118278503418e-02 -6.845431774854660034e-02
8.272203616797924042e-03 -7.434746623039245605e-02 1.820268481969833374e-01
-3.749394789338111877e-02 -1.193466261029243469e-01 -3.970499336719512939e-02
-4.071169719099998474e-02 3.006726503372192383e-03 1.597324460744857788e-01
8.661207975819706917e-04 -6.018033623695373535e-02 1.952748298645019531e-01
7.975728251039981842e-03 4.225417971611022949e-02 -4.409923776984214783e-02
2.047679573297500610e-02 -7.839456200599670410e-03 2.946034073829650879e-02
-2.133541740477085114e-02 -2.012544721364974976e-01 1.764694601297378540e-01
-3.759009391069412231e-02 -5.191219598054885864e-02 -7.506552338600158691e-02
-4.566864669322967529e-02 -8.971487730741500854e-02 5.010538920760154724e-02
-5.934308748692274094e-03 -2.426706552505493164e-01 1.764933317899703979e-01
-7.573088631033897400e-03 6.645821034908294678e-02 7.246735692024230957e-02
4.469219222664833069e-02 -2.420924901962280273e-01 2.514901198446750641e-02
4.156791046261787415e-02 -1.546194255352020264e-01 3.161797672510147095e-02
3.358209505677223206e-02 -8.058444410562515259e-02 3.033687919378280640e-02
3.109782002866268158e-02 -1.912030577659606934e-01 1.288796514272689819e-01
-2.976435981690883636e-02 -8.784539997577667236e-03 -1.127931028604507446e-01
4.460502788424491882e-02 -1.710172891616821289e-01 -3.268411383032798767e-04
1.517565082758665085e-02 -6.735807657241821289e-02 -1.836540997028350830e-01
-2.646742388606071472e-02 -1.251689046621322632e-01 2.093908637762069702e-01
3.988867998123168945e-02 -2.983362078666687012e-01 2.551475167274475098e-02
3.055523708462715149e-02 -5.100800842046737671e-02 9.849769994616508484e-04
-2.715926617383956909e-02 -4.737205058336257935e-02 -1.289686560630798340e-01
-3.490338101983070374e-02 6.239134073257446289e-02 1.170711889863014221e-01
2.461355179548263550e-02 -3.269590735435485840e-01 5.624932795763015747e-02
3.332926705479621887e-02 -1.840699315071105957e-01 1.156210675835609436e-01
-6.568281911313533783e-03 -5.833395570516586304e-02 2.090010792016983032e-01
2.313440851867198944e-02 -1.022316515445709229e-02 -4.202393814921379089e-02
2.623415552079677582e-03 5.789177119731903076e-02 -1.248882431536912918e-02
3.486977517604827881e-02 -3.023216128349304199e-01 6.005258858203887939e-02
-4.527968913316726685e-02 -2.924223244190216064e-02 1.412952840328216553e-01
2.570105157792568207e-02 -1.379807144403457642e-01 1.424139440059661865e-01
2.165500819683074951e-02 -2.217077016830444336e-01 1.639218479394912720e-01
-2.839940786361694336e-02 -1.497965157032012939e-01 1.918291002511978149e-01
-6.571433972567319870e-03 -2.065327167510986328e-01 -1.447049528360366821e-01
-4.793967306613922119e-02 -5.560892075300216675e-02 7.922994345426559448e-02
1.990686357021331787e-02 3.016218543052673340e-03 -1.754846423864364624e-02
-4.809363186359405518e-02 1.067630946636199951e-03 9.024108201265335083e-02
-3.773985058069229126e-02 -8.766435086727142334e-03 1.769716888666152954e-01
-4.488611966371536255e-02 -8.044050633907318115e-02 1.242033392190933228e-02
-3.276344016194343567e-02 -1.244154721498489380e-01 1.888622194528579712e-01
-1.860516332089900970e-02 -2.041137665510177612e-01 -9.203439950942993164e-02
4.411296918988227844e-02 -2.419432997703552246e-01 -1.085877567529678345e-01
-1.468815840780735016e-02 -1.219216883182525635e-01 -1.619744151830673218e-01
-1.702384091913700104e-02 -1.922903656959533691e-01 -1.128172501921653748e-01
-1.821831613779067993e-02 -2.532339990139007568e-01 1.011842787265777588e-01
-2.739569637924432755e-03 5.970522761344909668e-03 1.550141572952270508e-01
2.903619036078453064e-02 -4.692983627319335938e-02 -9.266888350248336792e-02
-6.251554936170578003e-03 2.632215619087219238e-02 -1.344982534646987915e-01
1.093564368784427643e-02 -1.812395304441452026e-01 1.974334567785263062e-01
4.518694803118705750e-02 -1.898714005947113037e-01 -9.792103618383407593e-02
7.137582637369632721e-03 -1.742268204689025879e-01 -1.921338289976119995e-01
1.055382005870342255e-02 -1.172208935022354126e-01 1.925545334815979004e-01
2.923217974603176117e-02 -4.885522276163101196e-02 1.986345462501049042e-02
-4.782813042402267456e-02 -1.517683267593383789e-04 3.150107711553573608e-02
-3.456317633390426636e-02 -1.254518032073974609e-01 -6.018163636326789856e-02
-4.541360214352607727e-02 -9.536802023649215698e-02 6.369770318269729614e-02
8.444739505648612976e-03 -3.242200016975402832e-01 4.890003800392150879e-02
-4.872924461960792542e-02 -1.704722642898559570e-02 5.805681645870208740e-02
1.433939673006534576e-02 2.305734157562255859e-02 -4.401782900094985962e-02
7.211413234472274780e-03 -1.699395477771759033e-03 1.236402392387390137e-01
-4.703348129987716675e-02 -1.953016966581344604e-02 1.206257194280624390e-01
-3.655782714486122131e-02 1.710642874240875244e-02 1.654836237430572510e-01
-2.257872186601161957e-02 -2.379622757434844971e-01 9.739874303340911865e-02
1.768669486045837402e-02 -1.397554576396942139e-02 7.449096441268920898e-02
-2.981347963213920593e-02 -6.922083348035812378e-02 -1.157836914062500000e-01
1.762369275093078613e-02 -2.610454559326171875e-01 1.563712358474731445e-01
3.473893553018569946e-02 -7.766772806644439697e-02 2.722736448049545288e-03
-7.439590990543365479e-04 -2.850430607795715332e-01 -7.250008732080459595e-02
-4.468332231044769287e-02 -1.032100617885589600e-01 8.424597233533859253e-02
-3.521563112735748291e-02 -8.456443250179290771e-02 1.934341937303543091e-01
-2.343965694308280945e-02 -2.341555505990982056e-01 1.240510027855634689e-02
-1.536900876089930534e-03 -2.960527539253234863e-01 -4.063826799392700195e-02
-1.726641692221164703e-02 -1.994965225458145142e-02 2.023255825042724609e-01
4.627392441034317017e-02 -2.628201842308044434e-01 -5.048657953739166260e-02
3.510840982198715210e-02 -7.714191079139709473e-02 -7.718940824270248413e-02
-1.638845726847648621e-02 2.984112501144409180e-02 1.619057208299636841e-01
4.410658031702041626e-02 -2.715951204299926758e-01 1.246669609099626541e-02
-4.017385095357894897e-02 6.064251065254211426e-02 1.797387376427650452e-03
4.432040266692638397e-03 4.049816727638244629e-02 -8.702692389488220215e-02
4.581121727824211121e-02 -1.734305322170257568e-01 -3.866533562541007996e-02
-3.533588722348213196e-02 -1.783594787120819092e-01 6.871873885393142700e-02
-4.194091260433197021e-02 -2.441777288913726807e-02 -4.562176018953323364e-02
-4.224701598286628723e-02 -1.575377583503723145e-02 1.601774543523788452e-01
-7.250685244798660278e-03 -2.791604399681091309e-01 -4.208815470337867737e-02
-2.122400701045989990e-02 -2.264643758535385132e-01 -3.876893222332000732e-02
-2.778398990631103516e-02 -1.236600056290626526e-01 -1.065094023942947388e-01
1.001104619354009628e-02 -3.206897974014282227e-01 7.441189140081405640e-02
-4.769777506589889526e-02 -2.018826454877853394e-02 2.347530610859394073e-02
2.275207638740539551e-02 -6.259949505329132080e-02 -1.602998226881027222e-01
3.520099818706512451e-02 -2.789323031902313232e-01 -1.268333196640014648e-01
-3.179398179054260254e-02 1.274986565113067627e-02 -9.613279253244400024e-02
3.883325308561325073e-02 -3.032763600349426270e-01 -7.515203952789306641e-02
-4.199703410267829895e-02 -1.301041692495346069e-01 7.278357446193695068e-02
-4.649743065237998962e-02 2.305415272712707520e-02 9.558984637260437012e-02
3.433818928897380829e-03 -2.690125107765197754e-01 -1.161714792251586914e-01
2.780470065772533417e-02 -3.145456910133361816e-01 -8.951020240783691406e-02
-4.840736091136932373e-02 -2.735260874032974243e-02 4.399407655000686646e-02
-6.368797039613127708e-05 5.052858591079711914e-02 6.917445361614227295e-02
-4.677064344286918640e-02 9.853050112724304199e-03 1.654405146837234497e-02
1.046175695955753326e-02 3.490975499153137207e-02 5.982720758765935898e-03
3.918198496103286743e-02 -2.066204398870468140e-01 8.017300814390182495e-02
-9.507988579571247101e-03 7.993836700916290283e-02 2.491768822073936462e-02
2.380454167723655701e-02 -1.530111879110336304e-01 1.559584289789199829e-01
-3.207489848136901855e-03 2.842462062835693359e-02 1.287960857152938843e-01
-1.029677409678697586e-02 -2.855061888694763184e-01 3.652162104845046997e-02
3.596736863255500793e-02 -1.365157514810562134e-01 7.531505078077316284e-02
4.582356661558151245e-02 -2.316936552524566650e-01 1.055380515754222870e-02
1.134291291236877441e-02 -3.135852515697479248e-03 -1.374874860048294067e-01
1.716306549496948719e-03 -7.688689231872558594e-02 2.009968161582946777e-01
-3.271935507655143738e-02 -5.124619603157043457e-02 -1.036953330039978027e-01
-1.844122633337974548e-02 -1.326662749052047729e-01 -1.451936066150665283e-01
-2.532678470015525818e-02 -1.371084153652191162e-01 -1.118980497121810913e-01
-3.224868327379226685e-02 -1.843621283769607544e-01 1.251623034477233887e-01
-3.533202409744262695e-02 6.280243396759033203e-02 -3.342149406671524048e-02
-4.171298444271087646e-02 -9.341140836477279663e-02 1.518831551074981689e-01
-2.291553653776645660e-02 -2.409462332725524902e-01 6.496351957321166992e-02
-8.937966078519821167e-03 -4.058738052845001221e-02 -1.746695786714553833e-01
-3.562492132186889648e-02 -1.564215123653411865e-01 -1.119591575115919113e-02
1.459865923970937729e-02 -4.261285066604614258e-04 -1.189374625682830811e-01
-4.289334267377853394e-02 -9.842869639396667480e-02 1.349251866340637207e-01
3.079899214208126068e-02 -6.982104480266571045e-02 -1.211915314197540283e-01
-4.096041247248649597e-02 6.331297755241394043e-02 7.580108195543289185e-02
-4.308493807911872864e-02 6.905809044837951660e-03 -2.962824329733848572e-02
4.711202532052993774e-02 -2.358118444681167603e-01 -2.116679772734642029e-02
1.135989557951688766e-02 2.490434050559997559e-02 -8.161830902099609375e-02
-4.168605431914329529e-02 -7.096508145332336426e-02 -3.575749695301055908e-02
2.601754665374755859e-02 -2.650116384029388428e-01 1.324370056390762329e-01
3.283221274614334106e-02 -6.069721281528472900e-02 -6.412545591592788696e-02
-1.471906155347824097e-02 -2.528291940689086914e-01 -4.223274439573287964e-02
1.287532690912485123e-02 -8.646588772535324097e-02 1.727863997220993042e-01
3.074272908270359039e-02 -1.738865375518798828e-01 -1.810197383165359497e-01
-2.430484816431999207e-02 4.922237992286682129e-02 -9.326367825269699097e-02
-8.493226021528244019e-03 4.302889108657836914e-03 -1.534069627523422241e-01
3.319112211465835571e-02 -2.373973876237869263e-01 1.148568838834762573e-01
4.203367233276367188e-02 -2.023844420909881592e-01 5.458264425396919250e-02
1.722498796880245209e-02 7.275611162185668945e-03 2.434892579913139343e-02
-1.428784895688295364e-02 -1.880238354206085205e-01 -1.292051225900650024e-01
-2.216156199574470520e-02 -1.364323496818542480e-02 -1.397055536508560181e-01
3.228690475225448608e-02 -6.735834479331970215e-02 1.987131685018539429e-02
1.981860026717185974e-02 4.558116197586059570e-04 6.661540362983942032e-03
2.909421920776367188e-03 -5.063868314027786255e-02 -1.859098970890045166e-01
-2.668220736086368561e-02 -1.822746098041534424e-01 -6.285213679075241089e-02
1.057304628193378448e-02 -1.603988558053970337e-01 1.990400701761245728e-01
-1.797572709619998932e-02 -2.566934525966644287e-01 1.113027613610029221e-02
-2.034739032387733459e-02 6.599557399749755859e-02 1.168043017387390137e-01
1.082625146955251694e-02 -1.070200130343437195e-01 -2.000945508480072021e-01
3.212038055062294006e-02 -2.250713407993316650e-01 -1.688734143972396851e-01
-3.925504162907600403e-02 4.755063354969024658e-02 -2.884985879063606262e-02
-3.763894736766815186e-02 -1.173516884446144104e-01 1.664734035730361938e-01
-1.518539618700742722e-03 6.479854881763458252e-02 2.560597285628318787e-02
-2.977512404322624207e-02 -2.072893679141998291e-01 8.994035422801971436e-02
-4.191850125789642334e-02 -1.023801565170288086e-01 -7.277446798980236053e-03
-2.970844879746437073e-02 8.096311986446380615e-02 -2.306338772177696228e-02
3.213686496019363403e-02 -2.707312703132629395e-01 -1.414977312088012695e-01
3.250672668218612671e-02 -9.661559015512466431e-02 -1.418548673391342163e-01
1.777685596607625484e-03 -2.743007540702819824e-01 1.519913375377655029e-01
-9.224134846590459347e-04 -3.077852725982666016e-01 5.897220224142074585e-02
-3.956015035510063171e-02 -1.394916027784347534e-01 1.188885048031806946e-01
3.701784461736679077e-02 -2.552028894424438477e-01 -1.407376676797866821e-01
4.176739975810050964e-02 -1.563885957002639771e-01 -1.183582991361618042e-01
3.842699527740478516e-02 -1.430596858263015747e-01 5.748799443244934082e-02
4.745787009596824646e-02 -2.291781604290008545e-01 -4.641057178378105164e-02
-2.488605864346027374e-02 5.207225680351257324e-03 -1.243826001882553101e-01
4.393101669847965240e-03 2.073584496974945068e-02 -1.257675141096115112e-01
-1.600030437111854553e-02 -2.660653591156005859e-01 2.468496933579444885e-02
2.296620234847068787e-02 -3.271713256835937500e-01 -5.825224146246910095e-02
1.171902380883693695e-02 -3.274975419044494629e-01 -1.720165833830833435e-02
-4.593496397137641907e-02 -8.524290472269058228e-02 9.565088897943496704e-02
3.870917111635208130e-02 -2.057862877845764160e-01 -1.522735804319381714e-01
