6.847445964813232422e-01 -2.007144838571548462e-01 4.636635482311248779e-01
4.435590207576751709e-01 -2.264129668474197388e-01 -5.135729312896728516e-01
5.540182590484619141e-01 -2.456037104129791260e-01 2.450478076934814453e-02
7.252805233001708984e-01 -2.294966280460357666e-01 -2.552086114883422852e-01
6.671230196952819824e-01 -2.369225919246673584e-01 2.610420584678649902e-01
1.807498335838317871e-01 -1.674145758152008057e-01 -9.906814992427825928e-02
6.331165432929992676e-01 -2.411652803421020508e-01 -1.797761172056198120e-01
3.344397842884063721e-01 -2.272367179393768311e-01 3.800588250160217285e-01
5.840497016906738281e-01 -1.827144920825958252e-01 -5.154756307601928711e-01
4.412715733051300049e-01 -1.700909733772277832e-01 4.062595665454864502e-01
1.695770919322967529e-01 -2.168634831905364990e-01 -1.513157039880752563e-01
6.651380062103271484e-01 -1.790094673633575439e-01 -3.390973508358001709e-01
5.753125548362731934e-01 -1.883821934461593628e-01 5.232137441635131836e-01
6.707065105438232422e-01 -1.714910566806793213e-01 1.718349754810333252e-02
3.360011875629425049e-01 -1.655855327844619751e-01 -4.076267778873443604e-01
4.410519301891326904e-01 -2.412135750055313110e-01 2.201687395572662354e-01
1.510395109653472900e-01 -1.735299676656723022e-01 -1.622336059808731079e-01
5.915676355361938477e-01 -1.648276746273040771e-01 1.007731109857559204e-01
4.301795661449432373e-01 -1.575842499732971191e-01 -1.756865829229354858e-01
3.811664283275604248e-01 -1.570862084627151489e-01 -1.649335622787475586e-01
4.615878760814666748e-01 -1.622472703456878662e-01 2.473031580448150635e-01
1.844628453254699707e-01 -1.763233095407485962e-01 -3.496012389659881592e-01
2.315886914730072021e-01 -1.761556267738342285e-01 -4.400329291820526123e-01
6.950243115425109863e-01 -1.750257462263107300e-01 -9.662529081106185913e-02
4.121967554092407227e-01 -2.365519106388092041e-01 -3.377218842506408691e-01
5.733641982078552246e-01 -1.789020448923110962e-01 4.441947042942047119e-01
5.026425123214721680e-01 -2.447640895843505859e-01 -1.192668452858924866e-01
6.775255203247070312e-01 -2.395886182785034180e-01 -1.255162507295608521e-01
7.157667875289916992e-01 -1.779878288507461548e-01 5.654111504554748535e-02
5.174901485443115234e-01 -1.606904566287994385e-01 1.185674965381622314e-01
3.674292266368865967e-01 -1.823848038911819458e-01 5.132308006286621094e-01
5.783261060714721680e-01 -2.433688193559646606e-01 1.814318150281906128e-01
6.433382630348205566e-01 -1.739650815725326538e-01 2.580718696117401123e-01
3.883030116558074951e-01 -2.291918247938156128e-01 -4.501833915710449219e-01
1.283762753009796143e-01 -2.019391357898712158e-01 1.033337265253067017e-01
1.362079381942749023e-01 -2.070692330598831177e-01 -1.735607981681823730e-01
2.470449060201644897e-01 -2.092114835977554321e-01 4.164740443229675293e-01
7.099450230598449707e-01 -1.786360889673233032e-01 -1.655708700418472290e-01
2.161321043968200684e-01 -2.220536172389984131e-01 1.885496526956558228e-01
6.367560029029846191e-01 -2.380741685628890991e-01 2.817932665348052979e-01
2.946348190307617188e-01 -1.770264655351638794e-01 -5.180889368057250977e-01
3.735243678092956543e-01 -2.108589410781860352e-01 -6.024568080902099609e-01
7.303113937377929688e-01 -1.800181418657302856e-01 -1.341752801090478897e-02
4.229074418544769287e-01 -1.567091941833496094e-01 1.438866555690765381e-02
3.600353002548217773e-01 -1.665662378072738647e-01 -4.340184330940246582e-01
2.639437913894653320e-01 -1.645161956548690796e-01 2.020978331565856934e-01
4.938174486160278320e-01 -2.172163575887680054e-01 -5.913506746292114258e-01
2.092153131961822510e-01 -2.195974439382553101e-01 -2.860490381717681885e-01
5.440164804458618164e-01 -1.609158217906951904e-01 -1.024513915181159973e-01
4.251379966735839844e-01 -1.643385142087936401e-01 3.100991547107696533e-01
4.739057421684265137e-01 -1.596709787845611572e-01 1.477947384119033813e-01
3.516413867473602295e-01 -1.773107349872589111e-01 4.676214158535003662e-01
1.810025572776794434e-01 -1.882001906633377075e-01 -4.199244379997253418e-01
4.378488659858703613e-01 -2.393870204687118530e-01 2.731063365936279297e-01
4.391596019268035889e-01 -2.295083999633789062e-01 -4.753638803958892822e-01
6.069432497024536133e-01 -1.706968545913696289e-01 -3.150800764560699463e-01
2.079852819442749023e-01 -1.703371703624725342e-01 -3.206405937671661377e-01
4.141848385334014893e-01 -2.431543618440628052e-01 3.416326269507408142e-02
3.922924101352691650e-01 -2.414380609989166260e-01 -1.284250766038894653e-01
4.129947125911712646e-01 -2.129952758550643921e-01 5.638672113418579102e-01
5.681288242340087891e-01 -2.373678982257843018e-01 -3.478003442287445068e-01
5.270885229110717773e-01 -1.736221313476562500e-01 -4.781181514263153076e-01
4.379595518112182617e-01 -1.640427261590957642e-01 -3.844745457172393799e-01
3.083885908126831055e-01 -2.215698808431625366e-01 4.128374755382537842e-01
7.927110195159912109e-01 -2.200494110584259033e-01 -1.183350309729576111e-01
3.312483131885528564e-01 -1.569790989160537720e-01 -7.603789120912551880e-02
3.523835241794586182e-01 -1.851888149976730347e-01 -6.000221967697143555e-01
3.966525197029113770e-01 -1.565875113010406494e-01 -1.189735010266304016e-01
3.995780944824218750e-01 -2.418454587459564209e-01 1.039622277021408081e-01
2.266045361757278442e-01 -1.626063287258148193e-01 5.233336240053176880e-03
2.874526381492614746e-01 -2.265879064798355103e-01 -3.594847917556762695e-01
7.417986392974853516e-01 -1.853508949279785156e-01 -1.849517971277236938e-01
2.873973846435546875e-01 -2.224150002002716064e-01 3.693949878215789795e-01
2.973576784133911133e-01 -2.346899956464767456e-01 -1.428127288818359375e-01
2.180746644735336304e-01 -2.253772169351577759e-01 -1.523229330778121948e-01
4.008906185626983643e-01 -1.651018708944320679e-01 -4.139645993709564209e-01
2.179451137781143188e-01 -2.233418971300125122e-01 -2.289634346961975098e-01
5.070548653602600098e-01 -1.607965826988220215e-01 -2.210571169853210449e-01
6.443975567817687988e-01 -1.986921876668930054e-01 -5.275819301605224609e-01
2.086441218852996826e-01 -1.806727349758148193e-01 3.330323398113250732e-01
4.403269588947296143e-01 -2.427544444799423218e-01 1.535182446241378784e-01
6.628743410110473633e-01 -1.709156930446624756e-01 5.844441801309585571e-02
7.434676885604858398e-01 -1.864129006862640381e-01 1.877935081720352173e-01
3.754242062568664551e-01 -2.303389161825180054e-01 -4.214471578598022461e-01
6.074440479278564453e-01 -2.168526500463485718e-01 5.322990417480468750e-01
4.982111155986785889e-01 -2.262659668922424316e-01 -5.209019780158996582e-01
7.006054520606994629e-01 -1.993544697761535645e-01 -4.422079026699066162e-01
1.947515010833740234e-01 -2.103820741176605225e-01 -3.763940036296844482e-01
2.480508685111999512e-01 -1.636101305484771729e-01 -2.569891512393951416e-01
5.000559091567993164e-01 -1.588833183050155640e-01 -1.177459508180618286e-01
5.979657173156738281e-01 -1.647264957427978516e-01 5.629200488328933716e-02
4.539915621280670166e-01 -1.598604172468185425e-01 -2.603929340839385986e-01
2.395455688238143921e-01 -1.789084523916244507e-01 -4.742707610130310059e-01
3.267183601856231689e-01 -1.608768403530120850e-01 -2.953296005725860596e-01
4.782081246376037598e-01 -2.449231743812561035e-01 6.975942105054855347e-02
3.131026625633239746e-01 -1.690220385789871216e-01 3.477142155170440674e-01
2.782141566276550293e-01 -1.606087982654571533e-01 -2.164156883955001831e-01
4.984088242053985596e-01 -2.419334501028060913e-01 -2.475302219390869141e-01
2.809106409549713135e-01 -1.597077250480651855e-01 6.445456296205520630e-02
3.910605013370513916e-01 -1.824590116739273071e-01 -5.972074270248413086e-01
3.122210502624511719e-01 -2.351464033126831055e-01 -1.874368935823440552e-01
1.582626700401306152e-01 -2.101447582244873047e-01 1.641733944416046143e-01
3.598338663578033447e-01 -1.603051424026489258e-01 -2.985008060932159424e-01
5.384598374366760254e-01 -1.608200818300247192e-01 5.608723312616348267e-02
2.323384732007980347e-01 -1.618179082870483398e-01 -6.992514431476593018e-02
2.251115143299102783e-01 -2.200470864772796631e-01 2.599181234836578369e-01
3.526803851127624512e-01 -2.361236363649368286e-01 2.308235764503479004e-01
4.544747769832611084e-01 -1.570716947317123413e-01 -4.305549710988998413e-02
4.259048402309417725e-01 -1.565559804439544678e-01 -6.351024657487869263e-02
3.207103908061981201e-01 -1.617646962404251099e-01 2.107804417610168457e-01
5.558602213859558105e-01 -1.637805849313735962e-01 -2.322542518377304077e-01
-2.863288521766662598e-01 -4.815164953470230103e-02 -5.260256528854370117e-01
-2.957027852535247803e-01 -8.757747709751129150e-03 -1.596767008304595947e-01
-3.100507259368896484e-01 -1.775076985359191895e-02 1.961447447538375854e-01
-2.875675857067108154e-01 -2.064423263072967529e-02 3.712156713008880615e-01
-3.189906775951385498e-01 -4.220077022910118103e-02 -1.069968342781066895e-01
-2.737771570682525635e-01 -7.359084486961364746e-02 -5.274485424160957336e-02
-3.144192099571228027e-01 -2.493422478437423706e-02 1.300311684608459473e-01
-3.134469985961914062e-01 -2.557019889354705811e-02 -5.556412786245346069e-02
-3.083074390888214111e-01 -3.410905972123146057e-02 -3.349440097808837891e-01
-2.878929376602172852e-01 -5.957980453968048096e-02 4.527128338813781738e-01
-3.088341951370239258e-01 -3.811124339699745178e-02 -3.624102175235748291e-01
-3.010016381740570068e-01 -7.344268262386322021e-03 1.895213127136230469e-01
-2.760480046272277832e-01 -8.685410022735595703e-02 -9.958833456039428711e-02
-2.904226779937744141e-01 -1.177108585834503174e-01 4.473280534148216248e-02
-2.843245267868041992e-01 -1.112032234668731689e-01 -2.359348982572555542e-01
-2.770141363143920898e-01 -7.527020573616027832e-02 1.437309980392456055e-01
-2.735792100429534912e-01 -7.131518423557281494e-02 -2.274692356586456299e-01
-3.158481717109680176e-01 -1.027483791112899780e-01 -4.240728318691253662e-01
-3.241398632526397705e-01 -1.042112559080123901e-01 -1.306283473968505859e-01
-3.160257935523986816e-01 -2.929633483290672302e-02 1.779950708150863647e-01
-3.211432397365570068e-01 -5.780168995261192322e-02 3.237725496292114258e-01
-2.723616361618041992e-01 -5.192876607179641724e-02 -1.983586698770523071e-01
-3.187696635723114014e-01 -3.828996047377586365e-02 2.205568104982376099e-01
-2.884925901889801025e-01 -4.915580153465270996e-03 1.496297568082809448e-01
-3.245489895343780518e-01 -6.881383806467056274e-02 -1.068232208490371704e-01
-3.131766915321350098e-01 -1.165367513895034790e-01 2.449662238359451294e-01
-2.811350822448730469e-01 -9.996901452541351318e-02 -3.337706029415130615e-01
-3.084889352321624756e-01 -1.322875916957855225e-01 -1.643557697534561157e-01
-3.187000751495361328e-01 -3.736549988389015198e-02 2.022479772567749023e-01
-2.832379937171936035e-01 -8.488468825817108154e-03 1.112850159406661987e-01
-3.048311173915863037e-01 -1.063606217503547668e-01 3.655357956886291504e-01
-2.922256290912628174e-01 -2.885607630014419556e-02 4.590912163257598877e-01
-2.839276492595672607e-01 -6.877541542053222656e-02 -5.467156767845153809e-01
-2.937750518321990967e-01 -1.209749579429626465e-01 7.132107019424438477e-02
-2.904781103134155273e-01 -3.175869584083557129e-03 5.091366544365882874e-02
-2.812685072422027588e-01 -1.195574179291725159e-02 -1.160696297883987427e-01
-3.018202483654022217e-01 -1.284912526607513428e-01 -3.227373957633972168e-01
-2.723492085933685303e-01 -6.231712922453880310e-02 -8.793817460536956787e-02
-2.936618924140930176e-01 -3.097778931260108948e-02 -4.451211392879486084e-01
-3.141231536865234375e-01 -2.472347021102905273e-02 3.407837077975273132e-02
-2.896251082420349121e-01 -9.037353098392486572e-03 2.676070332527160645e-01
-2.876558005809783936e-01 -1.142244935035705566e-01 2.084612101316452026e-02
-3.092284202575683594e-01 -1.646742597222328186e-02 3.333576023578643799e-04
-2.772469818592071533e-01 -5.684629827737808228e-02 -4.240127503871917725e-01
-3.252389132976531982e-01 -9.540225565433502197e-02 1.315499991178512573e-01
-2.860698401927947998e-01 -1.139159351587295532e-01 -2.724637091159820557e-01
-2.745563089847564697e-01 -3.311070799827575684e-02 1.026541590690612793e-01
-3.051845431327819824e-01 -1.179973036050796509e-02 -3.379417955875396729e-02
-3.196669220924377441e-01 -1.159844100475311279e-01 1.337021142244338989e-01
-2.733590900897979736e-01 -3.777765482664108276e-02 -1.903492808341979980e-01
-3.099896311759948730e-01 -1.797939836978912354e-02 -1.356663927435874939e-02
-2.752540707588195801e-01 -4.288750886917114258e-02 1.785636097192764282e-01
-2.976077198982238770e-01 -1.279810369014739990e-01 -2.823115587234497070e-01
-2.963060140609741211e-01 -1.258258521556854248e-01 1.466016843914985657e-02
-2.793410718441009521e-01 -2.416273206472396851e-02 2.355649322271347046e-01
-2.970113754272460938e-01 -1.180329471826553345e-01 1.845454722642898560e-01
-3.200362920761108398e-01 -8.086542785167694092e-02 3.777295947074890137e-01
-3.186839818954467773e-01 -1.138651221990585327e-01 1.933491975069046021e-01
-2.751792967319488525e-01 -2.558029443025588989e-02 4.777697846293449402e-02
-2.821871340274810791e-01 -8.539277315139770508e-02 2.363640218973159790e-01
-3.059181571006774902e-01 -9.776020050048828125e-02 4.271577894687652588e-01
-3.138920962810516357e-01 -1.286312043666839600e-01 -8.410457521677017212e-03
-2.756349444389343262e-01 -3.492536395788192749e-02 -2.819085717201232910e-01
-2.857400774955749512e-01 -8.768443018198013306e-03 -1.435600668191909790e-01
-2.746759653091430664e-01 -7.718262821435928345e-02 -1.624955609440803528e-02
-2.780529260635375977e-01 -2.053226530551910400e-02 -1.904758214950561523e-01
-2.732909917831420898e-01 -7.176011055707931519e-02 -1.004483550786972046e-01
-2.924597859382629395e-01 -1.719620078802108765e-02 -3.123232722282409668e-01
-3.068983256816864014e-01 -1.311786174774169922e-01 -2.469043880701065063e-01
-3.221734464168548584e-01 -4.876406863331794739e-02 1.251250132918357849e-02
-2.813661694526672363e-01 -7.173824310302734375e-02 -5.094723701477050781e-01
-2.784830033779144287e-01 -8.017452061176300049e-02 1.615573614835739136e-01
-3.134996294975280762e-01 -1.028610467910766602e-01 -4.635859429836273193e-01
-3.187355995178222656e-01 -3.573098406195640564e-02 9.022928774356842041e-02
-3.150736689567565918e-01 -8.478868007659912109e-02 -4.603220224380493164e-01
-3.024684488773345947e-01 -1.289143860340118408e-01 4.327841475605964661e-02
-3.164463937282562256e-01 -7.254917174577713013e-02 -4.128498136997222900e-01
-3.208667933940887451e-01 -1.177889108657836914e-01 -1.285028904676437378e-01
-2.803741395473480225e-01 -6.098830327391624451e-02 -4.925428628921508789e-01
-3.142350912094116211e-01 -3.098465129733085632e-02 -1.378773152828216553e-01
-2.798267602920532227e-01 -7.017342001199722290e-02 2.688485980033874512e-01
-2.924932837486267090e-01 -9.861011803150177002e-02 3.327096402645111084e-01
-3.086415827274322510e-01 -1.317651122808456421e-01 -3.965543955564498901e-02
-3.167628347873687744e-01 -8.173156529664993286e-02 -4.252717196941375732e-01
-3.044667243957519531e-01 -7.670836150646209717e-02 -5.803047418594360352e-01
-3.258429765701293945e-01 -7.085776329040527344e-02 7.100240886211395264e-02
-2.941935062408447266e-01 -5.656026303768157959e-02 5.168930292129516602e-01
-3.249627053737640381e-01 -9.038635343313217163e-02 1.860049962997436523e-01
-3.175678253173828125e-01 -7.410623133182525635e-02 4.325483739376068115e-01
-3.239060342311859131e-01 -1.089721471071243286e-01 -1.640299707651138306e-02
-2.726992964744567871e-01 -3.889092057943344116e-02 -1.315777152776718140e-01
-3.010963201522827148e-01 -7.914151251316070557e-02 5.050932168960571289e-01
-2.897836863994598389e-01 -6.179635226726531982e-02 4.714923799037933350e-01
-2.873428761959075928e-01 -9.316372871398925781e-02 2.923848330974578857e-01
-2.818938195705413818e-01 -7.226379215717315674e-02 3.105883896350860596e-01
-3.225021064281463623e-01 -5.236812308430671692e-02 2.029026448726654053e-01
-3.104886710643768311e-01 -1.977544650435447693e-02 2.416542619466781616e-01
-2.735683619976043701e-01 -3.498786315321922302e-02 -1.713189929723739624e-01
-2.741518020629882812e-01 -6.172302737832069397e-02 9.659792482852935791e-02
-3.167324066162109375e-01 -8.488786220550537109e-02 4.226125478744506836e-01
-2.765672504901885986e-01 -6.378627568483352661e-02 -4.087059497833251953e-01
-3.108583986759185791e-01 -3.052367269992828369e-02 -2.399529963731765747e-01
-2.902371287345886230e-01 -3.301210701465606689e-03 8.290964365005493164e-02
-2.950561940670013428e-01 -1.238747239112854004e-01 -3.418577313423156738e-01
-2.728060185909271240e-01 -4.538492858409881592e-02 4.127371683716773987e-02
-2.880838215351104736e-01 -1.027763187885284424e-01 -4.933137893676757812e-01
-3.139325976371765137e-01 -5.870309099555015564e-02 -4.084353446960449219e-01
-3.263551592826843262e-01 -7.948449999094009399e-02 3.218724206089973450e-02
-3.249121606349945068e-01 -7.536154240369796753e-02 2.150434851646423340e-01
-3.239792883396148682e-01 -1.074433326721191406e-01 -8.976081013679504395e-02
-2.971390783786773682e-01 -4.370675981044769287e-02 -5.170827507972717285e-01
-2.792825102806091309e-01 -9.900104254484176636e-02 -1.726144701242446899e-01
-2.906810939311981201e-01 -3.921640664339065552e-02 4.797911942005157471e-01
-3.256709575653076172e-01 -9.755495190620422363e-02 4.742730036377906799e-02
-3.191916048526763916e-01 -5.223928391933441162e-02 -2.246328592300415039e-01
-3.161109685897827148e-01 -2.954294532537460327e-02 1.669999584555625916e-02
-2.748291194438934326e-01 -3.316847607493400574e-02 -2.305566519498825073e-01
-2.719670236110687256e-01 -4.998726025223731995e-02 -7.521076500415802002e-02
-3.196582198143005371e-01 -4.671613872051239014e-02 -1.418426632881164551e-01
-3.172377645969390869e-01 -3.966345638036727905e-02 -1.530611962080001831e-01
-2.886940240859985352e-01 -8.367895334959030151e-02 3.791193068027496338e-01
-2.755083739757537842e-01 -8.095645159482955933e-02 -2.789367735385894775e-01
-2.823529839515686035e-01 -1.114456355571746826e-02 -1.306632757186889648e-01
-3.175286054611206055e-01 -3.705614060163497925e-02 -9.365659952163696289e-02
-3.127189278602600098e-01 -3.747424855828285217e-02 4.171071648597717285e-01
-2.971516549587249756e-01 -1.005686819553375244e-02 3.071798980236053467e-01
-3.142784535884857178e-01 -1.279215067625045776e-01 -1.940494477748870850e-01
-3.260837197303771973e-01 -9.370633214712142944e-02 2.826439216732978821e-02
-2.931773662567138672e-01 -7.046420872211456299e-02 -6.052490472793579102e-01
-2.972361445426940918e-01 -1.261842846870422363e-01 2.816861495375633240e-02
-3.237556219100952148e-01 -5.607685446739196777e-02 1.325665116310119629e-01
-2.784910798072814941e-01 -9.434506297111511230e-02 -2.741788625717163086e-01
-2.760204374790191650e-01 -2.134235575795173645e-02 1.010540127754211426e-02
-2.797932028770446777e-01 -3.737823665142059326e-02 -4.020040929317474365e-01
-2.737978100776672363e-01 -3.037173300981521606e-02 -1.700072921812534332e-02
-3.189391195774078369e-01 -1.066881865262985229e-01 2.658541798591613770e-01
-2.987931072711944580e-01 -5.173496901988983154e-03 2.262981235980987549e-02
-3.211863636970520020e-01 -4.800397902727127075e-02 2.335535436868667603e-01
-3.104203939437866211e-01 -9.873081743717193604e-02 -5.154679417610168457e-01
-3.212294280529022217e-01 -9.175306558609008789e-02 -3.157287836074829102e-01
-2.828511893749237061e-01 -4.674141108989715576e-02 -4.902605712413787842e-01
-3.183973133563995361e-01 -5.168861895799636841e-02 3.775898516178131104e-01
-3.138081431388854980e-01 -3.166740387678146362e-02 -1.661034673452377319e-01
-3.149094879627227783e-01 -7.573889195919036865e-02 4.661152958869934082e-01
-2.881005406379699707e-01 -1.186376735568046570e-01 -1.384795010089874268e-01
-3.216817677021026611e-01 -1.138150617480278015e-01 -1.647202819585800171e-01
-3.067291080951690674e-01 -5.609464645385742188e-02 -5.047463774681091309e-01
-3.207341730594635010e-01 -4.253236204385757446e-02 4.717829450964927673e-02
-2.726329267024993896e-01 -3.874270617961883545e-02 -3.364768996834754944e-02
-3.095622360706329346e-01 -1.176968514919281006e-01 -4.329873919486999512e-01
-2.733792364597320557e-01 -4.753999784588813782e-02 8.717535436153411865e-02
-2.868074774742126465e-01 -8.863282948732376099e-02 -5.496721863746643066e-01
-3.176234364509582520e-01 -1.068844199180603027e-01 -3.700359761714935303e-01
-3.261019885540008545e-01 -9.313304722309112549e-02 -1.141117326915264130e-02
-3.034217953681945801e-01 -9.344527125358581543e-02 4.488815367221832275e-01
-2.812167108058929443e-01 -3.775213658809661865e-02 3.434722125530242920e-01
-2.740134000778198242e-01 -7.634489238262176514e-02 -1.901821792125701904e-01
-2.780306339263916016e-01 -9.458621591329574585e-02 -1.104794144630432129e-01
-3.189431130886077881e-01 -1.054513379931449890e-01 -3.440543711185455322e-01
-3.050571978092193604e-01 -2.076470479369163513e-02 3.855190277099609375e-01
-3.158394992351531982e-01 -1.063887178897857666e-01 3.171892762184143066e-01
-3.086735308170318604e-01 -2.089403942227363586e-02 -1.487309336662292480e-01
-3.096547722816467285e-01 -1.226904988288879395e-01 1.845639497041702271e-01
-3.254123628139495850e-01 -1.004181802272796631e-01 1.082589104771614075e-02
-3.086896836757659912e-01 -1.600585505366325378e-02 2.099825292825698853e-01
-2.843420207500457764e-01 -1.648858189582824707e-02 -2.679535448551177979e-01
-3.035054504871368408e-01 -2.541598677635192871e-02 -3.205084502696990967e-01
-2.880880236625671387e-01 -7.834144681692123413e-02 -5.828704237937927246e-01
-2.755829095840454102e-01 -3.176439180970191956e-02 -2.495440542697906494e-01
-3.216822445392608643e-01 -1.019450277090072632e-01 -2.746522426605224609e-01
-3.221401274204254150e-01 -1.096294522285461426e-01 -1.987034976482391357e-01
-2.771380245685577393e-01 -8.249059319496154785e-02 -3.582216799259185791e-01
-3.260465860366821289e-01 -7.755769789218902588e-02 -3.152327612042427063e-02
-2.743518948554992676e-01 -7.879874855279922485e-02 -1.114120632410049438e-01
-2.796525061130523682e-01 -8.948978781700134277e-02 1.121900379657745361e-01
-2.814227640628814697e-01 -1.021959707140922546e-01 -3.056226670742034912e-01
-3.109654784202575684e-01 -1.247909069061279297e-01 -3.382889032363891602e-01
-2.721148729324340820e-01 -5.902943015098571777e-02 -1.128820478916168213e-01
-2.742563784122467041e-01 -3.903026133775711060e-02 1.203128695487976074e-01
-2.780637443065643311e-01 -9.243796765804290771e-02 -2.769881114363670349e-02
-2.943082451820373535e-01 -2.337343618273735046e-02 4.408817887306213379e-01
-2.809089124202728271e-01 -9.498861432075500488e-02 9.268139302730560303e-02
-2.916544675827026367e-01 -9.751673042774200439e-02 -5.617481470108032227e-01
-2.913207411766052246e-01 -1.159778609871864319e-02 -2.327960878610610962e-01
-3.225612044334411621e-01 -7.990474253892898560e-02 -2.611397504806518555e-01
-3.198542296886444092e-01 -3.984009474515914917e-02 2.859174832701683044e-02
-2.841908037662506104e-01 -1.061203628778457642e-01 4.785737767815589905e-02
-2.857924699783325195e-01 -7.729664444923400879e-02 3.650483191013336182e-01
-3.132145106792449951e-01 -8.928811550140380859e-02 -4.910950362682342529e-01
-3.239269852638244629e-01 -9.229642152786254883e-02 2.272094637155532837e-01
-2.824044525623321533e-01 -3.459407389163970947e-02 3.591876029968261719e-01
-2.833243906497955322e-01 -1.095581874251365662e-01 -1.845527738332748413e-01
-2.875576317310333252e-01 -1.175856590270996094e-01 -2.158845067024230957e-01
-2.854670882225036621e-01 -9.844680130481719971e-02 -4.804061949253082275e-01
-2.892145812511444092e-01 -7.753780484199523926e-02 4.167437553405761719e-01
-2.910367548465728760e-01 -3.523826599121093750e-03 1.223263144493103027e-01
-2.832038402557373047e-01 -1.011224091053009033e-01 -4.004544317722320557e-01
-2.781181037425994873e-01 -8.856400102376937866e-02 5.024636909365653992e-02
-2.899000346660614014e-01 -1.198451966047286987e-01 -4.079477488994598389e-02
-2.835715413093566895e-01 -1.099288016557693481e-01 -1.262223869562149048e-01
-3.175658583641052246e-01 -5.915507301688194275e-02 -3.276855051517486572e-01
-3.262142837047576904e-01 -7.937975972890853882e-02 -1.662478595972061157e-02
-3.188020586967468262e-01 -1.183589249849319458e-01 1.192678213119506836e-01
-2.772923707962036133e-01 -2.633079513907432556e-02 1.820770502090454102e-01
-3.213911056518554688e-01 -1.156179159879684448e-01 -1.468916684389114380e-01
-3.260817825794219971e-01 -8.120268583297729492e-02 1.233444213867187500e-01
-2.880783677101135254e-01 -2.751385793089866638e-02 -4.125027358531951904e-01
-2.785460054874420166e-01 -1.553355157375335693e-02 -8.670828491449356079e-02
-2.721496522426605225e-01 -5.707839876413345337e-02 -5.725641548633575439e-02
-3.255791366100311279e-01 -7.809125632047653198e-02 -8.934798836708068848e-02
-3.258461058139801025e-01 -8.064550161361694336e-02 -7.510149478912353516e-02
-3.234732151031494141e-01 -1.072742044925689697e-01 1.013731658458709717e-01
-2.926934063434600830e-01 -7.471576333045959473e-02 4.676177203655242920e-01
-3.127513229846954346e-01 -6.239023432135581970e-02 -4.471159577369689941e-01
-3.175647556781768799e-01 -1.249133944511413574e-01 -2.951140701770782471e-02
-3.132285773754119873e-01 -4.594292491674423218e-02 -3.408379852771759033e-01
-3.162872791290283203e-01 -1.012320071458816528e-01 3.498200476169586182e-01
-3.225513100624084473e-01 -4.948075860738754272e-02 9.781832993030548096e-02
-2.962055504322052002e-01 -1.280056089162826538e-01 -7.995342463254928589e-02
-3.144349753856658936e-01 -4.410834982991218567e-02 -2.963836491107940674e-01
-3.009265661239624023e-01 -8.872622996568679810e-02 4.654710590839385986e-01
-2.804886996746063232e-01 -8.916724473237991333e-02 1.485991030931472778e-01
-3.221836090087890625e-01 -8.856214582920074463e-02 3.039954900741577148e-01
-3.053074777126312256e-01 -1.088929548859596252e-02 1.711734235286712646e-01
-2.823407649993896484e-01 -1.033699139952659607e-02 1.333936303853988647e-01
-2.808507680892944336e-01 -5.864686146378517151e-02 3.336627781391143799e-01
-3.263468742370605469e-01 -8.512990176677703857e-02 7.326558232307434082e-02
-2.802474200725555420e-01 -1.967499032616615295e-02 2.211969047784805298e-01
-3.115965425968170166e-01 -1.082705631852149963e-01 3.386726677417755127e-01
-2.791447043418884277e-01 -7.415019720792770386e-02 2.276058942079544067e-01
-2.748723030090332031e-01 -7.312022149562835693e-02 -3.131637573242187500e-01
-2.725173234939575195e-01 -3.955138474702835083e-02 -1.041566729545593262e-01
-2.734776437282562256e-01 -4.804630205035209656e-02 -2.699078917503356934e-01
-3.210265338420867920e-01 -5.595311522483825684e-02 -1.851518154144287109e-01
-3.202184736728668213e-01 -6.525823473930358887e-02 -2.845208048820495605e-01
-2.827896177768707275e-01 -6.888087838888168335e-02 -5.324219465255737305e-01
-2.787530422210693359e-01 -3.362394496798515320e-02 2.722445130348205566e-01
-2.920826971530914307e-01 -7.776842266321182251e-02 4.500749707221984863e-01
-3.221759200096130371e-01 -1.072004735469818115e-01 1.700740903615951538e-01
-2.730871140956878662e-01 -6.172897294163703918e-02 2.333834022283554077e-02
-2.796734571456909180e-01 -3.891625627875328064e-02 3.110199570655822754e-01
-2.790350317955017090e-01 -9.487521648406982422e-02 -7.948389276862144470e-03
-2.752020359039306641e-01 -6.228005141019821167e-02 -3.640175163745880127e-01
-3.140071332454681396e-01 -9.444657713174819946e-02 -4.745740592479705811e-01
-3.039983808994293213e-01 -5.495991557836532593e-02 -5.271345376968383789e-01
-2.992386519908905029e-01 -1.111103445291519165e-01 2.937869429588317871e-01
-3.122591078281402588e-01 -2.524548396468162537e-02 -1.072265207767486572e-01
-3.072696626186370850e-01 -1.597089320421218872e-02 2.674381434917449951e-01
-2.775647640228271484e-01 -8.781389147043228149e-02 -3.247815072536468506e-01
-2.741419374942779541e-01 -6.826483458280563354e-02 -2.982978224754333496e-01
-3.146505057811737061e-01 -9.596326947212219238e-02 3.993562757968902588e-01
-3.191899657249450684e-01 -4.986489564180374146e-02 3.431841731071472168e-01
-3.197133541107177734e-01 -1.140907853841781616e-01 -2.568557560443878174e-01
-2.732003927230834961e-01 -7.017576694488525391e-02 -7.061484456062316895e-02
-3.167513906955718994e-01 -3.037838637828826904e-02 7.146628201007843018e-02
-2.776192426681518555e-01 -1.962665840983390808e-02 -1.521994173526763916e-01
-2.789874374866485596e-01 -3.727717697620391846e-02 -3.867925405502319336e-01
-3.025522530078887939e-01 -2.096790075302124023e-02 -2.797809839248657227e-01
-2.760568857192993164e-01 -7.132627069950103760e-02 -3.769856691360473633e-01
-3.009888529777526855e-01 -2.782691642642021179e-02 -3.755421340465545654e-01
-2.866453528404235840e-01 -1.102801263332366943e-01 -3.822706341743469238e-01
-3.245815932750701904e-01 -9.434664994478225708e-02 -1.689939051866531372e-01
-2.987138032913208008e-01 -1.246054172515869141e-01 9.515292942523956299e-02
-2.837451100349426270e-01 -5.919792130589485168e-02 3.904696404933929443e-01
-3.152785301208496094e-01 -7.457403838634490967e-02 -4.416017830371856689e-01
-2.915658950805664062e-01 -1.174866184592247009e-01 8.507187664508819580e-02
-2.851276695728302002e-01 -5.590164288878440857e-02 -5.416001677513122559e-01
-3.247965276241302490e-01 -6.230757385492324829e-02 1.145054697990417480e-01
-2.902786433696746826e-01 -1.194216087460517883e-01 -6.853943690657615662e-03
-2.825425863265991211e-01 -9.681059420108795166e-02 1.316094398498535156e-01
-3.040358722209930420e-01 -1.628894731402397156e-02 -1.815594583749771118e-01
-2.776008844375610352e-01 -9.028606116771697998e-02 -2.889093160629272461e-01
-3.164727091789245605e-01 -5.932297930121421814e-02 4.440438151359558105e-01
-3.262056112289428711e-01 -8.141519874334335327e-02 1.053958535194396973e-01
-3.141296207904815674e-01 -6.493084877729415894e-02 4.826370775699615479e-01
-3.162922561168670654e-01 -1.060719490051269531e-01 -4.026768207550048828e-01
-3.023009598255157471e-01 -1.978736743330955505e-02 4.020773172378540039e-01
-2.996392250061035156e-01 -1.309489309787750244e-01 -1.263234913349151611e-01
-3.210239410400390625e-01 -8.842460811138153076e-02 3.345530331134796143e-01
-2.900637984275817871e-01 -1.999407261610031128e-02 -3.454914391040802002e-01
-3.111095726490020752e-01 -1.888532191514968872e-02 1.619334518909454346e-01
-3.180026113986968994e-01 -3.988305479288101196e-02 -1.203252822160720825e-01
-3.070000112056732178e-01 -1.236699521541595459e-02 7.800230383872985840e-02
-3.061310946941375732e-01 -2.737901732325553894e-02 -3.019304275512695312e-01
-2.780432999134063721e-01 -9.486233443021774292e-02 -1.296128481626510620e-01
-2.817108035087585449e-01 -8.678735047578811646e-02 2.113825678825378418e-01
-2.907083034515380859e-01 -1.225576996803283691e-01 -1.856555193662643433e-01
-2.890363335609436035e-01 -1.012401655316352844e-02 -2.024421989917755127e-01
-3.062950968742370605e-01 -2.704757824540138245e-02 4.310257136821746826e-01
-2.756753861904144287e-01 -7.568817585706710815e-02 -3.392201960086822510e-01
-2.772188186645507812e-01 -8.759048581123352051e-02 -3.067272305488586426e-01
-3.129265606403350830e-01 -4.600387439131736755e-02 4.600507318973541260e-01
-2.928095459938049316e-01 -1.139304041862487793e-02 3.254066407680511475e-01
-3.150535523891448975e-01 -4.840197414159774780e-02 -3.173772096633911133e-01
-2.847672998905181885e-01 -2.081961184740066528e-02 3.326921463012695312e-01
-2.755210101604461670e-01 -4.275801032781600952e-02 -3.313262164592742920e-01
-2.952382862567901611e-01 -3.610804304480552673e-02 -4.780337214469909668e-01
-3.206582069396972656e-01 -7.829032838344573975e-02 -3.219496607780456543e-01
-2.883948683738708496e-01 -1.182711720466613770e-01 -7.394163310527801514e-02
-2.749249041080474854e-01 -2.759622409939765930e-02 6.407712399959564209e-02
-3.166029751300811768e-01 -3.340894728899002075e-02 2.542002499103546143e-01
-3.095124959945678711e-01 -1.293760240077972412e-01 -2.715426981449127197e-01
-2.775422930717468262e-01 -9.295164048671722412e-02 -1.996309608221054077e-01
-3.242284357547760010e-01 -8.583955466747283936e-02 2.412895113229751587e-01
-3.255944550037384033e-01 -7.852128148078918457e-02 1.707975715398788452e-01
-2.886377871036529541e-01 -1.092608273029327393e-01 -4.438822865486145020e-01
-3.078784644603729248e-01 -1.323021650314331055e-01 -6.867507100105285645e-02
-3.223423063755035400e-01 -5.913462489843368530e-02 -1.520939767360687256e-01
-2.797784507274627686e-01 -9.309273958206176758e-02 -3.687469959259033203e-01
-3.244682848453521729e-01 -9.026376903057098389e-02 2.130444645881652832e-01
-3.236033618450164795e-01 -6.022411584854125977e-02 -8.367055654525756836e-02
-3.121135234832763672e-01 -1.229687184095382690e-01 1.641820967197418213e-01
-3.227657377719879150e-01 -1.132341027259826660e-01 -6.048920378088951111e-02
-3.187229037284851074e-01 -6.505887210369110107e-02 4.107501506805419922e-01
-2.748944461345672607e-01 -8.079569041728973389e-02 -2.165727913379669189e-01
-3.185665607452392578e-01 -9.312635660171508789e-02 3.632845580577850342e-01
-2.770470976829528809e-01 -3.975230082869529724e-02 -3.588244318962097168e-01
-2.792297601699829102e-01 -1.404636725783348083e-02 6.918036937713623047e-02
-2.870925068855285645e-01 -3.079199790954589844e-02 4.191126525402069092e-01
-2.857019901275634766e-01 -1.032391190528869629e-02 2.309094518423080444e-01
-3.220165967941284180e-01 -4.797925800085067749e-02 1.516449898481369019e-01
-2.754087150096893311e-01 -3.054912760853767395e-02 1.308696866035461426e-01
-3.254464268684387207e-01 -7.276559621095657349e-02 -6.431825459003448486e-02
-3.022513687610626221e-01 -2.723268419504165649e-02 -3.560068011283874512e-01
-2.855089306831359863e-01 -6.614010781049728394e-02 4.034510254859924316e-01
-3.060848712921142578e-01 -2.501735091209411621e-02 4.160534441471099854e-01
-3.199030756950378418e-01 -1.153408735990524292e-01 -2.341843396425247192e-01
-2.743441164493560791e-01 -3.260055184364318848e-02 8.374127745628356934e-02
-3.069260418415069580e-01 -1.265007629990577698e-02 3.368591144680976868e-02
-2.969303131103515625e-01 -4.444204270839691162e-03 4.803430289030075073e-03
-3.144960701465606689e-01 -8.786509931087493896e-02 4.377636015415191650e-01
-2.787315845489501953e-01 -9.665720909833908081e-02 -2.248305976390838623e-01
-2.862133383750915527e-01 -3.505546972155570984e-02 -4.585639536380767822e-01
-2.951604127883911133e-01 -7.476852834224700928e-02 4.885137975215911865e-01
-3.114168941974639893e-01 -2.775652706623077393e-02 -1.844242066144943237e-01
-2.823326885700225830e-01 -4.318841919302940369e-02 -4.690514206886291504e-01
-2.867159843444824219e-01 -8.170021325349807739e-02 -5.662123560905456543e-01
-2.863121032714843750e-01 -1.690914854407310486e-02 -2.925765514373779297e-01
-2.822985649108886719e-01 -4.120425507426261902e-02 3.710583448410034180e-01
-2.804068028926849365e-01 -4.396783187985420227e-02 -4.466476440429687500e-01
-3.051175475120544434e-01 -1.322401612997055054e-01 -2.039843797683715820e-01
-2.746264934539794922e-01 -5.450489744544029236e-02 -3.393757641315460205e-01
-2.759389281272888184e-01 -7.158998399972915649e-02 1.245613843202590942e-01
-3.197413682937622070e-01 -5.491345003247261047e-02 3.556863963603973389e-01
-3.008865714073181152e-01 -1.314960718154907227e-01 -1.834892183542251587e-01
-2.773259282112121582e-01 -2.122414484620094299e-02 -1.718920618295669556e-01
-2.796309292316436768e-01 -8.251143991947174072e-02 1.826265007257461548e-01
-2.795849442481994629e-01 -4.027781635522842407e-02 -4.151216447353363037e-01
-2.871523201465606689e-01 -6.599811464548110962e-02 -5.749917626380920410e-01
-3.253001272678375244e-01 -7.686668634414672852e-02 1.914649307727813721e-01
-3.230466544628143311e-01 -6.578107178211212158e-02 -1.737203299999237061e-01
-2.736683189868927002e-01 -6.731718778610229492e-02 -2.715856432914733887e-01
-3.227192759513854980e-01 -1.041018664836883545e-01 -2.192111611366271973e-01
-3.189087808132171631e-01 -3.632133454084396362e-02 1.185415238142013550e-01
-3.249876499176025391e-01 -1.017888337373733521e-01 -7.559500634670257568e-02
-2.871617078781127930e-01 -1.064845919609069824e-01 1.464473754167556763e-01
-2.896464169025421143e-01 -5.034424364566802979e-03 -7.475626468658447266e-02
-3.035615980625152588e-01 -1.257681101560592651e-02 2.839031815528869629e-01
-2.794736027717590332e-01 -2.068603411316871643e-02 -2.386151105165481567e-01
-2.885206341743469238e-01 -1.175320148468017578e-01 -2.950866520404815674e-01
-2.799553871154785156e-01 -1.003838405013084412e-01 -9.615469723939895630e-02
-3.210248649120330811e-01 -1.180297806859016418e-01 -1.106400042772293091e-03
-3.147856295108795166e-01 -2.762525156140327454e-02 -2.990681305527687073e-02
-2.757267057895660400e-01 -8.595374226570129395e-02 -1.483034342527389526e-01
-3.215748965740203857e-01 -8.876722306013107300e-02 3.196993172168731689e-01
-3.153988420963287354e-01 -1.268601715564727783e-01 9.957369416952133179e-03
-3.238506317138671875e-01 -1.008340790867805481e-01 -1.812791079282760620e-01
-2.917574942111968994e-01 -8.654832839965820312e-02 4.046116471290588379e-01
-3.094337582588195801e-01 -7.350813597440719604e-02 -5.283532142639160156e-01
-3.013961017131805420e-01 -6.946133077144622803e-02 5.311301946640014648e-01
-3.179553747177124023e-01 -6.842648237943649292e-02 -3.639908432960510254e-01
-2.847380042076110840e-01 -5.203631147742271423e-02 4.163735210895538330e-01
-3.122608661651611328e-01 -7.764294743537902832e-02 4.870855510234832764e-01
-3.188486993312835693e-01 -1.121619045734405518e-01 2.108861654996871948e-01
-3.088564872741699219e-01 -7.791051268577575684e-02 -5.419423580169677734e-01
-3.156366348266601562e-01 -6.331843882799148560e-02 -3.957642614841461182e-01
-2.800068855285644531e-01 -4.558350145816802979e-02 3.266850709915161133e-01
-3.095836937427520752e-01 -3.057260438799858093e-02 -2.711981236934661865e-01
-2.901497781276702881e-01 -1.215035468339920044e-01 -1.107697784900665283e-01
-3.017989993095397949e-01 -1.311861872673034668e-01 -5.266313254833221436e-02
-3.236128091812133789e-01 -5.691085755825042725e-02 1.737535744905471802e-01
-2.735160589218139648e-01 -5.172588676214218140e-02 -2.832865118980407715e-01
-3.010224997997283936e-01 -1.202550232410430908e-01 1.975647509098052979e-01
-2.792014777660369873e-01 -8.757059276103973389e-02 -3.994788527488708496e-01
-2.862951755523681641e-01 -6.277405470609664917e-02 4.244185090065002441e-01
-3.103043437004089355e-01 -6.328371912240982056e-02 5.174316763877868652e-01
-2.770196795463562012e-01 -3.345613554120063782e-02 2.174486666917800903e-01
-2.795462906360626221e-01 -1.311949267983436584e-02 -5.702859163284301758e-02
-3.090959191322326660e-01 -5.838986486196517944e-02 -4.856699705123901367e-01
-2.777101099491119385e-01 -9.283658862113952637e-02 -7.856324315071105957e-02
-2.913470864295959473e-01 -1.064066663384437561e-01 2.413547486066818237e-01
-2.761174440383911133e-01 -8.100927621126174927e-02 3.861379250884056091e-02
-2.955951392650604248e-01 -2.906478568911552429e-02 -4.239956438541412354e-01
-3.250654339790344238e-01 -6.371648609638214111e-02 8.395515382289886475e-02
-2.850883603096008301e-01 -6.215501576662063599e-03 9.501561522483825684e-02
-3.126603364944458008e-01 -1.235395222902297974e-01 1.488346755504608154e-01
-2.818397581577301025e-01 -9.425185620784759521e-03 -3.401759639382362366e-02
-2.821427285671234131e-01 -1.343738287687301636e-02 1.946478039026260376e-01
-3.137956857681274414e-01 -1.103632152080535889e-01 3.042683601379394531e-01
-3.001735806465148926e-01 -9.861391037702560425e-03 -1.232922077178955078e-01
-3.058754503726959229e-01 -1.758608967065811157e-02 -1.632020920515060425e-01
-2.863709926605224609e-01 -8.751595020294189453e-02 3.159283101558685303e-01
-3.072089552879333496e-01 -8.185353130102157593e-02 -5.619161725044250488e-01
-3.186243474483489990e-01 -1.156621277332305908e-01 -2.776527702808380127e-01
-3.258825540542602539e-01 -9.451004862785339355e-02 -4.579210653901100159e-02
-2.789082527160644531e-01 -2.247807756066322327e-02 2.066331505775451660e-01
-3.203113079071044922e-01 -1.134169772267341614e-01 1.534892171621322632e-01
-2.732143998146057129e-01 -3.347948938608169556e-02 -5.333308130502700806e-02
-3.173951506614685059e-01 -3.446675837039947510e-02 -4.158284515142440796e-02
-3.071973323822021484e-01 -1.266684085130691528e-01 1.196622699499130249e-01
-3.133451044559478760e-01 -2.261715009808540344e-02 9.148932993412017822e-02
-2.847939431667327881e-01 -7.942949235439300537e-02 3.354951739311218262e-01
-3.006564676761627197e-01 -8.999785780906677246e-02 -5.978358387947082520e-01
-3.027065396308898926e-01 -4.073956608772277832e-02 -4.624310433864593506e-01
-3.170742690563201904e-01 -3.142541646957397461e-02 1.468915790319442749e-01
-3.204959928989410400e-01 -6.333567947149276733e-02 -2.638292312622070312e-01
-3.257399797439575195e-01 -7.472200691699981689e-02 -4.901833832263946533e-02
-3.226292729377746582e-01 -5.619818717241287231e-02 -1.002414226531982422e-01
-3.236839771270751953e-01 -8.782538026571273804e-02 2.571474313735961914e-01
-2.972639501094818115e-01 -6.271068006753921509e-03 2.220945209264755249e-01
-3.217173814773559570e-01 -9.200930595397949219e-02 -2.995635867118835449e-01
-2.725084424018859863e-01 -6.399571150541305542e-02 -1.633840352296829224e-01
-3.153954744338989258e-01 -1.275668889284133911e-01 -1.485002338886260986e-01
-3.228830695152282715e-01 -5.952938646078109741e-02 -1.251825392246246338e-01
-3.166384696960449219e-01 -1.180749535560607910e-01 -3.091934621334075928e-01
-3.060545325279235840e-01 -4.075821861624717712e-02 -4.251918792724609375e-01
-2.865800857543945312e-01 -9.657461196184158325e-02 -5.113006234169006348e-01
-3.083610534667968750e-01 -1.129154115915298462e-01 -4.786356389522552490e-01
-3.056688308715820312e-01 -1.184900254011154175e-01 -4.562570154666900635e-01
-3.067591786384582520e-01 -1.811932399868965149e-02 3.226698637008666992e-01
-2.815473973751068115e-01 -1.041449159383773804e-01 -6.936249136924743652e-02
-2.986112833023071289e-01 -6.618592888116836548e-03 -5.827263742685317993e-02
-2.743279933929443359e-01 -6.332002580165863037e-02 -3.251854181289672852e-01
-3.088965415954589844e-01 -9.318004548549652100e-02 -5.415797829627990723e-01
-3.083943128585815430e-01 -3.985946625471115112e-02 -3.843435943126678467e-01
-2.762817740440368652e-01 -2.033282071352005005e-02 -5.237579345703125000e-03
-3.188296854496002197e-01 -8.271290361881256104e-02 -3.798361718654632568e-01
-2.757300138473510742e-01 -5.468327552080154419e-02 1.933771222829818726e-01
-3.210119307041168213e-01 -5.422554165124893188e-02 3.069792687892913818e-01
-3.020183742046356201e-01 -3.952947258949279785e-02 5.193471312522888184e-01
-2.727135717868804932e-01 -6.570554524660110474e-02 -1.801670640707015991e-01
-3.232243061065673828e-01 -7.626953721046447754e-02 -2.229845523834228516e-01
-2.724766731262207031e-01 -6.060077622532844543e-02 -3.417560830712318420e-02
-2.748786509037017822e-01 -4.349554702639579773e-02 -3.124752044677734375e-01
-2.871930301189422607e-01 -9.496803581714630127e-02 -5.285197496414184570e-01
-2.979852259159088135e-01 -5.585097894072532654e-02 5.365486145019531250e-01
-3.111366033554077148e-01 -3.487845137715339661e-02 -2.849447727203369141e-01
-2.827164530754089355e-01 -6.018966808915138245e-02 3.692672550678253174e-01
-2.849672734737396240e-01 -1.040648221969604492e-01 1.139167994260787964e-01
-2.881390750408172607e-01 -1.186808347702026367e-01 -2.005991339683532715e-01
-3.228118419647216797e-01 -5.064741149544715881e-02 7.120972871780395508e-02
-2.780192196369171143e-01 -1.767720282077789307e-02 9.387020766735076904e-02
-2.787530720233917236e-01 -9.537692368030548096e-02 -4.457157850265502930e-02
-2.803225219249725342e-01 -5.339470505714416504e-02 -4.782098233699798584e-01
-3.057833611965179443e-01 -1.298041641712188721e-01 -2.945288121700286865e-01
-3.238181769847869873e-01 -5.894679576158523560e-02 -4.439391940832138062e-02
-2.732427120208740234e-01 -4.449591785669326782e-02 -2.386854290962219238e-01
-3.041698932647705078e-01 -6.863332539796829224e-02 -5.694182515144348145e-01
-3.184655308723449707e-01 -1.202994585037231445e-01 9.001809358596801758e-02
-2.725536823272705078e-01 -6.539981067180633545e-02 -1.266076117753982544e-01
-3.240348398685455322e-01 -8.170351386070251465e-02 -2.013470232486724854e-01
-2.730848491191864014e-01 -5.236337706446647644e-02 6.382456421852111816e-02
-2.752767801284790039e-01 -2.443199977278709412e-02 2.704527974128723145e-02
-2.719658315181732178e-01 -5.183515697717666626e-02 -1.270840615034103394e-01
-2.723857462406158447e-01 -4.863327741622924805e-02 4.033114761114120483e-03
-3.100568354129791260e-01 -1.742750033736228943e-02 1.881302893161773682e-02
-2.801043391227722168e-01 -7.257734239101409912e-02 -4.851989150047302246e-01
-2.930541038513183594e-01 -1.254915595054626465e-01 -1.567432731389999390e-01
-3.184152543544769287e-01 -4.057575017213821411e-02 2.819900512695312500e-01
-2.989223599433898926e-01 -4.910886287689208984e-03 6.973280012607574463e-02
-3.213125765323638916e-01 -6.545739620923995972e-02 -2.472275793552398682e-01
-3.253865838050842285e-01 -6.676866114139556885e-02 2.302731573581695557e-02
-2.811424434185028076e-01 -4.897437617182731628e-02 3.519861698150634766e-01
-2.863169610500335693e-01 -2.293515577912330627e-02 -3.614920079708099365e-01
-2.945800721645355225e-01 -1.168804764747619629e-01 1.630069762468338013e-01
-2.743960618972778320e-01 -2.727724984288215637e-02 -7.424884289503097534e-02
-2.851638793945312500e-01 -1.065710335969924927e-01 7.977011799812316895e-02
-2.981858849525451660e-01 -5.651672184467315674e-02 -5.691846013069152832e-01
-2.915295660495758057e-01 -4.900797456502914429e-02 4.980449974536895752e-01
-2.764601409435272217e-01 -8.767527341842651367e-02 -6.390461325645446777e-02
-3.199990689754486084e-01 -9.166651964187622070e-02 -3.520148396492004395e-01
-2.956170737743377686e-01 -1.270549744367599487e-01 -2.580924034118652344e-01
-3.224511742591857910e-01 -5.263653397560119629e-02 -5.639430135488510132e-02
-2.721948027610778809e-01 -4.637584835290908813e-02 -1.492474526166915894e-01
-2.755845785140991211e-01 -7.946581393480300903e-02 2.371904626488685608e-02
-2.804130017757415771e-01 -2.557892352342605591e-02 -3.184220492839813232e-01
-2.773798108100891113e-01 -3.664531931281089783e-02 2.415872961282730103e-01
-3.096855580806732178e-01 -2.553182095289230347e-02 3.657478392124176025e-01
-3.252906501293182373e-01 -6.793165206909179688e-02 1.412291526794433594e-01
-2.776182889938354492e-01 -1.984966173768043518e-02 1.158977150917053223e-01
-2.955369949340820312e-01 -3.588251769542694092e-03 3.596355393528938293e-02
-2.780638635158538818e-01 -7.062674313783645630e-02 -4.417984187602996826e-01
-3.170083165168762207e-01 -3.225133195519447327e-02 -2.846095710992813110e-03
-2.988403737545013428e-01 -3.314894437789916992e-02 4.992991983890533447e-01
-2.902188003063201904e-01 -1.134189218282699585e-01 1.228489875793457031e-01
-2.833048105239868164e-01 -9.406188875436782837e-02 -4.667373895645141602e-01
-2.838213741779327393e-01 -2.062892541289329529e-02 3.146221935749053955e-01
-2.943883836269378662e-01 -1.125856041908264160e-01 2.195359915494918823e-01
-2.755513787269592285e-01 -8.325318992137908936e-02 -2.427029162645339966e-01
-3.240790367126464844e-01 -6.965631991624832153e-02 2.479539364576339722e-01
-2.759290337562561035e-01 3.174989819526672363e-01 3.033149242401123047e-01
-2.764873504638671875e-01 4.940814971923828125e-01 3.286545872688293457e-01
-3.180079162120819092e-01 2.374190390110015869e-01 4.603479206562042236e-01
-3.199543356895446777e-01 2.513268589973449707e-01 3.849472105503082275e-01
-2.763300836086273193e-01 2.211615145206451416e-01 5.062956809997558594e-01
-2.863350808620452881e-01 4.684407114982604980e-01 6.152777671813964844e-01
-2.877623140811920166e-01 6.982216238975524902e-01 4.154481887817382812e-01
-2.847374975681304932e-01 5.421637892723083496e-01 5.600870251655578613e-01
-2.820914983749389648e-01 2.108411788940429688e-01 6.177504062652587891e-01
