2.056487649679183960e-01 -1.425823196768760681e-02 -1.628991961479187012e-01
3.218792974948883057e-01 -3.920197486877441406e-02 5.033981800079345703e-02
3.352481722831726074e-01 -7.236999273300170898e-02 -1.426327973604202271e-01
4.637770354747772217e-02 -1.001801937818527222e-01 1.235666796565055847e-01
1.086791679263114929e-01 -8.910037577152252197e-02 2.294448614120483398e-01
3.133614063262939453e-01 -3.171129524707794189e-02 -1.630677096545696259e-02
3.509927392005920410e-01 -6.128741055727005005e-02 2.321200631558895111e-02
4.950719326734542847e-02 -6.270445883274078369e-02 1.890762746334075928e-01
1.340536624193191528e-01 -9.369216859340667725e-02 2.366387099027633667e-01
1.972331255674362183e-01 -1.370565295219421387e-01 -5.199915915727615356e-02
3.032460808753967285e-02 -3.483493998646736145e-02 -1.561581045389175415e-01
3.556929230690002441e-01 -7.068742066621780396e-02 -4.108271747827529907e-02
1.378285884857177734e-01 -1.132003962993621826e-01 -2.130719423294067383e-01
2.729982137680053711e-01 -1.275893300771713257e-01 7.221645861864089966e-02
1.719180047512054443e-01 -4.759560152888298035e-02 -2.801752388477325439e-01
2.950215339660644531e-01 -1.210953444242477417e-01 -9.620065242052078247e-02
2.780942618846893311e-01 -1.851883530616760254e-02 -2.562785148620605469e-02
3.560304045677185059e-01 -7.686185836791992188e-02 2.849548123776912689e-02
2.211416363716125488e-01 -1.626878231763839722e-02 1.244674250483512878e-01
2.783640027046203613e-01 -1.889433339238166809e-02 8.418416604399681091e-03
3.255684375762939453e-01 -3.999084979295730591e-02 -6.252859532833099365e-02
3.262283802032470703e-01 -1.138807237148284912e-01 1.463676244020462036e-02
1.240992695093154907e-01 -9.072560071945190430e-02 -2.653565704822540283e-01
1.695675402879714966e-01 -3.505473583936691284e-02 -2.578405439853668213e-01
1.944909244775772095e-01 -6.474778056144714355e-03 6.572502851486206055e-02
2.949688732624053955e-01 -2.996183559298515320e-02 -1.129237562417984009e-01
2.177061736583709717e-01 -5.763322114944458008e-03 -2.149808220565319061e-02
1.901637911796569824e-01 -2.667730674147605896e-02 -2.295115441083908081e-01
3.837153315544128418e-02 -9.784137457609176636e-02 -1.464500874280929565e-01
9.720600396394729614e-02 -1.081498861312866211e-01 1.733716428279876709e-01
2.152366936206817627e-02 -3.598058968782424927e-02 9.556751698255538940e-02
2.962192595005035400e-01 -2.452259883284568787e-02 -1.600380986928939819e-02
2.768192887306213379e-01 -1.301756054162979126e-01 5.510147660970687866e-03
6.223022937774658203e-04 -6.766296923160552979e-02 8.096411824226379395e-02
-2.295538783073425293e-03 -4.593914747238159180e-02 4.286707192659378052e-02
1.130241453647613525e-01 -3.557875752449035645e-03 -6.537724286317825317e-02
1.026816293597221375e-01 -9.420509636402130127e-02 -2.458253204822540283e-01
4.956971108913421631e-02 -1.105827987194061279e-01 -9.769143164157867432e-02
1.029103249311447144e-01 -3.620825707912445068e-03 -1.917152106761932373e-02
2.691549658775329590e-01 -1.129720211029052734e-01 1.659707427024841309e-01
8.168167620897293091e-02 -8.352346718311309814e-03 3.891241550445556641e-02
1.710549294948577881e-01 -1.341048330068588257e-01 7.504682242870330811e-02
8.972318470478057861e-02 -5.446925759315490723e-03 -8.685160428285598755e-04
2.956350147724151611e-02 -1.056262105703353882e-01 -4.662521928548812866e-02
5.255880206823348999e-02 -1.315113529562950134e-02 8.658731356263160706e-03
2.716865539550781250e-01 -2.071744203567504883e-02 7.040948420763015747e-02
1.850870251655578613e-01 -1.238110288977622986e-02 -1.644437760114669800e-01
1.740365028381347656e-01 -9.019234031438827515e-02 -2.783791422843933105e-01
3.047719001770019531e-01 -7.804332673549652100e-02 -2.056581228971481323e-01
2.225852608680725098e-01 -1.291146278381347656e-01 1.195340827107429504e-01
7.714655995368957520e-02 -8.261129260063171387e-03 -6.805814802646636963e-02
1.199899166822433472e-01 -1.270399838685989380e-01 -1.162901893258094788e-01
2.177142649888992310e-01 -9.781989455223083496e-02 2.358543127775192261e-01
1.781256496906280518e-02 -6.785014271736145020e-02 1.321961730718612671e-01
3.075054287910461426e-01 -5.951050296425819397e-02 -1.914745867252349854e-01
2.055818587541580200e-01 -6.214611232280731201e-03 4.612103849649429321e-02
4.015809297561645508e-02 -1.098593771457672119e-01 2.914325334131717682e-02
1.535546481609344482e-01 -1.455586776137351990e-02 1.449355781078338623e-01
2.638221383094787598e-01 -1.311119496822357178e-01 -6.246773153543472290e-02
2.778466343879699707e-01 -1.250695884227752686e-01 -1.023042574524879456e-01
3.762263059616088867e-02 -4.592487215995788574e-02 -1.965652257204055786e-01
2.587401866912841797e-02 -5.779833719134330750e-02 -1.880319416522979736e-01
1.186223328113555908e-01 -1.289943307638168335e-01 -9.216734766960144043e-02
2.774417698383331299e-01 -1.160548403859138489e-01 1.436217427253723145e-01
2.283383905887603760e-02 -2.527347952127456665e-02 3.175745159387588501e-02
3.070641756057739258e-01 -3.046164661645889282e-02 -6.457569450139999390e-02
1.676325052976608276e-01 -1.295365989208221436e-01 1.179132089018821716e-01
1.946008950471878052e-01 -3.830522298812866211e-03 1.843364723026752472e-02
6.517653167247772217e-02 -3.440283611416816711e-02 1.685818880796432495e-01
1.070715934038162231e-01 -2.351001650094985962e-02 1.702484488487243652e-01
9.485410898923873901e-02 -1.226332485675811768e-01 8.757713437080383301e-02
2.554382681846618652e-01 -1.250850856304168701e-01 -1.375630348920822144e-01
3.562611043453216553e-01 -6.928157806396484375e-02 -2.050009928643703461e-02
1.500532776117324829e-01 -9.413740038871765137e-02 2.418868988752365112e-01
1.040057837963104248e-02 -9.187861531972885132e-02 -7.521525025367736816e-02
2.788152992725372314e-01 -2.265494316816329956e-02 -1.008709818124771118e-01
2.570706009864807129e-01 -1.241920590400695801e-01 1.248834505677223206e-01
2.814922332763671875e-01 -6.036410480737686157e-02 -2.306967377662658691e-01
3.047257661819458008e-01 -1.221658438444137573e-01 -4.288870096206665039e-02
1.345993429422378540e-01 -2.663992345333099365e-03 2.962290309369564056e-02
3.352653980255126953e-01 -1.091932952404022217e-01 -1.266364008188247681e-02
2.193379551172256470e-01 -3.456047922372817993e-02 -2.390015721321105957e-01
2.249133288860321045e-01 -8.917883038520812988e-03 4.867931455373764038e-02
1.444521695375442505e-01 -1.315900087356567383e-01 -1.014340966939926147e-01
1.998611092567443848e-01 -4.384703934192657471e-03 -6.000934541225433350e-02
3.411695063114166260e-01 -8.969657123088836670e-02 9.374720603227615356e-02
1.971941292285919189e-01 -1.117734983563423157e-02 -1.480005383491516113e-01
2.459519207477569580e-01 -1.584197580814361572e-02 -1.210773661732673645e-01
2.620442211627960205e-02 -8.746404945850372314e-02 -1.550614982843399048e-01
2.168847471475601196e-01 -5.714813992381095886e-02 -2.786232233047485352e-01
8.873281627893447876e-02 -6.109178066253662109e-03 1.654971577227115631e-02
1.123607456684112549e-01 -1.152680590748786926e-01 1.600281298160552979e-01
3.496736288070678711e-01 -9.215494990348815918e-02 -6.352910399436950684e-02
3.136078119277954102e-01 -1.067308411002159119e-01 1.198893263936042786e-01
5.747941136360168457e-02 -1.216815412044525146e-02 -6.160585582256317139e-02
2.911608815193176270e-01 -2.690035849809646606e-02 6.840620189905166626e-02
1.006597429513931274e-01 -1.282704025506973267e-01 -4.749448597431182861e-02
1.501841843128204346e-01 -8.242685347795486450e-02 2.557162344455718994e-01
6.965516507625579834e-02 -3.476629778742790222e-02 -2.157521396875381470e-01
1.401503831148147583e-01 -1.578226685523986816e-03 2.028942108154296875e-03
3.306724429130554199e-01 -1.023448556661605835e-01 9.088859707117080688e-02
5.548515170812606812e-02 -1.083122044801712036e-01 -1.328254044055938721e-01
1.975315213203430176e-01 -2.275189384818077087e-02 -2.117307186126708984e-01
1.398308277130126953e-01 -1.047231256961822510e-02 1.174212023615837097e-01
1.751362681388854980e-01 -1.360824406147003174e-01 -6.603987514972686768e-02
1.409963816404342651e-01 -4.267081618309020996e-03 5.927033722400665283e-02
2.328076809644699097e-01 -3.371360898017883301e-02 -2.269813716411590576e-01
1.389196962118148804e-01 -1.009590700268745422e-01 -2.512344121932983398e-01
-1.976504921913146973e-03 -4.577059298753738403e-02 -8.681549876928329468e-02
2.016388177871704102e-01 -3.298949822783470154e-02 -2.441066801548004150e-01
2.208735793828964233e-01 -2.939186617732048035e-02 1.878121197223663330e-01
3.184440732002258301e-01 -1.178380474448204041e-01 -1.068230066448450089e-02
2.899223268032073975e-01 -1.006639525294303894e-01 1.777300685644149780e-01
1.973744034767150879e-01 -3.426939249038696289e-03 -1.935918256640434265e-02
-1.546725630760192871e-03 -7.476099580526351929e-02 5.939983576536178589e-02
2.462658286094665527e-02 -2.246855944395065308e-02 -3.821586258709430695e-03
2.016647607088088989e-01 -1.064230874180793762e-01 2.215982824563980103e-01
1.431360244750976562e-01 -1.203361377120018005e-01 1.611479371786117554e-01
2.395173907279968262e-01 -1.357782483100891113e-01 -1.159996353089809418e-02
1.359263807535171509e-01 -2.043822407722473145e-02 -2.109452635049819946e-01
3.206585943698883057e-01 -1.126070469617843628e-01 6.680614501237869263e-02
2.533638179302215576e-01 -1.217530220746994019e-01 1.428086906671524048e-01
1.214138343930244446e-01 -2.285726368427276611e-03 -1.405084505677223206e-03
1.447649896144866943e-01 -2.575467899441719055e-02 1.931163817644119263e-01
1.611473560333251953e-01 -9.934887290000915527e-03 -1.557320803403854370e-01
1.167914494872093201e-01 -1.208215132355690002e-01 -1.597679406404495239e-01
2.515004575252532959e-01 -1.173703745007514954e-02 -2.873807027935981750e-02
3.164271116256713867e-01 -3.350296244025230408e-02 -3.555869311094284058e-02
1.163318604230880737e-01 -1.021056622266769409e-01 -2.364141792058944702e-01
1.697350293397903442e-01 -1.546381786465644836e-02 -1.881845593452453613e-01
-1.029145717620849609e-02 -6.575111299753189087e-02 1.995775662362575531e-02
-1.076132059097290039e-03 -8.528348058462142944e-02 -8.826931938529014587e-03
2.744817137718200684e-01 -1.109230667352676392e-01 -1.855400055646896362e-01
9.278156608343124390e-02 -5.134088546037673950e-02 2.251430600881576538e-01
1.180025637149810791e-01 -4.214629530906677246e-03 -8.580156415700912476e-02
1.185836344957351685e-01 -1.318338215351104736e-01 1.051558181643486023e-02
2.527615427970886230e-01 -2.799871936440467834e-02 1.527795791625976562e-01
6.847861409187316895e-02 -8.769010752439498901e-02 -2.263995409011840820e-01
6.787449866533279419e-02 -1.102551594376564026e-01 -1.486332416534423828e-01
1.308080255985260010e-01 -6.841696798801422119e-03 8.426729589700698853e-02
3.207207322120666504e-01 -4.341473430395126343e-02 8.593741804361343384e-02
4.003493487834930420e-02 -7.192909717559814453e-02 -2.094184756278991699e-01
2.882068455219268799e-01 -8.534750342369079590e-02 -2.237740457057952881e-01
2.475286424160003662e-01 -1.341775357723236084e-01 -4.710055142641067505e-02
2.521957457065582275e-02 -2.513896301388740540e-02 -8.753968775272369385e-02
5.612809211015701294e-02 -1.149393171072006226e-01 4.755553603172302246e-02
2.542184293270111084e-01 -6.075970828533172607e-02 2.307339310646057129e-01
3.409081697463989258e-01 -1.046482324600219727e-01 1.763624139130115509e-02
1.879754215478897095e-01 -2.104795351624488831e-02 1.714378148317337036e-01
2.976056039333343506e-01 -2.727743238210678101e-02 4.514128714799880981e-02
2.381266206502914429e-01 -6.687501817941665649e-02 -2.728548943996429443e-01
2.520452141761779785e-01 -1.334904432296752930e-01 3.461733460426330566e-02
1.258913576602935791e-01 -1.330049037933349609e-01 -2.752557024359703064e-02
1.484646648168563843e-01 -3.857150673866271973e-03 -9.754227101802825928e-02
4.645341634750366211e-02 -1.111089289188385010e-01 -7.868999242782592773e-02
1.331279575824737549e-01 -4.734615981578826904e-02 2.406350225210189819e-01
2.633570134639739990e-01 -8.773539960384368896e-02 -2.467461377382278442e-01
1.721179336309432983e-01 -1.007376611232757568e-01 2.345915883779525757e-01
8.023263514041900635e-02 -3.546240180730819702e-02 1.871651858091354370e-01
2.418590933084487915e-01 -5.232077836990356445e-02 -2.589946091175079346e-01
2.675494849681854248e-01 -3.544770553708076477e-02 -1.954526603221893311e-01
2.320112735033035278e-01 -1.111742854118347168e-02 -1.003506183624267578e-01
2.152117788791656494e-01 -1.137676835060119629e-02 9.343809634447097778e-02
2.661134302616119385e-02 -8.334623277187347412e-02 1.321016997098922729e-01
1.282742917537689209e-01 -1.320972293615341187e-01 4.371876269578933716e-02
3.260541856288909912e-01 -1.106982901692390442e-01 -7.446575164794921875e-02
2.002583742141723633e-01 -1.333009004592895508e-01 9.072367846965789795e-02
8.287830650806427002e-02 -1.154845207929611206e-01 1.182535216212272644e-01
3.168768584728240967e-01 -7.216338813304901123e-02 -1.850101798772811890e-01
1.432441622018814087e-01 -9.876552969217300415e-03 -1.554559916257858276e-01
2.669956684112548828e-01 -1.022127568721771240e-01 -2.189324945211410522e-01
1.459532678127288818e-01 -1.107234805822372437e-01 2.013690471649169922e-01
3.527604937553405762e-01 -7.702180743217468262e-02 -7.446341216564178467e-02
1.566800326108932495e-01 -9.873270988464355469e-02 -2.616082429885864258e-01
1.043466404080390930e-01 -4.755024239420890808e-02 -2.652156949043273926e-01
9.739145636558532715e-03 -6.534254550933837891e-02 -1.512805819511413574e-01
2.408274710178375244e-01 -1.108563616871833801e-01 -2.154710888862609863e-01
3.422366082668304443e-01 -5.057337880134582520e-02 -3.800600767135620117e-02
9.387774020433425903e-02 -7.960572838783264160e-03 -1.035861968994140625e-01
1.818614602088928223e-01 -1.374720335006713867e-01 -3.303407505154609680e-02
3.440019488334655762e-01 -6.743694096803665161e-02 8.662297576665878296e-02
2.229556441307067871e-03 -8.605793863534927368e-02 2.847554348409175873e-02
1.313394904136657715e-01 -1.209234967827796936e-01 1.493695825338363647e-01
2.084615826606750488e-01 -1.764349639415740967e-02 -1.808549761772155762e-01
2.157430201768875122e-01 -1.853816583752632141e-02 1.432220041751861572e-01
2.373760789632797241e-01 -3.604013845324516296e-02 1.974299401044845581e-01
1.961324959993362427e-01 -7.497329264879226685e-03 -1.154843941330909729e-01
9.967033565044403076e-02 -1.075525581836700439e-01 -2.055069208145141602e-01
1.829054802656173706e-01 -1.364271789789199829e-01 4.544750601053237915e-02
2.731541991233825684e-01 -3.151254355907440186e-02 -1.713211685419082642e-01
3.025980591773986816e-01 -8.867798745632171631e-02 1.802428364753723145e-01
7.974345237016677856e-02 -7.598327100276947021e-02 2.199613749980926514e-01
1.503040194511413574e-01 -1.026114970445632935e-01 2.254690527915954590e-01
2.067999690771102905e-01 -4.653282463550567627e-03 -4.338949173688888550e-02
2.190515697002410889e-01 -1.068497672677040100e-01 2.165212929248809814e-01
1.821604669094085693e-01 -1.435135304927825928e-02 1.391213685274124146e-01
3.764222562313079834e-02 -5.409105122089385986e-02 1.667789518833160400e-01
2.146297097206115723e-01 -3.968565911054611206e-02 2.211306691169738770e-01
1.445712745189666748e-01 -1.088235527276992798e-01 -2.315947562456130981e-01
6.960171461105346680e-02 -1.196255832910537720e-01 -7.038018107414245605e-02
9.416698664426803589e-02 -1.178356856107711792e-01 -1.488043665885925293e-01
1.830797493457794189e-01 -1.377186030149459839e-01 -1.038471236824989319e-04
2.224277406930923462e-01 -6.631985306739807129e-03 2.003105357289314270e-03
2.416052818298339844e-01 -1.277149319648742676e-01 1.164793148636817932e-01
1.384272426366806030e-01 -1.308361589908599854e-01 8.115330338478088379e-02
1.886136978864669800e-01 -9.865647554397583008e-02 2.393236905336380005e-01
2.000897824764251709e-01 -1.236991882324218750e-01 -1.789138764142990112e-01
3.119584619998931885e-01 -1.159252673387527466e-01 -8.785147219896316528e-02
6.415032595396041870e-02 -1.463591679930686951e-02 -1.151878908276557922e-01
2.086388319730758667e-01 -1.374408006668090820e-01 1.563119143247604370e-02
9.748960286378860474e-02 -1.278054267168045044e-01 1.777883805334568024e-02
1.070440262556076050e-01 -1.225464046001434326e-01 1.108562573790550232e-01
2.488506436347961426e-01 -1.198166534304618835e-01 -1.742476820945739746e-01
1.496683210134506226e-01 -3.739508241415023804e-02 -2.630577981472015381e-01
1.335830986499786377e-01 -2.568698301911354065e-02 -2.296931594610214233e-01
3.184581100940704346e-01 -9.537833929061889648e-02 -1.612567156553268433e-01
5.116903036832809448e-02 -1.010983139276504517e-01 -1.609526723623275757e-01
1.481904238462448120e-01 -5.796171724796295166e-03 7.888796925544738770e-02
3.199028968811035156e-02 -1.049640774726867676e-01 4.448247700929641724e-02
3.299624919891357422e-01 -4.092419147491455078e-02 -2.761065959930419922e-02
2.978532314300537109e-01 -3.279314935207366943e-02 9.398078918457031250e-02
7.228398323059082031e-02 -1.909148320555686951e-02 -1.598746180534362793e-01
2.307752966880798340e-01 -8.557856082916259766e-03 2.344648726284503937e-02
1.906560361385345459e-01 -3.918485715985298157e-02 2.284478396177291870e-01
7.164292037487030029e-02 -1.165320128202438354e-01 -1.129449233412742615e-01
8.558895438909530640e-02 -1.104278862476348877e-01 1.494971215724945068e-01
5.300544947385787964e-02 -3.631145879626274109e-02 1.580237597227096558e-01
1.039612665772438049e-01 -1.165308654308319092e-01 -1.699292212724685669e-01
1.306412518024444580e-01 -3.173687309026718140e-02 -2.465911209583282471e-01
3.409749865531921387e-01 -5.105146020650863647e-02 -5.811360478401184082e-02
-1.022574305534362793e-02 -5.215108022093772888e-02 -4.346632957458496094e-02
2.516195178031921387e-01 -2.039731293916702271e-02 -1.463135629892349243e-01
8.164848387241363525e-02 -6.021722033619880676e-02 -2.594455182552337646e-01
5.640063434839248657e-02 -3.070440515875816345e-02 -1.879975944757461548e-01
2.933156192302703857e-01 -1.181537359952926636e-01 1.063929870724678040e-01
3.029036521911621094e-01 -4.641798138618469238e-02 -1.719550192356109619e-01
1.486948132514953613e-01 -1.246237605810165405e-01 1.410630345344543457e-01
3.020837604999542236e-01 -1.058949828147888184e-01 1.456007063388824463e-01
3.301299810409545898e-01 -5.540741607546806335e-02 1.055538058280944824e-01
2.253966331481933594e-01 -2.466808632016181946e-02 -2.007957696914672852e-01
3.544040024280548096e-01 -8.785096555948257446e-02 -4.163715615868568420e-02
1.613307297229766846e-01 -1.365660130977630615e-01 -3.130405023694038391e-02
2.523659169673919678e-01 -1.125885695219039917e-01 1.824250817298889160e-01
2.688542008399963379e-01 -1.310117095708847046e-01 -4.628442227840423584e-02
1.777308136224746704e-01 -4.744567349553108215e-02 2.457952946424484253e-01
2.300965785980224609e-01 -1.356298029422760010e-01 -5.372013151645660400e-02
1.669082939624786377e-01 -4.518747329711914062e-03 -1.027217134833335876e-01
1.343693435192108154e-01 -2.372533082962036133e-03 -6.600072979927062988e-02
5.914464592933654785e-02 -4.374283552169799805e-02 1.826407462358474731e-01
4.168704152107238770e-03 -3.402016311883926392e-02 -1.129493582993745804e-02
5.108144879341125488e-02 -1.145496815443038940e-01 -5.137911438941955566e-02
8.054924756288528442e-02 -9.394203871488571167e-02 1.959962546825408936e-01
2.068797200918197632e-01 -1.136990711092948914e-01 1.997480243444442749e-01
2.705372571945190430e-01 -1.310662180185317993e-01 2.094008587300777435e-02
3.525050878524780273e-01 -8.733806014060974121e-02 4.344539344310760498e-02
1.085554137825965881e-01 -1.906987279653549194e-02 -1.939631998538970947e-01
3.227270841598510742e-01 -6.445439159870147705e-02 -1.673847883939743042e-01
9.370621293783187866e-02 -6.425492465496063232e-03 -8.182256668806076050e-02
2.748641967773437500e-01 -6.411605328321456909e-02 2.153573632240295410e-01
3.318302035331726074e-01 -7.370083779096603394e-02 1.308586597442626953e-01
3.517408668994903564e-01 -9.444652497768402100e-02 4.403030499815940857e-03
1.180939227342605591e-01 -1.080631986260414124e-01 -2.193845212459564209e-01
1.575352251529693604e-01 -1.930765807628631592e-03 1.739281602203845978e-02
2.718060612678527832e-01 -1.195433884859085083e-01 -1.506888270378112793e-01
2.361967265605926514e-01 -6.535214185714721680e-02 2.458797544240951538e-01
1.131333038210868835e-01 -1.042138040065765381e-02 -1.469132304191589355e-01
3.433088660240173340e-01 -5.613401159644126892e-02 -7.701703906059265137e-02
2.663462758064270020e-01 -1.273680031299591064e-01 8.786607533693313599e-02
2.283271700143814087e-01 -4.789817333221435547e-02 2.306866198778152466e-01
4.615887999534606934e-03 -5.509389936923980713e-02 -1.339253634214401245e-01
7.765963673591613770e-03 -8.567778021097183228e-02 -1.004847064614295959e-01
2.361472547054290771e-01 -1.236341595649719238e-01 1.463308334350585938e-01
2.211726158857345581e-01 -1.241238415241241455e-01 -1.701337546110153198e-01
2.124841362237930298e-01 -8.774218708276748657e-02 2.506801784038543701e-01
1.349781453609466553e-02 -3.972374275326728821e-02 -1.289259940385818481e-01
7.618215680122375488e-02 -9.557493031024932861e-03 -8.722827583551406860e-02
2.766648828983306885e-01 -1.951471716165542603e-02 3.549969941377639771e-02
3.152104020118713379e-01 -8.804816007614135742e-02 1.604175418615341187e-01
-7.397904992103576660e-03 -7.663309574127197266e-02 -4.030387103557586670e-02
2.705684304237365723e-02 -5.831208080053329468e-02 1.512686163187026978e-01
7.712240517139434814e-02 -1.197231411933898926e-01 -9.716170281171798706e-02
5.267007648944854736e-02 -4.051839187741279602e-02 -2.088029384613037109e-01
1.357413679361343384e-01 -1.445911824703216553e-03 -1.878363825380802155e-02
4.712305963039398193e-02 -1.417271792888641357e-02 -3.370753675699234009e-02
1.137567386031150818e-01 -1.267974451184272766e-02 -1.628939211368560791e-01
2.919539809226989746e-01 -4.342422634363174438e-02 1.549797356128692627e-01
2.535821795463562012e-01 -3.935443609952926636e-02 -2.238939404487609863e-01
2.912624478340148926e-01 -3.484072163701057434e-02 -1.519457697868347168e-01
2.694329023361206055e-01 -1.030224412679672241e-01 1.949537098407745361e-01
1.440773755311965942e-01 -3.570066764950752258e-02 2.215959876775741577e-01
1.567536592483520508e-01 -1.689605414867401123e-03 -5.215931683778762817e-02
2.898374199867248535e-01 -4.905551671981811523e-02 -2.016897648572921753e-01
1.007941141724586487e-01 -3.725546225905418396e-02 -2.464817911386489868e-01
9.014246612787246704e-02 -2.352392673492431641e-02 -1.994264572858810425e-01
1.133008152246475220e-01 -1.305522471666336060e-01 2.572462894022464752e-02
2.471688240766525269e-01 -1.309011131525039673e-01 8.257962018251419067e-02
2.537451386451721191e-01 -1.173189431428909302e-01 1.634535491466522217e-01
3.109840452671051025e-01 -1.060709953308105469e-01 -1.452134102582931519e-01
2.907894849777221680e-01 -1.066487431526184082e-01 1.607887744903564453e-01
4.577195644378662109e-02 -1.786142215132713318e-02 -9.599072486162185669e-02
7.963275164365768433e-02 -1.687056571245193481e-02 1.132109090685844421e-01
5.465619266033172607e-02 -8.158133924007415771e-02 1.854911744594573975e-01
2.795229852199554443e-01 -1.295919418334960938e-01 -2.130125649273395538e-02
1.828861981630325317e-01 -1.120523810386657715e-01 -2.290310412645339966e-01
2.330838739871978760e-01 -1.251352429389953613e-01 -1.575215756893157959e-01
1.678627878427505493e-01 -5.021989345550537109e-03 6.749015301465988159e-02
1.444166302680969238e-01 -1.349202543497085571e-01 -4.155215620994567871e-02
-1.564204692840576172e-03 -3.909184038639068604e-02 -3.734751790761947632e-02
2.493263185024261475e-01 -4.577061906456947327e-02 2.122013270854949951e-01
9.611412882804870605e-03 -3.233394026756286621e-02 -7.026871293783187866e-02
2.612540125846862793e-02 -3.775696456432342529e-02 1.135609075427055359e-01
1.396547555923461914e-01 -7.131721824407577515e-03 -1.326457560062408447e-01
6.019767373800277710e-02 -6.005702167749404907e-02 -2.389490902423858643e-01
1.551386564970016479e-01 -7.227785140275955200e-02 -2.918478250503540039e-01
1.881005465984344482e-01 -1.256163567304611206e-01 1.490906327962875366e-01
3.132995963096618652e-01 -9.135486185550689697e-02 -1.790360212326049805e-01
2.223307043313980103e-01 -1.266222000122070312e-01 1.366154998540878296e-01
1.690238416194915771e-01 -1.255927383899688721e-01 1.453377157449722290e-01
1.619799882173538208e-01 -6.539621949195861816e-02 2.616702616214752197e-01
3.406723737716674805e-01 -7.870087027549743652e-02 1.065874397754669189e-01
1.437445580959320068e-01 -7.988695055246353149e-03 9.900903701782226562e-02
3.259757161140441895e-01 -4.304913431406021118e-02 -8.870936930179595947e-02
5.425509810447692871e-02 -2.786760404706001282e-02 1.316458731889724731e-01
5.074614286422729492e-02 -8.627396076917648315e-02 -2.054887413978576660e-01
1.844930797815322876e-01 -9.089283645153045654e-03 1.006155386567115784e-01
8.943427354097366333e-02 -1.234431564807891846e-01 6.510233879089355469e-02
3.037356734275817871e-01 -1.206412389874458313e-01 -7.186313718557357788e-02
1.678267717361450195e-01 -1.078662872314453125e-01 -2.408435642719268799e-01
1.870260089635848999e-01 -1.185791492462158203e-01 1.832411587238311768e-01
1.583025902509689331e-01 -2.492231503129005432e-02 -2.298077493906021118e-01
1.776013821363449097e-01 -2.547733485698699951e-02 1.919260323047637939e-01
5.009875446557998657e-02 -1.743194088339805603e-02 6.035086512565612793e-02
2.786715030670166016e-01 -1.268653273582458496e-01 -8.164579421281814575e-02
9.728099405765533447e-02 -2.119169011712074280e-02 1.536482125520706177e-01
2.639664411544799805e-01 -2.703399211168289185e-02 1.322476267814636230e-01
1.953969895839691162e-01 -4.782773554325103760e-03 -7.859327644109725952e-02
2.649296820163726807e-01 -1.525977626442909241e-02 -4.597942531108856201e-02
1.281694769859313965e-01 -1.165730059146881104e-01 1.683063209056854248e-01
2.363463193178176880e-01 -2.415262907743453979e-02 1.533273607492446899e-01
1.170432716608047485e-01 -4.238051548600196838e-02 2.265571653842926025e-01
6.334373354911804199e-02 -4.459992051124572754e-02 -2.287877053022384644e-01
3.349176645278930664e-01 -4.455833509564399719e-02 9.631875902414321899e-03
1.903349459171295166e-01 -5.834452062845230103e-02 -2.880730628967285156e-01
2.401033043861389160e-02 -8.707063645124435425e-02 1.161155328154563904e-01
4.259700775146484375e-01 -6.233008578419685364e-03 8.991283923387527466e-02
6.630053520202636719e-01 -4.778418689966201782e-02 -7.259762845933437347e-03
5.764941573143005371e-01 -1.394616439938545227e-03 6.708426773548126221e-02
4.724286198616027832e-01 -1.918867416679859161e-02 -9.019040316343307495e-02
6.585230231285095215e-01 -1.191043667495250702e-02 -4.387658461928367615e-02
5.674155950546264648e-01 4.209325462579727173e-02 -7.441014796495437622e-02
6.215584874153137207e-01 5.729848146438598633e-02 -5.818889476358890533e-03
3.810857832431793213e-01 -1.713311858475208282e-02 8.285703510046005249e-02
3.543913066387176514e-01 4.533148556947708130e-02 -8.281771093606948853e-02
6.248056888580322266e-01 3.516254946589469910e-03 -6.504486501216888428e-02
1.976875513792037964e-01 6.678890436887741089e-02 -6.280793808400630951e-03
3.206022977828979492e-01 1.367924958467483521e-01 4.209512472152709961e-02
4.650138318538665771e-01 7.213278859853744507e-02 8.212544769048690796e-02
3.701806366443634033e-01 3.577547892928123474e-02 -8.605033904314041138e-02
5.325862765312194824e-01 -7.349894940853118896e-02 4.380745813250541687e-02
6.029431223869323730e-01 6.268968433141708374e-02 2.203657850623130798e-02
6.053563356399536133e-01 6.801069527864456177e-02 -1.723384298384189606e-02
5.612590312957763672e-01 -2.918006293475627899e-02 -8.317909389734268188e-02
2.556981444358825684e-01 5.950824916362762451e-02 7.587190717458724976e-02
6.687362194061279297e-01 -4.707198590040206909e-03 -2.352607622742652893e-02
5.047026872634887695e-01 3.538973256945610046e-02 -8.973811566829681396e-02
3.589777946472167969e-01 -1.556137390434741974e-02 -7.347742468118667603e-02
3.373945951461791992e-01 9.747151285409927368e-02 -6.381591409444808960e-02
5.098289251327514648e-01 1.063999347388744354e-02 -9.268739819526672363e-02
4.499002099037170410e-01 -6.267526745796203613e-02 -6.392858922481536865e-02
2.459554970264434814e-01 1.298681199550628662e-01 1.504703611135482788e-02
3.036032319068908691e-01 8.995451033115386963e-03 -6.457623839378356934e-02
5.141351222991943359e-01 8.402132987976074219e-02 -6.274718791246414185e-02
3.656482100486755371e-01 -7.973020896315574646e-03 8.504876494407653809e-02
4.265462756156921387e-01 1.859017275273799896e-02 9.469667077064514160e-02
6.683089733123779297e-01 -2.885826490819454193e-02 -2.922754548490047455e-02
4.058041572570800781e-01 1.334468871355056763e-01 3.751056641340255737e-02
2.416854798793792725e-01 1.028334647417068481e-01 5.921630188822746277e-02
4.992617368698120117e-01 1.064551472663879395e-01 4.194566607475280762e-02
4.990944862365722656e-01 3.156907111406326294e-02 8.620557188987731934e-02
5.922004580497741699e-01 -7.973083853721618652e-02 1.802481338381767273e-02
2.654279470443725586e-01 1.190528422594070435e-01 -2.801225334405899048e-02
3.228881061077117920e-01 -5.215899646282196045e-02 -9.320163168013095856e-03
4.608690142631530762e-01 4.199686646461486816e-02 -9.121359884738922119e-02
6.207011938095092773e-01 -2.834113873541355133e-02 4.475988447666168213e-02
5.488106608390808105e-01 -4.370827972888946533e-02 -7.990866899490356445e-02
2.753440141677856445e-01 8.390729129314422607e-02 -5.496724322438240051e-02
3.917106688022613525e-01 8.283755183219909668e-02 8.744672685861587524e-02
3.840043842792510986e-01 1.397022306919097900e-01 2.759800851345062256e-02
5.877261757850646973e-01 4.930035397410392761e-02 4.854423180222511292e-02
4.426463842391967773e-01 5.271834507584571838e-02 9.175226092338562012e-02
4.247642159461975098e-01 -3.291707485914230347e-02 -8.021780848503112793e-02
2.784218192100524902e-01 7.290046662092208862e-02 8.163457363843917847e-02
6.583341360092163086e-01 1.911149173974990845e-02 -5.895539186894893646e-03
5.369616150856018066e-01 1.038595959544181824e-01 -1.249755080789327621e-02
3.453188538551330566e-01 2.008032426238059998e-02 9.131158143281936646e-02
5.832567811012268066e-01 -3.213488310575485229e-02 5.930411815643310547e-02
4.547465145587921143e-01 2.639106288552284241e-02 9.312020987272262573e-02
3.924787044525146484e-01 -5.122935026884078979e-02 5.990855023264884949e-02
6.118654608726501465e-01 -7.634593173861503601e-03 5.216231569647789001e-02
4.487283229827880859e-01 8.840738981962203979e-02 -7.215546816587448120e-02
4.152556359767913818e-01 -4.474215209484100342e-02 6.969270110130310059e-02
6.108138561248779297e-01 1.904059760272502899e-02 -6.721813231706619263e-02
6.290681362152099609e-01 -1.333069242537021637e-02 4.247890040278434753e-02
5.743691921234130859e-01 -4.671870172023773193e-02 -7.490125298500061035e-02
4.554276168346405029e-01 -2.037771046161651611e-04 9.051425755023956299e-02
4.368189573287963867e-01 2.806892432272434235e-02 -9.302794933319091797e-02
4.017221033573150635e-01 1.097652688622474670e-01 7.026875019073486328e-02
2.153160274028778076e-01 4.757292196154594421e-02 -2.447116002440452576e-02
3.352812230587005615e-01 -5.090293288230895996e-02 -2.918186970055103302e-02
3.651648759841918945e-01 -4.303736984729766846e-02 -5.707276239991188049e-02
4.596897363662719727e-01 -9.932285174727439880e-03 -9.173988550901412964e-02
3.670521378517150879e-01 2.260540053248405457e-02 9.403223544359207153e-02
5.401558279991149902e-01 -8.872093260288238525e-02 1.816624961793422699e-02
3.087178766727447510e-01 -3.316458314657211304e-04 7.625982910394668579e-02
5.706210136413574219e-01 -9.032360464334487915e-02 1.050805440172553062e-03
3.637093305587768555e-01 -5.442394316196441650e-02 -4.319731891155242920e-02
4.830934107303619385e-01 -6.533663719892501831e-02 5.583431944251060486e-02
5.270425677299499512e-01 8.835592120885848999e-02 4.986382275819778442e-02
4.251716732978820801e-01 -7.949809730052947998e-02 2.517776004970073700e-02
3.637244105339050293e-01 -6.311479210853576660e-02 -2.704089134931564331e-02
3.201537728309631348e-01 -4.045322537422180176e-02 -3.501973301172256470e-02
5.377407073974609375e-01 9.830019623041152954e-02 -3.098990581929683685e-02
4.661256968975067139e-01 4.001120477914810181e-02 9.079458564519882202e-02
3.656790554523468018e-01 1.118114069104194641e-01 7.225733995437622070e-02
5.928448438644409180e-01 -8.544194698333740234e-02 -2.734944038093090057e-02
3.029653429985046387e-01 3.976600617170333862e-02 8.749337494373321533e-02
4.708828330039978027e-01 1.135766208171844482e-01 -4.181816428899765015e-02
3.999264836311340332e-01 -3.531442582607269287e-02 7.464493811130523682e-02
3.655614852905273438e-01 4.866242408752441406e-03 8.980943262577056885e-02
5.655217766761779785e-01 -7.018315047025680542e-02 4.062299430370330811e-02
2.180959880352020264e-01 1.649196632206439972e-02 -1.044471282511949539e-03
3.887915611267089844e-01 -7.308056205511093140e-02 -2.145411819219589233e-02
6.435354948043823242e-01 -6.688961386680603027e-02 -8.756122551858425140e-03
2.447536289691925049e-01 -9.264731779694557190e-03 2.986816689372062683e-03
2.498172372579574585e-01 3.464046865701675415e-03 -2.942508459091186523e-02
3.223545551300048828e-01 3.920819610357284546e-02 9.095644205808639526e-02
5.710873007774353027e-01 -9.005384892225265503e-02 -2.415005303919315338e-02
4.032775163650512695e-01 9.746291488409042358e-02 -6.842733174562454224e-02
5.647380352020263672e-01 -8.180530369281768799e-02 -4.648874700069427490e-02
2.518023848533630371e-01 1.300799250602722168e-01 9.282675455324351788e-04
3.474396765232086182e-01 1.371471285820007324e-01 4.179992154240608215e-02
3.435359299182891846e-01 7.665164768695831299e-02 8.982556313276290894e-02
4.396832287311553955e-01 1.227908954024314880e-01 4.533043131232261658e-02
3.681303560733795166e-01 1.425403058528900146e-01 2.060467936098575592e-02
5.360468029975891113e-01 -3.919252008199691772e-02 -8.290418237447738647e-02
5.189716219902038574e-01 1.109301969408988953e-01 -1.077585294842720032e-02
4.832471013069152832e-01 9.951748698949813843e-02 5.840557813644409180e-02
4.813393950462341309e-01 -9.172991663217544556e-02 -1.817432790994644165e-02
3.892368078231811523e-01 1.270490586757659912e-01 5.347174033522605896e-02
2.500305175781250000e-01 1.819095388054847717e-02 -4.031681269407272339e-02
5.303812623023986816e-01 1.059990674257278442e-01 1.244704145938158035e-02
2.537736892700195312e-01 3.878694027662277222e-02 -4.980010166764259338e-02
4.646712541580200195e-01 1.280463784933090210e-01 9.140806272625923157e-03
2.026843577623367310e-01 9.079901874065399170e-02 -4.948293790221214294e-03
6.628030538558959961e-01 1.041826605796813965e-02 -2.178514190018177032e-02
4.613159298896789551e-01 1.252604722976684570e-01 -2.127417922019958496e-02
2.365015000104904175e-01 1.038364320993423462e-02 -2.261681295931339264e-02
4.096424579620361328e-01 3.225119039416313171e-02 9.592599421739578247e-02
5.538552999496459961e-01 -8.147843182086944580e-04 7.420979440212249756e-02
6.619173884391784668e-01 -4.430190473794937134e-02 -3.034953959286212921e-02
6.522892117500305176e-01 2.734284847974777222e-02 -1.675053685903549194e-02
4.587380588054656982e-01 1.188931763172149658e-01 -3.732679411768913269e-02
4.802919328212738037e-01 3.555347770452499390e-02 8.916304260492324829e-02
2.200308144092559814e-01 4.667669162154197693e-02 5.529517680406570435e-02
6.541647911071777344e-01 -2.426935173571109772e-02 2.221895940601825714e-02
3.197814822196960449e-01 8.843437582254409790e-02 -6.532627344131469727e-02
4.182824194431304932e-01 9.312880039215087891e-02 7.964447140693664551e-02
3.364021778106689453e-01 3.374920412898063660e-02 9.238819032907485962e-02
4.125893115997314453e-01 1.206831932067871094e-01 5.695844814181327820e-02
2.068102508783340454e-01 9.593607485294342041e-02 3.834778442978858948e-02
4.073322117328643799e-01 -5.279577523469924927e-02 -6.276724487543106079e-02
5.966619253158569336e-01 5.364403501152992249e-02 -5.293461680412292480e-02
1.937517374753952026e-01 5.340407788753509521e-02 1.342935767024755478e-02
4.825064837932586670e-01 4.462971165776252747e-02 -8.943914622068405151e-02
4.355563521385192871e-01 8.288928121328353882e-02 8.253630250692367554e-02
3.508196175098419189e-01 1.310463547706604004e-01 -3.352314233779907227e-02
4.092637598514556885e-01 1.299367994070053101e-01 -3.132154047489166260e-02
5.339428782463073730e-01 1.002134531736373901e-01 2.649044804275035858e-02
6.269829273223876953e-01 -7.159790396690368652e-02 7.216257043182849884e-03
2.053056359291076660e-01 3.053424507379531860e-02 7.684308104217052460e-03
3.743909597396850586e-01 -6.859079748392105103e-02 2.272827923297882080e-02
5.476514697074890137e-01 -3.678353130817413330e-02 6.726568937301635742e-02
3.491601347923278809e-01 5.981560051441192627e-02 9.343898296356201172e-02
2.985346615314483643e-01 1.247868984937667847e-01 -3.332483023405075073e-02
5.020136237144470215e-01 -4.605257511138916016e-02 6.966440379619598389e-02
4.889904856681823730e-01 5.592283979058265686e-02 8.307138830423355103e-02
6.258185505867004395e-01 -7.433238625526428223e-02 -2.865758165717124939e-02
3.589885830879211426e-01 1.144072562456130981e-01 -5.374395847320556641e-02
6.697761416435241699e-01 -3.588663041591644287e-02 -1.502135209739208221e-02
3.063654899597167969e-01 1.208290234208106995e-01 6.277818977832794189e-02
3.138515651226043701e-01 7.696881890296936035e-02 -6.839723885059356689e-02
5.065345168113708496e-01 9.827049076557159424e-02 -4.994254559278488159e-02
2.888467907905578613e-01 8.508177101612091064e-02 -5.893048271536827087e-02
3.960106968879699707e-01 1.314105093479156494e-01 -3.090952150523662567e-02
4.622266590595245361e-01 -9.055831283330917358e-02 -5.492292344570159912e-03
3.307479023933410645e-01 1.389825046062469482e-01 -1.613046973943710327e-02
4.935789704322814941e-01 -6.135480850934982300e-02 -7.068141549825668335e-02
4.015972614288330078e-01 1.393405944108963013e-01 1.887327805161476135e-02
3.793439567089080811e-01 1.080667302012443542e-01 7.420849055051803589e-02
2.238643020391464233e-01 1.055755689740180969e-01 4.655726253986358643e-02
3.488672375679016113e-01 -2.590883523225784302e-04 -7.661499083042144775e-02
5.763512253761291504e-01 -4.745867848396301270e-02 5.478730052709579468e-02
2.310819774866104126e-01 1.051674969494342804e-02 3.859839960932731628e-02
2.098285257816314697e-01 6.555817276239395142e-02 -2.160954847931861877e-02
3.282491564750671387e-01 9.776233881711959839e-02 8.095049113035202026e-02
6.202293634414672852e-01 -1.437658257782459259e-02 -6.912416219711303711e-02
2.842422127723693848e-01 4.859972000122070312e-02 -6.419645249843597412e-02
5.375471115112304688e-01 -5.345340818166732788e-02 6.035713478922843933e-02
2.523472905158996582e-01 2.344721741974353790e-02 6.576252728700637817e-02
4.316052198410034180e-01 1.110612973570823669e-01 -5.462158098816871643e-02
6.090339422225952148e-01 4.582615569233894348e-02 -5.175345391035079956e-02
5.936374068260192871e-01 7.629560679197311401e-02 -2.002351917326450348e-03
3.886127471923828125e-01 -6.721144914627075195e-02 3.593665733933448792e-02
3.802616596221923828e-01 1.575394719839096069e-02 -8.692910522222518921e-02
6.012823581695556641e-01 -2.419421635568141937e-02 -7.517960667610168457e-02
5.125551223754882812e-01 1.071505844593048096e-01 -3.172037377953529358e-02
2.140575498342514038e-01 1.124701797962188721e-01 1.960690133273601532e-02
3.436564803123474121e-01 4.727361351251602173e-02 9.386778622865676880e-02
4.494204521179199219e-01 1.161914169788360596e-01 5.161667987704277039e-02
5.029069185256958008e-01 1.157713085412979126e-01 1.535905059427022934e-02
3.493159115314483643e-01 1.065874025225639343e-01 7.651143521070480347e-02
2.047603577375411987e-01 8.335390686988830566e-02 4.353544116020202637e-02
5.027865767478942871e-01 -3.060020506381988525e-03 -9.285826981067657471e-02
4.579881429672241211e-01 1.004203855991363525e-01 -6.121044978499412537e-02
5.891157388687133789e-01 7.503242790699005127e-02 -2.763268724083900452e-02
6.633051633834838867e-01 4.513742402195930481e-03 4.068526439368724823e-03
5.273550152778625488e-01 -4.968369007110595703e-02 -7.862319797277450562e-02
3.381839394569396973e-01 -1.860317029058933258e-02 7.372661679983139038e-02
5.351521968841552734e-01 6.519739329814910889e-02 6.486539542675018311e-02
4.842880070209503174e-01 9.160464629530906677e-03 8.900991082191467285e-02
5.156515836715698242e-01 6.425716727972030640e-02 -7.668852061033248901e-02
2.263816297054290771e-01 8.134741336107254028e-02 6.075835600495338440e-02
5.843007564544677734e-01 -7.190246880054473877e-02 -5.488421022891998291e-02
4.041449427604675293e-01 -2.288384921848773956e-02 -8.112824708223342896e-02
2.954531908035278320e-01 -1.875475980341434479e-02 -4.371632635593414307e-02
4.464857280254364014e-01 1.440542377531528473e-02 -9.376095235347747803e-02
4.180777370929718018e-01 1.109291464090347290e-01 -5.635894834995269775e-02
2.991592288017272949e-01 -3.049837239086627960e-02 -3.274725377559661865e-02
2.998408675193786621e-01 1.397376060485839844e-01 2.991617284715175629e-02
5.082020163536071777e-01 -1.050841622054576874e-02 8.267354965209960938e-02
4.160434603691101074e-01 4.522952064871788025e-02 -8.994769304990768433e-02
2.869665026664733887e-01 9.114520996809005737e-02 7.860071957111358643e-02
3.539964556694030762e-01 8.721429109573364258e-02 -7.147613167762756348e-02
3.802786469459533691e-01 1.340061724185943604e-01 -2.778659015893936157e-02
3.708122372627258301e-01 -3.277909010648727417e-02 -6.732891499996185303e-02
2.220941931009292603e-01 1.002142727375030518e-01 -1.905218698084354401e-02
4.905749261379241943e-01 -8.648129552602767944e-02 -3.868362307548522949e-02
6.192242503166198730e-01 -4.984997212886810303e-02 3.618240356445312500e-02
3.229182958602905273e-01 -5.765544250607490540e-03 7.742396742105484009e-02
3.819056749343872070e-01 1.423754245042800903e-01 6.549200043082237244e-03
6.174786090850830078e-01 4.923106729984283447e-02 -4.061617329716682434e-02
2.586210668087005615e-01 6.958176195621490479e-02 -5.223823711276054382e-02
4.436012208461761475e-01 -6.333009898662567139e-02 5.584781616926193237e-02
5.009135007858276367e-01 -8.329404890537261963e-02 3.249135240912437439e-02
5.308583378791809082e-01 9.469953179359436035e-02 -4.294457286596298218e-02
4.967986345291137695e-01 -7.290816307067871094e-02 -6.012081727385520935e-02
4.808954000473022461e-01 -1.491653360426425934e-02 8.495229482650756836e-02
4.214246571063995361e-01 -6.937403976917266846e-02 -4.830478504300117493e-02
4.430772960186004639e-01 -3.516819328069686890e-02 7.794050127267837524e-02
4.857984781265258789e-01 -7.799867540597915649e-02 -5.254827439785003662e-02
6.360640525817871094e-01 -9.097643196582794189e-04 3.730443120002746582e-02
3.592684268951416016e-01 1.242167875170707703e-01 -4.336691647768020630e-02
4.580779969692230225e-01 -7.114009559154510498e-02 -5.644434690475463867e-02
3.481025099754333496e-01 -5.701732635498046875e-02 -2.754362300038337708e-02
4.514845609664916992e-01 1.313633918762207031e-01 1.222018385306000710e-03
4.321546852588653564e-01 -5.655957013368606567e-02 6.146193295717239380e-02
5.619083046913146973e-01 -2.165916748344898224e-02 6.879744678735733032e-02
6.635945439338684082e-01 -8.604967966675758362e-03 1.073566358536481857e-02
4.400867521762847900e-01 -7.775339484214782715e-02 3.462482616305351257e-02
2.014530301094055176e-01 5.270056799054145813e-02 -9.258690290153026581e-03
6.539975404739379883e-01 -2.933097817003726959e-02 -4.762204736471176147e-02
2.813756465911865234e-01 1.239900439977645874e-01 -2.874400839209556580e-02
3.141046762466430664e-01 1.183445081114768982e-01 -4.406502842903137207e-02
5.458695888519287109e-01 9.770610183477401733e-02 1.852702535688877106e-02
6.464270353317260742e-01 -1.366980560123920441e-02 -5.464414879679679871e-02
5.962493419647216797e-01 3.381676971912384033e-02 5.200208723545074463e-02
3.039371073246002197e-01 2.514562197029590607e-02 -6.904580444097518921e-02
3.222373425960540771e-01 1.055379062891006470e-01 -5.616131797432899475e-02
2.614671587944030762e-01 -2.016619779169559479e-02 -3.259968711063265800e-03
5.148451328277587891e-01 9.952926635742187500e-02 4.289565980434417725e-02
5.394108295440673828e-01 -1.284167729318141937e-02 7.630450278520584106e-02
4.003027081489562988e-01 1.316585857421159744e-02 -8.967955410480499268e-02
5.121731162071228027e-01 -9.166751056909561157e-02 -2.814368903636932373e-02
6.536112427711486816e-01 6.201837211847305298e-03 1.890758611261844635e-02
3.848373591899871826e-01 -4.637867212295532227e-02 -6.140428781509399414e-02
3.119759261608123779e-01 1.789766550064086914e-02 8.476212620735168457e-02
2.730289697647094727e-01 -1.270403526723384857e-02 -3.327551111578941345e-02
4.963083565235137939e-01 1.597612164914608002e-02 -9.334344416856765747e-02
4.256763160228729248e-01 -2.037051878869533539e-02 -8.567382395267486572e-02
2.364166229963302612e-01 1.231202855706214905e-01 3.142884001135826111e-02
5.453491806983947754e-01 4.809750244021415710e-03 -8.880132436752319336e-02
5.205548405647277832e-01 -6.770202517509460449e-02 -6.625576317310333252e-02
5.446297526359558105e-01 -1.617494411766529083e-02 -8.797669410705566406e-02
3.727301657199859619e-01 -7.117652148008346558e-02 -4.262973554432392120e-03
5.791398286819458008e-01 -1.074488274753093719e-02 -8.237744122743606567e-02
4.735749661922454834e-01 7.991031557321548462e-02 -7.475107163190841675e-02
5.289558768272399902e-01 7.405687123537063599e-03 -9.093135595321655273e-02
3.127389848232269287e-01 1.432418078184127808e-01 1.236670464277267456e-02
3.217715620994567871e-01 7.868599146604537964e-03 -7.088343799114227295e-02
4.505859315395355225e-01 -8.643840998411178589e-02 -2.412592805922031403e-02
5.032728314399719238e-01 -8.150753378868103027e-02 -4.952633380889892578e-02
6.444429159164428711e-01 -1.170359738171100616e-02 3.179732337594032288e-02
4.310783147811889648e-01 1.347527652978897095e-01 1.678306050598621368e-02
4.771218597888946533e-01 8.532746136188507080e-02 7.206635177135467529e-02
4.054387211799621582e-01 7.231520861387252808e-02 9.029357880353927612e-02
4.095184803009033203e-01 4.875215142965316772e-02 9.508687257766723633e-02
4.099639356136322021e-01 1.228022202849388123e-01 -4.305819794535636902e-02
5.313766598701477051e-01 3.864273428916931152e-02 -8.489684015512466431e-02
5.477272272109985352e-01 8.976545929908752441e-02 -3.985194861888885498e-02
4.364883601665496826e-01 -8.638885617256164551e-02 2.416396280750632286e-03
4.734029471874237061e-01 -8.740978688001632690e-02 2.059396915137767792e-02
4.975358843803405762e-01 6.985636055469512939e-02 7.521244883537292480e-02
3.174224793910980225e-01 1.415207684040069580e-01 -5.175434984266757965e-03
4.870736002922058105e-01 -9.313434362411499023e-02 -6.108228117227554321e-03
3.980486690998077393e-01 -9.260704740881919861e-03 -8.493006229400634766e-02
5.630789399147033691e-01 -5.529299378395080566e-04 -8.588098734617233276e-02
6.212649941444396973e-01 -7.873336225748062134e-02 -1.470279879868030548e-02
4.095310866832733154e-01 -3.885959088802337646e-02 -7.390905171632766724e-02
5.026544928550720215e-01 -3.255262970924377441e-02 -8.665402978658676147e-02
6.418500542640686035e-01 3.122726455330848694e-02 -3.463052958250045776e-02
5.792461037635803223e-01 3.232177719473838806e-02 6.117742508649826050e-02
3.701555728912353516e-01 6.456041336059570312e-02 9.341256320476531982e-02
6.519489288330078125e-01 2.031268924474716187e-02 1.037922501564025879e-02
4.825946986675262451e-01 1.211506649851799011e-01 2.077003940939903259e-02
4.697617888450622559e-01 1.133290305733680725e-02 -9.421506524085998535e-02
3.330750167369842529e-01 1.319935768842697144e-01 -3.038760833442211151e-02
3.199912905693054199e-01 1.235471963882446289e-01 6.137110665440559387e-02
4.370150864124298096e-01 1.070018410682678223e-01 6.573763489723205566e-02
2.761092185974121094e-01 1.312343925237655640e-01 4.222515225410461426e-02
