4.356972277164459229e-01 -1.439074277877807617e-01 2.843414843082427979e-01
4.090797603130340576e-01 -1.879507899284362793e-01 2.812701463699340820e-01
4.246152639389038086e-01 -3.294389843940734863e-01 2.842522859573364258e-01
4.545924365520477295e-01 -3.797382116317749023e-01 3.028343617916107178e-01
4.628924131393432617e-01 -4.122659564018249512e-01 3.267293572425842285e-01
4.803857207298278809e-01 -9.868353605270385742e-02 3.190533518791198730e-01
5.023100972175598145e-01 -2.239023894071578979e-01 3.759406507015228271e-01
4.098285734653472900e-01 -1.129728257656097412e-01 3.816614151000976562e-01
4.307546615600585938e-01 -3.214744627475738525e-01 4.000706970691680908e-01
5.035618543624877930e-01 -2.591214776039123535e-01 3.309894204139709473e-01
4.666556715965270996e-01 -4.153338670730590820e-01 3.556661009788513184e-01
4.312813878059387207e-01 -1.854699254035949707e-01 2.790387868881225586e-01
3.848277330398559570e-01 -2.289409339427947998e-01 3.785699307918548584e-01
4.013075828552246094e-01 -7.156594097614288330e-02 3.231362998485565186e-01
3.720200061798095703e-01 -2.745662927627563477e-01 3.576587140560150146e-01
4.985583126544952393e-01 -3.028984069824218750e-01 3.286335766315460205e-01
3.734440505504608154e-01 -2.601024806499481201e-01 3.054054379463195801e-01
3.948596715927124023e-01 -4.028750061988830566e-01 3.286210298538208008e-01
4.120490252971649170e-01 -4.038946628570556641e-01 3.697801530361175537e-01
3.955233097076416016e-01 -1.700030565261840820e-01 3.833459615707397461e-01
3.913837969303131104e-01 -1.107745915651321411e-01 3.616026043891906738e-01
3.931831419467926025e-01 -2.076721191406250000e-01 3.856558799743652344e-01
4.715364873409271240e-01 -1.574282348155975342e-01 3.974054157733917236e-01
4.974019825458526611e-01 -3.213455080986022949e-01 3.333880603313446045e-01
4.160190522670745850e-01 -1.684006899595260620e-01 2.817288041114807129e-01
3.829541802406311035e-01 -3.720998764038085938e-01 3.437512516975402832e-01
4.160690605640411377e-01 -2.057772576808929443e-01 2.784860432147979736e-01
4.988934695720672607e-01 -2.833868563175201416e-01 3.770504891872406006e-01
3.757996559143066406e-01 -2.482162564992904663e-01 3.665685355663299561e-01
4.667793512344360352e-01 -4.069567322731018066e-01 3.661046326160430908e-01
4.130253493785858154e-01 -1.245469748973846436e-01 2.901402413845062256e-01
4.933609664440155029e-01 -2.275391966104507446e-01 3.887992501258850098e-01
4.970852136611938477e-01 -1.713867336511611938e-01 3.787100017070770264e-01
5.014161467552185059e-01 -1.445739269256591797e-01 3.503318428993225098e-01
3.866394758224487305e-01 -1.224830523133277893e-01 3.592004477977752686e-01
4.115050137042999268e-01 -6.883296370506286621e-02 3.635054230690002441e-01
3.677854239940643311e-01 -2.185369729995727539e-01 3.214052915573120117e-01
4.845454990863800049e-01 -3.810367286205291748e-01 3.533410131931304932e-01
4.655174911022186279e-01 -2.448019981384277344e-01 2.870056033134460449e-01
4.212561249732971191e-01 -1.895652264356613159e-01 2.789108157157897949e-01
4.163836538791656494e-01 -5.270528793334960938e-02 3.222683072090148926e-01
5.015578269958496094e-01 -1.895514428615570068e-01 3.741290569305419922e-01
4.704653322696685791e-01 -2.948028445243835449e-01 2.934478223323822021e-01
3.678050041198730469e-01 -2.864481806755065918e-01 3.387265503406524658e-01
4.024216830730438232e-01 -2.946018874645233154e-01 2.839772701263427734e-01
3.933025598526000977e-01 -3.660387992858886719e-01 3.688271343708038330e-01
3.912660479545593262e-01 -9.304533898830413818e-02 3.225861787796020508e-01
4.367426633834838867e-01 -3.160762190818786621e-01 2.829672098159790039e-01
4.793961644172668457e-01 -2.895454168319702148e-01 3.963601887226104736e-01
4.680451452732086182e-01 -2.648373842239379883e-01 4.035145044326782227e-01
5.048394799232482910e-01 -2.085825800895690918e-01 3.687990307807922363e-01
4.145534336566925049e-01 -7.746949791908264160e-02 3.712585270404815674e-01
4.946025609970092773e-01 -3.364615440368652344e-01 3.666626811027526855e-01
4.882950782775878906e-01 -2.918210923671722412e-01 3.893135488033294678e-01
3.729244470596313477e-01 -1.577826440334320068e-01 3.340586423873901367e-01
4.601242244243621826e-01 -3.558215796947479248e-01 3.927868008613586426e-01
3.863094747066497803e-01 -2.889502942562103271e-01 3.782282769680023193e-01
4.848572909832000732e-01 -2.554373443126678467e-01 3.955967724323272705e-01
4.558531641960144043e-01 -6.417042016983032227e-02 3.742047846317291260e-01
4.276113212108612061e-01 -4.389090538024902344e-01 3.424453735351562500e-01
4.782518744468688965e-01 -3.960077166557312012e-01 3.429135978221893311e-01
4.473728537559509277e-01 -3.062116503715515137e-01 4.035161137580871582e-01
4.236834943294525146e-01 -2.124841213226318359e-01 2.774128317832946777e-01
5.058769583702087402e-01 -2.435643523931503296e-01 3.366958200931549072e-01
3.725713193416595459e-01 -1.660930663347244263e-01 3.433091342449188232e-01
3.749031722545623779e-01 -3.331158161163330078e-01 3.208099603652954102e-01
4.843700528144836426e-01 -3.622658252716064453e-01 3.251193463802337646e-01
4.523485004901885986e-01 -2.380903363227844238e-01 2.811967134475708008e-01
4.821965992450714111e-01 -3.307726681232452393e-01 3.101234138011932373e-01
4.775817990303039551e-01 -1.956970989704132080e-01 3.990196585655212402e-01
4.205629527568817139e-01 -4.901026189327239990e-02 3.557621538639068604e-01
4.040881693363189697e-01 -3.844094574451446533e-01 3.038963973522186279e-01
4.465253353118896484e-01 -1.617011874914169312e-01 4.025041460990905762e-01
4.178586006164550781e-01 -3.484655320644378662e-01 3.914546370506286621e-01
4.439932405948638916e-01 -4.369499981403350830e-01 3.495212495326995850e-01
4.442311823368072510e-01 -3.283116817474365234e-01 2.863477170467376709e-01
4.613499939441680908e-01 -3.268536031246185303e-01 2.928085923194885254e-01
4.899855256080627441e-01 -1.306256651878356934e-01 3.201418220996856689e-01
4.430573284626007080e-01 -2.985337078571319580e-01 2.820060253143310547e-01
4.506043791770935059e-01 -1.905625760555267334e-01 4.054450094699859619e-01
4.710405766963958740e-01 -6.144861876964569092e-02 3.607429563999176025e-01
4.449751675128936768e-01 -6.451366841793060303e-02 3.760156631469726562e-01
4.705615341663360596e-01 -1.841587424278259277e-01 4.010763168334960938e-01
4.147853255271911621e-01 -7.710495591163635254e-02 3.058122396469116211e-01
5.047642588615417480e-01 -2.884048223495483398e-01 3.535686731338500977e-01
3.738011717796325684e-01 -1.737170815467834473e-01 3.146857023239135742e-01
4.735197424888610840e-01 -1.988575905561447144e-01 2.926253378391265869e-01
4.848205447196960449e-01 -8.190684020519256592e-02 3.459978401660919189e-01
4.776577949523925781e-01 -3.643366694450378418e-01 3.160721659660339355e-01
4.941033124923706055e-01 -3.025100827217102051e-01 3.194547593593597412e-01
4.764447510242462158e-01 -2.749502956867218018e-01 2.956768572330474854e-01
3.851959109306335449e-01 -2.626514732837677002e-01 2.916006743907928467e-01
3.984062075614929199e-01 -3.084371089935302734e-01 2.874105572700500488e-01
3.737137913703918457e-01 -3.133356571197509766e-01 3.532047271728515625e-01
4.288445115089416504e-01 -2.526088953018188477e-01 4.049977660179138184e-01
4.692559540271759033e-01 -3.932254314422607422e-01 3.735289573669433594e-01
4.529873728752136230e-01 -1.074213683605194092e-01 2.958678901195526123e-01
3.991753458976745605e-01 -9.426982700824737549e-02 3.643734455108642578e-01
4.924573004245758057e-01 -1.568116545677185059e-01 3.819305002689361572e-01
4.968016445636749268e-01 -1.294375509023666382e-01 3.363486826419830322e-01
4.163076281547546387e-01 -2.160263359546661377e-01 4.005141258239746094e-01
3.713432550430297852e-01 -1.856732368469238281e-01 3.486708700656890869e-01
3.786244392395019531e-01 -2.824971377849578857e-01 2.998754978179931641e-01
4.222157895565032959e-01 -2.637629508972167969e-01 2.776282429695129395e-01
3.986666500568389893e-01 -1.883347928524017334e-01 2.852172851562500000e-01
4.691387116909027100e-01 -1.228915154933929443e-01 3.915170729160308838e-01
4.966616630554199219e-01 -2.013189643621444702e-01 3.163034319877624512e-01
4.805971384048461914e-01 -2.964873611927032471e-01 3.016508817672729492e-01
4.541455805301666260e-01 -8.756239712238311768e-02 3.024734556674957275e-01
5.038812756538391113e-01 -2.809441983699798584e-01 3.375210762023925781e-01
4.127356410026550293e-01 -3.401383757591247559e-01 2.876910567283630371e-01
3.980228900909423828e-01 -2.009779959917068481e-01 2.844194769859313965e-01
4.102625846862792969e-01 -1.298362165689468384e-01 3.864318728446960449e-01
4.163883328437805176e-01 -3.246102333068847656e-01 3.951440155506134033e-01
4.643681943416595459e-01 -3.149144947528839111e-01 3.996908664703369141e-01
4.373742043972015381e-01 -7.269674539566040039e-02 3.038421273231506348e-01
4.901528358459472656e-01 -1.654769629240036011e-01 3.116529285907745361e-01
3.760021030902862549e-01 -2.649631798267364502e-01 3.663336634635925293e-01
3.970625400543212891e-01 -2.329168319702148438e-01 2.834837734699249268e-01
5.076748132705688477e-01 -2.360432744026184082e-01 3.466382920742034912e-01
4.872019290924072266e-01 -1.941517144441604614e-01 3.046552538871765137e-01
4.119859933853149414e-01 -1.825723499059677124e-01 3.960828185081481934e-01
4.292810559272766113e-01 -4.725535213947296143e-02 3.198506236076354980e-01
4.985102713108062744e-01 -1.331529915332794189e-01 3.592551648616790771e-01
3.862363696098327637e-01 -2.477170825004577637e-01 2.902838289737701416e-01
4.010838568210601807e-01 -6.733681261539459229e-02 3.319374322891235352e-01
4.866280853748321533e-01 -3.410570919513702393e-01 3.191969096660614014e-01
4.417366385459899902e-01 -2.592425346374511719e-01 2.788688242435455322e-01
3.935499489307403564e-01 -2.968012690544128418e-01 3.844649195671081543e-01
3.710735440254211426e-01 -1.738400757312774658e-01 3.255561888217926025e-01
4.710377156734466553e-01 -3.409906327724456787e-01 3.021287620067596436e-01
4.098277390003204346e-01 -3.540170788764953613e-01 2.915732860565185547e-01
4.478362798690795898e-01 -5.511602759361267090e-02 3.703183233737945557e-01
3.972596228122711182e-01 -7.518956065177917480e-02 3.423959314823150635e-01
3.718384206295013428e-01 -2.063352167606353760e-01 3.556448817253112793e-01
3.892694115638732910e-01 -3.403530418872833252e-01 3.723299205303192139e-01
5.052794218063354492e-01 -2.676615715026855469e-01 3.390244543552398682e-01
3.904085159301757812e-01 -3.701102435588836670e-01 3.095440268516540527e-01
4.972832798957824707e-01 -2.721112966537475586e-01 3.191166222095489502e-01
4.461055696010589600e-01 -3.443505167961120605e-01 2.898708283901214600e-01
4.903779625892639160e-01 -3.582117557525634766e-01 3.621460497379302979e-01
3.915286064147949219e-01 -8.723972737789154053e-02 3.329444527626037598e-01
4.213919639587402344e-01 -3.842831850051879883e-01 2.979435324668884277e-01
4.567905664443969727e-01 -1.660891026258468628e-01 2.865337431430816650e-01
3.811922669410705566e-01 -3.683567643165588379e-01 3.316706418991088867e-01
5.025632977485656738e-01 -2.927632033824920654e-01 3.371085524559020996e-01
4.370676279067993164e-01 -2.303435504436492920e-01 2.776156067848205566e-01
4.589556157588958740e-01 -1.944624185562133789e-01 2.848900258541107178e-01
3.682341575622558594e-01 -2.713688910007476807e-01 3.194466829299926758e-01
4.892009794712066650e-01 -9.606124460697174072e-02 3.566362261772155762e-01
4.021055996417999268e-01 -3.792099952697753906e-01 3.729519844055175781e-01
4.007974267005920410e-01 -1.139056831598281860e-01 2.989857494831085205e-01
4.036309123039245605e-01 -1.474888026714324951e-01 3.858100473880767822e-01
4.342070519924163818e-01 -1.321489810943603516e-01 3.964033424854278564e-01
4.346125125885009766e-01 -8.165000379085540771e-02 3.000129759311676025e-01
4.491384625434875488e-01 -3.715971112251281738e-02 3.495475351810455322e-01
5.048685669898986816e-01 -2.218586802482604980e-01 3.325444459915161133e-01
4.932587742805480957e-01 -3.492890596389770508e-01 3.397155106067657471e-01
4.312690794467926025e-01 -3.566069304943084717e-01 3.937686979770660400e-01
3.854744732379913330e-01 -1.344895809888839722e-01 3.625158071517944336e-01
5.055007338523864746e-01 -2.622010707855224609e-01 3.643469512462615967e-01
3.789087533950805664e-01 -1.521598249673843384e-01 3.112789690494537354e-01
4.140208959579467773e-01 -4.876378178596496582e-02 3.337043225765228271e-01
4.212161302566528320e-01 -2.797598838806152344e-01 2.786107063293457031e-01
4.576528966426849365e-01 -4.120823144912719727e-01 3.702779412269592285e-01
4.279598295688629150e-01 -3.030502200126647949e-01 4.017061889171600342e-01
4.887870848178863525e-01 -2.108962237834930420e-01 3.053412735462188721e-01
4.928584694862365723e-01 -3.548949360847473145e-01 3.527474701404571533e-01
4.267090857028961182e-01 -1.629656553268432617e-01 3.996050655841827393e-01
4.770384132862091064e-01 -3.800968229770660400e-01 3.728813827037811279e-01
4.449724555015563965e-01 -2.820533514022827148e-01 2.809379100799560547e-01
4.483197331428527832e-01 -5.360369384288787842e-02 3.166702389717102051e-01
4.542949497699737549e-01 -1.212985515594482422e-01 3.950143158435821533e-01
5.024736523628234863e-01 -2.490343898534774780e-01 3.269422054290771484e-01
4.566489458084106445e-01 -2.642362713813781738e-01 2.835795879364013672e-01
4.584332108497619629e-01 -1.825591623783111572e-01 4.040139317512512207e-01
4.526984095573425293e-01 -3.183299899101257324e-01 2.874571681022644043e-01
3.885208666324615479e-01 -3.048411607742309570e-01 2.930837273597717285e-01
4.040951132774353027e-01 -1.990572661161422729e-01 3.931321799755096436e-01
3.767727911472320557e-01 -2.322807312011718750e-01 3.679105639457702637e-01
4.963301718235015869e-01 -3.399806618690490723e-01 3.551091849803924561e-01
4.806735515594482422e-01 -7.228003442287445068e-02 3.477861583232879639e-01
3.805580139160156250e-01 -2.968316674232482910e-01 3.700287342071533203e-01
4.511092007160186768e-01 -4.306250214576721191e-01 3.334036171436309814e-01
4.439879655838012695e-01 -1.543440818786621094e-01 2.840774655342102051e-01
4.778050780296325684e-01 -1.874267309904098511e-01 2.965958714485168457e-01
4.316877126693725586e-01 -5.434776842594146729e-02 3.676750957965850830e-01
4.986999630928039551e-01 -1.515920907258987427e-01 3.302224576473236084e-01
4.746396541595458984e-01 -6.355416774749755859e-02 3.369738757610321045e-01
4.657479226589202881e-01 -8.140152692794799805e-02 3.118227720260620117e-01
4.053122699260711670e-01 -4.213684201240539551e-01 3.334890007972717285e-01
4.183390736579895020e-01 -2.898167371749877930e-01 2.796752452850341797e-01
4.605656862258911133e-01 -2.902103960514068604e-01 4.036526381969451904e-01
4.506247043609619141e-01 -4.245327711105346680e-01 3.641219437122344971e-01
4.903513193130493164e-01 -2.523762881755828857e-01 3.073821067810058594e-01
5.051142573356628418e-01 -1.737434118986129761e-01 3.549160063266754150e-01
3.711919188499450684e-01 -3.111939728260040283e-01 3.218666017055511475e-01
4.470741748809814453e-01 -3.902193903923034668e-01 3.032964766025543213e-01
4.929425716400146484e-01 -1.293379962444305420e-01 3.723914027214050293e-01
4.696357548236846924e-01 -3.426742553710937500e-01 3.923152387142181396e-01
4.946071505546569824e-01 -3.312792181968688965e-01 3.307249546051025391e-01
3.759066462516784668e-01 -2.037873119115829468e-01 3.036301136016845703e-01
3.693031966686248779e-01 -2.821800410747528076e-01 3.485152423381805420e-01
3.832095861434936523e-01 -1.318671107292175293e-01 3.120155036449432373e-01
4.495730996131896973e-01 -2.725694179534912109e-01 4.063216149806976318e-01
3.789753317832946777e-01 -1.721438914537429810e-01 3.633186817169189453e-01
4.001741111278533936e-01 -2.673119306564331055e-01 3.918163776397705078e-01
3.843017816543579102e-01 -1.479160040616989136e-01 3.040176331996917725e-01
4.626686275005340576e-01 -1.328232139348983765e-01 3.959407210350036621e-01
3.894855380058288574e-01 -2.219833135604858398e-01 2.882200777530670166e-01
3.978936374187469482e-01 -1.444502025842666626e-01 2.925001382827758789e-01
3.851628005504608154e-01 -1.089633554220199585e-01 3.241782486438751221e-01
5.000609755516052246e-01 -1.698768585920333862e-01 3.277086019515991211e-01
4.771688580513000488e-01 -1.058619320392608643e-01 3.122870326042175293e-01
3.942055106163024902e-01 -3.950361013412475586e-01 3.203008770942687988e-01
3.896078765392303467e-01 -2.868813872337341309e-01 2.900257706642150879e-01
3.853649497032165527e-01 -1.973597407341003418e-01 3.768032193183898926e-01
4.673782885074615479e-01 -1.062153428792953491e-01 3.876028060913085938e-01
4.871945083141326904e-01 -3.692373633384704590e-01 3.611692488193511963e-01
4.593509137630462646e-01 -9.924523532390594482e-02 3.881264328956604004e-01
4.503887593746185303e-01 -4.201657772064208984e-01 3.211145102977752686e-01
5.035485029220581055e-01 -1.899833381175994873e-01 3.323397636413574219e-01
5.019688606262207031e-01 -3.100839853286743164e-01 3.538957536220550537e-01
4.563146531581878662e-01 -3.824442028999328613e-01 3.857424259185791016e-01
4.427042007446289062e-01 -1.093314141035079956e-01 2.924289703369140625e-01
3.952005803585052490e-01 -3.995823860168457031e-01 3.512639403343200684e-01
4.180444478988647461e-01 -1.057274788618087769e-01 2.937577962875366211e-01
4.340079426765441895e-01 -3.723192512989044189e-01 3.902620971202850342e-01
4.162543416023254395e-01 -3.620703220367431641e-01 2.920135855674743652e-01
3.664516508579254150e-01 -2.447860687971115112e-01 3.257734477519989014e-01
4.442217350006103516e-01 -4.054163396358489990e-02 3.576255440711975098e-01
5.029061436653137207e-01 -2.908498644828796387e-01 3.646799027919769287e-01
4.513045549392700195e-01 -3.966411948204040527e-01 3.814091682434082031e-01
4.371553957462310791e-01 -1.525272727012634277e-01 4.004438817501068115e-01
4.721598625183105469e-01 -3.298443853855133057e-01 3.004392981529235840e-01
4.683233499526977539e-01 -3.533549010753631592e-01 3.033027648925781250e-01
4.419769942760467529e-01 -4.112216830253601074e-02 3.256560564041137695e-01
4.542812108993530273e-01 -4.686166346073150635e-02 3.616786301136016846e-01
4.904688298702239990e-01 -1.782061606645584106e-01 3.880240917205810547e-01
4.777017831802368164e-01 -2.285640388727188110e-01 2.947204411029815674e-01
4.883279204368591309e-01 -3.208523094654083252e-01 3.152309656143188477e-01
4.638807177543640137e-01 -1.487234830856323242e-01 3.985744118690490723e-01
4.968388080596923828e-01 -3.184046447277069092e-01 3.705717027187347412e-01
4.313209652900695801e-01 -1.040060967206954956e-01 2.926807105541229248e-01
4.070945680141448975e-01 -1.058743447065353394e-01 2.978608310222625732e-01
3.708451390266418457e-01 -2.478305101394653320e-01 3.099626898765563965e-01
4.416176378726959229e-01 -5.973456799983978271e-02 3.108767867088317871e-01
3.862270116806030273e-01 -2.337498366832733154e-01 2.903149127960205078e-01
5.030575990676879883e-01 -1.796113550662994385e-01 3.681741952896118164e-01
4.856910407543182373e-01 -3.742831945419311523e-01 3.380293846130371094e-01
4.010180532932281494e-01 -2.219613045454025269e-01 2.819635570049285889e-01
3.781061768531799316e-01 -1.317874938249588013e-01 3.375980556011199951e-01
4.971013963222503662e-01 -1.227876767516136169e-01 3.529267907142639160e-01
3.911090791225433350e-01 -1.271791458129882812e-01 3.028254806995391846e-01
3.805472552776336670e-01 -3.212391138076782227e-01 3.045267164707183838e-01
4.995496273040771484e-01 -3.030794560909271240e-01 3.701754808425903320e-01
3.788188993930816650e-01 -2.453839927911758423e-01 2.974055409431457520e-01
3.744319081306457520e-01 -2.346506565809249878e-01 3.034402132034301758e-01
4.108551144599914551e-01 -4.164072871208190918e-01 3.604006171226501465e-01
4.299007058143615723e-01 -3.695577383041381836e-02 3.450853526592254639e-01
4.010289907455444336e-01 -3.587833046913146973e-01 2.965849339962005615e-01
3.712624013423919678e-01 -2.150682359933853149e-01 3.108647763729095459e-01
4.614373743534088135e-01 -4.430292546749114990e-02 3.478752970695495605e-01
5.028515458106994629e-01 -2.416408658027648926e-01 3.746114373207092285e-01
4.186034798622131348e-01 -4.031003117561340332e-01 3.062272071838378906e-01
4.699820876121520996e-01 -2.881890535354614258e-01 4.010833799839019775e-01
5.007348060607910156e-01 -1.960984617471694946e-01 3.242641687393188477e-01
4.212678670883178711e-01 -1.557630002498626709e-01 2.826383411884307861e-01
4.010279774665832520e-01 -1.889863461256027222e-01 3.901549577713012695e-01
3.845328688621520996e-01 -3.605394363403320312e-01 3.577376306056976318e-01
4.904286265373229980e-01 -1.522702276706695557e-01 3.146609067916870117e-01
4.332143068313598633e-01 -1.756275892257690430e-01 4.027068316936492920e-01
3.998099267482757568e-01 -9.939260780811309814e-02 3.054762482643127441e-01
4.276034235954284668e-01 -1.479562222957611084e-01 3.976401090621948242e-01
4.984920620918273926e-01 -2.815635800361633301e-01 3.229439258575439453e-01
3.983559012413024902e-01 -3.231475651264190674e-01 2.897657752037048340e-01
4.143939018249511719e-01 -4.240106642246246338e-01 3.226003646850585938e-01
4.855282604694366455e-01 -3.554509282112121582e-01 3.745315670967102051e-01
3.686800897121429443e-01 -1.989077478647232056e-01 3.420522212982177734e-01
4.939655065536499023e-01 -1.128825545310974121e-01 3.403708934783935547e-01
4.764516055583953857e-01 -2.170144617557525635e-01 4.007219374179840088e-01
3.754893541336059570e-01 -1.505183577537536621e-01 3.453371226787567139e-01
3.858111798763275146e-01 -1.750599741935729980e-01 2.959573864936828613e-01
4.756233990192413330e-01 -2.084435820579528809e-01 2.936209142208099365e-01
4.242515861988067627e-01 -8.183586597442626953e-02 3.789869546890258789e-01
4.768210649490356445e-01 -1.270040571689605713e-01 3.055110871791839600e-01
4.008521735668182373e-01 -3.142127692699432373e-01 3.879919350147247314e-01
4.793545305728912354e-01 -2.584767341613769531e-01 2.968199551105499268e-01
4.105446040630340576e-01 -2.802445888519287109e-01 3.972184956073760986e-01
4.118843376636505127e-01 -5.392065644264221191e-02 3.491908013820648193e-01
5.077736377716064453e-01 -2.291674911975860596e-01 3.558893799781799316e-01
4.322038292884826660e-01 -6.679075956344604492e-02 3.751919567584991455e-01
3.889459967613220215e-01 -2.508891522884368896e-01 3.831177651882171631e-01
3.865591287612915039e-01 -3.500677049160003662e-01 3.657354414463043213e-01
4.684686958789825439e-01 -3.937544226646423340e-01 3.199103772640228271e-01
5.071420073509216309e-01 -1.986303329467773438e-01 3.521837294101715088e-01
4.161958992481231689e-01 -1.527088880538940430e-01 3.941331505775451660e-01
4.445790946483612061e-01 -2.427019327878952026e-01 4.072625041007995605e-01
5.004072785377502441e-01 -3.155193626880645752e-01 3.417109251022338867e-01
5.062044858932495117e-01 -2.469745576381683350e-01 3.643469512462615967e-01
3.755767047405242920e-01 -1.507896482944488525e-01 3.211531341075897217e-01
4.828754067420959473e-01 -1.374265104532241821e-01 3.868993222713470459e-01
4.100917279720306396e-01 -4.267633259296417236e-01 3.451201021671295166e-01
4.489409327507019043e-01 -6.986057758331298828e-02 3.076624274253845215e-01
3.899450302124023438e-01 -9.432974457740783691e-02 3.451503813266754150e-01
4.824580252170562744e-01 -1.170535534620285034e-01 3.142918348312377930e-01
3.845851719379425049e-01 -3.765556514263153076e-01 3.260995447635650635e-01
4.976744055747985840e-01 -1.411653459072113037e-01 3.320263326168060303e-01
4.324762523174285889e-01 -4.368523359298706055e-01 3.530448377132415771e-01
4.860515296459197998e-01 -3.211585581302642822e-01 3.857544660568237305e-01
3.839015662670135498e-01 -3.777615427970886230e-01 3.358853459358215332e-01
4.723418951034545898e-01 -1.696006804704666138e-01 2.944209873676300049e-01
3.982679843902587891e-01 -2.450439780950546265e-01 3.909938335418701172e-01
4.326827228069305420e-01 -4.334161877632141113e-01 3.263103067874908447e-01
3.800754547119140625e-01 -3.519711196422576904e-01 3.521646261215209961e-01
4.927075505256652832e-01 -1.401230394840240479e-01 3.215169012546539307e-01
3.911528587341308594e-01 -3.810172080993652344e-01 3.146102130413055420e-01
4.343803524971008301e-01 -2.444549947977066040e-01 4.062216877937316895e-01
3.779332935810089111e-01 -2.076078355312347412e-01 3.678794205188751221e-01
4.410775303840637207e-01 -1.655439138412475586e-01 2.820888757705688477e-01
4.945156276226043701e-01 -2.057538181543350220e-01 3.866578936576843262e-01
3.796421587467193604e-01 -3.370870947837829590e-01 3.110836446285247803e-01
3.663924038410186768e-01 -2.648347914218902588e-01 3.310360312461853027e-01
4.212031066417694092e-01 -2.383167594671249390e-01 4.028957188129425049e-01
4.905304610729217529e-01 -3.097435832023620605e-01 3.835791945457458496e-01
4.292051196098327637e-01 -3.963221311569213867e-01 3.020631372928619385e-01
3.741404414176940918e-01 -1.892734169960021973e-01 3.576880991458892822e-01
4.584510028362274170e-01 -2.849079370498657227e-01 2.858117520809173584e-01
4.504322409629821777e-01 -3.698250651359558105e-02 3.393289446830749512e-01
4.461942017078399658e-01 -7.947824895381927490e-02 3.026698529720306396e-01
4.870628714561462402e-01 -2.112068980932235718e-01 3.939950764179229736e-01
4.559531509876251221e-01 -1.187093183398246765e-01 2.942406237125396729e-01
4.110213220119476318e-01 -6.065912544727325439e-02 3.196932375431060791e-01
4.387679100036621094e-01 -2.144954949617385864e-01 2.781637012958526611e-01
4.597251415252685547e-01 -3.654373288154602051e-01 3.902604579925537109e-01
4.723370671272277832e-01 -2.279375791549682617e-01 4.027355909347534180e-01
3.982892036437988281e-01 -1.218177005648612976e-01 3.747611641883850098e-01
4.980685710906982422e-01 -2.638001739978790283e-01 3.813807666301727295e-01
4.869691431522369385e-01 -9.127108752727508545e-02 3.376662433147430420e-01
3.709511756896972656e-01 -3.138751387596130371e-01 3.421451151371002197e-01
4.388892352581024170e-01 -1.847773492336273193e-01 4.044931828975677490e-01
4.235948026180267334e-01 -1.463153362274169922e-01 2.838636338710784912e-01
4.906624555587768555e-01 -2.954509556293487549e-01 3.127426803112030029e-01
4.086606800556182861e-01 -2.439897060394287109e-01 2.791961729526519775e-01
3.729857206344604492e-01 -2.750381231307983398e-01 3.075594604015350342e-01
4.514371752738952637e-01 -2.491891533136367798e-01 2.810856997966766357e-01
4.390648901462554932e-01 -3.779283463954925537e-01 2.966810464859008789e-01
4.004623591899871826e-01 -3.465057015419006348e-01 3.816505968570709229e-01
3.673034012317657471e-01 -2.167723178863525391e-01 3.406317830085754395e-01
4.611498117446899414e-01 -1.319671869277954102e-01 2.937797904014587402e-01
4.955516159534454346e-01 -2.462749779224395752e-01 -4.538245797157287598e-01
6.173074245452880859e-01 -2.101099491119384766e-02 -3.843786418437957764e-01
2.867856621742248535e-01 -8.803087472915649414e-02 -2.211764752864837646e-01
2.678139209747314453e-01 -5.135827064514160156e-01 -3.655664324760437012e-01
3.615892529487609863e-01 -5.431813597679138184e-01 -2.133764326572418213e-01
5.413384437561035156e-01 -4.645904898643493652e-01 -4.594213366508483887e-01
6.659479737281799316e-01 -6.157056093215942383e-01 -3.670522570610046387e-01
5.242824554443359375e-01 4.207047820091247559e-02 -3.628261685371398926e-01
4.437659978866577148e-01 -7.385815978050231934e-01 -3.084749579429626465e-01
3.405047655105590820e-01 -5.796988010406494141e-01 -2.202057391405105591e-01
6.035553812980651855e-01 -6.900843381881713867e-01 -3.652008771896362305e-01
3.586744666099548340e-01 -6.466327309608459473e-01 -3.779748678207397461e-01
7.396988868713378906e-01 -2.938987910747528076e-01 -3.977823853492736816e-01
5.167090892791748047e-01 -5.920655727386474609e-01 -4.369273483753204346e-01
6.333864927291870117e-01 -5.467801094055175781e-01 -3.030575811862945557e-01
5.184891819953918457e-01 -6.939174532890319824e-01 -4.006419479846954346e-01
6.737440824508666992e-01 -3.370427489280700684e-01 -3.064799904823303223e-01
5.695855617523193359e-01 -4.326047897338867188e-01 -4.640597105026245117e-01
2.476191520690917969e-01 -1.577403247356414795e-01 -2.101368308067321777e-01
4.536068141460418701e-01 -6.368781328201293945e-01 -4.137452840805053711e-01
2.593825161457061768e-01 -6.455484628677368164e-01 -2.894203066825866699e-01
3.008455038070678711e-01 -6.383585929870605469e-01 -3.483819663524627686e-01
6.900029778480529785e-01 -2.946707010269165039e-01 -3.205321431159973145e-01
6.725656986236572266e-01 -4.748052060604095459e-01 -3.159300982952117920e-01
5.836459398269653320e-01 -6.671659946441650391e-01 -3.163258433341979980e-01
5.753914713859558105e-01 -2.475739419460296631e-01 -4.622559547424316406e-01
5.652146339416503906e-01 -4.577523171901702881e-01 -4.619109034538269043e-01
4.544363021850585938e-01 -4.877435564994812012e-01 -2.207082808017730713e-01
2.891868948936462402e-01 -4.151881933212280273e-01 -3.893184065818786621e-01
1.999064385890960693e-01 -2.354375720024108887e-01 -3.268421590328216553e-01
1.799049377441406250e-01 -4.953006803989410400e-01 -2.780248224735260010e-01
4.693019092082977295e-01 -4.294467270374298096e-01 -2.189221680164337158e-01
3.697870373725891113e-01 -3.297392725944519043e-01 -4.251715838909149170e-01
5.011336207389831543e-01 -2.492827177047729492e-02 -4.100466370582580566e-01
5.055613517761230469e-01 -2.788251340389251709e-01 -2.272822558879852295e-01
1.853760778903961182e-01 -4.678390622138977051e-01 -2.310322821140289307e-01
5.647106170654296875e-01 -4.302996397018432617e-02 -4.185397028923034668e-01
5.847393870353698730e-01 -3.091279268264770508e-01 -2.566458582878112793e-01
2.462284266948699951e-01 -5.186558961868286133e-01 -3.499917685985565186e-01
5.699660778045654297e-01 -2.028320431709289551e-01 -4.571892321109771729e-01
6.716227531433105469e-01 -2.157023251056671143e-01 -3.147262632846832275e-01
6.181254386901855469e-01 -5.289806127548217773e-01 -2.897817194461822510e-01
6.175084114074707031e-01 -3.079662322998046875e-01 -2.726403772830963135e-01
4.850163161754608154e-01 -6.939373612403869629e-01 -3.973869085311889648e-01
3.360883593559265137e-01 -7.000751495361328125e-01 -2.775307297706604004e-01
3.945173025131225586e-01 -2.574302852153778076e-01 -4.303927719593048096e-01
6.377292275428771973e-01 -4.758142530918121338e-01 -2.923172712326049805e-01
4.314348995685577393e-01 -4.735946059226989746e-01 -2.138611376285552979e-01
3.136806786060333252e-01 -6.846515536308288574e-01 -3.267711102962493896e-01
3.548322319984436035e-01 -2.736710011959075928e-01 -1.952137053012847900e-01
6.772553324699401855e-01 -5.859472155570983887e-01 -4.125635623931884766e-01
6.531574726104736328e-01 -3.650971651077270508e-01 -4.634742140769958496e-01
6.966036558151245117e-01 -2.621714472770690918e-01 -3.293793499469757080e-01
6.597104668617248535e-01 -5.966711640357971191e-01 -3.421944081783294678e-01
3.765127360820770264e-01 -7.782790064811706543e-02 -2.241722792387008667e-01
5.170007944107055664e-01 -4.967055916786193848e-01 -4.532083272933959961e-01
5.617735385894775391e-01 -6.628575325012207031e-01 -3.007295727729797363e-01
5.813938379287719727e-01 -6.013549566268920898e-01 -2.877084016799926758e-01
1.806674599647521973e-01 -2.993002235889434814e-01 -3.143277466297149658e-01
3.805720508098602295e-01 -4.728760719299316406e-01 -2.049988210201263428e-01
6.342056393623352051e-01 -5.932072401046752930e-01 -3.177833557128906250e-01
3.260926604270935059e-01 -9.480452537536621094e-02 -3.801019787788391113e-01
2.636631727218627930e-01 -4.549304246902465820e-01 -2.001040428876876831e-01
6.734088063240051270e-01 -1.272614896297454834e-01 -4.217192828655242920e-01
5.091815590858459473e-01 8.473634719848632812e-03 -2.881290316581726074e-01
7.117875814437866211e-01 -2.544612884521484375e-01 -4.363542795181274414e-01
7.168091535568237305e-01 -1.899198144674301147e-01 -4.043204188346862793e-01
3.998866677284240723e-01 -2.325789332389831543e-01 -2.038675844669342041e-01
4.676336050033569336e-01 -2.693151831626892090e-01 -4.501752853393554688e-01
4.721623957157135010e-01 -7.202780246734619141e-01 -3.786069750785827637e-01
2.541774511337280273e-01 -4.626712203025817871e-02 -3.100025057792663574e-01
6.775242090225219727e-01 -5.288493633270263672e-01 -3.323594629764556885e-01
4.643623530864715576e-01 -2.102690488100051880e-01 -4.445462822914123535e-01
2.820938825607299805e-01 -3.135430514812469482e-01 -3.876047730445861816e-01
6.619279980659484863e-01 -5.710129737854003906e-01 -3.324280679225921631e-01
1.737112700939178467e-01 -2.728670835494995117e-01 -2.235045731067657471e-01
2.885881662368774414e-01 -5.767553448677062988e-01 -3.634393215179443359e-01
4.389944970607757568e-01 -2.291429042816162109e-02 -3.983841240406036377e-01
6.474115252494812012e-01 -6.375126838684082031e-01 -3.578144907951354980e-01
4.488835632801055908e-01 -2.391979694366455078e-01 -2.135351598262786865e-01
3.609992265701293945e-01 -4.139062762260437012e-01 -4.204314351081848145e-01
6.513704061508178711e-01 -9.581238031387329102e-02 -3.323457241058349609e-01
3.821784555912017822e-01 -1.145350337028503418e-01 -4.073633551597595215e-01
6.725177764892578125e-01 -8.700916171073913574e-02 -3.830377161502838135e-01
7.038891315460205078e-01 -4.500860869884490967e-01 -3.396567404270172119e-01
4.541883170604705811e-01 -1.165230572223663330e-01 -4.280408322811126709e-01
2.896053194999694824e-01 -2.481848001480102539e-01 -3.878051042556762695e-01
1.692731976509094238e-01 -3.359546363353729248e-01 -2.241335511207580566e-01
4.636363089084625244e-01 -6.757149100303649902e-01 -2.681435346603393555e-01
2.244166135787963867e-01 -5.404745340347290039e-01 -2.291490137577056885e-01
7.403604984283447266e-01 -3.689220547676086426e-01 -3.850066065788269043e-01
3.354309201240539551e-01 -4.355762004852294922e-01 -4.091030061244964600e-01
7.214114069938659668e-01 -4.509693682193756104e-01 -4.281687736511230469e-01
5.795935392379760742e-01 -1.360637843608856201e-01 -4.459519088268280029e-01
5.395230650901794434e-01 -2.822268903255462646e-01 -4.622119665145874023e-01
1.830807328224182129e-01 -1.926254034042358398e-01 -2.971516847610473633e-01
4.896889925003051758e-01 5.217355489730834961e-02 -3.168173730373382568e-01
2.208225131034851074e-01 -2.220194637775421143e-01 -3.425953984260559082e-01
2.369097322225570679e-01 -5.816782712936401367e-01 -2.405482828617095947e-01
2.063221186399459839e-01 -3.250829577445983887e-01 -2.034336179494857788e-01
3.239068984985351562e-01 -4.520590305328369141e-01 -1.978143751621246338e-01
5.651907920837402344e-01 -3.774943649768829346e-01 -4.661000967025756836e-01
6.914855241775512695e-01 -2.136905640363693237e-01 -3.325047791004180908e-01
5.624505877494812012e-01 -5.448827147483825684e-01 -2.651328146457672119e-01
7.119425535202026367e-01 -3.730971515178680420e-01 -3.397363722324371338e-01
6.239775419235229492e-01 -5.897340178489685059e-02 -4.130292236804962158e-01
5.806832313537597656e-01 -3.965494334697723389e-01 -2.559053599834442139e-01
7.026155591011047363e-01 -3.190947473049163818e-01 -3.304359316825866699e-01
5.645306706428527832e-01 -6.175947189331054688e-02 -2.844068408012390137e-01
6.953234076499938965e-01 -1.477559804916381836e-01 -4.124157130718231201e-01
7.215862274169921875e-01 -2.047397494316101074e-01 -3.827875852584838867e-01
5.115475058555603027e-01 -3.765654265880584717e-01 -2.287161946296691895e-01
3.634662628173828125e-01 -2.509170770645141602e-02 -3.740574419498443604e-01
3.495330214500427246e-01 -1.010367721319198608e-01 -3.920268416404724121e-01
1.890304684638977051e-01 -1.484916806221008301e-01 -2.490184903144836426e-01
3.879017829895019531e-01 -3.925442695617675781e-03 -2.506111860275268555e-01
4.816066026687622070e-01 -4.929505586624145508e-01 -2.285166680812835693e-01
3.421140015125274658e-01 -1.002570986747741699e-02 -2.465733587741851807e-01
2.068271040916442871e-01 -5.592825412750244141e-01 -2.573550343513488770e-01
3.369918167591094971e-01 -6.331565976142883301e-01 -3.724051713943481445e-01
5.516944527626037598e-01 -2.028484940528869629e-01 -2.496680319309234619e-01
3.933712542057037354e-01 -3.037196993827819824e-01 -4.323805868625640869e-01
4.253862202167510986e-01 -3.144751191139221191e-01 -4.420143365859985352e-01
6.355926394462585449e-01 -6.536512374877929688e-01 -3.939531445503234863e-01
3.401834964752197266e-01 -4.287557303905487061e-01 -1.965793669223785400e-01
5.904788970947265625e-01 -4.089086949825286865e-01 -4.660736918449401855e-01
5.084269642829895020e-01 -4.958636462688446045e-01 -2.370597422122955322e-01
2.627696394920349121e-01 -1.676397472620010376e-01 -3.622843027114868164e-01
3.648538589477539062e-01 -4.018700122833251953e-01 -1.971032023429870605e-01
3.294607400894165039e-01 -5.993753075599670410e-01 -3.796168267726898193e-01
2.191372066736221313e-01 -4.487946927547454834e-01 -3.422133326530456543e-01
3.696103096008300781e-01 -6.628648042678833008e-01 -2.488279640674591064e-01
4.988389611244201660e-01 1.878112554550170898e-02 -3.880474865436553955e-01
2.656590640544891357e-01 -3.662877976894378662e-01 -3.789341747760772705e-01
2.091258317232131958e-01 -4.890728592872619629e-01 -3.257043957710266113e-01
6.572799682617187500e-01 -5.375834703445434570e-01 -3.176403641700744629e-01
6.269813776016235352e-01 -4.317513108253479004e-01 -4.636216759681701660e-01
6.411960124969482422e-01 -2.805874943733215332e-01 -2.871141731739044189e-01
2.420838028192520142e-01 -5.004680752754211426e-01 -2.114545702934265137e-01
3.357822895050048828e-01 -4.652307033538818359e-01 -4.066790342330932617e-01
3.484428226947784424e-01 -5.134125947952270508e-01 -4.059911966323852539e-01
2.914278209209442139e-01 -3.476936817169189453e-01 -1.911391913890838623e-01
3.862585723400115967e-01 -1.434030681848526001e-01 -2.120279669761657715e-01
7.351168394088745117e-01 -3.994776010513305664e-01 -3.752270638942718506e-01
3.245612978935241699e-01 -6.569420099258422852e-01 -3.550101518630981445e-01
2.222528159618377686e-01 -4.772620797157287598e-01 -2.125163078308105469e-01
6.649614572525024414e-01 -1.041418612003326416e-01 -4.154805541038513184e-01
2.508826255798339844e-01 -2.040770649909973145e-01 -2.016016244888305664e-01
1.961799263954162598e-01 -3.834166526794433594e-01 -3.294369280338287354e-01
2.468732297420501709e-01 -2.977435588836669922e-01 -1.946557760238647461e-01
4.515141546726226807e-01 -5.602202415466308594e-01 -4.315413534641265869e-01
6.658476591110229492e-01 -2.294477671384811401e-01 -4.523683488368988037e-01
4.259831309318542480e-01 -3.759469687938690186e-01 -4.423696398735046387e-01
2.592157125473022461e-01 -4.578723907470703125e-01 -3.688752949237823486e-01
7.201340198516845703e-01 -4.831002950668334961e-01 -3.711276948451995850e-01
3.000186085700988770e-01 -1.005287319421768188e-01 -3.683828115463256836e-01
5.297786593437194824e-01 -6.524527072906494141e-01 -4.203064441680908203e-01
5.785132050514221191e-01 -7.008479833602905273e-01 -3.844542801380157471e-01
3.346461653709411621e-01 -2.166781425476074219e-01 -1.973825693130493164e-01
6.599372029304504395e-01 -4.458595514297485352e-01 -3.027454316616058350e-01
5.051954388618469238e-01 5.361676216125488281e-02 -3.386937677860260010e-01
4.435094892978668213e-01 1.959377527236938477e-02 -2.718561291694641113e-01
5.500993132591247559e-01 -5.912294387817382812e-01 -4.400328397750854492e-01
1.744351685047149658e-01 -4.675191640853881836e-01 -2.839845418930053711e-01
6.001430749893188477e-01 -1.781000792980194092e-01 -4.534047842025756836e-01
2.515746057033538818e-01 -1.401529014110565186e-01 -3.488655984401702881e-01
2.274974584579467773e-01 -2.687203288078308105e-01 -1.995640546083450317e-01
2.595303058624267578e-01 -6.553259491920471191e-02 -2.367060482501983643e-01
2.763261198997497559e-01 -9.406086802482604980e-02 -3.523322939872741699e-01
2.827166616916656494e-01 -1.213850975036621094e-01 -3.640754222869873047e-01
2.331703752279281616e-01 -8.798187971115112305e-02 -3.137375116348266602e-01
6.188706159591674805e-01 -2.988358438014984131e-01 -4.654981493949890137e-01
6.759291887283325195e-01 -3.416616022586822510e-01 -4.588546752929687500e-01
4.382210969924926758e-01 -6.961812973022460938e-01 -2.723034322261810303e-01
3.696283996105194092e-01 4.721057415008544922e-02 -3.246982097625732422e-01
4.776163995265960693e-01 -2.693634331226348877e-01 -2.192850857973098755e-01
1.992626041173934937e-01 -2.294963002204895020e-01 -2.130692452192306519e-01
5.321262478828430176e-01 -1.159885227680206299e-01 -2.554920613765716553e-01
4.680647850036621094e-01 4.366952180862426758e-02 -3.664711117744445801e-01
6.086513996124267578e-01 -4.113535284996032715e-01 -2.699311971664428711e-01
2.099963575601577759e-01 -2.889689505100250244e-01 -2.031678110361099243e-01
3.007473945617675781e-01 -5.558569431304931641e-01 -2.151425629854202271e-01
5.799922943115234375e-01 -7.012504339218139648e-01 -3.431563079357147217e-01
3.844171762466430664e-01 -6.921032071113586426e-01 -3.685324192047119141e-01
4.227984249591827393e-01 -7.435683608055114746e-01 -3.267832696437835693e-01
4.460791945457458496e-01 -3.299617767333984375e-01 -4.475951790809631348e-01
6.149396896362304688e-01 -3.380088508129119873e-01 -2.708574235439300537e-01
6.260761618614196777e-01 -5.362923741340637207e-01 -4.496980905532836914e-01
5.152803659439086914e-01 -1.147115230560302734e-01 -4.379985928535461426e-01
6.944611072540283203e-01 -4.838768839836120605e-01 -3.368442356586456299e-01
5.357736349105834961e-01 -1.779565215110778809e-02 -2.872442007064819336e-01
3.571309447288513184e-01 -3.670996725559234619e-01 -4.205818772315979004e-01
4.577611982822418213e-01 -7.392500042915344238e-01 -3.557993769645690918e-01
5.962806344032287598e-01 -4.437422752380371094e-01 -2.663653790950775146e-01
3.026689887046813965e-01 -4.590983092784881592e-01 -3.923524022102355957e-01
7.294664382934570312e-01 -2.493317425251007080e-01 -3.769178986549377441e-01
1.551743149757385254e-01 -3.324423134326934814e-01 -2.460564076900482178e-01
2.503674626350402832e-01 -5.625311732292175293e-01 -2.261199206113815308e-01
2.086500674486160278e-01 -5.274673700332641602e-01 -3.127691149711608887e-01
5.822739601135253906e-01 -5.398308634757995605e-01 -4.517199397087097168e-01
5.139343738555908203e-01 -2.331192493438720703e-01 -2.327932417392730713e-01
4.533119499683380127e-01 5.644422769546508789e-02 -3.492219746112823486e-01
1.760396957397460938e-01 -2.477107048034667969e-01 -3.022892773151397705e-01
7.023766040802001953e-01 -1.777089387178421021e-01 -4.209431409835815430e-01
4.963037371635437012e-01 -3.067962825298309326e-01 -2.235111594200134277e-01
4.568198621273040771e-01 -6.327874660491943359e-01 -2.506108283996582031e-01
4.973520040512084961e-01 -3.971220552921295166e-01 -2.250277400016784668e-01
5.653851628303527832e-01 -4.235169291496276855e-01 -2.509409785270690918e-01
1.700165867805480957e-01 -3.650394678115844727e-01 -3.013584017753601074e-01
3.339073657989501953e-01 -4.859399795532226562e-02 -3.695095181465148926e-01
3.775174617767333984e-01 -5.253053307533264160e-01 -4.153073430061340332e-01
4.664895534515380859e-01 -4.045262038707733154e-01 -2.166289687156677246e-01
3.917823731899261475e-01 -6.500323414802551270e-01 -3.905998468399047852e-01
4.444703161716461182e-01 -4.257112741470336914e-01 -4.452559351921081543e-01
4.365444779396057129e-01 -5.022817850112915039e-01 -4.365335702896118164e-01
3.917469680309295654e-01 -5.711456537246704102e-01 -2.223921269178390503e-01
4.829705357551574707e-01 -6.399966478347778320e-01 -4.188752770423889160e-01
6.591858863830566406e-01 -4.877632856369018555e-01 -4.526191651821136475e-01
5.064130425453186035e-01 -8.081111311912536621e-02 -2.539142966270446777e-01
1.840286254882812500e-01 -4.518712460994720459e-01 -3.065178990364074707e-01
5.371830463409423828e-01 -6.145817041397094727e-01 -4.331263899803161621e-01
5.312656164169311523e-01 -6.842743158340454102e-01 -2.962458729743957520e-01
4.184461236000061035e-01 -2.330181598663330078e-01 -4.355418682098388672e-01
3.943147063255310059e-01 -4.864581227302551270e-01 -4.260720908641815186e-01
3.314940929412841797e-01 -5.028337240219116211e-01 -2.045867890119552612e-01
5.913373827934265137e-01 -5.640882253646850586e-01 -2.828721702098846436e-01
4.801783561706542969e-01 -1.675126552581787109e-01 -2.291460633277893066e-01
7.082450389862060547e-01 -5.266163945198059082e-01 -3.717708885669708252e-01
3.366730809211730957e-01 -6.880742311477661133e-01 -3.437786996364593506e-01
2.792083024978637695e-01 -6.438174247741699219e-01 -3.269294202327728271e-01
4.582450091838836670e-01 -1.238873898983001709e-01 -2.299472391605377197e-01
2.089099436998367310e-01 -4.452525973320007324e-01 -2.116357088088989258e-01
5.612555742263793945e-01 -5.102933645248413086e-01 -4.558045864105224609e-01
4.261514842510223389e-01 -1.088966429233551025e-01 -4.196029901504516602e-01
3.429471552371978760e-01 -7.405102252960205078e-02 -3.820590078830718994e-01
4.324778914451599121e-01 6.397008895874023438e-03 -3.839731216430664062e-01
5.721099972724914551e-01 -2.788598537445068359e-01 -4.644591808319091797e-01
3.940893709659576416e-01 -5.995365381240844727e-01 -4.065533578395843506e-01
5.882886648178100586e-01 -6.719134449958801270e-01 -4.068147838115692139e-01
4.485681653022766113e-01 -1.899899095296859741e-01 -4.386769235134124756e-01
6.740784645080566406e-01 -2.775152921676635742e-01 -3.092041015625000000e-01
4.717318415641784668e-01 -2.883505821228027344e-02 -4.074613153934478760e-01
5.796245932579040527e-01 -3.039866089820861816e-01 -4.660367965698242188e-01
4.850403666496276855e-01 -3.794561028480529785e-01 -4.558062553405761719e-01
4.568917453289031982e-01 -6.948598623275756836e-01 -3.915272951126098633e-01
7.081869244575500488e-01 -4.171958863735198975e-01 -4.439140558242797852e-01
5.900924205780029297e-01 8.005768060684204102e-03 -3.564459681510925293e-01
5.575484633445739746e-01 3.618806600570678711e-03 -3.118939995765686035e-01
2.765535712242126465e-01 -2.010208368301391602e-01 -1.990480720996856689e-01
1.617045700550079346e-01 -3.787016868591308594e-01 -2.366879880428314209e-01
5.212628841400146484e-01 -1.869927495718002319e-01 -4.512435197830200195e-01
5.771166086196899414e-01 -3.349149227142333984e-01 -2.529317736625671387e-01
5.373194217681884766e-01 1.989847421646118164e-02 -3.108707666397094727e-01
3.296196460723876953e-01 -3.535410165786743164e-01 -1.921558827161788940e-01
4.383191466331481934e-01 -2.680495977401733398e-01 -2.093676924705505371e-01
4.191886782646179199e-01 -1.581218838691711426e-02 -2.500321567058563232e-01
4.600777626037597656e-01 -7.061713337898254395e-01 -2.829642891883850098e-01
7.376427650451660156e-01 -4.247465133666992188e-01 -3.952282071113586426e-01
6.240126490592956543e-01 -3.753459453582763672e-01 -2.762075066566467285e-01
3.765726983547210693e-01 2.936103940010070801e-02 -2.697107195854187012e-01
3.225551545619964600e-01 -4.890066385269165039e-02 -2.309156209230422974e-01
1.889117360115051270e-01 -4.153080582618713379e-01 -2.167394608259201050e-01
5.413244366645812988e-01 -2.528628408908843994e-01 -4.604322314262390137e-01
4.686762392520904541e-01 6.129437685012817383e-02 -3.268773555755615234e-01
3.581159710884094238e-01 -4.968118965625762939e-01 -2.054669559001922607e-01
6.277571916580200195e-01 -4.432357251644134521e-01 -2.826415002346038818e-01
2.867642641067504883e-01 -3.154818713665008545e-01 -1.911436319351196289e-01
5.708205103874206543e-01 -6.240172386169433594e-01 -2.896103262901306152e-01
6.459711194038391113e-01 -3.414344191551208496e-01 -2.881757318973541260e-01
6.552928090095520020e-01 -4.582507610321044922e-01 -4.574765563011169434e-01
2.826878130435943604e-01 -8.004903793334960938e-04 -2.894944548606872559e-01
6.224673986434936523e-01 -5.689537525177001953e-02 -3.252065181732177734e-01
6.583411693572998047e-01 -5.811668038368225098e-01 -4.284137487411499023e-01
4.537684619426727295e-01 -5.798535346984863281e-01 -2.359513044357299805e-01
6.045597195625305176e-01 -4.929642677307128906e-01 -4.586309790611267090e-01
4.011366963386535645e-01 -3.986672759056091309e-01 -2.021563500165939331e-01
4.370715022087097168e-01 -1.408450454473495483e-01 -2.218869030475616455e-01
4.622934460639953613e-01 -5.178546905517578125e-01 -2.267176210880279541e-01
