5.049911141395568848e-01 -6.207940578460693359e-01 -3.925360143184661865e-01
3.825853168964385986e-01 -4.975339770317077637e-01 -2.339255213737487793e-01
4.562578797340393066e-01 -1.909858584403991699e-01 -2.872890233993530273e-01
4.017578959465026855e-01 -6.467647552490234375e-01 -4.157527089118957520e-01
4.284141957759857178e-01 -3.708059787750244141e-01 -2.239211499691009521e-01
3.613658249378204346e-01 -7.012277245521545410e-01 -2.931233346462249756e-01
4.371520280838012695e-01 -8.199000954627990723e-01 -3.312596678733825684e-01
4.776891469955444336e-01 -3.351591229438781738e-01 -4.029604196548461914e-01
4.736998379230499268e-01 -6.362792253494262695e-01 -4.129428863525390625e-01
4.741544723510742188e-01 -7.117781639099121094e-01 -2.571533322334289551e-01
4.662325382232666016e-01 -4.337556958198547363e-01 -2.209519445896148682e-01
5.309520363807678223e-01 -3.474460244178771973e-01 -3.313283026218414307e-01
4.895396828651428223e-01 -5.316123962402343750e-01 -4.139696359634399414e-01
3.391447067260742188e-01 -5.467460155487060547e-01 -3.659214377403259277e-01
5.067653059959411621e-01 -6.559438109397888184e-01 -3.821051120758056641e-01
4.385021626949310303e-01 -7.819807529449462891e-01 -3.786267340183258057e-01
3.404746949672698975e-01 -5.618222355842590332e-01 -2.885698676109313965e-01
4.924488067626953125e-01 -3.769105076789855957e-01 -4.021277725696563721e-01
4.451146125793457031e-01 -5.031181573867797852e-01 -2.170457541942596436e-01
4.967201352119445801e-01 -6.093256473541259766e-01 -2.448569834232330322e-01
4.822786450386047363e-01 -6.905370354652404785e-01 -3.960963487625122070e-01
3.606293499469757080e-01 -4.730964004993438721e-01 -3.989255130290985107e-01
3.910329043865203857e-01 -7.870393991470336914e-01 -3.488998413085937500e-01
3.656319081783294678e-01 -6.906493306159973145e-01 -2.803556621074676514e-01
4.259873330593109131e-01 -1.998424530029296875e-01 -2.792051434516906738e-01
5.335119366645812988e-01 -5.830378532409667969e-01 -2.932423651218414307e-01
5.341080427169799805e-01 -5.496057868003845215e-01 -2.855117321014404297e-01
5.200138688087463379e-01 -5.930045843124389648e-01 -2.666388154029846191e-01
4.894856810569763184e-01 -7.592313289642333984e-01 -3.535168468952178955e-01
4.410463571548461914e-01 -6.302415728569030762e-01 -4.228954911231994629e-01
4.382586181163787842e-01 -6.857879757881164551e-01 -4.134334921836853027e-01
4.202511608600616455e-01 -5.942836999893188477e-01 -2.252953052520751953e-01
4.301652610301971436e-01 -5.995514392852783203e-01 -4.267270565032958984e-01
4.760283827781677246e-01 -4.737481772899627686e-01 -2.229824960231781006e-01
3.626568317413330078e-01 -2.964815497398376465e-01 -3.550350666046142578e-01
4.820379912853240967e-01 -2.636783719062805176e-01 -3.780121207237243652e-01
3.380020260810852051e-01 -6.127840280532836914e-01 -3.420721292495727539e-01
5.166032314300537109e-01 -3.313211202621459961e-01 -2.714937329292297363e-01
3.328707814216613770e-01 -5.164828896522521973e-01 -3.095821142196655273e-01
4.842085838317871094e-01 -4.351568818092346191e-01 -2.274401783943176270e-01
5.342050790786743164e-01 -5.180152058601379395e-01 -2.809487581253051758e-01
4.216638207435607910e-01 -7.609225511550903320e-01 -2.683911919593811035e-01
3.328118324279785156e-01 -5.348954200744628906e-01 -3.124953210353851318e-01
5.002344250679016113e-01 -2.430947422981262207e-01 -3.414622545242309570e-01
4.594890475273132324e-01 -2.277242243289947510e-01 -3.738294243812561035e-01
3.528843224048614502e-01 -3.956483006477355957e-01 -3.782974481582641602e-01
4.186720848083496094e-01 -7.166781425476074219e-01 -2.514095902442932129e-01
4.660763442516326904e-01 -8.038252592086791992e-01 -3.218616843223571777e-01
3.982374966144561768e-01 -2.607620060443878174e-01 -2.609926164150238037e-01
5.268045663833618164e-01 -3.321263492107391357e-01 -2.963642477989196777e-01
4.287186861038208008e-01 -7.961895465850830078e-01 -2.890438139438629150e-01
4.848387241363525391e-01 -7.316057682037353516e-01 -2.734206318855285645e-01
4.704063534736633301e-01 -6.141281723976135254e-01 -2.314863502979278564e-01
5.340963006019592285e-01 -6.090494394302368164e-01 -3.132466971874237061e-01
3.607492446899414062e-01 -6.585490107536315918e-01 -2.753369212150573730e-01
3.936342597007751465e-01 -2.412786781787872314e-01 -3.666037619113922119e-01
4.953309893608093262e-01 -4.711901843547821045e-01 -2.326012551784515381e-01
5.135258436203002930e-01 -3.711642026901245117e-01 -2.567923665046691895e-01
5.226932168006896973e-01 -6.635655164718627930e-01 -3.014936149120330811e-01
5.280819535255432129e-01 -6.496315598487854004e-01 -3.251399099826812744e-01
4.095599055290222168e-01 -6.698421239852905273e-01 -2.410972714424133301e-01
5.029590725898742676e-01 -5.369550585746765137e-01 -4.038078188896179199e-01
4.938209950923919678e-01 -2.526042759418487549e-01 -3.605464696884155273e-01
5.235188603401184082e-01 -6.705073118209838867e-01 -3.319535851478576660e-01
4.178133606910705566e-01 -6.744304299354553223e-01 -4.148879647254943848e-01
4.842449724674224854e-01 -7.612078189849853516e-01 -2.921217083930969238e-01
3.930564820766448975e-01 -6.201047897338867188e-01 -2.383939921855926514e-01
5.173968672752380371e-01 -6.840429902076721191e-01 -3.483141362667083740e-01
4.532886445522308350e-01 -5.542790889739990234e-01 -2.204271256923675537e-01
5.190743207931518555e-01 -4.143282175064086914e-01 -2.572334110736846924e-01
4.721157550811767578e-01 -7.829918861389160156e-01 -3.584018349647521973e-01
5.179091691970825195e-01 -6.942016482353210449e-01 -3.315766751766204834e-01
5.312724709510803223e-01 -4.180335402488708496e-01 -3.607005476951599121e-01
4.220928847789764404e-01 -2.919591069221496582e-01 -4.013618230819702148e-01
4.321434199810028076e-01 -5.485235452651977539e-01 -2.193700820207595825e-01
5.282374620437622070e-01 -6.141827702522277832e-01 -3.555802702903747559e-01
3.427771627902984619e-01 -3.600067794322967529e-01 -3.235947787761688232e-01
4.836873412132263184e-01 -6.061195135116577148e-01 -2.360006570816040039e-01
4.096803963184356689e-01 -3.093425631523132324e-01 -2.395098954439163208e-01
4.470520615577697754e-01 -5.905119180679321289e-01 -4.264677166938781738e-01
3.453756272792816162e-01 -4.424110054969787598e-01 -2.769083380699157715e-01
4.191485047340393066e-01 -7.268812060356140137e-01 -4.016561806201934814e-01
4.362165927886962891e-01 -3.840323984622955322e-01 -2.216658294200897217e-01
4.437516927719116211e-01 -5.886598825454711914e-01 -2.229233384132385254e-01
4.582498073577880859e-01 -2.498710304498672485e-01 -2.524366378784179688e-01
3.497309982776641846e-01 -6.768605709075927734e-01 -3.089887201786041260e-01
3.651579022407531738e-01 -4.507430791854858398e-01 -4.016164541244506836e-01
5.200233459472656250e-01 -6.847513914108276367e-01 -3.139358758926391602e-01
3.801997900009155273e-01 -4.005262255668640137e-01 -4.074282050132751465e-01
4.694302082061767578e-01 -4.021247923374176025e-01 -2.239496260881423950e-01
3.830462098121643066e-01 -2.269615828990936279e-01 -3.082088828086853027e-01
4.826306700706481934e-01 -4.033829867839813232e-01 -4.120340049266815186e-01
3.690182566642761230e-01 -5.615653991699218750e-01 -4.065937995910644531e-01
5.102043747901916504e-01 -3.394972085952758789e-01 -3.769328594207763672e-01
4.166341125965118408e-01 -3.815689086914062500e-01 -2.249669134616851807e-01
5.224412679672241211e-01 -6.402832865715026855e-01 -3.601628839969635010e-01
4.172123074531555176e-01 -8.163379430770874023e-01 -3.297211527824401855e-01
4.787299036979675293e-01 -2.249155938625335693e-01 -3.595746159553527832e-01
5.282974243164062500e-01 -3.992428183555603027e-01 -2.744216024875640869e-01
3.902922272682189941e-01 -4.000608623027801514e-01 -2.337809205055236816e-01
5.171523690223693848e-01 -5.188369154930114746e-01 -2.527981400489807129e-01
3.875958919525146484e-01 -7.019248008728027344e-01 -2.614325284957885742e-01
4.761697947978973389e-01 -7.501982450485229492e-01 -2.758288681507110596e-01
4.264271855354309082e-01 -7.320603728294372559e-01 -2.552334070205688477e-01
3.892720937728881836e-01 -3.571991324424743652e-01 -2.403451204299926758e-01
4.181627035140991211e-01 -1.855176389217376709e-01 -3.369616568088531494e-01
3.701935410499572754e-01 -4.151011109352111816e-01 -2.470439076423645020e-01
3.332400619983673096e-01 -4.647384881973266602e-01 -3.411301374435424805e-01
3.421263694763183594e-01 -4.284644722938537598e-01 -3.650460243225097656e-01
5.021559000015258789e-01 -3.655989170074462891e-01 -2.461476027965545654e-01
3.884521722793579102e-01 -4.237656295299530029e-01 -4.153327941894531250e-01
4.418221116065979004e-01 -6.818174123764038086e-01 -2.393758445978164673e-01
5.153368711471557617e-01 -5.441763401031494141e-01 -2.528519332408905029e-01
4.155400395393371582e-01 -2.651526629924774170e-01 -2.499021291732788086e-01
4.540909230709075928e-01 -3.513132333755493164e-01 -4.145180583000183105e-01
4.674706757068634033e-01 -4.324369728565216064e-01 -4.216046929359436035e-01
3.453788757324218750e-01 -4.222346842288970947e-01 -2.799981236457824707e-01
4.904159903526306152e-01 -2.166197001934051514e-01 -3.026381433010101318e-01
4.598990082740783691e-01 -1.795122921466827393e-01 -3.210757970809936523e-01
4.516912698745727539e-01 -3.838277161121368408e-01 -4.202350676059722900e-01
4.994109869003295898e-01 -4.247644841670989990e-01 -2.371123135089874268e-01
5.335310101509094238e-01 -3.626981079578399658e-01 -3.068128526210784912e-01
5.405500531196594238e-01 -5.439332127571105957e-01 -3.248401284217834473e-01
3.488821387290954590e-01 -3.781004548072814941e-01 -3.657852411270141602e-01
4.974692761898040771e-01 -7.306631207466125488e-01 -2.889031171798706055e-01
5.397282838821411133e-01 -4.980655014514923096e-01 -2.970105111598968506e-01
4.903463125228881836e-01 -6.530550718307495117e-01 -3.994483947753906250e-01
5.388482809066772461e-01 -5.678372979164123535e-01 -3.175558447837829590e-01
5.415213108062744141e-01 -4.506148695945739746e-01 -3.138734996318817139e-01
4.063380956649780273e-01 -4.969491660594940186e-01 -2.224611341953277588e-01
5.363909602165222168e-01 -4.346698522567749023e-01 -2.884328067302703857e-01
3.668437600135803223e-01 -3.139431774616241455e-01 -2.734349668025970459e-01
5.394768118858337402e-01 -4.132543802261352539e-01 -3.226957619190216064e-01
4.988310635089874268e-01 -6.781260967254638672e-01 -2.644774615764617920e-01
5.273037552833557129e-01 -6.485361456871032715e-01 -3.093929290771484375e-01
3.944529592990875244e-01 -5.685609579086303711e-01 -4.215288162231445312e-01
4.637379944324493408e-01 -7.425497770309448242e-01 -3.895943760871887207e-01
5.255136489868164062e-01 -3.131279349327087402e-01 -3.160887658596038818e-01
3.974242806434631348e-01 -4.653976261615753174e-01 -2.260794639587402344e-01
4.367587566375732422e-01 -2.267061173915863037e-01 -3.774996101856231689e-01
4.683580100536346436e-01 -3.965480029582977295e-01 -4.175162911415100098e-01
3.548340797424316406e-01 -7.079099416732788086e-01 -3.251287043094635010e-01
3.425155282020568848e-01 -5.174610614776611328e-01 -3.749078810214996338e-01
3.615000247955322266e-01 -2.792873978614807129e-01 -3.295373320579528809e-01
4.296618998050689697e-01 -5.309047698974609375e-01 -4.304223358631134033e-01
3.584072291851043701e-01 -6.075751781463623047e-01 -2.653903663158416748e-01
4.039278328418731689e-01 -7.015119791030883789e-01 -2.517047524452209473e-01
3.466171324253082275e-01 -3.410885334014892578e-01 -3.337872922420501709e-01
4.776599407196044922e-01 -5.400964021682739258e-01 -4.201864600181579590e-01
3.464919328689575195e-01 -4.753353893756866455e-01 -3.805472254753112793e-01
5.013518333435058594e-01 -5.693044662475585938e-01 -4.030260443687438965e-01
5.048074722290039062e-01 -7.364857196807861328e-01 -3.311709165573120117e-01
4.447536170482635498e-01 -2.881361246109008789e-01 -4.010659456253051758e-01
4.206754863262176514e-01 -4.090071022510528564e-01 -4.239434003829956055e-01
3.648663163185119629e-01 -6.685943603515625000e-01 -3.851171135902404785e-01
3.383630514144897461e-01 -4.458701312541961670e-01 -2.934840321540832520e-01
5.395195484161376953e-01 -5.197877287864685059e-01 -2.987760007381439209e-01
5.403375029563903809e-01 -4.620663225650787354e-01 -3.006376922130584717e-01
4.623606801033020020e-01 -2.716547250747680664e-01 -3.917804956436157227e-01
3.442237973213195801e-01 -4.577633738517761230e-01 -3.746892809867858887e-01
3.836785554885864258e-01 -3.677875399589538574e-01 -4.040327668190002441e-01
4.468614757061004639e-01 -6.337662935256958008e-01 -2.296391725540161133e-01
5.171891450881958008e-01 -5.606980323791503906e-01 -3.869495391845703125e-01
4.547214806079864502e-01 -3.382170200347900391e-01 -2.287139892578125000e-01
4.586442708969116211e-01 -7.528300285339355469e-01 -2.670279741287231445e-01
4.218712449073791504e-01 -6.284587383270263672e-01 -2.298610061407089233e-01
3.868959546089172363e-01 -3.263765275478363037e-01 -2.483434379100799561e-01
4.639509618282318115e-01 -5.426610112190246582e-01 -2.215777337551116943e-01
5.350534319877624512e-01 -5.748443007469177246e-01 -3.475448489189147949e-01
4.132966101169586182e-01 -1.852055788040161133e-01 -3.111711442470550537e-01
3.737199902534484863e-01 -4.936390519142150879e-01 -4.112307429313659668e-01
4.697511196136474609e-01 -5.020160079002380371e-01 -2.212071269750595093e-01
4.359581470489501953e-01 -6.075580716133117676e-01 -2.252606153488159180e-01
4.994348585605621338e-01 -2.880845069885253906e-01 -3.717791736125946045e-01
3.781408667564392090e-01 -3.122375011444091797e-01 -2.599282860755920410e-01
5.144336819648742676e-01 -4.756038486957550049e-01 -2.484555840492248535e-01
3.886731863021850586e-01 -7.735184431076049805e-01 -2.990909516811370850e-01
4.103653728961944580e-01 -5.525820851325988770e-01 -4.273624420166015625e-01
4.452106654644012451e-01 -2.315485775470733643e-01 -2.580295801162719727e-01
4.484694600105285645e-01 -3.671613037586212158e-01 -4.182323217391967773e-01
3.544724881649017334e-01 -3.875954151153564453e-01 -2.702923119068145752e-01
4.835960566997528076e-01 -3.623668849468231201e-01 -4.052554666996002197e-01
4.037098288536071777e-01 -6.667056679725646973e-01 -4.128520488739013672e-01
3.333379626274108887e-01 -4.963605403900146484e-01 -3.067328929901123047e-01
4.708197414875030518e-01 -5.854666233062744141e-01 -2.276192903518676758e-01
4.117834866046905518e-01 -7.968832254409790039e-01 -3.627706766128540039e-01
3.623200654983520508e-01 -3.579382896423339844e-01 -2.656960487365722656e-01
4.535440802574157715e-01 -4.103121459484100342e-01 -4.231833517551422119e-01
4.437092542648315430e-01 -7.624583244323730469e-01 -3.880799412727355957e-01
5.133793950080871582e-01 -7.103039026260375977e-01 -3.321958482265472412e-01
4.080722630023956299e-01 -7.284617424011230469e-01 -2.590305507183074951e-01
5.207551121711730957e-01 -5.080865025520324707e-01 -3.853134512901306152e-01
5.374624133110046387e-01 -4.950605034828186035e-01 -3.520378172397613525e-01
3.843768537044525146e-01 -3.726329505443572998e-01 -2.411088943481445312e-01
5.203775763511657715e-01 -6.214555501937866211e-01 -3.710732460021972656e-01
5.411375761032104492e-01 -5.292651057243347168e-01 -3.135581612586975098e-01
5.255441069602966309e-01 -4.825367629528045654e-01 -2.626463770866394043e-01
3.842502236366271973e-01 -7.545937299728393555e-01 -2.897398769855499268e-01
3.518461883068084717e-01 -3.430665731430053711e-01 -3.573822081089019775e-01
4.956859052181243896e-01 -6.619941592216491699e-01 -2.562577724456787109e-01
4.422439038753509521e-01 -8.115663528442382812e-01 -3.061118721961975098e-01
3.633176684379577637e-01 -3.335274457931518555e-01 -3.750844299793243408e-01
3.545625805854797363e-01 -4.211904704570770264e-01 -3.859356939792633057e-01
5.335200428962707520e-01 -3.726986348628997803e-01 -3.379076123237609863e-01
3.373886644840240479e-01 -5.402119755744934082e-01 -2.938463687896728516e-01
3.668368458747863770e-01 -6.506510972976684570e-01 -3.921791911125183105e-01
4.126359820365905762e-01 -2.301173508167266846e-01 -3.735598325729370117e-01
3.914400339126586914e-01 -2.822706699371337891e-01 -2.578731477260589600e-01
3.752923607826232910e-01 -3.560855388641357422e-01 -3.951371014118194580e-01
3.335160017013549805e-01 -5.318878293037414551e-01 -3.477936387062072754e-01
4.830222129821777344e-01 -7.825824022293090820e-01 -3.297708630561828613e-01
4.027443826198577881e-01 -3.987664878368377686e-01 -4.184056520462036133e-01
3.796234726905822754e-01 -6.826373338699340820e-01 -3.959628939628601074e-01
4.762247204780578613e-01 -2.495927959680557251e-01 -2.601969242095947266e-01
3.397514820098876953e-01 -5.022615194320678711e-01 -3.688089549541473389e-01
3.727078437805175781e-01 -2.590950429439544678e-01 -3.476614952087402344e-01
3.380189538002014160e-01 -5.737803578376770020e-01 -3.585035204887390137e-01
3.668865561485290527e-01 -3.944592177867889404e-01 -2.529588937759399414e-01
3.498367071151733398e-01 -3.401915431022644043e-01 -2.982020378112792969e-01
4.782970845699310303e-01 -2.008198797702789307e-01 -2.988735437393188477e-01
4.727988541126251221e-01 -6.943393945693969727e-01 -2.506033480167388916e-01
3.902499675750732422e-01 -7.061366438865661621e-01 -3.967331051826477051e-01
5.114260315895080566e-01 -6.095067858695983887e-01 -2.588452696800231934e-01
3.976351022720336914e-01 -6.874976754188537598e-01 -2.506648898124694824e-01
5.031849145889282227e-01 -5.783908963203430176e-01 -2.450792193412780762e-01
5.119850635528564453e-01 -6.998164653778076172e-01 -2.967794835567474365e-01
4.086719155311584473e-01 -4.281913936138153076e-01 -4.235500395298004150e-01
3.512357771396636963e-01 -5.172645449638366699e-01 -3.892005085945129395e-01
4.287875592708587646e-01 -5.476982593536376953e-01 -4.299589097499847412e-01
4.717244803905487061e-01 -5.213912725448608398e-01 -2.225414812564849854e-01
4.633671343326568604e-01 -3.282122611999511719e-01 -4.073769450187683105e-01
5.248365402221679688e-01 -3.566081523895263672e-01 -3.579137325286865234e-01
5.196307897567749023e-01 -5.337870121002197266e-01 -3.858810663223266602e-01
3.561877906322479248e-01 -3.083899021148681641e-01 -3.003595769405364990e-01
4.120983183383941650e-01 -7.732192873954772949e-01 -2.784152626991271973e-01
5.418532490730285645e-01 -4.816661477088928223e-01 -3.100503087043762207e-01
5.272224545478820801e-01 -5.123882889747619629e-01 -2.664129137992858887e-01
3.315007388591766357e-01 -5.052678585052490234e-01 -3.213391304016113281e-01
4.559515714645385742e-01 -4.601450562477111816e-01 -2.179803103208541870e-01
4.511746466159820557e-01 -6.586589813232421875e-01 -4.169420897960662842e-01
4.906964600086212158e-01 -3.579064011573791504e-01 -2.389105707406997681e-01
5.420330166816711426e-01 -4.659956395626068115e-01 -3.232008814811706543e-01
3.879539072513580322e-01 -6.501570940017700195e-01 -2.470147013664245605e-01
4.036256670951843262e-01 -7.166458368301391602e-01 -4.003822803497314453e-01
4.480225741863250732e-01 -8.081576824188232422e-01 -3.534342646598815918e-01
5.153463482856750488e-01 -6.842058897018432617e-01 -2.938610017299652100e-01
5.205181241035461426e-01 -3.877668380737304688e-01 -3.747085630893707275e-01
4.763511717319488525e-01 -2.800137400627136230e-01 -2.489016801118850708e-01
4.037750065326690674e-01 -8.022229671478271484e-01 -3.479793369770050049e-01
4.941804409027099609e-01 -3.307730555534362793e-01 -3.910609483718872070e-01
4.107799232006072998e-01 -3.626652061939239502e-01 -2.291364669799804688e-01
4.312871992588043213e-01 -3.452484309673309326e-01 -2.271824479103088379e-01
5.257788300514221191e-01 -6.206359267234802246e-01 -2.857443690299987793e-01
5.353196263313293457e-01 -3.803806900978088379e-01 -3.034784495830535889e-01
4.161514341831207275e-01 -2.472830116748809814e-01 -3.836092948913574219e-01
3.388631343841552734e-01 -6.186337471008300781e-01 -3.148236572742462158e-01
4.035241007804870605e-01 -2.119298875331878662e-01 -2.853888273239135742e-01
3.709709048271179199e-01 -6.033189296722412109e-01 -4.043377637863159180e-01
3.727433383464813232e-01 -7.484006881713867188e-01 -3.049508631229400635e-01
4.460926055908203125e-01 -2.130551338195800781e-01 -3.691106438636779785e-01
3.532327413558959961e-01 -5.014005303382873535e-01 -3.916791975498199463e-01
4.280857145786285400e-01 -4.386566579341888428e-01 -2.183280885219573975e-01
5.313224792480468750e-01 -6.308082342147827148e-01 -3.207629024982452393e-01
5.144954323768615723e-01 -4.374149143695831299e-01 -3.901523649692535400e-01
4.943551421165466309e-01 -7.517212629318237305e-01 -3.017725646495819092e-01
5.299198627471923828e-01 -5.277543663978576660e-01 -3.694052398204803467e-01
4.249660074710845947e-01 -7.932770252227783203e-01 -3.708907365798950195e-01
4.016308784484863281e-01 -2.528387308120727539e-01 -3.792282044887542725e-01
5.085656642913818359e-01 -6.004046797752380371e-01 -3.921755552291870117e-01
3.645784854888916016e-01 -7.388283014297485352e-01 -3.239319324493408203e-01
4.101230204105377197e-01 -5.122320055961608887e-01 -2.215979695320129395e-01
3.863564431667327881e-01 -2.201029658317565918e-01 -3.312672674655914307e-01
5.048446059226989746e-01 -3.872542977333068848e-01 -2.452256083488464355e-01
5.245625376701354980e-01 -6.408871412277221680e-01 -2.921257019042968750e-01
4.294407069683074951e-01 -4.824617505073547363e-01 -4.300267100334167480e-01
5.226660370826721191e-01 -3.490930795669555664e-01 -2.765060067176818848e-01
3.728552758693695068e-01 -3.692741990089416504e-01 -2.511721849441528320e-01
4.334553182125091553e-01 -5.141276121139526367e-01 -4.306177198886871338e-01
3.955526947975158691e-01 -2.318184077739715576e-01 -2.787396311759948730e-01
4.345729947090148926e-01 -1.748606562614440918e-01 -3.108273446559906006e-01
4.338940382003784180e-01 -4.009552597999572754e-01 -4.239537715911865234e-01
4.772887229919433594e-01 -5.978434681892395020e-01 -4.162961244583129883e-01
3.925201892852783203e-01 -5.849536657333374023e-01 -4.195460975170135498e-01
4.756416082382202148e-01 -2.914410233497619629e-01 -3.923725485801696777e-01
5.118371248245239258e-01 -4.519405961036682129e-01 -3.943393826484680176e-01
4.484964907169342041e-01 -3.308621048927307129e-01 -4.114226996898651123e-01
4.764896631240844727e-01 -1.996912956237792969e-01 -3.371018767356872559e-01
5.115337967872619629e-01 -4.542301595211029053e-01 -2.458826303482055664e-01
5.238024592399597168e-01 -4.884977340698242188e-01 -3.809301555156707764e-01
5.262325406074523926e-01 -3.339929878711700439e-01 -3.427168130874633789e-01
5.331709980964660645e-01 -5.349782109260559082e-01 -2.805251479148864746e-01
3.939168453216552734e-01 -3.081910014152526855e-01 -2.480322718620300293e-01
5.373135209083557129e-01 -3.886856138706207275e-01 -3.168328106403350830e-01
3.513357043266296387e-01 -6.663772463798522949e-01 -2.965001463890075684e-01
4.526516497135162354e-01 -5.548247098922729492e-01 -4.278112351894378662e-01
4.906331300735473633e-01 -4.988209903240203857e-01 -4.136354327201843262e-01
5.039081573486328125e-01 -6.927788853645324707e-01 -2.767357528209686279e-01
4.038499295711517334e-01 -3.471993207931518555e-01 -2.342463731765747070e-01
4.960039556026458740e-01 -2.237708568572998047e-01 -3.208848237991333008e-01
3.798474967479705811e-01 -2.921391427516937256e-01 -3.789167702198028564e-01
3.875550329685211182e-01 -3.113881349563598633e-01 -3.924692273139953613e-01
5.282227396965026855e-01 -4.651279747486114502e-01 -2.672020494937896729e-01
3.749991059303283691e-01 -6.347447037696838379e-01 -4.029114842414855957e-01
4.774840772151947021e-01 -6.473616957664489746e-01 -2.406120002269744873e-01
3.349676430225372314e-01 -4.730501770973205566e-01 -3.012776970863342285e-01
3.460460007190704346e-01 -4.588023424148559570e-01 -2.739565372467041016e-01
4.346941113471984863e-01 -7.845307588577270508e-01 -2.799640297889709473e-01
5.422689914703369141e-01 -4.942995905876159668e-01 -3.191714286804199219e-01
4.069257378578186035e-01 -3.514218628406524658e-01 -4.120038747787475586e-01
4.903509616851806641e-01 -3.953375816345214844e-01 -2.337182611227035522e-01
3.314007520675659180e-01 -5.189694762229919434e-01 -3.285512030124664307e-01
5.342651605606079102e-01 -3.643077313899993896e-01 -3.230226039886474609e-01
3.698858618736267090e-01 -5.206139087677001953e-01 -2.439887374639511108e-01
3.595652282238006592e-01 -2.894556820392608643e-01 -3.075789511203765869e-01
4.800182878971099854e-01 -5.189462900161743164e-01 -4.195610582828521729e-01
3.720713257789611816e-01 -7.229568362236022949e-01 -2.868377566337585449e-01
4.137614667415618896e-01 -4.597877860069274902e-01 -2.204056084156036377e-01
4.331235289573669434e-01 -6.606614589691162109e-01 -4.186322391033172607e-01
4.381739199161529541e-01 -5.175570845603942871e-01 -2.174058854579925537e-01
3.709148764610290527e-01 -2.515749931335449219e-01 -3.173872530460357666e-01
4.353678822517395020e-01 -4.651208221912384033e-01 -4.293716549873352051e-01
4.454504251480102539e-01 -7.344993948936462402e-01 -3.989636898040771484e-01
3.570367991924285889e-01 -5.914912819862365723e-01 -3.917130231857299805e-01
3.371053934097290039e-01 -4.244984686374664307e-01 -3.040489852428436279e-01
4.075111746788024902e-01 -3.047118484973907471e-01 -4.010643959045410156e-01
4.784395098686218262e-01 -4.170613288879394531e-01 -2.259662896394729614e-01
4.437940716743469238e-01 -7.349123358726501465e-01 -2.559155523777008057e-01
4.981066286563873291e-01 -2.868134975433349609e-01 -2.630418837070465088e-01
4.221535623073577881e-01 -3.279202580451965332e-01 -4.106878042221069336e-01
4.059656262397766113e-01 -4.150592684745788574e-01 -2.250999212265014648e-01
5.199250578880310059e-01 -4.071913361549377441e-01 -3.792642056941986084e-01
3.516500592231750488e-01 -6.146475672721862793e-01 -3.802171945571899414e-01
4.395014941692352295e-01 -2.432961463928222656e-01 -3.853637576103210449e-01
3.533922433853149414e-01 -5.544954538345336914e-01 -3.907600045204162598e-01
4.679153561592102051e-01 -6.611824035644531250e-01 -4.111449122428894043e-01
4.935318231582641602e-01 -7.633908987045288086e-01 -3.299928605556488037e-01
3.861734867095947266e-01 -5.251232385635375977e-01 -4.191955327987670898e-01
3.951233029365539551e-01 -7.975846529006958008e-01 -3.258790671825408936e-01
3.456394076347351074e-01 -6.022562384605407715e-01 -2.852869331836700439e-01
3.885205686092376709e-01 -2.663507163524627686e-01 -3.756774663925170898e-01
3.898446857929229736e-01 -4.502775669097900391e-01 -2.303431183099746704e-01
4.364625215530395508e-01 -1.863602101802825928e-01 -2.888362407684326172e-01
4.823437333106994629e-01 -7.187705636024475098e-01 -3.865616023540496826e-01
3.923000097274780273e-01 -7.429422140121459961e-01 -3.841575384140014648e-01
3.704971671104431152e-01 -2.694523930549621582e-01 -2.918173968791961670e-01
4.658906459808349609e-01 -7.633250355720520020e-01 -3.783589899539947510e-01
3.390722870826721191e-01 -3.960655927658081055e-01 -3.086479902267456055e-01
3.720898032188415527e-01 -2.830801904201507568e-01 -2.796347141265869141e-01
3.414264023303985596e-01 -6.286836862564086914e-01 -3.503150045871734619e-01
4.252899289131164551e-01 -5.710942745208740234e-01 -4.286623001098632812e-01
5.362828373908996582e-01 -5.941237211227416992e-01 -3.248770236968994141e-01
4.678848683834075928e-01 -5.052952170372009277e-01 -4.246867001056671143e-01
4.322950541973114014e-01 -2.759764492511749268e-01 -3.975969254970550537e-01
4.932039976119995117e-01 -6.475645899772644043e-01 -2.503417432308197021e-01
4.841305017471313477e-01 -2.178642153739929199e-01 -2.873336374759674072e-01
5.220562219619750977e-01 -3.178401291370391846e-01 -3.456058502197265625e-01
5.097979903221130371e-01 -2.924029231071472168e-01 -3.588246703147888184e-01
5.097264647483825684e-01 -7.161354422569274902e-01 -3.062937259674072266e-01
3.689391016960144043e-01 -3.116357922554016113e-01 -3.742150664329528809e-01
5.055617690086364746e-01 -2.595905065536499023e-01 -3.447871208190917969e-01
3.820041120052337646e-01 -7.769821286201477051e-01 -3.209033608436584473e-01
4.815191626548767090e-01 -7.488109469413757324e-01 -3.730916380882263184e-01
3.726618289947509766e-01 -4.245912432670593262e-01 -4.052243232727050781e-01
5.017531514167785645e-01 -4.260212779045104980e-01 -4.016095399856567383e-01
3.775095045566558838e-01 -3.397280275821685791e-01 -2.530026137828826904e-01
3.535993695259094238e-01 -4.646131098270416260e-01 -2.616842985153198242e-01
3.847440183162689209e-01 -2.299045026302337646e-01 -3.437742292881011963e-01
4.878807067871093750e-01 -6.720650196075439453e-01 -3.968919515609741211e-01
4.093446135520935059e-01 -5.234994888305664062e-01 -4.278149604797363281e-01
5.225440859794616699e-01 -3.112268447875976562e-01 -2.963379323482513428e-01
5.300701260566711426e-01 -3.947781324386596680e-01 -3.580855727195739746e-01
3.644276261329650879e-01 -7.266184091567993164e-01 -3.050122559070587158e-01
3.341206014156341553e-01 -5.684932470321655273e-01 -3.147565722465515137e-01
4.752421379089355469e-01 -7.902408242225646973e-01 -3.118824660778045654e-01
4.699477851390838623e-01 -2.084498703479766846e-01 -3.549028635025024414e-01
3.493266701698303223e-01 -3.283841013908386230e-01 -3.125434815883636475e-01
5.334094762802124023e-01 -5.535660386085510254e-01 3.758620321750640869e-01
4.663242399692535400e-01 -8.349441289901733398e-01 3.519783616065979004e-01
5.034584403038024902e-01 -6.363306641578674316e-01 2.721652388572692871e-01
3.909731507301330566e-01 -8.302065134048461914e-01 2.978001832962036133e-01
4.107793569564819336e-01 -8.350817561149597168e-01 3.873499929904937744e-01
4.034453034400939941e-01 -8.174551129341125488e-01 2.850368320941925049e-01
5.329041481018066406e-01 -7.226467132568359375e-01 3.702272772789001465e-01
4.983496367931365967e-01 -5.254014730453491211e-01 3.220813870429992676e-01
4.079603850841522217e-01 -7.344227433204650879e-01 2.627253234386444092e-01
3.821412920951843262e-01 -7.950051426887512207e-01 2.846646904945373535e-01
4.910451173782348633e-01 -5.290464162826538086e-01 3.929650783538818359e-01
5.333284139633178711e-01 -7.290336489677429199e-01 3.265689909458160400e-01
3.673578798770904541e-01 -7.752364873886108398e-01 3.997511863708496094e-01
4.956843554973602295e-01 -7.792997956275939941e-01 3.878247439861297607e-01
4.004578590393066406e-01 -8.536344766616821289e-01 3.606327176094055176e-01
5.135678052902221680e-01 -5.677343606948852539e-01 4.064262211322784424e-01
4.771141409873962402e-01 -6.431773900985717773e-01 2.626597881317138672e-01
4.852258563041687012e-01 -5.426990985870361328e-01 3.016520142555236816e-01
5.021690130233764648e-01 -7.227388620376586914e-01 2.762801051139831543e-01
4.721495211124420166e-01 -6.257148981094360352e-01 2.649806737899780273e-01
4.845426678657531738e-01 -5.756108760833740234e-01 4.214808642864227295e-01
4.611989855766296387e-01 -6.200587749481201172e-01 2.657490968704223633e-01
5.209853053092956543e-01 -6.749085783958435059e-01 4.095600843429565430e-01
4.748202264308929443e-01 -7.365515828132629395e-01 2.646577358245849609e-01
4.843561947345733643e-01 -5.154389142990112305e-01 3.756784796714782715e-01
3.768756985664367676e-01 -6.180868148803710938e-01 3.152054250240325928e-01
3.579064607620239258e-01 -6.510403752326965332e-01 3.296819329261779785e-01
4.431172311305999756e-01 -7.645403742790222168e-01 2.635203599929809570e-01
5.173184871673583984e-01 -5.742591619491577148e-01 2.963079512119293213e-01
3.912026882171630859e-01 -6.944121718406677246e-01 2.714993357658386230e-01
4.779049456119537354e-01 -5.901094079017639160e-01 2.757281661033630371e-01
3.594956994056701660e-01 -7.010761499404907227e-01 2.996146082878112793e-01
4.101403951644897461e-01 -8.586163520812988281e-01 3.480118215084075928e-01
4.496015310287475586e-01 -8.188472986221313477e-01 3.930756449699401855e-01
3.821511268615722656e-01 -8.114117383956909180e-01 2.914658188819885254e-01
5.454012155532836914e-01 -6.749477982521057129e-01 3.700771331787109375e-01
4.370200335979461670e-01 -5.574846267700195312e-01 3.005499541759490967e-01
4.742754101753234863e-01 -8.018391728401184082e-01 3.909220099449157715e-01
3.616605997085571289e-01 -7.133590579032897949e-01 4.020501971244812012e-01
4.339426457881927490e-01 -5.884295701980590820e-01 2.823822498321533203e-01
4.646873474121093750e-01 -8.015685081481933594e-01 3.982176780700683594e-01
3.429126441478729248e-01 -7.663460969924926758e-01 3.327808678150177002e-01
4.159066379070281982e-01 -6.075158715248107910e-01 2.819546461105346680e-01
3.656945526599884033e-01 -8.239784240722656250e-01 3.167046904563903809e-01
4.305235743522644043e-01 -8.006471991539001465e-01 2.745277881622314453e-01
4.052578508853912354e-01 -5.635715723037719727e-01 3.274716734886169434e-01
4.185277819633483887e-01 -5.596159696578979492e-01 3.132614493370056152e-01
4.311493635177612305e-01 -5.683773756027221680e-01 2.956482172012329102e-01
3.748226761817932129e-01 -7.696031928062438965e-01 2.831082642078399658e-01
4.438642561435699463e-01 -8.366117477416992188e-01 3.029533326625823975e-01
5.010146498680114746e-01 -5.860338211059570312e-01 2.828735113143920898e-01
4.895564913749694824e-01 -7.927114963531494141e-01 2.998780608177185059e-01
5.013769268989562988e-01 -5.599520802497863770e-01 4.098604917526245117e-01
4.815843105316162109e-01 -6.031530499458312988e-01 2.719668149948120117e-01
3.810336291790008545e-01 -7.730113267898559570e-01 4.104037284851074219e-01
3.414490222930908203e-01 -7.622814178466796875e-01 3.510342240333557129e-01
3.966482579708099365e-01 -6.776526570320129395e-01 2.709348499774932861e-01
4.895777106285095215e-01 -5.864318609237670898e-01 2.791136205196380615e-01
5.482351183891296387e-01 -5.904002785682678223e-01 3.652336895465850830e-01
4.871551096439361572e-01 -7.102265357971191406e-01 2.652300000190734863e-01
4.621113836765289307e-01 -6.611216068267822266e-01 4.382466077804565430e-01
4.197232723236083984e-01 -7.026402950286865234e-01 2.592015266418457031e-01
4.888670444488525391e-01 -7.043758630752563477e-01 4.261868894100189209e-01
5.484891533851623535e-01 -5.838506221771240234e-01 3.555392324924468994e-01
4.140741229057312012e-01 -6.182063817977905273e-01 2.783796191215515137e-01
5.111027359962463379e-01 -5.795513987541198730e-01 4.122116267681121826e-01
5.219424366950988770e-01 -7.064823508262634277e-01 3.994917571544647217e-01
4.986504614353179932e-01 -6.608062386512756348e-01 4.271538555622100830e-01
4.352043569087982178e-01 -5.275057554244995117e-01 3.528276085853576660e-01
4.953608810901641846e-01 -7.986156344413757324e-01 3.167084157466888428e-01
5.162168741226196289e-01 -7.512373328208923340e-01 3.044042587280273438e-01
4.248362779617309570e-01 -7.345951795578002930e-01 4.325219094753265381e-01
5.268439054489135742e-01 -7.431813478469848633e-01 3.216339051723480225e-01
4.026915132999420166e-01 -7.140420675277709961e-01 2.642921507358551025e-01
4.873046576976776123e-01 -7.333694100379943848e-01 2.695552110671997070e-01
4.621284008026123047e-01 -7.897638082504272461e-01 4.073056578636169434e-01
3.571625649929046631e-01 -6.905388236045837402e-01 3.063268661499023438e-01
3.505772352218627930e-01 -7.640817165374755859e-01 3.817959725856781006e-01
5.379714965820312500e-01 -6.782151460647583008e-01 3.052918910980224609e-01
5.103183388710021973e-01 -6.250989437103271484e-01 4.207027554512023926e-01
4.126680195331573486e-01 -6.631278395652770996e-01 4.329378902912139893e-01
4.305180609226226807e-01 -5.313817858695983887e-01 3.621698021888732910e-01
5.194582343101501465e-01 -7.173786759376525879e-01 2.909056544303894043e-01
4.028040468692779541e-01 -7.427680492401123047e-01 4.267443120479583740e-01
4.247309267520904541e-01 -6.619029641151428223e-01 4.363471865653991699e-01
4.073694348335266113e-01 -7.590211629867553711e-01 4.244963228702545166e-01
4.548124969005584717e-01 -6.335632801055908203e-01 2.627584636211395264e-01
3.501871228218078613e-01 -7.983625531196594238e-01 3.273905515670776367e-01
3.561314940452575684e-01 -6.514783501625061035e-01 3.656505644321441650e-01
4.779728949069976807e-01 -6.547526717185974121e-01 4.352132081985473633e-01
4.760909378528594971e-01 -5.523957014083862305e-01 2.941265106201171875e-01
4.282587170600891113e-01 -6.764253973960876465e-01 2.592157125473022461e-01
4.340706765651702881e-01 -8.362249135971069336e-01 3.831867575645446777e-01
4.757030606269836426e-01 -5.230756402015686035e-01 3.882945775985717773e-01
4.970496296882629395e-01 -5.539805293083190918e-01 2.967053949832916260e-01
3.726519942283630371e-01 -8.189623355865478516e-01 3.035209774971008301e-01
4.223603308200836182e-01 -7.467591762542724609e-01 4.298282265663146973e-01
3.964435756206512451e-01 -5.916646122932434082e-01 3.981514275074005127e-01
5.228065848350524902e-01 -7.323203086853027344e-01 3.845812380313873291e-01
5.409751534461975098e-01 -7.018361687660217285e-01 3.249720335006713867e-01
5.504814386367797852e-01 -5.935472249984741211e-01 3.495911955833435059e-01
3.462962210178375244e-01 -7.335581779479980469e-01 3.772902488708496094e-01
5.280961394309997559e-01 -7.204695343971252441e-01 3.831370472908020020e-01
4.556032419204711914e-01 -6.802403926849365234e-01 2.567501366138458252e-01
5.218755006790161133e-01 -7.567812204360961914e-01 3.600915074348449707e-01
3.742887675762176514e-01 -7.219622731208801270e-01 2.807941436767578125e-01
4.568952023983001709e-01 -8.274705410003662109e-01 3.014346361160278320e-01
5.384337306022644043e-01 -5.801385045051574707e-01 3.162140548229217529e-01
5.075098872184753418e-01 -7.344916462898254395e-01 2.844249904155731201e-01
3.656536936759948730e-01 -7.370475530624389648e-01 4.057812392711639404e-01
4.805240631103515625e-01 -8.209360241889953613e-01 3.545585870742797852e-01
4.255617260932922363e-01 -6.877675652503967285e-01 4.372348189353942871e-01
4.370529651641845703e-01 -7.261667847633361816e-01 2.572613954544067383e-01
4.439775049686431885e-01 -5.798891782760620117e-01 4.221942126750946045e-01
4.413324594497680664e-01 -6.999372839927673340e-01 4.378865361213684082e-01
3.892666101455688477e-01 -6.274227499961853027e-01 4.107692837715148926e-01
3.883885741233825684e-01 -7.124969363212585449e-01 4.238601326942443848e-01
3.630853295326232910e-01 -6.583609580993652344e-01 3.907894790172576904e-01
4.073224365711212158e-01 -5.877215862274169922e-01 2.995340228080749512e-01
3.712973892688751221e-01 -7.196747064590454102e-01 4.118712842464447021e-01
5.217380523681640625e-01 -7.504321932792663574e-01 3.702484667301177979e-01
4.689599871635437012e-01 -7.801836729049682617e-01 4.092018306255340576e-01
3.829011321067810059e-01 -6.825932264328002930e-01 2.791528701782226562e-01
3.842624425888061523e-01 -5.914468169212341309e-01 3.757577240467071533e-01
4.610578119754791260e-01 -5.455560088157653809e-01 3.005990684032440186e-01
5.077217221260070801e-01 -5.183467268943786621e-01 3.452816605567932129e-01
5.072080492973327637e-01 -7.838713526725769043e-01 3.599710166454315186e-01
4.199843108654022217e-01 -8.527245521545410156e-01 3.642939329147338867e-01
4.449187815189361572e-01 -7.283440232276916504e-01 4.337301254272460938e-01
3.761648833751678467e-01 -8.157678842544555664e-01 3.877708911895751953e-01
3.570268154144287109e-01 -6.463117599487304688e-01 3.424577414989471436e-01
3.812176585197448730e-01 -7.474123239517211914e-01 4.163644909858703613e-01
3.437177240848541260e-01 -7.526608705520629883e-01 3.254163265228271484e-01
4.880826175212860107e-01 -8.136636018753051758e-01 3.313795030117034912e-01
5.213397145271301270e-01 -6.804370880126953125e-01 2.841944694519042969e-01
4.203895032405853271e-01 -6.862418651580810547e-01 2.600903213024139404e-01
3.491018116474151611e-01 -7.394037842750549316e-01 3.112511932849884033e-01
5.015712976455688477e-01 -7.674099206924438477e-01 3.900998830795288086e-01
3.878598213195800781e-01 -5.802456140518188477e-01 3.621801137924194336e-01
5.235456824302673340e-01 -5.574475526809692383e-01 3.108525574207305908e-01
4.820296466350555420e-01 -5.113968849182128906e-01 3.469566702842712402e-01
4.490972161293029785e-01 -7.581630945205688477e-01 4.254282116889953613e-01
3.477210104465484619e-01 -6.805681586265563965e-01 3.592624068260192871e-01
3.848395943641662598e-01 -8.315513134002685547e-01 3.815201520919799805e-01
5.418725013732910156e-01 -6.876843571662902832e-01 3.175641000270843506e-01
4.384458065032958984e-01 -8.536530137062072754e-01 3.403030037879943848e-01
5.295523405075073242e-01 -7.119334340095520020e-01 3.031108975410461426e-01
4.024772047996520996e-01 -6.103820800781250000e-01 2.896560728549957275e-01
3.511811196804046631e-01 -6.765912771224975586e-01 3.726535737514495850e-01
5.193480253219604492e-01 -5.469888448715209961e-01 3.903103470802307129e-01
3.874438107013702393e-01 -6.387157440185546875e-01 2.890508770942687988e-01
5.380476117134094238e-01 -5.519574284553527832e-01 3.484154343605041504e-01
3.983572423458099365e-01 -8.039825558662414551e-01 4.058430194854736328e-01
5.214852094650268555e-01 -6.323736906051635742e-01 4.128902554512023926e-01
4.504650235176086426e-01 -7.029480934143066406e-01 2.561964690685272217e-01
4.629289805889129639e-01 -7.566657066345214844e-01 2.654343843460083008e-01
4.958126544952392578e-01 -5.739799141883850098e-01 2.858599424362182617e-01
4.550347328186035156e-01 -5.163743495941162109e-01 3.534985482692718506e-01
5.476316213607788086e-01 -6.626412868499755859e-01 3.690429329872131348e-01
4.007413387298583984e-01 -6.993892192840576172e-01 2.659602463245391846e-01
5.310423374176025391e-01 -7.063252329826354980e-01 3.862441480159759521e-01
3.546829819679260254e-01 -7.648732662200927734e-01 3.035862147808074951e-01
4.282493293285369873e-01 -6.489245891571044922e-01 4.359026551246643066e-01
4.194116294384002686e-01 -7.814395427703857422e-01 4.192762374877929688e-01
5.281095504760742188e-01 -5.354960560798645020e-01 3.554411828517913818e-01
3.522689640522003174e-01 -6.629701852798461914e-01 3.620935380458831787e-01
5.466067790985107422e-01 -6.507890820503234863e-01 3.176414668560028076e-01
5.010969638824462891e-01 -6.670066714286804199e-01 2.690949141979217529e-01
4.028930366039276123e-01 -5.757556557655334473e-01 3.925573527812957764e-01
5.489690303802490234e-01 -6.643691658973693848e-01 3.300024867057800293e-01
3.429945707321166992e-01 -7.382305264472961426e-01 3.276908099651336670e-01
3.996856212615966797e-01 -7.744215726852416992e-01 2.707835733890533447e-01
5.276319980621337891e-01 -5.485308766365051270e-01 3.232295215129852295e-01
5.162816643714904785e-01 -5.987296700477600098e-01 2.867136597633361816e-01
3.592383861541748047e-01 -7.555211782455444336e-01 2.961700260639190674e-01
3.970095217227935791e-01 -5.737217068672180176e-01 3.798205256462097168e-01
5.462522506713867188e-01 -6.891593337059020996e-01 3.485677540302276611e-01
4.818025827407836914e-01 -5.114353299140930176e-01 3.634478449821472168e-01
3.967137336730957031e-01 -8.564623594284057617e-01 3.484216034412384033e-01
3.658983707427978516e-01 -6.912419199943542480e-01 2.936418652534484863e-01
4.278616607189178467e-01 -6.143788099288940430e-01 2.735845446586608887e-01
4.450370669364929199e-01 -6.159327626228332520e-01 4.335123598575592041e-01
3.971616923809051514e-01 -8.039919137954711914e-01 2.807146310806274414e-01
4.779368638992309570e-01 -7.066311836242675781e-01 4.304453432559967041e-01
3.459088206291198730e-01 -7.694594860076904297e-01 3.224887847900390625e-01
4.200046062469482422e-01 -5.427363514900207520e-01 3.384757041931152344e-01
3.594057559967041016e-01 -8.117734789848327637e-01 3.163385391235351562e-01
4.098316431045532227e-01 -8.463810086250305176e-01 3.749650716781616211e-01
3.644233644008636475e-01 -6.338772177696228027e-01 3.753246665000915527e-01
4.284949898719787598e-01 -7.572845816612243652e-01 4.275236725807189941e-01
3.604914247989654541e-01 -6.887768507003784180e-01 3.972549140453338623e-01
4.902879595756530762e-01 -5.471169352531433105e-01 4.070529043674468994e-01
4.350661933422088623e-01 -6.583166718482971191e-01 4.379696846008300781e-01
4.103161692619323730e-01 -6.913890242576599121e-01 2.627727985382080078e-01
5.168263912200927734e-01 -6.653550863265991211e-01 4.148000180721282959e-01
3.487055301666259766e-01 -8.006497621536254883e-01 3.489618003368377686e-01
3.594990968704223633e-01 -7.830213904380798340e-01 3.012601435184478760e-01
3.498302400112152100e-01 -6.693453788757324219e-01 3.496170639991760254e-01
5.498591065406799316e-01 -6.063950061798095703e-01 3.669386506080627441e-01
5.367791056632995605e-01 -6.578851938247680664e-01 3.938772976398468018e-01
5.012117624282836914e-01 -5.984919667243957520e-01 2.788848876953125000e-01
3.900418877601623535e-01 -6.894596219062805176e-01 4.245128035545349121e-01
3.408780694007873535e-01 -7.293369174003601074e-01 3.522665202617645264e-01
4.508361518383026123e-01 -5.248707532882690430e-01 3.808287382125854492e-01
3.463034331798553467e-01 -7.099505066871643066e-01 3.739214241504669189e-01
5.272212624549865723e-01 -5.374003052711486816e-01 3.671102821826934814e-01
4.709175229072570801e-01 -5.584399700164794922e-01 4.158079326152801514e-01
4.024492800235748291e-01 -7.160879969596862793e-01 4.299744963645935059e-01
4.646389782428741455e-01 -8.177775740623474121e-01 2.976738512516021729e-01
3.874567151069641113e-01 -7.744776010513305664e-01 2.760843336582183838e-01
3.945112526416778564e-01 -7.893127799034118652e-01 4.111204445362091064e-01
5.430364012718200684e-01 -6.986932754516601562e-01 3.582259714603424072e-01
3.522962331771850586e-01 -6.687385439872741699e-01 3.311208784580230713e-01
4.077570736408233643e-01 -8.471655249595642090e-01 3.079127967357635498e-01
4.680529236793518066e-01 -5.704051852226257324e-01 4.213085174560546875e-01
3.486735522747039795e-01 -6.820327043533325195e-01 3.329651653766632080e-01
3.618156611919403076e-01 -6.760357618331909180e-01 3.957935869693756104e-01
5.522673726081848145e-01 -6.402249932289123535e-01 3.560163974761962891e-01
3.407290577888488770e-01 -7.346858382225036621e-01 3.424793481826782227e-01
5.187900662422180176e-01 -5.310705900192260742e-01 3.738109469413757324e-01
4.369777441024780273e-01 -7.814810872077941895e-01 4.187245666980743408e-01
3.567285835742950439e-01 -6.603193879127502441e-01 3.777146637439727783e-01
4.799610376358032227e-01 -5.916868448257446289e-01 4.271964132785797119e-01
4.675292372703552246e-01 -6.167205572128295898e-01 4.340698122978210449e-01
3.762797117233276367e-01 -6.320943832397460938e-01 3.980357050895690918e-01
4.884827435016632080e-01 -6.240495443344116211e-01 4.306900203227996826e-01
3.450164198875427246e-01 -6.940770745277404785e-01 3.414700925350189209e-01
4.909480214118957520e-01 -6.775452494621276855e-01 4.294234514236450195e-01
4.361936748027801514e-01 -5.483757257461547852e-01 3.093118667602539062e-01
3.820473551750183105e-01 -6.551033854484558105e-01 2.876139879226684570e-01
3.585352599620819092e-01 -7.347162365913391113e-01 2.964041531085968018e-01
5.298902392387390137e-01 -6.475751399993896484e-01 4.041734337806701660e-01
5.079934000968933105e-01 -7.065636515617370605e-01 2.770101726055145264e-01
3.846412301063537598e-01 -8.356666564941406250e-01 3.064399361610412598e-01
4.479496181011199951e-01 -5.593808889389038086e-01 4.129921197891235352e-01
4.623913466930389404e-01 -5.755497813224792480e-01 2.817106246948242188e-01
4.866662025451660156e-01 -6.382440328598022461e-01 4.322949051856994629e-01
4.132585525512695312e-01 -5.941432118415832520e-01 2.905592918395996094e-01
4.444153010845184326e-01 -5.827966332435607910e-01 2.815914154052734375e-01
3.976431190967559814e-01 -7.714620828628540039e-01 4.183558523654937744e-01
4.791126847267150879e-01 -7.490657567977905273e-01 2.695672810077667236e-01
3.920784294605255127e-01 -6.007015705108642578e-01 3.064002394676208496e-01
3.561167716979980469e-01 -8.196370005607604980e-01 3.442150354385375977e-01
3.735434412956237793e-01 -6.133710741996765137e-01 3.772906064987182617e-01
5.518943667411804199e-01 -6.069922447204589844e-01 3.546515703201293945e-01
3.961740136146545410e-01 -6.644302010536193848e-01 2.740022838115692139e-01
4.480155706405639648e-01 -8.434544801712036133e-01 3.635434508323669434e-01
4.139402508735656738e-01 -7.705508470535278320e-01 2.661265730857849121e-01
3.641226589679718018e-01 -6.785280704498291016e-01 2.998020648956298828e-01
4.084731936454772949e-01 -6.693711876869201660e-01 2.665356099605560303e-01
