-9.165363907814025879e-01 3.331207484006881714e-02 9.088565409183502197e-02
-9.117800593376159668e-01 1.402222067117691040e-01 -1.399650871753692627e-01
-7.868707180023193359e-01 2.767545580863952637e-01 3.743142262101173401e-02
-8.327615261077880859e-01 8.640501648187637329e-02 -2.357840090990066528e-01
-7.142220139503479004e-01 1.365648210048675537e-02 -1.863839626312255859e-01
-8.402733802795410156e-01 3.282092511653900146e-02 -2.153909057378768921e-01
-8.471773266792297363e-01 2.102122902870178223e-01 -1.615685820579528809e-01
-7.559142708778381348e-01 -4.853190481662750244e-02 -1.089762002229690552e-01
-8.589270114898681641e-01 -2.800098061561584473e-02 -1.080586910247802734e-01
-8.135207891464233398e-01 2.174675017595291138e-01 2.091924697160720825e-01
-9.365173578262329102e-01 2.093070149421691895e-01 3.925132006406784058e-02
-6.634376645088195801e-01 8.242346346378326416e-02 -7.714590430259704590e-02
-9.411525726318359375e-01 1.609125882387161255e-01 -4.882641136646270752e-02
-9.420555830001831055e-01 1.790376007556915283e-01 1.055411994457244873e-01
-9.450558423995971680e-01 1.863429099321365356e-01 2.362564392387866974e-02
-7.407276630401611328e-01 8.201451599597930908e-02 -2.363079339265823364e-01
-8.366192579269409180e-01 5.037976428866386414e-02 2.033856213092803955e-01
-8.339484930038452148e-01 2.750440835952758789e-01 1.084465235471725464e-01
-9.215787053108215332e-01 3.680381923913955688e-02 -7.141803950071334839e-02
-7.250477075576782227e-01 6.147538125514984131e-02 1.545121073722839355e-01
-9.206721186637878418e-01 2.118352651596069336e-01 -4.906879365444183350e-02
-9.205935597419738770e-01 2.291609793901443481e-01 -9.366616141051054001e-04
-8.919079899787902832e-01 1.118640005588531494e-01 2.094230949878692627e-01
-8.193533420562744141e-01 -5.525907874107360840e-02 -4.265218600630760193e-02
-7.571973204612731934e-01 2.616226077079772949e-01 5.738364905118942261e-02
-7.384551763534545898e-01 2.378751188516616821e-01 -7.872929424047470093e-02
-7.860041856765747070e-01 8.883726596832275391e-02 -2.486806213855743408e-01
-7.693396210670471191e-01 -3.009396791458129883e-02 8.084595948457717896e-02
-9.178401231765747070e-01 1.628403365612030029e-02 1.167142298072576523e-03
-6.660436987876892090e-01 1.062115505337715149e-01 1.630341820418834686e-02
-8.554481267929077148e-01 1.417694240808486938e-02 -1.865451484918594360e-01
-7.877525687217712402e-01 9.888303279876708984e-02 2.245371937751770020e-01
-7.331466674804687500e-01 -2.582195401191711426e-02 -1.521570384502410889e-01
-8.756534457206726074e-01 8.831971883773803711e-02 -1.999900788068771362e-01
-9.192947149276733398e-01 1.601577699184417725e-01 1.793091297149658203e-01
-7.578424215316772461e-01 -4.432089626789093018e-02 -1.291494518518447876e-01
-7.927354574203491211e-01 -4.204684495925903320e-02 5.991569533944129944e-02
-8.605147600173950195e-01 2.730256617069244385e-01 -6.699214689433574677e-03
-8.626952767372131348e-01 -3.655704855918884277e-02 -4.760576877743005753e-03
-8.009042739868164062e-01 -3.518615663051605225e-02 -1.594865471124649048e-01
-7.413839697837829590e-01 -4.478210210800170898e-02 -1.021602936089038849e-02
-8.646901845932006836e-01 1.877354979515075684e-01 2.244030386209487915e-01
-6.798675656318664551e-01 5.975957214832305908e-02 5.932652577757835388e-02
-8.904339075088500977e-01 2.601141929626464844e-01 8.197199553251266479e-03
-7.711473107337951660e-01 2.404807209968566895e-01 -1.170492544770240784e-01
-7.863643169403076172e-01 -5.829355120658874512e-02 -3.374958038330078125e-02
-9.481465816497802734e-01 1.463984400033950806e-01 9.707529842853546143e-02
-9.451274871826171875e-01 1.790955364704132080e-01 8.595167845487594604e-02
-6.677325963973999023e-01 1.399927288293838501e-01 -2.003975398838520050e-02
-7.941746711730957031e-01 3.650175034999847412e-02 -2.383627444505691528e-01
-9.277830123901367188e-01 1.501357257366180420e-01 -1.000434607267379761e-01
-8.942160606384277344e-01 2.416579425334930420e-01 1.431393325328826904e-01
-8.465648293495178223e-01 1.749361157417297363e-01 -1.960708200931549072e-01
-8.881331682205200195e-01 -1.677742600440979004e-02 1.215773075819015503e-02
-8.652205467224121094e-01 1.128280162811279297e-02 -1.710822880268096924e-01
-6.938837170600891113e-01 1.908086240291595459e-01 5.563122406601905823e-02
-6.688181757926940918e-01 8.253117650747299194e-02 -1.143612116575241089e-01
-7.609039545059204102e-01 -1.111832261085510254e-02 1.124498248100280762e-01
-9.260904192924499512e-01 3.220082819461822510e-02 3.681343421339988708e-02
-9.287357330322265625e-01 2.079389244318008423e-01 -2.760327421128749847e-02
-7.304689884185791016e-01 1.898963749408721924e-01 1.558590978384017944e-01
-7.027175426483154297e-01 -1.668114960193634033e-02 -9.857118874788284302e-02
-7.609862089157104492e-01 2.237850725650787354e-01 1.640644669532775879e-01
-8.313749432563781738e-01 -4.299193620681762695e-02 4.157209023833274841e-02
-8.647323250770568848e-01 2.675341367721557617e-01 -2.645882777869701385e-02
-6.723240613937377930e-01 1.023487150669097900e-01 -1.252960115671157837e-01
-9.156247377395629883e-01 1.839238107204437256e-01 1.764206588268280029e-01
-9.507358074188232422e-01 1.145351454615592957e-01 6.920512765645980835e-02
-9.119181036949157715e-01 2.114630341529846191e-01 -7.399784028530120850e-02
-9.306877851486206055e-01 9.542226791381835938e-02 -9.904625266790390015e-02
-7.230825424194335938e-01 -3.428258001804351807e-02 -1.009210571646690369e-01
-7.896471023559570312e-01 -5.593398213386535645e-02 -8.923579752445220947e-02
-6.970093250274658203e-01 -1.208472996950149536e-02 -2.996341139078140259e-02
-8.086768984794616699e-01 -6.061688065528869629e-03 -2.019960135221481323e-01
-7.905426025390625000e-01 -5.831336975097656250e-02 -6.234020739793777466e-02
-7.470079064369201660e-01 -4.323264956474304199e-02 1.264839433133602142e-02
-7.825555801391601562e-01 1.649056077003479004e-01 -2.189420610666275024e-01
-6.854619383811950684e-01 7.346671819686889648e-02 -1.675916612148284912e-01
-7.253281474113464355e-01 -6.606385111808776855e-03 7.669862359762191772e-02
-6.753667593002319336e-01 1.287488937377929688e-01 5.730549991130828857e-02
-7.683681249618530273e-01 1.335314661264419556e-01 2.187815457582473755e-01
-8.212271332740783691e-01 1.906885504722595215e-01 2.289078682661056519e-01
-7.068356871604919434e-01 -7.737576961517333984e-04 4.920990020036697388e-02
-9.207756519317626953e-01 7.228953391313552856e-02 1.416471600532531738e-01
-7.019941806793212891e-01 1.921861171722412109e-01 -1.056741923093795776e-01
-8.496597409248352051e-01 2.475289255380630493e-01 -1.008196771144866943e-01
-8.240705728530883789e-01 2.762277722358703613e-01 -2.765765786170959473e-02
-8.240270018577575684e-01 1.132532209157943726e-02 1.643114387989044189e-01
-7.230819463729858398e-01 2.173506021499633789e-01 1.039795055985450745e-01
-9.223878383636474609e-01 9.663254767656326294e-02 -1.221575513482093811e-01
-7.861210107803344727e-01 2.022998631000518799e-01 -1.843406111001968384e-01
-8.262235522270202637e-01 -3.574503958225250244e-02 7.213597744703292847e-02
-6.859361529350280762e-01 1.708670556545257568e-01 5.866402015089988708e-02
-9.467700123786926270e-01 1.740567684173583984e-01 2.054584678262472153e-03
-9.192115068435668945e-01 2.097706645727157593e-01 1.453624516725540161e-01
-8.770298957824707031e-01 3.426563739776611328e-02 1.640987247228622437e-01
-7.730760574340820312e-01 2.487379908561706543e-01 -9.890352189540863037e-02
-9.483298063278198242e-01 1.765511333942413330e-01 4.843228310346603394e-02
-7.399671077728271484e-01 -3.003545105457305908e-02 4.701591655611991882e-02
-7.166240811347961426e-01 1.864555478096008301e-01 1.328731924295425415e-01
-7.084360718727111816e-01 1.341149210929870605e-01 1.460281908512115479e-01
-9.392939209938049316e-01 1.987372338771820068e-01 9.252047166228294373e-03
-8.969644308090209961e-01 -8.269630372524261475e-03 -3.735045343637466431e-02
-7.083731889724731445e-01 -2.595044672489166260e-02 -6.311720609664916992e-02
-8.783431053161621094e-01 1.240602880716323853e-02 1.300827413797378540e-01
-6.727087497711181641e-01 1.453277021646499634e-01 -8.033511787652969360e-02
-8.835175037384033203e-01 1.065053492784500122e-01 -1.906946450471878052e-01
-7.374724745750427246e-01 9.900181740522384644e-02 1.862850934267044067e-01
-7.558925151824951172e-01 1.903070509433746338e-01 -1.857187896966934204e-01
-7.288624644279479980e-01 -3.452472388744354248e-02 -1.181382387876510620e-01
-8.853689432144165039e-01 -7.819600403308868408e-03 -9.718639403581619263e-02
-8.540296554565429688e-01 2.783739566802978516e-01 6.749627739191055298e-02
-7.165078520774841309e-01 1.653729379177093506e-01 1.490240693092346191e-01
-8.915569782257080078e-01 6.024956703186035156e-03 9.403559565544128418e-02
-9.018294215202331543e-01 2.424744665622711182e-01 -2.966945618391036987e-02
-7.078905701637268066e-01 7.336056232452392578e-02 1.350557059049606323e-01
-9.494478106498718262e-01 1.648260354995727539e-01 7.245557755231857300e-02
-8.208819031715393066e-01 2.128465175628662109e-01 -1.703971922397613525e-01
-8.774343132972717285e-01 5.939264968037605286e-02 -1.906220167875289917e-01
-7.527107000350952148e-01 1.327524483203887939e-01 2.057883292436599731e-01
-8.973520398139953613e-01 -8.953839540481567383e-03 -1.272219931706786156e-03
-7.063717842102050781e-01 1.588070094585418701e-01 1.325547844171524048e-01
-9.076168537139892578e-01 7.616004347801208496e-02 -1.486470252275466919e-01
-8.733253479003906250e-01 8.915981650352478027e-02 2.141317874193191528e-01
-8.874691128730773926e-01 2.432682365179061890e-01 -6.202099844813346863e-02
-8.696195483207702637e-01 1.679082512855529785e-01 2.286778539419174194e-01
-8.429454565048217773e-01 -4.176999628543853760e-02 2.928771078586578369e-02
-7.903165221214294434e-01 2.286899387836456299e-01 1.863828599452972412e-01
-5.688067674636840820e-01 -2.435223571956157684e-02 6.481508165597915649e-02
-3.455332219600677490e-01 -5.792710185050964355e-02 1.036193687468767166e-02
-2.419866025447845459e-01 3.986616805195808411e-02 -1.798650599084794521e-03
-5.244903564453125000e-01 5.810713768005371094e-02 -8.060707896947860718e-02
-4.969336390495300293e-01 -2.372985891997814178e-02 -7.299625873565673828e-02
-5.865816473960876465e-01 4.945235699415206909e-02 7.683610171079635620e-02
-2.812863886356353760e-01 2.526322007179260254e-02 -4.890357702970504761e-02
-5.952737331390380859e-01 -4.257329553365707397e-02 3.860975056886672974e-02
-6.813422441482543945e-01 -3.091973625123500824e-02 -1.562683843076229095e-02
-4.994803071022033691e-01 9.621264785528182983e-02 -4.919906333088874817e-02
-3.653372228145599365e-01 6.000915914773941040e-02 -6.064623966813087463e-02
-7.414305806159973145e-01 4.923266917467117310e-02 3.629332408308982849e-02
-3.642983436584472656e-01 2.647847868502140045e-02 -7.336324453353881836e-02
-4.524301588535308838e-01 -5.912549048662185669e-02 3.317866846919059753e-02
-2.563608288764953613e-01 3.073848783969879150e-03 4.283560067415237427e-02
-6.400402784347534180e-01 3.005313314497470856e-02 7.149925082921981812e-02
-6.979517340660095215e-01 -2.399444021284580231e-02 -1.931567490100860596e-02
-5.477302074432373047e-01 1.052959561347961426e-01 3.147588297724723816e-02
-3.891332149505615234e-01 5.272683501243591309e-02 -7.024876773357391357e-02
-3.524415493011474609e-01 8.693746477365493774e-02 -1.615823805332183838e-02
-5.809054374694824219e-01 2.012366056442260742e-02 -8.365151286125183105e-02
-6.254879236221313477e-01 4.169215261936187744e-02 -7.840744405984878540e-02
-6.562433838844299316e-01 1.032288745045661926e-01 1.093543041497468948e-02
-4.816832840442657471e-01 4.595904424786567688e-02 8.175606280565261841e-02
-5.580937862396240234e-01 8.214373886585235596e-02 -6.619968265295028687e-02
-3.023522496223449707e-01 -7.929924875497817993e-03 5.895701795816421509e-02
-6.296311616897583008e-01 -4.515104740858078003e-02 1.245369575917720795e-02
-6.440365314483642578e-01 -2.291732095181941986e-02 4.795628413558006287e-02
-3.590326011180877686e-01 -5.462411791086196899e-02 -2.665121108293533325e-02
-4.625300765037536621e-01 3.455545753240585327e-02 8.369079977273941040e-02
-5.829189419746398926e-01 1.097342669963836670e-01 1.523081492632627487e-02
-2.741933763027191162e-01 1.476863399147987366e-03 -4.690785333514213562e-02
-6.964514255523681641e-01 6.872090697288513184e-02 -5.424787849187850952e-02
-7.286918163299560547e-01 6.663603335618972778e-02 -4.249928891658782959e-02
-4.382887482643127441e-01 -2.493239007890224457e-02 7.185286283493041992e-02
-3.947318792343139648e-01 -6.388025730848312378e-02 -6.962672341614961624e-05
-3.159210979938507080e-01 6.142839789390563965e-02 4.386825859546661377e-02
-5.849577784538269043e-01 1.116041615605354309e-01 4.053427255712449551e-04
-6.339048743247985840e-01 -4.404360055923461914e-02 -1.664854772388935089e-02
-4.625757336616516113e-01 -6.568963825702667236e-02 1.756533980369567871e-03
-3.825020194053649902e-01 6.410750746726989746e-02 -6.204984337091445923e-02
-6.312804222106933594e-01 -1.224976219236850739e-02 6.055054813623428345e-02
-6.966733932495117188e-01 2.519061975181102753e-02 5.644330382347106934e-02
-4.133469164371490479e-01 6.097585707902908325e-02 -7.022448629140853882e-02
-6.962405443191528320e-01 8.474499732255935669e-02 -3.945625945925712585e-02
-5.332928299903869629e-01 1.028388664126396179e-01 3.661399334669113159e-02
-6.364684104919433594e-01 9.531760960817337036e-02 -4.376443475484848022e-02
-5.585099458694458008e-01 -4.015833884477615356e-02 5.151738226413726807e-02
-6.938139200210571289e-01 6.051569432020187378e-02 5.226268619298934937e-02
-4.728376865386962891e-01 9.078105539083480835e-02 5.113272368907928467e-02
-6.776199340820312500e-01 3.279029577970504761e-02 6.278730183839797974e-02
-7.289358377456665039e-01 2.632650732994079590e-02 -5.088881775736808777e-02
-6.706237792968750000e-01 -3.519590944051742554e-02 5.764353554695844650e-03
-4.024889469146728516e-01 -5.778604000806808472e-02 3.281024843454360962e-02
-6.970672607421875000e-01 8.440027385950088501e-02 3.185091912746429443e-02
-6.141254305839538574e-01 -4.737459868192672729e-02 -2.089187130331993103e-02
-4.543346166610717773e-01 9.627952426671981812e-02 -4.203590005636215210e-02
-4.154166281223297119e-01 3.020705655217170715e-02 -8.091335743665695190e-02
-4.911577105522155762e-01 8.885380625724792480e-02 -5.778827145695686340e-02
-6.758142113685607910e-01 -1.809935830533504486e-02 4.022523015737533569e-02
-3.140142261981964111e-01 -5.245748162269592285e-02 3.989896737039089203e-03
-6.380904316902160645e-01 -3.775086998939514160e-02 -3.277264535427093506e-02
-3.750311434268951416e-01 -3.947990015149116516e-03 -7.323250919580459595e-02
-4.366931915283203125e-01 5.875371396541595459e-02 7.399830222129821777e-02
-5.531843900680541992e-01 -5.816627293825149536e-02 1.445851195603609085e-02
-3.068533539772033691e-01 -4.320906847715377808e-02 -2.714278921484947205e-02
-5.135139226913452148e-01 8.628050982952117920e-02 5.884281173348426819e-02
-4.146893322467803955e-01 3.847036510705947876e-03 8.096686005592346191e-02
-6.786339282989501953e-01 -2.954324521124362946e-02 1.876757480204105377e-02
-6.024963259696960449e-01 7.296754419803619385e-02 6.481222808361053467e-02
-5.580891370773315430e-01 9.498661011457443237e-02 4.853715747594833374e-02
-3.022681474685668945e-01 4.496724158525466919e-02 5.205483734607696533e-02
-4.704126417636871338e-01 -6.177778542041778564e-02 -2.452486380934715271e-02
-5.630877614021301270e-01 1.033879742026329041e-01 -3.965457156300544739e-02
-5.571256875991821289e-01 -5.901441723108291626e-02 -4.171912092715501785e-03
-2.867407500743865967e-01 1.000860892236232758e-02 5.679035559296607971e-02
-3.162848949432373047e-01 5.554597079753875732e-02 -4.751280695199966431e-02
-4.243779480457305908e-01 -2.896837331354618073e-02 -6.749980151653289795e-02
-4.812356531620025635e-01 4.472106322646141052e-02 -8.370486646890640259e-02
-6.001339554786682129e-01 9.172522276639938354e-02 4.880156368017196655e-02
-4.516018033027648926e-01 4.898140579462051392e-02 -8.039911091327667236e-02
-3.991065621376037598e-01 3.809623420238494873e-02 -7.720427215099334717e-02
-5.574774146080017090e-01 1.123398020863533020e-01 -5.133149679750204086e-03
-2.844421267509460449e-01 6.440207362174987793e-02 1.342300511896610260e-02
-4.181281626224517822e-01 -1.128511689603328705e-02 7.726196199655532837e-02
-4.242080450057983398e-01 -4.720187932252883911e-02 5.209986865520477295e-02
-6.256600618362426758e-01 3.197766840457916260e-02 7.410877943038940430e-02
-4.488070309162139893e-01 6.777151674032211304e-02 -7.115652412176132202e-02
-7.138149142265319824e-01 -1.104466803371906281e-02 2.625468745827674866e-02
-6.835258007049560547e-01 -2.449554018676280975e-02 -3.165758401155471802e-02
-4.980143308639526367e-01 1.107818782329559326e-01 -4.551610443741083145e-03
-4.976877272129058838e-01 7.090236246585845947e-02 -7.337104529142379761e-02
-2.789486050605773926e-01 -2.961690165102481842e-02 -3.139486163854598999e-02
-6.231522560119628906e-01 1.039141789078712463e-01 -3.030015714466571808e-02
-3.440621495246887207e-01 7.531603798270225525e-03 7.200685888528823853e-02
-5.320879220962524414e-01 -5.029176175594329834e-02 4.198192805051803589e-02
-5.460627079010009766e-01 -5.182246118783950806e-02 -3.751113638281822205e-02
-3.293686807155609131e-01 -4.465169459581375122e-02 3.864242881536483765e-02
-4.929102957248687744e-01 -5.403723567724227905e-02 -4.111273959279060364e-02
-5.543662905693054199e-01 3.712473064661026001e-02 -8.528856933116912842e-02
-3.625423908233642578e-01 5.435704439878463745e-02 6.463561952114105225e-02
-2.903391420841217041e-01 3.959955275058746338e-02 5.033136531710624695e-02
-3.100162148475646973e-01 -2.567286230623722076e-02 5.230192840099334717e-02
-4.364240765571594238e-01 7.913174480199813843e-02 -6.052736192941665649e-02
-7.606731653213500977e-01 1.019161939620971680e-02 3.662915201857686043e-03
-3.867327272891998291e-01 6.912836432456970215e-02 5.939610302448272705e-02
-5.512070655822753906e-01 -9.464191272854804993e-03 -7.801233977079391479e-02
-7.120100855827331543e-01 6.247982382774353027e-03 4.378697276115417480e-02
-4.868154525756835938e-01 -4.289492964744567871e-02 5.699252337217330933e-02
-6.989139318466186523e-01 3.283661603927612305e-02 -6.310245394706726074e-02
-6.476466059684753418e-01 7.364694774150848389e-02 -6.322819739580154419e-02
-4.877749383449554443e-01 9.085664153099060059e-02 5.247094109654426575e-02
-5.237557291984558105e-01 5.841384083032608032e-02 7.755432277917861938e-02
-5.270762443542480469e-01 -7.301639765501022339e-03 -8.039841055870056152e-02
-5.560274124145507812e-01 4.156320542097091675e-02 8.119897544384002686e-02
-5.705712437629699707e-01 -8.385492488741874695e-03 7.392590492963790894e-02
-2.283437848091125488e-01 2.131309546530246735e-02 1.234671007841825485e-02
-5.821160674095153809e-01 -5.441021174192428589e-02 -1.470084115862846375e-02
-3.836102783679962158e-01 9.160035103559494019e-02 2.570454776287078857e-02
-2.704702019691467285e-01 2.183512970805168152e-02 4.870175197720527649e-02
-4.895516335964202881e-01 -3.032611683011054993e-03 -8.258266746997833252e-02
-7.525904178619384766e-01 7.123570144176483154e-02 8.689075708389282227e-03
-4.765550494194030762e-01 6.453605368733406067e-03 -8.470233529806137085e-02
-4.083524942398071289e-01 -2.501817606389522552e-02 7.007891684770584106e-02
-4.615676999092102051e-01 -1.808211393654346466e-02 7.602573186159133911e-02
-5.837191343307495117e-01 1.346000190824270248e-02 7.887718826532363892e-02
-4.904917478561401367e-01 -2.068890817463397980e-02 7.430848479270935059e-02
-2.417754232883453369e-01 1.517817564308643341e-02 -2.791469916701316833e-02
-3.906236588954925537e-01 2.953116223216056824e-02 7.848625630140304565e-02
-3.376537859439849854e-01 2.776041254401206970e-02 6.944951415061950684e-02
-4.325011670589447021e-01 7.117503881454467773e-02 6.566624343395233154e-02
-4.747366011142730713e-01 -6.455740332603454590e-02 -1.174592506140470505e-02
-5.684894919395446777e-01 -1.189692504703998566e-02 -7.522782683372497559e-02
-6.222476959228515625e-01 -1.895703934133052826e-02 -6.192574277520179749e-02
-5.032642483711242676e-01 -4.829232394695281982e-02 4.908440634608268738e-02
-4.206352233886718750e-01 -6.056620925664901733e-02 2.815527468919754028e-02
-7.425210475921630859e-01 3.989329561591148376e-03 2.151536568999290466e-02
-4.408516585826873779e-01 -6.473841518163681030e-02 -1.215616147965192795e-02
-7.114855647087097168e-01 -4.233479499816894531e-03 -4.243519529700279236e-02
-6.855404376983642578e-01 -3.019502200186252594e-02 6.415748968720436096e-03
-5.313953161239624023e-01 -4.205254465341567993e-02 5.370233580470085144e-02
-3.749096989631652832e-01 1.251366082578897476e-02 -7.583525031805038452e-02
-4.628652334213256836e-01 8.399697393178939819e-02 5.785501375794410706e-02
-4.523854851722717285e-01 -4.592397809028625488e-02 -5.365406349301338196e-02
-4.171571433544158936e-01 -6.019181013107299805e-02 -2.684382162988185883e-02
-7.730755805969238281e-01 3.644790127873420715e-02 9.241756051778793335e-03
-5.418993830680847168e-01 1.013523712754249573e-01 -4.358886554837226868e-02
-5.698261260986328125e-01 -5.692020803689956665e-02 -9.721735492348670959e-03
-6.519760489463806152e-01 -1.009726896882057190e-03 -6.651166081428527832e-02
-5.164213776588439941e-01 7.155563682317733765e-03 8.328103274106979370e-02
-4.915933609008789062e-01 2.896930649876594543e-02 -8.651699125766754150e-02
-7.003562450408935547e-01 7.271274924278259277e-03 4.951180145144462585e-02
-6.276260018348693848e-01 -3.772681206464767456e-02 3.424783796072006226e-02
-4.031109213829040527e-01 5.283953621983528137e-02 -7.271049916744232178e-02
-5.045187473297119141e-01 8.625849336385726929e-02 -6.156319379806518555e-02
-6.569021344184875488e-01 3.471997380256652832e-02 -7.365570962429046631e-02
-3.235085606575012207e-01 6.486611068248748779e-02 -4.153097048401832581e-02
-5.175191164016723633e-01 -6.070551276206970215e-02 -2.025113254785537720e-02
-2.988935708999633789e-01 8.204489015042781830e-03 -5.724710971117019653e-02
-6.200373768806457520e-01 9.839551895856857300e-02 -4.225740954279899597e-02
-7.603790760040283203e-01 1.071101706475019455e-02 -1.400604471564292908e-02
-7.161797881126403809e-01 1.038722414523363113e-02 -5.082257837057113647e-02
-7.009519934654235840e-01 -1.787684671580791473e-02 -3.113506361842155457e-02
-2.645767927169799805e-01 -2.971668355166912079e-02 2.636126801371574402e-02
-4.775641858577728271e-01 1.058055236935615540e-01 2.284329757094383240e-02
-6.572623848915100098e-01 8.827427774667739868e-02 -4.820204153656959534e-02
-5.373491048812866211e-01 2.180067822337150574e-03 -8.315640687942504883e-02
-2.401876449584960938e-01 4.560312256217002869e-03 3.213655576109886169e-02
-4.428304135799407959e-01 3.102885372936725616e-02 -8.363850414752960205e-02
-3.705298304557800293e-01 7.481217384338378906e-03 7.649785280227661133e-02
-5.851696729660034180e-01 7.311521470546722412e-02 6.660465151071548462e-02
-6.811318397521972656e-01 9.944461286067962646e-02 5.466025322675704956e-03
-3.595756292343139648e-01 9.064969420433044434e-02 -1.410665572620928288e-03
-5.098382234573364258e-01 -5.580648779869079590e-02 3.540677204728126526e-02
-5.295789837837219238e-01 3.613887727260589600e-02 8.346463739871978760e-02
-4.814894795417785645e-01 8.181278593838214874e-03 8.421125262975692749e-02
-6.684193015098571777e-01 2.360888570547103882e-02 -7.047951966524124146e-02
-4.698234796524047852e-01 1.047715544700622559e-01 -2.652394026517868042e-02
-6.231853961944580078e-01 1.076768636703491211e-01 -1.703993603587150574e-02
-4.066214561462402344e-01 8.466614037752151489e-02 4.725993052124977112e-02
-5.429134964942932129e-01 -5.579453706741333008e-02 2.769076079130172729e-02
-2.670546770095825195e-01 -3.441078215837478638e-02 -1.441319100558757782e-02
-4.392729699611663818e-01 9.288906119763851166e-03 -8.321604132652282715e-02
-5.557945966720581055e-01 -4.734093323349952698e-03 7.714534550905227661e-02
-5.954150557518005371e-01 -5.332844704389572144e-02 9.462060988880693913e-04
-7.091683149337768555e-01 8.605997264385223389e-02 2.259529754519462585e-02
-6.623672246932983398e-01 1.769193075597286224e-02 6.522378325462341309e-02
-5.459535121917724609e-01 -4.230006039142608643e-02 -5.271438509225845337e-02
-3.507185578346252441e-01 8.793820440769195557e-02 8.759930729866027832e-03
-3.818353712558746338e-01 -1.544334180653095245e-02 -7.022246718406677246e-02
-2.662586569786071777e-01 4.778904095292091370e-02 2.883795648813247681e-02
-2.856344282627105713e-01 6.607814878225326538e-02 -3.556748386472463608e-03
-3.348158895969390869e-01 5.294795706868171692e-02 5.819660797715187073e-02
-2.241064906120300293e-01 3.593806177377700806e-03 9.429443627595901489e-03
-6.621046066284179688e-01 -3.155119717121124268e-02 -3.180792182683944702e-02
-7.278516292572021484e-01 6.380811333656311035e-02 3.678893297910690308e-02
-7.099440097808837891e-01 8.326466381549835205e-02 -3.474505990743637085e-02
-6.106724739074707031e-01 -2.620853297412395477e-02 5.475420504808425903e-02
-4.007866382598876953e-01 -3.386139869689941406e-02 -6.154613569378852844e-02
-5.006888508796691895e-01 4.672452807426452637e-03 8.333504199981689453e-02
-5.663926005363464355e-01 5.074812099337577820e-02 7.828027009963989258e-02
-5.560823678970336914e-01 -5.289071798324584961e-02 3.091624565422534943e-02
-5.782291293144226074e-01 1.024113744497299194e-01 3.556751832365989685e-02
-3.188088238239288330e-01 7.867579162120819092e-02 7.633373141288757324e-03
-3.258974552154541016e-01 7.288387417793273926e-02 -3.139133006334304810e-02
-3.321711421012878418e-01 -1.824366115033626556e-02 -5.926631391048431396e-02
-6.570569872856140137e-01 9.881296753883361816e-02 2.432205900549888611e-02
-7.489169836044311523e-01 6.528045237064361572e-02 -3.047032095491886139e-02
-4.022518992424011230e-01 7.293071597814559937e-02 -5.949482694268226624e-02
-3.460978269577026367e-01 -5.424214154481887817e-02 -2.237380109727382660e-02
-5.687092542648315430e-01 9.136846661567687988e-02 -5.698737129569053650e-02
-3.260518908500671387e-01 1.390401646494865417e-02 6.831829249858856201e-02
-6.103998422622680664e-01 1.092156320810317993e-01 -1.470346190035343170e-02
-4.154587686061859131e-01 -1.073773764073848724e-02 -7.620893418788909912e-02
-3.774693608283996582e-01 7.556886225938796997e-02 -5.032347515225410461e-02
-3.423653841018676758e-01 -4.793622344732284546e-02 -3.416772559285163879e-02
-7.138227224349975586e-01 -1.207504235208034515e-02 -3.089783899486064911e-02
-5.846417546272277832e-01 -8.519409224390983582e-03 7.188645005226135254e-02
-3.680733144283294678e-01 8.532624691724777222e-02 -3.203560784459114075e-02
-6.696938276290893555e-01 -8.370691910386085510e-03 -5.689984560012817383e-02
-2.412740588188171387e-01 3.346972167491912842e-02 2.038118243217468262e-02
-2.427223920822143555e-01 -1.930521987378597260e-02 -1.399776712059974670e-02
-4.075134396553039551e-01 -6.365671008825302124e-02 1.392052881419658661e-02
-3.468368649482727051e-01 -1.175550185143947601e-02 6.829248368740081787e-02
-5.926471352577209473e-01 8.321456611156463623e-02 5.831073969602584839e-02
-6.152711510658264160e-01 2.727005630731582642e-04 7.044664770364761353e-02
-4.586656689643859863e-01 2.027460746467113495e-02 8.472410589456558228e-02
-6.167120933532714844e-01 8.063183724880218506e-02 -6.299035996198654175e-02
-3.471162617206573486e-01 7.118101418018341064e-02 4.573932662606239319e-02
-2.559092044830322266e-01 4.839060455560684204e-02 -1.084202807396650314e-02
-6.266054511070251465e-01 -4.720112681388854980e-02 -1.505467342212796211e-03
-5.702284574508666992e-01 -4.754120111465454102e-02 -3.984068706631660461e-02
-4.279740452766418457e-01 4.034224897623062134e-02 -8.048452436923980713e-02
-4.506348073482513428e-01 1.046684011816978455e-01 -1.913227699697017670e-02
-3.835864067077636719e-01 9.176121652126312256e-02 -2.532849460840225220e-02
-7.659755349159240723e-01 4.544309154152870178e-02 -2.711992524564266205e-02
-5.660725235939025879e-01 1.621304824948310852e-02 -8.437489718198776245e-02
-5.041622519493103027e-01 -1.295945607125759125e-02 7.760351151227951050e-02
-3.528188765048980713e-01 2.253216318786144257e-02 7.343382388353347778e-02
-2.841770052909851074e-01 4.811988398432731628e-02 -3.788528963923454285e-02
-4.719413220882415771e-01 -6.373468786478042603e-02 1.748532988131046295e-02
-4.847119748592376709e-01 -6.112457066774368286e-02 2.565830387175083160e-02
-5.093987584114074707e-01 9.653349965810775757e-02 4.631676152348518372e-02
-4.457286894321441650e-01 1.774129644036293030e-02 8.417449891567230225e-02
-3.632850050926208496e-01 -2.850132994353771210e-02 6.252386420965194702e-02
-2.929600477218627930e-01 2.437353506684303284e-02 5.736031010746955872e-02
-3.242524862289428711e-01 7.945137470960617065e-02 -1.241278462111949921e-02
-5.154402852058410645e-01 -2.967145107686519623e-02 -6.815204769372940063e-02
-4.488252401351928711e-01 -9.206781163811683655e-03 -7.927745580673217773e-02
-2.623439431190490723e-01 -1.418693549931049347e-02 -3.513041138648986816e-02
-5.165537595748901367e-01 2.720059081912040710e-02 8.469892293214797974e-02
-4.261935353279113770e-01 1.026697903871536255e-01 1.079200301319360733e-02
-7.164369821548461914e-01 2.022941783070564270e-02 4.780383408069610596e-02
-3.748298287391662598e-01 7.941713929176330566e-02 4.506142064929008484e-02
-6.155762076377868652e-01 -2.824243716895580292e-02 -5.495774000883102417e-02
-2.333839535713195801e-01 -1.481217332184314728e-02 1.003054715692996979e-02
-5.138356089591979980e-01 -5.478610098361968994e-02 -3.740500286221504211e-02
-2.715009748935699463e-01 5.941648781299591064e-02 -1.441556261852383614e-03
-5.082504153251647949e-01 1.081391647458076477e-01 -2.494331449270248413e-02
-4.100959897041320801e-01 7.007300108671188354e-02 6.317160278558731079e-02
-2.480766177177429199e-01 -2.774416841566562653e-02 6.859810673631727695e-04
-4.558327794075012207e-01 -6.360530108213424683e-02 -1.836200617253780365e-02
-5.341587066650390625e-01 1.859795302152633667e-04 8.064047992229461670e-02
-5.294353365898132324e-01 1.111353486776351929e-01 1.107879634946584702e-02
-2.274221181869506836e-01 -7.455643266439437866e-03 -1.619269605726003647e-03
-3.636493682861328125e-01 -1.070989109575748444e-02 7.151639461517333984e-02
-7.396738529205322266e-01 -5.455689504742622375e-03 5.679488182067871094e-03
-4.388334453105926514e-01 -6.324247270822525024e-02 2.081617526710033417e-02
-5.400081872940063477e-01 -6.020938605070114136e-02 1.129924412816762924e-02
-2.655062377452850342e-01 5.366442352533340454e-02 1.687172241508960724e-02
-4.397583305835723877e-01 1.052859723567962646e-01 -3.954774700105190277e-03
-4.706875979900360107e-01 6.136088818311691284e-02 7.525163143873214722e-02
-5.123721361160278320e-01 -3.906068205833435059e-02 5.913876369595527649e-02
-6.101540327072143555e-01 6.148349493741989136e-02 6.989510357379913330e-02
-4.863770306110382080e-01 -6.480483710765838623e-02 5.973021965473890305e-03
-4.382839798927307129e-01 8.580163121223449707e-02 5.246152356266975403e-02
-4.236197471618652344e-01 -1.050684601068496704e-03 -7.997524738311767578e-02
-3.728517889976501465e-01 -3.914246708154678345e-02 -5.271172150969505310e-02
-3.999122679233551025e-01 -5.262260138988494873e-02 -4.009198397397994995e-02
-2.480775713920593262e-01 -2.362770028412342072e-02 1.934021338820457458e-02
-7.040758728981018066e-01 6.851609796285629272e-02 4.420338943600654602e-02
-5.796842575073242188e-01 -4.430349916219711304e-02 4.065206646919250488e-02
-5.655909180641174316e-01 8.331317454576492310e-02 6.054508686065673828e-02
-4.892385005950927734e-01 -6.423785537481307983e-02 -1.023853197693824768e-02
-7.213877439498901367e-01 8.847756683826446533e-02 -9.813945740461349487e-03
-2.994610667228698730e-01 6.014539301395416260e-02 3.666270896792411804e-02
-6.806519031524658203e-01 3.292859718203544617e-02 -6.826550513505935669e-02
-5.481506586074829102e-01 -3.403425961732864380e-02 5.980395153164863586e-02
-3.019948899745941162e-01 -4.420410841703414917e-02 2.675483934581279755e-02
-4.308025240898132324e-01 -5.645117163658142090e-02 3.834582865238189697e-02
-5.886664986610412598e-01 -4.699914902448654175e-02 -3.511264547705650330e-02
-6.117178201675415039e-01 1.030708998441696167e-01 2.900899201631546021e-02
-3.158046603202819824e-01 7.340320944786071777e-02 -2.274059876799583435e-02
-7.591291666030883789e-01 1.728032529354095459e-02 -2.582528628408908844e-02
-6.185758709907531738e-01 1.855761557817459106e-02 -7.907946407794952393e-02
-4.005463421344757080e-01 8.510129153728485107e-02 -4.540053755044937134e-02
-4.302338361740112305e-01 -3.860615938901901245e-02 -6.023943051695823669e-02
-6.122573614120483398e-01 1.869305223226547241e-02 7.562725245952606201e-02
-4.166389703750610352e-01 8.918756246566772461e-02 -4.411159455776214600e-02
-6.688439846038818359e-01 7.532631605863571167e-02 5.069029703736305237e-02
-3.892433643341064453e-01 9.692038595676422119e-02 -6.566819734871387482e-03
-5.024121403694152832e-01 -3.804509341716766357e-02 -6.152569875121116638e-02
-5.452368259429931641e-01 -2.152983285486698151e-02 6.990483403205871582e-02
-5.625697374343872070e-01 1.110810637474060059e-01 1.179576292634010315e-02
-6.994225978851318359e-01 4.001809656620025635e-02 5.592467263340950012e-02
-4.598840177059173584e-01 2.851361408829689026e-02 -8.514757454395294189e-02
-6.771360635757446289e-01 8.440472930669784546e-02 -4.698368534445762634e-02
-5.957528352737426758e-01 -1.647357828915119171e-02 -6.889669597148895264e-02
-3.301829397678375244e-01 -5.582119524478912354e-02 7.632736233063042164e-04
-3.236793875694274902e-01 -2.706165052950382233e-02 -5.157604441046714783e-02
-6.428973674774169922e-01 1.044023558497428894e-01 1.465131528675556183e-02
-4.370803833007812500e-01 -4.657844454050064087e-02 -5.222106352448463440e-02
-4.818422198295593262e-01 1.096992790699005127e-01 -2.355798613280057907e-03
-4.905628263950347900e-01 1.087218299508094788e-01 -1.802103593945503235e-02
-3.817435204982757568e-01 -6.119907647371292114e-02 -1.430436503142118454e-02
-5.496203303337097168e-01 1.113444566726684570e-01 1.102579105645418167e-02
-3.032727837562561035e-01 4.837336763739585876e-02 -4.742287099361419678e-02
-6.548595428466796875e-01 4.164577275514602661e-02 6.773158162832260132e-02
-3.510223627090454102e-01 3.494676575064659119e-02 7.059265673160552979e-02
-5.733000636100769043e-01 2.910185791552066803e-02 8.109037578105926514e-02
-6.822609901428222656e-01 -1.753395609557628632e-02 -4.308833181858062744e-02
-5.966494083404541016e-01 3.153737261891365051e-02 -8.262290805578231812e-02
-5.286679863929748535e-01 8.565184473991394043e-02 5.962061882019042969e-02
-3.198014497756958008e-01 -1.785468310117721558e-03 6.534702330827713013e-02
-5.815017223358154297e-01 1.057339385151863098e-01 -3.334764018654823303e-02
-5.282664299011230469e-01 1.121370121836662292e-01 -2.096837386488914490e-03
-2.860710024833679199e-01 3.800317272543907166e-02 -4.600704833865165710e-02
-5.796177983283996582e-01 -5.590054392814636230e-02 1.814658520743250847e-03
-6.043040752410888672e-01 -7.348040118813514709e-03 -7.282719761133193970e-02
-5.280004143714904785e-01 1.967361941933631897e-02 8.423088490962982178e-02
-4.348568618297576904e-01 5.219029635190963745e-02 -7.748918235301971436e-02
-4.799444079399108887e-01 9.982519596815109253e-02 3.800251334905624390e-02
-5.283377170562744141e-01 3.913724422454833984e-02 -8.572431653738021851e-02
-6.591610908508300781e-01 1.037180572748184204e-01 -1.232148054987192154e-02
-3.301239609718322754e-01 -3.419031947851181030e-02 5.112966895103454590e-02
-3.301276564598083496e-01 3.167381510138511658e-02 -6.433176249265670776e-02
-2.590016424655914307e-01 -1.619751937687397003e-02 3.675913065671920776e-02
-4.779523909091949463e-01 2.157310210168361664e-02 -8.625731617212295532e-02
-2.954750657081604004e-01 -4.586499929428100586e-02 -1.207367330789566040e-02
-7.343713045120239258e-01 5.107761546969413757e-02 -4.754539951682090759e-02
-4.444396495819091797e-01 -5.849542468786239624e-02 -3.333607316017150879e-02
-7.283619642257690430e-01 -2.503724768757820129e-03 -3.308618813753128052e-02
-4.741939604282379150e-01 -5.347155034542083740e-02 -4.306833073496818542e-02
-5.380957126617431641e-01 1.091061756014823914e-01 -2.512647025287151337e-02
-4.672698974609375000e-01 -5.467878282070159912e-02 4.174652695655822754e-02
-6.219492554664611816e-01 8.906476944684982300e-02 -5.440286546945571899e-02
-3.596506714820861816e-01 -1.053626276552677155e-02 -6.851071864366531372e-02
-5.425645112991333008e-01 8.854294568300247192e-02 5.656220018863677979e-02
-7.766064405441284180e-01 3.977721929550170898e-02 -6.522297859191894531e-03
-4.687570631504058838e-01 -2.717643044888973236e-02 -7.081560045480728149e-02
-5.964937806129455566e-01 3.298563510179519653e-02 7.835513353347778320e-02
-5.061951279640197754e-01 1.092894375324249268e-01 1.652930863201618195e-02
-7.040472626686096191e-01 9.321179986000061035e-02 7.556970231235027313e-03
-6.591666936874389648e-01 -2.463186345994472504e-02 -4.466308280825614929e-02
-5.733764171600341797e-01 6.781918555498123169e-02 7.073341310024261475e-02
-5.415310263633728027e-01 2.641354873776435852e-02 8.361990004777908325e-02
-7.432879209518432617e-01 1.807314902544021606e-02 -4.002071171998977661e-02
-7.381528615951538086e-01 1.172643061727285385e-02 3.224293142557144165e-02
-3.884362578392028809e-01 -4.110677540302276611e-02 5.561526492238044739e-02
-4.554781317710876465e-01 -6.432215124368667603e-02 1.605368219316005707e-02
-3.725643157958984375e-01 2.176066115498542786e-02 7.688495516777038574e-02
-4.991281628608703613e-01 5.860092118382453918e-03 -8.492706716060638428e-02
-3.794405758380889893e-01 -5.242956429719924927e-02 -3.669034689664840698e-02
-3.486414551734924316e-01 -2.831125445663928986e-02 6.003418564796447754e-02
-5.013218522071838379e-01 -2.789424918591976166e-02 6.934759765863418579e-02
-4.877186119556427002e-01 6.325595825910568237e-02 -7.713828235864639282e-02
-7.213385105133056641e-01 -1.602762006223201752e-02 2.407234860584139824e-03
-7.687767744064331055e-01 2.046054042875766754e-02 5.127647891640663147e-03
-7.365041971206665039e-01 8.256359398365020752e-02 -5.934680346399545670e-03
-7.611467838287353516e-01 6.123785674571990967e-02 1.323573756963014603e-02
-2.850950360298156738e-01 1.277419552206993103e-02 -5.229668691754341125e-02
-4.726476073265075684e-01 -1.157440803945064545e-02 -7.924963533878326416e-02
-4.328407049179077148e-01 1.866348087787628174e-02 8.345697820186614990e-02
-7.270007729530334473e-01 -1.061132363975048065e-02 1.321105752140283585e-02
-5.534407496452331543e-01 -2.322482876479625702e-02 -6.991392374038696289e-02
-5.900907516479492188e-01 9.359298646450042725e-02 -5.299346148967742920e-02
-2.930177748203277588e-01 -3.108835406601428986e-02 4.148752987384796143e-02
-3.543636798858642578e-01 6.524869054555892944e-02 -5.330752953886985779e-02
-5.358645319938659668e-01 8.834908902645111084e-02 -6.066993623971939087e-02
-3.115038573741912842e-01 1.839369162917137146e-02 -6.118738278746604919e-02
-3.928962647914886475e-01 -1.820647157728672028e-02 7.223265618085861206e-02
-4.736713469028472900e-01 -4.126910120248794556e-02 -5.905528739094734192e-02
-5.284724235534667969e-01 1.031289994716644287e-01 -3.981866315007209778e-02
-3.457417190074920654e-01 -2.459767274558544159e-02 -5.883814767003059387e-02
-3.541112542152404785e-01 1.670891232788562775e-02 -7.204612344503402710e-02
-4.735468327999114990e-01 5.475997924804687500e-02 -8.004453033208847046e-02
-2.981071472167968750e-01 -3.581183403730392456e-02 -3.394569084048271179e-02
-6.955213546752929688e-01 -2.720551751554012299e-02 -5.434792488813400269e-03
-2.572939395904541016e-01 5.320459604263305664e-03 -3.892805427312850952e-02
-7.448432445526123047e-01 5.790155380964279175e-03 -2.876753360033035278e-02
-3.409230113029479980e-01 3.937024623155593872e-02 -6.488560885190963745e-02
-3.841486573219299316e-01 9.584534913301467896e-02 6.908560637384653091e-03
-3.855361044406890869e-01 -6.143748760223388672e-02 1.761717349290847778e-02
-7.135471105575561523e-01 4.483766853809356689e-02 -5.761287733912467957e-02
-4.531150460243225098e-01 4.787386208772659302e-02 7.991383224725723267e-02
-4.398131668567657471e-01 1.026615276932716370e-01 2.003422565758228302e-02
-4.231908619403839111e-01 -3.795825690031051636e-02 6.168957427144050598e-02
-3.745750188827514648e-01 9.240373969078063965e-02 -1.602198928594589233e-02
-5.457017421722412109e-01 7.382807880640029907e-02 6.873492151498794556e-02
-6.306567192077636719e-01 -2.232380211353302002e-04 -7.156195491552352905e-02
-6.665103435516357422e-01 1.738943159580230713e-03 5.871821567416191101e-02
-6.722307801246643066e-01 9.616161137819290161e-02 2.338014915585517883e-02
-5.193594098091125488e-01 2.164987288415431976e-02 -8.678298443555831909e-02
-4.015766680240631104e-01 -8.540118113160133362e-03 -7.550433278083801270e-02
-4.720436930656433105e-01 8.433488756418228149e-02 -6.056552007794380188e-02
-3.155569434165954590e-01 5.060796067118644714e-02 5.335337296128273010e-02
-6.804523468017578125e-01 8.820053935050964355e-02 3.377363458275794983e-02
-3.111702799797058105e-01 -7.988946512341499329e-03 -5.788748711347579956e-02
-4.098257720470428467e-01 -4.731044173240661621e-02 5.092223733663558960e-02
-4.570416510105133057e-01 9.735774993896484375e-02 3.867940232157707214e-02
-3.078105151653289795e-01 3.356883674860000610e-02 5.967199802398681641e-02
-5.654494762420654297e-01 1.065708026289939880e-01 2.762562595307826996e-02
-6.224051713943481445e-01 5.443724244832992554e-02 7.077781856060028076e-02
-6.511257886886596680e-01 -3.552424162626266479e-02 2.575263939797878265e-02
-2.990608215332031250e-01 5.911128968000411987e-02 -3.515096753835678101e-02
-5.714794397354125977e-01 1.106709688901901245e-01 -1.794449612498283386e-02
-3.432254791259765625e-01 7.932120561599731445e-02 3.121880628168582916e-02
-6.851437091827392578e-01 5.330225825309753418e-02 -6.445658206939697266e-02
-6.395404934883117676e-01 5.999687314033508301e-02 -7.165946811437606812e-02
-6.215773224830627441e-01 5.618739128112792969e-02 -7.561625540256500244e-02
-6.928439140319824219e-01 9.732883423566818237e-02 -6.874042097479104996e-03
-3.401501178741455078e-01 5.146326124668121338e-02 -5.896280333399772644e-02
-4.719215035438537598e-01 6.829856336116790771e-02 -7.320153713226318359e-02
-3.714202642440795898e-01 3.815524652600288391e-02 -7.233217358589172363e-02
-5.134229660034179688e-01 -1.092656143009662628e-02 -7.937796413898468018e-02
-3.653263151645660400e-01 -6.046847999095916748e-02 -8.222764357924461365e-03
-6.049740910530090332e-01 1.251659635454416275e-02 -7.981897890567779541e-02
-4.003192186355590820e-01 5.856783688068389893e-02 6.943787634372711182e-02
-2.543349266052246094e-01 -2.853173576295375824e-02 -1.222838554531335831e-02
-6.383817791938781738e-01 3.033170104026794434e-02 -7.704773545265197754e-02
-4.548465609550476074e-01 1.068120822310447693e-01 6.403781939297914505e-03
-5.655866265296936035e-01 3.364218398928642273e-03 -8.165413141250610352e-02
-3.685290217399597168e-01 -4.546484351158142090e-02 4.763231426477432251e-02
-2.796015441417694092e-01 4.719722270965576172e-02 3.924927115440368652e-02
-5.446020960807800293e-01 1.121983230113983154e-01 -8.034853264689445496e-03
-7.497028112411499023e-01 2.152878791093826294e-03 -1.562429685145616531e-02
-5.720874071121215820e-01 5.307596921920776367e-02 -8.113563060760498047e-02
-6.410304903984069824e-01 4.307508468627929688e-02 -7.585733383893966675e-02
-4.506987333297729492e-01 -2.794577740132808685e-02 7.029943913221359253e-02
-3.693953752517700195e-01 -6.087991595268249512e-02 1.185588911175727844e-02
-7.125687599182128906e-01 2.354841120541095734e-02 -5.718064308166503906e-02
-3.764962553977966309e-01 -2.686086483299732208e-02 6.556188315153121948e-02
-4.095374345779418945e-01 -4.317021369934082031e-02 -5.385102704167366028e-02
-5.409594178199768066e-01 7.097378373146057129e-02 -7.430167496204376221e-02
-5.673087239265441895e-01 4.710169509053230286e-03 7.891379296779632568e-02
-6.713116168975830078e-01 -2.485284022986888885e-02 -3.854830563068389893e-02
-3.428190946578979492e-01 -3.588589280843734741e-02 -4.936138913035392761e-02
-6.053754091262817383e-01 4.875994473695755005e-02 -7.958323508501052856e-02
-4.852755367755889893e-01 1.027281507849693298e-01 -3.560578823089599609e-02
-5.960457921028137207e-01 7.551245391368865967e-02 -6.893125921487808228e-02
-7.541167736053466797e-01 1.956851035356521606e-02 2.477026544511318207e-02
-7.029736638069152832e-01 -1.955943368375301361e-02 2.009033970534801483e-02
-3.897042572498321533e-01 7.941838353872299194e-02 -4.957590997219085693e-02
-3.760744333267211914e-01 -5.619063973426818848e-02 3.120777942240238190e-02
-3.349367380142211914e-01 8.062588423490524292e-02 -2.066943421959877014e-02
-6.874569654464721680e-01 1.480942219495773315e-02 5.720944702625274658e-02
-4.127697944641113281e-01 1.010225862264633179e-01 7.364297285676002502e-03
-4.075978994369506836e-01 9.353737533092498779e-02 -3.303737193346023560e-02
-3.013963103294372559e-01 1.180081535130739212e-02 6.166700646281242371e-02
-4.805473983287811279e-01 2.829107269644737244e-02 8.491826802492141724e-02
-4.108709692955017090e-01 2.337587624788284302e-02 8.151714503765106201e-02
-5.709390640258789062e-01 -5.000056326389312744e-02 3.259145095944404602e-02
-6.147207021713256836e-01 -4.944902658462524414e-02 -8.010643534362316132e-03
-6.412440538406372070e-01 6.168252974748611450e-02 6.481189280748367310e-02
-2.795739769935607910e-01 5.837360769510269165e-02 2.393250912427902222e-02
-3.559463620185852051e-01 4.198995977640151978e-02 -6.770868599414825439e-02
-6.017705798149108887e-01 -4.814309626817703247e-02 2.355854213237762451e-02
-3.020350337028503418e-01 7.275370508432388306e-02 7.185331545770168304e-03
-6.001328825950622559e-01 -2.728205174207687378e-03 7.195611298084259033e-02
-4.158290922641754150e-01 -6.503912806510925293e-02 -1.847664825618267059e-03
-2.980254888534545898e-01 -1.225231029093265533e-02 -5.202476680278778076e-02
-6.954144835472106934e-01 -1.752344891428947449e-03 -5.223639309406280518e-02
-6.459208726882934570e-01 1.058791503310203552e-01 -1.095383893698453903e-02
-2.526710033416748047e-01 4.459640011191368103e-02 1.845986396074295044e-02
-6.164282560348510742e-01 3.129974752664566040e-02 -8.032837510108947754e-02
-6.402097344398498535e-01 7.430176436901092529e-02 5.801351740956306458e-02
-6.821756362915039062e-01 5.224422737956047058e-02 5.880102515220642090e-02
-6.016934514045715332e-01 -1.852480880916118622e-02 6.307262182235717773e-02
-3.070480227470397949e-01 -2.950935997068881989e-02 -4.424390941858291626e-02
-6.554495096206665039e-01 -1.616531051695346832e-02 5.041871592402458191e-02
-2.753866314888000488e-01 5.719394236803054810e-02 -1.854771934449672699e-02
-4.582778513431549072e-01 -8.073467761278152466e-04 8.220585435628890991e-02
-6.862691640853881836e-01 -1.985968463122844696e-02 3.232339024543762207e-02
-4.266344308853149414e-01 -5.327641218900680542e-02 -4.211559891700744629e-02
-4.826094508171081543e-01 -5.782121792435646057e-03 8.092350512742996216e-02
-7.705549001693725586e-01 2.920265682041645050e-02 -1.938990876078605652e-02
-6.088749766349792480e-01 -5.054242908954620361e-02 5.743378773331642151e-03
-6.906693577766418457e-01 9.360445290803909302e-02 1.875679381191730499e-02
-5.394446849822998047e-01 5.968116968870162964e-02 7.659179717302322388e-02
-6.268265247344970703e-01 9.952181577682495117e-02 3.265969455242156982e-02
-5.907920002937316895e-01 -2.327417954802513123e-03 -7.703587412834167480e-02
-3.429016172885894775e-01 7.248219847679138184e-02 -4.108021408319473267e-02
-6.401975750923156738e-01 -2.926656976342201233e-03 6.365026533603668213e-02
-7.379795312881469727e-01 7.194686681032180786e-02 -3.182710707187652588e-02
-6.267445087432861328e-01 -2.544298954308032990e-02 5.101093649864196777e-02
-5.971655249595642090e-01 1.050572320818901062e-01 -3.296037390828132629e-02
