1.972693204879760742e-02 -2.351046800613403320e-01 -1.143544018268585205e-01
4.624641537666320801e-01 -2.102533131837844849e-01 -3.034860193729400635e-01
5.618137121200561523e-02 -3.852461278438568115e-01 5.639147013425827026e-02
4.262170791625976562e-01 6.421834230422973633e-03 1.673210412263870239e-01
6.855915486812591553e-02 -2.408336102962493896e-02 3.166768327355384827e-02
1.010228842496871948e-01 -4.083765745162963867e-01 1.590761840343475342e-01
5.665227174758911133e-01 -1.651025116443634033e-01 1.209953427314758301e-02
4.439659118652343750e-01 -3.548151254653930664e-01 2.008206397294998169e-01
3.520262539386749268e-01 -4.321098029613494873e-01 1.438820660114288330e-01
2.165283113718032837e-01 -3.392941355705261230e-01 -2.852227389812469482e-01
4.667695760726928711e-01 -6.230381131172180176e-02 -2.318714708089828491e-01
3.410913348197937012e-01 3.850504755973815918e-02 1.772307455539703369e-01
4.559231996536254883e-01 -3.546786010265350342e-01 -1.898618638515472412e-01
4.337128996849060059e-01 -1.233012750744819641e-01 -3.113053441047668457e-01
3.052333295345306396e-01 5.839121341705322266e-02 -5.554417148232460022e-02
3.142015635967254639e-02 -6.739492714405059814e-02 3.174632415175437927e-02
3.407368063926696777e-01 -4.063433408737182617e-01 -2.005610018968582153e-01
3.692632913589477539e-01 -2.654150724411010742e-01 3.657513558864593506e-01
2.743408679962158203e-01 -4.560419321060180664e-01 -5.233420804142951965e-02
1.075427979230880737e-01 -4.142168164253234863e-01 -3.485805168747901917e-02
1.526346504688262939e-01 -2.456520199775695801e-01 4.015413224697113037e-01
2.115505933761596680e-02 -2.477131187915802002e-01 2.648106813430786133e-01
-4.073888063430786133e-03 -2.809444069862365723e-01 1.484100371599197388e-01
5.368010997772216797e-01 -2.118850201368331909e-01 -1.900342553853988647e-01
2.893264889717102051e-01 -3.208383917808532715e-01 -3.193436563014984131e-01
5.503560304641723633e-01 -1.963475644588470459e-01 1.131175160408020020e-01
5.072919130325317383e-01 -3.299221396446228027e-01 -1.214030981063842773e-01
1.991965919733047485e-01 -3.068149089813232422e-04 -1.819368004798889160e-01
3.476383686065673828e-01 -3.622331023216247559e-01 2.991350293159484863e-01
4.289471507072448730e-01 -3.924226164817810059e-01 -1.442399024963378906e-01
4.018562734127044678e-01 -3.980486989021301270e-01 1.772567927837371826e-01
5.267578363418579102e-01 -7.551683485507965088e-02 -1.311379820108413696e-01
5.290108919143676758e-01 -2.967739403247833252e-01 8.541075885295867920e-02
1.509767472743988037e-01 -4.388470649719238281e-01 1.172918975353240967e-01
1.624687910079956055e-01 -3.996788263320922852e-01 2.619923353195190430e-01
5.183082818984985352e-01 -1.155283451080322266e-01 1.782239228487014771e-01
4.786706864833831787e-01 -6.995813548564910889e-02 2.143205553293228149e-01
5.534968376159667969e-01 -1.076167449355125427e-01 -6.735789775848388672e-02
5.307937264442443848e-01 -1.218631863594055176e-01 -1.825733333826065063e-01
1.952436566352844238e-01 2.058479189872741699e-02 2.244709134101867676e-01
5.117474794387817383e-01 -3.346031904220581055e-01 -8.276434242725372314e-02
5.682622194290161133e-01 -1.893442124128341675e-01 -3.242307901382446289e-02
4.853207767009735107e-01 -6.106674671173095703e-03 3.274257481098175049e-02
5.526541471481323242e-01 -1.277778148651123047e-01 7.476910948753356934e-02
4.568164944648742676e-01 -4.330796003341674805e-02 2.158436626195907593e-01
1.274038702249526978e-01 -2.425106018781661987e-01 -2.774293422698974609e-01
1.166072189807891846e-01 1.392880082130432129e-02 8.745293319225311279e-02
5.382920503616333008e-01 -1.142011508345603943e-01 1.197218000888824463e-01
1.545152813196182251e-01 -6.924889981746673584e-02 -2.402347475290298462e-01
1.595599651336669922e-01 -3.684099018573760986e-02 3.120589256286621094e-01
2.643064558506011963e-01 -3.169600069522857666e-01 3.789266347885131836e-01
4.407174587249755859e-01 -8.298134803771972656e-02 -2.793720364570617676e-01
1.514972746372222900e-01 -4.315609335899353027e-01 1.597844958305358887e-01
1.812042593955993652e-01 -1.149814873933792114e-01 -2.980328202247619629e-01
1.206904649734497070e-02 -3.217764496803283691e-01 1.384485810995101929e-01
3.629441559314727783e-01 -7.402033358812332153e-02 -3.118263483047485352e-01
3.503137826919555664e-02 -1.873210966587066650e-01 2.964814007282257080e-01
5.644448399543762207e-01 -2.164146602153778076e-01 1.761331222951412201e-02
3.131009340286254883e-01 -4.550197720527648926e-01 6.811141967773437500e-02
5.283653736114501953e-01 -3.151777982711791992e-01 -5.701960250735282898e-02
3.013876080513000488e-01 -3.291708827018737793e-01 3.590127229690551758e-01
1.593386828899383545e-01 -3.673457503318786621e-01 3.139607012271881104e-01
3.820644915103912354e-01 -2.979908883571624756e-02 2.838008105754852295e-01
5.375610589981079102e-01 -8.234532177448272705e-02 -1.015813946723937988e-01
7.273256778717041016e-03 -2.933771610260009766e-01 1.842983812093734741e-01
3.398211002349853516e-01 -1.665150672197341919e-01 3.970322608947753906e-01
1.291790604591369629e-01 -1.613853424787521362e-01 -2.756585478782653809e-01
5.998042225837707520e-02 -3.873903155326843262e-01 1.010279506444931030e-01
3.770996928215026855e-01 4.015903174877166748e-02 -1.030705571174621582e-01
4.582368731498718262e-01 -1.883921027183532715e-02 -1.719040870666503906e-01
3.865485191345214844e-01 -1.938557624816894531e-01 -3.518837988376617432e-01
2.892210185527801514e-01 -3.449028730392456055e-02 -2.760089039802551270e-01
4.839360117912292480e-01 -3.157563805580139160e-01 -2.074131965637207031e-01
8.761286735534667969e-02 -3.886899352073669434e-01 -7.551404833793640137e-02
4.885309636592864990e-01 -3.662288784980773926e-01 2.063804864883422852e-02
3.119722306728363037e-01 -1.792394220829010010e-01 -3.634275794029235840e-01
8.842188119888305664e-02 -1.463328003883361816e-01 -2.227908223867416382e-01
3.780469894409179688e-01 -4.048839807510375977e-01 1.941527426242828369e-01
2.559259235858917236e-01 -4.422725141048431396e-01 -1.179956942796707153e-01
1.955303251743316650e-01 -4.142044782638549805e-01 2.476767748594284058e-01
3.924976885318756104e-01 -2.500982880592346191e-01 3.550406694412231445e-01
4.273130297660827637e-01 -3.091875910758972168e-01 2.837754786014556885e-01
1.727171540260314941e-01 -3.292461633682250977e-01 3.619413971900939941e-01
4.018549323081970215e-01 -4.169438481330871582e-01 -1.068256050348281860e-01
3.864731490612030029e-01 -2.630831003189086914e-01 -3.374429345130920410e-01
1.336060166358947754e-01 -4.178037643432617188e-01 1.871016472578048706e-01
3.770384192466735840e-01 -2.244991362094879150e-01 -3.525774776935577393e-01
5.309284925460815430e-01 -5.774314701557159424e-02 1.067476719617843628e-02
4.839179515838623047e-01 -5.855390429496765137e-02 -2.024861127138137817e-01
7.379847764968872070e-02 -4.005171358585357666e-02 2.029723525047302246e-01
1.583174318075180054e-01 -8.146610856056213379e-02 3.612280488014221191e-01
3.792165517807006836e-01 -1.188182830810546875e-02 -2.331987470388412476e-01
2.588851153850555420e-01 3.845632076263427734e-03 2.826251983642578125e-01
5.515503883361816406e-01 -2.717893719673156738e-01 -1.819530501961708069e-02
2.893674373626708984e-01 6.425622105598449707e-02 6.696192547678947449e-03
3.406101465225219727e-02 -2.912451028823852539e-01 -1.167498081922531128e-01
5.191010236740112305e-01 -3.001916706562042236e-01 1.178752332925796509e-01
4.885297715663909912e-01 -4.401293396949768066e-02 -1.694889813661575317e-01
2.515083551406860352e-01 -4.583273530006408691e-01 -3.258842229843139648e-02
1.746656298637390137e-01 -1.627142727375030518e-01 -3.135140538215637207e-01
4.693740010261535645e-01 -3.450134992599487305e-01 1.691985130310058594e-01
4.591619670391082764e-01 -1.183417811989784241e-01 -2.882061898708343506e-01
3.610347807407379150e-01 -4.427937865257263184e-01 6.268630176782608032e-02
4.439385533332824707e-01 -3.353757262229919434e-01 2.315708100795745850e-01
5.138122439384460449e-01 -2.052059173583984375e-01 -2.391588538885116577e-01
4.191774129867553711e-02 -3.259333372116088867e-01 2.356349229812622070e-01
-6.133049726486206055e-03 -2.779754102230072021e-01 2.011032588779926300e-02
5.641143321990966797e-01 -1.543107181787490845e-01 -7.322859764099121094e-02
8.075508475303649902e-02 -3.667148649692535400e-01 -1.125913709402084351e-01
4.981600642204284668e-01 -3.439861536026000977e-02 1.053339540958404541e-01
6.384137272834777832e-02 -3.895775675773620605e-01 1.840236224234104156e-02
5.222406983375549316e-02 -7.731813192367553711e-02 2.332099676132202148e-01
-1.767951250076293945e-02 -2.184224426746368408e-01 1.158281564712524414e-01
4.173378348350524902e-01 3.199069201946258545e-02 8.938018977642059326e-02
4.331114888191223145e-01 2.034139633178710938e-02 -9.750261902809143066e-02
4.486055970191955566e-01 -1.162670254707336426e-01 2.947790324687957764e-01
3.065259754657745361e-01 -2.783455550670623779e-01 3.918999135494232178e-01
2.476840317249298096e-01 7.586315274238586426e-03 -1.992427706718444824e-01
1.484701037406921387e-02 -1.017462834715843201e-01 1.563733518123626709e-01
2.628570795059204102e-01 2.498993277549743652e-02 2.387522757053375244e-01
5.520141124725341797e-01 -2.626544833183288574e-01 3.209017217159271240e-02
1.962409168481826782e-01 -4.717615246772766113e-02 3.435930907726287842e-01
3.376622498035430908e-01 -3.834356069564819336e-01 2.752045094966888428e-01
2.541459798812866211e-01 -3.800198137760162354e-01 -2.518877685070037842e-01
6.461369991302490234e-02 -2.833998203277587891e-02 1.137372106313705444e-01
2.439241409301757812e-01 -4.320763349533081055e-01 2.112025916576385498e-01
4.745373725891113281e-01 -3.723081350326538086e-01 -9.298563003540039062e-02
3.275279998779296875e-01 -3.461959958076477051e-01 3.306204974651336670e-01
1.730425506830215454e-01 4.210318624973297119e-02 7.723566889762878418e-02
5.050674080848693848e-01 -3.885032236576080322e-02 -1.130798161029815674e-01
3.441486954689025879e-01 -2.380596101284027100e-02 -2.622229456901550293e-01
4.001283049583435059e-01 2.512055635452270508e-02 -1.338192224502563477e-01
1.627024412155151367e-01 -4.193743467330932617e-01 2.152263671159744263e-01
5.054126381874084473e-01 -5.014006793498992920e-02 -1.422724425792694092e-01
4.523584544658660889e-01 -8.010351657867431641e-02 2.646494507789611816e-01
2.825500071048736572e-02 -3.270215988159179688e-01 -5.132200941443443298e-02
4.183404445648193359e-01 -2.596804201602935791e-01 3.278601467609405518e-01
5.241259336471557617e-01 -2.517648339271545410e-01 1.647180318832397461e-01
1.225222796201705933e-01 -4.199892282485961914e-02 2.875235676765441895e-01
4.762953519821166992e-01 -9.855349361896514893e-02 -2.567969858646392822e-01
3.302398920059204102e-01 -4.528971910476684570e-01 -1.505853980779647827e-02
1.538297235965728760e-01 -1.343221366405487061e-01 3.930864036083221436e-01
1.534767746925354004e-01 -9.383290261030197144e-02 -2.616219222545623779e-01
2.898461520671844482e-01 -4.321627914905548096e-01 1.991998851299285889e-01
4.161946773529052734e-01 -4.193712174892425537e-01 -4.555259272456169128e-02
2.137646377086639404e-01 -7.201869785785675049e-02 3.728151023387908936e-01
2.205198556184768677e-01 -4.595599472522735596e-01 2.426478266716003418e-02
3.599449396133422852e-01 -5.931884050369262695e-03 2.653113901615142822e-01
4.890283942222595215e-01 -3.645765185356140137e-01 -5.600791051983833313e-02
3.109143972396850586e-01 -3.598472476005554199e-01 -2.816411852836608887e-01
2.857969403266906738e-01 -4.421100020408630371e-01 -1.197209656238555908e-01
8.165098726749420166e-02 -1.128788068890571594e-01 -1.910858601331710815e-01
2.659486234188079834e-01 -3.740440309047698975e-02 3.417460024356842041e-01
4.739384055137634277e-01 -2.257094979286193848e-01 2.746126353740692139e-01
3.119604289531707764e-01 -2.742981910705566406e-01 -3.480620980262756348e-01
5.119765996932983398e-01 -3.120695054531097412e-02 -1.789144799113273621e-02
3.722777962684631348e-01 5.447527766227722168e-02 7.817054167389869690e-03
3.466697037220001221e-01 -3.248246312141418457e-01 3.405938446521759033e-01
6.076970696449279785e-02 -2.630622982978820801e-01 3.234080374240875244e-01
2.657997012138366699e-01 3.950962424278259277e-02 -1.288228482007980347e-01
6.951758265495300293e-02 -3.531217575073242188e-01 2.447778731584548950e-01
1.159378886222839355e-01 -1.125433295965194702e-01 -2.370076626539230347e-01
2.422630786895751953e-04 -1.822147369384765625e-01 2.108200043439865112e-01
1.443071812391281128e-01 -4.221374988555908203e-01 -8.618235588073730469e-02
1.824072897434234619e-01 -4.405697584152221680e-01 -7.175745069980621338e-02
3.607856333255767822e-01 3.161908686161041260e-02 -1.470952928066253662e-01
1.984410583972930908e-01 -3.113941252231597900e-01 3.829101622104644775e-01
2.735954225063323975e-01 -4.511836767196655273e-01 1.343491673469543457e-01
6.596928834915161133e-02 -3.353466391563415527e-01 -1.349627226591110229e-01
2.568706274032592773e-01 -4.397161602973937988e-01 1.862153559923171997e-01
1.429176926612854004e-01 -3.186544179916381836e-01 3.579801321029663086e-01
2.421678900718688965e-01 -2.855002582073211670e-01 -3.325217962265014648e-01
2.874924838542938232e-01 -3.601289093494415283e-01 3.320219516754150391e-01
4.975719451904296875e-01 -1.624171882867813110e-01 2.415153831243515015e-01
7.891505956649780273e-03 -3.106480836868286133e-01 5.032630637288093567e-03
5.443090200424194336e-01 -1.617654263973236084e-01 -1.703142821788787842e-01
2.387303113937377930e-02 -2.118583619594573975e-01 2.782978415489196777e-01
2.962450683116912842e-01 -4.400599896907806396e-01 1.697659939527511597e-01
3.423558473587036133e-01 -1.347618550062179565e-01 -3.511667251586914062e-01
-1.032888889312744141e-02 -1.939359307289123535e-01 1.703592538833618164e-01
1.722269654273986816e-01 -2.947975993156433105e-01 3.873953223228454590e-01
4.305123686790466309e-01 -4.561242461204528809e-02 2.554379701614379883e-01
2.518973946571350098e-01 -4.215488731861114502e-01 -1.766440719366073608e-01
7.206758856773376465e-02 -1.743835508823394775e-01 -2.105510681867599487e-01
1.501789987087249756e-01 -3.179179728031158447e-01 -2.605859637260437012e-01
1.543396115303039551e-01 -4.412274360656738281e-01 -1.064372435212135315e-02
2.297362536191940308e-01 -3.833460211753845215e-01 3.101040422916412354e-01
4.734229147434234619e-01 -3.698797821998596191e-01 8.996543288230895996e-02
2.307935953140258789e-01 5.295932292938232422e-02 1.246740221977233887e-01
3.880845904350280762e-01 3.613272309303283691e-02 1.323387920856475830e-01
1.385563910007476807e-01 -1.138228178024291992e-02 -1.332183927297592163e-01
3.869697451591491699e-01 -3.061973750591278076e-01 3.269185721874237061e-01
4.882362484931945801e-01 -2.711146771907806396e-01 2.273715734481811523e-01
7.882714271545410156e-05 -1.551457047462463379e-01 -2.693932503461837769e-02
1.463692188262939453e-01 -3.873262405395507812e-01 -1.734865158796310425e-01
2.508139312267303467e-01 -4.172409772872924805e-01 2.481183409690856934e-01
2.217516601085662842e-01 -3.001792430877685547e-01 -3.170404732227325439e-01
4.696528613567352295e-02 -1.406344175338745117e-01 2.957886159420013428e-01
3.468961417675018311e-01 -3.489152491092681885e-01 -2.871554791927337646e-01
3.340620994567871094e-01 6.201559305191040039e-02 2.620538324117660522e-02
3.745550215244293213e-01 -4.341136217117309570e-01 9.116999059915542603e-02
2.832282781600952148e-01 -3.865180611610412598e-01 2.976729571819305420e-01
1.071276813745498657e-01 5.604237318038940430e-03 1.152839511632919312e-01
3.117323219776153564e-01 -7.432101666927337646e-02 -3.174897730350494385e-01
9.963338077068328857e-02 -1.271549463272094727e-01 3.526718914508819580e-01
4.172027111053466797e-04 -2.838300466537475586e-01 -1.167062669992446899e-02
5.626109838485717773e-01 -1.882470846176147461e-01 -9.967672824859619141e-02
4.943664371967315674e-01 -4.819735884666442871e-02 1.490698903799057007e-01
6.478261947631835938e-02 -3.061419725418090820e-01 -1.655036062002182007e-01
1.911700367927551270e-01 -8.890730887651443481e-02 -2.872687876224517822e-01
1.185734122991561890e-01 -1.737309396266937256e-01 3.858886361122131348e-01
4.063311815261840820e-01 -4.999865591526031494e-02 -2.708327472209930420e-01
3.290303647518157959e-01 -3.830647170543670654e-01 -2.471546679735183716e-01
5.489994287490844727e-01 -1.048667281866073608e-01 5.609262734651565552e-02
3.693504631519317627e-01 -3.938818573951721191e-01 2.291253656148910522e-01
5.378851890563964844e-01 -2.932593822479248047e-01 -8.355699479579925537e-02
6.332032382488250732e-02 -3.866106569766998291e-01 1.305382251739501953e-01
1.252066940069198608e-01 -2.744349241256713867e-01 3.766447901725769043e-01
5.584632158279418945e-01 -1.195009201765060425e-01 1.195625588297843933e-02
1.989253908395767212e-01 -7.680520415306091309e-03 2.885572314262390137e-01
4.712723493576049805e-01 -1.526132971048355103e-01 -2.909579873085021973e-01
1.512050032615661621e-01 -2.053292393684387207e-01 4.067144989967346191e-01
1.920779645442962646e-01 -4.515572190284729004e-01 -2.093808725476264954e-02
1.096680909395217896e-01 -2.895390391349792480e-01 -2.402471750974655151e-01
2.349228113889694214e-01 5.132454633712768555e-02 -5.715120956301689148e-02
5.708776414394378662e-02 -3.744768202304840088e-01 -2.709961310029029846e-02
3.635686635971069336e-02 -2.232705652713775635e-01 -1.541040986776351929e-01
4.889926314353942871e-02 -3.371970951557159424e-01 -9.432880580425262451e-02
1.375588029623031616e-01 -4.269177913665771484e-01 -5.412339046597480774e-02
7.685276865959167480e-02 -2.520781755447387695e-01 -2.160503566265106201e-01
1.028161793947219849e-01 -3.265828192234039307e-01 3.219600021839141846e-01
1.058853864669799805e-01 -3.896882534027099609e-01 -1.114079505205154419e-01
1.866927742958068848e-02 -1.626751720905303955e-01 -9.909911453723907471e-02
2.759020626544952393e-01 -1.780980825424194336e-02 3.160716891288757324e-01
3.302179574966430664e-01 5.366760492324829102e-02 1.229464858770370483e-01
1.103022843599319458e-01 -3.605289459228515625e-01 -1.721123307943344116e-01
1.756569743156433105e-01 2.910639345645904541e-02 -7.305781543254852295e-02
1.052362322807312012e-01 -3.762550354003906250e-01 2.550106048583984375e-01
1.942617297172546387e-01 -1.544567048549652100e-01 4.139930903911590576e-01
-1.452499628067016602e-02 -2.386768460273742676e-01 1.368598341941833496e-01
1.648619771003723145e-02 -9.204755723476409912e-02 2.735587209463119507e-02
5.452452898025512695e-01 -2.629058361053466797e-01 -1.181323230266571045e-01
2.113977074623107910e-01 3.217653930187225342e-02 2.013975679874420166e-01
1.008842140436172485e-01 -5.560472607612609863e-02 -1.553589552640914917e-01
2.021942883729934692e-01 -3.658927679061889648e-01 3.308091461658477783e-01
2.594086527824401855e-01 -4.360088706016540527e-02 -2.791872322559356689e-01
4.069637060165405273e-01 -4.247621297836303711e-01 4.239746555685997009e-02
2.958006858825683594e-01 5.177831649780273438e-02 1.507377624511718750e-01
2.033187747001647949e-01 -2.722634673118591309e-01 -3.225840330123901367e-01
-1.237908005714416504e-02 -2.666588425636291504e-01 6.298152357339859009e-02
4.897711873054504395e-01 -3.301523327827453613e-01 1.489051729440689087e-01
-4.057854413986206055e-03 -1.858221888542175293e-01 -3.413237258791923523e-02
2.850882112979888916e-01 -4.328597187995910645e-01 -1.503758728504180908e-01
1.548048853874206543e-02 -3.341663777828216553e-01 1.000776290893554688e-01
1.166317164897918701e-01 -4.073245823383331299e-01 -8.395595848560333252e-02
1.343890279531478882e-01 -3.922625184059143066e-01 2.550631761550903320e-01
5.247126817703247070e-01 -3.154261708259582520e-01 5.110195279121398926e-02
1.183263659477233887e-01 -4.270457029342651367e-01 1.012171059846878052e-02
5.230950117111206055e-01 -4.884363710880279541e-02 -6.057579442858695984e-02
2.440969496965408325e-01 -4.024217128753662109e-01 2.785351276397705078e-01
2.020880579948425293e-02 -1.836159229278564453e-01 2.665384113788604736e-01
2.403237074613571167e-01 1.935009658336639404e-02 -1.702439785003662109e-01
3.954203426837921143e-01 -1.327633261680603027e-01 3.538174331188201904e-01
1.299394071102142334e-01 3.059953451156616211e-03 -7.783710956573486328e-02
1.798672378063201904e-01 -3.626364171504974365e-01 -2.393655031919479370e-01
2.498006969690322876e-01 -4.607525765895843506e-01 6.401951611042022705e-02
5.765794217586517334e-02 -2.711186408996582031e-01 -1.782069802284240723e-01
6.451964378356933594e-03 -2.543289065361022949e-01 -6.766895949840545654e-02
-5.280405282974243164e-03 -2.885995209217071533e-01 1.134225130081176758e-01
5.361237525939941406e-01 -3.001145720481872559e-01 2.916560880839824677e-02
5.379705429077148438e-01 -3.012115061283111572e-01 -1.346836984157562256e-02
3.761242032051086426e-01 -1.506302952766418457e-01 3.732006251811981201e-01
2.186114639043807983e-01 -1.716668903827667236e-02 3.111042678356170654e-01
1.177451014518737793e-01 -3.152231872081756592e-02 -1.417555958032608032e-01
1.370472460985183716e-01 -2.140711396932601929e-01 -2.900138497352600098e-01
2.738327682018280029e-01 -1.082978621125221252e-01 3.982643783092498779e-01
1.595088988542556763e-01 -2.039016336202621460e-01 -3.084902167320251465e-01
3.498283624649047852e-01 -4.464751482009887695e-02 3.233389854431152344e-01
2.413793802261352539e-01 -1.086149960756301880e-01 -3.262301087379455566e-01
4.448902606964111328e-01 -3.995042741298675537e-01 -6.820982694625854492e-02
3.235126137733459473e-01 -4.494398236274719238e-01 -6.341409683227539062e-02
1.726616024971008301e-01 -2.129879593849182129e-02 -1.949009299278259277e-01
5.250291824340820312e-01 -9.191457927227020264e-02 -1.643093526363372803e-01
8.766727149486541748e-02 -3.565124571323394775e-01 -1.434606462717056274e-01
3.615456223487854004e-01 -4.412530958652496338e-01 -5.468319728970527649e-02
2.005280852317810059e-01 -4.524176418781280518e-01 1.087934374809265137e-01
3.139437437057495117e-01 -3.796621561050415039e-01 2.953015863895416260e-01
3.463032245635986328e-01 -3.201150000095367432e-01 -3.150569498538970947e-01
2.701053619384765625e-01 6.108304858207702637e-02 -2.400285005569458008e-02
3.412477076053619385e-01 -4.415821433067321777e-01 1.167427599430084229e-01
4.902987182140350342e-02 -4.249855875968933105e-02 8.352959156036376953e-02
4.334219694137573242e-01 -2.260191738605499268e-02 2.179482281208038330e-01
4.913690686225891113e-01 -1.773910224437713623e-01 -2.729403376579284668e-01
3.103514015674591064e-01 -3.993859291076660156e-01 -2.238064855337142944e-01
2.277026474475860596e-01 -4.008038640022277832e-01 -2.105293571949005127e-01
4.267564713954925537e-01 -4.068748354911804199e-01 9.051522612571716309e-02
3.990038633346557617e-01 -8.128030598163604736e-02 -3.046477735042572021e-01
8.350807428359985352e-02 -8.114237338304519653e-02 -1.614246070384979248e-01
-1.507737040519714355e-01 -7.188852429389953613e-01 2.887899279594421387e-01
-2.572958469390869141e-01 -6.293165683746337891e-01 3.059217035770416260e-01
-7.157853245735168457e-02 -6.698778271675109863e-01 2.913497388362884521e-01
-4.396403133869171143e-01 -7.699772119522094727e-01 3.111996352672576904e-01
-3.768772482872009277e-01 -6.282787322998046875e-01 2.316899001598358154e-01
-3.731095194816589355e-01 -6.966825127601623535e-01 1.999463289976119995e-01
-4.461402893066406250e-01 -7.307775616645812988e-01 2.627656459808349609e-01
-4.191495776176452637e-01 -7.310453653335571289e-01 2.456453144550323486e-01
-2.183334529399871826e-01 -5.444913506507873535e-01 1.773761212825775146e-01
-8.987013995647430420e-02 -6.251361370086669922e-01 3.062207698822021484e-01
-3.616904616355895996e-01 -6.993387937545776367e-01 3.470959663391113281e-01
-3.071798980236053467e-01 -7.156526446342468262e-01 3.782387375831604004e-01
-2.037770748138427734e-01 -7.496244311332702637e-01 3.143535256385803223e-01
-3.512871861457824707e-01 -6.018322706222534180e-01 1.887155175209045410e-01
-3.571400046348571777e-01 -7.880935072898864746e-01 3.284971714019775391e-01
-1.148544624447822571e-01 -5.745208263397216797e-01 1.244289129972457886e-01
-2.990674078464508057e-01 -7.795166373252868652e-01 3.251830935478210449e-01
-2.929823100566864014e-01 -7.485256195068359375e-01 2.660084366798400879e-01
-1.821788549423217773e-01 -5.374722480773925781e-01 1.807484328746795654e-01
-1.390920579433441162e-01 -6.547476649284362793e-01 1.905390322208404541e-01
-1.228862404823303223e-01 -5.771547555923461914e-01 2.610498964786529541e-01
-2.827258706092834473e-01 -5.878112316131591797e-01 2.331160455942153931e-01
-2.488814145326614380e-01 -7.491970062255859375e-01 3.960280418395996094e-01
-2.353667318820953369e-01 -6.328542232513427734e-01 3.154514431953430176e-01
-1.497420668601989746e-01 -6.888670921325683594e-01 2.322836369276046753e-01
-2.011948674917221069e-01 -7.219554185867309570e-01 2.574744522571563721e-01
-2.804997563362121582e-01 -7.617688179016113281e-01 2.934696972370147705e-01
-2.242784053087234497e-01 -6.259258389472961426e-01 3.097442388534545898e-01
-2.538712620735168457e-01 -6.825498938560485840e-01 1.870317757129669189e-01
-1.283155977725982666e-01 -5.208818912506103516e-01 1.505180895328521729e-01
-3.106170892715454102e-01 -7.732655405998229980e-01 3.060025572776794434e-01
-3.797781169414520264e-01 -6.357660293579101562e-01 2.456324994564056396e-01
-3.300510644912719727e-01 -6.694083213806152344e-01 3.284067511558532715e-01
-2.707595527172088623e-01 -7.617647647857666016e-01 3.988456726074218750e-01
-1.751141548156738281e-01 -7.115395665168762207e-01 2.543066740036010742e-01
-2.646098732948303223e-01 -6.972326040267944336e-01 3.715522289276123047e-01
-2.109930813312530518e-01 -5.402826070785522461e-01 1.159947961568832397e-01
-2.036801129579544067e-01 -5.902848243713378906e-01 2.688262462615966797e-01
-4.038219153881072998e-01 -7.845262289047241211e-01 3.221963942050933838e-01
-2.104361802339553833e-01 -7.419414520263671875e-01 2.899836003780364990e-01
-1.389032304286956787e-01 -5.648757219314575195e-01 1.126605272293090820e-01
-1.367455422878265381e-01 -5.520850419998168945e-01 2.231660634279251099e-01
-3.775468468666076660e-01 -7.174199819564819336e-01 3.571061491966247559e-01
-2.289557456970214844e-01 -5.528246760368347168e-01 1.923696994781494141e-01
-4.050646722316741943e-02 -6.235575079917907715e-01 2.717931568622589111e-01
-2.168966233730316162e-01 -7.018093466758728027e-01 2.201229035854339600e-01
-4.158720672130584717e-01 -7.163199782371520996e-01 3.338194191455841064e-01
-6.277675926685333252e-02 -6.584144234657287598e-01 2.940084338188171387e-01
-3.101339042186737061e-01 -5.845862627029418945e-01 2.028495371341705322e-01
-3.711795508861541748e-01 -7.912714481353759766e-01 3.867399096488952637e-01
-4.013431072235107422e-01 -7.088166475296020508e-01 3.358906805515289307e-01
-1.945736706256866455e-01 -5.744621157646179199e-01 2.477528601884841919e-01
-3.476697504520416260e-01 -7.257266044616699219e-01 3.752788305282592773e-01
-3.404900431632995605e-01 -6.659492254257202148e-01 1.696365773677825928e-01
-7.676130533218383789e-02 -5.539895892143249512e-01 2.249609380960464478e-01
-3.454196155071258545e-01 -7.025572657585144043e-01 3.567011058330535889e-01
-1.049780696630477905e-01 -6.948433518409729004e-01 3.298054933547973633e-01
-3.156471252441406250e-01 -6.434775590896606445e-01 3.028673827648162842e-01
-4.092813134193420410e-01 -7.507295012474060059e-01 2.657936513423919678e-01
-4.197655320167541504e-01 -7.884681224822998047e-01 3.485460579395294189e-01
-2.958321571350097656e-01 -6.099876165390014648e-01 2.641560733318328857e-01
-1.203986331820487976e-01 -6.727944016456604004e-01 3.442454636096954346e-01
-2.939683496952056885e-01 -6.457768082618713379e-01 3.143182098865509033e-01
-2.732330560684204102e-01 -5.968176722526550293e-01 2.542417943477630615e-01
-3.254293203353881836e-01 -7.944794297218322754e-01 3.715027868747711182e-01
-1.461801230907440186e-01 -6.456605195999145508e-01 1.766489148139953613e-01
-7.098743319511413574e-02 -5.432507991790771484e-01 1.289516985416412354e-01
-2.375318109989166260e-01 -5.487577915191650391e-01 1.735869348049163818e-01
-4.077242016792297363e-01 -6.544151902198791504e-01 1.987932920455932617e-01
-2.949106991291046143e-01 -6.208717823028564453e-01 1.351540088653564453e-01
-2.352343946695327759e-01 -5.755488276481628418e-01 2.355980426073074341e-01
-2.415993511676788330e-01 -7.064148783683776855e-01 3.796551823616027832e-01
-4.138526916503906250e-01 -6.636775732040405273e-01 2.591299116611480713e-01
-3.684363365173339844e-01 -7.698139548301696777e-01 2.899445295333862305e-01
-8.038581907749176025e-02 -6.265000104904174805e-01 1.893411576747894287e-01
-2.570733726024627686e-01 -7.434405088424682617e-01 2.689699530601501465e-01
-2.343735247850418091e-01 -6.676673293113708496e-01 1.746397018432617188e-01
-4.248871207237243652e-01 -7.294828891754150391e-01 3.399313092231750488e-01
-3.064385056495666504e-01 -6.322377324104309082e-01 2.919072508811950684e-01
-4.040356874465942383e-01 -7.569532394409179688e-01 3.729814589023590088e-01
-1.172608360648155212e-01 -6.357725858688354492e-01 1.784655153751373291e-01
-4.047018289566040039e-01 -7.388048171997070312e-01 3.611140251159667969e-01
-1.449351906776428223e-01 -5.945162177085876465e-01 1.290703862905502319e-01
-4.447550773620605469e-01 -7.722049951553344727e-01 3.298185467720031738e-01
-3.533058464527130127e-01 -6.227080821990966797e-01 1.550222486257553101e-01
-2.350900918245315552e-01 -6.976740956306457520e-01 2.090695500373840332e-01
-2.904014885425567627e-01 -7.202943563461303711e-01 2.258352488279342651e-01
-1.054089218378067017e-01 -6.182143688201904297e-01 1.650480628013610840e-01
-8.501882851123809814e-02 -5.771726369857788086e-01 1.383222937583923340e-01
-2.232472300529479980e-01 -6.785597801208496094e-01 3.609130084514617920e-01
-3.398801684379577637e-01 -7.840789556503295898e-01 3.964935243129730225e-01
-6.899259984493255615e-02 -5.244500637054443359e-01 1.529355347156524658e-01
-1.330136656761169434e-01 -6.338436007499694824e-01 1.690307557582855225e-01
-9.689961373805999756e-02 -5.197682976722717285e-01 1.357127130031585693e-01
-8.947943150997161865e-02 -6.803302168846130371e-01 2.731712758541107178e-01
-1.583015024662017822e-01 -5.891802906990051270e-01 1.220994591712951660e-01
-1.933767795562744141e-01 -7.342509627342224121e-01 3.813347816467285156e-01
-1.450960040092468262e-01 -6.500868201255798340e-01 3.366928398609161377e-01
-1.464450955390930176e-01 -5.463179349899291992e-01 2.114274501800537109e-01
-3.549681901931762695e-01 -6.072986721992492676e-01 1.658593267202377319e-01
-1.728314459323883057e-01 -6.911800503730773926e-01 3.666080236434936523e-01
-1.097431182861328125e-01 -6.005445718765258789e-01 2.878373861312866211e-01
-1.843234598636627197e-01 -6.581218838691711426e-01 3.454741537570953369e-01
-3.533863127231597900e-01 -7.504242658615112305e-01 2.599745392799377441e-01
-4.548860192298889160e-01 -7.512158155441284180e-01 3.001531958580017090e-01
-2.497316896915435791e-02 -5.650656819343566895e-01 1.822783797979354858e-01
-2.273572832345962524e-01 -7.618232369422912598e-01 3.270719051361083984e-01
-1.615357697010040283e-01 -5.341295003890991211e-01 1.812511384487152100e-01
-2.781327962875366211e-01 -6.739385724067687988e-01 1.749408245086669922e-01
-1.718009114265441895e-01 -5.272116661071777344e-01 1.531727463006973267e-01
-3.776655793190002441e-01 -7.739218473434448242e-01 3.898148536682128906e-01
-2.894828915596008301e-01 -7.634348273277282715e-01 4.005451798439025879e-01
-3.069607019424438477e-01 -7.460324168205261230e-01 2.589462399482727051e-01
-2.587666213512420654e-01 -7.679137587547302246e-01 3.937691450119018555e-01
-8.210302889347076416e-02 -5.928421616554260254e-01 2.749966979026794434e-01
-1.218886002898216248e-01 -6.900328397750854492e-01 2.547789812088012695e-01
-3.555617630481719971e-01 -6.487332582473754883e-01 2.888999581336975098e-01
-2.598356902599334717e-01 -5.877877473831176758e-01 1.174094378948211670e-01
-2.019247412681579590e-01 -6.847174763679504395e-01 3.656925559043884277e-01
-3.108620941638946533e-01 -7.483025789260864258e-01 3.963512778282165527e-01
-2.068876922130584717e-01 -6.341756582260131836e-01 1.474784910678863525e-01
-2.940986156463623047e-01 -5.798006653785705566e-01 1.298023462295532227e-01
-1.082625836133956909e-01 -6.778077483177185059e-01 2.443359196186065674e-01
-2.526275813579559326e-02 -6.006686091423034668e-01 2.381289005279541016e-01
-2.080588638782501221e-01 -7.123866081237792969e-01 3.813484311103820801e-01
-2.386264055967330933e-01 -5.526080727577209473e-01 1.168697774410247803e-01
-4.049296677112579346e-02 -6.328017115592956543e-01 2.573730647563934326e-01
-3.673989474773406982e-01 -6.583219170570373535e-01 2.950670421123504639e-01
-4.217728078365325928e-01 -7.529440522193908691e-01 3.600634932518005371e-01
-4.385257661342620850e-01 -7.640900015830993652e-01 2.987815737724304199e-01
-3.646649122238159180e-01 -7.105041146278381348e-01 3.565008044242858887e-01
-3.226823508739471436e-01 -5.866191983222961426e-01 1.908592879772186279e-01
-3.228710591793060303e-01 -6.948930621147155762e-01 3.571441173553466797e-01
-3.459763526916503906e-01 -5.978084206581115723e-01 1.762214004993438721e-01
-2.267973124980926514e-02 -5.660771727561950684e-01 2.038294076919555664e-01
-3.292844593524932861e-01 -6.758711934089660645e-01 1.762586832046508789e-01
-1.124090403318405151e-01 -6.947212219238281250e-01 2.753852605819702148e-01
-2.227602601051330566e-01 -6.334631443023681641e-01 1.443129926919937134e-01
-1.611188203096389771e-01 -6.839030385017395020e-01 2.186063081026077271e-01
-1.422017067670822144e-01 -7.091878652572631836e-01 2.749867141246795654e-01
-3.662747740745544434e-01 -7.616419792175292969e-01 3.902788162231445312e-01
-2.792505621910095215e-01 -5.608502626419067383e-01 1.559251248836517334e-01
-1.355338394641876221e-01 -5.713561177253723145e-01 2.528162598609924316e-01
-2.257366925477981567e-01 -5.574825406074523926e-01 2.051547914743423462e-01
-3.994971513748168945e-01 -6.474215984344482422e-01 2.445071339607238770e-01
-2.525150179862976074e-01 -5.604739189147949219e-01 1.944593340158462524e-01
-2.837810516357421875e-01 -6.319357156753540039e-01 1.403993666172027588e-01
-1.699486970901489258e-01 -7.404673695564270020e-01 3.356593847274780273e-01
-4.081737995147705078e-01 -6.480461955070495605e-01 2.114816457033157349e-01
-3.246244788169860840e-01 -7.395699024200439453e-01 3.900516033172607422e-01
-2.099490612745285034e-01 -6.195605993270874023e-01 3.049634695053100586e-01
-2.550594806671142578e-01 -5.855815410614013672e-01 2.440697848796844482e-01
-2.156375050544738770e-01 -6.432721018791198730e-01 1.541040390729904175e-01
-2.407413125038146973e-01 -6.662849187850952148e-01 3.487668633460998535e-01
-3.313832879066467285e-01 -6.132019162178039551e-01 1.430396139621734619e-01
-7.898466289043426514e-02 -6.486372947692871094e-01 3.147857487201690674e-01
-2.934916019439697266e-01 -6.603560447692871094e-01 3.312323689460754395e-01
-2.813152670860290527e-01 -7.395844459533691406e-01 3.952692151069641113e-01
-1.619498133659362793e-01 -6.727131009101867676e-01 2.029146999120712280e-01
-3.944782614707946777e-01 -6.369747519493103027e-01 1.938761770725250244e-01
-2.853181958198547363e-01 -5.733246207237243652e-01 1.989121139049530029e-01
-5.072264373302459717e-02 -5.890387296676635742e-01 2.597102820873260498e-01
-1.236569285392761230e-01 -6.997731328010559082e-01 3.482166528701782227e-01
-2.635374069213867188e-01 -7.263863086700439453e-01 3.900496363639831543e-01
-4.230496287345886230e-02 -6.248525977134704590e-01 2.270106375217437744e-01
-2.444342076778411865e-01 -7.215502262115478516e-01 3.878729343414306641e-01
-9.217825531959533691e-02 -6.776511073112487793e-01 3.266111612319946289e-01
-4.446965157985687256e-01 -7.488029003143310547e-01 2.811334431171417236e-01
-1.972856223583221436e-01 -5.413778424263000488e-01 1.828629970550537109e-01
-3.622672259807586670e-01 -6.097093820571899414e-01 1.958921551704406738e-01
-2.117377817630767822e-01 -7.579221129417419434e-01 3.744800984859466553e-01
-3.272715508937835693e-01 -6.558157801628112793e-01 1.604994535446166992e-01
-2.226574718952178955e-01 -5.767893195152282715e-01 1.104371994733810425e-01
-1.278316080570220947e-01 -6.785483956336975098e-01 2.301169335842132568e-01
-2.244035154581069946e-01 -7.312433123588562012e-01 2.618916034698486328e-01
-4.442284405231475830e-01 -7.008800506591796875e-01 2.803072929382324219e-01
-3.185169696807861328e-01 -7.787287831306457520e-01 3.991618752479553223e-01
-3.571856319904327393e-01 -6.493092179298400879e-01 1.634315252304077148e-01
-2.714644372463226318e-01 -7.662441134452819824e-01 3.068735599517822266e-01
-3.614971339702606201e-01 -7.817581892013549805e-01 3.131195902824401855e-01
-3.450531363487243652e-01 -6.088316440582275391e-01 2.250999808311462402e-01
-2.169792354106903076e-01 -5.964895486831665039e-01 1.188547760248184204e-01
-1.989352256059646606e-01 -7.546091675758361816e-01 3.418023586273193359e-01
-4.327946305274963379e-01 -6.897734999656677246e-01 2.812128663063049316e-01
-1.227175965905189514e-01 -5.274402499198913574e-01 1.136173456907272339e-01
-1.534128040075302124e-01 -7.095019817352294922e-01 2.657052576541900635e-01
-3.081890344619750977e-01 -7.878191471099853516e-01 3.896420300006866455e-01
-1.450178027153015137e-01 -6.955479979515075684e-01 2.463258206844329834e-01
-2.997784614562988281e-01 -7.001361250877380371e-01 3.677808642387390137e-01
-2.373356968164443970e-01 -6.024707555770874023e-01 2.767276167869567871e-01
-2.123297154903411865e-01 -5.534911155700683594e-01 2.035292088985443115e-01
-2.438729703426361084e-01 -6.597015261650085449e-01 1.650306284427642822e-01
-4.472685158252716064e-01 -7.190809249877929688e-01 2.552657425403594971e-01
-3.153886497020721436e-01 -6.667371392250061035e-01 3.310023248195648193e-01
-1.728399246931076050e-01 -7.260357737541198730e-01 2.841051518917083740e-01
-4.214676022529602051e-01 -6.622253656387329102e-01 2.240843027830123901e-01
-1.657114923000335693e-01 -6.787717938423156738e-01 3.588132262229919434e-01
-3.316946625709533691e-01 -7.649255990982055664e-01 2.850561141967773438e-01
-1.910796761512756348e-01 -6.586229205131530762e-01 1.754169911146163940e-01
-4.518374204635620117e-01 -7.625432014465332031e-01 3.210509717464447021e-01
-9.215700626373291016e-02 -5.563966035842895508e-01 2.308235764503479004e-01
-3.504374921321868896e-01 -6.052760481834411621e-01 2.073565572500228882e-01
-4.284743070602416992e-01 -7.810317277908325195e-01 3.273182511329650879e-01
-2.533062696456909180e-01 -7.504073381423950195e-01 2.830642759799957275e-01
-1.820740699768066406e-01 -5.459993481636047363e-01 2.007821798324584961e-01
-2.207501232624053955e-01 -6.482995748519897461e-01 3.342818021774291992e-01
-3.075298666954040527e-01 -7.912169694900512695e-01 3.655100464820861816e-01
-1.638944298028945923e-01 -5.583213567733764648e-01 2.290496379137039185e-01
-2.369547784328460693e-01 -7.604041695594787598e-01 3.143096566200256348e-01
-1.911626458168029785e-01 -7.093780040740966797e-01 2.419061064720153809e-01
-3.725165128707885742e-01 -6.192111372947692871e-01 2.112387269735336304e-01
-5.637404322624206543e-02 -6.201771497726440430e-01 2.011770009994506836e-01
-3.601929247379302979e-01 -7.033115029335021973e-01 2.041183859109878540e-01
-2.223906964063644409e-01 -6.770164966583251953e-01 1.875057816505432129e-01
-1.379845142364501953e-01 -6.402191519737243652e-01 3.280517458915710449e-01
-2.518722414970397949e-02 -5.985065102577209473e-01 2.174462527036666870e-01
-1.756443828344345093e-01 -5.819650292396545410e-01 1.147337704896926880e-01
-1.861644834280014038e-01 -6.079809665679931641e-01 1.298650503158569336e-01
-2.272917032241821289e-01 -7.176403403282165527e-01 3.853847980499267578e-01
-6.358020007610321045e-02 -6.329674124717712402e-01 2.123714089393615723e-01
-2.366700619459152222e-01 -7.378286123275756836e-01 2.676900327205657959e-01
-2.154676020145416260e-01 -7.627483010292053223e-01 3.561152815818786621e-01
-4.132722616195678711e-01 -6.563732028007507324e-01 2.409966737031936646e-01
-2.689996659755706787e-01 -7.026147246360778809e-01 2.074677050113677979e-01
-3.316836357116699219e-01 -7.507983446121215820e-01 2.622426748275756836e-01
-1.932178139686584473e-01 -6.368423104286193848e-01 3.257239460945129395e-01
-3.325756192207336426e-01 -7.879979014396667480e-01 3.342629671096801758e-01
-1.566034108400344849e-01 -5.675634145736694336e-01 2.450610101222991943e-01
-4.184009134769439697e-02 -5.383916497230529785e-01 1.579217016696929932e-01
-2.773096263408660889e-01 -6.514528989791870117e-01 3.261391818523406982e-01
-1.255134344100952148e-01 -6.700849533081054688e-01 2.186809629201889038e-01
-9.002178907394409180e-02 -5.460774302482604980e-01 2.141172438859939575e-01
-3.269594311714172363e-01 -6.556576490402221680e-01 3.133770823478698730e-01
-3.981216549873352051e-01 -7.946380376815795898e-01 3.602633774280548096e-01
-3.059169650077819824e-02 -6.140037178993225098e-01 2.504961788654327393e-01
-2.329097390174865723e-01 -7.624182701110839844e-01 3.859748840332031250e-01
-1.210307478904724121e-01 -7.025029659271240234e-01 2.836626172065734863e-01
-2.474214285612106323e-01 -6.480237245559692383e-01 3.296084403991699219e-01
-1.467898935079574585e-01 -6.797611117362976074e-01 3.556097149848937988e-01
-5.837288498878479004e-02 -6.383442282676696777e-01 2.271836102008819580e-01
-1.296443045139312744e-01 -6.459059715270996094e-01 1.842907220125198364e-01
-1.294105798006057739e-01 -5.205326080322265625e-01 1.248354762792587280e-01
-3.018592298030853271e-01 -5.779129266738891602e-01 1.932545006275177002e-01
-2.040578573942184448e-01 -7.445158958435058594e-01 3.829472064971923828e-01
-4.005219340324401855e-01 -7.905723452568054199e-01 3.380649983882904053e-01
-3.710490465164184570e-02 -6.107833385467529297e-01 2.114159017801284790e-01
-2.852481007575988770e-01 -5.954014658927917480e-01 2.455240935087203979e-01
-3.841519355773925781e-01 -7.865760922431945801e-01 3.859201669692993164e-01
-4.173855483531951904e-01 -7.058926820755004883e-01 2.220933288335800171e-01
-3.985071480274200439e-01 -7.244662642478942871e-01 3.527905344963073730e-01
-3.056705892086029053e-01 -7.682496309280395508e-01 4.008744060993194580e-01
-3.851166367530822754e-02 -5.904077887535095215e-01 1.833072900772094727e-01
-2.427493035793304443e-01 -6.107792854309082031e-01 2.864387929439544678e-01
-2.164800614118576050e-01 -7.426580190658569336e-01 3.886229991912841797e-01
-2.116995751857757568e-01 -5.991474986076354980e-01 2.790923714637756348e-01
-4.458410143852233887e-01 -7.257378697395324707e-01 3.146413862705230713e-01
-2.115213125944137573e-01 -6.553649902343750000e-01 3.419900536537170410e-01
-3.888869285583496094e-01 -7.101109027862548828e-01 3.445495367050170898e-01
-2.972654104232788086e-01 -6.338905096054077148e-01 1.426591128110885620e-01
-4.035126268863677979e-01 -7.762936353683471680e-01 3.790664374828338623e-01
-2.661665976047515869e-01 -7.194173932075500488e-01 2.296486347913742065e-01
-1.864260435104370117e-01 -6.042654514312744141e-01 2.903663218021392822e-01
-4.361457228660583496e-01 -7.271416783332824707e-01 3.276325166225433350e-01
-1.868120729923248291e-01 -6.456658244132995605e-01 1.629468202590942383e-01
-2.675074934959411621e-01 -7.777675390243530273e-01 3.416971564292907715e-01
-1.111305356025695801e-01 -6.613032221794128418e-01 2.152371704578399658e-01
-4.215357303619384766e-01 -7.006745338439941406e-01 3.109717369079589844e-01
-2.198749184608459473e-01 -5.510084033012390137e-01 1.103729009628295898e-01
-3.760513961315155029e-01 -6.518023014068603516e-01 1.722360253334045410e-01
-3.417926430702209473e-01 -6.349611282348632812e-01 1.522008925676345825e-01
-3.838973641395568848e-01 -7.801005244255065918e-01 3.093434870243072510e-01
-1.111372113227844238e-01 -6.447319984436035156e-01 1.926232874393463135e-01
-6.872169673442840576e-02 -6.661716699600219727e-01 2.781707644462585449e-01
-8.084256947040557861e-02 -6.068184375762939453e-01 1.666521131992340088e-01
-2.980491220951080322e-01 -7.049340605735778809e-01 2.060048878192901611e-01
-3.827926516532897949e-01 -7.196124792098999023e-01 2.237528264522552490e-01
-3.365830183029174805e-01 -7.377777099609375000e-01 2.433160543441772461e-01
-2.819807231426239014e-01 -6.669980287551879883e-01 3.414384722709655762e-01
-1.900960206985473633e-01 -7.488770484924316406e-01 3.304755091667175293e-01
-1.777634024620056152e-01 -6.609023213386535645e-01 1.822140216827392578e-01
-2.596607506275177002e-01 -7.579848766326904297e-01 2.950138449668884277e-01
-4.571273922920227051e-01 -7.296450138092041016e-01 2.914435267448425293e-01
-2.129264473915100098e-01 -6.665609478950500488e-01 3.517440557479858398e-01
-3.829914033412933350e-01 -7.369482517242431641e-01 3.704689145088195801e-01
-1.068038940429687500e-01 -5.222291946411132812e-01 1.228930056095123291e-01
-4.450802206993103027e-01 -6.967710256576538086e-01 2.499992102384567261e-01
-2.029796391725540161e-01 -7.051646113395690918e-01 2.301530241966247559e-01
-4.869073629379272461e-02 -5.510638356208801270e-01 1.461458951234817505e-01
-1.030927747488021851e-01 -6.769999861717224121e-01 3.361392021179199219e-01
-3.141947090625762939e-01 -6.660069227218627930e-01 1.670691519975662231e-01
-4.461355507373809814e-02 -5.398063063621520996e-01 1.851320117712020874e-01
-2.677672505378723145e-01 -5.859023332595825195e-01 2.382750958204269409e-01
-2.744331657886505127e-01 -6.089093685150146484e-01 2.725447118282318115e-01
-9.759585559368133545e-02 -6.515075564384460449e-01 3.257117867469787598e-01
-2.035092413425445557e-01 -6.066400408744812012e-01 1.263144016265869141e-01
-1.739790737628936768e-01 -6.143113374710083008e-01 1.373018771409988403e-01
-3.279176354408264160e-02 -5.712147355079650879e-01 1.726438999176025391e-01
-3.763144314289093018e-01 -6.837704777717590332e-01 3.227573335170745850e-01
-2.242794781923294067e-01 -5.390450954437255859e-01 1.365665495395660400e-01
-4.212270975112915039e-01 -7.385364174842834473e-01 3.504615426063537598e-01
-1.169354021549224854e-01 -5.422135591506958008e-01 2.076472342014312744e-01
-1.868360042572021484e-01 -6.773380637168884277e-01 3.600432872772216797e-01
-6.665059924125671387e-02 -6.344162821769714355e-01 3.012274801731109619e-01
-5.534814298152923584e-02 -5.782990455627441406e-01 2.506542801856994629e-01
-1.553290188312530518e-01 -6.171957254409790039e-01 1.446629017591476440e-01
-1.593658924102783203e-01 -7.342451810836791992e-01 3.288098275661468506e-01
-2.631401717662811279e-01 -6.741824150085449219e-01 1.767746806144714355e-01
-1.498813927173614502e-01 -7.247834801673889160e-01 3.070493042469024658e-01
-2.918939590454101562e-01 -6.362270116806030273e-01 3.032034635543823242e-01
-1.801734119653701782e-01 -5.614907741546630859e-01 2.305096387863159180e-01
-1.534412950277328491e-01 -6.340587735176086426e-01 1.614085137844085693e-01
-1.430125832557678223e-01 -5.787257552146911621e-01 2.624132037162780762e-01
-3.387924432754516602e-01 -7.815135121345520020e-01 3.161388933658599854e-01
-2.044764459133148193e-01 -5.358132123947143555e-01 1.594692915678024292e-01
-2.565652132034301758e-01 -7.655617594718933105e-01 3.137125670909881592e-01
-1.352848112583160400e-01 -7.133587002754211426e-01 2.936023771762847900e-01
-3.343297243118286133e-01 -6.865727305412292480e-01 3.452286720275878906e-01
-3.229690194129943848e-01 -7.236552238464355469e-01 3.804858028888702393e-01
-3.459389805793762207e-01 -6.386611461639404297e-01 2.799550890922546387e-01
-7.433594763278961182e-02 -5.838576555252075195e-01 1.491195112466812134e-01
-4.022995233535766602e-01 -7.714595794677734375e-01 2.955774664878845215e-01
-3.484095036983489990e-01 -6.697425246238708496e-01 3.206694126129150391e-01
-2.660144269466400146e-01 -6.048412919044494629e-01 1.241265833377838135e-01
-1.830320656299591064e-01 -6.255095601081848145e-01 3.148835599422454834e-01
-2.897901833057403564e-01 -7.723102569580078125e-01 3.118785917758941650e-01
-2.347812205553054810e-01 -6.880758404731750488e-01 1.973515152931213379e-01
-3.266102969646453857e-01 -6.071162223815917969e-01 2.391868084669113159e-01
