-5.119418725371360779e-03 5.953919291496276855e-01 -3.563601896166801453e-02
1.897353865206241608e-02 6.987872123718261719e-01 -3.064985200762748718e-02
5.680178850889205933e-02 6.626083850860595703e-01 7.718684524297714233e-02
-7.180839031934738159e-02 6.092714071273803711e-01 4.046520590782165527e-02
3.117695264518260956e-02 6.825909614562988281e-01 6.396453827619552612e-02
-6.977555155754089355e-02 6.133877635002136230e-01 5.355994403362274170e-02
9.078729897737503052e-02 6.729413866996765137e-01 9.282772429287433624e-03
-1.339159347116947174e-02 5.926328301429748535e-01 2.316930517554283142e-02
-1.058622449636459351e-01 6.502575874328613281e-01 9.551951661705970764e-03
-1.050693094730377197e-01 6.443106532096862793e-01 1.864320226013660431e-02
-3.157346509397029877e-04 6.936932802200317383e-01 -6.056151166558265686e-02
-3.451280295848846436e-02 6.623322367668151855e-01 8.816865086555480957e-02
-1.066596955060958862e-01 6.511458158493041992e-01 -9.866829030215740204e-03
-1.386734843254089355e-02 6.191263794898986816e-01 9.059144556522369385e-02
-2.960452064871788025e-02 6.066448688507080078e-01 6.966023147106170654e-02
6.407070159912109375e-02 6.732497215270996094e-01 5.897123366594314575e-02
-8.279018104076385498e-02 6.639653444290161133e-01 4.896679893136024475e-02
9.919156879186630249e-02 6.459760069847106934e-01 2.773277461528778076e-02
7.431815378367900848e-03 6.330514550209045410e-01 -1.029998958110809326e-01
-7.568424195051193237e-02 6.834385395050048828e-01 -8.932053111493587494e-03
-9.328698366880416870e-02 6.692621111869812012e-01 -2.867482788860797882e-02
-6.660918891429901123e-02 6.604795455932617188e-01 7.086873054504394531e-02
8.753990381956100464e-02 6.269469857215881348e-01 3.831361606717109680e-02
-6.695362180471420288e-02 6.016073822975158691e-01 1.079464564099907875e-03
7.869065552949905396e-02 6.131494045257568359e-01 1.266327127814292908e-02
4.917811602354049683e-02 6.943762302398681641e-01 3.110947320237755775e-03
-3.891339153051376343e-02 6.880178451538085938e-01 -6.305044889450073242e-02
-9.574709832668304443e-02 6.290010213851928711e-01 3.647346049547195435e-02
3.558060526847839355e-02 6.108930110931396484e-01 7.095945626497268677e-02
5.080603808164596558e-02 6.081948876380920410e-01 5.321511253714561462e-02
-8.567565679550170898e-02 6.747860312461853027e-01 1.666338741779327393e-02
-5.848595499992370605e-02 6.489379405975341797e-01 -9.303072839975357056e-02
-5.032818764448165894e-03 6.703373193740844727e-01 -1.005000323057174683e-01
7.089303433895111084e-02 6.098710298538208008e-01 -1.913480274379253387e-02
7.578736543655395508e-02 6.237273812294006348e-01 5.429396405816078186e-02
-8.100064843893051147e-02 6.081904768943786621e-01 6.112296134233474731e-03
-1.205463800579309464e-02 6.928074359893798828e-01 4.221393167972564697e-02
-1.317014358937740326e-02 6.808918118476867676e-01 7.116466015577316284e-02
5.174624919891357422e-02 6.868937611579895020e-01 -5.621493607759475708e-02
4.498258233070373535e-02 6.946187615394592285e-01 1.170065067708492279e-02
-9.474994242191314697e-02 6.295961737632751465e-01 -4.479517787694931030e-02
5.988213419914245605e-02 6.885625123977661133e-01 -3.888688236474990845e-02
6.704887375235557556e-03 6.766697764396667480e-01 7.912909239530563354e-02
4.994785040616989136e-02 6.763880848884582520e-01 -7.869783043861389160e-02
2.739830687642097473e-02 6.946890950202941895e-01 3.049385920166969299e-02
-8.476017415523529053e-02 6.714039444923400879e-01 -4.693865403532981873e-02
-9.007357060909271240e-02 6.576396226882934570e-01 4.553340002894401550e-02
1.356752030551433563e-02 6.549958586692810059e-01 9.795410186052322388e-02
5.235333740711212158e-02 6.527589559555053711e-01 8.570136874914169312e-02
-1.490039750933647156e-02 -9.370708465576171875e-01 -2.040153555572032928e-02
-1.749434880912303925e-02 -8.593829870223999023e-01 1.513435505330562592e-02
2.751733409240841866e-04 -8.379098176956176758e-01 -1.364213228225708008e-02
9.806523099541664124e-03 -9.514703750610351562e-01 2.906976081430912018e-02
-5.491857882589101791e-03 -8.413336277008056641e-01 -1.317655853927135468e-02
2.077364362776279449e-02 -9.614250659942626953e-01 1.397833041846752167e-02
2.750902064144611359e-02 -8.724949955940246582e-01 -5.498150829225778580e-03
4.677225369960069656e-03 -8.922063112258911133e-01 3.234263136982917786e-02
1.182187534868717194e-02 -9.757141470909118652e-01 1.951515488326549530e-02
2.035868121311068535e-03 -8.692421913146972656e-01 -2.368316054344177246e-02
-2.305150032043457031e-02 -8.670975565910339355e-01 -1.127302646636962891e-03
1.192023791372776031e-02 -8.285009860992431641e-01 2.643660176545381546e-03
1.244067121297121048e-02 -8.359472751617431641e-01 1.296587102115154266e-02
1.065225107595324516e-03 -9.712598323822021484e-01 2.702443860471248627e-02
-2.599920891225337982e-02 -9.556006789207458496e-01 -3.311748616397380829e-03
-6.325932685285806656e-03 -9.847708940505981445e-01 2.159516327083110809e-02
6.542672868818044662e-03 -8.528975248336791992e-01 2.379008941352367401e-02
-8.625724585726857185e-04 -8.440173864364624023e-01 -1.640117354691028595e-02
-1.259977184236049652e-02 -9.911776185035705566e-01 -5.612270906567573547e-04
-2.069029211997985840e-02 -9.616013765335083008e-01 -1.030690222978591919e-02
2.124311588704586029e-02 -8.572381734848022461e-01 -1.206540316343307495e-02
6.633274257183074951e-03 -9.012581706047058105e-01 -2.582542411983013153e-02
2.344884350895881653e-02 -8.503183722496032715e-01 -3.427200485020875931e-03
-6.852633785456418991e-03 -8.340832591056823730e-01 -6.107760127633810043e-03
2.830206230282783508e-02 -9.161243438720703125e-01 -6.008943077176809311e-03
1.638943096622824669e-03 -9.916183948516845703e-01 1.614028029143810272e-02
9.798617102205753326e-03 -9.451461434364318848e-01 3.016311116516590118e-02
-4.947869572788476944e-03 -9.609211683273315430e-01 -1.917966455221176147e-02
-1.655374467372894287e-02 -8.888474106788635254e-01 -1.957347616553306580e-02
2.267061173915863037e-02 -9.485022425651550293e-01 1.712612435221672058e-02
-1.738662272691726685e-02 -9.517243504524230957e-01 -1.623796671628952026e-02
6.424529477953910828e-03 -9.567125439643859863e-01 2.940979041159152985e-02
-2.461805939674377441e-03 -8.575532436370849609e-01 2.509649470448493958e-02
-1.807516068220138550e-02 -9.295246005058288574e-01 2.804934792220592499e-02
-1.489810273051261902e-02 -9.612919688224792480e-01 -1.549672707915306091e-02
-1.521299011074006557e-03 -8.856467604637145996e-01 -2.550369873642921448e-02
2.082081697881221771e-02 -8.896802663803100586e-01 2.451431006193161011e-02
-2.335837669670581818e-02 -9.317538738250732422e-01 2.285714447498321533e-02
2.328753471374511719e-02 -9.303952455520629883e-01 2.114823460578918457e-02
3.024155087769031525e-02 -9.045242071151733398e-01 6.574946455657482147e-03
2.338561415672302246e-02 -9.577646851539611816e-01 3.935578279197216034e-03
2.183276042342185974e-02 -8.472046852111816406e-01 8.817728608846664429e-03
1.486607361584901810e-02 -8.860591650009155273e-01 -2.241363376379013062e-02
-1.646766252815723419e-02 -8.979488611221313477e-01 2.757015638053417206e-02
1.080518960952758789e-02 -9.583603143692016602e-01 -1.667573489248752594e-02
-6.325933616608381271e-03 -9.769113659858703613e-01 2.510381862521171570e-02
2.817710675299167633e-02 -9.268016219139099121e-01 1.113455370068550110e-02
-8.951445110142230988e-03 -8.818930983543395996e-01 2.917792648077011108e-02
1.241031754761934280e-02 -8.442127704620361328e-01 1.815959438681602478e-02
-1.470442488789558411e-02 -8.743280768394470215e-01 2.414405159652233124e-02
2.562826033681631088e-03 -9.081088900566101074e-01 3.371344879269599915e-02
-2.456806786358356476e-02 -8.972921371459960938e-01 -1.141348481178283691e-02
1.623767986893653870e-02 -9.680533409118652344e-01 1.839318685233592987e-02
-2.578017488121986389e-02 -8.787877559661865234e-01 3.963746130466461182e-04
-2.265595085918903351e-02 -9.697443842887878418e-01 1.449309289455413818e-02
7.331030443310737610e-03 -8.886330127716064453e-01 3.148107975721359253e-02
-7.190830074250698090e-04 -8.955515623092651367e-01 -2.618816122412681580e-02
1.826689206063747406e-02 -8.615230321884155273e-01 -1.651165820658206940e-02
1.687145791947841644e-02 -8.366646766662597656e-01 8.256664499640464783e-03
2.724938839673995972e-02 -8.657866716384887695e-01 -2.528448589146137238e-03
2.012369222939014435e-02 -9.292460680007934570e-01 2.511007525026798248e-02
1.547612436115741730e-02 -8.326672911643981934e-01 4.601297900080680847e-03
-1.805066317319869995e-02 -9.806030988693237305e-01 1.557768322527408600e-02
1.520526036620140076e-02 -8.573139309883117676e-01 -1.763987541198730469e-02
-2.252110838890075684e-02 -9.359675645828247070e-01 2.360587380826473236e-02
-1.110574416816234589e-02 -9.646009802818298340e-01 -1.648821868002414703e-02
-1.660511945374310017e-03 -9.041002392768859863e-01 3.351951017975807190e-02
-1.937984302639961243e-02 -9.832723140716552734e-01 3.335237503051757812e-03
2.971502020955085754e-02 -9.170321226119995117e-01 6.901600398123264313e-03
1.930453442037105560e-02 -8.736143708229064941e-01 2.325299568474292755e-02
-7.179534062743186951e-03 -8.937676548957824707e-01 -2.493157237768173218e-02
8.937949314713478088e-03 -9.408187866210937500e-01 -2.182952128350734711e-02
-2.250981144607067108e-02 -9.661619663238525391e-01 1.681155711412429810e-02
-1.420479360967874527e-02 -8.618406057357788086e-01 -1.548830047249794006e-02
-2.150261402130126953e-02 -9.719767570495605469e-01 -3.999608103185892105e-03
-1.158977393060922623e-02 -8.452221155166625977e-01 1.394002512097358704e-02
-6.228668615221977234e-03 -9.093530178070068359e-01 -2.556712739169597626e-02
9.214268997311592102e-03 -8.816470503807067871e-01 -2.431423403322696686e-02
1.454999018460512161e-02 -8.450810313224792480e-01 -1.370909996330738068e-02
-2.880059368908405304e-02 -9.168503284454345703e-01 -3.684474620968103409e-03
2.595424279570579529e-02 -9.457773566246032715e-01 1.299121882766485214e-03
1.625736476853489876e-04 -8.539705276489257812e-01 -2.012787200510501862e-02
2.858735062181949615e-02 -9.093746542930603027e-01 -6.378014106303453445e-03
-2.031364478170871735e-03 -8.900732398033142090e-01 -2.577994950115680695e-02
-4.897522740066051483e-03 -9.361161589622497559e-01 3.315884992480278015e-02
2.090782113373279572e-02 -9.013338685035705566e-01 -1.855322718620300293e-02
8.168281055986881256e-03 -9.066479206085205078e-01 3.267931193113327026e-02
1.263742335140705109e-03 -9.629656672477722168e-01 2.928304485976696014e-02
-2.331081219017505646e-02 -9.725850820541381836e-01 9.560573846101760864e-03
2.653352916240692139e-03 -9.758576154708862305e-01 -1.359783113002777100e-02
-1.643185503780841827e-02 -8.488522768020629883e-01 -4.173868801444768906e-03
2.573922649025917053e-02 -8.582481145858764648e-01 -2.624582964926958084e-03
7.762785069644451141e-03 -9.674314260482788086e-01 2.602090872824192047e-02
-1.347395405173301697e-02 -8.648579716682434082e-01 2.212733402848243713e-02
1.839439384639263153e-02 -8.366836309432983398e-01 3.249583067372441292e-03
4.191791231278330088e-04 -8.541159629821777344e-01 2.441044151782989502e-02
-2.549430355429649353e-02 -8.784412741661071777e-01 7.337643764913082123e-03
-2.234719693660736084e-02 -8.985668420791625977e-01 2.201261371374130249e-02
7.260026177391409874e-04 -9.267334938049316406e-01 -2.534819394350051880e-02
2.729903906583786011e-03 -9.750514626502990723e-01 2.533623203635215759e-02
-1.338905747979879379e-02 -8.454543948173522949e-01 -7.627544458955526352e-03
2.868229895830154419e-02 -8.824478983879089355e-01 -4.965343046933412552e-03
2.994356676936149597e-02 -8.927053809165954590e-01 -1.623556483536958694e-03
-1.940755359828472137e-02 -8.714106678962707520e-01 1.826272532343864441e-02
2.429724298417568207e-02 -9.537321925163269043e-01 7.593572139739990234e-03
2.297876589000225067e-02 -8.469961881637573242e-01 2.852415200322866440e-04
-2.194552682340145111e-02 -8.622761368751525879e-01 5.738083273172378540e-04
-2.444419264793395996e-02 -8.791913986206054688e-01 1.214812137186527252e-02
2.686738595366477966e-02 -9.296326637268066406e-01 1.444148831069469452e-02
-2.767846919596195221e-02 -9.312047362327575684e-01 -6.308302748948335648e-03
-2.682622522115707397e-02 -9.496344327926635742e-01 1.397657766938209534e-02
-2.007096819579601288e-02 -9.132968187332153320e-01 -1.815484464168548584e-02
-1.052655279636383057e-02 -8.733963966369628906e-01 -2.112063951790332794e-02
1.295321062207221985e-02 -9.693445563316345215e-01 2.163188718259334564e-02
1.453139539808034897e-02 -9.564744830131530762e-01 2.484525181353092194e-02
2.045584097504615784e-02 -9.058364629745483398e-01 2.590042166411876678e-02
-3.947566729038953781e-03 -9.153714179992675781e-01 3.376410156488418579e-02
1.062143128365278244e-03 -9.240601658821105957e-01 3.394992649555206299e-02
1.671277685090899467e-03 -9.645475745201110840e-01 -1.804131641983985901e-02
-2.173774130642414093e-02 -8.869972229003906250e-01 2.027585357427597046e-02
2.632765844464302063e-02 -9.233452081680297852e-01 1.717157475650310516e-02
-5.975982639938592911e-03 -9.547971487045288086e-01 3.083978220820426941e-02
2.044916152954101562e-02 -8.674736022949218750e-01 -1.591875776648521423e-02
1.073189545422792435e-02 -8.492867946624755859e-01 -1.745045557618141174e-02
1.847916096448898315e-02 -9.096575975418090820e-01 2.760287001729011536e-02
-2.204411290585994720e-02 -8.703066706657409668e-01 -7.558160927146673203e-03
-2.595649659633636475e-02 -9.070937037467956543e-01 -1.017968356609344482e-02
-7.680820766836404800e-03 -9.466894865036010742e-01 -2.182990871369838715e-02
2.946324832737445831e-02 -8.813778758049011230e-01 -6.565540097653865814e-04
2.634833380579948425e-02 -9.001258015632629395e-01 -1.180602237582206726e-02
-7.072536274790763855e-03 -8.661596775054931641e-01 2.628113143146038055e-02
2.347301132977008820e-02 -9.355757832527160645e-01 -1.102526672184467316e-02
-5.973657593131065369e-03 -9.406543970108032227e-01 3.263506665825843811e-02
2.964097261428833008e-02 -8.824990987777709961e-01 5.375038366764783859e-03
2.237051725387573242e-02 -9.611638784408569336e-01 7.344122976064682007e-03
-4.171033389866352081e-03 -8.566395044326782227e-01 -1.991726085543632507e-02
-2.746071293950080872e-02 -9.347523450851440430e-01 1.565249264240264893e-02
-1.104768738150596619e-02 -9.051746726036071777e-01 -2.396594174206256866e-02
8.916809223592281342e-03 -9.734710454940795898e-01 -1.185804419219493866e-02
5.999796558171510696e-03 -8.474078774452209473e-01 2.177721448242664337e-02
2.884271927177906036e-02 -8.763665556907653809e-01 -1.727386377751827240e-03
4.827310796827077866e-03 -9.417461752891540527e-01 -2.286941371858119965e-02
-6.734679453074932098e-03 -9.528034925460815430e-01 -2.084122784435749054e-02
-2.280206046998500824e-02 -8.872209191322326660e-01 -1.232201233506202698e-02
8.565829135477542877e-03 -8.541371822357177734e-01 -1.965655386447906494e-02
-1.590777933597564697e-02 -9.716485738754272461e-01 -1.112225651741027832e-02
-2.384649030864238739e-02 -8.693892955780029297e-01 4.257696680724620819e-03
-1.644991920329630375e-03 -8.305712938308715820e-01 1.001082174479961395e-02
6.329874042421579361e-03 -9.334467053413391113e-01 -2.380605600774288177e-02
1.477550133131444454e-03 -9.863289594650268555e-01 -8.191263303160667419e-03
2.450704574584960938e-02 -8.730626106262207031e-01 1.714873872697353363e-02
2.997811697423458099e-02 -9.142930507659912109e-01 1.731724478304386139e-03
-2.322356402873992920e-02 -9.011741876602172852e-01 -1.400282792747020721e-02
2.825594320893287659e-02 -9.275351166725158691e-01 -2.193409949541091919e-03
-1.849463209509849548e-02 -8.779777288436889648e-01 2.167738229036331177e-02
-1.353290677070617676e-02 -8.786163330078125000e-01 2.608594857156276703e-02
-1.068662665784358978e-02 -9.950985908508300781e-01 8.197173476219177246e-03
6.481373216956853867e-03 -9.122559428215026855e-01 3.325103968381881714e-02
6.722064223140478134e-03 -8.869747519493103027e-01 -2.530821599066257477e-02
1.986157149076461792e-03 -9.336361885070800781e-01 -2.450839802622795105e-02
2.323478832840919495e-02 -8.544418215751647949e-01 1.138933189213275909e-02
-2.360645215958356857e-03 -9.974822998046875000e-01 4.428520333021879196e-03
-3.630948718637228012e-03 -9.698296785354614258e-01 2.773541957139968872e-02
1.578386989422142506e-03 -9.556759595870971680e-01 3.078012727200984955e-02
1.664076000452041626e-02 -9.349630475044250488e-01 -1.863488182425498962e-02
-2.849782444536685944e-02 -9.051362872123718262e-01 -2.990640234202146530e-03
-2.149797230958938599e-02 -9.766858816146850586e-01 2.932255156338214874e-04
1.163341477513313293e-02 -9.629949331283569336e-01 -1.454080827534198761e-02
2.184965088963508606e-02 -9.139224290847778320e-01 2.448557317256927490e-02
-1.319683250039815903e-02 -9.348111152648925781e-01 3.076380491256713867e-02
2.254377678036689758e-02 -9.373543262481689453e-01 2.083479799330234528e-02
-1.012268103659152985e-02 -8.361339569091796875e-01 -2.620367798954248428e-03
-2.933092042803764343e-02 -9.129341244697570801e-01 8.789455518126487732e-03
2.792287617921829224e-03 -9.671888351440429688e-01 2.789360284805297852e-02
6.423144135624170303e-03 -8.330870866775512695e-01 -1.073100790381431580e-02
1.387946866452693939e-02 -8.801479935646057129e-01 2.802112326025962830e-02
6.899380125105381012e-03 -8.585233092308044434e-01 2.554911002516746521e-02
-3.317542839795351028e-03 -9.242464303970336914e-01 -2.540949545800685883e-02
2.888827770948410034e-02 -9.027695059776306152e-01 1.290331035852432251e-02
1.891656778752803802e-02 -9.673082828521728516e-01 -3.122101537883281708e-03
-6.379500031471252441e-03 -9.735831022262573242e-01 -1.484281942248344421e-02
2.393863722681999207e-02 -9.192058444023132324e-01 2.165815420448780060e-02
-2.559228241443634033e-02 -9.136502146720886230e-01 1.931865699589252472e-02
1.896726340055465698e-02 -8.552031517028808594e-01 1.801245100796222687e-02
7.272433955222368240e-03 -9.919260144233703613e-01 7.872189395129680634e-03
2.393877133727073669e-02 -8.589746952056884766e-01 1.263836584985256195e-02
2.185522019863128662e-02 -9.205622673034667969e-01 -1.620066724717617035e-02
-1.048045046627521515e-02 -9.277262687683105469e-01 3.217408806085586548e-02
-2.214990556240081787e-02 -9.383839964866638184e-01 -1.432304829359054565e-02
1.567466557025909424e-02 -9.774672985076904297e-01 -3.177812322974205017e-05
-1.263755001127719879e-02 -9.690866470336914062e-01 -1.428140141069889069e-02
1.539100892841815948e-02 -9.744877815246582031e-01 -4.145473707467317581e-03
9.558659978210926056e-03 -9.800231456756591797e-01 1.916353404521942139e-02
-1.729167811572551727e-02 -8.999787569046020508e-01 -2.006068825721740723e-02
-2.504558302462100983e-02 -8.745201826095581055e-01 2.420069184154272079e-03
1.486074831336736679e-02 -8.865886926651000977e-01 2.842911146581172943e-02
-6.106283981353044510e-03 -9.404319524765014648e-01 -2.319250255823135376e-02
2.345629408955574036e-02 -9.492552280426025391e-01 -5.417523439973592758e-03
-1.903259940445423126e-02 -9.580387473106384277e-01 -1.322983950376510620e-02
2.398697845637798309e-02 -8.660009503364562988e-01 1.569806225597858429e-02
-2.408237941563129425e-02 -9.489900469779968262e-01 -9.630655869841575623e-03
3.071044571697711945e-03 -9.824758768081665039e-01 2.191666141152381897e-02
-3.087844699621200562e-03 -8.648158311843872070e-01 -2.223999239504337311e-02
1.469617802649736404e-02 -9.050104022026062012e-01 2.998198382556438446e-02
-1.049150433391332626e-02 -9.247471094131469727e-01 -2.366849593818187714e-02
-1.711933128535747528e-02 -8.653563261032104492e-01 1.869186013936996460e-02
-1.580424606800079346e-02 -8.452662229537963867e-01 2.550119068473577499e-03
-7.630105596035718918e-03 -8.550139069557189941e-01 -1.794461719691753387e-02
-1.357654575258493423e-02 -9.154481291770935059e-01 3.076831996440887451e-02
2.394539862871170044e-02 -9.263296127319335938e-01 -1.258954964578151703e-02
-2.492707036435604095e-02 -9.344373941421508789e-01 -1.122208870947360992e-02
2.833798900246620178e-02 -8.709598779678344727e-01 -5.924999713897705078e-04
2.221102360635995865e-03 -9.162555932998657227e-01 3.393603488802909851e-02
-6.192624568939208984e-03 -9.073736071586608887e-01 3.305376693606376648e-02
-1.691616512835025787e-02 -9.223486185073852539e-01 -2.045960538089275360e-02
-9.808930568397045135e-03 -9.469244480133056641e-01 3.104156069457530975e-02
-1.772074773907661438e-02 -8.511503934860229492e-01 7.109993137419223785e-03
2.756038121879100800e-02 -9.359799027442932129e-01 3.510611131787300110e-04
1.555416733026504517e-02 -9.425804018974304199e-01 2.716362476348876953e-02
1.360265165567398071e-02 -9.779279232025146484e-01 1.560547761619091034e-02
-8.074030280113220215e-03 -9.129011034965515137e-01 3.283994272351264954e-02
-1.376771274954080582e-02 -8.419469594955444336e-01 -2.004630863666534424e-03
-2.467093989253044128e-02 -8.754389286041259766e-01 -2.681722398847341537e-03
1.492363307625055313e-02 -9.298794865608215332e-01 2.923202328383922577e-02
-1.492041721940040588e-02 -9.833078384399414062e-01 1.765773072838783264e-02
2.447982504963874817e-02 -9.519274830818176270e-01 4.149856977164745331e-04
2.677394822239875793e-02 -8.888164758682250977e-01 1.664044894278049469e-02
1.259243767708539963e-02 -9.479317069053649902e-01 2.822255901992321014e-02
1.786879077553749084e-02 -8.507379889488220215e-01 1.714780554175376892e-02
2.398528717458248138e-02 -8.500212430953979492e-01 3.100165165960788727e-03
6.256388034671545029e-03 -9.924468398094177246e-01 2.581814071163535118e-03
-1.925515569746494293e-02 -9.714577794075012207e-01 1.926413364708423615e-02
1.478818245232105255e-02 -8.677325248718261719e-01 -2.023249305784702301e-02
2.647867240011692047e-02 -9.260727763175964355e-01 -8.120508864521980286e-03
1.623308658599853516e-02 -9.672447443008422852e-01 -8.069802075624465942e-03
1.995482668280601501e-02 -9.525482058525085449e-01 -1.026170328259468079e-02
-1.839119382202625275e-02 -9.852217435836791992e-01 8.866941556334495544e-03
3.300092648714780807e-03 -9.081778526306152344e-01 -2.624697610735893250e-02
1.769527420401573181e-02 -8.910071253776550293e-01 2.718036621809005737e-02
-4.084577318280935287e-03 -9.946783185005187988e-01 1.427347771823406219e-02
8.324890397489070892e-03 -9.476362466812133789e-01 -2.069297432899475098e-02
-2.825102396309375763e-02 -9.128246307373046875e-01 -5.236986558884382248e-03
1.292493566870689392e-02 -9.205417633056640625e-01 3.091825544834136963e-02
1.303697284311056137e-02 -9.492722153663635254e-01 -1.794018596410751343e-02
1.435917057096958160e-02 -8.403800725936889648e-01 1.461558043956756592e-02
-5.599600728601217270e-03 -8.376331329345703125e-01 1.400821469724178314e-02
-1.269567664712667465e-02 -9.788216352462768555e-01 2.188660018146038055e-02
6.546600488945841789e-04 -9.138430953025817871e-01 -2.621068619191646576e-02
-1.852942805271595716e-04 -9.426474571228027344e-01 -2.331709675490856171e-02
2.401909604668617249e-02 -8.903507590293884277e-01 -1.500669308006763458e-02
-5.017696879804134369e-03 -8.759065866470336914e-01 -2.372737973928451538e-02
9.172454476356506348e-03 -9.867205023765563965e-01 -1.921435818076133728e-03
-1.139934454113245010e-02 -8.679461479187011719e-01 2.461689896881580353e-02
1.836060732603073120e-02 -8.408857583999633789e-01 -6.944357883185148239e-03
2.660258673131465912e-02 -9.432562589645385742e-01 6.046078167855739594e-03
2.534213103353977203e-02 -8.548522591590881348e-01 3.384661860764026642e-03
-1.341719413176178932e-03 -9.308370351791381836e-01 3.374461829662322998e-02
1.108436938375234604e-02 -8.760230541229248047e-01 -2.312840335071086884e-02
3.264046739786863327e-03 -9.305093288421630859e-01 3.348459303379058838e-02
-2.289951965212821960e-02 -8.711776733398437500e-01 1.133295521140098572e-02
-1.627241633832454681e-02 -9.220527410507202148e-01 2.936855144798755646e-02
2.209765661973506212e-04 -8.983637690544128418e-01 3.317487239837646484e-02
1.715469174087047577e-02 -8.654845356941223145e-01 2.298802509903907776e-02
-2.508711814880371094e-02 -8.804616928100585938e-01 -4.843390081077814102e-03
2.932454831898212433e-02 -9.213525652885437012e-01 7.559153251349925995e-03
2.109415084123611450e-02 -8.522504568099975586e-01 -1.010366901755332947e-02
1.486497372388839722e-02 -9.182337522506713867e-01 -2.207203023135662079e-02
-2.810297720134258270e-02 -9.447965025901794434e-01 1.141258887946605682e-02
-1.756522688083350658e-03 -9.185050725936889648e-01 -2.592487819492816925e-02
6.076044868677854538e-03 -9.624335169792175293e-01 -1.758217252790927887e-02
2.565630152821540833e-02 -9.396984577178955078e-01 -4.935020115226507187e-03
-8.338502608239650726e-03 -8.896576166152954102e-01 -2.425251901149749756e-02
-2.705841697752475739e-02 -9.052015542984008789e-01 1.514912769198417664e-02
2.445054426789283752e-02 -8.971171975135803223e-01 -1.466011814773082733e-02
-9.685184806585311890e-03 -9.687163829803466797e-01 2.687779627740383148e-02
2.744056656956672668e-02 -9.332066178321838379e-01 1.109040342271327972e-02
2.365157753229141235e-02 -8.542538285255432129e-01 -6.329827476292848587e-03
-1.659751497209072113e-02 -8.894931674003601074e-01 2.614093013107776642e-02
-2.048238925635814667e-02 -9.278694987297058105e-01 -1.722210645675659180e-02
-1.899003237485885620e-02 -9.363011121749877930e-01 2.701214514672756195e-02
2.664203941822052002e-02 -8.706024289131164551e-01 1.211837679147720337e-02
9.064090438187122345e-03 -9.892966151237487793e-01 2.265585819259285927e-03
-2.336116135120391846e-02 -8.948544263839721680e-01 1.988462358713150024e-02
9.293087758123874664e-03 -9.871590137481689453e-01 1.318808831274509430e-02
1.865219883620738983e-02 -8.963179588317871094e-01 2.694972418248653412e-02
-2.654509805142879486e-02 -8.978230953216552734e-01 1.455478742718696594e-02
-1.309198793023824692e-02 -8.904617428779602051e-01 -2.211664058268070221e-02
-2.318539284169673920e-02 -9.160979390144348145e-01 2.297988347709178925e-02
-2.462612465023994446e-02 -9.682750105857849121e-01 2.465437632054090500e-03
-2.765134163200855255e-02 -8.902351260185241699e-01 1.047641038894653320e-03
-1.937100663781166077e-02 -9.110187888145446777e-01 2.661077491939067841e-02
4.190918523818254471e-03 -8.763111829757690430e-01 -2.463317662477493286e-02
-2.040348201990127563e-02 -8.806604743003845215e-01 -1.418448612093925476e-02
7.646367885172367096e-03 -8.657956123352050781e-01 2.736295014619827271e-02
1.883599720895290375e-02 -9.141626954078674316e-01 -1.970805414021015167e-02
-2.417765557765960693e-02 -8.850890994071960449e-01 1.559282094240188599e-02
1.070885080844163895e-02 -8.487762808799743652e-01 2.105007320642471313e-02
2.027685567736625671e-02 -9.671193957328796387e-01 1.506487838923931122e-03
-3.803719766438007355e-03 -8.868467211723327637e-01 3.147299587726593018e-02
1.210261229425668716e-02 -9.224316477775573730e-01 -2.309518679976463318e-02
-6.675571668893098831e-03 -9.970436692237854004e-01 4.081943072378635406e-03
1.546010491438210011e-03 -8.612540960311889648e-01 2.673641405999660492e-02
2.679371833801269531e-02 -9.409413337707519531e-01 7.325995247811079025e-04
1.321073155850172043e-02 -9.018120765686035156e-01 -2.369209937751293182e-02
1.521351095288991928e-02 -8.739297986030578613e-01 2.620024234056472778e-02
-2.696196734905242920e-02 -8.915195465087890625e-01 -4.034820478409528732e-03
2.633768133819103241e-02 -9.368531107902526855e-01 1.323471404612064362e-02
1.254927739500999451e-02 -9.807303547859191895e-01 -3.193916752934455872e-03
-2.979520522058010101e-02 -9.300779104232788086e-01 4.458926152437925339e-03
3.005628846585750580e-02 -8.991863131523132324e-01 -1.501401886343955994e-03
4.845115821808576584e-03 -9.197297096252441406e-01 -2.552177570760250092e-02
-2.506227046251296997e-02 -9.605526328086853027e-01 1.400797441601753235e-02
-2.032727748155593872e-02 -9.060142040252685547e-01 -1.773078180849552155e-02
1.123644690960645676e-02 -8.878583908081054688e-01 -2.413814514875411987e-02
-1.497088372707366943e-02 -9.101690053939819336e-01 2.973701432347297668e-02
2.295971661806106567e-02 -9.247059822082519531e-01 2.240798063576221466e-02
-2.663844637572765350e-02 -9.181828498840332031e-01 1.775086671113967896e-02
4.934592172503471375e-03 -8.584345579147338867e-01 -2.139431238174438477e-02
1.366067491471767426e-02 -9.004157781600952148e-01 3.030375018715858459e-02
1.911305822432041168e-02 -9.683046936988830566e-01 1.233567297458648682e-02
1.689206063747406006e-02 -8.728670477867126465e-01 -1.980019547045230865e-02
-2.077541127800941467e-02 -8.590610623359680176e-01 6.029312498867511749e-03
-1.305758487433195114e-02 -9.574478268623352051e-01 2.811523340642452240e-02
1.114148413762450218e-03 -8.391858339309692383e-01 1.781005412340164185e-02
-1.306972932070493698e-02 -9.554591178894042969e-01 -1.805915124714374542e-02
2.452479675412178040e-02 -8.779758810997009277e-01 -1.300687901675701141e-02
1.320499647408723831e-02 -9.101828932762145996e-01 -2.347333170473575592e-02
-3.536675358191132545e-04 -9.787389636039733887e-01 2.453218773007392883e-02
-1.265953667461872101e-02 -8.947288393974304199e-01 -2.272145822644233704e-02
-7.280214224010705948e-03 -9.930357933044433594e-01 -2.738418523222208023e-03
-3.916251473128795624e-03 -9.364773631095886230e-01 -2.407380379736423492e-02
5.264785140752792358e-03 -8.693890571594238281e-01 2.860808558762073517e-02
9.288861416280269623e-03 -8.726482987403869629e-01 2.846360765397548676e-02
-9.309858083724975586e-03 -8.633192181587219238e-01 -1.951502449810504913e-02
-1.902151480317115784e-02 -8.932059407234191895e-01 2.471739053726196289e-02
9.149757679551839828e-04 -9.420487284660339355e-01 3.281629458069801331e-02
2.918432466685771942e-02 -8.986562490463256836e-01 1.183381304144859314e-02
2.900077030062675476e-02 -9.016378521919250488e-01 -5.835265386849641800e-03
1.488772127777338028e-02 -8.342730402946472168e-01 -5.844032857567071915e-03
9.707381948828697205e-03 -8.843828439712524414e-01 3.031014651060104370e-02
6.305722985416650772e-03 -8.266120553016662598e-01 -3.329032566398382187e-03
-8.644538931548595428e-03 -8.376766443252563477e-01 -7.670096587389707565e-03
-1.586021110415458679e-02 -9.434867501258850098e-01 -1.888669095933437347e-02
-2.479696646332740784e-02 -9.650259613990783691e-01 -7.103052921593189240e-04
-2.452143235132098198e-06 -9.960530400276184082e-01 1.106235384941101074e-02
-1.643667556345462799e-02 -9.418276548385620117e-01 2.842425741255283356e-02
1.670913957059383392e-02 -9.590567350387573242e-01 -1.160445064306259155e-02
-6.329179275780916214e-03 -8.330274224281311035e-01 8.482225239276885986e-03
-2.944609709084033966e-02 -9.374673366546630859e-01 4.405177198350429535e-03
-1.661647111177444458e-02 -8.522886037826538086e-01 -7.271913345903158188e-03
-1.574082486331462860e-02 -9.713804721832275391e-01 2.277087047696113586e-02
-2.944839000701904297e-02 -9.342179298400878906e-01 1.408105483278632164e-03
-1.607577549293637276e-03 -9.499376416206359863e-01 -2.198486216366291046e-02
-8.450804278254508972e-03 -8.366560935974121094e-01 1.013680733740329742e-02
9.716086788102984428e-05 -8.495343327522277832e-01 -1.871391013264656067e-02
-2.313485555350780487e-02 -9.041725397109985352e-01 2.187511324882507324e-02
-1.591545343399047852e-02 -8.552924990653991699e-01 1.503049954771995544e-02
1.808411441743373871e-02 -9.254024028778076172e-01 2.733397856354713440e-02
-2.007033489644527435e-02 -9.417968392372131348e-01 -1.591939106583595276e-02
2.843101508915424347e-02 -9.095352292060852051e-01 1.398143917322158813e-02
-1.494765747338533401e-02 -9.042862653732299805e-01 2.929097414016723633e-02
1.625770889222621918e-02 -9.640580415725708008e-01 2.038398757576942444e-02
-2.341514825820922852e-02 -9.731929898262023926e-01 4.401196725666522980e-03
1.954965852200984955e-02 -9.524413943290710449e-01 2.072364464402198792e-02
-2.188782207667827606e-02 -8.762435317039489746e-01 -1.059173420071601868e-02
2.117450721561908722e-02 -9.653774499893188477e-01 5.548944231122732162e-03
-1.153230853378772736e-02 -8.552680611610412598e-01 -1.541089639067649841e-02
1.095118466764688492e-02 -8.300126194953918457e-01 -5.442364607006311417e-03
-2.091469429433345795e-02 -8.820906281471252441e-01 1.998700201511383057e-02
-2.792314812541007996e-02 -8.984900116920471191e-01 1.038764417171478271e-02
2.837485633790493011e-02 -8.764330148696899414e-01 9.275634773075580597e-03
3.024652972817420959e-02 -9.095524549484252930e-01 4.707497078925371170e-03
2.224677801132202148e-02 -9.300122857093811035e-01 -1.412883028388023376e-02
-8.155326358973979950e-03 -8.328855633735656738e-01 -6.236466579139232635e-04
-1.119880285114049911e-02 -9.527464509010314941e-01 2.974647656083106995e-02
1.407754141837358475e-02 -9.154425263404846191e-01 3.043760359287261963e-02
-1.024053525179624557e-02 -9.884924292564392090e-01 -5.430292803794145584e-03
7.426367141306400299e-03 -8.436552286148071289e-01 1.983486302196979523e-02
1.988118886947631836e-02 -9.401338100433349609e-01 2.362887375056743622e-02
-2.735550142824649811e-02 -9.525366425514221191e-01 1.068033743649721146e-02
-3.062889445573091507e-04 -8.743724226951599121e-01 -2.435280196368694305e-02
2.352912165224552155e-02 -8.854421377182006836e-01 2.107003517448902130e-02
3.020090050995349884e-02 -8.954138755798339844e-01 6.526865996420383453e-03
-3.878834191709756851e-03 -9.635007381439208984e-01 2.935857325792312622e-02
-2.776060253381729126e-02 -9.082077741622924805e-01 -6.147312466055154800e-03
-3.835041541606187820e-03 -9.591965675354003906e-01 3.028610534965991974e-02
-2.073437720537185669e-02 -9.606288075447082520e-01 2.141767181456089020e-02
-1.395088154822587967e-02 -9.847046732902526855e-01 -5.482124630361795425e-03
2.654240839183330536e-02 -8.955385088920593262e-01 1.782871596515178680e-02
-1.778562180697917938e-02 -9.100998640060424805e-01 -2.007037587463855743e-02
-4.029385279864072800e-03 -8.304095268249511719e-01 -4.717822652310132980e-03
-2.141614444553852081e-02 -9.430980086326599121e-01 2.412878908216953278e-02
-1.422781869769096375e-02 -8.580302596092224121e-01 1.861599646508693695e-02
-2.034808695316314697e-02 -8.640341758728027344e-01 1.275659911334514618e-02
2.436141110956668854e-02 -8.591094017028808594e-01 -7.577599491924047470e-03
-2.816250175237655640e-02 -9.506704211235046387e-01 4.235549364238977432e-03
-1.276147458702325821e-02 -9.408728480339050293e-01 3.052823245525360107e-02
3.864500671625137329e-03 -9.370503425598144531e-01 3.292246907949447632e-02
-2.488777600228786469e-02 -9.482011795043945312e-01 1.863560453057289124e-02
-2.350154519081115723e-02 -9.643122553825378418e-01 -4.706417676061391830e-03
2.770718932151794434e-02 -8.680425286293029785e-01 6.746586412191390991e-03
-2.952655404806137085e-02 -9.097035527229309082e-01 5.259640514850616455e-03
-2.829414326697587967e-03 -8.662316203117370605e-01 2.755923010408878326e-02
9.062918834388256073e-03 -8.932278156280517578e-01 3.153154999017715454e-02
-2.672057785093784332e-02 -8.861991167068481445e-01 -1.819211523979902267e-03
-2.020609937608242035e-02 -8.591157793998718262e-01 -4.018505569547414780e-03
-6.883728317916393280e-03 -9.664975404739379883e-01 -1.722470112144947052e-02
-2.938196621835231781e-02 -9.209444522857666016e-01 -1.279714982956647873e-03
1.832128316164016724e-02 -9.732480049133300781e-01 6.479443050920963287e-03
2.194591984152793884e-02 -8.969739079475402832e-01 2.407610230147838593e-02
-1.272482518106698990e-02 -9.508152008056640625e-01 -1.925380900502204895e-02
-2.084686979651451111e-02 -9.804480671882629395e-01 6.679224781692028046e-03
-1.397578138858079910e-02 -9.480609893798828125e-01 2.915714867413043976e-02
2.225542999804019928e-02 -9.427550435066223145e-01 -1.062840595841407776e-02
-8.641288150101900101e-04 -8.785769343376159668e-01 3.053258173167705536e-02
-9.438357315957546234e-03 -8.900020718574523926e-01 3.032774850726127625e-02
6.241526920348405838e-03 -8.329200744628906250e-01 1.351607032120227814e-02
-2.640482410788536072e-02 -9.429919123649597168e-01 -6.954352837055921555e-03
-1.448149327188730240e-02 -8.832658529281616211e-01 2.647477760910987854e-02
5.998061969876289368e-03 -9.841946959495544434e-01 1.936337910592556000e-02
-2.103600278496742249e-02 -9.496794939041137695e-01 -1.340077072381973267e-02
-1.923358812928199768e-02 -9.803177714347839355e-01 -1.663866918534040451e-03
-1.650295034050941467e-02 -9.654435515403747559e-01 -1.304463669657707214e-02
1.067748758941888809e-02 -8.385689854621887207e-01 -1.275647990405559540e-02
2.914390712976455688e-02 -8.963182568550109863e-01 -5.397245753556489944e-03
7.868747226893901825e-03 -8.433683514595031738e-01 -1.610885933041572571e-02
4.525979049503803253e-03 -8.291465044021606445e-01 1.012063026428222656e-02
4.617595579475164413e-03 -8.295740485191345215e-01 -7.908124476671218872e-03
-2.009429037570953369e-02 -9.356226921081542969e-01 -1.679201796650886536e-02
5.747708957642316818e-03 -8.642259836196899414e-01 -2.256461605429649353e-02
-2.786436490714550018e-02 -9.399851560592651367e-01 1.370060257613658905e-02
-2.047097869217395782e-02 -9.189210534095764160e-01 -1.770910248160362244e-02
-1.581113785505294800e-02 -9.897888302803039551e-01 5.085325799882411957e-03
-2.523080632090568542e-02 -9.413594603538513184e-01 1.928495615720748901e-02
-2.753657847642898560e-02 -9.519589543342590332e-01 2.061615232378244400e-04
2.171871811151504517e-02 -9.594737291336059570e-01 -2.641183789819478989e-03
1.447166409343481064e-02 -9.804605245590209961e-01 1.050575636327266693e-02
-1.014026626944541931e-02 -8.533268570899963379e-01 2.001882530748844147e-02
-2.400289475917816162e-02 -9.260366559028625488e-01 -1.339244097471237183e-02
-3.415765240788459778e-03 -8.750509023666381836e-01 2.948904782533645630e-02
1.837250031530857086e-02 -9.466150999069213867e-01 2.381996996700763702e-02
-2.059263549745082855e-02 -9.739504456520080566e-01 1.595530845224857330e-02
1.879871822893619537e-02 -8.458542227745056152e-01 -9.882958605885505676e-03
2.012033388018608093e-02 -9.474455714225769043e-01 -1.200499571859836578e-02
-1.205963082611560822e-02 -9.818010926246643066e-01 -8.852638304233551025e-03
-1.482377387583255768e-02 -8.778057694435119629e-01 -1.917128078639507294e-02
1.195696275681257248e-02 -9.118824005126953125e-01 3.147191926836967468e-02
2.228662837296724319e-03 -9.030331373214721680e-01 -2.636754699051380157e-02
-2.168651856482028961e-02 -8.641545772552490234e-01 -4.006879869848489761e-03
2.820397913455963135e-02 -9.178119301795959473e-01 1.358990557491779327e-02
6.303355097770690918e-03 -9.271524548530578613e-01 3.307531774044036865e-02
-1.260225381702184677e-02 -8.505529761314392090e-01 -1.220218464732170105e-02
2.033233456313610077e-02 -8.605144619941711426e-01 1.861021667718887329e-02
3.693769685924053192e-03 -8.263463377952575684e-01 5.718105472624301910e-03
-2.925518713891506195e-02 -9.238267540931701660e-01 1.056313794106245041e-02
8.237014524638652802e-03 -9.254894852638244629e-01 -2.423623390495777130e-02
2.116219326853752136e-02 -8.832870721817016602e-01 -1.763595454394817352e-02
-2.290079556405544281e-02 -9.573860168457031250e-01 -8.833033964037895203e-03
9.835169650614261627e-03 -9.163382053375244141e-01 -2.449951879680156708e-02
3.892398439347743988e-03 -8.973482251167297363e-01 -2.617286331951618195e-02
2.361368760466575623e-02 -9.435743689537048340e-01 1.721079275012016296e-02
-2.693549543619155884e-02 -9.294115900993347168e-01 1.725482381880283356e-02
-1.969433203339576721e-02 -9.514568448066711426e-01 2.459898032248020172e-02
2.268134243786334991e-02 -9.135360121726989746e-01 -1.608119718730449677e-02
2.122334763407707214e-02 -9.561600089073181152e-01 -6.297854240983724594e-03
-1.999134197831153870e-02 -8.560436964035034180e-01 3.266904968768358231e-04
-2.341672033071517944e-02 -9.075556993484497070e-01 -1.425859332084655762e-02
1.335867680609226227e-03 -9.948229789733886719e-01 2.618904691189527512e-04
-1.933162100613117218e-02 -9.679356813430786133e-01 -9.388493373990058899e-03
1.000554393976926804e-02 -9.786888360977172852e-01 -8.037356659770011902e-03
1.278653182089328766e-02 -8.530240058898925781e-01 2.175138145685195923e-02
1.909784786403179169e-02 -9.072524309158325195e-01 -1.992852427065372467e-02
-2.705326303839683533e-02 -9.488772749900817871e-01 -3.388043027371168137e-03
5.029221996665000916e-03 -9.019868373870849609e-01 3.311268240213394165e-02
2.004823833703994751e-02 -8.491277098655700684e-01 1.369362697005271912e-02
-2.121634408831596375e-02 -9.215375185012817383e-01 2.537585794925689697e-02
-5.587263498455286026e-03 -9.904348850250244141e-01 -5.716752726584672928e-03
6.845981813967227936e-03 -8.475484251976013184e-01 -1.795101352035999298e-02
-7.752491626888513565e-03 -8.480222225189208984e-01 -1.514241471886634827e-02
1.517028920352458954e-02 -9.373666048049926758e-01 2.823907881975173950e-02
-1.959755085408687592e-02 -8.911209106445312500e-01 -1.710187271237373352e-02
5.461739841848611832e-03 -8.396850824356079102e-01 1.814378052949905396e-02
1.340785901993513107e-02 -8.611284494400024414e-01 2.408215403556823730e-02
2.983673661947250366e-02 -8.869093060493469238e-01 6.504525430500507355e-03
-2.853880450129508972e-02 -9.314088225364685059e-01 1.294885203242301941e-02
1.844364963471889496e-02 -8.946624994277954102e-01 -2.056038565933704376e-02
-1.293104980140924454e-02 -8.418862819671630859e-01 8.299723267555236816e-03
1.572301983833312988e-02 -9.298035502433776855e-01 -2.016559988260269165e-02
-7.977888919413089752e-03 -9.333028197288513184e-01 -2.369079552590847015e-02
-2.824931964278221130e-02 -9.471160769462585449e-01 6.091387476772069931e-04
1.360881514847278595e-02 -8.956772089004516602e-01 3.000024333596229553e-02
2.510003186762332916e-02 -8.567304611206054688e-01 7.922826334834098816e-03
-7.889866828918457031e-03 -8.737082481384277344e-01 2.789072878658771515e-02
-6.941569969058036804e-03 -9.854841828346252441e-01 -8.924825116991996765e-03
4.804833326488733292e-03 -9.783518910408020020e-01 2.321853116154670715e-02
-1.532505359500646591e-02 -8.834228515625000000e-01 -1.976099424064159393e-02
-2.794518321752548218e-02 -9.362320899963378906e-01 -4.719010088592767715e-03
2.940684370696544647e-02 -9.228538274765014648e-01 3.560114186257123947e-03
2.598609961569309235e-02 -9.066203236579895020e-01 -1.214166730642318726e-02
2.474816329777240753e-02 -8.650919795036315918e-01 -9.402353316545486450e-03
2.316111698746681213e-02 1.606477051973342896e-02 -5.473902449011802673e-03
1.981990225613117218e-02 9.939272701740264893e-02 1.534098945558071136e-02
2.922728843986988068e-02 7.488384842872619629e-02 -4.434970673173666000e-03
4.798914305865764618e-03 5.055828765034675598e-02 2.025371044874191284e-02
1.446396391838788986e-02 -3.074854612350463867e-05 -1.139040687121450901e-03
1.729434728622436523e-02 1.374583989381790161e-01 7.887047715485095978e-03
2.732297964394092560e-02 5.033636093139648438e-02 -1.231420412659645081e-02
2.542509324848651886e-02 7.236155867576599121e-02 9.296189062297344208e-03
9.217625483870506287e-03 1.107171922922134399e-02 9.107825346291065216e-03
-1.149775693193078041e-03 1.002867221832275391e-01 -2.258242480456829071e-02
-4.578230902552604675e-03 7.430797815322875977e-02 2.327225357294082642e-02
-1.803269796073436737e-02 1.202220022678375244e-01 -1.101762615144252777e-02
-1.288432441651821136e-02 1.447359099984169006e-02 -1.221333816647529602e-02
2.094546332955360413e-02 9.568177163600921631e-03 -5.286765750497579575e-03
-9.771476499736309052e-03 2.938022091984748840e-02 -1.993370987474918365e-02
-6.920133717358112335e-03 4.182165488600730896e-02 1.823061890900135040e-02
-1.811241731047630310e-03 6.604080647230148315e-02 -2.528700232505798340e-02
-2.381995134055614471e-02 1.251799613237380981e-01 5.051373038440942764e-03
1.948376558721065521e-02 2.772822231054306030e-02 -1.935243606567382812e-02
3.074282314628362656e-03 1.307718455791473389e-03 -1.715346798300743103e-02
9.460084140300750732e-03 1.845777779817581177e-02 1.175868418067693710e-02
2.063919231295585632e-02 5.488485470414161682e-02 1.327054388821125031e-02
-5.019549280405044556e-03 8.217617124319076538e-02 -2.377368696033954620e-02
-1.980975456535816193e-02 4.204062372446060181e-02 9.537428617477416992e-03
1.596996746957302094e-02 8.656777441501617432e-02 1.886834390461444855e-02
2.069390192627906799e-02 2.140527591109275818e-02 4.766350612044334412e-03
-1.684681139886379242e-02 8.400795608758926392e-02 -1.770788244903087616e-02
-5.869477987289428711e-03 1.299089193344116211e-02 9.586465544998645782e-03
2.473051659762859344e-02 2.920075133442878723e-02 -1.298588793724775314e-02
2.414674498140811920e-02 9.339585900306701660e-02 1.059326902031898499e-02
-2.072514221072196960e-02 3.455964475870132446e-02 -7.283370941877365112e-03
3.792700823396444321e-03 1.558495610952377319e-01 -4.003434907644987106e-03
2.905452251434326172e-02 6.434290111064910889e-02 -7.523075211793184280e-03
1.928739249706268311e-02 2.694429084658622742e-02 8.392991498112678528e-03
1.964230649173259735e-02 7.896354049444198608e-02 1.604110747575759888e-02
8.768537081778049469e-03 -6.812170147895812988e-03 -9.933657012879848480e-03
1.309522520750761032e-02 -1.013509929180145264e-03 -1.310522854328155518e-02
-1.802805066108703613e-02 2.294189110398292542e-02 -6.679208483546972275e-03
5.654554814100265503e-03 1.463002413511276245e-01 1.599861681461334229e-02
2.403854764997959137e-02 1.057770103216171265e-01 -1.040777470916509628e-02
2.310056798160076141e-02 5.625626444816589355e-02 -1.880257949233055115e-02
3.960164263844490051e-03 2.497218549251556396e-02 -2.371603250503540039e-02
1.078251469880342484e-02 8.484669029712677002e-02 2.155478112399578094e-02
9.330620989203453064e-03 8.206581324338912964e-02 -2.438760362565517426e-02
1.387053634971380234e-02 1.410894393920898438e-01 1.142497640103101730e-02
-1.615095883607864380e-02 7.794945687055587769e-02 -1.857667416334152222e-02
-6.819097325205802917e-03 1.423917114734649658e-01 1.888941787183284760e-02
2.044252119958400726e-02 4.268503561615943909e-02 -2.053686603903770447e-02
-4.123841412365436554e-03 1.497854590415954590e-01 -8.353149518370628357e-03
-2.655337005853652954e-02 9.216640889644622803e-02 6.716828793287277222e-03
-1.035311538726091385e-02 5.102753639221191406e-03 1.082112430594861507e-04
1.680803485214710236e-02 2.993357554078102112e-02 1.133102923631668091e-02
1.086096279323101044e-02 4.230315610766410828e-02 -2.488857321441173553e-02
-2.319434285163879395e-02 9.454891085624694824e-02 -9.805631823837757111e-03
2.510532550513744354e-02 9.681160002946853638e-02 8.490372449159622192e-03
-2.254749648272991180e-02 4.092997685074806213e-02 -4.824277479201555252e-03
2.397442609071731567e-02 1.008545756340026855e-01 -1.218650490045547485e-02
-2.205247618257999420e-02 1.021791398525238037e-01 -1.034074183553457260e-02
1.371736824512481689e-02 7.531140744686126709e-02 -2.376850321888923645e-02
-2.480380795896053314e-02 1.002278476953506470e-01 1.138718519359827042e-02
-1.601137593388557434e-02 9.324928373098373413e-02 -1.753814890980720520e-02
2.569639310240745544e-02 5.987798422574996948e-02 -1.570860296487808228e-02
1.661958172917366028e-03 1.230077743530273438e-01 2.246665768325328827e-02
1.400540303438901901e-02 3.552848100662231445e-02 -2.345884405076503754e-02
-5.183182656764984131e-04 5.570136010646820068e-02 -2.556467987596988678e-02
-2.086903341114521027e-02 6.214066967368125916e-02 1.378756295889616013e-02
2.537405677139759064e-02 1.096118986606597900e-01 3.344601718708872795e-03
2.697503659874200821e-04 1.468615233898162842e-01 1.759163662791252136e-02
-2.242433838546276093e-03 1.212103366851806641e-01 -1.854777522385120392e-02
-3.635114757344126701e-03 5.164841935038566589e-02 -2.479821257293224335e-02
2.245749719440937042e-02 5.959759280085563660e-02 1.207455433905124664e-02
8.752757683396339417e-03 1.032394319772720337e-01 2.215446159243583679e-02
2.488180994987487793e-02 2.773508056998252869e-02 2.204880001954734325e-04
1.847960520535707474e-03 -5.471169948577880859e-03 2.448330633342266083e-05
1.785957068204879761e-02 1.351512223482131958e-01 -5.359473172575235367e-03
2.211056835949420929e-02 9.101510047912597656e-02 1.347339153289794922e-02
