6.622942686080932617e-01 -2.510386109352111816e-01 -1.674409210681915283e-02
9.032162427902221680e-01 -1.160745695233345032e-01 3.264469206333160400e-01
5.105682611465454102e-01 -1.904076188802719116e-01 -6.802802532911300659e-02
9.705848693847656250e-01 -1.336586624383926392e-01 -8.010669797658920288e-02
8.913016319274902344e-01 -2.038077116012573242e-01 -1.850453317165374756e-01
8.446277976036071777e-01 -2.378633022308349609e-01 1.177830025553703308e-01
6.455589532852172852e-01 -1.286950409412384033e-01 -1.058092340826988220e-01
8.836145401000976562e-01 -2.349775433540344238e-01 8.876854181289672852e-02
5.907229781150817871e-01 -1.880543828010559082e-01 2.769169211387634277e-01
7.710606455802917480e-01 -2.508516609668731689e-01 -5.914612859487533569e-02
9.624598026275634766e-01 -1.032316386699676514e-01 2.242700457572937012e-01
6.274366974830627441e-01 -2.222754657268524170e-01 2.100867331027984619e-01
9.505269527435302734e-01 -1.596329212188720703e-01 3.015395700931549072e-01
7.043663263320922852e-01 -2.517468929290771484e-01 -6.271927803754806519e-02
8.562995791435241699e-01 -2.432448863983154297e-01 1.831985265016555786e-02
8.759869933128356934e-01 -9.588195383548736572e-02 2.838872671127319336e-01
7.763026952743530273e-01 -8.812111616134643555e-02 4.541734233498573303e-02
8.040906786918640137e-01 -9.092438220977783203e-02 2.789047360420227051e-01
9.266789555549621582e-01 -2.199343144893646240e-01 -1.049385443329811096e-01
8.519065976142883301e-01 -1.901761442422866821e-01 3.131086826324462891e-01
7.622485756874084473e-01 -8.458034694194793701e-02 1.006275266408920288e-01
6.698511838912963867e-01 -9.379963576793670654e-02 1.913681477308273315e-01
1.034586548805236816e+00 -1.296102702617645264e-01 1.290131509304046631e-01
8.962929248809814453e-01 -1.221165806055068970e-01 -1.064890101552009583e-01
5.045492053031921387e-01 -1.498468816280364990e-01 6.316307932138442993e-02
5.606551170349121094e-01 -2.340803146362304688e-01 -2.994850277900695801e-02
6.208910346031188965e-01 -1.088701337575912476e-01 2.368856370449066162e-01
9.820499420166015625e-01 -1.453299224376678467e-01 2.777095139026641846e-01
6.146700382232666016e-01 -1.473372429609298706e-01 -1.373381316661834717e-01
5.139625072479248047e-01 -2.142280489206314087e-01 -2.284926921129226685e-02
5.393863916397094727e-01 -1.595658361911773682e-01 -8.185087889432907104e-02
9.436209797859191895e-01 -9.404821693897247314e-02 1.755640059709548950e-01
1.003788709640502930e+00 -1.715189963579177856e-01 2.163308560848236084e-01
7.478461265563964844e-01 -1.670386642217636108e-01 3.653529584407806396e-01
5.883394479751586914e-01 -2.342163026332855225e-01 1.088729947805404663e-01
1.023045301437377930e+00 -1.510140746831893921e-01 2.077337205410003662e-01
7.197152972221374512e-01 -2.523267567157745361e-01 2.781101688742637634e-02
8.077787160873413086e-01 -1.636895537376403809e-01 -2.164273262023925781e-01
8.372729420661926270e-01 -8.673758059740066528e-02 5.952908098697662354e-02
5.512453913688659668e-01 -2.193409502506256104e-01 -1.027546003460884094e-01
9.954524040222167969e-01 -1.942444145679473877e-01 1.554125249385833740e-01
7.809715867042541504e-01 -8.665581047534942627e-02 2.440397441387176514e-01
6.151200532913208008e-01 -2.412419617176055908e-01 -9.154538065195083618e-02
9.345245957374572754e-01 -1.751963794231414795e-01 2.931505739688873291e-01
5.465145707130432129e-01 -2.301574647426605225e-01 3.527499735355377197e-02
7.570121288299560547e-01 -2.254730015993118286e-01 -2.027246356010437012e-01
8.630832433700561523e-01 -8.498343825340270996e-02 1.008499711751937866e-01
5.093889236450195312e-01 -2.138864398002624512e-01 1.125688850879669189e-02
7.406703233718872070e-01 -2.520521879196166992e-01 3.080296516418457031e-02
7.472364902496337891e-01 -9.414606541395187378e-02 5.290433764457702637e-03
8.874136209487915039e-01 -2.238453924655914307e-01 1.700934767723083496e-01
8.888751864433288574e-01 -1.609104722738265991e-01 3.426586985588073730e-01
6.323172450065612793e-01 -2.373802065849304199e-01 -1.331907808780670166e-01
6.101762056350708008e-01 -1.122212260961532593e-01 1.570742949843406677e-02
6.848291158676147461e-01 -1.024298891425132751e-01 -1.115652918815612793e-02
7.072967290878295898e-01 -1.895620226860046387e-01 3.291397690773010254e-01
9.753459095954895020e-01 -1.767737120389938354e-01 -1.248428300023078918e-01
5.288282632827758789e-01 -1.635300815105438232e-01 2.241587042808532715e-01
6.981325149536132812e-01 -1.459110826253890991e-01 3.649949431419372559e-01
8.923064470291137695e-01 -9.202047437429428101e-02 4.276862740516662598e-02
7.424988150596618652e-01 -1.398160010576248169e-01 -1.768282949924468994e-01
5.381878614425659180e-01 -2.222415357828140259e-01 -6.248746067285537720e-02
9.553161859512329102e-01 -1.826365143060684204e-01 2.575805187225341797e-01
7.998596429824829102e-01 -2.435840964317321777e-01 -1.170725151896476746e-01
5.234875679016113281e-01 -1.430186033248901367e-01 1.760004758834838867e-01
6.246173977851867676e-01 -1.039872094988822937e-01 2.045191824436187744e-01
7.573062777519226074e-01 -2.337173521518707275e-01 1.900551915168762207e-01
6.698801517486572266e-01 -1.142009273171424866e-01 3.138743638992309570e-01
6.346096992492675781e-01 -1.018973737955093384e-01 6.582031399011611938e-02
6.618505716323852539e-01 -2.489416897296905518e-01 5.231437087059020996e-02
8.953145146369934082e-01 -2.296876013278961182e-01 1.193303167819976807e-01
1.034374952316284180e+00 -1.364626139402389526e-01 1.662034988403320312e-01
1.042386174201965332e+00 -1.518167108297348022e-01 1.450591981410980225e-01
5.626036524772644043e-01 -1.188619881868362427e-01 1.240298524498939514e-01
6.372385025024414062e-01 -1.707822084426879883e-01 -1.933031976222991943e-01
8.318384289741516113e-01 -8.828508108854293823e-02 2.582953870296478271e-01
6.491757631301879883e-01 -1.176263839006423950e-01 -6.418409198522567749e-02
7.509289383888244629e-01 -2.421032935380935669e-01 1.394911706447601318e-01
8.328953981399536133e-01 -8.279100060462951660e-02 1.893160939216613770e-01
7.242560386657714844e-01 -1.058447211980819702e-01 -5.580071359872817993e-02
6.169873476028442383e-01 -1.169470250606536865e-01 -2.623417228460311890e-02
6.307990550994873047e-01 -2.287904024124145508e-01 -1.634376645088195801e-01
8.421058058738708496e-01 -2.303980439901351929e-01 1.725475788116455078e-01
7.659755945205688477e-01 -2.437543720006942749e-01 1.229780018329620361e-01
7.526291608810424805e-01 -2.501198649406433105e-01 6.073106825351715088e-02
7.503515481948852539e-01 -8.573038876056671143e-02 2.141841650009155273e-01
7.368496656417846680e-01 -2.438445985317230225e-01 -1.385701596736907959e-01
8.309162259101867676e-01 -1.107852831482887268e-01 -8.959978073835372925e-02
6.439832448959350586e-01 -1.264423727989196777e-01 3.212467133998870850e-01
9.725733995437622070e-01 -1.088115274906158447e-01 2.355500683188438416e-02
5.585432052612304688e-01 -1.494885683059692383e-01 -8.359701186418533325e-02
9.968001842498779297e-01 -2.052120417356491089e-01 4.949755221605300903e-02
7.594095468521118164e-01 -2.441074252128601074e-01 -1.330723762512207031e-01
6.891855001449584961e-01 -1.137856990098953247e-01 3.254500329494476318e-01
5.521844625473022461e-01 -1.425534188747406006e-01 -5.020067095756530762e-02
6.679444313049316406e-01 -2.486205101013183594e-01 -8.271256834268569946e-02
9.233119487762451172e-01 -1.544146090745925903e-01 3.276766538619995117e-01
7.992152571678161621e-01 -2.466123700141906738e-01 7.469373941421508789e-02
9.983900785446166992e-01 -1.860732436180114746e-01 1.842212975025177002e-01
7.303748130798339844e-01 -2.485474795103073120e-01 -1.053173318505287170e-01
7.685867547988891602e-01 -8.287633210420608521e-02 1.579294800758361816e-01
7.901092171669006348e-01 -9.622263908386230469e-02 3.045891821384429932e-01
5.793402791023254395e-01 -1.362085044384002686e-01 2.725004851818084717e-01
6.615707874298095703e-01 -1.699111461639404297e-01 -2.041853964328765869e-01
7.722377777099609375e-01 -8.375889807939529419e-02 2.008514702320098877e-01
9.939606785774230957e-01 -1.991406381130218506e-01 1.312923580408096313e-01
1.030925869941711426e+00 -1.404503136873245239e-01 9.680829942226409912e-03
9.214698076248168945e-01 -2.204250097274780273e-01 1.468138396739959717e-01
1.044697880744934082e+00 -1.678037345409393311e-01 6.978532671928405762e-02
8.032010197639465332e-01 -9.990333020687103271e-02 -4.191447049379348755e-02
7.411773800849914551e-01 -2.483166158199310303e-01 8.680713921785354614e-02
6.711609363555908203e-01 -1.185694038867950439e-01 -8.496514707803726196e-02
7.979073524475097656e-01 -8.269488811492919922e-02 1.186286509037017822e-01
5.630519390106201172e-01 -1.862328350543975830e-01 2.538029253482818604e-01
1.025178074836730957e+00 -1.857469975948333740e-01 2.946995198726654053e-03
6.783973574638366699e-01 -2.202088236808776855e-01 2.415285706520080566e-01
9.504145383834838867e-01 -2.119595408439636230e-01 -9.887834638357162476e-02
6.627249121665954590e-01 -1.594375669956207275e-01 3.492827713489532471e-01
7.039750814437866211e-01 -9.004668146371841431e-02 2.116664648056030273e-01
7.474427819252014160e-01 -1.242820322513580322e-01 3.646387159824371338e-01
6.182221770286560059e-01 -1.208787187933921814e-01 -4.854887723922729492e-02
9.704686999320983887e-01 -2.014523893594741821e-01 1.721585988998413086e-01
7.442473769187927246e-01 -2.448018789291381836e-01 1.196523532271385193e-01
8.039548993110656738e-01 -1.300472766160964966e-01 -1.555680334568023682e-01
8.175482749938964844e-01 -2.023862451314926147e-01 2.950993478298187256e-01
9.549690485000610352e-01 -1.955151855945587158e-01 2.201124429702758789e-01
6.742724180221557617e-01 -1.955805867910385132e-01 3.089098334312438965e-01
5.416040420532226562e-01 -2.255146801471710205e-01 7.826683670282363892e-02
1.044788360595703125e+00 -1.416812390089035034e-01 8.502733707427978516e-02
6.597725749015808105e-01 -1.103080213069915771e-01 -3.653742372989654541e-02
5.445491075515747070e-01 -2.172296047210693359e-01 1.408781260251998901e-01
8.433236479759216309e-01 -1.183476522564888000e-01 -1.146512553095817566e-01
9.314779043197631836e-01 -1.934801340103149414e-01 -1.631781160831451416e-01
8.752447366714477539e-01 -2.212567925453186035e-01 1.956914961338043213e-01
5.446588993072509766e-01 -1.356087625026702881e-01 -1.765176653861999512e-03
7.396187782287597656e-01 -8.462859690189361572e-02 1.563802361488342285e-01
9.512841701507568359e-01 -1.046749427914619446e-01 1.581127941608428955e-02
9.943288564682006836e-01 -1.162520051002502441e-01 2.221389114856719971e-01
6.509134769439697266e-01 -2.213974893093109131e-01 -1.916170120239257812e-01
8.873481154441833496e-01 -8.617793023586273193e-02 1.153882071375846863e-01
9.550074338912963867e-01 -9.691265970468521118e-02 1.003762558102607727e-01
6.056832075119018555e-01 -1.077259480953216553e-01 7.345487922430038452e-02
1.015566468238830566e+00 -1.885185539722442627e-01 1.269884407520294189e-01
5.776823163032531738e-01 -1.179900094866752625e-01 4.181557521224021912e-02
5.671709775924682617e-01 -1.906783580780029297e-01 -1.540195941925048828e-01
7.373057603836059570e-01 -2.526885867118835449e-01 -4.198712110519409180e-02
6.986799240112304688e-01 -2.164074778556823730e-01 -2.151919007301330566e-01
9.098212122917175293e-01 -2.324420809745788574e-01 5.183318257331848145e-02
7.922348380088806152e-01 -1.051719635725021362e-01 -6.826692074537277222e-02
8.097566962242126465e-01 -8.855158835649490356e-02 3.640889748930931091e-02
6.202017068862915039e-01 -1.349309235811233521e-01 -1.066488400101661682e-01
5.979238748550415039e-01 -1.434582471847534180e-01 -1.122831031680107117e-01
5.706760883331298828e-01 -2.275339663028717041e-01 1.278317719697952271e-01
8.094258308410644531e-01 -2.381796538829803467e-01 1.444616913795471191e-01
1.015961766242980957e+00 -1.319820582866668701e-01 -2.796888351440429688e-03
8.280431032180786133e-01 -2.114145606756210327e-01 -2.098056375980377197e-01
1.010688543319702148e+00 -1.201928630471229553e-01 4.047775641083717346e-02
4.887779057025909424e-01 -1.674423515796661377e-01 8.609980344772338867e-02
5.098010301589965820e-01 -1.717582494020462036e-01 -5.033846199512481689e-02
5.199408531188964844e-01 -2.186891287565231323e-01 5.612735077738761902e-02
8.145866990089416504e-01 -8.221197873353958130e-02 1.328717321157455444e-01
1.041728854179382324e+00 -1.631869524717330933e-01 1.949284225702285767e-02
8.596833348274230957e-01 -1.127115190029144287e-01 -8.972074836492538452e-02
7.400594353675842285e-01 -1.797029674053192139e-01 -2.317602336406707764e-01
9.537733793258666992e-01 -2.097183316946029663e-01 1.585652828216552734e-01
9.291422963142395020e-01 -2.254965752363204956e-01 -6.266822665929794312e-02
5.798404216766357422e-01 -2.074019461870193481e-01 2.236686646938323975e-01
6.806239485740661621e-01 -2.258120179176330566e-01 -1.944668591022491455e-01
8.366367816925048828e-01 -2.209285199642181396e-01 2.235244810581207275e-01
5.870938301086425781e-01 -1.231042742729187012e-01 -1.666892319917678833e-02
6.774869561195373535e-01 -2.280182242393493652e-01 2.099521458148956299e-01
6.620793938636779785e-01 -2.469376325607299805e-01 7.903548330068588257e-02
6.669037938117980957e-01 -1.766382604837417603e-01 3.371267616748809814e-01
7.787784337997436523e-01 -9.167393296957015991e-02 1.334322616457939148e-02
8.960168361663818359e-01 -8.636431396007537842e-02 1.438651531934738159e-01
7.660708427429199219e-01 -1.303828060626983643e-01 -1.562854349613189697e-01
9.814525246620178223e-01 -2.111183702945709229e-01 6.343754380941390991e-02
8.769972324371337891e-01 -1.088919490575790405e-01 -6.741843372583389282e-02
7.202576994895935059e-01 -2.129304111003875732e-01 -2.227573692798614502e-01
7.498829364776611328e-01 -1.092032045125961304e-01 3.391987681388854980e-01
9.379169940948486328e-01 -9.640120714902877808e-02 2.217877805233001709e-01
6.375088691711425781e-01 -1.107443943619728088e-01 -1.529140025377273560e-02
8.203443884849548340e-01 -2.332699447870254517e-01 1.699110567569732666e-01
7.092485427856445312e-01 -2.528642714023590088e-01 -3.497794270515441895e-02
9.142694473266601562e-01 -1.086846739053726196e-01 -4.425373673439025879e-02
5.766834020614624023e-01 -2.329385578632354736e-01 -8.713728934526443481e-02
8.705139756202697754e-01 -2.394040077924728394e-01 5.853742361068725586e-02
9.389115571975708008e-01 -2.256646156311035156e-01 -2.074062824249267578e-02
7.223302125930786133e-01 -8.854627609252929688e-02 8.027589321136474609e-02
6.151173710823059082e-01 -1.042743101716041565e-01 9.547668695449829102e-02
5.908659696578979492e-01 -1.173202246427536011e-01 2.286177575588226318e-01
6.283034682273864746e-01 -2.469783425331115723e-01 -4.543901234865188599e-02
7.644630670547485352e-01 -1.620804965496063232e-01 -2.173202931880950928e-01
7.365285158157348633e-01 -8.514276891946792603e-02 1.297280639410018921e-01
7.781485319137573242e-01 -1.550307273864746094e-01 3.747676014900207520e-01
7.107771635055541992e-01 -2.512012720108032227e-01 4.899103939533233643e-02
1.031911015510559082e+00 -1.832964271306991577e-01 6.442951411008834839e-02
5.870352983474731445e-01 -2.389110773801803589e-01 -5.932029336690902710e-02
8.371270895004272461e-01 -1.033922955393791199e-01 3.258444666862487793e-01
5.957248210906982422e-01 -1.616839319467544556e-01 -1.517424881458282471e-01
6.161185503005981445e-01 -2.312492579221725464e-01 1.597612947225570679e-01
6.617537140846252441e-01 -9.413234144449234009e-02 1.279911845922470093e-01
1.028077602386474609e+00 -1.711622476577758789e-01 -2.742449194192886353e-02
8.663800358772277832e-01 -1.571434885263442993e-01 -1.934281885623931885e-01
7.110629081726074219e-01 -1.561184376478195190e-01 -2.019374966621398926e-01
7.912181615829467773e-01 -2.408130466938018799e-01 1.354033350944519043e-01
6.527117490768432617e-01 -1.394553929567337036e-01 3.421588540077209473e-01
8.153409957885742188e-01 -8.503026515245437622e-02 7.522344589233398438e-02
8.345052003860473633e-01 -2.459555864334106445e-01 2.406089380383491516e-02
1.018323898315429688e+00 -1.184220016002655029e-01 1.440580189228057861e-01
7.566574215888977051e-01 -2.100090533494949341e-01 -2.268297076225280762e-01
7.450785636901855469e-01 -2.398563176393508911e-01 -1.581541895866394043e-01
5.203789472579956055e-01 -1.407063156366348267e-01 1.484720706939697266e-01
5.840520262718200684e-01 -1.960233747959136963e-01 2.562421560287475586e-01
6.468188762664794922e-01 -1.960887759923934937e-01 -2.115660607814788818e-01
7.713190913200378418e-01 -1.117510795593261719e-01 3.487152159214019775e-01
9.467602372169494629e-01 -9.420767426490783691e-02 1.282646954059600830e-01
5.565554499626159668e-01 -1.219159513711929321e-01 8.396008610725402832e-02
8.209317922592163086e-01 -8.362385630607604980e-02 2.117748558521270752e-01
5.235424637794494629e-01 -2.103710919618606567e-01 -7.226642221212387085e-02
5.481528043746948242e-01 -2.123032212257385254e-01 1.687113791704177856e-01
8.053020238876342773e-01 -2.489862293004989624e-01 2.260918542742729187e-02
5.521209836006164551e-01 -1.646359562873840332e-01 -1.109713837504386902e-01
6.789017319679260254e-01 -2.105812728404998779e-01 2.730946838855743408e-01
6.929949522018432617e-01 -1.363563090562820435e-01 -1.549747586250305176e-01
9.562903642654418945e-01 -1.100601032376289368e-01 2.652031183242797852e-01
7.011741399765014648e-01 -2.084127962589263916e-01 2.847655415534973145e-01
6.699222326278686523e-01 -1.123624742031097412e-01 -5.589830130338668823e-02
6.527751684188842773e-01 -9.790448099374771118e-02 2.068765163421630859e-01
8.658006787300109863e-01 -8.371398597955703735e-02 1.533250212669372559e-01
7.219576835632324219e-01 -1.064955741167068481e-01 3.223743140697479248e-01
9.274977445602416992e-01 -2.223995923995971680e-01 1.216737702488899231e-01
7.945548295974731445e-01 -8.423652499914169312e-02 8.813783526420593262e-02
1.016665697097778320e+00 -1.465509980916976929e-01 -4.008828848600387573e-02
9.130719900131225586e-01 -2.269893288612365723e-01 -8.841059356927871704e-02
1.000800132751464844e+00 -1.596184521913528442e-01 2.416531145572662354e-01
8.625758886337280273e-01 -8.652152121067047119e-02 7.632767409086227417e-02
9.410158395767211914e-01 -1.192572787404060364e-01 -6.541206687688827515e-02
7.834507226943969727e-01 -2.294804304838180542e-01 2.059152424335479736e-01
8.646531105041503906e-01 -9.515701979398727417e-02 -9.346008300781250000e-05
7.031854391098022461e-01 -2.453155666589736938e-01 1.141462773084640503e-01
5.576427578926086426e-01 -2.283518463373184204e-01 -7.601710408926010132e-02
9.065590500831604004e-01 -1.797581464052200317e-01 3.055486977100372314e-01
7.612085342407226562e-01 -2.491863965988159180e-01 -9.083574265241622925e-02
4.972885549068450928e-01 -1.852467358112335205e-01 1.382106244564056396e-01
1.001306533813476562e+00 -1.475463956594467163e-01 -6.920041888952255249e-02
9.019773006439208984e-01 -8.938241750001907349e-02 8.398753404617309570e-02
6.375448703765869141e-01 -2.432124912738800049e-01 9.489726275205612183e-02
8.795548081398010254e-01 -1.026781722903251648e-01 3.082076311111450195e-01
9.673832058906555176e-01 -1.242807134985923767e-01 2.835048139095306396e-01
7.095968723297119141e-01 -2.529486417770385742e-01 2.400688827037811279e-03
8.493848443031311035e-01 -1.426843106746673584e-01 -1.761159002780914307e-01
6.326805353164672852e-01 -1.505250185728073120e-01 -1.576407849788665771e-01
1.025733232498168945e+00 -1.451006829738616943e-01 -1.673132926225662231e-02
7.445725202560424805e-01 -1.011204198002815247e-01 -3.862211108207702637e-02
6.207410693168640137e-01 -1.020751520991325378e-01 1.332837045192718506e-01
8.366737961769104004e-01 -9.597181528806686401e-02 3.000452220439910889e-01
6.514843702316284180e-01 -9.770159423351287842e-02 8.149345964193344116e-02
8.831847906112670898e-01 -2.342526316642761230e-01 -8.922479301691055298e-02
7.818323373794555664e-01 -2.459681481122970581e-01 9.552133083343505859e-02
5.575148463249206543e-01 -1.239189803600311279e-01 1.802155077457427979e-01
8.820742368698120117e-01 -2.286077588796615601e-01 1.460102051496505737e-01
6.582752466201782227e-01 -2.492525279521942139e-01 -6.333262473344802856e-02
7.642542719841003418e-01 -1.894016265869140625e-01 -2.353859245777130127e-01
5.245418548583984375e-01 -1.420301496982574463e-01 1.881049200892448425e-02
8.268123269081115723e-01 -2.426947653293609619e-01 9.106846153736114502e-02
9.994160532951354980e-01 -1.993510723114013672e-01 -3.402280807495117188e-02
5.974228382110595703e-01 -1.094469577074050903e-01 1.794969588518142700e-01
5.016505718231201172e-01 -1.900441348552703857e-01 -4.442647844552993774e-02
6.976789832115173340e-01 -1.059858351945877075e-01 3.076561093330383301e-01
6.320195198059082031e-01 -2.073717117309570312e-01 2.624401450157165527e-01
5.162095427513122559e-01 -1.876083910465240479e-01 1.831706762313842773e-01
8.335285782814025879e-01 -9.864587336778640747e-02 -3.174615651369094849e-02
7.020659446716308594e-01 -2.353593856096267700e-01 1.804090589284896851e-01
8.531441688537597656e-01 -1.458578556776046753e-01 3.659544587135314941e-01
9.246672391891479492e-01 -2.052371650934219360e-01 2.193643748760223389e-01
5.864709019660949707e-01 -2.042657732963562012e-01 -1.692205369472503662e-01
8.833599686622619629e-01 -1.196497976779937744e-01 3.423071503639221191e-01
5.836279392242431641e-01 -1.519127935171127319e-01 2.943369150161743164e-01
6.047189831733703613e-01 -2.328975498676300049e-01 1.390849649906158447e-01
8.442881107330322266e-01 -1.620977520942687988e-01 -2.066600620746612549e-01
9.549493193626403809e-01 -1.014665216207504272e-01 4.582885280251502991e-02
8.358727097511291504e-01 -8.408509939908981323e-02 9.508921205997467041e-02
9.455127120018005371e-01 -1.020841524004936218e-01 2.469297051429748535e-01
8.609604239463806152e-01 -9.916662424802780151e-02 -2.642893046140670776e-02
8.916521668434143066e-01 -2.374594211578369141e-01 3.822125494480133057e-03
8.538918495178222656e-01 -8.902228623628616333e-02 2.554793953895568848e-01
9.572190642356872559e-01 -1.714504212141036987e-01 2.788144052028656006e-01
8.637021780014038086e-01 -2.177674174308776855e-01 2.207213342189788818e-01
6.431120634078979492e-01 -2.346142530441284180e-01 1.610841155052185059e-01
6.524373292922973633e-01 -1.588800698518753052e-01 -1.847685575485229492e-01
8.842946290969848633e-01 -1.794501543045043945e-01 3.194332122802734375e-01
6.671530008316040039e-01 -1.279038786888122559e-01 -1.173336729407310486e-01
7.263438701629638672e-01 -2.283679246902465820e-01 2.174033820629119873e-01
9.293214082717895508e-01 -2.123472094535827637e-01 1.821892559528350830e-01
7.920942306518554688e-01 -8.255772292613983154e-02 1.860787868499755859e-01
8.237348794937133789e-01 -8.211190253496170044e-02 1.689367890357971191e-01
5.458490848541259766e-01 -1.475934237241744995e-01 2.406278848648071289e-01
6.011768579483032227e-01 -1.312340199947357178e-01 -7.454998046159744263e-02
9.944245219230651855e-01 -1.918487697839736938e-01 -7.663186639547348022e-02
6.374596357345581055e-01 -2.464583516120910645e-01 -7.261454313993453979e-02
7.331535816192626953e-01 -9.114260226488113403e-02 3.892891854047775269e-02
9.539266824722290039e-01 -2.173332571983337402e-01 1.029554456472396851e-01
7.350739240646362305e-01 -9.988030046224594116e-02 3.050512075424194336e-01
9.453006386756896973e-01 -2.221937775611877441e-01 7.622858136892318726e-02
7.246285676956176758e-01 -8.808770775794982910e-02 2.168882489204406738e-01
9.530547857284545898e-01 -2.174766659736633301e-01 -6.262687593698501587e-02
7.906621694564819336e-01 -1.139713972806930542e-01 -1.051168665289878845e-01
5.318968296051025391e-01 -1.478936672210693359e-01 -3.149240463972091675e-02
8.433836102485656738e-01 -2.449556589126586914e-01 -3.365731239318847656e-02
9.967525601387023926e-01 -1.204256713390350342e-01 4.327088594436645508e-03
6.941167116165161133e-01 -1.962018013000488281e-01 -2.281177341938018799e-01
8.651049137115478516e-01 -2.033087164163589478e-01 2.724294662475585938e-01
9.181148409843444824e-01 -1.177531108260154724e-01 -7.839588075876235962e-02
8.945505023002624512e-01 -1.079412773251533508e-01 -5.408743768930435181e-02
5.019109249114990234e-01 -1.803728640079498291e-01 1.593038439750671387e-01
8.110031485557556152e-01 -2.489697933197021484e-01 -2.331882715225219727e-03
7.051214575767517090e-01 -2.282107323408126831e-01 2.158466279506683350e-01
5.284645557403564453e-01 -1.366094797849655151e-01 4.622727632522583008e-02
8.065984845161437988e-01 -1.079276800155639648e-01 3.416261076927185059e-01
5.936424732208251953e-01 -2.421264797449111938e-01 -2.656404674053192139e-02
7.114589214324951172e-01 -2.176829576492309570e-01 2.577092945575714111e-01
5.735430717468261719e-01 -1.506464779376983643e-01 -1.060019209980964661e-01
9.245215654373168945e-01 -1.013537794351577759e-01 2.695405781269073486e-01
8.191379308700561523e-01 -1.989630758762359619e-01 -2.246541380882263184e-01
7.728679180145263672e-01 -2.398628294467926025e-01 -1.522758305072784424e-01
9.878732562065124512e-01 -1.849527657032012939e-01 -1.011222228407859802e-01
6.469090580940246582e-01 -2.391330748796463013e-01 1.352514326572418213e-01
7.590507268905639648e-01 -2.258675098419189453e-01 2.271155714988708496e-01
7.430414557456970215e-01 -1.563403457403182983e-01 -2.079994976520538330e-01
4.958493411540985107e-01 -1.704212874174118042e-01 -4.592008888721466064e-03
9.178570508956909180e-01 -1.117424666881561279e-01 3.080812990665435791e-01
9.794541597366333008e-01 -1.675317734479904175e-01 2.602508068084716797e-01
6.220152974128723145e-01 -1.824959665536880493e-01 3.074969649314880371e-01
1.012858033180236816e+00 -1.268515586853027344e-01 2.119277119636535645e-01
6.054247617721557617e-01 -1.273320615291595459e-01 2.864925861358642578e-01
5.336292982101440430e-01 -1.314509063959121704e-01 1.300926506519317627e-01
8.975095748901367188e-01 -2.165284752845764160e-01 1.982571482658386230e-01
7.365221977233886719e-01 -1.326057463884353638e-01 -1.579755246639251709e-01
8.575665354728698730e-01 -2.305319607257843018e-01 1.590431928634643555e-01
9.464700222015380859e-01 -1.301351487636566162e-01 -9.489210695028305054e-02
8.575519919395446777e-01 -2.235943675041198730e-01 -1.684309244155883789e-01
8.277271986007690430e-01 -2.461731433868408203e-01 -5.408888310194015503e-02
5.671381354331970215e-01 -2.162473499774932861e-01 1.793058812618255615e-01
5.344658493995666504e-01 -2.113675475120544434e-01 -9.352984279394149780e-02
6.599608063697814941e-01 -1.046591252088546753e-01 2.696636319160461426e-01
6.324436068534851074e-01 -1.598894149065017700e-01 3.332519829273223877e-01
5.708914995193481445e-01 -1.162436157464981079e-01 1.020136028528213501e-01
7.348669171333312988e-01 -2.027664780616760254e-01 3.039194643497467041e-01
5.941689610481262207e-01 -2.057617902755737305e-01 2.411321699619293213e-01
8.818293809890747070e-01 -2.378372550010681152e-01 -5.186507850885391235e-02
5.998463630676269531e-01 -2.340297400951385498e-01 -1.162239834666252136e-01
7.656430006027221680e-01 -9.861956536769866943e-02 3.103645443916320801e-01
7.163906693458557129e-01 -1.405897140502929688e-01 -1.730785369873046875e-01
9.668493270874023438e-01 -1.015999987721443176e-01 2.010064125061035156e-01
5.695781707763671875e-01 -1.658668816089630127e-01 -1.337836682796478271e-01
7.299380302429199219e-01 -2.223050296306610107e-01 2.426013350486755371e-01
6.874880194664001465e-01 -1.308479309082031250e-01 3.529397547245025635e-01
7.990397214889526367e-01 -9.381899982690811157e-02 -4.925258457660675049e-03
7.067183256149291992e-01 -9.705359488725662231e-02 2.744342088699340820e-01
8.523041009902954102e-01 -2.413899749517440796e-01 6.920505315065383911e-02
7.977156639099121094e-01 -1.938952803611755371e-01 3.208299875259399414e-01
6.711328029632568359e-01 -2.386528849601745605e-01 1.518265008926391602e-01
8.605095148086547852e-01 -2.399375736713409424e-01 -7.632379978895187378e-02
6.657957434654235840e-01 -9.766119718551635742e-02 5.120065063238143921e-02
8.754917979240417480e-01 -1.249187588691711426e-01 -1.247040107846260071e-01
7.608504891395568848e-01 -2.518069446086883545e-01 2.177651226520538330e-02
5.842016339302062988e-01 -2.394041121006011963e-01 4.266728460788726807e-02
5.393139719963073730e-01 -2.261872291564941406e-01 -3.613200783729553223e-02
9.881510138511657715e-01 -1.300906538963317871e-01 2.635571360588073730e-01
6.547890305519104004e-01 -1.045045778155326843e-01 5.906812846660614014e-03
5.517407655715942383e-01 -2.022698521614074707e-01 2.068013548851013184e-01
9.764714241027832031e-01 -1.504157632589340210e-01 -1.070137545466423035e-01
5.502226352691650391e-01 -1.273283511400222778e-01 4.304977506399154663e-02
8.894668221473693848e-01 -1.496575474739074707e-01 -1.729362905025482178e-01
7.741867899894714355e-01 -2.501728236675262451e-01 4.525779932737350464e-02
6.044698357582092285e-01 -2.438752353191375732e-01 2.365386113524436951e-02
7.993641495704650879e-01 -2.103767544031143188e-01 -2.202306389808654785e-01
5.315207839012145996e-01 -1.925059854984283447e-01 -1.082090809941291809e-01
8.588269948959350586e-01 -2.129569351673126221e-01 -1.923399567604064941e-01
7.815986275672912598e-01 -2.475485950708389282e-01 -9.591495245695114136e-02
9.912387728691101074e-01 -2.079180330038070679e-01 2.039658278226852417e-02
8.054331541061401367e-01 -1.242334470152854919e-01 3.676214218139648438e-01
7.131138443946838379e-01 -1.153248250484466553e-01 3.407295346260070801e-01
7.039469480514526367e-01 -2.461657524108886719e-01 -1.217212602496147156e-01
6.976985931396484375e-01 -2.519943714141845703e-01 2.733878418803215027e-02
5.214751958847045898e-01 -1.732033044099807739e-01 -7.761240750551223755e-02
6.717930436134338379e-01 -1.949511468410491943e-01 -2.217110395431518555e-01
9.962118268013000488e-01 -1.117564141750335693e-01 5.885431915521621704e-02
6.107872128486633301e-01 -1.183943822979927063e-01 2.670450508594512939e-01
6.487293243408203125e-01 -1.225668936967849731e-01 -8.516371995210647583e-02
5.623288154602050781e-01 -2.354062050580978394e-01 3.621429204940795898e-04
6.615749597549438477e-01 -2.444732785224914551e-01 1.034107506275177002e-01
9.202424287796020508e-01 -8.957330137491226196e-02 1.326593160629272461e-01
7.253242135047912598e-01 -2.319322824478149414e-01 -1.872099936008453369e-01
9.648265838623046875e-01 -1.009574308991432190e-01 7.377053052186965942e-02
5.191431641578674316e-01 -2.164208292961120605e-01 7.734905928373336792e-02
8.332139849662780762e-01 -2.402472198009490967e-01 -1.121898815035820007e-01
8.198184370994567871e-01 -1.452662497758865356e-01 -1.876518130302429199e-01
7.049977779388427734e-01 -2.394881397485733032e-01 -1.583170890808105469e-01
7.401275038719177246e-01 -8.603855222463607788e-02 9.837159514427185059e-02
4.903934895992279053e-01 -1.929921507835388184e-01 8.397665619850158691e-02
9.206402897834777832e-01 -1.027402281761169434e-01 -8.115410804748535156e-03
7.316864728927612305e-01 -1.776737570762634277e-01 3.516867160797119141e-01
9.088507890701293945e-01 -2.210655659437179565e-01 -1.265132129192352295e-01
7.845842242240905762e-01 -9.673169255256652832e-02 -2.259153872728347778e-02
8.094758391380310059e-01 -1.169017851352691650e-01 -1.151583716273307800e-01
4.247744083404541016e-01 -1.584490537643432617e-01 1.027362197637557983e-01
3.617107868194580078e-01 -1.682987213134765625e-01 1.773898005485534668e-01
3.933062851428985596e-01 -2.473758906126022339e-01 4.211172461509704590e-01
5.990703701972961426e-01 -2.630120515823364258e-01 2.606484293937683105e-01
3.170152306556701660e-01 -1.191165000200271606e-01 3.923031091690063477e-01
5.421367287635803223e-01 -2.955389618873596191e-01 3.526022434234619141e-01
3.954393863677978516e-01 -2.492073029279708862e-01 2.972384691238403320e-01
5.229690670967102051e-01 -2.851051688194274902e-01 2.868436872959136963e-01
4.206355214118957520e-01 -1.224316284060478210e-01 8.110275864601135254e-02
3.634127676486968994e-01 2.721924334764480591e-02 3.776549696922302246e-01
5.218266844749450684e-01 -1.264803409576416016e-01 6.180387735366821289e-02
3.261906504631042480e-01 -4.703119397163391113e-03 2.599940001964569092e-01
7.293914556503295898e-01 -1.170340329408645630e-01 2.973183095455169678e-01
4.087223410606384277e-01 -2.326654940843582153e-01 2.176880687475204468e-01
3.598986268043518066e-01 -2.237318605184555054e-01 3.581351041793823242e-01
6.797978878021240234e-01 -7.543477416038513184e-02 1.591180562973022461e-01
3.840245008468627930e-01 -6.534842401742935181e-02 9.204807877540588379e-02
3.561801910400390625e-01 -2.068540602922439575e-01 4.212033748626708984e-01
6.147246956825256348e-01 -1.015117689967155457e-01 9.120763838291168213e-02
6.211804151535034180e-01 -2.321960330009460449e-01 5.479502677917480469e-01
4.947235882282257080e-01 8.309148252010345459e-03 5.980286002159118652e-02
6.445824503898620605e-01 -1.517070680856704712e-01 5.808851718902587891e-01
3.711715340614318848e-01 5.162391066551208496e-02 2.334352135658264160e-01
5.397069454193115234e-01 6.991471350193023682e-02 4.448557496070861816e-01
6.288360953330993652e-01 7.140092551708221436e-02 3.454612791538238525e-01
3.780688941478729248e-01 -1.800668239593505859e-01 1.678144484758377075e-01
4.641503095626831055e-01 -2.833853363990783691e-01 4.382295608520507812e-01
3.248699307441711426e-01 -5.481527373194694519e-02 4.020376801490783691e-01
6.623851656913757324e-01 -4.867066070437431335e-02 1.365783363580703735e-01
6.340283751487731934e-01 -2.553882598876953125e-01 2.889543175697326660e-01
6.030020117759704590e-01 -2.533850073814392090e-01 2.401094436645507812e-01
7.170864343643188477e-01 -1.842430830001831055e-01 3.635443449020385742e-01
5.123810172080993652e-01 -2.555531263351440430e-02 4.701235890388488770e-02
7.066420912742614746e-01 -1.175120472908020020e-03 3.364141583442687988e-01
4.081352949142456055e-01 5.214866995811462402e-02 1.457646489143371582e-01
6.661561727523803711e-01 -9.749453514814376831e-02 1.422016769647598267e-01
3.581165671348571777e-01 -2.174923419952392578e-01 3.931885063648223877e-01
4.760196208953857422e-01 -1.749666780233383179e-01 9.674870967864990234e-02
4.200461506843566895e-01 -1.391920596361160278e-01 5.713438987731933594e-01
5.664067864418029785e-01 -3.710702061653137207e-03 6.930121779441833496e-02
3.428306579589843750e-01 1.494884490966796875e-04 3.795491755008697510e-01
5.115370750427246094e-01 -2.942175865173339844e-01 4.324916899204254150e-01
7.101863026618957520e-01 -1.011176034808158875e-01 2.227224111557006836e-01
3.874560594558715820e-01 6.201879680156707764e-02 3.269802927970886230e-01
5.037354826927185059e-01 -1.776154637336730957e-01 9.610907733440399170e-02
6.046768426895141602e-01 -8.771850168704986572e-02 5.983029603958129883e-01
6.532210111618041992e-01 -2.948090434074401855e-03 1.466384828090667725e-01
3.430705070495605469e-01 -1.848354190587997437e-02 4.119578301906585693e-01
3.352613449096679688e-01 -1.543244570493698120e-01 2.156465053558349609e-01
5.467199087142944336e-01 -2.890772521495819092e-01 4.663025140762329102e-01
4.757434725761413574e-01 -4.124105721712112427e-02 4.557934403419494629e-02
4.803504049777984619e-01 9.959721565246582031e-02 3.282017707824707031e-01
5.012500286102294922e-01 6.161150336265563965e-02 1.099125295877456665e-01
6.579259634017944336e-01 2.420975267887115479e-02 1.857702136039733887e-01
3.514807820320129395e-01 3.288260102272033691e-02 2.473374903202056885e-01
5.989023447036743164e-01 -2.607763409614562988e-01 5.195164680480957031e-01
6.083209514617919922e-01 3.946669399738311768e-02 4.742790758609771729e-01
5.852946639060974121e-01 -5.753330886363983154e-02 5.913044214248657227e-01
3.792869448661804199e-01 -1.049378216266632080e-01 5.279483795166015625e-01
5.863119363784790039e-01 -1.511055231094360352e-01 6.127152442932128906e-01
4.987844824790954590e-01 9.397120773792266846e-02 1.820225715637207031e-01
6.329061985015869141e-01 -2.235150188207626343e-01 2.136218845844268799e-01
4.803779125213623047e-01 -2.159680724143981934e-01 1.416257768869400024e-01
5.840212106704711914e-01 4.447437822818756104e-02 4.813622534275054932e-01
6.393745541572570801e-01 -1.213572248816490173e-01 5.860716700553894043e-01
3.751281797885894775e-01 -2.321944832801818848e-01 2.895232439041137695e-01
7.069871425628662109e-01 -9.238702058792114258e-02 4.933358430862426758e-01
5.325414538383483887e-01 -1.845951974391937256e-01 1.049399524927139282e-01
6.650266647338867188e-01 -1.114108487963676453e-01 5.617407560348510742e-01
6.257604360580444336e-01 -1.801081895828247070e-01 5.862865447998046875e-01
5.466665625572204590e-01 -2.939774394035339355e-01 4.382020235061645508e-01
6.703902482986450195e-01 -2.368137985467910767e-01 3.180386722087860107e-01
4.756647646427154541e-01 -1.872750818729400635e-01 5.942718386650085449e-01
6.579461097717285156e-01 -2.340499013662338257e-01 4.979066252708435059e-01
6.332408189773559570e-01 -1.804059743881225586e-02 1.123776435852050781e-01
4.311054348945617676e-01 8.840508759021759033e-02 3.093212544918060303e-01
4.302451014518737793e-01 -1.054066419601440430e-02 5.250213146209716797e-01
5.521641373634338379e-01 -2.686786949634552002e-01 5.253536701202392578e-01
6.447233557701110840e-01 -2.094487547874450684e-01 5.505781173706054688e-01
6.241168975830078125e-01 -2.461663782596588135e-01 5.240005254745483398e-01
5.958417654037475586e-01 -2.435405254364013672e-01 2.125383019447326660e-01
4.554467499256134033e-01 -1.287524402141571045e-02 5.692550539970397949e-02
5.190974473953247070e-01 8.699639141559600830e-02 1.612786352634429932e-01
6.868752837181091309e-01 -2.773754298686981201e-03 4.394114017486572266e-01
6.341350078582763672e-01 -2.677825391292572021e-01 3.452448248863220215e-01
3.290594816207885742e-01 -3.435008227825164795e-03 3.266448378562927246e-01
5.559985637664794922e-01 -3.278490900993347168e-02 5.531248450279235840e-02
7.233772873878479004e-01 -1.589734554290771484e-01 4.266052246093750000e-01
4.550532400608062744e-01 9.525413811206817627e-02 2.209147363901138306e-01
6.101595759391784668e-01 -1.561141908168792725e-01 1.157460361719131470e-01
3.668632805347442627e-01 4.990425705909729004e-02 2.893328070640563965e-01
6.430982947349548340e-01 -2.285463809967041016e-01 5.300414562225341797e-01
7.252368330955505371e-01 -1.380081474781036377e-01 4.403977990150451660e-01
6.259016394615173340e-01 -2.059085220098495483e-01 5.706777572631835938e-01
6.845636963844299316e-01 -2.273773252964019775e-01 4.378070235252380371e-01
6.362886428833007812e-01 5.892489850521087646e-02 2.173802554607391357e-01
4.745583832263946533e-01 8.889330923557281494e-02 3.759226799011230469e-01
3.075559139251708984e-01 -7.810599356889724731e-02 3.337854743003845215e-01
3.657741546630859375e-01 -1.910974681377410889e-01 4.744502305984497070e-01
5.714216828346252441e-01 8.768457174301147461e-02 3.758627176284790039e-01
7.014109492301940918e-01 -1.723776012659072876e-02 4.278391599655151367e-01
3.880642652511596680e-01 -2.498215138912200928e-01 3.603773415088653564e-01
3.152114152908325195e-01 -4.359582066535949707e-02 2.384665161371231079e-01
5.417484045028686523e-01 -2.403437197208404541e-01 1.786675751209259033e-01
4.482156634330749512e-01 -2.089806497097015381e-01 1.440023630857467651e-01
5.975961685180664062e-01 -1.937712430953979492e-01 1.411411166191101074e-01
4.289870858192443848e-01 -2.749783992767333984e-01 3.726806938648223877e-01
6.963033676147460938e-01 -2.164552211761474609e-01 4.172468185424804688e-01
6.437478065490722656e-01 -2.157438546419143677e-02 5.290869474411010742e-01
5.174568891525268555e-01 -1.013623252511024475e-01 5.115818977355957031e-02
3.061389327049255371e-01 -9.666702151298522949e-02 3.167100548744201660e-01
3.403941392898559570e-01 2.011879533529281616e-02 2.859219610691070557e-01
5.144715309143066406e-01 1.052966564893722534e-01 2.510750293731689453e-01
6.228373050689697266e-01 7.356159389019012451e-03 5.132115483283996582e-01
7.132092118263244629e-01 -2.188302576541900635e-02 3.898004889488220215e-01
5.143535733222961426e-01 -7.949342578649520874e-02 6.067773699760437012e-01
6.538628339767456055e-01 -1.119802966713905334e-01 1.315612941980361938e-01
5.536077022552490234e-01 3.352448344230651855e-02 8.910790085792541504e-02
6.711053848266601562e-01 -2.320803403854370117e-01 4.722054600715637207e-01
4.254570007324218750e-01 -2.486203610897064209e-02 6.602910161018371582e-02
7.130963802337646484e-01 -3.968258947134017944e-02 4.294901490211486816e-01
5.989665389060974121e-01 -1.783313751220703125e-01 1.264227926731109619e-01
7.287214994430541992e-01 -6.018166989088058472e-02 3.860034346580505371e-01
4.921197295188903809e-01 -7.578888535499572754e-02 6.002844572067260742e-01
4.556938409805297852e-01 9.867806732654571533e-02 2.742681503295898438e-01
4.412520527839660645e-01 -8.899495750665664673e-02 5.815159678459167480e-01
6.956750750541687012e-01 -3.964082151651382446e-02 1.983745396137237549e-01
5.114312171936035156e-01 1.762823760509490967e-02 5.316154360771179199e-01
4.931674599647521973e-01 -1.479302644729614258e-01 6.119401454925537109e-01
7.165702581405639648e-01 -5.193430930376052856e-02 2.508148849010467529e-01
5.225578546524047852e-01 -2.972190976142883301e-01 3.704230189323425293e-01
4.066492319107055664e-01 -2.223214507102966309e-01 1.987295001745223999e-01
5.330083966255187988e-01 -3.493974357843399048e-02 4.822158813476562500e-02
6.391955018043518066e-01 6.752067804336547852e-02 2.772170901298522949e-01
3.314805030822753906e-01 -1.311137527227401733e-01 1.983411610126495361e-01
5.657629966735839844e-01 -2.768812179565429688e-01 5.017096400260925293e-01
6.463720202445983887e-01 -5.414674803614616394e-02 1.158417761325836182e-01
6.233845949172973633e-01 3.283289074897766113e-02 1.434327363967895508e-01
5.313626527786254883e-01 -2.933524847030639648e-01 3.298190534114837646e-01
6.233743429183959961e-01 -2.743350565433502197e-01 4.343201816082000732e-01
3.070346117019653320e-01 -6.977108865976333618e-02 3.141282796859741211e-01
4.781409502029418945e-01 -2.920291721820831299e-01 3.816325664520263672e-01
7.035764455795288086e-01 -1.744955033063888550e-01 2.668642997741699219e-01
3.385130167007446289e-01 1.507793366909027100e-02 2.462750971317291260e-01
6.189490556716918945e-01 7.855887711048126221e-02 2.615569531917572021e-01
4.232822954654693604e-01 -2.629663348197937012e-01 4.454256892204284668e-01
4.503030776977539062e-01 -1.881432980298995972e-01 5.794402360916137695e-01
7.168814539909362793e-01 -1.503269374370574951e-01 2.760034799575805664e-01
4.043178558349609375e-01 1.406043022871017456e-02 4.717473983764648438e-01
5.058175325393676758e-01 9.466338157653808594e-02 3.692684173583984375e-01
4.287078976631164551e-01 -6.587942689657211304e-02 5.637124180793762207e-01
5.422008633613586426e-01 -2.972745001316070557e-01 3.949181437492370605e-01
4.068719148635864258e-01 3.187741339206695557e-02 4.470967054367065430e-01
6.353603601455688477e-01 -2.704669833183288574e-01 3.853862583637237549e-01
5.138182640075683594e-01 7.923746109008789062e-02 4.220879077911376953e-01
6.591844558715820312e-01 -1.860889941453933716e-01 1.938853412866592407e-01
3.305329084396362305e-01 -1.021646708250045776e-01 1.802194416522979736e-01
7.297848463058471680e-01 -1.504869759082794189e-01 3.672752976417541504e-01
3.220751285552978516e-01 -4.977274686098098755e-02 2.018066495656967163e-01
3.480535745620727539e-01 -1.108965054154396057e-01 1.496242433786392212e-01
5.506834983825683594e-01 -2.558899223804473877e-01 5.485394597053527832e-01
3.526966571807861328e-01 -1.984501630067825317e-02 4.357464313507080078e-01
5.621398091316223145e-01 4.854662716388702393e-02 1.094793379306793213e-01
5.685622096061706543e-01 -3.853388130664825439e-02 5.833109617233276367e-01
6.350715756416320801e-01 -7.769262790679931641e-02 1.038262248039245605e-01
5.788019895553588867e-01 -2.652252316474914551e-01 2.480503618717193604e-01
4.671748280525207520e-01 -2.886329591274261475e-01 3.565292060375213623e-01
3.868259191513061523e-01 -2.317397445440292358e-01 4.528682827949523926e-01
5.835468173027038574e-01 -2.336447834968566895e-01 1.858890801668167114e-01
5.326094627380371094e-01 -8.144009858369827271e-02 4.849761724472045898e-02
4.343537688255310059e-01 -1.899480819702148438e-01 1.279057264328002930e-01
3.887525200843811035e-01 3.336003422737121582e-02 4.179422855377197266e-01
6.725645065307617188e-01 3.917716443538665771e-02 2.752850651741027832e-01
5.620079040527343750e-01 -2.043624222278594971e-01 1.342476010322570801e-01
4.320799112319946289e-01 9.056407213211059570e-02 2.873171865940093994e-01
6.888833045959472656e-01 2.066223323345184326e-02 2.793846130371093750e-01
7.266775965690612793e-01 -1.064560189843177795e-01 2.784782052040100098e-01
3.651101291179656982e-01 -2.002092301845550537e-01 2.224917411804199219e-01
5.884042382240295410e-01 5.585570633411407471e-02 4.562081396579742432e-01
4.318705797195434570e-01 -1.567079424858093262e-01 5.779727697372436523e-01
6.170763373374938965e-01 -1.146406754851341248e-01 5.993520617485046387e-01
5.569159984588623047e-01 3.444129228591918945e-02 5.078065395355224609e-01
6.608089208602905273e-01 5.223934352397918701e-02 3.020391762256622314e-01
3.240565657615661621e-01 -1.624159812927246094e-01 2.774796485900878906e-01
3.229106664657592773e-01 -9.953439235687255859e-03 2.819446921348571777e-01
4.885596036911010742e-01 -1.138594150543212891e-01 6.097642183303833008e-01
3.396893143653869629e-01 -6.627537310123443604e-02 1.529321819543838501e-01
4.786935448646545410e-01 5.357722938060760498e-02 4.681372642517089844e-01
3.316289782524108887e-01 -1.738637089729309082e-01 3.929114043712615967e-01
6.516420841217041016e-01 -1.780209988355636597e-01 1.748271882534027100e-01
3.388994932174682617e-01 -4.985395446419715881e-02 4.362249970436096191e-01
5.834364295005798340e-01 2.241275459527969360e-02 9.574778378009796143e-02
6.002864837646484375e-01 -2.102735042572021484e-01 1.628457158803939819e-01
4.108065664768218994e-01 -4.153312742710113525e-02 5.345376729965209961e-01
3.112220764160156250e-01 -9.103599935770034790e-02 3.675075173377990723e-01
6.595884561538696289e-01 4.155470430850982666e-02 2.277512550354003906e-01
5.005388855934143066e-01 -1.822722703218460083e-01 6.057088375091552734e-01
5.939806699752807617e-01 -2.880823016166687012e-01 3.912890553474426270e-01
4.842208921909332275e-01 -2.887111902236938477e-01 3.213867545127868652e-01
5.047428607940673828e-01 -2.590104341506958008e-01 5.381103754043579102e-01
5.565505623817443848e-01 -2.285509854555130005e-01 1.643954962491989136e-01
4.524156153202056885e-01 5.416776239871978760e-02 1.116210520267486572e-01
5.227463245391845703e-01 -3.755445405840873718e-02 5.850940942764282227e-01
4.707002043724060059e-01 -2.723082304000854492e-01 2.602022290229797363e-01
7.207891941070556641e-01 -3.232950717210769653e-02 3.069015145301818848e-01
4.281173944473266602e-01 4.954358935356140137e-02 1.209607124328613281e-01
5.601502060890197754e-01 -2.733027338981628418e-01 2.583428025245666504e-01
3.866997361183166504e-01 4.642379283905029297e-02 3.832909762859344482e-01
6.556077003479003906e-01 -2.562439441680908203e-01 4.227833747863769531e-01
6.220740675926208496e-01 7.837876677513122559e-02 3.048152625560760498e-01
5.940400362014770508e-01 3.718547523021697998e-02 1.182918548583984375e-01
4.547343254089355469e-01 3.876052796840667725e-02 9.175883233547210693e-02
3.130355477333068848e-01 -3.814447671175003052e-02 2.723029851913452148e-01
4.446385502815246582e-01 -2.408469319343566895e-01 1.988068670034408569e-01
3.319953083992004395e-01 5.429163575172424316e-03 3.071606159210205078e-01
4.506205916404724121e-01 -1.545196324586868286e-01 8.717566728591918945e-02
5.947991013526916504e-01 9.031428396701812744e-02 3.099781274795532227e-01
6.241821050643920898e-01 -2.684755325317382812e-01 4.650415778160095215e-01
6.465407013893127441e-01 -3.827869892120361328e-03 5.057083368301391602e-01
7.238157391548156738e-01 -1.293383985757827759e-01 2.804132699966430664e-01
6.612945795059204102e-01 -1.845483928918838501e-01 5.515618920326232910e-01
3.657998740673065186e-01 -1.357441246509552002e-01 1.391526460647583008e-01
3.076305985450744629e-01 -1.070672422647476196e-01 2.828370332717895508e-01
