1.722452417016029358e-02 2.622171640396118164e-01 -3.094572201371192932e-02
7.965386658906936646e-02 1.500316262245178223e-01 -3.040567971765995026e-02
-7.534489780664443970e-02 1.916967034339904785e-01 2.769934386014938354e-02
1.318787187337875366e-01 2.341715097427368164e-01 5.681251641362905502e-03
2.949670702219009399e-02 9.199355542659759521e-02 -2.945856563746929169e-02
8.166344463825225830e-02 2.298511266708374023e-01 2.008169703185558319e-02
3.625403856858611107e-03 2.704805731773376465e-01 -2.952296473085880280e-02
-7.458711974322795868e-03 -1.083792746067047119e-02 -1.564569212496280670e-02
1.385107785463333130e-01 1.762732565402984619e-01 -1.821220666170120239e-02
1.312195956707000732e-01 1.059456914663314819e-01 -1.134617067873477936e-02
7.064793258905410767e-02 1.142850443720817566e-01 2.403474412858486176e-02
-7.492821663618087769e-02 2.720519006252288818e-01 -1.574051007628440857e-02
-8.639076352119445801e-02 9.714469313621520996e-02 2.987522631883621216e-02
6.419323384761810303e-02 1.632200926542282104e-01 2.554689347743988037e-02
7.030230015516281128e-02 2.812668681144714355e-03 9.067579172551631927e-03
4.241232201457023621e-02 1.344802677631378174e-01 2.855988033115863800e-02
1.337543595582246780e-02 2.919618189334869385e-01 -2.818766981363296509e-02
1.191145405173301697e-01 1.655593216419219971e-01 -2.464954368770122528e-02
-4.425830766558647156e-02 2.383735924959182739e-01 2.610150165855884552e-02
9.697388112545013428e-02 3.913047164678573608e-02 7.450089789927005768e-03
4.712783917784690857e-02 3.658447265625000000e-01 -8.385055698454380035e-03
1.023525297641754150e-01 2.003616839647293091e-01 1.733761839568614960e-02
-5.451823398470878601e-02 1.130956113338470459e-01 -2.598747424781322479e-02
1.984527334570884705e-02 2.184094786643981934e-01 -3.293916955590248108e-02
-1.300095468759536743e-01 9.445445984601974487e-02 -6.359979044646024704e-03
-3.356991335749626160e-02 -4.870063066482543945e-02 1.427316851913928986e-02
-2.821250259876251221e-02 3.366605192422866821e-02 -2.218421176075935364e-02
-1.428830344229936600e-02 3.083805739879608154e-01 -2.325778082013130188e-02
8.604975789785385132e-02 1.696678549051284790e-01 -3.053487651050090790e-02
6.826812773942947388e-02 6.656848639249801636e-02 2.165481634438037872e-02
-8.544282615184783936e-02 1.391192376613616943e-01 2.943225204944610596e-02
-6.175541877746582031e-02 3.100749850273132324e-01 8.898783475160598755e-03
-6.353635340929031372e-02 7.990062236785888672e-03 -1.476199086755514145e-02
1.688408199697732925e-03 2.680045962333679199e-01 2.385576069355010986e-02
3.586224839091300964e-02 -3.269389271736145020e-02 7.624706253409385681e-03
2.696235105395317078e-02 2.012851834297180176e-01 2.838139049708843231e-02
1.297558099031448364e-01 1.889435648918151855e-01 8.869523182511329651e-03
-1.006753649562597275e-03 -1.260201632976531982e-02 2.239820919930934906e-02
-2.936493605375289917e-02 2.041400969028472900e-01 2.976493164896965027e-02
-9.924714453518390656e-03 2.217725217342376709e-01 2.857615239918231964e-02
9.594561904668807983e-02 3.014290332794189453e-01 8.738573640584945679e-03
-5.187632143497467041e-02 3.155422806739807129e-01 -1.302851270884275436e-02
-5.202751606702804565e-02 -3.903785347938537598e-02 -4.812343046069145203e-03
-4.411729425191879272e-02 2.659318447113037109e-01 -2.405659481883049011e-02
-2.170572429895401001e-02 -5.438044667243957520e-02 9.527035057544708252e-03
5.664720758795738220e-02 6.853681057691574097e-02 2.410292997956275940e-02
-1.303408201783895493e-02 7.956175506114959717e-02 -2.771405689418315887e-02
1.170445382595062256e-01 8.130062371492385864e-02 -1.421768870204687119e-02
-9.138448536396026611e-02 2.361075580120086670e-01 1.975780166685581207e-02
-1.101849898695945740e-01 2.116770297288894653e-01 -1.137072592973709106e-02
-1.059565320611000061e-01 8.311664313077926636e-02 2.677215449512004852e-02
2.268827334046363831e-02 2.105832099914550781e-03 2.198977768421173096e-02
1.051677390933036804e-01 4.046932607889175415e-02 -4.362125415354967117e-03
1.479318290948867798e-01 2.223738878965377808e-01 -7.693037390708923340e-03
-2.497634291648864746e-02 2.647596895694732666e-01 -2.709971740841865540e-02
-1.190322935581207275e-01 8.038385957479476929e-02 -1.011457573622465134e-02
-4.485859069973230362e-03 9.229208528995513916e-02 -2.905933931469917297e-02
-1.271807849407196045e-01 9.820048511028289795e-02 2.142303250730037689e-02
1.082465797662734985e-02 -6.172478199005126953e-03 2.221746928989887238e-02
-3.664381802082061768e-02 1.059256345033645630e-01 3.270962834358215332e-02
-8.997493982315063477e-02 2.509745359420776367e-01 -1.404369249939918518e-02
2.380963414907455444e-02 1.768797636032104492e-03 -1.746608689427375793e-02
7.671617716550827026e-02 2.533134222030639648e-01 -3.081178106367588043e-02
-1.149573475122451782e-01 2.286545485258102417e-01 -5.625653080642223358e-03
6.678503751754760742e-02 2.114763557910919189e-01 2.357535809278488159e-02
-7.186631858348846436e-02 2.101187109947204590e-01 2.648993395268917084e-02
-1.066949889063835144e-01 2.504219412803649902e-01 -5.256279837340116501e-03
1.340831071138381958e-01 1.403174847364425659e-01 -1.688547432422637939e-02
6.658498197793960571e-02 3.576888740062713623e-01 -1.317165698856115341e-02
-2.067738771438598633e-02 -2.535818517208099365e-02 2.135113812983036041e-02
-3.799115866422653198e-02 1.470692902803421021e-01 3.229737654328346252e-02
-1.930929720401763916e-03 -4.901452362537384033e-02 -1.537964912131428719e-03
-5.272141844034194946e-02 3.215032815933227539e-01 7.020566612482070923e-03
6.784415245056152344e-02 1.495647430419921875e-01 2.507502771914005280e-02
1.334400922060012817e-01 2.599561512470245361e-01 -1.881151087582111359e-02
-1.246717497706413269e-01 2.057586610317230225e-01 -3.588530700653791428e-03
2.878582850098609924e-02 -2.912981808185577393e-02 -7.437366526573896408e-03
2.471437305212020874e-02 -3.205423057079315186e-02 1.262668892741203308e-02
2.271461486816406250e-02 2.394531965255737305e-01 2.604687772691249847e-02
4.449958354234695435e-02 6.596415489912033081e-02 -2.636604942381381989e-02
1.066131442785263062e-01 2.951574325561523438e-01 -2.321775443851947784e-02
8.819241076707839966e-02 3.155989050865173340e-01 7.743359543383121490e-03
-3.874403610825538635e-02 3.261642456054687500e-01 -1.398896053433418274e-02
-6.110872328281402588e-02 4.455279558897018433e-02 -2.007805928587913513e-02
-2.036435157060623169e-02 3.474386036396026611e-01 -1.066043414175510406e-02
1.241411790251731873e-01 1.830620467662811279e-01 -2.408352307975292206e-02
9.106358140707015991e-02 2.144852876663208008e-01 1.922734081745147705e-02
-2.132954075932502747e-02 4.418294876813888550e-02 -2.387567609548568726e-02
5.828102678060531616e-02 1.995483487844467163e-01 -3.303197771310806274e-02
9.665449149906635284e-03 3.277576565742492676e-01 1.347635779529809952e-02
1.144134178757667542e-01 2.420196235179901123e-01 -2.622869983315467834e-02
-1.384165585041046143e-01 1.067909449338912964e-01 -1.744225039146840572e-03
1.796983182430267334e-02 1.335859596729278564e-01 3.087825328111648560e-02
8.368735760450363159e-02 2.920147180557250977e-01 1.309801265597343445e-02
-4.766928032040596008e-02 9.874834120273590088e-02 3.246715292334556580e-02
-4.293930903077125549e-02 8.338034152984619141e-03 2.734045684337615967e-02
7.130951154977083206e-03 3.209755718708038330e-01 -2.364958636462688446e-02
-1.035362258553504944e-01 2.645210027694702148e-01 4.460981115698814392e-03
9.578103572130203247e-02 1.712217628955841064e-01 1.956825144588947296e-02
-8.886899054050445557e-02 2.819886803627014160e-02 2.636408992111682892e-02
7.709875702857971191e-02 3.612677752971649170e-02 -1.745451986789703369e-02
9.638134390115737915e-02 1.830825507640838623e-01 -2.964079566299915314e-02
-4.888557642698287964e-02 7.251536846160888672e-02 -2.421873249113559723e-02
-8.168938569724559784e-03 1.776763498783111572e-01 -3.194001689553260803e-02
8.296146988868713379e-04 1.872632503509521484e-01 3.049071691930294037e-02
2.573179453611373901e-02 1.229186281561851501e-01 3.020929358899593353e-02
9.933026880025863647e-02 4.939257353544235229e-02 -1.377825532108545303e-02
-2.461985498666763306e-02 -2.992942929267883301e-03 2.558419294655323029e-02
7.903201133012771606e-02 1.904119551181793213e-01 -3.169165179133415222e-02
7.427627593278884888e-02 1.729814857244491577e-01 -3.174291178584098816e-02
3.491776064038276672e-02 2.351327836513519287e-01 2.555814757943153381e-02
3.275074809789657593e-02 1.299308985471725464e-01 -3.186948969960212708e-02
5.382464267313480377e-03 4.934816807508468628e-02 -2.538488060235977173e-02
-1.961623504757881165e-02 1.017836928367614746e-01 -2.885022014379501343e-02
3.287576511502265930e-02 -2.247937023639678955e-02 1.406362839043140411e-02
9.668810665607452393e-02 1.576109826564788818e-01 -2.867015823721885681e-02
1.128624528646469116e-01 1.761872172355651855e-01 -2.660268731415271759e-02
1.509934011846780777e-02 1.927648782730102539e-01 2.957741543650627136e-02
1.422674395143985748e-04 1.749032735824584961e-02 2.671447396278381348e-02
1.133937239646911621e-01 1.373452246189117432e-01 -2.408822625875473022e-02
1.182811185717582703e-01 3.104469776153564453e-01 -1.547581050544977188e-02
-4.890403710305690765e-03 2.863812148571014404e-01 2.134715579450130463e-02
5.634552985429763794e-02 -1.752591133117675781e-02 -3.773772157728672028e-03
7.085692603141069412e-03 1.418082863092422485e-01 3.152938559651374817e-02
1.059870198369026184e-01 3.109164237976074219e-01 -2.053208649158477783e-02
-1.068253740668296814e-01 9.799693524837493896e-02 -1.511069945991039276e-02
1.424330323934555054e-01 1.940102577209472656e-01 -1.678255014121532440e-02
5.103727057576179504e-02 3.565711379051208496e-01 -1.600166223943233490e-02
1.146770715713500977e-01 9.087660163640975952e-02 9.641956537961959839e-03
1.278924942016601562e-01 1.262700259685516357e-01 -1.797776669263839722e-02
1.087906286120414734e-01 7.245798408985137939e-02 -1.593840681016445160e-02
-3.705658763647079468e-02 2.537699043750762939e-02 -2.042403072118759155e-02
-1.327095180749893188e-01 1.633226722478866577e-01 1.521770935505628586e-02
9.792605042457580566e-02 8.783140033483505249e-02 -2.208338864147663116e-02
-1.048393398523330688e-01 2.019023001194000244e-01 2.133956924080848694e-02
7.616408169269561768e-02 2.147691845893859863e-01 -3.195717185735702515e-02
-2.838729321956634521e-02 -1.657797396183013916e-02 2.347828447818756104e-02
1.090766862034797668e-01 1.360318660736083984e-01 1.558138243854045868e-02
1.143297255039215088e-01 1.966518163681030273e-01 1.421407330781221390e-02
-4.317531362175941467e-02 -1.738369464874267578e-02 -1.231443136930465698e-02
-5.962810292840003967e-02 -8.093416690826416016e-03 -1.233020517975091934e-02
1.136364974081516266e-02 -3.048944473266601562e-02 1.635502837598323822e-02
2.314187586307525635e-02 9.770281612873077393e-02 2.999365888535976410e-02
4.481619596481323242e-02 -8.217155933380126953e-03 -1.231431122869253159e-02
2.293263375759124756e-02 3.271227777004241943e-01 1.344817969948053360e-02
-7.519966457039117813e-04 2.827895879745483398e-01 -2.806185744702816010e-02
9.417881816625595093e-02 2.431292831897735596e-01 -2.953828684985637665e-02
5.997826531529426575e-02 3.002033829689025879e-01 -2.800245024263858795e-02
1.097458302974700928e-01 2.662870287895202637e-01 1.038878690451383591e-02
8.309464901685714722e-02 9.369307756423950195e-02 -2.559140138328075409e-02
-1.239413544535636902e-01 2.210213541984558105e-01 3.482541069388389587e-03
-1.293477714061737061e-01 1.232868060469627380e-01 -7.622215431183576584e-03
-1.020409446209669113e-02 9.344235062599182129e-02 3.209476917982101440e-02
7.597945630550384521e-02 2.695891261100769043e-01 -2.990690805017948151e-02
6.649768352508544922e-02 3.130376338958740234e-01 -2.600532211363315582e-02
-6.188350170850753784e-02 1.762958467006683350e-01 -2.589750289916992188e-02
-8.840705454349517822e-02 2.620677053928375244e-01 1.525869127362966537e-02
-1.012531295418739319e-01 9.657952189445495605e-02 2.779684588313102722e-02
5.338112637400627136e-02 1.729173213243484497e-01 2.684885077178478241e-02
-5.193579196929931641e-02 3.247219324111938477e-02 -1.983996666967868805e-02
-8.233603090047836304e-02 -3.613054752349853516e-02 1.304203271865844727e-02
-1.177171617746353149e-01 1.375682950019836426e-01 2.347037941217422485e-02
-7.895895279943943024e-03 2.392084300518035889e-01 2.705769427120685577e-02
-4.914610087871551514e-02 5.864116549491882324e-02 -2.299334667623043060e-02
-1.312631517648696899e-01 3.639286756515502930e-02 3.030937630683183670e-03
-4.133131727576255798e-02 3.026840686798095703e-01 -1.933795027434825897e-02
-1.065568923950195312e-01 1.411664783954620361e-01 -1.625778712332248688e-02
-5.352893471717834473e-02 5.903282761573791504e-02 3.117348998785018921e-02
3.388512134552001953e-02 2.960343658924102783e-01 -2.863474935293197632e-02
1.063874959945678711e-01 7.084003835916519165e-02 1.029214076697826385e-02
7.378051057457923889e-03 -9.598433971405029297e-03 -1.574132964015007019e-02
-5.556835606694221497e-02 7.490550726652145386e-02 3.172460943460464478e-02
-6.427273899316787720e-02 2.343643605709075928e-01 -2.302099019289016724e-02
-1.435180604457855225e-01 9.720092266798019409e-02 5.295438691973686218e-03
5.714505165815353394e-02 -3.630116581916809082e-03 -1.099576801061630249e-02
-2.496957033872604370e-02 5.308541655540466309e-02 3.097248822450637817e-02
1.070708781480789185e-01 1.097850874066352844e-01 1.474504731595516205e-02
2.960444614291191101e-02 4.726462066173553467e-02 -2.480657212436199188e-02
-4.092367831617593765e-03 3.005211949348449707e-01 -2.568018622696399689e-02
1.955894753336906433e-02 3.596760630607604980e-01 -1.350168138742446899e-02
-9.472946077585220337e-02 1.051894202828407288e-01 -1.854385994374752045e-02
-7.676734030246734619e-02 7.114531099796295166e-02 -2.011333592236042023e-02
1.211762055754661560e-01 1.456770747900009155e-01 1.174021419137716293e-02
2.340826392173767090e-02 1.631714105606079102e-01 -3.302656114101409912e-02
-6.699848175048828125e-02 2.160035073757171631e-01 -2.367385663092136383e-02
5.496719107031822205e-02 2.321288883686065674e-01 2.381192520260810852e-02
-1.260807663202285767e-01 2.073235511779785156e-01 1.018350385129451752e-02
3.219942376017570496e-02 3.116728663444519043e-01 1.622799783945083618e-02
3.778098896145820618e-02 1.051264405250549316e-01 2.865712530910968781e-02
1.133764237165451050e-01 1.182776764035224915e-01 -2.213828079402446747e-02
-4.692418128252029419e-02 1.692355126142501831e-01 -2.814294956624507904e-02
-6.609333306550979614e-02 -4.809015989303588867e-02 9.603721089661121368e-03
-9.765991941094398499e-03 5.391995608806610107e-02 -2.550552785396575928e-02
4.960429668426513672e-02 1.559452861547470093e-01 2.761792019009590149e-02
1.468294486403465271e-02 -4.480774700641632080e-02 -9.082168107852339745e-04
-2.956740930676460266e-02 2.812675833702087402e-01 2.126341499388217926e-02
4.934770241379737854e-02 1.505054533481597900e-02 -1.779329217970371246e-02
4.642271623015403748e-02 2.960253357887268066e-01 -2.874835580587387085e-02
-1.359734833240509033e-01 1.179204359650611877e-01 1.718261465430259705e-02
-1.981588453054428101e-02 1.061961054801940918e-03 -1.771713234484195709e-02
4.968391358852386475e-02 2.389064431190490723e-01 -3.259693086147308350e-02
4.141871631145477295e-02 2.286684513092041016e-01 -3.299812227487564087e-02
9.412815421819686890e-02 1.331243515014648438e-01 1.961977221071720123e-02
-2.333727478981018066e-02 5.579610913991928101e-02 -2.499320544302463531e-02
-3.395852819085121155e-02 2.935397028923034668e-01 1.873648725450038910e-02
-6.406599283218383789e-02 1.346111297607421875e-03 2.571409009397029877e-02
-6.209430843591690063e-02 3.665654361248016357e-02 2.947556786239147186e-02
7.120830565690994263e-02 -5.014047026634216309e-03 -2.517340239137411118e-03
-1.220088824629783630e-01 1.745331585407257080e-01 -9.518384933471679688e-03
-1.147437244653701782e-01 1.922528594732284546e-01 1.956912502646446228e-02
-9.702330827713012695e-02 1.268300861120223999e-01 2.818559855222702026e-02
1.690525189042091370e-02 3.419947624206542969e-01 9.533968754112720490e-03
5.680599808692932129e-02 1.842641532421112061e-01 -3.298732265830039978e-02
4.177212715148925781e-02 1.173145622014999390e-01 -3.098079562187194824e-02
-1.013650279492139816e-02 4.031313955783843994e-02 2.955498546361923218e-02
-1.257223933935165405e-01 1.071902662515640259e-01 -8.946631103754043579e-03
-3.531792759895324707e-02 1.686125546693801880e-01 3.161827102303504944e-02
4.104908928275108337e-02 2.071744799613952637e-01 2.687599882483482361e-02
-1.132364347577095032e-01 1.567350775003433228e-01 -1.392872724682092667e-02
4.060134291648864746e-03 2.381104230880737305e-01 2.696091309189796448e-02
6.989818066358566284e-02 9.929311275482177734e-02 2.356343157589435577e-02
-1.142046675086021423e-01 1.130782067775726318e-02 -1.684186747297644615e-03
8.059984073042869568e-03 3.626325428485870361e-01 -8.483524434268474579e-03
5.918122082948684692e-02 -4.571571946144104004e-03 1.139984745532274246e-02
-3.477565012872219086e-03 1.040315851569175720e-01 3.200325369834899902e-02
-2.022873982787132263e-02 2.224986553192138672e-01 -3.020636551082134247e-02
-5.540227890014648438e-02 2.656797170639038086e-01 2.138543687760829926e-02
-1.378287076950073242e-01 1.647017747163772583e-01 1.288052531890571117e-03
1.307591944932937622e-01 1.671901047229766846e-01 -2.109942771494388580e-02
-1.974255964159965515e-02 2.533170878887176514e-01 -2.862617559731006622e-02
3.354223817586898804e-02 3.652189373970031738e-01 -1.057838462293148041e-02
-7.567866146564483643e-02 8.924011886119842529e-02 -2.156207710504531860e-02
-8.841033279895782471e-02 2.166781574487686157e-01 -1.854568719863891602e-02
1.142397820949554443e-01 2.665772438049316406e-01 -2.471788972616195679e-02
2.966982126235961914e-02 1.894408762454986572e-01 -3.342038393020629883e-02
-1.360208243131637573e-01 8.299186080694198608e-02 1.693686470389366150e-02
-1.104246973991394043e-01 2.384930253028869629e-01 1.193927414715290070e-02
7.508914172649383545e-02 6.118095666170120239e-02 -2.252508141100406647e-02
1.578767225146293640e-02 2.928631305694580078e-01 2.013542130589485168e-02
-7.369686663150787354e-02 1.857225000858306885e-01 -2.357627451419830322e-02
6.709070876240730286e-03 6.039956957101821899e-02 2.979815751314163208e-02
-4.922537878155708313e-02 2.975147664546966553e-01 1.596490293741226196e-02
-4.336642101407051086e-02 5.063712596893310547e-02 3.095038607716560364e-02
-6.836641579866409302e-02 1.439889818429946899e-01 3.096291795372962952e-02
5.085948109626770020e-02 2.109044492244720459e-01 -3.320764377713203430e-02
1.031664609909057617e-01 3.254738450050354004e-01 -1.740274764597415924e-02
2.141385897994041443e-02 1.800080686807632446e-01 -3.324391692876815796e-02
-1.290023475885391235e-01 2.394616603851318359e-02 1.046800427138805389e-02
7.337830215692520142e-02 1.148116737604141235e-01 -2.879256196320056915e-02
9.933732450008392334e-02 3.361538052558898926e-01 -1.422755513340234756e-02
4.312840104103088379e-02 2.189025878906250000e-01 2.598615922033786774e-02
1.448868066072463989e-01 2.455532848834991455e-01 -7.053648587316274643e-03
-5.830612406134605408e-02 2.267055213451385498e-02 -1.775106973946094513e-02
-1.040971502661705017e-01 1.583761423826217651e-01 2.555865235626697540e-02
-9.147882461547851562e-03 3.531965017318725586e-01 -1.102937292307615280e-02
1.025994643568992615e-01 2.464961856603622437e-01 1.440657116472721100e-02
-1.403530389070510864e-01 1.491988450288772583e-01 1.040784269571304321e-02
5.449983105063438416e-02 9.660789370536804199e-02 2.610079757869243622e-02
1.867612823843955994e-02 3.162668943405151367e-01 -2.534886635839939117e-02
2.421401813626289368e-02 6.945398449897766113e-02 2.871108055114746094e-02
-3.739872947335243225e-02 4.359550029039382935e-02 -2.263685129582881927e-02
9.910263121128082275e-03 3.577361702919006348e-01 2.617696532979607582e-03
1.108359917998313904e-01 2.535074353218078613e-01 -2.639175765216350555e-02
1.021301299333572388e-01 2.188750058412551880e-01 1.652663759887218475e-02
2.824146300554275513e-02 3.584527373313903809e-01 2.820454072207212448e-03
1.107412502169609070e-01 1.803076714277267456e-01 1.562144793570041656e-02
5.194768682122230530e-02 2.732983231544494629e-02 2.059164643287658691e-02
-5.705733224749565125e-02 3.247997462749481201e-01 -4.695319104939699173e-03
-7.769088447093963623e-02 2.318775057792663574e-01 -2.014065720140933990e-02
-6.327575445175170898e-02 2.932905554771423340e-01 -1.524053886532783508e-02
1.566577889025211334e-02 1.132559925317764282e-01 3.094647452235221863e-02
-7.074017822742462158e-02 8.394728600978851318e-02 3.113673627376556396e-02
-1.087943166494369507e-01 -3.832876682281494141e-03 3.782412095461040735e-04
1.324189305305480957e-01 1.665090322494506836e-01 7.508726790547370911e-03
4.791102930903434753e-02 3.144924044609069824e-01 -2.641838788986206055e-02
1.250780075788497925e-01 2.162475734949111938e-01 -2.426642924547195435e-02
6.724432855844497681e-02 1.047113537788391113e-02 -1.304306928068399429e-02
-1.313946954905986786e-02 1.506222188472747803e-01 -3.125750273466110229e-02
-5.940600857138633728e-02 8.071163296699523926e-02 -2.351853437721729279e-02
5.265917256474494934e-02 2.231934070587158203e-01 -3.297569602727890015e-02
-4.180115833878517151e-02 -3.943458199501037598e-03 2.572514303028583527e-02
-9.871608577668666840e-03 -4.497592151165008545e-02 1.426949165761470795e-02
5.999295040965080261e-02 1.237475574016571045e-01 -3.053089231252670288e-02
-2.420234680175781250e-02 3.142725825309753418e-01 -2.059085667133331299e-02
1.129193231463432312e-01 2.295498102903366089e-01 -2.696263231337070465e-02
2.757558226585388184e-02 8.183912932872772217e-02 2.897369489073753357e-02
-1.390652656555175781e-01 1.444701999425888062e-01 -3.674211038742214441e-04
-5.663743242621421814e-02 1.875321716070175171e-01 2.970721758902072906e-02
2.972022816538810730e-02 1.625702381134033203e-01 2.958244644105434418e-02
1.601114869117736816e-02 8.001199364662170410e-02 -2.854947745800018311e-02
1.876950263977050781e-02 2.049324363470077515e-01 -3.313671052455902100e-02
5.181170254945755005e-02 2.636801600456237793e-01 2.134659700095653534e-02
-1.790392026305198669e-02 2.001679837703704834e-01 3.013193048536777496e-02
-1.018879786133766174e-01 1.810701489448547363e-01 -1.679471507668495178e-02
-6.881733238697052002e-02 5.343154072761535645e-02 3.014846146106719971e-02
-6.306765973567962646e-02 1.640074849128723145e-01 -2.579053491353988647e-02
-1.912995055317878723e-02 2.935146093368530273e-01 1.977215334773063660e-02
2.713467180728912354e-02 1.447328180074691772e-01 -3.252420201897621155e-02
-1.267426554113626480e-02 2.585373520851135254e-01 2.500691823661327362e-02
-1.058060228824615479e-01 2.029410004615783691e-02 -7.199679035693407059e-03
1.203389167785644531e-01 1.592728197574615479e-01 1.247163210064172745e-02
-5.534547939896583557e-02 -4.256589710712432861e-02 1.610318385064601898e-02
-2.466067671775817871e-03 -2.799433469772338867e-02 1.914556138217449188e-02
-1.875784993171691895e-02 -4.035469889640808105e-02 -7.032953668385744095e-03
-8.240541815757751465e-02 1.513135135173797607e-01 2.933207154273986816e-02
-8.215360343456268311e-02 2.034031450748443604e-01 -2.103779651224613190e-02
-1.300195604562759399e-01 3.995567560195922852e-02 1.562547124922275543e-02
-5.237658321857452393e-02 2.869650423526763916e-01 -1.956301368772983551e-02
-3.310621529817581177e-02 1.122240051627159119e-01 -2.832839824259281158e-02
1.703647896647453308e-02 3.098995983600616455e-02 -2.293789200484752655e-02
-6.832061335444450378e-04 1.635591983795166016e-01 -3.224817290902137756e-02
1.311348974704742432e-01 1.963877528905868530e-01 -2.223728410899639130e-02
2.114535775035619736e-03 2.562614083290100098e-01 2.520940266549587250e-02
-6.131691485643386841e-02 2.887350320816040039e-01 1.585009507834911346e-02
1.308223456144332886e-01 1.524235606193542480e-01 -1.987372152507305145e-02
-2.502144500613212585e-02 1.163214743137359619e-01 3.272991999983787537e-02
1.223533898591995239e-01 3.060269355773925781e-01 -3.917211666703224182e-03
1.342133879661560059e-01 2.717698812484741211e-01 -1.389851793646812439e-03
8.490647375583648682e-02 3.278217911720275879e-01 5.470097530633211136e-03
8.414853364229202271e-02 3.376421332359313965e-02 1.237226650118827820e-02
-7.108222693204879761e-02 5.194211006164550781e-02 -1.935661584138870239e-02
-6.036631762981414795e-03 3.226501941680908203e-01 1.433120574802160263e-02
-3.510338440537452698e-02 8.583888411521911621e-03 -1.807969436049461365e-02
9.174250811338424683e-02 1.825158894062042236e-01 2.027982100844383240e-02
1.123062372207641602e-01 2.817062735557556152e-01 -2.364620193839073181e-02
-9.871554374694824219e-02 -2.566494047641754150e-02 8.509057573974132538e-03
1.235460638999938965e-01 1.281380057334899902e-01 9.682680480182170868e-03
-6.658560037612915039e-02 3.041713833808898926e-01 -1.074901781976222992e-02
-1.309067159891128540e-01 1.382673829793930054e-01 -6.699848920106887817e-03
1.261198818683624268e-01 1.125186309218406677e-01 6.635937374085187912e-03
-1.098806783556938171e-01 -9.661316871643066406e-04 1.650976762175559998e-02
-6.161658465862274170e-02 1.639155596494674683e-01 3.068268857896327972e-02
4.622292518615722656e-02 -2.388174831867218018e-02 -4.733513109385967255e-03
-3.977319225668907166e-02 2.877177596092224121e-01 -2.217011712491512299e-02
3.771886229515075684e-02 3.366332054138183594e-01 1.031818334013223648e-02
7.511411607265472412e-02 2.986006140708923340e-01 -2.730891853570938110e-02
-3.332029283046722412e-02 8.912355452775955200e-02 -2.699331007897853851e-02
2.734814211726188660e-02 2.145546823740005493e-01 2.759155817329883575e-02
-8.533601462841033936e-02 1.742001175880432129e-01 2.770479582250118256e-02
8.525940775871276855e-02 3.417011499404907227e-01 4.671558563131839037e-04
-6.485736370086669922e-02 6.362582743167877197e-02 -2.140862308442592621e-02
8.381636440753936768e-02 2.695100903511047363e-01 1.608551666140556335e-02
1.660842634737491608e-02 1.757763624191284180e-01 3.018834255635738373e-02
6.969781219959259033e-02 2.693276107311248779e-01 1.845467276871204376e-02
-2.815050259232521057e-02 2.211781442165374756e-01 2.848367206752300262e-02
8.694364130496978760e-02 1.052286922931671143e-01 2.019938454031944275e-02
3.853337839245796204e-02 3.923302143812179565e-02 2.450266666710376740e-02
6.152430921792984009e-02 1.509534418582916260e-01 -3.186472877860069275e-02
7.910110801458358765e-02 5.306838452816009521e-02 1.747753843665122986e-02
1.095485240221023560e-01 5.691505968570709229e-02 4.811565391719341278e-03
-6.698341108858585358e-03 2.044159770011901855e-01 2.975487522780895233e-02
-1.230516955256462097e-01 1.113961637020111084e-02 1.134304888546466827e-02
-9.726814925670623779e-03 3.072406053543090820e-01 1.759304478764533997e-02
-1.168506592512130737e-01 7.255530357360839844e-02 2.400772646069526672e-02
2.727492153644561768e-02 2.112846076488494873e-02 2.410243637859821320e-02
-4.059069789946079254e-03 3.386445641517639160e-01 9.881932288408279419e-03
-6.497770547866821289e-02 2.591668367385864258e-01 -2.045930363237857819e-02
7.816954702138900757e-02 2.344973385334014893e-01 -3.142836317420005798e-02
1.062266975641250610e-01 1.645308434963226318e-01 1.697462052106857300e-02
4.073359072208404541e-02 3.492722511291503906e-01 -1.902530342340469360e-02
1.316624786704778671e-02 4.086727648973464966e-02 2.784385718405246735e-02
-8.694902807474136353e-02 2.813747525215148926e-01 9.611874818801879883e-03
-7.795086503028869629e-02 7.301275432109832764e-02 3.026979602873325348e-02
2.225494384765625000e-02 2.521421313285827637e-01 2.490306459367275238e-02
7.535546272993087769e-02 1.337464153766632080e-01 -2.993057295680046082e-02
-9.235035628080368042e-02 -1.445704698562622070e-02 1.881147548556327820e-02
-6.392703205347061157e-02 2.426389157772064209e-01 2.372991479933261871e-02
-1.769494265317916870e-02 1.608583182096481323e-01 3.196247667074203491e-02
3.374986350536346436e-03 9.430643916130065918e-02 3.143119066953659058e-02
1.031311154365539551e-01 2.153753340244293213e-01 -2.892950735986232758e-02
3.823048993945121765e-02 3.072177171707153320e-01 -2.738629840314388275e-02
-5.759974010288715363e-03 1.496331989765167236e-01 3.197823092341423035e-02
1.006255149841308594e-01 9.663434326648712158e-02 1.579651050269603729e-02
1.468500792980194092e-01 2.114354819059371948e-01 -1.298033259809017181e-02
1.133377011865377426e-02 1.931470036506652832e-01 -3.296956047415733337e-02
-9.643214941024780273e-02 1.140053495764732361e-01 2.851046249270439148e-02
-6.898229569196701050e-02 -2.384620904922485352e-02 2.063842117786407471e-02
-3.856458142399787903e-02 2.368916869163513184e-01 -2.730076014995574951e-02
2.650542184710502625e-02 6.321249902248382568e-02 -2.680479921400547028e-02
9.423065185546875000e-02 3.159978389739990234e-01 -2.225417084991931915e-02
-6.213306635618209839e-02 1.479229480028152466e-01 -2.585633471608161926e-02
-3.229379653930664062e-02 3.420222699642181396e-01 2.737274160608649254e-03
-1.297399550676345825e-01 7.163886725902557373e-02 1.958333142101764679e-02
-3.774673119187355042e-02 -3.772455453872680664e-02 1.863547787070274353e-02
-1.126616597175598145e-01 3.908804804086685181e-02 -7.917925715446472168e-03
-4.704266786575317383e-02 2.553253471851348877e-01 2.380540594458580017e-02
-3.990937769412994385e-02 8.815472573041915894e-02 3.243405371904373169e-02
1.169027015566825867e-02 2.274710834026336670e-01 2.758131176233291626e-02
4.139777645468711853e-02 1.571498811244964600e-02 2.097296714782714844e-02
-9.279982000589370728e-02 2.340900897979736328e-01 -1.544269360601902008e-02
1.862670108675956726e-02 2.705748677253723145e-01 2.306712418794631958e-02
-4.771456867456436157e-02 1.640080809593200684e-01 3.143957629799842834e-02
-9.062917530536651611e-02 4.900774359703063965e-02 2.777164243161678314e-02
2.975403144955635071e-02 1.863169670104980469e-02 -2.040874026715755463e-02
-1.783171668648719788e-02 2.552436292171478271e-02 2.867153473198413849e-02
-1.926898211240768433e-02 1.624149084091186523e-01 -3.100595809519290924e-02
-2.886525914072990417e-02 8.096460998058319092e-02 3.224373236298561096e-02
1.248616948723793030e-01 2.590310573577880859e-01 6.032387260347604752e-03
-7.635921239852905273e-02 2.481803447008132935e-01 2.100767940282821655e-02
5.442012101411819458e-02 2.806362509727478027e-01 -3.009731508791446686e-02
-9.170882403850555420e-02 1.871951073408126831e-01 -1.941245049238204956e-02
-2.530592028051614761e-04 7.531100511550903320e-02 -2.788053080439567566e-02
5.997838452458381653e-02 5.618427693843841553e-02 -2.380983904004096985e-02
7.621049880981445312e-02 2.013225257396697998e-01 2.259832061827182770e-02
-2.808395400643348694e-02 1.325384080410003662e-01 3.265557810664176941e-02
5.224256962537765503e-02 2.460778504610061646e-01 2.300175465643405914e-02
8.126848191022872925e-02 2.454783022403717041e-01 1.894824020564556122e-02
1.435285061597824097e-01 2.123293280601501465e-01 2.513908839318901300e-04
2.856120467185974121e-02 2.526459097862243652e-01 -3.191186115145683289e-02
9.075619280338287354e-02 8.169264346361160278e-02 1.743067242205142975e-02
3.544091805815696716e-02 8.153665065765380859e-02 -2.840325608849525452e-02
-1.581004261970520020e-02 8.292883634567260742e-03 2.670664526522159576e-02
1.776306703686714172e-02 -2.026174962520599365e-02 1.814401708543300629e-02
-5.843289941549301147e-02 1.321624517440795898e-01 -2.610622905194759369e-02
-3.562564961612224579e-05 1.873923391103744507e-01 -3.244391828775405884e-02
8.665974438190460205e-02 1.207044422626495361e-01 -2.768827229738235474e-02
8.232587575912475586e-02 1.571208238601684570e-01 2.249443344771862030e-02
2.902867645025253296e-02 3.218970298767089844e-01 -2.496652118861675262e-02
3.172483667731285095e-02 -1.192812621593475342e-02 -1.327321585267782211e-02
1.375314407050609589e-02 3.053705692291259766e-01 1.811746135354042053e-02
-5.082844197750091553e-02 1.881592571735382080e-01 -2.742636576294898987e-02
7.448618859052658081e-02 2.822796702384948730e-01 -2.902223728597164154e-02
-9.204944968223571777e-02 1.179078221321105957e-02 -9.730061516165733337e-03
8.706576377153396606e-02 8.029034733772277832e-02 -2.326436340808868408e-02
-1.127838389948010445e-03 6.327986717224121094e-02 -2.674641832709312439e-02
-4.317616671323776245e-02 6.650590896606445312e-02 3.173063695430755615e-02
3.981423750519752502e-02 1.816292554140090942e-01 2.811714075505733490e-02
-5.694495886564254761e-02 8.807563036680221558e-02 3.199787437915802002e-02
-3.912061080336570740e-02 -5.536799132823944092e-02 4.151088651269674301e-03
-9.633096307516098022e-02 1.694742590188980103e-01 2.630384266376495361e-02
-1.283122878521680832e-02 8.056826144456863403e-02 3.183662891387939453e-02
-3.973654657602310181e-02 1.590675115585327148e-01 -2.897912450134754181e-02
5.624832585453987122e-02 3.112280368804931641e-02 -2.014608494937419891e-02
5.795285105705261230e-02 3.528964519500732422e-01 2.515276428312063217e-03
-9.829334914684295654e-02 4.747739434242248535e-02 -1.333099883049726486e-02
1.117102056741714478e-01 9.294019639492034912e-02 -1.900558173656463623e-02
-1.295822560787200928e-01 1.863301098346710205e-01 1.321520470082759857e-02
4.399726167321205139e-02 2.710607945919036865e-01 -3.095836006104946136e-02
7.407358288764953613e-02 -2.665245532989501953e-01 -1.421237364411354065e-02
1.309039890766143799e-01 -1.810246258974075317e-01 -1.304353773593902588e-02
-2.440597862005233765e-03 7.363386452198028564e-02 2.201530896127223969e-02
-6.335491687059402466e-02 -5.186324194073677063e-02 -2.049982547760009766e-02
-4.578048363327980042e-03 -3.516867384314537048e-02 2.839953079819679260e-02
1.873291432857513428e-01 -9.017944335937500000e-02 3.195986617356538773e-03
1.231864839792251587e-02 1.193217337131500244e-01 -1.223228778690099716e-02
6.278761476278305054e-02 -2.280026376247406006e-01 2.527237311005592346e-02
1.351591795682907104e-01 -9.716210514307022095e-02 2.424999698996543884e-02
-1.014056615531444550e-02 -1.945494413375854492e-01 2.746675722301006317e-02
1.225114241242408752e-01 2.282603830099105835e-02 -1.600836589932441711e-02
-8.657203987240791321e-03 1.111683845520019531e-01 1.654025539755821228e-02
7.705487310886383057e-02 -1.574979424476623535e-01 2.815964818000793457e-02
8.899214118719100952e-02 -1.056417822837829590e-01 2.867805399000644684e-02
-9.586235880851745605e-02 3.212398290634155273e-02 -6.428859196603298187e-03
5.671662092208862305e-02 -3.400122746825218201e-02 -2.326210774481296539e-02
1.138190180063247681e-02 -9.500967711210250854e-02 -2.486218325793743134e-02
8.651874959468841553e-04 -8.436675369739532471e-02 2.954688481986522675e-02
1.054038107395172119e-01 1.061521619558334351e-01 1.862512528896331787e-02
1.375021338462829590e-01 7.567730545997619629e-02 -9.556552395224571228e-03
1.605590283870697021e-01 -1.295021027326583862e-01 -9.105101227760314941e-03
1.534074693918228149e-01 -1.751524209976196289e-01 -7.657343521714210510e-03
5.898567289113998413e-02 1.080011874437332153e-01 2.064124867320060730e-02
8.162584155797958374e-02 -2.182064354419708252e-01 2.467886917293071747e-02
4.991330578923225403e-02 -3.111844956874847412e-01 1.670680381357669830e-02
1.618128567934036255e-01 6.623844802379608154e-02 1.275210641324520111e-02
9.310156852006912231e-02 5.052906274795532227e-02 -1.755630597472190857e-02
1.550082955509424210e-02 -1.132316887378692627e-01 -2.481897920370101929e-02
9.097333252429962158e-02 6.796294450759887695e-02 -1.645465381443500519e-02
-3.047987632453441620e-02 5.990394949913024902e-02 2.054658904671669006e-02
-9.297946840524673462e-02 1.399712264537811279e-02 -1.069349981844425201e-02
-8.604984730482101440e-02 -2.567885220050811768e-01 1.654866710305213928e-02
3.336755558848381042e-03 4.019859433174133301e-02 2.521395310759544373e-02
-1.464466564357280731e-02 8.848370611667633057e-02 1.915722712874412537e-02
5.988635867834091187e-02 1.279322057962417603e-01 -1.144799683243036270e-02
1.102406904101371765e-01 -6.967656314373016357e-03 2.634087577462196350e-02
-1.963426358997821808e-02 1.220566183328628540e-01 1.260255929082632065e-02
-7.027329504489898682e-02 -2.052307128906250000e-02 2.120684832334518433e-02
3.550031781196594238e-02 -2.623850405216217041e-01 2.364328689873218536e-02
1.843924373388290405e-01 -1.069732904434204102e-01 1.413863035850226879e-03
9.448076784610748291e-02 1.481218636035919189e-02 2.663806267082691193e-02
1.167472153902053833e-01 1.348290145397186279e-01 1.156333088874816895e-02
1.476238388568162918e-02 -1.492780148983001709e-01 2.950578555464744568e-02
2.554772794246673584e-02 -2.755752205848693848e-01 2.261352166533470154e-02
-1.170339286327362061e-01 -2.442123889923095703e-01 -7.701823487877845764e-03
-1.007438153028488159e-01 -1.632518470287322998e-01 1.870969496667385101e-02
-1.978226937353610992e-02 4.898732900619506836e-02 -1.844292134046554565e-02
2.695079520344734192e-02 5.332514643669128418e-02 -1.983328908681869507e-02
-1.142732501029968262e-01 -9.447550773620605469e-02 1.514324173331260681e-02
4.158506914973258972e-02 -1.579952389001846313e-01 2.934492938220500946e-02
6.523235142230987549e-02 -2.765830159187316895e-01 2.049089036881923676e-02
-3.258536756038665771e-02 -1.178640127182006836e-02 2.548514679074287415e-02
-3.383765369653701782e-02 -3.320825695991516113e-01 1.325845252722501755e-02
-5.957090854644775391e-02 -2.528415322303771973e-01 -1.750436425209045410e-02
1.567281931638717651e-01 3.578308224678039551e-02 -8.821098133921623230e-03
5.888812988996505737e-02 -7.223203033208847046e-02 3.001090884208679199e-02
1.158330217003822327e-01 -6.359034776687622070e-02 2.679780125617980957e-02
7.652081549167633057e-03 -2.329854667186737061e-01 -2.106449939310550690e-02
1.444213092327117920e-01 -1.634619086980819702e-01 -1.128562353551387787e-02
7.604801654815673828e-02 1.498586684465408325e-01 1.290486287325620651e-02
-1.895658113062381744e-02 -1.190998107194900513e-01 2.864867262542247772e-02
9.315805509686470032e-03 -3.052253723144531250e-01 -1.434460468590259552e-02
6.397203356027603149e-02 -1.655087918043136597e-01 -2.208785712718963623e-02
-5.278316140174865723e-02 -2.343762069940567017e-01 -1.930486224591732025e-02
1.006113067269325256e-01 -6.976222246885299683e-02 -2.071204781532287598e-02
1.829875558614730835e-01 -5.804448947310447693e-02 1.248755026608705521e-02
-8.855501189827919006e-03 -2.536140978336334229e-01 -1.969228126108646393e-02
1.376112699508666992e-01 1.056153029203414917e-01 1.345722656697034836e-02
2.903196215629577637e-02 -3.066695332527160645e-01 1.874577999114990234e-02
7.890336215496063232e-02 1.590983569622039795e-02 2.733117155730724335e-02
4.182580858469009399e-02 -2.358980476856231689e-02 -2.346611581742763519e-02
1.886166781187057495e-01 -7.163038849830627441e-02 2.796656917780637741e-03
7.510390877723693848e-02 -2.326204329729080200e-01 -1.740193180739879608e-02
9.055937640368938446e-03 1.444451361894607544e-01 -6.536590866744518280e-03
9.083044528961181641e-02 -1.780668497085571289e-01 -1.924837939441204071e-02
-2.397819794714450836e-02 -2.390819042921066284e-01 2.456467598676681519e-02
2.272396162152290344e-02 -8.510646969079971313e-02 -2.477942593395709991e-02
1.325976699590682983e-01 -1.847479939460754395e-01 2.057701535522937775e-02
-7.759911566972732544e-02 4.718177020549774170e-03 1.805947348475456238e-02
-5.567454546689987183e-02 -1.816652119159698486e-01 2.478841692209243774e-02
8.163654059171676636e-02 -2.487550973892211914e-01 2.204889245331287384e-02
-9.248673915863037109e-02 -2.070131152868270874e-01 1.881941407918930054e-02
-4.116950929164886475e-02 -2.398934364318847656e-01 2.337617799639701843e-02
-2.050319872796535492e-02 -2.141517698764801025e-01 -2.190711908042430878e-02
8.458929508924484253e-02 -2.914237976074218750e-01 -8.870326913893222809e-03
7.110905647277832031e-02 -3.237851858139038086e-01 1.024028193205595016e-02
-7.528208196163177490e-02 -1.262653172016143799e-01 2.332460135221481323e-02
2.832728438079357147e-02 -3.266751170158386230e-01 -9.855321608483791351e-03
1.501333862543106079e-01 5.254097282886505127e-02 -9.073479101061820984e-03
-1.109801046550273895e-02 3.520971536636352539e-02 -2.004706859588623047e-02
-4.276717454195022583e-02 -4.787784814834594727e-02 2.591727860271930695e-02
-7.849601656198501587e-02 -2.174667268991470337e-01 -1.783595792949199677e-02
5.709053575992584229e-02 -1.574300825595855713e-01 2.902170456945896149e-02
-2.011486701667308807e-02 1.236129701137542725e-01 -7.793444208800792694e-03
4.554020613431930542e-02 5.559064447879791260e-02 2.554888278245925903e-02
-1.073769778013229370e-01 -1.066944152116775513e-01 1.728975586593151093e-02
7.436612248420715332e-02 6.007942557334899902e-02 -1.818698644638061523e-02
6.501814350485801697e-03 -2.114653140306472778e-01 -2.227281220257282257e-02
8.738844841718673706e-02 -2.855622172355651855e-01 1.639009639620780945e-02
8.901610225439071655e-02 -2.647802233695983887e-01 1.932444237172603607e-02
2.489717677235603333e-02 1.149152666330337524e-01 1.892340555787086487e-02
1.711723059415817261e-01 -7.309075444936752319e-02 1.709167659282684326e-02
1.650354415178298950e-01 -1.137609183788299561e-01 -8.553428575396537781e-03
2.312320657074451447e-02 -1.022805050015449524e-01 3.017846308648586273e-02
1.739051342010498047e-01 1.356586813926696777e-03 -5.648148246109485626e-03
1.262326687574386597e-01 7.803694903850555420e-02 1.946500502526760101e-02
7.206141203641891479e-02 -1.052289456129074097e-01 2.954217977821826935e-02
1.022306904196739197e-01 1.507709920406341553e-01 -1.805363921448588371e-03
1.258781552314758301e-01 -7.308331131935119629e-02 2.572182752192020416e-02
1.727104932069778442e-01 -3.842810541391372681e-02 -7.442313246428966522e-03
-7.096238434314727783e-02 -1.579747349023818970e-01 -2.066740952432155609e-02
7.745372503995895386e-02 -2.130064964294433594e-01 -1.860926486551761627e-02
-1.194714307785034180e-01 -5.311463400721549988e-02 1.090739294886589050e-02
2.148039825260639191e-02 -2.348167151212692261e-01 2.598642930388450623e-02
-2.981085143983364105e-02 -1.981458663940429688e-01 -2.231815829873085022e-02
1.228545531630516052e-01 -7.267354428768157959e-02 -1.811193302273750305e-02
1.097655370831489563e-01 -2.671055197715759277e-01 -7.520440034568309784e-03
-2.722548879683017731e-02 -2.547353506088256836e-01 -1.924356818199157715e-02
7.359942793846130371e-02 -1.410487592220306396e-01 -2.216188423335552216e-02
-5.913543701171875000e-02 2.025850117206573486e-02 2.013393118977546692e-02
7.493112236261367798e-03 -1.253271549940109253e-01 2.971483767032623291e-02
1.751944124698638916e-01 2.616111934185028076e-02 1.236888766288757324e-02
-1.521123759448528290e-02 -7.178503274917602539e-02 2.861829847097396851e-02
9.044726938009262085e-02 1.303226053714752197e-01 1.619538478553295135e-02
1.489185094833374023e-01 -1.942887008190155029e-01 1.553190220147371292e-02
1.200495287775993347e-01 -2.447173595428466797e-01 -8.594024926424026489e-03
6.311597675085067749e-02 -1.207744330167770386e-02 -2.239942923188209534e-02
1.103334724903106689e-01 3.595687448978424072e-02 -1.678994856774806976e-02
-9.939939528703689575e-02 -9.360358119010925293e-03 1.387023553252220154e-02
1.501180231571197510e-01 9.924431145191192627e-02 -1.953207189217209816e-03
1.491505801677703857e-01 9.601500630378723145e-02 1.186440419405698776e-02
-9.304719045758247375e-03 1.370969414710998535e-01 1.054277364164590836e-02
-1.191093027591705322e-01 -2.672756463289260864e-02 -5.953561514616012573e-03
5.947166681289672852e-02 1.672699451446533203e-01 6.405888125300407410e-03
-4.280481487512588501e-02 -1.922784447669982910e-01 2.560258470475673676e-02
-2.995492890477180481e-03 -5.855620279908180237e-02 -2.432293817400932312e-02
7.599569857120513916e-02 5.030293762683868408e-02 2.554953098297119141e-02
-8.640682697296142578e-02 -2.231462299823760986e-01 1.901644840836524963e-02
-8.076202869415283203e-02 -2.389138340950012207e-01 -1.623313501477241516e-02
-4.339828342199325562e-02 -1.076922565698623657e-01 -2.321138232946395874e-02
-6.770594045519828796e-03 1.352899223566055298e-01 -6.954741664230823517e-03
-4.666975140571594238e-02 -5.567370355129241943e-02 -2.215809002518653870e-02
1.443520486354827881e-01 -2.191319167613983154e-01 -4.734003916382789612e-03
-6.055936217308044434e-03 -1.809229105710983276e-01 2.811104804277420044e-02
-3.599209338426589966e-02 6.082266569137573242e-02 -1.582695916295051575e-02
2.236216887831687927e-02 -1.961741596460342407e-01 2.808295935392379761e-02
-5.138048529624938965e-02 -1.472190767526626587e-02 -2.010445296764373779e-02
-5.945213139057159424e-03 1.512478888034820557e-01 1.399242202751338482e-03
1.227354854345321655e-01 7.650691270828247070e-02 -1.210077200084924698e-02
-7.073577493429183960e-02 -2.775909006595611572e-01 -1.407766900956630707e-02
-2.161291055381298065e-02 -5.795761942863464355e-02 -2.371436916291713715e-02
-3.182689100503921509e-02 -8.788082003593444824e-02 -2.372801490128040314e-02
1.897898688912391663e-02 3.837276995182037354e-02 2.609487250447273254e-02
4.309914261102676392e-02 -5.044626444578170776e-02 2.994576655328273773e-02
2.521280199289321899e-03 -3.369673490524291992e-01 1.385310478508472443e-02
-1.282659322023391724e-01 -1.818598657846450806e-01 -8.748519234359264374e-03
2.950828894972801208e-02 1.159616559743881226e-01 -1.341290958225727081e-02
-2.057055942714214325e-02 -1.806146502494812012e-01 -2.323371544480323792e-02
1.018048971891403198e-01 9.255452454090118408e-02 2.058925293385982513e-02
2.225627191364765167e-02 6.319653987884521484e-02 2.441767044365406036e-02
5.147750303149223328e-02 -9.546692669391632080e-02 3.017384745180606842e-02
2.862532436847686768e-02 -1.022510528564453125e-01 -2.471386082470417023e-02
-6.733699887990951538e-02 -9.880940616130828857e-02 2.423255704343318939e-02
2.172373235225677490e-03 1.074067056179046631e-01 -1.343731023371219635e-02
-9.838031232357025146e-02 -8.800590038299560547e-02 -1.664137281477451324e-02
-4.898546636104583740e-02 3.647099435329437256e-02 -1.673450134694576263e-02
1.068177297711372375e-01 1.151065379381179810e-01 -9.606074541807174683e-03
1.136393621563911438e-01 -1.859304308891296387e-01 -1.581754535436630249e-02
6.724655628204345703e-02 1.518753319978713989e-01 -6.177348084747791290e-03
6.724531203508377075e-02 -8.174367994070053101e-02 -2.329951710999011993e-02
1.025952473282814026e-01 -8.451076596975326538e-02 2.792090736329555511e-02
2.673516981303691864e-02 -2.663024067878723145e-01 -1.804218627512454987e-02
8.206422626972198486e-02 -3.206335306167602539e-01 -6.384723819792270660e-04
7.431288063526153564e-02 1.012915670871734619e-01 -1.440918631851673126e-02
2.499046362936496735e-02 -3.507733345031738281e-04 2.831044048070907593e-02
-1.360118091106414795e-01 -8.732714504003524780e-02 3.331907093524932861e-03
-7.481037080287933350e-02 -1.959855705499649048e-01 2.206927537918090820e-02
-5.123424530029296875e-02 1.115639507770538330e-01 4.976273514330387115e-03
1.013377383351325989e-01 -1.165403053164482117e-01 2.761662937700748444e-02
1.715275347232818604e-01 -6.734854727983474731e-02 -7.855510339140892029e-03
-4.228614270687103271e-02 -2.586779594421386719e-01 -1.827650330960750580e-02
1.475354731082916260e-01 1.134057492017745972e-01 5.874777212738990784e-03
-1.248517930507659912e-01 -1.385276317596435547e-01 1.250304002314805984e-02
4.924903810024261475e-02 2.782008796930313110e-02 2.728933095932006836e-02
5.883987993001937866e-03 -2.775959372520446777e-01 2.248737215995788574e-02
7.372383028268814087e-02 -1.733247637748718262e-01 2.774019353091716766e-02
1.427799910306930542e-01 8.217500150203704834e-02 1.605824753642082214e-02
-9.716755896806716919e-02 -3.362486883997917175e-02 1.660313457250595093e-02
-2.783338911831378937e-02 -3.020070493221282959e-01 -1.458940282464027405e-02
-1.256374828517436981e-02 -3.367124795913696289e-01 1.362922508269548416e-02
1.316047161817550659e-01 -1.668090522289276123e-01 2.204572595655918121e-02
