-4.288403391838073730e-01 -2.871878743171691895e-01 5.756368637084960938e-01
-4.519735276699066162e-01 -4.873802959918975830e-01 6.359159946441650391e-01
-4.018949568271636963e-01 -4.370747208595275879e-01 5.235878229141235352e-01
-4.635670781135559082e-01 -4.038752615451812744e-01 5.205800533294677734e-01
-4.375722706317901611e-01 -4.712509214878082275e-01 6.293300390243530273e-01
-4.290427863597869873e-01 -4.067234098911285400e-01 6.195414662361145020e-01
-4.464667737483978271e-01 -4.942050874233245850e-01 6.333757638931274414e-01
-4.663563072681427002e-01 -3.018363416194915771e-01 5.480954647064208984e-01
-3.981274664402008057e-01 -4.047949016094207764e-01 5.777987837791442871e-01
-4.326908886432647705e-01 -4.817007780075073242e-01 6.256301403045654297e-01
-4.055291414260864258e-01 -3.139564096927642822e-01 5.400140285491943359e-01
-4.077302217483520508e-01 -3.063464164733886719e-01 5.500414967536926270e-01
-4.483790993690490723e-01 -3.520651757717132568e-01 6.175569891929626465e-01
-4.279398620128631592e-01 -4.153766036033630371e-01 5.079604983329772949e-01
-4.416154026985168457e-01 -3.720476925373077393e-01 6.205925941467285156e-01
-4.242409765720367432e-01 -5.562073588371276855e-01 5.501844286918640137e-01
-4.434244632720947266e-01 -2.730131745338439941e-01 5.509028434753417969e-01
-4.623790383338928223e-01 -4.572390019893646240e-01 5.227492451667785645e-01
-4.340724945068359375e-01 -3.033409714698791504e-01 5.913518071174621582e-01
-4.712614119052886963e-01 -4.412343204021453857e-01 6.365280151367187500e-01
-4.518266320228576660e-01 -5.332663655281066895e-01 5.346607565879821777e-01
-4.392483532428741455e-01 -5.414001345634460449e-01 6.220375299453735352e-01
-4.809668958187103271e-01 -5.754013061523437500e-01 6.091418266296386719e-01
-4.678756594657897949e-01 -4.583383798599243164e-01 6.381067633628845215e-01
-4.222026169300079346e-01 -3.535923659801483154e-01 5.100727081298828125e-01
-4.697853326797485352e-01 -5.579839348793029785e-01 5.558711886405944824e-01
-4.799985885620117188e-01 -4.605900347232818604e-01 6.356647014617919922e-01
-4.637245237827301025e-01 -5.932288169860839844e-01 5.787892341613769531e-01
-4.003592431545257568e-01 -3.456306755542755127e-01 5.303868055343627930e-01
-4.811042249202728271e-01 -3.282856345176696777e-01 5.613386034965515137e-01
-4.745813012123107910e-01 -3.531485199928283691e-01 6.150715351104736328e-01
-4.312162697315216064e-01 -5.604861378669738770e-01 5.478013753890991211e-01
-4.992363154888153076e-01 -5.107141733169555664e-01 5.904635190963745117e-01
-4.135871529579162598e-01 -4.231719672679901123e-01 5.119959712028503418e-01
-4.592147469520568848e-01 -4.150732457637786865e-01 5.176270604133605957e-01
-4.653424620628356934e-01 -2.899637222290039062e-01 5.657438039779663086e-01
-4.426808953285217285e-01 -2.720596790313720703e-01 5.602177977561950684e-01
-4.805625677108764648e-01 -3.468230366706848145e-01 6.069507598876953125e-01
-4.455311894416809082e-01 -5.797551274299621582e-01 5.579073429107666016e-01
-4.841585159301757812e-01 -3.401585221290588379e-01 5.961689352989196777e-01
-4.926278591156005859e-01 -5.488711595535278320e-01 5.971392989158630371e-01
-4.254330396652221680e-01 -3.103018403053283691e-01 5.885661244392395020e-01
-4.979963898658752441e-01 -5.192136168479919434e-01 6.077378988265991211e-01
-4.130581617355346680e-01 -3.138617873191833496e-01 5.748538374900817871e-01
-4.747720062732696533e-01 -3.114819228649139404e-01 5.862997770309448242e-01
-4.881801307201385498e-01 -3.709909617900848389e-01 6.094442605972290039e-01
-4.184168577194213867e-01 -3.807717561721801758e-01 5.088744759559631348e-01
-4.834055304527282715e-01 -4.955308139324188232e-01 6.341236829757690430e-01
-4.798707962036132812e-01 -5.383554697036743164e-01 5.577786564826965332e-01
-4.708314239978790283e-01 -5.879853963851928711e-01 6.084654927253723145e-01
-4.462318122386932373e-01 -2.977747321128845215e-01 5.287344455718994141e-01
-4.423042237758636475e-01 -5.684980750083923340e-01 6.147010326385498047e-01
-4.840177297592163086e-01 -5.050436854362487793e-01 6.330447793006896973e-01
-4.052811264991760254e-01 -5.040952563285827637e-01 5.832791328430175781e-01
-4.935761690139770508e-01 -3.813622891902923584e-01 5.673384070396423340e-01
-4.280190169811248779e-01 -4.069150388240814209e-01 5.075627565383911133e-01
-4.113317430019378662e-01 -4.461404681205749512e-01 6.042458415031433105e-01
-4.097752273082733154e-01 -4.647440016269683838e-01 5.211915373802185059e-01
-4.599089622497558594e-01 -3.187952041625976562e-01 5.305216908454895020e-01
-4.005736112594604492e-01 -3.866366744041442871e-01 5.218018889427185059e-01
-4.181456863880157471e-01 -2.866380214691162109e-01 5.558536648750305176e-01
-4.773173928260803223e-01 -4.198673367500305176e-01 6.322110891342163086e-01
-4.112657308578491211e-01 -5.383900403976440430e-01 5.592209100723266602e-01
-4.524372518062591553e-01 -5.113890171051025391e-01 5.280030965805053711e-01
-3.950382471084594727e-01 -4.219444990158081055e-01 5.348390340805053711e-01
-4.430732429027557373e-01 -5.360159873962402344e-01 5.335844159126281738e-01
-4.512087106704711914e-01 -5.027213096618652344e-01 5.252534747123718262e-01
-4.625613987445831299e-01 -4.676936566829681396e-01 5.242682695388793945e-01
-4.966434240341186523e-01 -5.012325644493103027e-01 5.748376846313476562e-01
-4.647899866104125977e-01 -5.413242578506469727e-01 6.323403120040893555e-01
-4.788609445095062256e-01 -5.603482723236083984e-01 5.677421092987060547e-01
-3.968142569065093994e-01 -3.530325293540954590e-01 5.405157208442687988e-01
-4.971491396427154541e-01 -4.157831072807312012e-01 5.685807466506958008e-01
-4.546075463294982910e-01 -5.309045910835266113e-01 6.324359774589538574e-01
-4.937729835510253906e-01 -3.687185943126678467e-01 5.899127125740051270e-01
-4.591593444347381592e-01 -3.488067090511322021e-01 5.220517516136169434e-01
-3.972683548927307129e-01 -4.777298569679260254e-01 5.548933148384094238e-01
-4.989843964576721191e-01 -4.018879830837249756e-01 5.835539698600769043e-01
-5.005165338516235352e-01 -4.506899416446685791e-01 6.106029748916625977e-01
-3.933922052383422852e-01 -4.032112061977386475e-01 5.402231812477111816e-01
-3.995511531829833984e-01 -4.105816185474395752e-01 5.236493945121765137e-01
-4.527589082717895508e-01 -4.666519761085510254e-01 6.363471746444702148e-01
-4.478611648082733154e-01 -4.755122363567352295e-01 6.346333026885986328e-01
-4.974781870841979980e-01 -5.173214673995971680e-01 5.857020020484924316e-01
-4.851311147212982178e-01 -3.336272835731506348e-01 5.762824416160583496e-01
-4.026108384132385254e-01 -3.476921319961547852e-01 5.723507404327392578e-01
-4.114207029342651367e-01 -3.286924064159393311e-01 5.200253725051879883e-01
-3.993040323257446289e-01 -4.502862393856048584e-01 5.814107060432434082e-01
-4.976529181003570557e-01 -5.081886649131774902e-01 6.147640347480773926e-01
-4.070599675178527832e-01 -3.359133303165435791e-01 5.763939619064331055e-01
-4.497293829917907715e-01 -3.107380867004394531e-01 6.009973287582397461e-01
-4.728386700153350830e-01 -3.112248778343200684e-01 5.536749958992004395e-01
-4.417547583580017090e-01 -3.228111267089843750e-01 6.047973036766052246e-01
-4.031677842140197754e-01 -5.100208520889282227e-01 5.676150321960449219e-01
-4.555279314517974854e-01 -3.390671610832214355e-01 5.212404131889343262e-01
-4.963459372520446777e-01 -3.815619051456451416e-01 5.866683125495910645e-01
-4.319063425064086914e-01 -3.908624053001403809e-01 5.074443817138671875e-01
-4.593224525451660156e-01 -3.004010319709777832e-01 5.386311411857604980e-01
-4.408139288425445557e-01 -4.089075326919555664e-01 6.270825266838073730e-01
-4.281728267669677734e-01 -3.382919430732727051e-01 6.030037999153137207e-01
-3.988937139511108398e-01 -3.590214252471923828e-01 5.290405154228210449e-01
-4.876104891300201416e-01 -3.429601490497589111e-01 5.859723687171936035e-01
-4.280526936054229736e-01 -4.762899875640869141e-01 5.160703659057617188e-01
-4.542171657085418701e-01 -5.447345972061157227e-01 5.399680137634277344e-01
-4.384856224060058594e-01 -5.553361773490905762e-01 5.423638820648193359e-01
-4.579550325870513916e-01 -3.585550189018249512e-01 5.196268558502197266e-01
-5.004866719245910645e-01 -4.946360588073730469e-01 6.084316372871398926e-01
-5.012924671173095703e-01 -4.658976793289184570e-01 6.090322732925415039e-01
-4.699419438838958740e-01 -5.915794372558593750e-01 5.855268836021423340e-01
-4.986098408699035645e-01 -4.210728704929351807e-01 6.089695692062377930e-01
-3.974184989929199219e-01 -4.556211233139038086e-01 5.746207237243652344e-01
-4.427386224269866943e-01 -5.231732726097106934e-01 6.282336115837097168e-01
-4.098547697067260742e-01 -3.083780407905578613e-01 5.325527191162109375e-01
-3.929897248744964600e-01 -4.265824556350708008e-01 5.557602643966674805e-01
-4.865080714225769043e-01 -3.510264158248901367e-01 5.606822967529296875e-01
-4.170338809490203857e-01 -4.992656111717224121e-01 5.261011719703674316e-01
-4.210798740386962891e-01 -3.067216277122497559e-01 5.818967223167419434e-01
-3.980572819709777832e-01 -4.244439005851745605e-01 5.791419148445129395e-01
-4.750508368015289307e-01 -3.459849953651428223e-01 5.396893620491027832e-01
-4.330776631832122803e-01 -2.939598560333251953e-01 5.263110399246215820e-01
-4.998396337032318115e-01 -4.593675732612609863e-01 6.137273311614990234e-01
-4.849548339843750000e-01 -5.532118082046508789e-01 6.203772425651550293e-01
-4.476317763328552246e-01 -2.904185652732849121e-01 5.338528156280517578e-01
-4.500119090080261230e-01 -5.129678249359130859e-01 6.333103179931640625e-01
-4.265987277030944824e-01 -5.110344290733337402e-01 5.258185863494873047e-01
-4.611998200416564941e-01 -5.810102224349975586e-01 6.171565651893615723e-01
-4.958004057407379150e-01 -4.041673541069030762e-01 5.667732954025268555e-01
-4.182934463024139404e-01 -4.143977463245391846e-01 6.108664274215698242e-01
-3.947682082653045654e-01 -4.265367388725280762e-01 5.681040883064270020e-01
-4.914258122444152832e-01 -4.423334002494812012e-01 5.538336038589477539e-01
-3.977232277393341064e-01 -4.742016196250915527e-01 5.687746405601501465e-01
-4.921188354492187500e-01 -3.681607842445373535e-01 5.984439849853515625e-01
-4.339835047721862793e-01 -4.819259047508239746e-01 5.169829130172729492e-01
-4.115060567855834961e-01 -4.096906781196594238e-01 6.023594737052917480e-01
-4.379950463771820068e-01 -5.598607659339904785e-01 6.148210167884826660e-01
-4.775025248527526855e-01 -3.996732234954833984e-01 5.340549945831298828e-01
-4.040158987045288086e-01 -3.989167511463165283e-01 5.895437002182006836e-01
-4.380861222743988037e-01 -2.751470506191253662e-01 5.681445002555847168e-01
-4.348209798336029053e-01 -5.475499629974365234e-01 6.164359450340270996e-01
-4.611319303512573242e-01 -5.103625059127807617e-01 5.320515632629394531e-01
-4.556654691696166992e-01 -2.802047431468963623e-01 5.547166466712951660e-01
-4.170342683792114258e-01 -5.540040731430053711e-01 5.809323787689208984e-01
-4.073589146137237549e-01 -3.106510639190673828e-01 5.576198101043701172e-01
-4.413159787654876709e-01 -5.894152522087097168e-01 5.701823830604553223e-01
-4.089710712432861328e-01 -5.233602523803710938e-01 5.484675168991088867e-01
-4.892551898956298828e-01 -5.205726623535156250e-01 5.651265382766723633e-01
-4.741657376289367676e-01 -3.057664036750793457e-01 5.762155652046203613e-01
-4.316970109939575195e-01 -3.729817569255828857e-01 6.153542399406433105e-01
-4.711427390575408936e-01 -3.286857306957244873e-01 6.052766442298889160e-01
-4.726435244083404541e-01 -4.068937599658966064e-01 5.284657478332519531e-01
-4.840575456619262695e-01 -4.504833519458770752e-01 6.329437494277954102e-01
-4.507035911083221436e-01 -5.888043045997619629e-01 6.076905131340026855e-01
-4.657032787799835205e-01 -3.466438651084899902e-01 6.161127090454101562e-01
-4.254241883754730225e-01 -5.607974529266357422e-01 5.977225899696350098e-01
-3.962871134281158447e-01 -4.680270552635192871e-01 5.499882102012634277e-01
-4.836097359657287598e-01 -3.796772658824920654e-01 5.448398590087890625e-01
-4.955967664718627930e-01 -3.804580867290496826e-01 5.779014229774475098e-01
-4.998458325862884521e-01 -4.277162253856658936e-01 5.765880942344665527e-01
-4.194151163101196289e-01 -2.910734713077545166e-01 5.335947871208190918e-01
-4.518657624721527100e-01 -3.455877602100372314e-01 5.176299214363098145e-01
-4.405646622180938721e-01 -5.751309394836425781e-01 6.094378232955932617e-01
-4.790261089801788330e-01 -4.125926196575164795e-01 5.353674292564392090e-01
-4.040671586990356445e-01 -3.869079947471618652e-01 5.875473022460937500e-01
-4.004098474979400635e-01 -3.941995501518249512e-01 5.816379785537719727e-01
-4.884058237075805664e-01 -3.861118555068969727e-01 6.157393455505371094e-01
-3.983374536037445068e-01 -3.569061756134033203e-01 5.643240213394165039e-01
-4.792763888835906982e-01 -3.539907932281494141e-01 5.438222885131835938e-01
-4.680736064910888672e-01 -5.642786026000976562e-01 6.253700256347656250e-01
-4.699563980102539062e-01 -3.357459306716918945e-01 5.359488725662231445e-01
-4.748651683330535889e-01 -5.683881044387817383e-01 5.675712823867797852e-01
-4.920429289340972900e-01 -4.707393944263458252e-01 5.575340986251831055e-01
-3.945720493793487549e-01 -3.872247338294982910e-01 5.620081424713134766e-01
-4.810219109058380127e-01 -3.627512156963348389e-01 5.442677140235900879e-01
-3.943125307559967041e-01 -4.406670033931732178e-01 5.432214736938476562e-01
-4.301005303859710693e-01 -5.379000902175903320e-01 5.354832410812377930e-01
-4.764322340488433838e-01 -3.222154080867767334e-01 5.532318353652954102e-01
-4.911226034164428711e-01 -4.083174765110015869e-01 6.195303797721862793e-01
-4.118897318840026855e-01 -4.804860055446624756e-01 5.237312316894531250e-01
-4.635623097419738770e-01 -4.652406275272369385e-01 6.383290290832519531e-01
-4.276655912399291992e-01 -3.384536504745483398e-01 5.117868185043334961e-01
-4.899790585041046143e-01 -3.623532354831695557e-01 5.649516582489013672e-01
-4.599220752716064453e-01 -3.308780491352081299e-01 6.106712818145751953e-01
-4.978275299072265625e-01 -4.794958531856536865e-01 5.721061229705810547e-01
-4.335557818412780762e-01 -5.840700864791870117e-01 5.717487335205078125e-01
-4.829305112361907959e-01 -5.059195160865783691e-01 5.507593154907226562e-01
-4.793487191200256348e-01 -3.227275013923645020e-01 5.894070863723754883e-01
-4.184943735599517822e-01 -3.259757757186889648e-01 5.890103578567504883e-01
-4.911943674087524414e-01 -4.042342007160186768e-01 5.550402402877807617e-01
-5.010843873023986816e-01 -4.803009927272796631e-01 5.845329165458679199e-01
-4.858642220497131348e-01 -4.805488586425781250e-01 5.491461753845214844e-01
-4.649576246738433838e-01 -5.337228775024414062e-01 5.417073369026184082e-01
-4.310172200202941895e-01 -5.823054909706115723e-01 5.818341970443725586e-01
-4.083269238471984863e-01 -4.670451581478118896e-01 5.987491011619567871e-01
-5.015925168991088867e-01 -4.741884768009185791e-01 6.072857379913330078e-01
-4.029478132724761963e-01 -3.397330641746520996e-01 5.690352320671081543e-01
-4.435291886329650879e-01 -3.414865732192993164e-01 6.126253008842468262e-01
-4.276516139507293701e-01 -3.281782865524291992e-01 5.987929105758666992e-01
-4.316298663616180420e-01 -4.176683425903320312e-01 6.227505207061767578e-01
-4.261552393436431885e-01 -4.977312684059143066e-01 6.186203956604003906e-01
-3.930283188819885254e-01 -4.162506461143493652e-01 5.437054634094238281e-01
-4.214558601379394531e-01 -3.408097624778747559e-01 5.980428457260131836e-01
-3.933517336845397949e-01 -3.875429034233093262e-01 5.530080795288085938e-01
-4.144394993782043457e-01 -4.548199772834777832e-01 6.083213686943054199e-01
-4.464148879051208496e-01 -4.354563355445861816e-01 6.325279474258422852e-01
-4.558722674846649170e-01 -5.417917966842651367e-01 6.306641101837158203e-01
-4.582266807556152344e-01 -5.265179872512817383e-01 5.351722836494445801e-01
-4.915970861911773682e-01 -5.331664085388183594e-01 5.759919285774230957e-01
-4.838284552097320557e-01 -4.675827026367187500e-01 5.443708896636962891e-01
-4.050422906875610352e-01 -4.298895299434661865e-01 5.941881537437438965e-01
-4.033094048500061035e-01 -5.080555081367492676e-01 5.529062151908874512e-01
-4.949755072593688965e-01 -5.017570257186889648e-01 6.220935583114624023e-01
-4.242930114269256592e-01 -4.250137805938720703e-01 5.089488625526428223e-01
-4.119043350219726562e-01 -3.595356047153472900e-01 5.132176876068115234e-01
-3.974784612655639648e-01 -3.510380983352661133e-01 5.560463070869445801e-01
-4.173805713653564453e-01 -5.388568639755249023e-01 5.956264734268188477e-01
-4.995849132537841797e-01 -4.868643283843994141e-01 6.138277053833007812e-01
-4.232659041881561279e-01 -2.828962802886962891e-01 5.627849102020263672e-01
-4.921579957008361816e-01 -4.838480353355407715e-01 5.600112080574035645e-01
-3.937387466430664062e-01 -3.925080299377441406e-01 5.392064452171325684e-01
-4.693056643009185791e-01 -2.961830198764801025e-01 5.704675316810607910e-01
-4.933561682701110840e-01 -3.905078768730163574e-01 6.094102263450622559e-01
-4.754177927970886230e-01 -3.788517713546752930e-01 6.236773729324340820e-01
-4.590358436107635498e-01 -3.684289157390594482e-01 5.192178487777709961e-01
-4.333496391773223877e-01 -3.950383365154266357e-01 6.207591295242309570e-01
-4.856208562850952148e-01 -5.598909258842468262e-01 5.802673101425170898e-01
-3.975969851016998291e-01 -3.457104861736297607e-01 5.456470251083374023e-01
-4.506638050079345703e-01 -3.276193141937255859e-01 5.206850767135620117e-01
-4.394982159137725830e-01 -3.157177567481994629e-01 6.006677150726318359e-01
-3.966766595840454102e-01 -4.586313962936401367e-01 5.408875942230224609e-01
-4.644202589988708496e-01 -5.332289338111877441e-01 6.339502930641174316e-01
-4.707418382167816162e-01 -3.208386898040771484e-01 6.006647944450378418e-01
-4.789366126060485840e-01 -3.177334368228912354e-01 5.824283361434936523e-01
-3.942282199859619141e-01 -4.495193362236022949e-01 5.574550032615661621e-01
-4.563749432563781738e-01 -3.041481375694274902e-01 5.967797040939331055e-01
-3.954175710678100586e-01 -3.653215169906616211e-01 5.550453662872314453e-01
-4.528269767761230469e-01 -3.121243417263031006e-01 5.269311666488647461e-01
-4.792506694793701172e-01 -3.324946165084838867e-01 5.992149710655212402e-01
-4.964502453804016113e-01 -4.547617435455322266e-01 5.650911331176757812e-01
-4.651212990283966064e-01 -4.187993705272674561e-01 5.218786597251892090e-01
-3.974363207817077637e-01 -4.492737650871276855e-01 5.347178578376770020e-01
-4.996280372142791748e-01 -4.456527531147003174e-01 5.740824341773986816e-01
-4.084030389785766602e-01 -4.894325435161590576e-01 5.955281257629394531e-01
-4.711694419384002686e-01 -3.892009854316711426e-01 5.277966856956481934e-01
-4.025648832321166992e-01 -4.419188499450683594e-01 5.895988941192626953e-01
-4.736360311508178711e-01 -4.601688683032989502e-01 5.320844054222106934e-01
-4.816654622554779053e-01 -5.223737955093383789e-01 5.540581345558166504e-01
-4.480914175510406494e-01 -2.863373160362243652e-01 5.837811827659606934e-01
-4.082080721855163574e-01 -4.793565869331359863e-01 5.970213413238525391e-01
-4.758616983890533447e-01 -5.791694521903991699e-01 5.784323811531066895e-01
-3.946522772312164307e-01 -3.697489500045776367e-01 5.429766178131103516e-01
-4.942361414432525635e-01 -3.762685954570770264e-01 5.974897742271423340e-01
-4.053222239017486572e-01 -5.125345587730407715e-01 5.780233144760131836e-01
-4.295091331005096436e-01 -4.895118474960327148e-01 6.225440502166748047e-01
-4.347564280033111572e-01 -4.000155627727508545e-01 5.077891945838928223e-01
-4.081982076168060303e-01 -4.532058238983154297e-01 5.994323492050170898e-01
-4.085633456707000732e-01 -3.580335974693298340e-01 5.876945257186889648e-01
-4.932623803615570068e-01 -4.313975870609283447e-01 5.573174953460693359e-01
-4.359263777732849121e-01 -4.030738174915313721e-01 6.236112713813781738e-01
-4.871866703033447266e-01 -4.411154687404632568e-01 6.298323869705200195e-01
-4.152577817440032959e-01 -4.378156661987304688e-01 6.091530323028564453e-01
-4.748850762844085693e-01 -3.646315336227416992e-01 5.349938869476318359e-01
-4.375607967376708984e-01 -4.582185745239257812e-01 6.292652487754821777e-01
-4.003442227840423584e-01 -3.315838277339935303e-01 5.447616577148437500e-01
-4.016144871711730957e-01 -3.558380603790283203e-01 5.735263228416442871e-01
-4.779680669307708740e-01 -3.150600492954254150e-01 5.671029090881347656e-01
-4.924370348453521729e-01 -3.715118169784545898e-01 5.684341788291931152e-01
-4.400659799575805664e-01 -2.898831367492675781e-01 5.853389501571655273e-01
-4.497372210025787354e-01 -4.618818759918212891e-01 5.167345404624938965e-01
-4.819409847259521484e-01 -4.766549766063690186e-01 6.353210210800170898e-01
-4.625967741012573242e-01 -4.944881796836853027e-01 6.380228996276855469e-01
-4.260293543338775635e-01 -3.971584439277648926e-01 5.074141025543212891e-01
-4.555069506168365479e-01 -3.763619363307952881e-01 5.161708593368530273e-01
-4.614157676696777344e-01 -2.872558534145355225e-01 5.551031827926635742e-01
-4.684080481529235840e-01 -2.981104254722595215e-01 5.571947097778320312e-01
-4.017263650894165039e-01 -3.340123891830444336e-01 5.330995321273803711e-01
-4.913329482078552246e-01 -5.516590476036071777e-01 6.065677404403686523e-01
-3.964575827121734619e-01 -3.856547176837921143e-01 5.298579931259155273e-01
-4.461980164051055908e-01 -4.259259402751922607e-01 6.315413713455200195e-01
-4.292831420898437500e-01 -2.971993982791900635e-01 5.840219855308532715e-01
-4.648412764072418213e-01 -3.842695057392120361e-01 5.223494172096252441e-01
-4.338110387325286865e-01 -4.552478194236755371e-01 5.121427774429321289e-01
-4.045553207397460938e-01 -4.819892048835754395e-01 5.890410542488098145e-01
-4.940609931945800781e-01 -4.595064520835876465e-01 6.247096657752990723e-01
-4.359145462512969971e-01 -4.240992367267608643e-01 5.089777112007141113e-01
-4.892617762088775635e-01 -3.909293115139007568e-01 5.531659722328186035e-01
-4.166893064975738525e-01 -3.942669630050659180e-01 6.064487695693969727e-01
-4.213347434997558594e-01 -5.051152706146240234e-01 6.122568249702453613e-01
-4.612759053707122803e-01 -5.891515016555786133e-01 6.109636425971984863e-01
-4.976141154766082764e-01 -3.897211551666259766e-01 5.867722034454345703e-01
-4.201164543628692627e-01 -5.165844559669494629e-01 5.307496786117553711e-01
-4.140994548797607422e-01 -5.227121710777282715e-01 5.389937162399291992e-01
-4.862810373306274414e-01 -5.467696785926818848e-01 5.720557570457458496e-01
-3.953931927680969238e-01 -3.954727947711944580e-01 5.677908062934875488e-01
-4.393558502197265625e-01 -5.001994967460632324e-01 5.216861367225646973e-01
-4.534896016120910645e-01 -3.201206624507904053e-01 5.246751308441162109e-01
-4.907199144363403320e-01 -4.567966163158416748e-01 5.535127520561218262e-01
-4.456453621387481689e-01 -4.535630345344543457e-01 5.141576528549194336e-01
-4.236029684543609619e-01 -4.650037884712219238e-01 6.183546781539916992e-01
-4.129555225372314453e-01 -3.490133285522460938e-01 5.911033153533935547e-01
-4.063750505447387695e-01 -3.486487269401550293e-01 5.807089805603027344e-01
-4.918937683105468750e-01 -3.598759174346923828e-01 5.777040123939514160e-01
-4.118000566959381104e-01 -4.438176155090332031e-01 5.155764818191528320e-01
-4.593524336814880371e-01 -2.932084798812866211e-01 5.439076423645019531e-01
-3.969633281230926514e-01 -3.712505996227264404e-01 5.308654308319091797e-01
-4.681375026702880859e-01 -5.544441938400268555e-01 6.288388967514038086e-01
-4.070751667022705078e-01 -3.702016770839691162e-01 5.888252258300781250e-01
-4.805718958377838135e-01 -4.120965301990509033e-01 6.293463706970214844e-01
-4.262557029724121094e-01 -5.541341304779052734e-01 6.033339500427246094e-01
-4.505071938037872314e-01 -4.404767453670501709e-01 5.145104527473449707e-01
-4.689246416091918945e-01 -5.771826505661010742e-01 6.188154816627502441e-01
-3.957970142364501953e-01 -3.773357272148132324e-01 5.640083551406860352e-01
-3.965877890586853027e-01 -4.463747441768646240e-01 5.733361244201660156e-01
-4.486078321933746338e-01 -5.663068294525146484e-01 6.200531721115112305e-01
-4.910205602645874023e-01 -5.110828876495361328e-01 5.650664567947387695e-01
-4.074060916900634766e-01 -3.197458982467651367e-01 5.288892984390258789e-01
-4.502846002578735352e-01 -5.984241962432861328e-01 5.894997119903564453e-01
-4.011762142181396484e-01 -4.987480044364929199e-01 5.689102411270141602e-01
-4.265910685062408447e-01 -3.527403771877288818e-01 6.064078211784362793e-01
-4.110703766345977783e-01 -5.185061693191528320e-01 5.919005274772644043e-01
-4.957911968231201172e-01 -3.844728767871856689e-01 5.980055928230285645e-01
-4.457257390022277832e-01 -4.315490126609802246e-01 5.119106769561767578e-01
-4.559388756752014160e-01 -4.304260015487670898e-01 6.349175572395324707e-01
-4.123018085956573486e-01 -5.309641361236572266e-01 5.882220864295959473e-01
-4.580165147781372070e-01 -5.689802169799804688e-01 5.535945892333984375e-01
-4.664371013641357422e-01 -3.048775792121887207e-01 5.920215845108032227e-01
-4.162973463535308838e-01 -5.539860725402832031e-01 5.665435791015625000e-01
-4.830770492553710938e-01 -4.387328326702117920e-01 5.407869815826416016e-01
-3.993908762931823730e-01 -3.417980074882507324e-01 5.578824281692504883e-01
-5.007042884826660156e-01 -4.248758256435394287e-01 6.018268465995788574e-01
-4.867946505546569824e-01 -3.609472811222076416e-01 5.563853979110717773e-01
-4.367671906948089600e-01 -3.824921250343322754e-01 6.204761862754821777e-01
-3.941736221313476562e-01 -4.290807843208312988e-01 5.397259593009948730e-01
-4.134439527988433838e-01 -3.310532271862030029e-01 5.847692489624023438e-01
-4.367385208606719971e-01 -3.016406893730163574e-01 5.231406092643737793e-01
-4.183786809444427490e-01 -3.261965513229370117e-01 5.164341926574707031e-01
-4.807181954383850098e-01 -3.850984275341033936e-01 6.225939393043518066e-01
-4.421008825302124023e-01 -5.124387741088867188e-01 6.293955445289611816e-01
-4.064967930316925049e-01 -4.197232127189636230e-01 5.960496068000793457e-01
-4.305114746093750000e-01 -3.876760303974151611e-01 6.175629496574401855e-01
-4.768787026405334473e-01 -4.344036281108856201e-01 6.344572305679321289e-01
-4.404017329216003418e-01 -3.071289062500000000e-01 5.966840386390686035e-01
-4.816246032714843750e-01 -4.468643665313720703e-01 5.394317507743835449e-01
-4.528044462203979492e-01 -2.816890478134155273e-01 5.769756436347961426e-01
-4.108953177928924561e-01 -3.805817365646362305e-01 5.968793034553527832e-01
-4.545336365699768066e-01 -4.942538738250732422e-01 5.246536135673522949e-01
-4.138724207878112793e-01 -4.022952616214752197e-01 5.105475783348083496e-01
-5.003344416618347168e-01 -5.052696466445922852e-01 6.020963191986083984e-01
-4.272342622280120850e-01 -5.163587331771850586e-01 6.168520450592041016e-01
-4.357152879238128662e-01 -3.392756879329681396e-01 6.083010435104370117e-01
-4.044732153415679932e-01 -3.256058692932128906e-01 5.635969042778015137e-01
-4.466595351696014404e-01 -4.002033472061157227e-01 5.109625458717346191e-01
-5.018017292022705078e-01 -4.432791471481323242e-01 6.030002832412719727e-01
-4.092739820480346680e-01 -3.412369489669799805e-01 5.827729701995849609e-01
-4.955292046070098877e-01 -4.696232378482818604e-01 6.231085062026977539e-01
-4.813300371170043945e-01 -3.233525156974792480e-01 5.700189471244812012e-01
-4.112866520881652832e-01 -3.406768441200256348e-01 5.168507099151611328e-01
-4.937691092491149902e-01 -3.678886890411376953e-01 5.815513134002685547e-01
-4.378712773323059082e-01 -4.299487471580505371e-01 6.279130578041076660e-01
-4.667136669158935547e-01 -3.715180754661560059e-01 5.251548290252685547e-01
-4.847708344459533691e-01 -3.947830200195312500e-01 5.444775819778442383e-01
-4.501644670963287354e-01 -5.960867404937744141e-01 5.977662205696105957e-01
-4.494940936565399170e-01 -5.932621359825134277e-01 5.723067522048950195e-01
-4.961596727371215820e-01 -4.649869799613952637e-01 5.653857588768005371e-01
-4.630328714847564697e-01 -4.980996251106262207e-01 5.302228927612304688e-01
-4.347919821739196777e-01 -4.327441155910491943e-01 5.095391869544982910e-01
-4.653861820697784424e-01 -4.103406965732574463e-01 6.329940557479858398e-01
-5.001304149627685547e-01 -4.098623096942901611e-01 5.898028612136840820e-01
-4.752968549728393555e-01 -5.253744125366210938e-01 5.477082133293151855e-01
-4.201145768165588379e-01 -4.256672859191894531e-01 6.137828230857849121e-01
-3.952985405921936035e-01 -4.554202556610107422e-01 5.642575025558471680e-01
-4.128736853599548340e-01 -3.028180897235870361e-01 5.654915571212768555e-01
-4.660784304141998291e-01 -2.933291196823120117e-01 5.776634216308593750e-01
-5.026065111160278320e-01 -4.703536629676818848e-01 5.968756079673767090e-01
-4.879479110240936279e-01 -5.378658175468444824e-01 5.703644156455993652e-01
-4.348213672637939453e-01 -5.201500654220581055e-01 6.231594681739807129e-01
-4.589213430881500244e-01 -5.536943078041076660e-01 6.284045577049255371e-01
-4.361410140991210938e-01 -3.654522895812988281e-01 5.091275572776794434e-01
-4.199569523334503174e-01 -5.291215777397155762e-01 5.366528630256652832e-01
-4.054411053657531738e-01 -4.691168367862701416e-01 5.267393589019775391e-01
-4.172940254211425781e-01 -3.696059286594390869e-01 6.021711230278015137e-01
-4.632992446422576904e-01 -3.836427330970764160e-01 6.277179121971130371e-01
-4.887928664684295654e-01 -3.609488904476165771e-01 6.022592186927795410e-01
-4.321750104427337646e-01 -5.607890486717224121e-01 6.081058382987976074e-01
-4.938488006591796875e-01 -4.957802891731262207e-01 5.662174224853515625e-01
-4.583777189254760742e-01 -5.185319185256958008e-01 6.353003382682800293e-01
-4.940822422504425049e-01 -5.172649621963500977e-01 6.203640103340148926e-01
-4.685042500495910645e-01 -3.274147212505340576e-01 5.370039343833923340e-01
-4.900199770927429199e-01 -5.315555930137634277e-01 6.225909590721130371e-01
-4.894900619983673096e-01 -5.290115475654602051e-01 5.691135525703430176e-01
-4.245962202548980713e-01 -3.820082247257232666e-01 6.119015216827392578e-01
-4.259876012802124023e-01 -5.273177623748779297e-01 6.130189895629882812e-01
-4.059449434280395508e-01 -3.988729715347290039e-01 5.156004428863525391e-01
-4.977082610130310059e-01 -4.793142676353454590e-01 6.191899776458740234e-01
-4.762311577796936035e-01 -5.866800546646118164e-01 5.947817564010620117e-01
-4.745932817459106445e-01 -3.965092897415161133e-01 6.286009550094604492e-01
-4.356788992881774902e-01 -4.696899652481079102e-01 5.146408677101135254e-01
-4.884491562843322754e-01 -4.126469194889068604e-01 5.489706397056579590e-01
-4.585518240928649902e-01 -5.982846021652221680e-01 5.970920324325561523e-01
-4.382670223712921143e-01 -3.786219358444213867e-01 5.087586641311645508e-01
-4.781619012355804443e-01 -4.910258650779724121e-01 5.416082143783569336e-01
-4.789195656776428223e-01 -5.308378934860229492e-01 6.319520473480224609e-01
-3.930959105491638184e-01 -3.957686722278594971e-01 5.547425150871276855e-01
-4.330115914344787598e-01 -3.553017377853393555e-01 6.117143630981445312e-01
-4.378342032432556152e-01 -5.015491843223571777e-01 6.278879642486572266e-01
-3.966646790504455566e-01 -4.636090695858001709e-01 5.686843991279602051e-01
-4.218398034572601318e-01 -2.836177051067352295e-01 5.399135351181030273e-01
-4.110317230224609375e-01 -4.537638723850250244e-01 5.178427696228027344e-01
-4.642071127891540527e-01 -5.544715523719787598e-01 5.496639013290405273e-01
-4.971486926078796387e-01 -4.376829862594604492e-01 6.169759035110473633e-01
-5.018411874771118164e-01 -4.841999709606170654e-01 6.030476689338684082e-01
-4.589339792728424072e-01 -3.932457268238067627e-01 5.175034999847412109e-01
-5.013946294784545898e-01 -4.711084067821502686e-01 5.837806463241577148e-01
-3.935677707195281982e-01 -4.413676857948303223e-01 5.534301996231079102e-01
-4.886101484298706055e-01 -5.427402257919311523e-01 6.203348636627197266e-01
-4.875308871269226074e-01 -5.245903134346008301e-01 6.273776292800903320e-01
-4.944950044155120850e-01 -4.125564694404602051e-01 5.615170598030090332e-01
-4.556308388710021973e-01 -4.236619770526885986e-01 5.158128142356872559e-01
-4.940234422683715820e-01 -5.165086388587951660e-01 5.737941861152648926e-01
-4.168545007705688477e-01 -3.378280997276306152e-01 5.919912457466125488e-01
-4.176938831806182861e-01 -2.935378551483154297e-01 5.660786032676696777e-01
-4.577460289001464844e-01 -2.977620065212249756e-01 5.916522145271301270e-01
-4.206626415252685547e-01 -5.600571632385253906e-01 5.602648854255676270e-01
-4.917044937610626221e-01 -4.890064001083374023e-01 6.278103590011596680e-01
-4.304866492748260498e-01 -5.668885707855224609e-01 6.021259427070617676e-01
-4.705013036727905273e-01 -5.187796354293823242e-01 5.411610007286071777e-01
-4.715577363967895508e-01 -3.611593544483184814e-01 6.195989847183227539e-01
-4.460339546203613281e-01 -3.670118749141693115e-01 5.120207667350769043e-01
-4.112573862075805664e-01 -5.068069100379943848e-01 5.341600775718688965e-01
-4.474651217460632324e-01 -4.730931222438812256e-01 5.176938772201538086e-01
-4.783697426319122314e-01 -5.515630245208740234e-01 5.620164871215820312e-01
-4.267391860485076904e-01 -4.404886364936828613e-01 6.208302974700927734e-01
-4.461298286914825439e-01 -3.286682069301605225e-01 6.086716651916503906e-01
-4.902405142784118652e-01 -5.527128577232360840e-01 5.877179503440856934e-01
-4.440693259239196777e-01 -3.001977801322937012e-01 5.938516259193420410e-01
-4.692159593105316162e-01 -3.463310003280639648e-01 5.320864319801330566e-01
-4.898637831211090088e-01 -3.527732193470001221e-01 5.733629465103149414e-01
-4.618130028247833252e-01 -3.632986843585968018e-01 6.223565340042114258e-01
-4.817390441894531250e-01 -5.779567360877990723e-01 5.969680547714233398e-01
-4.635774493217468262e-01 -3.115895688533782959e-01 5.376218557357788086e-01
-4.546265006065368652e-01 -3.952613770961761475e-01 6.295235753059387207e-01
-4.733997285366058350e-01 -4.755690693855285645e-01 5.340124964714050293e-01
-4.471258521080017090e-01 -5.686672925949096680e-01 5.500240921974182129e-01
-4.000785946846008301e-01 -4.637065827846527100e-01 5.335403680801391602e-01
-4.596870839595794678e-01 -4.828215241432189941e-01 6.379919648170471191e-01
-4.038676321506500244e-01 -3.182797729969024658e-01 5.506099462509155273e-01
-3.958997428417205811e-01 -3.579569160938262939e-01 5.505223274230957031e-01
-4.973153471946716309e-01 -4.391463696956634521e-01 5.668822526931762695e-01
-4.493861794471740723e-01 -2.927168011665344238e-01 5.893046855926513672e-01
-4.387248456478118896e-01 -4.473582804203033447e-01 5.116705894470214844e-01
-4.956827759742736816e-01 -4.461726248264312744e-01 5.627854466438293457e-01
-4.736372828483581543e-01 -5.043928623199462891e-01 5.400656461715698242e-01
-4.759424924850463867e-01 -4.518964886665344238e-01 6.364679932594299316e-01
-4.652908742427825928e-01 -4.759733378887176514e-01 6.386034488677978516e-01
-4.606851041316986084e-01 -4.778281450271606445e-01 5.247004032135009766e-01
-4.238326847553253174e-01 -5.708687305450439453e-01 5.751289725303649902e-01
-4.176633358001708984e-01 -3.604479432106018066e-01 6.002222895622253418e-01
-4.172290861606597900e-01 -4.985755085945129395e-01 6.080878973007202148e-01
-4.652081131935119629e-01 -3.545893430709838867e-01 6.191366910934448242e-01
-4.726707041263580322e-01 -5.394806861877441406e-01 5.502140522003173828e-01
-4.416979253292083740e-01 -4.074338078498840332e-01 5.094019174575805664e-01
-4.748212099075317383e-01 -3.301141262054443359e-01 5.453500747680664062e-01
-4.878437817096710205e-01 -4.264608621597290039e-01 6.270847916603088379e-01
-4.954040944576263428e-01 -4.237514436244964600e-01 6.171572804450988770e-01
-4.115422368049621582e-01 -2.984710931777954102e-01 5.408106446266174316e-01
-4.164092540740966797e-01 -4.902836680412292480e-01 5.235542654991149902e-01
-4.002398848533630371e-01 -4.872174561023712158e-01 5.736874938011169434e-01
-4.287826418876647949e-01 -4.295765459537506104e-01 6.217825412750244141e-01
-4.315124452114105225e-01 -4.519629180431365967e-01 6.250379085540771484e-01
-4.037377834320068359e-01 -4.927267432212829590e-01 5.836734175682067871e-01
-4.890311956405639648e-01 -3.498826026916503906e-01 5.902841687202453613e-01
-4.058614969253540039e-01 -4.237331748008728027e-01 5.173051357269287109e-01
-4.737240970134735107e-01 -4.198246598243713379e-01 5.294955372810363770e-01
-4.226647019386291504e-01 -4.599686563014984131e-01 5.138364434242248535e-01
-4.882372021675109863e-01 -5.631359815597534180e-01 5.986339449882507324e-01
-4.967811703681945801e-01 -3.940840959548950195e-01 6.014626622200012207e-01
-4.625380933284759521e-01 -4.389421939849853516e-01 5.210404992103576660e-01
-3.932007551193237305e-01 -4.318089783191680908e-01 5.479637384414672852e-01
-4.971412420272827148e-01 -5.283183455467224121e-01 6.020045280456542969e-01
-4.829371273517608643e-01 -5.655249357223510742e-01 6.154644489288330078e-01
-4.098210930824279785e-01 -5.351281166076660156e-01 5.731794238090515137e-01
-5.025525093078613281e-01 -4.640805125236511230e-01 5.915651917457580566e-01
-4.429084360599517822e-01 -5.942369103431701660e-01 5.895191431045532227e-01
-4.967328906059265137e-01 -3.971802592277526855e-01 5.725203752517700195e-01
-4.367255270481109619e-01 -3.624551892280578613e-01 6.158250570297241211e-01
-4.190344810485839844e-01 -4.825301766395568848e-01 6.124694943428039551e-01
-4.517354369163513184e-01 -3.223419189453125000e-01 6.069765090942382812e-01
-4.180400669574737549e-01 -4.638783633708953857e-01 6.124709248542785645e-01
-4.154854416847229004e-01 -5.389103293418884277e-01 5.480802059173583984e-01
-4.079547226428985596e-01 -3.924854695796966553e-01 5.949541330337524414e-01
-4.042007327079772949e-01 -4.811418652534484863e-01 5.326904058456420898e-01
-4.042217135429382324e-01 -3.405874669551849365e-01 5.245521068572998047e-01
-4.574586153030395508e-01 -5.837424993515014648e-01 5.637803673744201660e-01
-3.968408405780792236e-01 -3.669104874134063721e-01 5.637314319610595703e-01
-4.358884394168853760e-01 -3.551036119461059570e-01 5.100899338722229004e-01
-3.960703611373901367e-01 -4.038399755954742432e-01 5.302178859710693359e-01
-5.008084774017333984e-01 -4.919649958610534668e-01 5.877564549446105957e-01
-4.295602440834045410e-01 -2.774465382099151611e-01 5.641372203826904297e-01
-4.066176414489746094e-01 -4.985725879669189453e-01 5.366692543029785156e-01
-4.338596165180206299e-01 -5.468773245811462402e-01 5.387831330299377441e-01
8.157454431056976318e-02 2.187016978859901428e-02 5.634672641754150391e-01
3.546816706657409668e-01 2.222011983394622803e-02 4.998513460159301758e-01
4.665859043598175049e-02 6.869310140609741211e-02 5.476318001747131348e-01
1.961737871170043945e-01 3.260495141148567200e-02 6.245626211166381836e-01
4.395351409912109375e-01 1.181472092866897583e-01 4.126406908035278320e-01
9.871380031108856201e-02 9.950916469097137451e-02 5.600988864898681641e-01
4.267865419387817383e-01 2.859601750969886780e-02 4.535958170890808105e-01
1.983478069305419922e-01 1.160464510321617126e-01 6.019333600997924805e-01
1.947729587554931641e-01 4.007741063833236694e-02 6.393638849258422852e-01
3.787581324577331543e-01 1.152359396219253540e-01 4.102976024150848389e-01
8.812549710273742676e-02 1.015664190053939819e-01 5.948419570922851562e-01
2.808355093002319336e-01 3.578057140111923218e-02 3.896768093109130859e-01
1.065488010644912720e-01 4.273774474859237671e-02 6.665231585502624512e-01
1.861616075038909912e-01 9.968905150890350342e-02 6.523880958557128906e-01
5.474632978439331055e-01 8.187773823738098145e-02 3.359006047248840332e-01
5.042552351951599121e-01 4.208371043205261230e-02 3.773829638957977295e-01
2.959182262420654297e-01 8.966717869043350220e-02 3.902128338813781738e-01
2.525103092193603516e-01 2.202580124139785767e-02 5.700890421867370605e-01
4.700303673744201660e-01 3.584732115268707275e-02 3.714672327041625977e-01
4.976966381072998047e-01 4.004114866256713867e-02 3.904787302017211914e-01
4.166444540023803711e-01 3.183202072978019714e-02 4.831767380237579346e-01
4.144078493118286133e-01 5.159165710210800171e-02 5.346434712409973145e-01
5.646319389343261719e-01 8.286175131797790527e-02 3.999383747577667236e-01
5.123467445373535156e-01 4.863871634006500244e-02 3.487143516540527344e-01
3.856236040592193604e-01 7.653091102838516235e-02 3.417396843433380127e-01
2.980807423591613770e-02 3.477386757731437683e-02 5.857596397399902344e-01
2.282065451145172119e-01 9.336349368095397949e-02 4.330911934375762939e-01
2.954981625080108643e-01 5.275835096836090088e-02 6.117187142372131348e-01
3.238514959812164307e-01 2.241235226392745972e-02 5.267688035964965820e-01
1.182094812393188477e-01 1.674778386950492859e-02 5.632158517837524414e-01
4.924138784408569336e-01 3.985523432493209839e-02 4.134979546070098877e-01
2.440375685691833496e-01 3.773055970668792725e-02 4.041714370250701904e-01
1.592757105827331543e-01 4.827037081122398376e-02 6.623517870903015137e-01
2.715127766132354736e-01 2.033182233572006226e-02 5.528686642646789551e-01
3.352290093898773193e-01 4.337333887815475464e-02 5.759041309356689453e-01
4.825928807258605957e-01 4.135557264089584351e-02 3.543044924736022949e-01
4.074666202068328857e-01 1.011836603283882141e-01 5.536352992057800293e-01
3.864537477493286133e-01 3.505841270089149475e-02 5.216782093048095703e-01
3.806474208831787109e-01 1.141270995140075684e-01 5.489349961280822754e-01
4.661422669887542725e-01 3.743896260857582092e-02 4.473600685596466064e-01
3.970216512680053711e-01 8.974476903676986694e-02 3.499957919120788574e-01
2.918230593204498291e-01 9.823229908943176270e-02 6.198481917381286621e-01
3.860071599483489990e-01 1.194495558738708496e-01 5.280835032463073730e-01
2.258182913064956665e-01 1.201850995421409607e-01 5.754484534263610840e-01
3.965557217597961426e-01 8.148373663425445557e-02 5.698758959770202637e-01
3.134471178054809570e-01 4.661092162132263184e-02 3.668808937072753906e-01
4.923109710216522217e-01 9.950918704271316528e-02 3.490535914897918701e-01
9.558834135532379150e-02 7.977142184972763062e-02 5.118281841278076172e-01
2.589534521102905273e-01 7.146770507097244263e-02 6.420938968658447266e-01
3.987997770309448242e-01 1.183174252510070801e-01 4.173661470413208008e-01
1.136278063058853149e-01 9.862558543682098389e-02 5.376982688903808594e-01
4.111217856407165527e-01 1.185464262962341309e-01 5.133698582649230957e-01
2.018030285835266113e-01 1.187850683927536011e-01 5.747603178024291992e-01
2.096855640411376953e-02 6.343205273151397705e-02 6.773972511291503906e-01
3.869054615497589111e-01 2.802223712205886841e-02 3.780887126922607422e-01
3.946579098701477051e-01 1.091032624244689941e-01 5.508581399917602539e-01
3.968567550182342529e-01 6.792945414781570435e-02 5.648731589317321777e-01
4.799490869045257568e-01 9.900341182947158813e-02 4.995285868644714355e-01
2.174303233623504639e-01 7.339319586753845215e-02 6.589607000350952148e-01
2.730323672294616699e-01 8.225087076425552368e-02 6.366423368453979492e-01
3.938729465007781982e-01 2.354146912693977356e-02 4.635438024997711182e-01
3.421333432197570801e-01 1.238441839814186096e-01 4.702991545200347900e-01
4.060612022876739502e-01 2.716365084052085876e-02 4.725024700164794922e-01
8.269897103309631348e-02 5.182117968797683716e-02 6.802118420600891113e-01
3.397450447082519531e-01 2.401856333017349243e-02 3.952329158782958984e-01
3.826344311237335205e-01 8.909236639738082886e-02 3.537960052490234375e-01
4.904887080192565918e-01 1.144755333662033081e-01 4.093438386917114258e-01
1.822769641876220703e-03 6.945612281560897827e-02 6.441805362701416016e-01
4.865282773971557617e-01 1.149206161499023438e-01 4.457782506942749023e-01
3.061349093914031982e-01 2.106752991676330566e-02 4.122729897499084473e-01
2.354072481393814087e-01 1.466260477900505066e-02 5.421220660209655762e-01
2.043958157300949097e-01 2.030368894338607788e-02 4.566863477230072021e-01
3.456112146377563477e-01 1.191084831953048706e-01 5.535716414451599121e-01
1.549076735973358154e-01 1.706004887819290161e-02 5.823867917060852051e-01
4.567757248878479004e-01 6.009265407919883728e-02 5.121415257453918457e-01
3.322988748550415039e-03 6.470578908920288086e-02 6.099096536636352539e-01
2.877074480056762695e-02 7.136459648609161377e-02 5.742413997650146484e-01
1.767544746398925781e-01 2.092203125357627869e-02 4.717245697975158691e-01
3.512812554836273193e-01 1.215355098247528076e-01 5.397164821624755859e-01
3.644346296787261963e-01 1.229166090488433838e-01 4.539484679698944092e-01
4.346616268157958984e-01 1.153980717062950134e-01 3.986488878726959229e-01
8.303834497928619385e-02 6.734224408864974976e-02 6.881033182144165039e-01
8.645671606063842773e-02 6.106894463300704956e-02 5.023592710494995117e-01
4.619350731372833252e-01 1.146735250949859619e-01 3.957977294921875000e-01
4.450695514678955078e-01 6.454045325517654419e-02 3.244417309761047363e-01
2.832306027412414551e-01 1.216851621866226196e-01 5.654334425926208496e-01
6.823562085628509521e-02 2.363453432917594910e-02 5.773782730102539062e-01
5.010119080543518066e-02 5.757339671254158020e-02 5.363000631332397461e-01
1.764858365058898926e-01 2.519686147570610046e-02 6.120331287384033203e-01
2.739129066467285156e-01 3.320418670773506165e-02 5.909827947616577148e-01
3.009227812290191650e-01 2.694766595959663391e-02 3.969863057136535645e-01
3.754989802837371826e-01 1.247745454311370850e-01 4.935809671878814697e-01
3.328334689140319824e-01 4.933997243642807007e-02 3.581793010234832764e-01
2.005000561475753784e-01 2.175576612353324890e-02 5.923112034797668457e-01
2.056410908699035645e-01 1.380596309900283813e-02 5.477659702301025391e-01
1.941331326961517334e-01 5.135994404554367065e-02 4.235541820526123047e-01
6.143917143344879150e-02 9.441292285919189453e-02 6.420797705650329590e-01
1.057614833116531372e-01 2.080290392041206360e-02 5.332895517349243164e-01
3.074962794780731201e-01 1.130192428827285767e-01 5.897403359413146973e-01
5.394394397735595703e-01 9.081377834081649780e-02 4.413622319698333740e-01
1.660998463630676270e-01 1.031425744295120239e-01 6.485836505889892578e-01
1.164864748716354370e-01 1.016884744167327881e-01 6.485715508460998535e-01
2.393767684698104858e-01 2.221763506531715393e-02 5.773624181747436523e-01
3.139793872833251953e-01 3.693239390850067139e-02 5.765296816825866699e-01
1.824037134647369385e-01 1.346926391124725342e-02 5.488426089286804199e-01
6.614555418491363525e-02 7.757482677698135376e-02 5.379633903503417969e-01
2.090315520763397217e-01 1.188076660037040710e-01 5.392941832542419434e-01
4.353992938995361328e-01 4.431756958365440369e-02 5.033459663391113281e-01
1.326990127563476562e-02 7.438692450523376465e-02 6.100849509239196777e-01
5.161391496658325195e-01 1.077761650085449219e-01 4.378164410591125488e-01
3.181689083576202393e-01 1.785847544670104980e-02 5.066426992416381836e-01
3.003692030906677246e-01 1.081780642271041870e-01 6.028314828872680664e-01
2.426769733428955078e-01 1.217852160334587097e-02 5.077562928199768066e-01
4.738595783710479736e-01 3.453757986426353455e-02 3.951115906238555908e-01
3.148042559623718262e-01 2.419317513704299927e-02 5.405198335647583008e-01
5.109202265739440918e-01 5.388698726892471313e-02 4.446274638175964355e-01
3.107102215290069580e-01 6.156456097960472107e-02 6.120166778564453125e-01
5.204885005950927734e-01 4.733955860137939453e-02 3.670822978019714355e-01
3.790016770362854004e-01 1.233938708901405334e-01 4.545125365257263184e-01
2.137184143066406250e-01 1.401482895016670227e-02 4.809703230857849121e-01
7.405886054039001465e-02 9.872439503669738770e-02 6.259177923202514648e-01
5.534648895263671875e-01 6.494508683681488037e-02 3.468557596206665039e-01
4.883125424385070801e-01 4.150251299142837524e-02 4.330450892448425293e-01
1.743090450763702393e-01 1.299733668565750122e-02 5.345299243927001953e-01
1.308673620223999023e-02 4.515809565782546997e-02 5.904247760772705078e-01
3.686004579067230225e-01 2.800535038113594055e-02 5.135716199874877930e-01
1.269162595272064209e-01 3.959400206804275513e-02 4.739992022514343262e-01
