-3.197754919528961182e-02 -8.901689052581787109e-01 -1.486011743545532227e-01
-4.932729601860046387e-01 -4.918507933616638184e-01 -1.465091556310653687e-01
-1.513513177633285522e-02 -8.314907550811767578e-01 -4.133276343345642090e-01
-4.384649693965911865e-01 -5.051806569099426270e-01 9.940581023693084717e-02
1.274484097957611084e-01 -5.351012349128723145e-01 -6.141613125801086426e-01
-2.391284108161926270e-01 -3.967414498329162598e-01 -5.569178462028503418e-01
9.479691833257675171e-02 -4.650976061820983887e-01 4.490326344966888428e-02
7.714363187551498413e-02 -4.079627394676208496e-01 -6.031917333602905273e-01
1.242429763078689575e-02 -2.670383453369140625e-01 -2.142599523067474365e-01
7.175526767969131470e-02 -4.919799864292144775e-01 -6.396179795265197754e-01
1.552353501319885254e-01 -4.998541176319122314e-01 -7.452934980392456055e-03
-2.928600013256072998e-01 -4.530279040336608887e-01 1.768951565027236938e-01
1.885219663381576538e-02 -8.614590764045715332e-01 -4.713536798954010010e-02
-3.216797709465026855e-01 -7.975770235061645508e-01 9.615539014339447021e-02
-1.836212426424026489e-01 -5.765789747238159180e-01 2.410886138677597046e-01
-1.776922047138214111e-01 -8.110293149948120117e-01 -4.149011373519897461e-01
-3.750737011432647705e-01 -3.656254708766937256e-01 1.988406479358673096e-02
-5.941900610923767090e-02 -8.177767395973205566e-01 1.073344796895980835e-01
4.991105943918228149e-02 -8.319376111030578613e-01 -3.823692202568054199e-01
-3.203056007623672485e-02 -3.092292845249176025e-01 -5.378220677375793457e-01
1.591673791408538818e-01 -5.962615013122558594e-01 2.219545841217041016e-02
-2.555589973926544189e-01 -2.885752320289611816e-01 -4.128038287162780762e-01
-3.244908750057220459e-01 -8.309975266456604004e-01 -1.711120605468750000e-01
-6.505320221185684204e-02 -2.418634891510009766e-01 -2.507066726684570312e-01
-1.032730340957641602e-01 -2.365849018096923828e-01 -2.728913426399230957e-01
-3.077158331871032715e-01 -6.013181805610656738e-01 -5.166201591491699219e-01
-1.284028738737106323e-01 -2.650020420551300049e-01 -9.095921367406845093e-02
2.513368725776672363e-01 -6.717866063117980957e-01 -2.686524987220764160e-01
-2.247796803712844849e-01 -3.046008050441741943e-01 -4.734036922454833984e-01
-3.891492486000061035e-01 -3.428078889846801758e-01 -6.194013357162475586e-02
-4.861451387405395508e-01 -5.272836685180664062e-01 5.577012896537780762e-03
-2.259034514427185059e-01 -2.518314123153686523e-01 -1.685102880001068115e-01
2.347195148468017578e-01 -6.202918291091918945e-01 -1.278381645679473877e-01
-4.358043968677520752e-01 -4.327231645584106445e-01 -3.234629034996032715e-01
1.206787675619125366e-02 -2.914476096630096436e-01 -1.204027011990547180e-01
-3.592807948589324951e-01 -4.491721987724304199e-01 1.405553668737411499e-01
-1.026969999074935913e-01 -4.114370346069335938e-01 -6.265429854393005371e-01
8.527896553277969360e-02 -8.200767040252685547e-01 -3.804497122764587402e-01
-2.736124396324157715e-01 -3.165198564529418945e-01 1.349091529846191406e-02
2.164465934038162231e-02 -7.920814752578735352e-01 -4.762475490570068359e-01
-2.123439610004425049e-01 -8.830168247222900391e-01 -1.159982532262802124e-01
-4.216175973415374756e-01 -3.834723830223083496e-01 -2.922713756561279297e-01
-4.448371827602386475e-01 -3.881324827671051025e-01 -1.062438860535621643e-01
-4.739905893802642822e-01 -6.230368018150329590e-01 4.267410933971405029e-02
-4.696462452411651611e-01 -5.033277273178100586e-01 -2.777490615844726562e-01
-4.424782991409301758e-01 -6.840068101882934570e-01 -2.472869157791137695e-01
-3.961198031902313232e-01 -7.819286584854125977e-01 -1.305487751960754395e-01
-3.968949019908905029e-01 -7.843291163444519043e-01 -9.181321412324905396e-02
-8.728592097759246826e-02 -8.958563804626464844e-01 -1.482545733451843262e-01
-4.417557418346405029e-01 -6.464227437973022461e-01 1.037180274724960327e-01
1.369187533855438232e-01 -7.621752619743347168e-01 -2.477972209453582764e-02
-2.655900716781616211e-01 -7.466275691986083984e-01 1.928733736276626587e-01
4.951717704534530640e-02 -3.701913952827453613e-01 -5.858138799667358398e-01
2.613720297813415527e-01 -5.991786122322082520e-01 -3.830389380455017090e-01
-2.152149379253387451e-01 -8.695056438446044922e-01 -2.295144647359848022e-01
-1.760795116424560547e-01 -8.302445411682128906e-01 -3.795100450515747070e-01
-1.177803203463554382e-01 -8.300272226333618164e-01 -4.082438349723815918e-01
-2.028252929449081421e-01 -7.181977033615112305e-01 2.215698510408401489e-01
2.306088507175445557e-01 -4.358859062194824219e-01 -2.970726490020751953e-01
-1.910875737667083740e-01 -2.423680126667022705e-01 -2.063990384340286255e-01
-2.258884608745574951e-01 -8.737195730209350586e-01 -1.868539303541183472e-01
3.422833234071731567e-02 -8.737408518791198730e-01 -1.766933500766754150e-01
-4.607890248298645020e-01 -6.733845472335815430e-01 -2.038299441337585449e-01
-1.337788403034210205e-01 -6.508624553680419922e-01 2.349079698324203491e-01
7.947795093059539795e-03 -4.616661369800567627e-01 -6.495991349220275879e-01
7.050601392984390259e-02 -6.563355922698974609e-01 -6.017150282859802246e-01
-2.588688135147094727e-01 -3.425112962722778320e-01 6.600509583950042725e-02
-9.407293796539306641e-02 -5.580447912216186523e-01 2.175505012273788452e-01
-4.997162520885467529e-01 -5.309805870056152344e-01 -7.784555852413177490e-02
-1.075395047664642334e-01 -7.861090898513793945e-01 -4.838284850120544434e-01
-4.236414283514022827e-02 -7.824996709823608398e-01 1.381703466176986694e-01
-1.619140654802322388e-01 -7.261272072792053223e-01 2.158243507146835327e-01
-3.194702863693237305e-01 -3.089693784713745117e-01 -3.682014644145965576e-01
7.636521011590957642e-02 -6.084934473037719727e-01 1.193588227033615112e-01
1.846537292003631592e-01 -7.768347859382629395e-01 -2.016564607620239258e-01
-3.722179234027862549e-01 -7.985408902168273926e-01 -4.969373345375061035e-03
1.846478283405303955e-01 -7.631731033325195312e-01 -3.550382256507873535e-01
-4.906896948814392090e-01 -6.316551566123962402e-01 -1.081311479210853577e-01
1.434660702943801880e-02 -8.516322374343872070e-01 -1.136305928230285645e-02
-1.633795946836471558e-01 -7.687312364578247070e-01 1.875747293233871460e-01
-2.200871706008911133e-02 -7.560068368911743164e-01 -5.321733355522155762e-01
-2.763195335865020752e-02 -4.554467201232910156e-01 -6.506170630455017090e-01
-4.374883770942687988e-01 -7.102264761924743652e-01 -2.136310935020446777e-01
-2.950357794761657715e-01 -8.451696634292602539e-01 -3.302440047264099121e-03
-2.396807968616485596e-01 -8.461788296699523926e-01 -2.832223176956176758e-01
-1.209314987063407898e-01 -2.597490847110748291e-01 -4.342764019966125488e-01
-2.065206468105316162e-01 -4.271806478500366211e-01 1.699270159006118774e-01
1.833075881004333496e-01 -7.810651063919067383e-01 -2.445974349975585938e-01
-1.698381006717681885e-01 -8.897531032562255859e-01 -1.636743098497390747e-01
2.102664411067962646e-01 -7.386103868484497070e-01 -3.403997719287872314e-01
-4.856359958648681641e-01 -6.224406957626342773e-01 -2.135142683982849121e-03
1.550957560539245605e-01 -6.519865393638610840e-01 2.383258938789367676e-02
-4.439972341060638428e-02 -7.512536048889160156e-01 1.643926948308944702e-01
-5.229971557855606079e-02 -4.035235047340393066e-01 -6.291769146919250488e-01
-2.664379477500915527e-01 -8.647623062133789062e-01 -6.375478208065032959e-02
2.243489027023315430e-03 -7.238581180572509766e-01 -5.644049644470214844e-01
-1.937389373779296875e-01 -2.778600454330444336e-01 -4.973100125789642334e-02
-1.703373491764068604e-01 -2.447647750377655029e-01 -3.503547012805938721e-01
-2.917394042015075684e-01 -4.155572652816772461e-01 1.454351395368576050e-01
-1.026955321431159973e-01 -8.496501445770263672e-01 7.334105670452117920e-02
-2.263452112674713135e-01 -3.279209733009338379e-01 -5.053340196609497070e-01
-2.454421520233154297e-01 -7.838999032974243164e-01 -4.087655544281005859e-01
4.774763435125350952e-02 -2.722778916358947754e-01 -3.024169802665710449e-01
-4.267445504665374756e-01 -4.044561386108398438e-01 6.079986691474914551e-03
-3.423235416412353516e-01 -3.917713165283203125e-01 -4.533573389053344727e-01
-7.207870483398437500e-02 -4.367241859436035156e-01 -6.422793269157409668e-01
-3.016458451747894287e-01 -4.132606983184814453e-01 -5.140021443367004395e-01
-2.907251417636871338e-01 -8.514983654022216797e-01 -1.585470139980316162e-01
-2.446790039539337158e-01 -5.045767426490783691e-01 2.178295999765396118e-01
-7.192773371934890747e-02 -5.061485767364501953e-01 1.903025060892105103e-01
-1.737287640571594238e-01 -4.587179720401763916e-01 -6.190840005874633789e-01
-3.287880122661590576e-01 -4.115796089172363281e-01 -4.842429757118225098e-01
-3.151748776435852051e-01 -7.325400710105895996e-01 1.810349375009536743e-01
-3.714591264724731445e-01 -3.627309501171112061e-01 -3.760668039321899414e-01
-2.182943224906921387e-01 -4.612409770488739014e-01 1.952293962240219116e-01
1.921554654836654663e-02 -3.083757162094116211e-01 -8.576101064682006836e-02
-2.780119180679321289e-01 -8.070207238197326660e-01 -3.333489298820495605e-01
-3.700173497200012207e-01 -3.109616637229919434e-01 -2.078278958797454834e-01
-1.994834244251251221e-01 -8.491500616073608398e-01 7.556585967540740967e-02
-1.145584583282470703e-01 -5.192224383354187012e-01 -6.461791992187500000e-01
-4.677803516387939453e-01 -4.266984462738037109e-01 -8.692932128906250000e-02
-2.130243778228759766e-01 -8.295565843582153320e-01 -3.533164560794830322e-01
1.126150041818618774e-02 -8.364195823669433594e-01 2.647241950035095215e-02
2.214556038379669189e-01 -4.174787700176239014e-01 -3.329181671142578125e-01
8.521660417318344116e-02 -3.406085968017578125e-01 -5.236705541610717773e-01
6.986951082944869995e-02 -6.444420218467712402e-01 1.239926367998123169e-01
1.747106611728668213e-01 -3.738436698913574219e-01 -4.372789263725280762e-01
-1.747930794954299927e-02 -5.715861916542053223e-01 1.849529594182968140e-01
-4.174344837665557861e-01 -7.448920011520385742e-01 -1.944494247436523438e-01
8.246935904026031494e-03 -7.735768556594848633e-01 -5.066446065902709961e-01
-4.499326050281524658e-01 -6.824955940246582031e-01 5.446876585483551025e-02
-3.180738091468811035e-01 -7.002462148666381836e-01 -4.400625824928283691e-01
-4.670082032680511475e-01 -6.928946971893310547e-01 -8.698995411396026611e-02
-9.495283663272857666e-02 -5.863204598426818848e-01 -6.399900913238525391e-01
-4.926168173551559448e-02 -2.435849010944366455e-01 -3.244935870170593262e-01
-6.748624145984649658e-02 -6.587296128273010254e-01 2.122939378023147583e-01
-1.149916723370552063e-01 -2.895328104496002197e-01 -5.041130185127258301e-01
-4.665821492671966553e-01 -5.520889163017272949e-01 -2.902052104473114014e-01
-1.790356189012527466e-01 -6.901332139968872070e-01 2.326455265283584595e-01
-3.719704449176788330e-01 -6.727694272994995117e-01 -3.981221616268157959e-01
-2.749062776565551758e-01 -6.539452672004699707e-01 -5.180201530456542969e-01
-1.599655747413635254e-01 -2.578915655612945557e-01 -4.133972525596618652e-01
2.136923074722290039e-01 -4.353196024894714355e-01 -2.034777253866195679e-01
-3.542287051677703857e-01 -6.234612464904785156e-01 2.040019780397415161e-01
-4.316200911998748779e-01 -5.321221351623535156e-01 1.224984079599380493e-01
5.926571786403656006e-03 -8.653528094291687012e-01 -3.089096844196319580e-01
-9.571464359760284424e-02 -3.126440644264221191e-01 -5.437461733818054199e-01
-4.549829959869384766e-01 -4.432249963283538818e-01 -2.801056504249572754e-01
-8.051175624132156372e-02 -8.859826326370239258e-01 -4.332000017166137695e-02
-2.685929536819458008e-01 -5.396042466163635254e-01 2.278613001108169556e-01
-1.160760000348091125e-01 -7.558932304382324219e-01 -5.194181799888610840e-01
-1.383987218141555786e-01 -4.964509010314941406e-01 2.073112279176712036e-01
-2.307625114917755127e-01 -2.618663012981414795e-01 -1.178541406989097595e-01
-1.933782994747161865e-01 -7.677862644195556641e-01 -4.699831008911132812e-01
3.231257945299148560e-02 -3.831596374511718750e-01 2.618132531642913818e-02
5.671826750040054321e-02 -4.516608417034149170e-01 7.278491556644439697e-02
-1.664331257343292236e-01 -3.134882748126983643e-01 -5.231099724769592285e-01
-3.197496235370635986e-01 -3.809877932071685791e-01 9.348629415035247803e-02
1.829333603382110596e-01 -7.210029363632202148e-01 -4.499536156654357910e-01
1.034835353493690491e-01 -5.125511884689331055e-01 -6.276555061340332031e-01
-1.437565386295318604e-01 -8.408284783363342285e-01 9.778060019016265869e-02
-1.367436200380325317e-01 -5.605584979057312012e-01 2.305083125829696655e-01
-9.302385896444320679e-02 -3.424368798732757568e-01 5.452133715152740479e-02
6.011129170656204224e-02 -8.586286306381225586e-01 -2.663497924804687500e-01
7.904920727014541626e-02 -7.046422958374023438e-01 -5.613923072814941406e-01
6.186445802450180054e-02 -5.448372364044189453e-01 1.202103644609451294e-01
-3.824205994606018066e-01 -5.246435999870300293e-01 -4.500106275081634521e-01
1.283741295337677002e-01 -3.181478977203369141e-01 -3.329119086265563965e-01
2.679460048675537109e-01 -5.704783201217651367e-01 -3.316155076026916504e-01
2.502063512802124023e-01 -6.073259711265563965e-01 -1.773956716060638428e-01
1.464478075504302979e-01 -4.077813029289245605e-01 -5.460726618766784668e-01
-3.728222548961639404e-01 -3.206295967102050781e-01 -1.056926771998405457e-01
7.931111007928848267e-02 -7.310316562652587891e-01 8.215193450450897217e-02
-1.216663494706153870e-01 -8.957944512367248535e-01 -1.233566105365753174e-01
1.125495210289955139e-01 -8.364188671112060547e-01 -1.820720583200454712e-01
-1.873879879713058472e-02 -2.919497191905975342e-01 -5.032922029495239258e-01
-7.065393030643463135e-02 -8.288564682006835938e-01 -4.210661947727203369e-01
-1.500369906425476074e-01 -5.732041001319885254e-01 -6.268677115440368652e-01
-4.431290328502655029e-01 -7.222132086753845215e-01 -4.226535558700561523e-03
-1.573891788721084595e-01 -3.604917526245117188e-01 -5.769841670989990234e-01
-2.038558721542358398e-01 -6.627750992774963379e-01 2.408090680837631226e-01
-2.084604948759078979e-01 -5.203717350959777832e-01 2.264459282159805298e-01
-2.312896549701690674e-01 -3.752328157424926758e-01 1.165126115083694458e-01
1.650683581829071045e-01 -6.957251429557800293e-01 -5.063777565956115723e-01
-3.502786159515380859e-01 -7.348181009292602539e-01 -3.591578900814056396e-01
2.300798594951629639e-01 -7.188397645950317383e-01 -2.743252813816070557e-01
1.606134176254272461e-01 -7.661197185516357422e-01 -7.909290492534637451e-02
-5.828013271093368530e-02 -2.677183449268341064e-01 -4.571538567543029785e-01
-3.421106040477752686e-01 -7.173291444778442383e-01 -3.929169178009033203e-01
-1.809350252151489258e-01 -6.356404423713684082e-01 2.436854094266891479e-01
-4.721903502941131592e-01 -4.456505477428436279e-01 -5.127194523811340332e-02
-1.031201630830764771e-01 -7.810312509536743164e-01 1.653691083192825317e-01
-2.132169902324676514e-01 -8.085383772850036621e-01 1.429065316915512085e-01
1.992998719215393066e-01 -4.005811810493469238e-01 -2.376915812492370605e-01
5.515552312135696411e-02 -3.015998601913452148e-01 -4.732158184051513672e-01
-9.751982241868972778e-02 -6.408727765083312988e-01 2.258819490671157837e-01
-3.742388784885406494e-01 -4.005853533744812012e-01 -4.151739180088043213e-01
1.196342930197715759e-01 -3.461300134658813477e-01 -4.914674758911132812e-01
8.684491366147994995e-02 -4.579729139804840088e-01 -6.243151426315307617e-01
1.732453703880310059e-01 -3.752541840076446533e-01 -2.158943116664886475e-01
-8.769080042839050293e-02 -8.049377202987670898e-01 -4.605904817581176758e-01
7.828747481107711792e-02 -8.498366475105285645e-01 -1.230024173855781555e-01
-2.802727818489074707e-01 -4.890751540660858154e-01 2.035821825265884399e-01
1.754392683506011963e-01 -4.603778123855590820e-01 -7.337899506092071533e-02
-3.281810581684112549e-01 -4.061910212039947510e-01 1.188744455575942993e-01
-2.296242415904998779e-01 -8.693505525588989258e-01 -9.438946843147277832e-03
-1.128820031881332397e-01 -6.692166924476623535e-01 -5.964784026145935059e-01
-3.273954093456268311e-01 -6.576827764511108398e-01 -4.655692577362060547e-01
5.600010603666305542e-02 -3.004957437515258789e-01 -1.585949659347534180e-01
6.183505058288574219e-03 -3.190186023712158203e-01 -5.418033003807067871e-01
-3.071128576993942261e-02 -3.786734938621520996e-01 6.898806989192962646e-02
2.248153686523437500e-01 -6.882567405700683594e-01 -1.427744030952453613e-01
-3.875443935394287109e-01 -6.282957196235656738e-01 -4.095203578472137451e-01
2.037415206432342529e-01 -7.137932777404785156e-01 -4.215322732925415039e-01
-4.217143654823303223e-01 -6.728405952453613281e-01 1.203133016824722290e-01
2.477205991744995117e-01 -6.621050834655761719e-01 -3.713909089565277100e-01
-2.464270889759063721e-01 -2.618824541568756104e-01 -3.396697938442230225e-01
-1.872228384017944336e-01 -3.971851170063018799e-01 1.417561322450637817e-01
-4.708956778049468994e-01 -6.263371706008911133e-01 -2.346785366535186768e-01
2.947061508893966675e-02 -5.322546362876892090e-01 1.421085745096206665e-01
-1.678382158279418945e-01 -8.704897165298461914e-01 -2.773588001728057861e-01
2.040887176990509033e-01 -4.105858802795410156e-01 -4.365529417991638184e-01
-1.379764527082443237e-01 -8.833424448966979980e-01 -2.447296679019927979e-01
7.220629602670669556e-02 -3.983368873596191406e-01 4.625678062438964844e-03
2.419997453689575195e-01 -6.902222633361816406e-01 -3.285201191902160645e-01
-1.868488192558288574e-01 -5.878596901893615723e-01 -6.065212488174438477e-01
-3.987708091735839844e-01 -3.414239287376403809e-01 -2.517566382884979248e-01
-1.768025159835815430e-01 -3.418003320693969727e-01 -5.511730313301086426e-01
-2.783159017562866211e-01 -7.058672904968261719e-01 -4.743263721466064453e-01
-8.187809586524963379e-02 -2.794064879417419434e-01 -4.882822632789611816e-01
8.665906637907028198e-02 -5.376785993576049805e-01 9.445624053478240967e-02
-3.470617532730102539e-01 -3.009263873100280762e-01 -1.278119385242462158e-01
1.229065135121345520e-01 -6.788436770439147949e-01 5.896879732608795166e-02
-3.610105216503143311e-01 -3.357615470886230469e-01 -3.484128713607788086e-01
1.098962202668190002e-01 -6.453530788421630859e-01 8.308671414852142334e-02
2.058719992637634277e-01 -7.376265525817871094e-01 -1.595202535390853882e-01
1.939015388488769531e-01 -6.762385368347167969e-01 -5.250649154186248779e-02
1.073076352477073669e-01 -8.083997368812561035e-01 -5.001826584339141846e-02
-8.144354075193405151e-02 -8.892961144447326660e-01 -2.299911379814147949e-01
-1.900594234466552734e-01 -8.868488073348999023e-01 -8.005566895008087158e-02
2.539092898368835449e-01 -6.340439915657043457e-01 -2.078704684972763062e-01
-9.776362031698226929e-02 -2.993030548095703125e-01 -1.697108149528503418e-02
7.897716015577316284e-02 -8.097316622734069824e-01 -5.675658583641052246e-03
-1.255869865417480469e-01 -8.084402084350585938e-01 -4.442902207374572754e-01
-3.641154766082763672e-01 -7.903459668159484863e-01 -2.212418317794799805e-01
2.340414226055145264e-01 -6.410648822784423828e-01 -4.466100335121154785e-01
-4.252814352512359619e-01 -3.630013763904571533e-01 -2.055505067110061646e-01
2.366373538970947266e-01 -6.929739117622375488e-01 -2.026585936546325684e-01
-3.385769128799438477e-01 -3.107323646545410156e-01 -6.396497786045074463e-02
-4.431737065315246582e-01 -5.549001693725585938e-01 -3.452786207199096680e-01
-2.869015336036682129e-01 -2.771192491054534912e-01 -3.299066424369812012e-01
2.531414330005645752e-01 -4.926642179489135742e-01 -2.781563997268676758e-01
-3.808735907077789307e-01 -5.798434019088745117e-01 1.855019778013229370e-01
1.463747769594192505e-02 -6.306554675102233887e-01 -6.290302872657775879e-01
2.408278584480285645e-01 -4.860486388206481934e-01 -2.165977209806442261e-01
5.528361350297927856e-02 -7.932546734809875488e-01 -4.604930281639099121e-01
-2.288723289966583252e-01 -5.886074900627136230e-01 -5.826004147529602051e-01
1.393267214298248291e-01 -7.981905937194824219e-01 -9.700476378202438354e-02
-2.420575022697448730e-01 -2.959137558937072754e-01 -1.727485656738281250e-02
-4.813101887702941895e-01 -5.554447174072265625e-01 3.361156582832336426e-02
-3.856800198554992676e-01 -4.392156600952148438e-01 -4.248963594436645508e-01
7.666068524122238159e-02 -7.475165128707885742e-01 -5.165241360664367676e-01
-3.474135100841522217e-01 -7.935132980346679688e-01 -2.521921694278717041e-01
1.572474837303161621e-01 -6.694404482841491699e-01 -5.390278100967407227e-01
1.367639899253845215e-01 -3.306609094142913818e-01 -2.580431699752807617e-01
-2.983317673206329346e-01 -3.660452961921691895e-01 -4.820546507835388184e-01
-3.922176361083984375e-02 -6.803455352783203125e-01 -6.014965176582336426e-01
-4.458419084548950195e-01 -7.279545664787292480e-01 -8.174597471952438354e-02
-2.674123644828796387e-01 -3.938971459865570068e-01 1.307324916124343872e-01
-3.539622724056243896e-01 -4.872283637523651123e-01 -4.837802052497863770e-01
-1.755063384771347046e-01 -7.316223382949829102e-01 -5.210192799568176270e-01
-4.365970939397811890e-02 -8.825198411941528320e-01 -5.559994280338287354e-02
-2.691151797771453857e-01 -3.397679924964904785e-01 -4.833496212959289551e-01
-3.234531879425048828e-01 -5.487253665924072266e-01 2.135833948850631714e-01
-4.207607805728912354e-01 -5.528083443641662598e-01 -3.882393836975097656e-01
-3.167340755462646484e-01 -2.929935455322265625e-01 -9.249443560838699341e-02
-3.947657644748687744e-01 -7.839623093605041504e-01 -3.481768071651458740e-02
-7.229776680469512939e-02 -5.612314343452453613e-01 -6.504501700401306152e-01
-2.563797235488891602e-01 -2.837705910205841064e-01 -5.708743631839752197e-02
-1.487569212913513184e-01 -3.806738257408142090e-01 1.193967908620834351e-01
1.754564642906188965e-01 -7.829329371452331543e-01 -3.085423111915588379e-01
-4.843297600746154785e-01 -4.659975171089172363e-01 -1.735202372074127197e-01
1.919239759445190430e-01 -3.804510235786437988e-01 -2.877252101898193359e-01
-2.910855412483215332e-01 -2.978328764438629150e-01 -3.876702487468719482e-01
-1.592833697795867920e-01 -5.325295329093933105e-01 2.266697138547897339e-01
-1.304015964269638062e-01 -6.068141460418701172e-01 2.358054965734481812e-01
-4.494742155075073242e-01 -7.204207777976989746e-01 -4.244159162044525146e-02
2.044956684112548828e-01 -6.060732603073120117e-01 -5.398860573768615723e-02
2.601196616888046265e-02 -6.877504587173461914e-01 1.508832126855850220e-01
-2.775037288665771484e-01 -5.050626993179321289e-01 -5.605453848838806152e-01
-2.732767760753631592e-01 -6.095917224884033203e-01 -5.430353283882141113e-01
-9.325744211673736572e-02 -2.499898672103881836e-01 -4.018037915229797363e-01
-4.959952235221862793e-01 -5.845624804496765137e-01 -1.570734977722167969e-01
-2.525084018707275391e-01 -7.364786267280578613e-01 -4.651345610618591309e-01
1.047381684184074402e-01 -3.037030100822448730e-01 -2.878668606281280518e-01
-5.724772810935974121e-03 -4.964710175991058350e-01 -6.571082472801208496e-01
-4.306631982326507568e-01 -4.322935640811920166e-01 4.279105365276336670e-02
-4.561693072319030762e-01 -4.491935372352600098e-01 1.198248565196990967e-02
-1.017814353108406067e-01 -8.927823305130004883e-01 -2.013733386993408203e-01
1.903335154056549072e-01 -4.071671962738037109e-01 -1.869056075811386108e-01
-3.978217244148254395e-01 -7.427127361297607422e-01 8.229263126850128174e-02
-5.693126842379570007e-02 -3.913122415542602539e-01 9.813483059406280518e-02
-3.890990316867828369e-01 -5.003032684326171875e-01 1.529407054185867310e-01
1.749115884304046631e-01 -4.253180325031280518e-01 -5.252012014389038086e-01
-1.528726369142532349e-01 -8.878965377807617188e-01 -2.055902779102325439e-01
8.800657838582992554e-02 -3.111612796783447266e-01 -4.540058672428131104e-01
-4.702027440071105957e-01 -4.444379806518554688e-01 -2.205354720354080200e-01
-2.949796319007873535e-01 -2.686497867107391357e-01 -2.262380868196487427e-01
7.843323051929473877e-03 -6.943643093109130859e-01 -5.895559191703796387e-01
-3.538629412651062012e-01 -7.606203556060791016e-01 1.197137087583541870e-01
2.461325526237487793e-01 -4.893783628940582275e-01 -4.165631532669067383e-01
-2.410912513732910156e-01 -8.304589986801147461e-01 -3.239166438579559326e-01
2.367419004440307617e-01 -5.286335349082946777e-01 -1.551482677459716797e-01
-2.770415246486663818e-01 -4.685784578323364258e-01 -5.565605163574218750e-01
-2.315558493137359619e-01 -7.645290493965148926e-01 -4.478852152824401855e-01
1.514317691326141357e-01 -4.326692223548889160e-01 -6.202581524848937988e-02
6.662570685148239136e-02 -3.233715891838073730e-01 -1.132292374968528748e-01
-6.745852530002593994e-03 -4.229647517204284668e-01 -6.374514698982238770e-01
-3.416422009468078613e-01 -8.275946378707885742e-01 -8.862952142953872681e-02
-4.459391236305236816e-01 -6.007505059242248535e-01 1.116486638784408569e-01
2.739646285772323608e-02 -8.508372306823730469e-01 -3.447328209877014160e-01
1.180420890450477600e-01 -5.210149884223937988e-01 5.339495837688446045e-02
1.191261485219001770e-01 -5.609841346740722656e-01 6.726203858852386475e-02
1.709496378898620605e-01 -4.975316524505615234e-01 -5.734186172485351562e-01
-3.222674131393432617e-01 -7.782465219497680664e-01 1.272189766168594360e-01
6.965748220682144165e-02 -8.595463633537292480e-01 -2.145153880119323730e-01
1.902543753385543823e-02 -8.319722414016723633e-01 -4.010754823684692383e-01
-2.712168544530868530e-02 -8.647634387016296387e-01 -4.610002040863037109e-03
6.587991118431091309e-01 8.084757626056671143e-02 2.821741700172424316e-01
8.911803364753723145e-01 1.951055042445659637e-02 -7.099289447069168091e-02
6.962913870811462402e-01 6.139919534325599670e-02 -6.202102303504943848e-01
7.074216604232788086e-01 1.817506179213523865e-02 2.291972488164901733e-01
6.534957885742187500e-01 8.327516913414001465e-02 2.266081422567367554e-01
3.758822381496429443e-01 4.350325465202331543e-02 -3.382914662361145020e-01
6.107494831085205078e-01 8.900954574346542358e-02 -1.090104952454566956e-01
7.711865901947021484e-01 1.286509633064270020e-02 -2.086216509342193604e-01
8.329362273216247559e-01 1.427749544382095337e-02 -7.711665332317352295e-02
5.929907560348510742e-01 2.248491533100605011e-02 1.838624328374862671e-01
4.089032709598541260e-01 3.487610816955566406e-02 -2.534245252609252930e-01
5.858619809150695801e-01 7.576899975538253784e-02 -5.568355917930603027e-01
7.533280849456787109e-01 1.817753911018371582e-02 -4.054729342460632324e-01
8.396373391151428223e-01 7.474297285079956055e-02 1.240947842597961426e-01
6.700601577758789062e-01 1.731398701667785645e-02 -4.295698404312133789e-01
5.141122341156005859e-01 8.495151251554489136e-02 -3.599628210067749023e-01
8.851454854011535645e-01 6.775949150323867798e-02 1.652580946683883667e-01
4.263677000999450684e-01 3.299228847026824951e-02 -3.715544342994689941e-01
8.453297019004821777e-01 1.939130015671253204e-02 2.180242091417312622e-01
6.371380686759948730e-01 8.650402724742889404e-02 1.234103739261627197e-01
7.591279149055480957e-01 1.166228204965591431e-02 -1.169937103986740112e-01
7.416739463806152344e-01 4.347563534975051880e-02 5.056485533714294434e-01
8.499939441680908203e-01 6.893977522850036621e-02 -2.297988384962081909e-01
8.682320117950439453e-01 7.080257683992385864e-02 1.407060623168945312e-01
5.633168220520019531e-01 8.839365839958190918e-02 -3.415122628211975098e-03
4.899025559425354004e-01 2.404906414449214935e-02 -1.062778383493423462e-01
4.965949654579162598e-01 8.586622774600982666e-02 -2.979538440704345703e-01
6.824855804443359375e-01 8.208468556404113770e-02 2.469044178724288940e-01
7.783959507942199707e-01 6.023167818784713745e-02 -5.210767388343811035e-01
6.114898920059204102e-01 1.577684283256530762e-02 1.316627860069274902e-02
7.644596695899963379e-01 7.934209704399108887e-02 2.238775640726089478e-01
5.135824680328369141e-01 7.052462548017501831e-02 -6.185011863708496094e-01
5.108021497726440430e-01 2.114360593259334564e-02 -2.494000792503356934e-01
8.895910978317260742e-01 1.894320920109748840e-02 1.875545829534530640e-02
8.129275441169738770e-01 5.897594615817070007e-02 -4.676546454429626465e-01
7.531011104583740234e-01 2.218197286128997803e-02 3.239320516586303711e-01
6.901801824569702148e-01 6.797220557928085327e-02 4.491168260574340820e-01
7.548627257347106934e-01 1.371550559997558594e-02 -2.760487496852874756e-01
5.700435638427734375e-01 8.467429876327514648e-02 1.607970744371414185e-01
5.175085067749023438e-01 4.213016480207443237e-02 3.067056536674499512e-01
7.615000009536743164e-01 1.356900855898857117e-02 1.008320301771163940e-01
6.779230237007141113e-01 8.673857152462005615e-02 6.347756087779998779e-02
8.167135715484619141e-01 1.371512934565544128e-02 -1.261712759733200073e-01
7.503862380981445312e-01 1.580801978707313538e-02 1.837098747491836548e-01
6.092949509620666504e-01 7.637132704257965088e-02 -5.374667048454284668e-01
8.597594499588012695e-01 1.616858318448066711e-02 2.277246117591857910e-02
4.483192563056945801e-01 8.210010826587677002e-02 -3.478179872035980225e-01
6.783528923988342285e-01 2.078927494585514069e-02 -5.009806752204895020e-01
5.960943698883056641e-01 8.909845352172851562e-02 -6.083815917372703552e-02
7.675556540489196777e-01 7.687363028526306152e-02 -3.039699196815490723e-01
8.239312171936035156e-01 6.652829051017761230e-02 -3.584426641464233398e-01
3.588375151157379150e-01 6.637027114629745483e-02 -3.435152471065521240e-01
6.943200826644897461e-01 4.936913400888442993e-02 5.081741809844970703e-01
6.294518113136291504e-01 8.860556781291961670e-02 -1.779027283191680908e-02
7.417411208152770996e-01 8.415853977203369141e-02 2.647511661052703857e-03
5.792032480239868164e-01 1.619974896311759949e-02 -2.649089694023132324e-01
4.865123331546783447e-01 4.057605564594268799e-02 2.323704808950424194e-01
7.352596521377563477e-01 8.381474018096923828e-02 -1.362870931625366211e-01
5.007660984992980957e-01 7.214000821113586426e-02 2.687070369720458984e-01
5.173959136009216309e-01 6.271267682313919067e-02 -6.764882802963256836e-01
7.266219258308410645e-01 2.854659408330917358e-02 -5.710654258728027344e-01
7.843641042709350586e-01 1.291058212518692017e-02 -1.813869774341583252e-01
6.844014525413513184e-01 2.362198196351528168e-02 3.172446489334106445e-01
5.623992681503295898e-01 8.647121489048004150e-02 -3.232822418212890625e-01
5.384885072708129883e-01 7.331474870443344116e-02 -5.942038893699645996e-01
4.282233119010925293e-01 7.993751764297485352e-02 -3.059385716915130615e-02
4.841059446334838867e-01 2.755793929100036621e-02 1.104988902807235718e-02
5.497919917106628418e-01 1.785789057612419128e-02 -2.324144840240478516e-01
5.635871291160583496e-01 8.773934841156005859e-02 -2.632740736007690430e-01
4.510834217071533203e-01 2.822529338300228119e-02 -3.010931909084320068e-01
4.394122958183288574e-01 7.456843554973602295e-02 -5.069408416748046875e-01
9.261969327926635742e-01 4.861378297209739685e-02 3.156360983848571777e-01
6.322038769721984863e-01 8.743824809789657593e-02 -2.263407558202743530e-01
5.141868591308593750e-01 8.777888864278793335e-02 -8.469860255718231201e-02
5.830798149108886719e-01 1.590310782194137573e-02 -9.989460557699203491e-02
8.351078033447265625e-01 2.792142517864704132e-02 -4.226278662681579590e-01
3.829742372035980225e-01 7.272911071777343750e-02 -3.770465254783630371e-01
5.962680578231811523e-01 1.855961233377456665e-02 -4.216347336769104004e-01
7.848100662231445312e-01 1.251848042011260986e-02 -1.466951817274093628e-01
8.397308588027954102e-01 1.912425458431243896e-02 -2.795260548591613770e-01
8.097457885742187500e-01 1.535790786147117615e-02 -2.409771233797073364e-01
8.463326692581176758e-01 6.377898901700973511e-02 -3.361539244651794434e-01
7.136722207069396973e-01 6.472891569137573242e-02 4.722130894660949707e-01
7.670851349830627441e-01 6.889109313488006592e-02 4.166543483734130859e-01
6.725603938102722168e-01 7.644575834274291992e-02 -4.822598099708557129e-01
6.779606342315673828e-01 1.271772757172584534e-02 -1.364789903163909912e-03
3.932169973850250244e-01 3.919518738985061646e-02 -1.641145050525665283e-01
9.144867658615112305e-01 2.237858995795249939e-02 -9.321592748165130615e-03
5.576257705688476562e-01 7.245513796806335449e-02 3.408676981925964355e-01
5.578610301017761230e-01 7.994353771209716797e-02 -4.960212707519531250e-01
5.378155708312988281e-01 3.494141250848770142e-02 2.785738706588745117e-01
7.491050958633422852e-01 7.551868259906768799e-02 -3.780879378318786621e-01
4.729809165000915527e-01 2.772104181349277496e-02 -4.200343489646911621e-01
7.754064202308654785e-01 8.042715489864349365e-02 1.474580764770507812e-01
4.618133902549743652e-01 2.734854444861412048e-02 -3.432181477546691895e-01
5.521582365036010742e-01 2.805719338357448578e-02 2.119364291429519653e-01
5.520679950714111328e-01 8.890517055988311768e-02 -1.040479242801666260e-01
9.105932116508483887e-01 6.405474990606307983e-02 8.847530186176300049e-02
6.942304968833923340e-01 7.703058421611785889e-02 3.446229696273803711e-01
5.559537410736083984e-01 6.807135045528411865e-02 -6.463252902030944824e-01
4.607398509979248047e-01 8.357243984937667847e-02 -3.221711516380310059e-01
6.328419446945190430e-01 8.870238065719604492e-02 -5.815401673316955566e-02
3.589588105678558350e-01 5.919601768255233765e-02 -1.065783724188804626e-01
9.363052248954772949e-01 2.669863775372505188e-02 1.289193332195281982e-02
4.317384958267211914e-01 3.846582025289535522e-02 -5.259254574775695801e-01
8.182791471481323242e-01 7.621865719556808472e-02 1.730448156595230103e-01
7.630910277366638184e-01 1.822482421994209290e-02 2.473696321249008179e-01
6.686335206031799316e-01 1.288009807467460632e-02 -2.568200826644897461e-01
8.199059963226318359e-01 2.545475400984287262e-02 3.560391068458557129e-01
4.881091117858886719e-01 8.478333055973052979e-02 1.793237775564193726e-02
6.051557064056396484e-01 2.152364142239093781e-02 -5.033344030380249023e-01
6.614155173301696777e-01 8.528016507625579834e-02 -2.793862819671630859e-01
7.730675935745239258e-01 7.983830571174621582e-02 1.836213916540145874e-01
6.993300318717956543e-01 1.163607835769653320e-02 -6.800314038991928101e-02
6.238571405410766602e-01 8.768133819103240967e-02 6.886631250381469727e-02
6.366443037986755371e-01 8.339567482471466064e-02 -3.755763173103332520e-01
6.351165771484375000e-01 1.980889402329921722e-02 1.922983378171920776e-01
6.630519032478332520e-01 7.207603752613067627e-02 4.091469645500183105e-01
6.316652297973632812e-01 1.395979523658752441e-02 -3.468640148639678955e-02
5.717100501060485840e-01 7.415628433227539062e-02 -5.820817947387695312e-01
7.697393298149108887e-01 6.875699758529663086e-02 -4.484919309616088867e-01
6.923450827598571777e-01 1.366575807332992554e-02 7.360987365245819092e-02
5.090249776840209961e-01 2.260512113571166992e-02 -3.603566884994506836e-01
7.763218283653259277e-01 1.204037666320800781e-02 -2.992115169763565063e-02
4.652315378189086914e-01 8.542816340923309326e-02 -1.470687389373779297e-01
6.587160825729370117e-01 1.462433114647865295e-02 -3.410856127738952637e-01
6.994335651397705078e-01 8.433954417705535889e-02 1.579961329698562622e-01
8.258496522903442383e-01 7.642386108636856079e-02 -6.553215533494949341e-02
7.183375358581542969e-01 1.714607700705528259e-02 -4.114071130752563477e-01
7.518427371978759766e-01 8.335620164871215820e-02 -6.089233234524726868e-02
8.060476779937744141e-01 2.039225399494171143e-02 -3.758594989776611328e-01
8.562072515487670898e-01 7.081343978643417358e-02 -1.458701640367507935e-01
7.457776665687561035e-01 8.189872652292251587e-02 1.706320196390151978e-01
8.885368704795837402e-01 6.303928792476654053e-02 2.837862372398376465e-01
4.640122354030609131e-01 4.200008884072303772e-02 -6.259658932685852051e-01
7.226107120513916016e-01 3.446630388498306274e-02 -6.154673695564270020e-01
9.092355966567993164e-01 3.068365529179573059e-02 2.967468500137329102e-01
4.605840146541595459e-01 2.669147215783596039e-02 -2.549278736114501953e-01
4.755640625953674316e-01 8.586245775222778320e-02 -2.268349677324295044e-01
4.247014522552490234e-01 3.476157784461975098e-02 -6.858087331056594849e-02
6.033495664596557617e-01 3.598015755414962769e-02 3.835629820823669434e-01
9.398189783096313477e-01 5.436196178197860718e-02 -5.723006278276443481e-02
8.014342784881591797e-01 3.916852548718452454e-02 4.803830981254577637e-01
6.323853135108947754e-01 8.153349161148071289e-02 2.667188644409179688e-01
8.195598125457763672e-01 3.827322646975517273e-02 -5.092049837112426758e-01
6.973056197166442871e-01 1.249224692583084106e-02 -2.495252192020416260e-01
8.013588190078735352e-01 7.453334331512451172e-02 -2.649065852165222168e-01
5.637891888618469238e-01 8.322145789861679077e-02 1.913727074861526489e-01
5.833294391632080078e-01 7.979908585548400879e-02 2.743340730667114258e-01
4.799156785011291504e-01 6.867738813161849976e-02 -6.176854968070983887e-01
5.078862905502319336e-01 8.771504461765289307e-02 -1.582513600587844849e-01
5.947327613830566406e-01 3.345694392919540405e-02 -6.550927758216857910e-01
7.075847387313842773e-01 8.557930588722229004e-02 6.664414703845977783e-02
5.822426676750183105e-01 2.077024988830089569e-02 -4.668772816658020020e-01
5.386305451393127441e-01 3.843636438250541687e-02 -6.717925071716308594e-01
9.131337404251098633e-01 2.623958140611648560e-02 2.133400589227676392e-01
9.206506013870239258e-01 2.399577200412750244e-02 -5.525074526667594910e-02
7.265892028808593750e-01 1.149110123515129089e-02 -1.519150584936141968e-01
5.716429948806762695e-01 5.186919867992401123e-02 -7.151548862457275391e-01
3.806279003620147705e-01 4.141629487276077271e-02 -2.741296887397766113e-01
3.893904685974121094e-01 7.217587530612945557e-02 -4.194639921188354492e-01
7.244327068328857422e-01 7.271377742290496826e-02 -4.706007242202758789e-01
5.918823480606079102e-01 8.812201023101806641e-02 4.104508459568023682e-02
5.805122256278991699e-01 1.578141003847122192e-02 -1.451100111007690430e-01
6.659615635871887207e-01 8.776453137397766113e-02 -9.295688569545745850e-02
5.871048569679260254e-01 7.654920220375061035e-02 3.239298462867736816e-01
6.389530301094055176e-01 8.819460868835449219e-02 1.588244736194610596e-02
5.271834135055541992e-01 2.477701380848884583e-02 -4.840499758720397949e-01
8.246890306472778320e-01 7.129812240600585938e-02 3.024740219116210938e-01
8.729526400566101074e-01 2.305126003921031952e-02 -2.691497206687927246e-01
6.604765653610229492e-01 8.742557466030120850e-02 -1.621168404817581177e-01
7.749059796333312988e-01 2.032958902418613434e-02 2.905632853507995605e-01
3.999832868576049805e-01 7.576000690460205078e-02 -5.246715992689132690e-02
6.987272500991821289e-01 1.496421545743942261e-02 1.318630427122116089e-01
9.551869630813598633e-01 3.298025578260421753e-02 5.012008547782897949e-02
6.452109813690185547e-01 1.275241002440452576e-02 -1.742688417434692383e-01
7.134546041488647461e-01 7.927064597606658936e-02 -3.663838505744934082e-01
6.123834848403930664e-01 8.035153150558471680e-02 -4.672789573669433594e-01
6.907872557640075684e-01 8.570685982704162598e-02 1.049556583166122437e-01
8.972760438919067383e-01 5.853436887264251709e-02 3.237809538841247559e-01
7.538934946060180664e-01 1.499505341053009033e-02 -3.235544562339782715e-01
6.399783492088317871e-01 2.303591184318065643e-02 2.647312283515930176e-01
5.333223938941955566e-01 8.762897551059722900e-02 -5.641818046569824219e-03
6.009623408317565918e-01 8.407822996377944946e-02 1.980427056550979614e-01
5.825194716453552246e-01 2.705376408994197845e-02 2.506701350212097168e-01
4.330079257488250732e-01 8.160637319087982178e-02 -3.116463124752044678e-01
5.595147609710693359e-01 1.811939850449562073e-02 -3.233280479907989502e-01
9.140948653221130371e-01 4.837534204125404358e-02 -2.663422822952270508e-01
6.936515569686889648e-01 8.423481136560440063e-02 -2.550516128540039062e-01
6.621943116188049316e-01 8.651398122310638428e-02 1.047482043504714966e-01
6.221740245819091797e-01 1.414591446518898010e-02 -2.593673169612884521e-01
5.498294830322265625e-01 8.654594421386718750e-02 7.711516320705413818e-02
9.621652364730834961e-01 4.246673732995986938e-02 1.539114862680435181e-02
6.485816240310668945e-01 7.599668949842453003e-02 -5.141477584838867188e-01
5.486425757408142090e-01 8.393356949090957642e-02 -4.063431620597839355e-01
8.512457609176635742e-01 2.409665845334529877e-02 -3.440205454826354980e-01
4.703172743320465088e-01 7.631333172321319580e-02 1.668297797441482544e-01
6.243582367897033691e-01 2.694967575371265411e-02 -5.941439867019653320e-01
6.291694045066833496e-01 1.360599324107170105e-02 -2.301487773656845093e-01
6.148549318313598633e-01 1.948010176420211792e-02 1.514684110879898071e-01
8.674476742744445801e-01 1.667421311140060425e-02 -1.042775809764862061e-02
5.257671475410461426e-01 8.788290619850158691e-02 -2.197396457195281982e-01
5.996193289756774902e-01 8.676534891128540039e-02 1.117046624422073364e-01
8.685078024864196777e-01 7.150661945343017578e-02 3.908398747444152832e-02
4.714961349964141846e-01 8.494925498962402344e-02 -5.029875040054321289e-02
7.159237265586853027e-01 8.178500831127166748e-02 2.269897311925888062e-01
8.020855784416198730e-01 1.421611383557319641e-02 -2.110614031553268433e-01
4.298047423362731934e-01 7.909775525331497192e-02 -3.939146995544433594e-01
7.354966402053833008e-01 7.537569105625152588e-02 -4.075677990913391113e-01
6.562619805335998535e-01 8.503381907939910889e-02 1.724550575017929077e-01
6.775810122489929199e-01 3.264367580413818359e-02 4.208356142044067383e-01
6.397009491920471191e-01 1.296360418200492859e-02 -1.148532107472419739e-01
7.522525191307067871e-01 2.907582931220531464e-02 -5.518673658370971680e-01
4.999125599861145020e-01 3.534776717424392700e-02 -6.139250397682189941e-01
7.108769416809082031e-01 1.401785761117935181e-02 -3.225402832031250000e-01
3.747050762176513672e-01 4.553066194057464600e-02 -1.354818195104598999e-01
8.343095779418945312e-01 7.174497842788696289e-02 2.673576474189758301e-01
4.705114960670471191e-01 5.498586222529411316e-02 2.725687623023986816e-01
4.401377439498901367e-01 3.429486602544784546e-02 -4.779633879661560059e-01
7.341197133064270020e-01 8.425032347440719604e-02 -1.046375259757041931e-01
8.089632987976074219e-01 6.408685445785522461e-02 4.282736182212829590e-01
4.042746722698211670e-01 7.903081178665161133e-02 -1.634602844715118408e-01
6.103103756904602051e-01 8.747461438179016113e-02 -2.537928223609924316e-01
6.529937386512756348e-01 2.709261700510978699e-02 -5.941231846809387207e-01
7.520322203636169434e-01 1.415734365582466125e-02 1.272985190153121948e-01
6.564763784408569336e-01 3.737385943531990051e-02 4.433574676513671875e-01
8.576927781105041504e-01 5.655097216367721558e-02 -3.845999240875244141e-01
7.640401721000671387e-01 1.168710738420486450e-02 -6.779869645833969116e-02
6.705852746963500977e-01 3.153506666421890259e-02 -6.297106146812438965e-01
8.873172998428344727e-01 6.673776358366012573e-02 -9.763026982545852661e-02
6.254257559776306152e-01 1.346018910408020020e-02 -1.406281739473342896e-01
6.443008780479431152e-01 1.401246711611747742e-02 6.520621478557586670e-03
5.161643028259277344e-01 8.603326231241226196e-02 -3.191977739334106445e-01
7.771657705307006836e-01 8.114375919103622437e-02 -8.563023060560226440e-02
6.458606123924255371e-01 7.940122485160827637e-02 3.090222477912902832e-01
6.102989315986633301e-01 7.999949157238006592e-02 2.877985239028930664e-01
8.593938350677490234e-01 1.610436663031578064e-02 -6.121570244431495667e-02
7.741484642028808594e-01 5.681300163269042969e-02 4.976230859756469727e-01
7.001460790634155273e-01 1.695652678608894348e-02 1.936367303133010864e-01
7.600719332695007324e-01 8.125546574592590332e-02 -1.761958152055740356e-01
6.271263957023620605e-01 3.294324874877929688e-02 -6.517590284347534180e-01
3.830260634422302246e-01 4.518295824527740479e-02 -4.404636621475219727e-01
6.385506391525268555e-01 1.788296923041343689e-02 -4.368781447410583496e-01
5.104045271873474121e-01 2.142036706209182739e-02 -1.409629285335540771e-01
6.148578524589538574e-01 8.839553594589233398e-02 -1.869509071111679077e-01
3.619630336761474609e-01 6.958773732185363770e-02 -2.176565229892730713e-01
5.359772443771362305e-01 2.112893573939800262e-02 -5.051016807556152344e-03
6.354061365127563477e-01 8.033678680658340454e-02 -4.492985606193542480e-01
4.748363494873046875e-01 8.248975872993469238e-02 -3.924861550331115723e-01
7.327785491943359375e-01 6.293310970067977905e-02 -5.674054622650146484e-01
8.393166065216064453e-01 7.538681477308273315e-02 2.444990724325180054e-02
9.274259209632873535e-01 5.995606258511543274e-02 1.670808345079421997e-02
7.935416102409362793e-01 8.015739917755126953e-02 -1.044464111328125000e-02
6.203891634941101074e-01 8.865389227867126465e-02 -1.492287665605545044e-01
8.585656881332397461e-01 6.948471069335937500e-02 2.465553432703018188e-01
5.151181221008300781e-01 8.188103139400482178e-02 -4.478783011436462402e-01
5.081977844238281250e-01 2.214011922478675842e-02 -3.286876082420349121e-01
6.871767640113830566e-01 1.221646741032600403e-02 -2.231674492359161377e-01
4.788441658020019531e-01 2.607563510537147522e-02 -3.819352388381958008e-01
8.415392637252807617e-01 7.499200105667114258e-02 7.425309717655181885e-02
4.165483117103576660e-01 7.363423705101013184e-02 -4.770666360855102539e-01
5.126621127128601074e-01 2.129857055842876434e-02 -2.937090098857879639e-01
8.998072743415832520e-01 2.664155326783657074e-02 -2.386331409215927124e-01
3.499402105808258057e-01 6.088220328092575073e-02 -3.043685555458068848e-01
6.978566050529479980e-01 1.998548768460750580e-02 -4.801576137542724609e-01
5.706941485404968262e-01 8.891291916370391846e-02 -1.674831956624984741e-01
7.651351094245910645e-01 4.027747362852096558e-02 -5.925796627998352051e-01
5.132005810737609863e-01 7.875315845012664795e-02 -5.102009773254394531e-01
8.555525541305541992e-01 2.240951359272003174e-02 2.714222073554992676e-01
8.643963932991027832e-01 3.084107674658298492e-02 3.778861761093139648e-01
4.784665107727050781e-01 2.446357905864715576e-02 -2.305727899074554443e-01
8.328806161880493164e-01 5.755313485860824585e-02 -4.365767240524291992e-01
6.823849678039550781e-01 8.318102359771728516e-02 2.166969329118728638e-01
6.238957047462463379e-01 2.323844470083713531e-02 -5.421452522277832031e-01
8.773402571678161621e-01 1.833570003509521484e-02 8.707901835441589355e-02
5.932113528251647949e-01 1.500054448843002319e-02 -1.889554262161254883e-01
7.309262752532958984e-01 8.363993465900421143e-02 1.241342574357986450e-01
5.208221077919006348e-01 8.571701496839523315e-02 6.075257062911987305e-02
7.248758673667907715e-01 8.008007705211639404e-02 -3.225958049297332764e-01
8.986235260963439941e-01 5.485347658395767212e-02 3.566613197326660156e-01
5.451824069023132324e-01 3.144589811563491821e-02 2.494116276502609253e-01
4.251513481140136719e-01 7.702612876892089844e-02 3.095725178718566895e-02
5.871605873107910156e-01 8.844724297523498535e-02 -2.117541134357452393e-01
8.097455501556396484e-01 2.105012722313404083e-02 2.912111282348632812e-01
6.419279575347900391e-01 3.510862216353416443e-02 4.150430560111999512e-01
7.243970036506652832e-01 7.535587251186370850e-02 3.583639264106750488e-01
8.697519302368164062e-01 6.223459541797637939e-02 -2.842453718185424805e-01
6.048972010612487793e-01 2.384462766349315643e-02 2.313001900911331177e-01
5.466561317443847656e-01 5.195109918713569641e-02 3.931560516357421875e-01
8.563079833984375000e-01 7.242482900619506836e-02 -6.866918504238128662e-02
5.688066482543945312e-01 4.042572155594825745e-02 3.743205070495605469e-01
4.463082551956176758e-01 7.891473174095153809e-02 6.264142692089080811e-02
5.215221047401428223e-01 8.394644409418106079e-02 1.182397007942199707e-01
8.091793656349182129e-01 1.642850041389465332e-02 1.782685667276382446e-01
4.066628515720367432e-01 6.850134581327438354e-02 7.897047698497772217e-02
3.797663152217864990e-01 7.404278218746185303e-02 -3.081801533699035645e-01
6.135160923004150391e-01 3.715084120631217957e-02 -6.800971627235412598e-01
6.288928389549255371e-01 6.782454252243041992e-02 -6.248940825462341309e-01
