-4.007473587989807129e-01 -6.142874956130981445e-01 4.199606776237487793e-01
-4.459344744682312012e-01 -6.016635894775390625e-01 4.192819595336914062e-01
-4.705179333686828613e-01 -6.631957292556762695e-01 3.744077682495117188e-01
-4.949065148830413818e-01 -6.440463662147521973e-01 4.053167402744293213e-01
8.488804101943969727e-02 -6.143113970756530762e-01 4.290771484375000000e-01
2.981573343276977539e-02 -5.896170139312744141e-01 3.847004771232604980e-01
-6.637078523635864258e-01 -5.407849550247192383e-01 4.022078216075897217e-01
1.566594541072845459e-01 -5.972487926483154297e-01 4.255822598934173584e-01
1.098274290561676025e-01 -5.578325986862182617e-01 4.157283604145050049e-01
8.092433214187622070e-02 -6.165165305137634277e-01 3.866541385650634766e-01
-1.930411458015441895e-01 -6.476212143898010254e-01 3.710038065910339355e-01
-6.957100331783294678e-02 -5.397367477416992188e-01 3.916817307472229004e-01
7.787153124809265137e-02 -5.562995076179504395e-01 4.216065406799316406e-01
1.556161940097808838e-01 -6.360800862312316895e-01 3.961613178253173828e-01
1.676067411899566650e-01 -6.235606670379638672e-01 4.237090051174163818e-01
-1.241998374462127686e-01 -6.155883073806762695e-01 4.295412600040435791e-01
-4.459769725799560547e-01 -6.648481488227844238e-01 3.978790044784545898e-01
-3.178145289421081543e-01 -6.620587706565856934e-01 3.713706135749816895e-01
-4.801522493362426758e-01 -6.469242572784423828e-01 4.053642451763153076e-01
-1.017763465642929077e-01 -5.622550845146179199e-01 3.802579641342163086e-01
-2.096148133277893066e-01 -5.120109915733337402e-01 4.031955897808074951e-01
-3.758468925952911377e-01 -5.874184370040893555e-01 3.635300397872924805e-01
-4.411764442920684814e-01 -5.856741070747375488e-01 4.209688305854797363e-01
-3.418624997138977051e-01 -6.275639533996582031e-01 3.641347289085388184e-01
-3.177532553672790527e-01 -5.601693987846374512e-01 4.260793924331665039e-01
-6.286948919296264648e-01 -5.228340029716491699e-01 3.990843892097473145e-01
-1.387367844581604004e-01 -5.574669837951660156e-01 3.790659904479980469e-01
-5.244553089141845703e-02 -6.080807447433471680e-01 4.310718178749084473e-01
-7.755458354949951172e-04 -5.407178401947021484e-01 4.000793695449829102e-01
-5.996562242507934570e-01 -6.423109769821166992e-01 3.704376220703125000e-01
1.172770857810974121e-01 -6.164259910583496094e-01 4.276995062828063965e-01
-7.397452592849731445e-01 -5.662241578102111816e-01 3.694382309913635254e-01
-5.781223177909851074e-01 -5.732561349868774414e-01 3.628094494342803955e-01
-1.943733692169189453e-01 -5.463100671768188477e-01 3.790386915206909180e-01
-2.545440196990966797e-01 -5.600630640983581543e-01 3.719979524612426758e-01
-2.188552618026733398e-01 -6.257029175758361816e-01 3.677098155021667480e-01
-2.972595095634460449e-01 -5.880064368247985840e-01 4.272564947605133057e-01
-2.697100341320037842e-01 -5.286129713058471680e-01 4.212227761745452881e-01
-1.887346357107162476e-01 -5.527048110961914062e-01 4.281443357467651367e-01
7.287254929542541504e-02 -5.719112157821655273e-01 4.276271164417266846e-01
-3.954487144947052002e-01 -6.124622821807861328e-01 3.623126149177551270e-01
-6.720604300498962402e-01 -5.723451375961303711e-01 3.647465705871582031e-01
9.841799736022949219e-02 -5.941996574401855469e-01 3.908135294914245605e-01
-2.167870700359344482e-01 -6.223239302635192871e-01 4.263579547405242920e-01
-6.864290833473205566e-01 -6.106285452842712402e-01 3.964665234088897705e-01
4.719233512878417969e-02 -5.838597416877746582e-01 4.302995502948760986e-01
-5.655488967895507812e-01 -5.131894350051879883e-01 3.855842947959899902e-01
-1.651166826486587524e-01 -5.153299570083618164e-01 4.071652293205261230e-01
-3.461631834506988525e-01 -5.261400341987609863e-01 3.794016838073730469e-01
1.122342050075531006e-01 -6.429032683372497559e-01 4.227866232395172119e-01
-2.635557949542999268e-01 -5.210783481597900391e-01 3.865210711956024170e-01
-4.844678640365600586e-01 -5.425707101821899414e-01 3.694621026515960693e-01
-3.792425692081451416e-01 -6.662030816078186035e-01 4.034514725208282471e-01
-2.089862376451492310e-01 -5.904681682586669922e-01 3.691177070140838623e-01
1.010056436061859131e-01 -6.564905047416687012e-01 4.179107546806335449e-01
-6.255340576171875000e-01 -6.053733229637145996e-01 3.626673221588134766e-01
8.048903942108154297e-02 -5.809548497200012207e-01 3.916949629783630371e-01
-2.584135532379150391e-01 -5.349525213241577148e-01 3.796417117118835449e-01
-5.354019403457641602e-01 -6.540184020996093750e-01 3.722859621047973633e-01
-2.165533453226089478e-01 -5.672025084495544434e-01 3.722654581069946289e-01
-1.729115843772888184e-02 -6.691179275512695312e-01 4.149774909019470215e-01
-2.007329016923904419e-01 -6.280503273010253906e-01 4.257989823818206787e-01
-2.318359464406967163e-01 -5.582132935523986816e-01 3.735240697860717773e-01
1.001996695995330811e-01 -6.160844564437866211e-01 4.284131526947021484e-01
5.640387535095214844e-02 -5.732463598251342773e-01 3.911532461643218994e-01
-4.949906468391418457e-01 -5.709185600280761719e-01 4.182934463024139404e-01
-6.724203824996948242e-01 -5.538821220397949219e-01 3.679872155189514160e-01
-1.465834528207778931e-01 -5.222613215446472168e-01 4.166928231716156006e-01
-1.740654408931732178e-01 -6.387203335762023926e-01 3.705478608608245850e-01
-4.399313330650329590e-01 -6.359333992004394531e-01 3.639875948429107666e-01
-9.500013291835784912e-02 -5.981123447418212891e-01 3.744219243526458740e-01
-5.572590231895446777e-01 -5.294570326805114746e-01 4.089791476726531982e-01
-1.058400422334671021e-01 -6.802551746368408203e-01 4.065389931201934814e-01
-6.529028415679931641e-01 -5.506946444511413574e-01 4.051538407802581787e-01
4.942098259925842285e-02 -6.262155771255493164e-01 3.837095499038696289e-01
-7.424678802490234375e-01 -5.913679599761962891e-01 3.928758203983306885e-01
-2.729997038841247559e-01 -5.082879662513732910e-01 4.023478627204895020e-01
-4.600996077060699463e-01 -6.213321089744567871e-01 3.620817065238952637e-01
-3.226816654205322266e-01 -6.441816091537475586e-01 4.169617891311645508e-01
1.418716013431549072e-01 -6.571467518806457520e-01 4.130921363830566406e-01
-4.799764156341552734e-01 -5.876627564430236816e-01 4.186253547668457031e-01
-5.533866882324218750e-01 -5.489583611488342285e-01 4.132679700851440430e-01
-1.883572340011596680e-01 -6.177616119384765625e-01 3.687467873096466064e-01
-6.387131214141845703e-01 -5.683771371841430664e-01 4.075784385204315186e-01
2.134483456611633301e-01 -6.283342838287353516e-01 4.145609736442565918e-01
-5.674580335617065430e-01 -6.184421181678771973e-01 3.625111281871795654e-01
-3.359183967113494873e-01 -6.558126211166381836e-01 4.119674265384674072e-01
-1.514492779970169067e-01 -6.590808629989624023e-01 3.751573562622070312e-01
-1.901406943798065186e-01 -5.890176296234130859e-01 3.701602816581726074e-01
-4.683286547660827637e-01 -6.612478494644165039e-01 3.981930911540985107e-01
-2.911521494388580322e-01 -6.168279051780700684e-01 3.649055659770965576e-01
-2.224407196044921875e-01 -5.302145481109619141e-01 3.839505314826965332e-01
-3.988477587699890137e-01 -5.673050880432128906e-01 4.232912063598632812e-01
-5.146188139915466309e-01 -6.429663300514221191e-01 3.663930594921112061e-01
-5.726300477981567383e-01 -5.821567773818969727e-01 4.126810431480407715e-01
-1.932352781295776367e-03 -5.683345794677734375e-01 4.297603964805603027e-01
-4.222425818443298340e-02 -6.647097468376159668e-01 4.175147414207458496e-01
-9.158925712108612061e-02 -6.727632284164428711e-01 4.127370715141296387e-01
-2.272852063179016113e-01 -5.841537117958068848e-01 4.294860064983367920e-01
-7.115249633789062500e-01 -5.589067339897155762e-01 3.993096947669982910e-01
-6.048630475997924805e-01 -5.882673263549804688e-01 4.095697700977325439e-01
-4.790189862251281738e-01 -5.310180187225341797e-01 4.145466983318328857e-01
3.252604603767395020e-02 -6.727498173713684082e-01 3.939923048019409180e-01
-7.017147541046142578e-01 -5.896746516227722168e-01 3.993226885795593262e-01
-3.644030094146728516e-01 -6.023257374763488770e-01 4.234464168548583984e-01
-4.287072122097015381e-01 -6.223121881484985352e-01 3.623732030391693115e-01
-6.159343123435974121e-01 -6.480088829994201660e-01 3.803282380104064941e-01
-6.429419517517089844e-01 -5.884419679641723633e-01 4.060540795326232910e-01
3.326392173767089844e-02 -6.347149610519409180e-01 4.270432889461517334e-01
-9.206131100654602051e-02 -6.220882534980773926e-01 3.736567795276641846e-01
-2.313695847988128662e-01 -6.655505299568176270e-01 4.127995967864990234e-01
-4.027832150459289551e-01 -5.153252482414245605e-01 3.836477100849151611e-01
1.956176161766052246e-01 -6.068374514579772949e-01 4.215400516986846924e-01
-2.867599129676818848e-01 -5.651185512542724609e-01 4.273985028266906738e-01
-7.590103149414062500e-02 -6.659133434295654297e-01 3.811565935611724854e-01
-2.028867900371551514e-01 -5.599951148033142090e-01 4.289171695709228516e-01
1.393382847309112549e-01 -6.273118853569030762e-01 3.931283652782440186e-01
-4.031459391117095947e-01 -6.706804633140563965e-01 3.769186437129974365e-01
1.299627721309661865e-01 -6.415829062461853027e-01 3.934192359447479248e-01
9.617057442665100098e-02 -5.731354355812072754e-01 3.961858451366424561e-01
-2.131734192371368408e-01 -5.203940868377685547e-01 3.907517194747924805e-01
-3.036606311798095703e-02 -6.214122176170349121e-01 4.296622574329376221e-01
-4.112446010112762451e-01 -6.543366312980651855e-01 4.075939655303955078e-01
7.257577776908874512e-02 -5.633860826492309570e-01 3.969654738903045654e-01
-3.684659004211425781e-01 -6.442893147468566895e-01 3.659763634204864502e-01
6.526333093643188477e-02 -6.398229598999023438e-01 3.860673308372497559e-01
1.393955945968627930e-01 -6.382369399070739746e-01 4.226224124431610107e-01
-3.899067640304565430e-02 -6.673245429992675781e-01 3.841401934623718262e-01
-3.431297838687896729e-01 -6.713250875473022461e-01 4.026859104633331299e-01
-3.584256768226623535e-01 -6.791549324989318848e-01 3.872872591018676758e-01
-3.230457901954650879e-01 -6.770237684249877930e-01 3.800098896026611328e-01
4.825749993324279785e-02 -5.855571627616882324e-01 3.871861398220062256e-01
-3.709697723388671875e-01 -6.692020297050476074e-01 3.748254477977752686e-01
-3.544000983238220215e-01 -5.428818464279174805e-01 3.725611865520477295e-01
-5.345113873481750488e-01 -6.335670948028564453e-01 4.058408141136169434e-01
1.911640167236328125e-02 -6.478866934776306152e-01 4.237881898880004883e-01
-3.826920390129089355e-01 -6.064049601554870605e-01 4.220775961875915527e-01
-3.716850578784942627e-01 -5.645995140075683594e-01 3.667008280754089355e-01
-1.971404552459716797e-01 -5.721548199653625488e-01 3.722857832908630371e-01
-6.034643650054931641e-01 -5.186125040054321289e-01 3.993076682090759277e-01
-6.914265751838684082e-01 -5.662673711776733398e-01 3.663280010223388672e-01
-3.021359443664550781e-03 -6.784389019012451172e-01 4.059547483921051025e-01
-1.880421340465545654e-01 -5.770469903945922852e-01 4.303051829338073730e-01
-2.471547722816467285e-01 -6.131757497787475586e-01 4.267789721488952637e-01
-5.545160770416259766e-01 -6.448802351951599121e-01 3.685848116874694824e-01
-5.318622589111328125e-01 -5.524371266365051270e-01 3.664058446884155273e-01
-4.733039140701293945e-01 -5.796875357627868652e-01 3.624530136585235596e-01
-2.235514819622039795e-01 -6.839920282363891602e-01 3.877268135547637939e-01
-4.292809963226318359e-01 -5.575382709503173828e-01 3.666481077671051025e-01
5.863204598426818848e-02 -6.605792045593261719e-01 3.901501893997192383e-01
-4.982939362525939941e-02 -5.693363547325134277e-01 4.306426048278808594e-01
1.483169496059417725e-01 -5.774565935134887695e-01 4.033180177211761475e-01
-5.847688019275665283e-02 -6.221170425415039062e-01 4.294380843639373779e-01
-4.694425761699676514e-01 -6.163457632064819336e-01 4.154779314994812012e-01
-6.969161033630371094e-01 -5.601463317871093750e-01 4.012411236763000488e-01
2.324038743972778320e-02 -6.069817543029785156e-01 3.820316791534423828e-01
-2.501720190048217773e-01 -5.103909373283386230e-01 3.989126980304718018e-01
-7.825642824172973633e-03 -6.152667999267578125e-01 3.791896402835845947e-01
8.669114112854003906e-02 -6.655232906341552734e-01 4.129755198955535889e-01
-4.264609217643737793e-01 -6.695160865783691406e-01 3.957587480545043945e-01
-3.465435504913330078e-01 -5.082222819328308105e-01 4.074039161205291748e-01
-5.064530968666076660e-01 -5.848022103309631348e-01 4.171640276908874512e-01
-7.510373592376708984e-01 -5.812161564826965332e-01 3.691764175891876221e-01
-5.695851445198059082e-01 -5.577487349510192871e-01 4.129174351692199707e-01
-2.406040728092193604e-01 -6.063380837440490723e-01 3.667230010032653809e-01
-6.638224124908447266e-01 -5.870727896690368652e-01 4.040805697441101074e-01
-5.925819277763366699e-01 -5.980123877525329590e-01 3.616216182708740234e-01
-9.680539369583129883e-02 -5.654864311218261719e-01 4.304093420505523682e-01
-1.087751984596252441e-02 -6.313972473144531250e-01 4.280106127262115479e-01
-2.491685599088668823e-01 -5.288777947425842285e-01 4.215662479400634766e-01
-3.270030617713928223e-01 -5.748712420463562012e-01 4.263928830623626709e-01
-5.531759560108184814e-02 -5.515676140785217285e-01 3.874833881855010986e-01
-4.871690273284912109e-01 -6.585972905158996582e-01 3.721669316291809082e-01
-2.294956743717193604e-01 -6.386488080024719238e-01 4.225080311298370361e-01
1.180689334869384766e-01 -6.597883701324462891e-01 4.143710434436798096e-01
-4.611574411392211914e-01 -6.701411008834838867e-01 3.830835223197937012e-01
1.263020634651184082e-01 -6.017911434173583984e-01 4.279147982597351074e-01
-6.647005081176757812e-01 -5.891648530960083008e-01 3.634652495384216309e-01
-5.995877981185913086e-01 -6.199497580528259277e-01 3.635443449020385742e-01
-7.360057234764099121e-01 -5.471632480621337891e-01 3.934655487537384033e-01
-1.108442544937133789e-01 -5.975144505500793457e-01 3.735327422618865967e-01
1.600759029388427734e-01 -5.726356506347656250e-01 4.123672842979431152e-01
-3.361262083053588867e-01 -6.029481291770935059e-01 4.246394932270050049e-01
-5.213382840156555176e-01 -6.631496548652648926e-01 3.844499289989471436e-01
-1.268520355224609375e-01 -5.858576893806457520e-01 3.739304840564727783e-01
-1.246768236160278320e-01 -5.372511744499206543e-01 3.877679109573364258e-01
-1.428034454584121704e-01 -6.540493965148925781e-01 4.205004274845123291e-01
-4.178586602210998535e-01 -5.475842952728271484e-01 3.693076968193054199e-01
-4.100252985954284668e-01 -5.805966258049011230e-01 4.227822124958038330e-01
-4.640872478485107422e-01 -6.494651436805725098e-01 3.673952519893646240e-01
-5.787889957427978516e-01 -5.196499824523925781e-01 3.798418045043945312e-01
1.263427138328552246e-01 -6.200853586196899414e-01 3.914429843425750732e-01
-1.477450132369995117e-03 -6.323168277740478516e-01 3.799039125442504883e-01
-3.680282533168792725e-01 -6.194486021995544434e-01 3.630675971508026123e-01
-7.054674625396728516e-01 -5.372045636177062988e-01 3.761637210845947266e-01
-2.912227213382720947e-01 -5.948896408081054688e-01 3.654505610466003418e-01
7.031449675559997559e-02 -6.679381728172302246e-01 4.123161733150482178e-01
1.874196827411651611e-01 -6.194452047348022461e-01 4.222088456153869629e-01
6.829449534416198730e-02 -6.117362380027770996e-01 4.297360181808471680e-01
-4.349110126495361328e-01 -5.922319889068603516e-01 3.619962930679321289e-01
-3.913776278495788574e-01 -6.445352435111999512e-01 4.129368066787719727e-01
-5.701628327369689941e-02 -6.772737503051757812e-01 3.882972598075866699e-01
-7.718431949615478516e-01 -5.762166976928710938e-01 3.722243905067443848e-01
-5.466877818107604980e-01 -5.591682195663452148e-01 3.649233579635620117e-01
-5.037044286727905273e-01 -6.169145703315734863e-01 4.129892587661743164e-01
-3.825663328170776367e-01 -5.096259117126464844e-01 4.083754122257232666e-01
-8.902272582054138184e-02 -5.265464186668395996e-01 4.165419936180114746e-01
-4.923481047153472900e-01 -6.276725530624389648e-01 4.111896455287933350e-01
-2.494961172342300415e-01 -6.690675616264343262e-01 4.100749194622039795e-01
-4.643320441246032715e-01 -5.132566094398498535e-01 3.838706314563751221e-01
-1.308383345603942871e-01 -6.852821707725524902e-01 3.973993957042694092e-01
-2.666825354099273682e-01 -6.729537844657897949e-01 4.066956341266632080e-01
-5.330654382705688477e-01 -5.351456999778747559e-01 4.122608304023742676e-01
-5.853066444396972656e-01 -6.087379455566406250e-01 4.081576764583587646e-01
-3.337368369102478027e-01 -5.171115994453430176e-01 3.851905465126037598e-01
-1.485211253166198730e-01 -5.892980098724365234e-01 3.722685873508453369e-01
-7.347152829170227051e-01 -5.886214971542358398e-01 3.676288425922393799e-01
-7.011447846889495850e-02 -6.765698194503784180e-01 4.100736379623413086e-01
-2.161690890789031982e-01 -5.948329567909240723e-01 4.294165074825286865e-01
-1.847706288099288940e-01 -6.220411658287048340e-01 4.273120462894439697e-01
-6.046089529991149902e-02 -6.636269092559814453e-01 3.813344836235046387e-01
-1.964735537767410278e-01 -6.321125626564025879e-01 3.689979910850524902e-01
-1.209797412157058716e-01 -6.410319209098815918e-01 4.248613119125366211e-01
-2.477923631668090820e-01 -5.663990974426269531e-01 4.285375773906707764e-01
4.333409667015075684e-02 -5.440216064453125000e-01 4.065055549144744873e-01
-6.427645683288574219e-03 -6.588475704193115234e-01 4.200512468814849854e-01
4.724374413490295410e-02 -5.992937088012695312e-01 4.307704269886016846e-01
1.684793829917907715e-02 -5.907399058341979980e-01 4.312932193279266357e-01
-3.415435552597045898e-02 -5.346918106079101562e-01 3.999630510807037354e-01
-6.071937084197998047e-01 -6.056379675865173340e-01 3.621873855590820312e-01
-5.614091157913208008e-01 -6.015862226486206055e-01 3.612807393074035645e-01
-3.782641291618347168e-01 -5.847591161727905273e-01 4.241327047348022461e-01
-2.758925557136535645e-01 -6.415656208992004395e-01 3.673223257064819336e-01
-4.138638973236083984e-01 -5.373846292495727539e-01 4.192849099636077881e-01
-5.397461652755737305e-01 -5.833563208580017090e-01 4.150180816650390625e-01
-5.212235450744628906e-01 -6.419386863708496094e-01 4.037743210792541504e-01
-8.801592886447906494e-02 -5.497698187828063965e-01 4.275945127010345459e-01
-3.328098952770233154e-01 -5.364852547645568848e-01 4.220696389675140381e-01
-4.265592694282531738e-01 -5.909237861633300781e-01 4.214130938053131104e-01
-2.886084914207458496e-01 -6.425803303718566895e-01 4.190759956836700439e-01
-5.104802846908569336e-01 -6.525682806968688965e-01 3.993534445762634277e-01
8.146077394485473633e-02 -6.560598611831665039e-01 3.910898268222808838e-01
-5.271854400634765625e-01 -6.111494302749633789e-01 3.613890707492828369e-01
-6.360558271408081055e-01 -5.753084421157836914e-01 3.633995950222015381e-01
-2.790596783161163330e-01 -6.765989065170288086e-01 3.792040646076202393e-01
-1.414352953433990479e-01 -5.428421497344970703e-01 3.838860988616943359e-01
-6.796759366989135742e-01 -5.378303527832031250e-01 3.737480044364929199e-01
-4.321420788764953613e-01 -6.172274947166442871e-01 4.176450669765472412e-01
-2.860526740550994873e-01 -6.149035096168518066e-01 4.251458942890167236e-01
-1.708257645368576050e-01 -6.041396260261535645e-01 3.698622286319732666e-01
-6.110438704490661621e-01 -5.683628916740417480e-01 4.100208282470703125e-01
-3.756195306777954102e-02 -5.732511878013610840e-01 3.823122382164001465e-01
-4.856162071228027344e-01 -6.104396581649780273e-01 3.613142371177673340e-01
1.537392139434814453e-01 -6.192132234573364258e-01 4.253687560558319092e-01
-4.855349659919738770e-01 -5.173481702804565430e-01 4.089594185352325439e-01
-4.220608472824096680e-01 -5.674766898155212402e-01 4.222051501274108887e-01
-3.261433839797973633e-01 -5.639302730560302734e-01 3.682826757431030273e-01
-4.984845817089080811e-01 -5.361876487731933594e-01 3.713818788528442383e-01
4.812836647033691406e-02 -5.574721693992614746e-01 4.249981641769409180e-01
-2.407841533422470093e-01 -6.606682538986206055e-01 3.724031448364257812e-01
3.313505649566650391e-02 -5.949694514274597168e-01 4.310701787471771240e-01
-2.635730803012847900e-01 -5.565438270568847656e-01 4.272981882095336914e-01
-1.794909536838531494e-01 -6.512710452079772949e-01 4.204630553722381592e-01
1.900817453861236572e-01 -6.012381911277770996e-01 4.033843874931335449e-01
-4.819628596305847168e-01 -5.617890954017639160e-01 4.188292622566223145e-01
1.577706634998321533e-01 -6.008349061012268066e-01 3.974432051181793213e-01
-2.887842357158660889e-01 -6.593629717826843262e-01 3.708993792533874512e-01
-5.460144281387329102e-01 -5.698170661926269531e-01 4.149906635284423828e-01
1.003248095512390137e-01 -6.628905534744262695e-01 3.968155086040496826e-01
-6.626991033554077148e-01 -6.313014030456542969e-01 3.711402118206024170e-01
-2.795576453208923340e-01 -5.395522117614746094e-01 4.241475760936737061e-01
-3.088004291057586670e-01 -6.449705362319946289e-01 3.670748472213745117e-01
-2.702881097793579102e-01 -6.084209680557250977e-01 4.265896677970886230e-01
-6.435800790786743164e-01 -6.257986426353454590e-01 3.669777810573577881e-01
-3.886906504631042480e-01 -5.278836488723754883e-01 4.178571701049804688e-01
-1.864729821681976318e-01 -6.748979091644287109e-01 4.090760648250579834e-01
-6.514716148376464844e-01 -5.196781158447265625e-01 3.901123404502868652e-01
-6.741970777511596680e-03 -6.044582128524780273e-01 4.312854111194610596e-01
-8.379462361335754395e-02 -6.030860543251037598e-01 4.312430918216705322e-01
-6.720343232154846191e-01 -6.170875430107116699e-01 3.666242957115173340e-01
9.219345450401306152e-02 -6.002371907234191895e-01 4.294726550579071045e-01
-5.736781954765319824e-01 -5.991231799125671387e-01 4.108351171016693115e-01
-2.525670826435089111e-01 -6.791275739669799805e-01 3.814117908477783203e-01
-4.226080179214477539e-01 -6.377185583114624023e-01 3.643424510955810547e-01
-7.254989743232727051e-01 -6.004561781883239746e-01 3.678857982158660889e-01
-6.813119649887084961e-01 -6.335519552230834961e-01 3.800585865974426270e-01
-7.267909049987792969e-01 -5.757110714912414551e-01 3.974296450614929199e-01
1.070332527160644531e-02 -6.593558192253112793e-01 4.196576774120330811e-01
-9.830066561698913574e-02 -6.295877099037170410e-01 4.277591109275817871e-01
1.189480423927307129e-01 -5.782417654991149902e-01 3.976361155509948730e-01
-2.666151523590087891e-01 -5.859827995300292969e-01 3.671505451202392578e-01
-3.959057629108428955e-01 -6.558434367179870605e-01 3.688800930976867676e-01
-5.035639405250549316e-01 -5.148093104362487793e-01 3.823969662189483643e-01
-6.987393498420715332e-01 -6.129922270774841309e-01 3.678642213344573975e-01
-4.930387139320373535e-01 -5.804533958435058594e-01 3.621730804443359375e-01
-5.433338880538940430e-01 -6.561289429664611816e-01 3.918046355247497559e-01
-7.073624134063720703e-01 -6.250857710838317871e-01 3.759329020977020264e-01
-1.108098477125167847e-01 -5.456901192665100098e-01 3.850919008255004883e-01
-3.395742177963256836e-02 -5.992500782012939453e-01 4.316224157810211182e-01
1.310078203678131104e-01 -5.700599551200866699e-01 4.037812054157257080e-01
-1.882944405078887939e-01 -5.590957403182983398e-01 3.756093680858612061e-01
-5.631659030914306641e-01 -5.624564290046691895e-01 3.643240630626678467e-01
-6.186611652374267578e-01 -5.409370660781860352e-01 3.702014684677124023e-01
-1.582562923431396484e-01 -5.570480227470397949e-01 3.779350817203521729e-01
-7.467922568321228027e-02 -6.786289215087890625e-01 3.880287110805511475e-01
-1.701770126819610596e-01 -6.254005432128906250e-01 4.271118342876434326e-01
-3.318068385124206543e-02 -5.948088765144348145e-01 3.788779973983764648e-01
-1.499150097370147705e-01 -5.195625424385070801e-01 3.985733687877655029e-01
-1.527725607156753540e-01 -5.878624916076660156e-01 4.309869408607482910e-01
-3.233460187911987305e-01 -6.772050857543945312e-01 3.988539576530456543e-01
-4.282467365264892578e-01 -5.158058404922485352e-01 3.825890421867370605e-01
-2.176373302936553955e-01 -6.565332412719726562e-01 3.719668686389923096e-01
1.639431118965148926e-01 -6.487872600555419922e-01 4.158040583133697510e-01
-4.171004295349121094e-01 -5.957961678504943848e-01 3.621142208576202393e-01
-1.897109448909759521e-01 -6.634391546249389648e-01 3.748857975006103516e-01
-3.036163449287414551e-01 -6.053215265274047852e-01 3.645495772361755371e-01
-1.375758200883865356e-01 -6.740629673004150391e-01 3.813787400722503662e-01
-7.575280666351318359e-01 -5.544790029525756836e-01 3.909576237201690674e-01
-1.047853082418441772e-01 -5.988468527793884277e-01 4.312848150730133057e-01
-6.647983789443969727e-01 -6.142155528068542480e-01 3.982670903205871582e-01
-6.886881589889526367e-01 -5.256012678146362305e-01 3.865774273872375488e-01
-4.448069334030151367e-01 -6.117845773696899414e-01 3.616270422935485840e-01
-2.667557597160339355e-01 -5.465052723884582520e-01 3.750662803649902344e-01
9.571135044097900391e-03 -5.532541275024414062e-01 3.935180306434631348e-01
-1.762973368167877197e-01 -5.622169375419616699e-01 4.295403957366943359e-01
-4.137161970138549805e-01 -5.052543282508850098e-01 3.974082469940185547e-01
-2.011058628559112549e-01 -5.294905304908752441e-01 3.857957124710083008e-01
-2.707436680793762207e-01 -6.452904939651489258e-01 4.190460443496704102e-01
-4.094432592391967773e-01 -5.563856959342956543e-01 4.221846461296081543e-01
-3.902530968189239502e-01 -6.763959527015686035e-01 3.840547204017639160e-01
-1.532487422227859497e-01 -6.281270384788513184e-01 3.706490397453308105e-01
-1.654175370931625366e-01 -5.738856196403503418e-01 4.305643141269683838e-01
-4.785314202308654785e-01 -6.237803697586059570e-01 3.622863888740539551e-01
-4.580393433570861816e-01 -5.987392067909240723e-01 3.614324629306793213e-01
-5.720556974411010742e-01 -6.444562077522277832e-01 3.694215714931488037e-01
-5.266666412353515625e-01 -5.082579851150512695e-01 3.943824172019958496e-01
-5.214825272560119629e-02 -6.338063478469848633e-01 3.765432238578796387e-01
-3.713092803955078125e-01 -6.767036318778991699e-01 3.936927318572998047e-01
-3.610522747039794922e-01 -6.223352551460266113e-01 4.205509424209594727e-01
-1.610060632228851318e-01 -5.575276017189025879e-01 4.291351437568664551e-01
-2.346875965595245361e-01 -5.861799120903015137e-01 3.684393167495727539e-01
-3.363935351371765137e-01 -6.676560640335083008e-01 3.736605346202850342e-01
-2.952186763286590576e-01 -5.668042302131652832e-01 3.688735365867614746e-01
-1.383247077465057373e-01 -5.755318999290466309e-01 3.749110400676727295e-01
-4.041699767112731934e-01 -6.364899873733520508e-01 4.147129654884338379e-01
-1.644830703735351562e-01 -5.334883928298950195e-01 4.233781099319458008e-01
-1.262046843767166138e-01 -5.651770234107971191e-01 4.303032159805297852e-01
-5.131011009216308594e-01 -5.127838850021362305e-01 4.039835035800933838e-01
-2.598445415496826172e-01 -6.530255675315856934e-01 3.698776066303253174e-01
-4.466829299926757812e-01 -6.444625258445739746e-01 4.091272652149200439e-01
-7.242662906646728516e-01 -5.351140499114990234e-01 3.894703686237335205e-01
-1.270758807659149170e-01 -5.339684486389160156e-01 4.230445623397827148e-01
-5.268474817276000977e-01 -6.202676892280578613e-01 4.104563891887664795e-01
-4.788107275962829590e-01 -6.035475134849548340e-01 4.170370101928710938e-01
-6.098758578300476074e-01 -6.373542547225952148e-01 3.956356644630432129e-01
-6.103583574295043945e-01 -5.167443752288818359e-01 3.845387995243072510e-01
-5.000815391540527344e-01 -6.448884010314941406e-01 3.666329979896545410e-01
-1.111714094877243042e-01 -6.523740291595458984e-01 4.217357039451599121e-01
-3.654342889785766602e-01 -5.505412817001342773e-01 4.234158396720886230e-01
-6.922736167907714844e-01 -6.259770989418029785e-01 3.725584745407104492e-01
-9.027270972728729248e-02 -5.767078995704650879e-01 3.777241408824920654e-01
-5.492852330207824707e-01 -5.146722793579101562e-01 3.831722140312194824e-01
-3.173706233501434326e-01 -5.078243017196655273e-01 4.064979851245880127e-01
1.992238461971282959e-01 -6.404100060462951660e-01 4.120288491249084473e-01
1.043499708175659180e-01 -6.175874471664428711e-01 3.890188336372375488e-01
-7.322477102279663086e-01 -6.028126478195190430e-01 3.915265202522277832e-01
-1.682599484920501709e-01 -6.559302806854248047e-01 3.736568391323089600e-01
1.392817497253417969e-02 -5.757485628128051758e-01 3.861359357833862305e-01
-1.536205410957336426e-01 -6.271645426750183105e-01 4.271846711635589600e-01
-6.968505382537841797e-01 -5.927488803863525391e-01 3.650129139423370361e-01
-9.324227273464202881e-02 -5.508174896240234375e-01 3.845193684101104736e-01
-6.759907007217407227e-01 -5.268918871879577637e-01 3.943549692630767822e-01
-3.150092363357543945e-01 -6.188191175460815430e-01 3.642745018005371094e-01
-7.559253275394439697e-02 -6.433132290840148926e-01 3.760585188865661621e-01
-7.615432739257812500e-01 -5.734196305274963379e-01 3.917199373245239258e-01
-5.441977977752685547e-01 -5.323520898818969727e-01 3.726073801517486572e-01
-4.061954617500305176e-01 -6.235659718513488770e-01 3.627193868160247803e-01
-1.505138427019119263e-01 -6.748905181884765625e-01 4.102173149585723877e-01
-6.678678393363952637e-01 -6.343328952789306641e-01 3.863925337791442871e-01
-9.195087850093841553e-02 -6.586798429489135742e-01 3.780186176300048828e-01
-2.287285029888153076e-01 -6.130356192588806152e-01 4.273838102817535400e-01
-5.151588916778564453e-01 -6.006510853767395020e-01 4.150199294090270996e-01
1.343401968479156494e-01 -5.743855237960815430e-01 4.231509268283843994e-01
-1.786514669656753540e-01 -5.231099724769592285e-01 3.917218446731567383e-01
3.793820738792419434e-02 -6.599680185317993164e-01 3.878321051597595215e-01
-4.514375030994415283e-01 -5.080003142356872559e-01 4.035052657127380371e-01
-5.176929831504821777e-01 -5.305417180061340332e-01 3.734100162982940674e-01
-3.792296051979064941e-01 -5.644801259040832520e-01 4.240381121635437012e-01
-2.958105504512786865e-01 -6.794400215148925781e-01 3.986708223819732666e-01
-4.562779366970062256e-01 -5.267629623413085938e-01 4.145017564296722412e-01
-5.617159605026245117e-01 -5.788123607635498047e-01 3.621419370174407959e-01
-3.401741981506347656e-01 -5.733343958854675293e-01 3.661909699440002441e-01
-1.367771625518798828e-02 -5.670406818389892578e-01 3.859608173370361328e-01
-2.034077048301696777e-02 -5.628972053527832031e-01 4.292514920234680176e-01
-6.241285204887390137e-01 -6.252732276916503906e-01 3.994597494602203369e-01
2.355986833572387695e-02 -6.587110757827758789e-01 3.861167728900909424e-01
-2.920737862586975098e-01 -6.335445642471313477e-01 3.658882975578308105e-01
-4.538479447364807129e-01 -6.206859350204467773e-01 4.155901074409484863e-01
-4.470785856246948242e-01 -5.716588497161865234e-01 4.210038483142852783e-01
-1.983562111854553223e-02 -6.574451923370361328e-01 3.823045194149017334e-01
-4.998050928115844727e-01 -5.077441930770874023e-01 3.986836969852447510e-01
-7.324085235595703125e-01 -6.179136037826538086e-01 3.793267011642456055e-01
-1.469958424568176270e-01 -6.048088669776916504e-01 4.302666485309600830e-01
-3.042541146278381348e-01 -5.431198477745056152e-01 4.242744743824005127e-01
-6.562609672546386719e-01 -6.011647582054138184e-01 3.634643852710723877e-01
1.784017086029052734e-01 -5.911844968795776367e-01 4.038720130920410156e-01
-4.036053419113159180e-01 -6.418163180351257324e-01 3.651933073997497559e-01
-3.017788827419281006e-01 -6.552029252052307129e-01 4.141036272048950195e-01
-7.058271169662475586e-01 -6.043646335601806641e-01 3.955464363098144531e-01
1.865189075469970703e-01 -5.889826416969299316e-01 4.196164608001708984e-01
-5.063282847404479980e-01 -5.525270104408264160e-01 3.665596842765808105e-01
-2.032550126314163208e-01 -6.806361675262451172e-01 4.034731090068817139e-01
-2.936236560344696045e-01 -5.176943540573120117e-01 4.159545898437500000e-01
-4.567025601863861084e-02 -6.153776645660400391e-01 3.765465319156646729e-01
1.437336504459381104e-01 -5.933898687362670898e-01 3.968583047389984131e-01
-2.118327617645263672e-01 -5.483088493347167969e-01 3.773604333400726318e-01
6.387737393379211426e-02 -6.242241263389587402e-01 3.849590718746185303e-01
-7.845354080200195312e-02 -5.837609767913818359e-01 4.316848516464233398e-01
-1.393366903066635132e-01 -6.321622729301452637e-01 4.265250265598297119e-01
-3.572626113891601562e-01 -5.347179174423217773e-01 4.208710193634033203e-01
-6.070774793624877930e-02 -5.431917309761047363e-01 4.250000715255737305e-01
-4.751039743423461914e-01 -5.980387330055236816e-01 3.612855970859527588e-01
-6.461837887763977051e-01 -6.418412923812866211e-01 3.797698318958282471e-01
6.793913245201110840e-02 -6.038862466812133789e-01 3.862776160240173340e-01
-4.333496689796447754e-01 -5.217741131782531738e-01 4.138086140155792236e-01
1.402628421783447266e-02 -6.366380453109741211e-01 3.813926577568054199e-01
-5.086724162101745605e-01 -6.219144463539123535e-01 3.621805310249328613e-01
-1.909471154212951660e-01 -5.929490327835083008e-01 4.301154017448425293e-01
-6.229312419891357422e-01 -5.504268407821655273e-01 4.079511761665344238e-01
-3.963534832000732422e-01 -5.464761257171630859e-01 3.701760768890380859e-01
-4.470913112163543701e-01 -5.302047729492187500e-01 3.744815289974212646e-01
2.141579985618591309e-02 -5.385408401489257812e-01 4.114574193954467773e-01
-1.235387921333312988e-01 -5.630281567573547363e-01 3.785637021064758301e-01
-4.047855734825134277e-01 -5.116995573043823242e-01 4.094478487968444824e-01
-7.969737052917480469e-03 -5.348591208457946777e-01 4.148561954498291016e-01
-2.270592153072357178e-01 -6.797950267791748047e-01 4.031544625759124756e-01
-2.701890766620635986e-01 -6.168041229248046875e-01 3.655745089054107666e-01
-2.475070655345916748e-01 -5.249418020248413086e-01 3.851743638515472412e-01
-2.147751450538635254e-01 -6.540505290031433105e-01 4.183427095413208008e-01
1.169430911540985107e-01 -6.486811041831970215e-01 3.932649493217468262e-01
-7.638174891471862793e-01 -5.496093034744262695e-01 3.784924447536468506e-01
-5.054138898849487305e-01 -5.360512733459472656e-01 4.142397940158843994e-01
-4.548463225364685059e-01 -5.593550205230712891e-01 4.201807975769042969e-01
-3.794370293617248535e-01 -5.485101938247680664e-01 3.701062202453613281e-01
-6.397575139999389648e-01 -6.178507804870605469e-01 4.002205431461334229e-01
-2.702066302299499512e-02 -6.792181730270385742e-01 3.930815160274505615e-01
2.116287350654602051e-01 -6.001985669136047363e-01 4.146977663040161133e-01
-7.553088665008544922e-01 -5.995458960533142090e-01 3.875730633735656738e-01
-1.693090051412582397e-01 -5.801236033439636230e-01 3.723959326744079590e-01
-5.953871607780456543e-01 -5.351509451866149902e-01 3.719055652618408203e-01
-6.271349191665649414e-01 -5.589125752449035645e-01 3.656253218650817871e-01
1.089996397495269775e-01 -5.710465908050537109e-01 4.248007237911224365e-01
-4.945175349712371826e-01 -6.665849089622497559e-01 3.840276300907135010e-01
-4.696695506572723389e-02 -6.554949879646301270e-01 3.799614012241363525e-01
-3.562775254249572754e-02 -6.335954666137695312e-01 3.775989115238189697e-01
-3.443190455436706543e-01 -6.390842795372009277e-01 4.173786640167236328e-01
-4.825539588928222656e-01 -6.643922924995422363e-01 3.932195603847503662e-01
-3.468827307224273682e-01 -5.594831705093383789e-01 4.250064492225646973e-01
-2.935304641723632812e-01 -5.527153015136718750e-01 3.720922470092773438e-01
2.437365055084228516e-02 -5.714739561080932617e-01 4.295459985733032227e-01
-5.787649154663085938e-01 -6.321486830711364746e-01 4.019744396209716797e-01
-3.274494409561157227e-01 -5.297682285308837891e-01 3.785016238689422607e-01
7.234096527099609375e-03 -6.084077954292297363e-01 3.806501030921936035e-01
-2.267190515995025635e-01 2.337605804204940796e-01 -8.975896053016185760e-03
-5.445082485675811768e-02 -2.048955112695693970e-01 -2.390526235103607178e-01
-2.782232761383056641e-01 1.718709617853164673e-01 -5.636195838451385498e-02
-1.364626884460449219e-01 2.606728672981262207e-01 8.612526953220367432e-02
-1.976009011268615723e-01 1.347811520099639893e-02 4.324438571929931641e-01
-1.848325729370117188e-01 1.308908760547637939e-01 -3.582502603530883789e-01
-2.139398157596588135e-01 -2.239110320806503296e-02 4.448991119861602783e-01
-3.444404900074005127e-02 -1.738110482692718506e-01 -1.952929347753524780e-01
-2.693313360214233398e-01 1.440924704074859619e-01 -1.859144270420074463e-01
-1.733915954828262329e-01 1.252247840166091919e-01 3.576399683952331543e-01
-2.808560729026794434e-01 -9.417971223592758179e-02 4.326144158840179443e-01
-1.562982797622680664e-03 -6.797695159912109375e-02 -9.837268292903900146e-02
-6.703861057758331299e-02 2.425681799650192261e-01 -8.489969372749328613e-02
-2.636350989341735840e-01 1.394564062356948853e-01 2.788669466972351074e-01
-3.324766457080841064e-01 -3.600213527679443359e-01 -5.592731758952140808e-04
-7.647372782230377197e-02 -3.944153338670730591e-02 -4.166254997253417969e-01
-3.088842630386352539e-01 -7.589436322450637817e-02 3.987571001052856445e-01
-1.148578524589538574e-02 9.515535831451416016e-02 6.690196692943572998e-02
-9.099699556827545166e-02 4.095564782619476318e-02 -4.217796623706817627e-01
-2.662269473075866699e-01 -2.540091052651405334e-02 -3.659486472606658936e-01
-1.205494329333305359e-01 -2.694420516490936279e-01 -3.102925717830657959e-01
-3.580570220947265625e-02 -1.043624877929687500e-01 1.597022116184234619e-01
-3.560323715209960938e-01 -3.164727687835693359e-01 -3.742347005754709244e-03
-1.689483970403671265e-01 2.154884487390518188e-01 2.295545339584350586e-01
-1.129509434103965759e-01 -7.964967191219329834e-02 -4.444220662117004395e-01
-1.576140522956848145e-01 -2.988976836204528809e-01 -3.109324276447296143e-01
-1.813553720712661743e-01 1.981261521577835083e-01 2.615835368633270264e-01
-2.819511294364929199e-02 -1.767490804195404053e-01 -6.460001319646835327e-02
-2.641428709030151367e-01 -4.049817323684692383e-01 -4.530340060591697693e-02
-1.209985539317131042e-01 -3.355605006217956543e-01 5.768898501992225647e-02
-1.050978899002075195e-04 -5.035535991191864014e-02 -1.354316025972366333e-01
-1.668654531240463257e-01 2.473228722810745239e-01 -1.583746969699859619e-01
-1.984079927206039429e-01 2.465954869985580444e-01 -8.483357727527618408e-02
-3.565937876701354980e-01 1.961831003427505493e-02 1.203388199210166931e-01
-7.605881989002227783e-02 -2.699579000473022461e-01 -1.660613715648651123e-01
-3.500379621982574463e-01 2.221327275037765503e-02 -4.781315103173255920e-02
-1.755162179470062256e-01 2.601052522659301758e-01 -7.029055058956146240e-02
-2.257114946842193604e-01 -2.808804512023925781e-01 -3.430317640304565430e-01
-3.003559112548828125e-01 4.503378272056579590e-02 3.383182585239410400e-01
-3.740187287330627441e-01 -2.083936184644699097e-01 2.153603285551071167e-01
-1.217076182365417480e-01 -4.816108196973800659e-02 3.854456245899200439e-01
4.051715135574340820e-03 -1.837256923317909241e-02 -1.029182821512222290e-01
-3.675324320793151855e-01 -2.838444709777832031e-01 -9.059698786586523056e-04
-4.931688308715820312e-03 -4.956166446208953857e-02 2.606595866382122040e-02
-2.239340394735336304e-01 1.743323653936386108e-01 2.760364413261413574e-01
-8.589707314968109131e-02 1.201609224081039429e-01 2.799678742885589600e-01
-7.285113632678985596e-02 8.715912699699401855e-03 -4.114547371864318848e-01
-1.347208172082901001e-01 -3.540520668029785156e-01 3.568455949425697327e-02
-1.767930239439010620e-01 2.087540179491043091e-01 -2.513683438301086426e-01
-3.017205595970153809e-01 7.046636939048767090e-02 -2.065056860446929932e-01
-1.366093456745147705e-01 -1.586962342262268066e-01 3.724794089794158936e-01
-3.187018036842346191e-01 -3.779350519180297852e-01 8.359918743371963501e-02
-3.291252255439758301e-01 -2.838054597377777100e-01 -1.884662210941314697e-01
-3.251148760318756104e-01 1.011895388364791870e-01 2.082301117479801178e-02
-1.293168216943740845e-01 1.085159182548522949e-01 -4.006614387035369873e-01
-3.263272643089294434e-01 -2.744390368461608887e-01 3.139693439006805420e-01
-2.134749740362167358e-01 2.162365764379501343e-01 -1.680850684642791748e-01
-9.565997123718261719e-02 -1.581615656614303589e-01 -3.943776488304138184e-01
-3.817393183708190918e-01 -9.296536445617675781e-02 7.895826548337936401e-02
-2.143099904060363770e-03 -5.250856280326843262e-03 3.425269946455955505e-02
-4.857271909713745117e-02 2.048774510622024536e-01 6.247401982545852661e-02
-2.416811138391494751e-01 1.081914603710174561e-01 -3.084206283092498779e-01
-3.556250929832458496e-01 -6.696606427431106567e-02 2.823633849620819092e-01
-6.119605898857116699e-02 -1.400839388370513916e-01 2.226771116256713867e-01
-1.239072754979133606e-01 2.646048367023468018e-02 3.803501427173614502e-01
-7.185503840446472168e-03 1.243845522403717041e-01 -1.459822654724121094e-01
-1.911687850952148438e-02 -3.985777497291564941e-03 1.382503658533096313e-01
-3.846180140972137451e-01 -1.268150359392166138e-01 5.818638578057289124e-02
-3.185095191001892090e-01 4.189158231019973755e-02 -1.855237632989883423e-01
-1.673440933227539062e-01 7.539381086826324463e-02 3.935757875442504883e-01
-2.227400541305541992e-01 1.899438947439193726e-01 2.459535002708435059e-01
-3.308540582656860352e-02 1.997438222169876099e-01 -4.182690754532814026e-02
-4.680830240249633789e-02 2.197309583425521851e-01 -2.166482806205749512e-02
-3.139607310295104980e-01 -2.703137397766113281e-01 -2.403385639190673828e-01
-2.902105450630187988e-01 -1.599613130092620850e-01 -3.408263325691223145e-01
-1.395457983016967773e-02 -1.104490011930465698e-01 -1.789231598377227783e-01
-2.936525642871856689e-02 1.668011248111724854e-01 6.119287759065628052e-02
-2.297063618898391724e-01 -3.077547550201416016e-01 3.313476741313934326e-01
-1.193718016147613525e-01 -1.398252248764038086e-01 3.564206659793853760e-01
-6.627053022384643555e-03 -9.127143025398254395e-02 -3.785131126642227173e-02
-5.898058414459228516e-03 9.488573670387268066e-02 2.650936320424079895e-02
-3.136429190635681152e-02 9.245266020298004150e-02 1.621170043945312500e-01
-1.793841421604156494e-01 -1.176967471837997437e-01 4.320465922355651855e-01
-5.184881389141082764e-02 -2.305476516485214233e-01 -1.368457227945327759e-01
-1.172751933336257935e-01 2.603802680969238281e-01 -1.280936896800994873e-01
-2.915191948413848877e-01 1.586244553327560425e-01 -1.224563084542751312e-02
-1.027061343193054199e-01 -2.033045142889022827e-01 2.766740620136260986e-01
-3.611806929111480713e-01 -2.724006772041320801e-04 4.870041273534297943e-03
-1.678312569856643677e-01 -3.214629888534545898e-01 2.466188371181488037e-01
-2.846050262451171875e-01 -3.145519793033599854e-01 -2.480694949626922607e-01
-2.751811742782592773e-01 1.844641715288162231e-01 3.471599146723747253e-02
-1.695580780506134033e-02 -4.825978726148605347e-02 -2.720040678977966309e-01
-1.758300960063934326e-01 1.767296791076660156e-01 -3.085516095161437988e-01
-3.432862162590026855e-01 -2.450210601091384888e-02 2.930212020874023438e-01
-2.113778889179229736e-02 -2.309939637780189514e-02 -2.994148135185241699e-01
-3.133838772773742676e-01 2.337484806776046753e-02 -2.255621403455734253e-01
-2.268873453140258789e-01 -7.954049110412597656e-02 -4.266415238380432129e-01
-3.395703434944152832e-01 5.653724074363708496e-02 -3.751251474022865295e-02
-1.396038830280303955e-01 -6.547130644321441650e-02 -4.574446678161621094e-01
-3.358904123306274414e-01 -1.780579835176467896e-01 -2.348314821720123291e-01
-1.739753782749176025e-02 1.627330929040908813e-01 -1.250855177640914917e-01
-1.214392557740211487e-01 2.512348294258117676e-01 1.143172234296798706e-01
-1.913071423768997192e-01 -3.547065258026123047e-01 -2.314748317003250122e-01
-3.993698954582214355e-02 -8.733728528022766113e-02 1.893312484025955200e-01
-3.544217348098754883e-02 -1.795523315668106079e-01 3.789481893181800842e-02
-1.362187713384628296e-01 -3.585834503173828125e-01 -6.608755141496658325e-02
-3.326873779296875000e-01 8.388166129589080811e-02 1.103402525186538696e-01
-4.637242853641510010e-02 -5.866708233952522278e-02 2.261680811643600464e-01
-3.326022028923034668e-01 -4.427964985370635986e-02 3.399619460105895996e-01
-1.211420670151710510e-01 -2.493135780096054077e-01 2.652862071990966797e-01
-4.554028809070587158e-02 -2.047011405229568481e-01 -1.874907910823822021e-01
-3.255168497562408447e-01 7.785260677337646484e-02 -8.292367309331893921e-02
-3.573079109191894531e-01 -2.878480553627014160e-01 2.065398544073104858e-01
-2.850793004035949707e-01 1.057037115097045898e-01 2.910551726818084717e-01
-1.070834249258041382e-01 2.449474483728408813e-01 -1.863870918750762939e-01
-1.806822866201400757e-01 2.493380010128021240e-02 -4.355672299861907959e-01
-1.405056715011596680e-01 1.925565749406814575e-01 2.634076476097106934e-01
-2.199213802814483643e-01 2.362935096025466919e-01 -4.768429324030876160e-02
-4.075065255165100098e-02 -1.655265688896179199e-01 -2.502336204051971436e-01
-4.311785101890563965e-03 8.742907643318176270e-02 -1.892646402120590210e-01
-1.710291355848312378e-01 -2.610892653465270996e-01 -3.670825362205505371e-01
-3.618419170379638672e-02 1.084542870521545410e-01 -3.056551516056060791e-01
-1.453642547130584717e-01 -3.581321239471435547e-01 -1.353867053985595703e-01
-2.882976233959197998e-01 -7.729908823966979980e-02 -3.432438969612121582e-01
-2.162801921367645264e-01 -3.021698817610740662e-02 -4.287845790386199951e-01
-1.382065415382385254e-01 2.150001972913742065e-01 2.229187041521072388e-01
-3.080700337886810303e-01 1.335913389921188354e-01 1.297593675553798676e-02
-1.281494945287704468e-01 2.683425545692443848e-01 2.352371998131275177e-02
-1.712529063224792480e-01 -5.165167897939682007e-02 4.337456822395324707e-01
-2.837525010108947754e-01 8.350224792957305908e-02 -2.438918948173522949e-01
-8.467134088277816772e-02 -2.958288788795471191e-01 -6.443664431571960449e-02
-2.800375819206237793e-01 -4.022664427757263184e-01 -1.923142932355403900e-02
-7.805743068456649780e-02 -2.804493606090545654e-01 -1.269015371799468994e-01
-2.996115982532501221e-01 1.180811226367950439e-01 -1.241205707192420959e-01
-2.807020545005798340e-01 -1.202206984162330627e-01 -3.606449961662292480e-01
-2.873655855655670166e-01 -3.891013860702514648e-01 -7.864787429571151733e-02
-1.075083091855049133e-01 1.044052988290786743e-01 3.240514099597930908e-01
-1.159385144710540771e-01 -3.379840850830078125e-01 -3.164589032530784607e-02
-3.378776609897613525e-01 -3.267694711685180664e-01 2.070974409580230713e-01
-3.617753386497497559e-01 -2.794116735458374023e-03 1.451713889837265015e-01
-2.707274854183197021e-01 -2.455982863903045654e-01 -3.331518471240997314e-01
-2.985762357711791992e-01 2.190852165222167969e-02 3.634304106235504150e-01
-6.671324372291564941e-03 4.758238792419433594e-03 -2.395699322223663330e-01
-6.111748516559600830e-02 -2.542774677276611328e-01 -3.762744367122650146e-02
-1.433877944946289062e-01 2.704474925994873047e-01 -1.071147341281175613e-02
1.781105995178222656e-03 -3.738626837730407715e-03 -1.699423044919967651e-01
-3.260002732276916504e-01 -1.823022365570068359e-01 3.715614676475524902e-01
-7.713894546031951904e-02 -2.021116167306900024e-01 2.067446559667587280e-01
-2.585609257221221924e-02 -1.637502461671829224e-01 -1.459863781929016113e-02
-1.639583259820938110e-01 -2.042299211025238037e-01 -4.132193624973297119e-01
-3.706976175308227539e-01 -3.776323795318603516e-02 1.482695713639259338e-02
-3.814547061920166016e-01 -1.524904221296310425e-01 -1.565489359200000763e-02
-3.345883488655090332e-01 -1.171993464231491089e-01 -2.406805306673049927e-01
-3.522745370864868164e-01 -3.562055528163909912e-03 -8.620198816061019897e-02
-2.953888475894927979e-01 -3.942873477935791016e-01 9.273833036422729492e-02
-1.178369820117950439e-01 -2.829517722129821777e-01 -2.821261286735534668e-01
-1.866372376680374146e-01 2.447596639394760132e-01 1.319660097360610962e-01
-1.419480293989181519e-01 -2.670695781707763672e-01 2.847809493541717529e-01
-1.918943524360656738e-01 2.501039505004882812e-01 9.265252947807312012e-02
5.547598004341125488e-03 1.314555108547210693e-02 -9.903348237276077271e-02
-2.405089586973190308e-01 9.833227097988128662e-02 3.653944432735443115e-01
