2.251695394515991211e-01 1.799930483102798462e-01 -5.758663415908813477e-01
2.419933676719665527e-03 2.009117007255554199e-01 -7.470360398292541504e-02
-1.163879036903381348e-02 2.317386865615844727e-01 -6.504997611045837402e-02
2.746428847312927246e-01 1.626167446374893188e-01 5.556554794311523438e-01
1.337401717901229858e-01 1.280586421489715576e-01 -2.816889286041259766e-01
1.735593825578689575e-01 3.740031123161315918e-01 -7.510270178318023682e-02
7.073204964399337769e-02 2.521343529224395752e-01 7.166485786437988281e-01
-1.507918536663055420e-02 2.853290140628814697e-01 4.621370434761047363e-01
2.479897141456604004e-01 2.987178564071655273e-01 5.454801917076110840e-01
2.666241228580474854e-01 1.098589375615119934e-01 3.694278001785278320e-01
1.459237486124038696e-01 3.615713119506835938e-01 3.788220882415771484e-01
2.169987112283706665e-01 1.003236621618270874e-01 -2.431944757699966431e-01
3.764101862907409668e-01 2.537046968936920166e-01 -3.929886817932128906e-01
2.778366804122924805e-01 2.800568938255310059e-01 -5.581589341163635254e-01
1.326667219400405884e-01 1.508036553859710693e-01 6.234871149063110352e-01
1.030866801738739014e-02 1.629848033189773560e-01 2.192811816930770874e-01
1.916880458593368530e-01 3.256008028984069824e-01 5.453591346740722656e-01
4.179675877094268799e-02 3.567657768726348877e-01 1.039887666702270508e-01
4.107446968555450439e-02 1.476974934339523315e-01 3.921845555305480957e-01
1.701512932777404785e-01 2.647134959697723389e-01 7.164959311485290527e-01
3.857470154762268066e-01 1.997809559106826782e-01 -4.072892665863037109e-01
2.627789676189422607e-01 8.624838292598724365e-02 -2.611684054136276245e-02
2.993150949478149414e-01 1.098166033625602722e-01 2.877811789512634277e-01
3.218489289283752441e-01 3.311717510223388672e-01 -1.221685409545898438e-01
3.970797657966613770e-01 2.400153279304504395e-01 9.746982157230377197e-02
3.882166147232055664e-01 2.650623321533203125e-01 -2.606486678123474121e-01
3.602529466152191162e-01 1.983657181262969971e-01 3.572896718978881836e-01
2.719156444072723389e-01 2.963306903839111328e-01 4.976934194564819336e-01
1.810829341411590576e-02 1.740497648715972900e-01 -4.838177561759948730e-02
4.055998325347900391e-01 2.334528416395187378e-01 -2.360687404870986938e-01
2.943003773689270020e-01 1.441973894834518433e-01 -4.830576777458190918e-01
-3.388036787509918213e-02 2.478199601173400879e-01 3.357040286064147949e-01
-3.425073623657226562e-02 2.424692064523696899e-01 1.618421673774719238e-01
4.063088595867156982e-01 2.323494702577590942e-01 1.159766316413879395e-02
1.060370728373527527e-01 3.429839909076690674e-01 -2.861242294311523438e-01
3.472463190555572510e-01 2.739076018333435059e-01 3.084095120429992676e-01
6.302519142627716064e-02 1.267737150192260742e-01 2.635299563407897949e-01
2.122579514980316162e-02 1.784293204545974731e-01 5.011562108993530273e-01
6.139509379863739014e-02 1.832664012908935547e-01 -2.955563068389892578e-01
2.505280971527099609e-01 2.865330576896667480e-01 5.738580822944641113e-01
3.381084501743316650e-01 1.116393208503723145e-01 1.280773878097534180e-01
6.685549020767211914e-02 3.648977279663085938e-01 2.312699705362319946e-01
3.550302386283874512e-01 3.076004683971405029e-01 -1.583251953125000000e-01
2.684226334095001221e-01 1.752491444349288940e-01 -5.736082196235656738e-01
3.478299379348754883e-01 1.106467545032501221e-01 1.450635492801666260e-03
7.952980697154998779e-02 3.591617345809936523e-01 -1.031015962362289429e-01
1.577335447072982788e-01 3.688638508319854736e-01 2.928186953067779541e-01
1.129513755440711975e-01 3.167722821235656738e-01 6.242895722389221191e-01
2.220863699913024902e-01 2.949998676776885986e-01 6.031610369682312012e-01
7.439786195755004883e-02 3.675796389579772949e-01 5.928889662027359009e-02
1.004057601094245911e-01 2.266704440116882324e-01 -4.722201228141784668e-01
3.415818810462951660e-01 2.458527684211730957e-01 4.025851488113403320e-01
1.278312355279922485e-01 3.451623320579528809e-01 5.006824731826782227e-01
1.531344205141067505e-01 2.269005328416824341e-01 -5.610508918762207031e-01
3.324384987354278564e-02 1.559319496154785156e-01 -2.496835589408874512e-02
1.261346340179443359e-01 3.766860663890838623e-01 1.289541423320770264e-01
1.271073371171951294e-01 1.431147158145904541e-01 -3.413338661193847656e-01
6.575448065996170044e-02 1.288425922393798828e-01 3.332307338714599609e-01
1.490257680416107178e-02 3.419797122478485107e-01 1.211994066834449768e-01
1.399256736040115356e-01 1.172113046050071716e-01 4.640039801597595215e-01
1.901525855064392090e-01 2.027361989021301270e-01 -5.836315155029296875e-01
1.923514902591705322e-01 3.614727258682250977e-01 3.200640678405761719e-01
3.836134076118469238e-01 2.761699259281158447e-01 1.943315193057060242e-02
2.698723971843719482e-01 3.361666202545166016e-01 -3.410425782203674316e-01
1.936743259429931641e-01 1.031980663537979126e-01 3.930438756942749023e-01
3.631494641304016113e-01 2.369007915258407593e-01 3.255413770675659180e-01
1.866623461246490479e-01 3.754107356071472168e-01 1.008379831910133362e-02
2.398034334182739258e-01 3.656890094280242920e-01 4.390079528093338013e-03
1.312432289123535156e-01 9.862163662910461426e-02 5.359359830617904663e-02
6.864324212074279785e-02 1.438691616058349609e-01 -1.469618082046508789e-01
6.682500988245010376e-02 1.308581382036209106e-01 3.678919076919555664e-01
6.941074877977371216e-02 1.247948631644248962e-01 2.939339876174926758e-01
-2.911564707756042480e-02 2.347633391618728638e-01 9.340754151344299316e-02
1.925452798604965210e-01 3.709762096405029297e-01 -1.136207878589630127e-01
3.414973616600036621e-01 3.193507790565490723e-01 -8.594876527786254883e-02
1.402994990348815918e-02 2.867857217788696289e-01 -1.923051923513412476e-01
8.644623309373855591e-02 3.542985320091247559e-01 4.204882383346557617e-01
6.669219583272933960e-02 1.347088366746902466e-01 -6.155291199684143066e-02
2.657452523708343506e-01 9.169144928455352783e-02 1.987443268299102783e-01
1.262726336717605591e-01 1.628015637397766113e-01 -4.125038385391235352e-01
4.035266935825347900e-01 1.818119734525680542e-01 -2.660757899284362793e-01
3.177133202552795410e-01 2.785586118698120117e-01 -5.067890882492065430e-01
3.076200187206268311e-02 3.462030291557312012e-01 3.308153152465820312e-01
2.658773064613342285e-01 1.519432067871093750e-01 -5.196022987365722656e-01
2.711100578308105469e-01 1.279748082160949707e-01 -4.308922290802001953e-01
2.911425232887268066e-01 3.451891243457794189e-01 8.171112835407257080e-02
1.734336018562316895e-01 3.426990509033203125e-01 4.854713082313537598e-01
2.318314611911773682e-01 2.914389371871948242e-01 -5.561128854751586914e-01
3.012531995773315430e-01 3.074606657028198242e-01 3.632571101188659668e-01
-1.093836128711700439e-02 1.904803216457366943e-01 3.297488093376159668e-01
1.731754690408706665e-01 3.719223737716674805e-01 2.254948019981384277e-01
2.603457570075988770e-01 3.143535852432250977e-01 4.602005481719970703e-01
2.570326328277587891e-01 3.602195978164672852e-01 4.040225967764854431e-02
1.337063312530517578e-01 9.855078160762786865e-02 2.214542776346206665e-01
2.734953761100769043e-01 8.714053034782409668e-02 1.248566806316375732e-02
3.614408671855926514e-01 1.209348365664482117e-01 4.686271026730537415e-02
1.329872608184814453e-01 9.933270514011383057e-02 1.448906958103179932e-02
1.932106912136077881e-02 3.306407332420349121e-01 4.192824363708496094e-01
-1.120476424694061279e-02 2.565777897834777832e-01 -8.875930309295654297e-02
1.659559607505798340e-01 3.759822547435760498e-01 1.475762426853179932e-01
2.892771959304809570e-01 2.220979779958724976e-01 -6.075751185417175293e-01
-2.928987145423889160e-02 2.191547304391860962e-01 2.555549144744873047e-01
2.056560516357421875e-01 2.683879137039184570e-01 -5.907568931579589844e-01
3.362540006637573242e-01 1.359694898128509521e-01 -3.910073041915893555e-01
3.376736044883728027e-01 3.186210691928863525e-01 -1.916740387678146362e-01
2.851291298866271973e-01 3.503059446811676025e-01 -2.413452416658401489e-02
2.781996428966522217e-01 3.275283873081207275e-01 -3.806920647621154785e-01
3.877511322498321533e-01 1.402264833450317383e-01 -6.311802566051483154e-02
2.357019931077957153e-01 2.764095962047576904e-01 -5.846683979034423828e-01
1.623867005109786987e-01 3.200765550136566162e-01 5.967394709587097168e-01
-2.088697254657745361e-02 2.492745816707611084e-01 4.694036841392517090e-01
6.724819540977478027e-03 2.210268527269363403e-01 -1.562823802232742310e-01
2.872030735015869141e-01 1.403461396694183350e-01 4.707303643226623535e-01
-2.683006227016448975e-02 2.716206908226013184e-01 4.691756889224052429e-02
2.693775594234466553e-01 2.045862525701522827e-01 6.163069605827331543e-01
2.371468096971511841e-01 3.098433613777160645e-01 -5.043477416038513184e-01
2.528497576713562012e-01 9.430254995822906494e-02 -1.979488879442214966e-01
2.908677458763122559e-01 3.357015252113342285e-01 2.170082926750183105e-01
-1.197153329849243164e-02 1.908402740955352783e-01 1.403783559799194336e-01
2.936327457427978516e-01 1.611813306808471680e-01 -5.331152081489562988e-01
2.634342014789581299e-02 3.477572202682495117e-01 7.986319810152053833e-02
1.064917892217636108e-01 1.059069707989692688e-01 1.797170042991638184e-01
1.101243495941162109e-02 1.976903676986694336e-01 -1.168888360261917114e-01
8.027133345603942871e-02 1.700765639543533325e-01 -3.160693645477294922e-01
2.047327458858489990e-01 1.882800161838531494e-01 6.901443600654602051e-01
1.504890620708465576e-01 1.057306975126266479e-01 3.833962678909301758e-01
2.485840022563934326e-02 3.490376770496368408e-01 1.615888774394989014e-01
1.831183284521102905e-01 3.344605863094329834e-01 5.166824460029602051e-01
1.219680979847908020e-01 3.667342662811279297e-01 3.310288190841674805e-01
9.150257706642150879e-02 1.165368407964706421e-01 -6.069242954254150391e-03
1.733055114746093750e-01 9.886865317821502686e-02 -1.526436507701873779e-01
3.510742783546447754e-01 3.107201457023620605e-01 3.609634935855865479e-03
2.225856184959411621e-01 9.389680624008178711e-02 2.952378392219543457e-01
3.358250856399536133e-01 2.976359426975250244e-01 -3.857646584510803223e-01
8.629386126995086670e-02 1.155796274542808533e-01 6.470222026109695435e-02
4.993742704391479492e-02 1.749425977468490601e-01 -2.239405661821365356e-01
4.860414564609527588e-02 3.409434258937835693e-01 -1.321134269237518311e-01
1.058067381381988525e-01 1.958582699298858643e-01 -4.472864270210266113e-01
1.378077119588851929e-01 3.367613554000854492e-01 -3.660100698471069336e-01
2.145289778709411621e-01 3.481738269329071045e-01 3.843724727630615234e-01
1.739141941070556641e-01 1.067583635449409485e-01 -2.305360883474349976e-01
1.975506842136383057e-01 3.684773743152618408e-01 -1.488696336746215820e-01
1.680058836936950684e-01 1.065933629870414734e-01 4.110539555549621582e-01
3.253612518310546875e-01 3.296656608581542969e-01 -2.222008258104324341e-02
8.459619432687759399e-02 3.381271958351135254e-01 5.230056643486022949e-01
-2.166880667209625244e-02 2.137356102466583252e-01 3.771140575408935547e-01
3.988313674926757812e-01 1.681573092937469482e-01 6.768909841775894165e-02
6.656771898269653320e-02 3.410527408123016357e-01 4.843181371688842773e-01
3.974082171916961670e-01 2.073244899511337280e-01 1.508444845676422119e-01
2.187309861183166504e-01 3.703870177268981934e-01 -1.704013347625732422e-02
1.063562333583831787e-01 3.492872118949890137e-01 -2.508621811866760254e-01
3.988836407661437988e-01 1.590212583541870117e-01 4.789568483829498291e-03
2.843406796455383301e-01 1.121501103043556213e-01 3.455649018287658691e-01
1.083868965506553650e-01 3.722289800643920898e-01 -2.254347503185272217e-02
2.445608079433441162e-01 3.344685435295104980e-01 4.000589847564697266e-01
3.709137439727783203e-01 1.510599851608276367e-01 2.120567560195922852e-01
3.820164203643798828e-01 1.876026839017868042e-01 2.427184432744979858e-01
1.703456193208694458e-01 9.073433279991149902e-02 2.034869045019149780e-01
1.842100918292999268e-01 3.495059907436370850e-01 4.304539561271667480e-01
-3.004190325736999512e-02 2.912551462650299072e-01 2.319524735212326050e-01
1.532060950994491577e-01 3.775458335876464844e-01 4.241043329238891602e-02
3.605130910873413086e-01 2.861631214618682861e-01 -3.357352614402770996e-01
1.690408587455749512e-02 3.202076852321624756e-01 -1.013189256191253662e-01
6.695511192083358765e-02 3.311530351638793945e-01 -2.483135312795639038e-01
2.303692549467086792e-01 1.386496126651763916e-01 5.565254688262939453e-01
2.963938713073730469e-01 1.869283020496368408e-01 -5.791849493980407715e-01
2.206148803234100342e-01 3.695052266120910645e-01 -4.770424962043762207e-02
3.082371950149536133e-01 2.309043556451797485e-01 5.260152220726013184e-01
5.101282894611358643e-02 2.382450103759765625e-01 6.940296292304992676e-01
3.232126235961914062e-01 3.211042284965515137e-01 -2.737587690353393555e-01
3.222677707672119141e-01 1.583365201950073242e-01 -4.968098402023315430e-01
1.384789198637008667e-01 9.613171219825744629e-02 1.726339310407638550e-01
3.223655819892883301e-01 1.831395626068115234e-01 -5.478889346122741699e-01
1.719286888837814331e-01 1.224456578493118286e-01 5.171278715133666992e-01
3.057132363319396973e-01 3.267650604248046875e-01 -3.056991100311279297e-01
3.881061375141143799e-01 1.639841794967651367e-01 1.489649713039398193e-01
1.380481123924255371e-01 3.686395883560180664e-01 -1.425508409738540649e-01
3.612697124481201172e-01 2.711730301380157471e-01 2.446044683456420898e-01
-9.036675095558166504e-03 2.953187823295593262e-01 -4.473472386598587036e-02
3.582378029823303223e-01 1.553574055433273315e-01 -4.131569862365722656e-01
-3.424265980720520020e-02 2.354200780391693115e-01 2.144473791122436523e-01
2.282935678958892822e-01 3.671891093254089355e-01 -7.766310870647430420e-02
2.402829527854919434e-01 2.204610407352447510e-01 -6.204395294189453125e-01
2.782412171363830566e-01 3.079974949359893799e-01 -4.755718708038330078e-01
2.624964118003845215e-01 3.575423061847686768e-01 7.292442768812179565e-02
-6.066828966140747070e-03 2.597987949848175049e-01 -1.195180267095565796e-01
3.880499005317687988e-01 1.458718776702880859e-01 3.906194865703582764e-02
8.741363137960433960e-02 1.521975994110107422e-01 5.776283740997314453e-01
8.366326242685317993e-02 2.791183292865753174e-01 -4.229201078414916992e-01
3.116219043731689453e-01 1.078086867928504944e-01 2.272601425647735596e-01
2.197505831718444824e-01 1.132847145199775696e-01 4.525021910667419434e-01
2.288567721843719482e-01 3.592294752597808838e-01 2.428206652402877808e-01
3.043583035469055176e-02 1.464274376630783081e-01 2.376019060611724854e-01
2.560034990310668945e-01 1.366034448146820068e-01 -4.688112735748291016e-01
1.050354614853858948e-01 3.649727106094360352e-01 -1.203722655773162842e-01
6.705046445131301880e-02 2.785084843635559082e-01 -3.834883570671081543e-01
5.738863348960876465e-02 2.927663326263427734e-01 -3.359218835830688477e-01
2.140323072671890259e-01 8.540131151676177979e-02 -1.765601336956024170e-02
3.666129708290100098e-01 2.978141903877258301e-01 -2.205916494131088257e-02
3.963682055473327637e-01 2.623393237590789795e-01 -1.436015814542770386e-01
9.242644906044006348e-02 1.174962893128395081e-01 3.391262292861938477e-01
6.781847029924392700e-02 1.552687585353851318e-01 5.497586727142333984e-01
1.636765897274017334e-02 2.470861971378326416e-01 -2.297339290380477905e-01
3.813259899616241455e-01 2.624691128730773926e-01 -3.329425454139709473e-01
2.345400750637054443e-01 3.520036339759826660e-01 2.999279499053955078e-01
6.541939824819564819e-02 2.369973808526992798e-01 -3.935337662696838379e-01
2.763528525829315186e-01 3.536418080329895020e-01 -5.810955911874771118e-02
3.394076228141784668e-01 1.439243555068969727e-01 3.317292928695678711e-01
1.182763054966926575e-01 1.631565093994140625e-01 6.532323956489562988e-01
4.134210348129272461e-01 2.153318375349044800e-01 -1.023966521024703979e-01
7.097522914409637451e-02 1.213117465376853943e-01 1.405874937772750854e-01
2.516931295394897461e-01 1.144059300422668457e-01 4.226812124252319336e-01
3.908895850181579590e-01 2.135266810655593872e-01 1.964664906263351440e-01
3.005448579788208008e-01 2.592258751392364502e-01 5.130687952041625977e-01
3.810234665870666504e-01 2.781835794448852539e-01 -2.282390743494033813e-01
4.019382596015930176e-01 1.886082291603088379e-01 -2.978305816650390625e-01
7.555922865867614746e-02 3.685649335384368896e-01 1.769810020923614502e-01
7.844731211662292480e-02 1.399156749248504639e-01 4.926976561546325684e-01
3.755472004413604736e-01 1.405955106019973755e-01 1.232429891824722290e-01
1.507241129875183105e-01 1.541185826063156128e-01 -4.323840141296386719e-01
4.413543641567230225e-02 3.432655334472656250e-01 -9.571401774883270264e-02
3.473843634128570557e-02 3.158647418022155762e-01 5.456893444061279297e-01
-2.151811122894287109e-02 3.027526438236236572e-01 1.197299063205718994e-01
3.562176227569580078e-01 1.505722701549530029e-01 2.859277725219726562e-01
1.014546751976013184e-01 3.545288145542144775e-01 -2.051648646593093872e-01
1.629837006330490112e-01 9.160758554935455322e-02 1.162299886345863342e-02
3.730154037475585938e-01 1.472192108631134033e-01 1.813644021749496460e-01
1.967428326606750488e-01 2.859840989112854004e-01 -5.611164569854736328e-01
1.120516955852508545e-01 1.405112743377685547e-01 5.629151463508605957e-01
-1.096056401729583740e-02 2.137598246335983276e-01 -2.347096800804138184e-02
1.162547320127487183e-01 3.758543729782104492e-01 6.299147009849548340e-02
3.711064457893371582e-01 2.766267061233520508e-01 1.513174474239349365e-01
-7.648959755897521973e-03 3.246102929115295410e-01 2.079862207174301147e-01
8.651831746101379395e-02 3.240520954132080078e-01 -3.271850943565368652e-01
3.397831320762634277e-01 3.003714382648468018e-01 -3.538239598274230957e-01
3.143185973167419434e-01 9.648372232913970947e-02 -4.320651292800903320e-02
1.164170354604721069e-01 1.083662360906600952e-01 -4.732366651296615601e-02
2.547892332077026367e-01 1.398423910140991211e-01 5.288000106811523438e-01
8.323565125465393066e-03 3.073094189167022705e-01 4.996991157531738281e-01
4.255171120166778564e-02 1.536450386047363281e-01 -7.217186689376831055e-02
2.107243686914443970e-01 3.687911927700042725e-01 1.666004061698913574e-01
-2.511978149414062500e-03 2.830772697925567627e-01 5.296178460121154785e-01
1.856727302074432373e-01 1.824885010719299316e-01 -5.508691072463989258e-01
9.087897837162017822e-02 1.396619230508804321e-01 -2.146167308092117310e-01
3.142425715923309326e-01 9.850980341434478760e-02 -1.215558648109436035e-01
2.838273346424102783e-01 3.149962723255157471e-01 3.880454301834106445e-01
1.293658912181854248e-01 1.068583950400352478e-01 3.494613766670227051e-01
2.565864920616149902e-01 3.463779985904693604e-01 2.736529111862182617e-01
8.440063148736953735e-02 2.853094041347503662e-01 6.917139291763305664e-01
1.631633937358856201e-01 2.256624400615692139e-01 7.408798933029174805e-01
2.291026711463928223e-01 9.640365839004516602e-02 -2.156670540571212769e-01
5.642542243003845215e-02 3.631500601768493652e-01 1.355703175067901611e-01
1.527998149394989014e-01 1.981713771820068359e-01 -5.353689193725585938e-01
3.251364231109619141e-01 1.675061285495758057e-01 4.439895749092102051e-01
2.753777801990509033e-02 2.262556701898574829e-01 -2.596058249473571777e-01
1.450723260641098022e-01 9.856301546096801758e-02 2.795284688472747803e-01
6.324957311153411865e-02 3.148998022079467773e-01 -2.984497547149658203e-01
2.716186046600341797e-01 2.872018516063690186e-01 5.255867838859558105e-01
3.549110889434814453e-01 3.061175346374511719e-01 3.228522092103958130e-02
2.750362455844879150e-02 3.464087843894958496e-01 4.277367889881134033e-02
3.512863516807556152e-01 1.230070441961288452e-01 1.591070890426635742e-01
4.097495973110198975e-01 2.305901050567626953e-01 -5.617558956146240234e-02
3.100325465202331543e-01 3.188223838806152344e-01 -3.505493402481079102e-01
2.985734939575195312e-01 3.064114749431610107e-01 -4.479418396949768066e-01
4.283158481121063232e-02 3.540484309196472168e-01 2.932720184326171875e-01
2.686238884925842285e-01 9.053401648998260498e-02 -1.304039061069488525e-01
5.163286626338958740e-02 1.516468822956085205e-01 -1.120915263891220093e-01
3.271273076534271240e-01 1.528326123952865601e-01 4.032279253005981445e-01
2.733298242092132568e-01 3.202357888221740723e-01 -4.293458461761474609e-01
1.359925568103790283e-01 3.530592322349548340e-01 -2.755624055862426758e-01
3.953931033611297607e-01 2.615816593170166016e-01 -2.186762541532516479e-02
2.779777348041534424e-02 1.840232312679290771e-01 -1.571682989597320557e-01
2.165067642927169800e-01 9.793713688850402832e-02 3.411145210266113281e-01
1.174553856253623962e-01 3.544795811176300049e-01 4.407852888107299805e-01
3.411419987678527832e-01 3.093248605728149414e-01 1.404651701450347900e-01
2.712627649307250977e-01 1.163332387804985046e-01 -3.706902265548706055e-01
2.752563357353210449e-01 1.270618140697479248e-01 4.445333480834960938e-01
6.374160945415496826e-02 3.382839560508728027e-01 -2.033682316541671753e-01
8.334477990865707397e-02 1.762666553258895874e-01 -3.449801802635192871e-01
-2.077609300613403320e-03 1.763159334659576416e-01 1.796017587184906006e-01
2.299236059188842773e-01 1.904809772968292236e-01 6.664758324623107910e-01
3.338521420955657959e-01 3.048807978630065918e-01 2.260838598012924194e-01
2.647004425525665283e-01 1.708179861307144165e-01 5.890295505523681641e-01
1.855611056089401245e-01 1.325523555278778076e-01 5.637689232826232910e-01
1.254293173551559448e-01 1.031381934881210327e-01 -1.507578790187835693e-02
6.931920349597930908e-02 1.879120469093322754e-01 6.620138287544250488e-01
2.457237243652343750e-02 3.127867281436920166e-01 -1.696132421493530273e-01
9.783327579498291016e-03 1.650564223527908325e-01 2.903552055358886719e-01
3.491743803024291992e-01 3.068916201591491699e-01 9.295143932104110718e-02
2.823889255523681641e-03 1.819453090429306030e-01 2.545936405658721924e-02
1.351286470890045166e-01 3.330828249454498291e-01 5.596816539764404297e-01
2.322003245353698730e-01 1.043682992458343506e-01 3.825410604476928711e-01
6.580750644207000732e-02 1.238042935729026794e-01 1.746187359094619751e-01
1.613399684429168701e-01 9.082071483135223389e-02 1.484818905591964722e-01
2.390393614768981934e-02 2.083978801965713501e-01 6.070640087127685547e-01
1.791205257177352905e-01 1.003230661153793335e-01 -1.826420724391937256e-01
8.852284401655197144e-02 3.577295839786529541e-01 -1.460131406784057617e-01
1.757149845361709595e-01 3.386175930500030518e-01 -3.894507884979248047e-01
1.705526709556579590e-01 3.761005401611328125e-01 -1.725335419178009033e-02
9.769916534423828125e-03 3.382859230041503906e-01 2.553340494632720947e-01
6.983905285596847534e-02 1.226217374205589294e-01 1.040400266647338867e-01
3.882888853549957275e-01 2.406346797943115234e-01 -3.642911911010742188e-01
3.850230276584625244e-01 2.469940334558486938e-01 1.772225797176361084e-01
3.694235384464263916e-01 1.378683149814605713e-01 -2.839215993881225586e-01
9.328693151473999023e-03 1.688521206378936768e-01 3.470054864883422852e-01
2.853148281574249268e-01 8.973556756973266602e-02 6.566347181797027588e-02
3.771618008613586426e-01 1.976607590913772583e-01 -4.404190778732299805e-01
2.973822951316833496e-01 2.914712131023406982e-01 4.413957595825195312e-01
1.584765017032623291e-01 3.154608607292175293e-01 -4.660840630531311035e-01
2.771596610546112061e-01 3.532695770263671875e-01 1.363682746887207031e-02
2.600962519645690918e-01 8.769661188125610352e-02 -8.443547785282135010e-02
2.599781751632690430e-01 2.471746951341629028e-01 -6.136367321014404297e-01
4.809983074665069580e-02 1.524205207824707031e-01 4.688805937767028809e-01
-2.497923374176025391e-02 2.125176489353179932e-01 3.129524588584899902e-01
2.828727662563323975e-02 3.397741615772247314e-01 3.865178823471069336e-01
1.691389977931976318e-01 3.477449417114257812e-01 -3.375506997108459473e-01
2.838212251663208008e-02 1.515139043331146240e-01 3.285276293754577637e-01
3.242738842964172363e-01 1.163424178957939148e-01 -3.008080720901489258e-01
3.159853219985961914e-01 3.283295631408691406e-01 1.332146972417831421e-01
2.985798716545104980e-01 3.390848934650421143e-01 -2.043666690587997437e-01
1.821070760488510132e-01 3.751984238624572754e-01 1.197362989187240601e-01
8.855796605348587036e-02 1.264529228210449219e-01 -1.070159822702407837e-01
3.659454584121704102e-01 2.540850043296813965e-01 2.757192552089691162e-01
2.884871363639831543e-01 3.234469294548034668e-01 3.237919211387634277e-01
3.502075672149658203e-01 1.316920816898345947e-01 -3.281505703926086426e-01
1.876897513866424561e-01 3.179693818092346191e-01 5.798261165618896484e-01
4.028646051883697510e-01 1.647442430257797241e-01 -1.774069815874099731e-01
6.734846532344818115e-02 1.386583894491195679e-01 4.463763236999511719e-01
2.208289802074432373e-01 3.691467344760894775e-01 9.582743048667907715e-02
1.551767885684967041e-01 1.918973624706268311e-01 7.200385332107543945e-01
2.946379184722900391e-01 1.722957491874694824e-01 5.321887731552124023e-01
-4.221364855766296387e-03 2.461013942956924438e-01 5.550476312637329102e-01
3.506636321544647217e-01 3.075288832187652588e-01 -2.207322865724563599e-01
-2.490332722663879395e-02 2.406865805387496948e-01 2.937585860490798950e-02
2.595621943473815918e-01 9.178650379180908203e-02 -1.615283638238906860e-01
-1.136308908462524414e-02 3.126249313354492188e-01 6.415746361017227173e-02
1.345070004463195801e-01 1.057755947113037109e-01 -1.023987680673599243e-01
2.461409866809844971e-01 3.554481863975524902e-01 -2.204192131757736206e-01
1.056310534477233887e-02 1.750375330448150635e-01 4.185883402824401855e-01
7.952427864074707031e-02 3.667249381542205811e-01 2.232789993286132812e-04
1.251590847969055176e-01 3.730309605598449707e-01 2.409065514802932739e-01
9.684233367443084717e-02 3.722888231277465820e-01 3.497575223445892334e-02
1.886488050222396851e-01 2.203068435192108154e-01 7.250081896781921387e-01
1.993710994720458984e-01 2.843626439571380615e-01 6.587582826614379883e-01
2.062720060348510742e-01 8.799971640110015869e-02 -7.041607797145843506e-02
5.005012452602386475e-02 3.149270713329315186e-01 5.794963836669921875e-01
3.545458912849426270e-01 2.283266186714172363e-01 3.737827539443969727e-01
2.401650398969650269e-01 9.831595420837402344e-02 3.232345581054687500e-01
1.562685519456863403e-01 9.171460568904876709e-02 7.548607885837554932e-02
1.341345161199569702e-01 2.880089879035949707e-01 -5.008049011230468750e-01
3.765721023082733154e-01 2.475986629724502563e-01 2.321625351905822754e-01
3.434218168258666992e-01 2.449716478586196899e-01 -5.198951959609985352e-01
2.798305749893188477e-01 3.496972322463989258e-01 -1.500202715396881104e-01
4.502013325691223145e-03 2.455628216266632080e-01 -1.741979867219924927e-01
1.482129395008087158e-01 3.261706233024597168e-01 -4.205898046493530273e-01
8.915702253580093384e-02 1.334024369716644287e-01 -1.666518449783325195e-01
4.078474640846252441e-01 2.111049294471740723e-01 4.441883787512779236e-02
-1.717805862426757812e-04 3.194738030433654785e-01 3.925881981849670410e-01
1.497149467468261719e-01 1.327469050884246826e-01 5.604741573333740234e-01
3.746016025543212891e-01 2.883425354957580566e-01 -1.877357810735702515e-01
1.729951053857803345e-01 1.732926666736602783e-01 6.858736872673034668e-01
-2.053597569465637207e-02 2.835551500320434570e-01 4.306282997131347656e-01
1.056007221341133118e-01 3.245638310909271240e-01 5.951949954032897949e-01
-2.884898483753204346e-01 -2.591938376426696777e-01 -5.280339717864990234e-01
-1.232485696673393250e-01 -4.557134807109832764e-01 -7.473832368850708008e-01
-2.981075644493103027e-01 -3.831833302974700928e-01 -7.719261646270751953e-01
-3.415937423706054688e-01 -2.228109240531921387e-01 -7.269591093063354492e-01
-1.563928425312042236e-01 -6.060575246810913086e-01 -6.795467734336853027e-01
-3.033903837203979492e-01 -4.416715204715728760e-01 -5.298691987991333008e-01
-2.112470269203186035e-01 -2.194600254297256470e-01 -5.800901055335998535e-01
-1.722355186939239502e-01 -2.251680791378021240e-01 -8.270268440246582031e-01
-2.251549810171127319e-01 -2.431192696094512939e-01 -8.633337616920471191e-01
-2.330799102783203125e-01 -2.062399238348007202e-01 -5.679973959922790527e-01
-1.481107920408248901e-01 -3.074498474597930908e-01 -6.339160203933715820e-01
-3.480303287506103516e-01 -2.345854341983795166e-01 -6.257016062736511230e-01
-3.073332607746124268e-01 -3.647234439849853516e-01 -7.648217082023620605e-01
-2.061394751071929932e-01 -1.601445972919464111e-01 -6.386926770210266113e-01
-1.358795464038848877e-01 -3.453016877174377441e-01 -7.921925783157348633e-01
-3.392256796360015869e-01 -1.596055775880813599e-01 -7.228214740753173828e-01
-1.367438137531280518e-01 -5.317575335502624512e-01 -6.027982831001281738e-01
-2.715005874633789062e-01 -6.961658596992492676e-02 -6.866709589958190918e-01
-2.592580616474151611e-01 -6.849959492683410645e-02 -7.751247286796569824e-01
-1.705083250999450684e-01 -2.034150809049606323e-01 -8.082650899887084961e-01
-2.677005231380462646e-01 -1.869656294584274292e-01 -5.628045797348022461e-01
-2.145084142684936523e-01 -3.857986330986022949e-01 -8.442472219467163086e-01
-1.960614025592803955e-01 -3.513936698436737061e-01 -8.533322811126708984e-01
-1.179565563797950745e-01 -4.599853157997131348e-01 -6.929795145988464355e-01
-3.435343503952026367e-01 -3.094213008880615234e-01 -6.854687333106994629e-01
-3.035230338573455811e-01 -1.875220835208892822e-01 -8.117296099662780762e-01
-3.501130938529968262e-01 -2.289953827857971191e-01 -6.555852890014648438e-01
-2.734749317169189453e-01 -5.621076822280883789e-01 -6.279637813568115234e-01
-2.774024605751037598e-01 -5.476281046867370605e-01 -5.643772482872009277e-01
-1.449278295040130615e-01 -5.754085779190063477e-01 -7.094694375991821289e-01
-2.250041067600250244e-01 -5.649541020393371582e-01 -7.312666177749633789e-01
-1.981180161237716675e-01 -1.946714222431182861e-01 -8.450984954833984375e-01
-1.527226865291595459e-01 -4.188713133335113525e-01 -5.708414316177368164e-01
-1.907705217599868774e-01 -5.800148248672485352e-01 -5.381867289543151855e-01
-3.293607234954833984e-01 -4.064842462539672852e-01 -6.580286622047424316e-01
-2.167403548955917358e-01 -1.074908673763275146e-01 -6.960742473602294922e-01
-1.792717128992080688e-01 -6.064436435699462891e-01 -7.014271616935729980e-01
-3.107102811336517334e-01 -2.342553138732910156e-01 -5.488157272338867188e-01
-2.062640786170959473e-01 -3.054941892623901367e-01 -5.386899113655090332e-01
-3.315257430076599121e-01 -3.277027308940887451e-01 -5.588352084159851074e-01
-1.361063271760940552e-01 -2.949301600456237793e-01 -7.614700794219970703e-01
-1.197034418582916260e-01 -4.670614898204803467e-01 -6.668834686279296875e-01
-2.730488479137420654e-01 -3.893631696701049805e-01 -8.043860197067260742e-01
-2.980988323688507080e-01 -4.469233453273773193e-01 -7.278295159339904785e-01
-3.198810815811157227e-01 -2.247572243213653564e-01 -7.848175764083862305e-01
-2.532079815864562988e-01 -4.485718607902526855e-01 -4.929215312004089355e-01
-3.389738798141479492e-01 -2.579722702503204346e-01 -7.305003404617309570e-01
-1.779463440179824829e-01 -3.528849482536315918e-01 -8.471606969833374023e-01
-2.334004789590835571e-01 -5.335974097251892090e-01 -7.535541653633117676e-01
-2.074279785156250000e-01 -1.290529668331146240e-01 -8.096834421157836914e-01
-2.138756513595581055e-01 -4.556580781936645508e-01 -8.166897296905517578e-01
-2.790363132953643799e-01 -1.426070481538772583e-01 -8.292204737663269043e-01
-3.345826864242553711e-01 -2.031867057085037231e-01 -7.510501146316528320e-01
-1.486146599054336548e-01 -3.801390826702117920e-01 -8.180737495422363281e-01
-2.347043454647064209e-01 -3.351945579051971436e-01 -5.092003345489501953e-01
-2.200262546539306641e-01 -4.859064221382141113e-01 -7.975803613662719727e-01
-3.422902822494506836e-01 -1.533466279506683350e-01 -6.829138994216918945e-01
-2.384488582611083984e-01 -7.443392276763916016e-02 -7.353508472442626953e-01
-3.152781724929809570e-01 -4.667477309703826904e-01 -6.228677630424499512e-01
-3.078755438327789307e-01 -1.128440201282501221e-01 -6.294900178909301758e-01
-1.945000290870666504e-01 -1.362485587596893311e-01 -7.075828313827514648e-01
-3.288059234619140625e-01 -3.064759969711303711e-01 -5.530960559844970703e-01
-1.643979251384735107e-01 -5.305190086364746094e-01 -7.723276019096374512e-01
-1.658270955085754395e-01 -4.864482581615447998e-01 -5.417708158493041992e-01
-1.858808100223541260e-01 -6.282838582992553711e-01 -6.557101011276245117e-01
-3.498098254203796387e-01 -2.694567143917083740e-01 -6.539349555969238281e-01
-2.097910493612289429e-01 -4.167362153530120850e-01 -5.054587125778198242e-01
-1.345593184232711792e-01 -2.999010682106018066e-01 -7.061986923217773438e-01
-2.244909405708312988e-01 -5.649883747100830078e-01 -5.207115411758422852e-01
-3.123417496681213379e-01 -4.492524266242980957e-01 -6.828956007957458496e-01
-3.272279202938079834e-01 -2.502144873142242432e-01 -5.613976120948791504e-01
-1.923022866249084473e-01 -4.975043535232543945e-01 -5.146362781524658203e-01
-1.745775192975997925e-01 -3.790808320045471191e-01 -8.410028815269470215e-01
-3.319240808486938477e-01 -3.915723264217376709e-01 -5.858711600303649902e-01
-1.361454129219055176e-01 -3.814621865749359131e-01 -7.963026762008666992e-01
-2.213002741336822510e-01 -1.850536167621612549e-01 -5.941112637519836426e-01
-1.181149780750274658e-01 -4.394510686397552490e-01 -6.909252405166625977e-01
-1.873435676097869873e-01 -4.677965641021728516e-01 -8.146041035652160645e-01
-3.443788290023803711e-01 -3.344675004482269287e-01 -6.323113441467285156e-01
-2.887970507144927979e-01 -4.040404856204986572e-01 -7.756687998771667480e-01
-3.342082500457763672e-01 -3.950443863868713379e-01 -6.236118674278259277e-01
-3.074153959751129150e-01 -4.883673787117004395e-01 -5.927300453186035156e-01
-1.485112905502319336e-01 -4.465483427047729492e-01 -8.028559684753417969e-01
-2.867507934570312500e-01 -2.458878159523010254e-01 -8.302492499351501465e-01
-1.799811422824859619e-01 -1.575196683406829834e-01 -7.299989461898803711e-01
-1.961596310138702393e-01 -5.330132246017456055e-01 -7.750701308250427246e-01
-2.463560402393341064e-01 -7.809147238731384277e-02 -7.864896059036254883e-01
-2.262823432683944702e-01 -4.513807296752929688e-01 -4.953500926494598389e-01
-2.884370982646942139e-01 -4.650529026985168457e-01 -7.329997420310974121e-01
-3.196098804473876953e-01 -3.124454021453857422e-01 -5.377966165542602539e-01
-3.121135830879211426e-01 -9.127581119537353516e-02 -7.544036507606506348e-01
-3.007686436176300049e-01 -2.090647518634796143e-01 -5.539521574974060059e-01
-1.945655792951583862e-01 -5.091776251792907715e-01 -7.916237711906433105e-01
-2.839165329933166504e-01 -5.450812578201293945e-01 -6.108753681182861328e-01
-2.851925790309906006e-01 -3.627828359603881836e-01 -8.012140393257141113e-01
-3.369048833847045898e-01 -1.980720460414886475e-01 -6.019195914268493652e-01
-2.684520184993743896e-01 -2.761317193508148193e-01 -8.430776000022888184e-01
-2.464655339717864990e-01 -2.364175319671630859e-01 -5.423972606658935547e-01
-1.734558641910552979e-01 -1.978192925453186035e-01 -6.710655093193054199e-01
-1.912082731723785400e-01 -2.155947536230087280e-01 -8.467299342155456543e-01
-2.851930856704711914e-01 -3.714007139205932617e-01 -5.029015541076660156e-01
-3.444562256336212158e-01 -1.819843053817749023e-01 -7.058470249176025391e-01
-1.498178243637084961e-01 -2.736443579196929932e-01 -8.038105368614196777e-01
-1.732557713985443115e-01 -2.847288846969604492e-01 -5.924360752105712891e-01
-3.280759751796722412e-01 -1.262327879667282104e-01 -7.441554665565490723e-01
-2.090294957160949707e-01 -2.719568610191345215e-01 -5.515114068984985352e-01
-3.163059949874877930e-01 -2.052048444747924805e-01 -7.923457026481628418e-01
-1.371001750230789185e-01 -3.471298217773437500e-01 -6.400727033615112305e-01
-2.089705169200897217e-01 -1.779229640960693359e-01 -6.159742474555969238e-01
-1.402483284473419189e-01 -3.572630584239959717e-01 -8.046489953994750977e-01
-2.425927966833114624e-01 -4.375849068164825439e-01 -8.099005222320556641e-01
-3.068378567695617676e-01 -1.293119192123413086e-01 -6.116368174552917480e-01
-2.657189369201660156e-01 -5.571440458297729492e-01 -6.742431521415710449e-01
-2.581322789192199707e-01 -6.239861249923706055e-02 -7.395507693290710449e-01
-3.465893268585205078e-01 -3.118273913860321045e-01 -6.259149909019470215e-01
-1.870644837617874146e-01 -6.156200170516967773e-01 -6.866519451141357422e-01
-1.370826363563537598e-01 -5.146481990814208984e-01 -5.974237918853759766e-01
-2.688844799995422363e-01 -8.541151881217956543e-02 -6.580872535705566406e-01
-1.478034853935241699e-01 -2.757703065872192383e-01 -6.643591523170471191e-01
-3.473615348339080811e-01 -2.920630276203155518e-01 -6.701900959014892578e-01
-1.537929177284240723e-01 -6.105989217758178711e-01 -6.466499567031860352e-01
-1.920595765113830566e-01 -1.553363800048828125e-01 -6.772871017456054688e-01
-2.152403593063354492e-01 -3.564429581165313721e-01 -5.140757560729980469e-01
-2.470266371965408325e-01 -5.207964181900024414e-01 -5.059390068054199219e-01
-2.542904019355773926e-01 -3.807170987129211426e-01 -4.952682554721832275e-01
-1.607794761657714844e-01 -2.735115885734558105e-01 -6.264924407005310059e-01
-2.512994110584259033e-01 -2.680329382419586182e-01 -5.259836316108703613e-01
-2.561894655227661133e-01 -2.618218064308166504e-01 -8.531633615493774414e-01
-3.231246173381805420e-01 -1.786557137966156006e-01 -5.892640948295593262e-01
-2.600427865982055664e-01 -1.166563779115676880e-01 -6.230705976486206055e-01
-3.429896533489227295e-01 -2.128551751375198364e-01 -6.116293072700500488e-01
-2.814051508903503418e-01 -5.393635630607604980e-01 -6.547071933746337891e-01
-3.323236107826232910e-01 -1.713382899761199951e-01 -6.095049381256103516e-01
-2.344968616962432861e-01 -4.685470461845397949e-01 -7.989764809608459473e-01
-3.072748184204101562e-01 -3.586332499980926514e-01 -5.203854441642761230e-01
-3.043895959854125977e-01 -4.607307612895965576e-01 -6.969203948974609375e-01
-1.701616644859313965e-01 -6.081617474555969238e-01 -5.813145637512207031e-01
-1.550586819648742676e-01 -3.364170193672180176e-01 -5.980717539787292480e-01
-1.286028772592544556e-01 -3.269965052604675293e-01 -7.144824862480163574e-01
-3.338574767112731934e-01 -2.877295613288879395e-01 -5.652086138725280762e-01
-1.978382170200347900e-01 -2.841946184635162354e-01 -5.572904944419860840e-01
-3.445311784744262695e-01 -2.108442783355712891e-01 -7.137578129768371582e-01
-2.923067808151245117e-01 -8.013695478439331055e-02 -7.775114774703979492e-01
-1.205579042434692383e-01 -4.739671945571899414e-01 -7.249839901924133301e-01
-1.792460381984710693e-01 -4.006241858005523682e-01 -5.358163714408874512e-01
-1.336679607629776001e-01 -3.115003407001495361e-01 -6.916427016258239746e-01
-1.841745078563690186e-01 -2.317579090595245361e-01 -6.103696823120117188e-01
-1.424275338649749756e-01 -3.734737932682037354e-01 -6.091827750205993652e-01
-3.300421237945556641e-01 -3.130178749561309814e-01 -7.374981641769409180e-01
-2.433047294616699219e-01 -1.515180766582489014e-01 -8.460488915443420410e-01
-1.389253437519073486e-01 -2.856681942939758301e-01 -6.969678997993469238e-01
-1.702429354190826416e-01 -1.818412244319915771e-01 -7.741961479187011719e-01
-1.401850730180740356e-01 -2.912934124469757080e-01 -7.817071080207824707e-01
-1.346680223941802979e-01 -3.899395167827606201e-01 -6.236292719841003418e-01
-2.130574285984039307e-01 -6.040319800376892090e-01 -6.921036839485168457e-01
-1.550024747848510742e-01 -2.195531725883483887e-01 -7.296447157859802246e-01
-2.412219941616058350e-01 -8.920583128929138184e-02 -6.797956824302673340e-01
-2.124366909265518188e-01 -1.016231626272201538e-01 -7.581849694252014160e-01
-3.108613491058349609e-01 -1.464571058750152588e-01 -7.936760187149047852e-01
-2.394219189882278442e-01 -6.096948385238647461e-01 -6.117363572120666504e-01
-3.292244970798492432e-01 -2.513451278209686279e-01 -7.605794072151184082e-01
-3.370313644409179688e-01 -1.696200072765350342e-01 -7.372961640357971191e-01
-1.308531463146209717e-01 -5.511400699615478516e-01 -6.392812132835388184e-01
-1.264961957931518555e-01 -3.796578645706176758e-01 -7.664433717727661133e-01
-3.201959729194641113e-01 -4.459527432918548584e-01 -6.443026065826416016e-01
-3.382473587989807129e-01 -1.908808499574661255e-01 -7.381496429443359375e-01
-1.832787990570068359e-01 -1.494628936052322388e-01 -7.583081722259521484e-01
-3.339881300926208496e-01 -1.284625530242919922e-01 -6.640343666076660156e-01
-3.110592365264892578e-01 -3.767508864402770996e-01 -5.258775949478149414e-01
-2.062920928001403809e-01 -1.123197823762893677e-01 -7.724694013595581055e-01
-3.263862729072570801e-01 -3.499883115291595459e-01 -7.275832891464233398e-01
-1.511606872081756592e-01 -5.089889168739318848e-01 -7.764019966125488281e-01
-2.201883792877197266e-01 -1.134050190448760986e-01 -6.756376624107360840e-01
-2.617422342300415039e-01 -5.825847983360290527e-01 -6.127424240112304688e-01
-1.981559097766876221e-01 -2.563490569591522217e-01 -5.722524523735046387e-01
-3.182672858238220215e-01 -4.164280295372009277e-01 -5.505759716033935547e-01
-1.331367492675781250e-01 -5.595524907112121582e-01 -6.950102448463439941e-01
-2.464429736137390137e-01 -1.333399564027786255e-01 -8.382981419563293457e-01
-1.953225433826446533e-01 -1.881634593009948730e-01 -6.288287639617919922e-01
-1.668420433998107910e-01 -6.177738904953002930e-01 -6.035208106040954590e-01
-3.107975423336029053e-01 -4.747601747512817383e-01 -5.819062590599060059e-01
-1.411728858947753906e-01 -4.982483983039855957e-01 -5.852776765823364258e-01
-3.127453327178955078e-01 -9.033274650573730469e-02 -6.692725419998168945e-01
-2.489620447158813477e-01 -5.522986054420471191e-01 -7.158083915710449219e-01
-1.343083679676055908e-01 -5.499674081802368164e-01 -6.205101609230041504e-01
-2.301121056079864502e-01 -1.119936257600784302e-01 -6.595215797424316406e-01
-3.450729250907897949e-01 -2.819086015224456787e-01 -6.015305519104003906e-01
-2.854611575603485107e-01 -5.182289481163024902e-01 -5.460079312324523926e-01
-2.682608366012573242e-01 -4.739945828914642334e-01 -5.019373893737792969e-01
-1.277003884315490723e-01 -4.486623108386993408e-01 -7.650373578071594238e-01
-1.729398369789123535e-01 -5.752223134040832520e-01 -5.518424510955810547e-01
-3.103173375129699707e-01 -1.140655726194381714e-01 -7.799801230430603027e-01
-2.777825593948364258e-01 -1.593166440725326538e-01 -5.798746347427368164e-01
-3.297730088233947754e-01 -4.075399637222290039e-01 -5.924469232559204102e-01
-1.203251704573631287e-01 -4.011263251304626465e-01 -6.899421215057373047e-01
-3.122528791427612305e-01 -4.559224247932434082e-01 -5.611565709114074707e-01
-2.949385344982147217e-01 -4.971124529838562012e-01 -6.800187230110168457e-01
-3.079827725887298584e-01 -4.847167730331420898e-01 -6.380333900451660156e-01
-1.327626407146453857e-01 -3.054612576961517334e-01 -7.466391324996948242e-01
-3.289226889610290527e-01 -2.807022929191589355e-01 -7.535145878791809082e-01
-1.979395598173141479e-01 -5.957363843917846680e-01 -5.446988344192504883e-01
-3.315305709838867188e-01 -1.149218082427978516e-01 -7.033473253250122070e-01
-2.396973371505737305e-01 -6.027752161026000977e-01 -6.482610106468200684e-01
-2.258007526397705078e-01 -5.227364301681518555e-01 -5.039870738983154297e-01
-2.107082456350326538e-01 -1.093453466892242432e-01 -7.127918004989624023e-01
-2.762984335422515869e-01 -4.932202696800231934e-01 -7.310854196548461914e-01
-2.702949345111846924e-01 -2.471649944782257080e-01 -8.450440168380737305e-01
-1.357257813215255737e-01 -3.697423636913299561e-01 -6.305717229843139648e-01
-2.962398827075958252e-01 -1.147494912147521973e-01 -8.014539480209350586e-01
-1.762893646955490112e-01 -2.392203211784362793e-01 -8.387560248374938965e-01
-1.528889536857604980e-01 -4.485122263431549072e-01 -5.646291375160217285e-01
-1.585203707218170166e-01 -2.893069982528686523e-01 -8.277889490127563477e-01
-2.714138031005859375e-01 -5.429041385650634766e-01 -6.823324561119079590e-01
-3.482743203639984131e-01 -1.974333375692367554e-01 -6.602685451507568359e-01
-1.392101049423217773e-01 -5.527290105819702148e-01 -7.248283028602600098e-01
-2.734270989894866943e-01 -5.410025119781494141e-01 -5.441371202468872070e-01
-1.444625109434127808e-01 -3.401711285114288330e-01 -6.217331886291503906e-01
-1.711986958980560303e-01 -3.349883854389190674e-01 -5.690971612930297852e-01
-1.743362247943878174e-01 -3.979180455207824707e-01 -8.366049528121948242e-01
-1.871319413185119629e-01 -3.130167126655578613e-01 -5.564234256744384766e-01
-3.409689962863922119e-01 -3.387747108936309814e-01 -6.742876768112182617e-01
-1.745652109384536743e-01 -5.961304903030395508e-01 -7.147213220596313477e-01
-2.313432246446609497e-01 -5.181639194488525391e-01 -7.680529952049255371e-01
-2.115418612957000732e-01 -2.007111459970474243e-01 -5.933083891868591309e-01
-1.618416011333465576e-01 -3.663196861743927002e-01 -8.342801928520202637e-01
-1.724713295698165894e-01 -2.358019351959228516e-01 -6.309338808059692383e-01
-1.540363430976867676e-01 -2.528005242347717285e-01 -6.672694683074951172e-01
-2.630092799663543701e-01 -4.087454378604888916e-01 -8.061136007308959961e-01
-1.438824087381362915e-01 -5.246350765228271484e-01 -7.575504183769226074e-01
-2.727053165435791016e-01 -3.546001017093658447e-01 -5.003072023391723633e-01
-1.360230892896652222e-01 -5.666447281837463379e-01 -6.295664310455322266e-01
-2.627526223659515381e-01 -1.026393026113510132e-01 -8.181551098823547363e-01
-2.479636520147323608e-01 -7.322353124618530273e-02 -7.061843276023864746e-01
-2.085237205028533936e-01 -6.163588166236877441e-01 -6.739454269409179688e-01
-3.206193447113037109e-01 -2.910751998424530029e-01 -7.695271968841552734e-01
-2.259321659803390503e-01 -6.189906001091003418e-01 -5.901421308517456055e-01
-2.308936715126037598e-01 -4.530247151851654053e-01 -8.099145293235778809e-01
-3.160957396030426025e-01 -1.072956770658493042e-01 -6.464062929153442383e-01
-2.902618944644927979e-01 -4.276079535484313965e-01 -7.585113048553466797e-01
-3.175429403781890869e-01 -8.937928080558776855e-02 -7.302824258804321289e-01
-2.479948252439498901e-01 -5.785223245620727539e-01 -5.452090501785278320e-01
-1.297458112239837646e-01 -5.381796956062316895e-01 -7.123528718948364258e-01
-2.033800333738327026e-01 -6.307630538940429688e-01 -6.019762158393859863e-01
-1.895121634006500244e-01 -1.397256851196289062e-01 -7.260046005249023438e-01
-1.572183668613433838e-01 -4.730856716632843018e-01 -5.547922849655151367e-01
-3.216669559478759766e-01 -4.160172343254089355e-01 -6.865829825401306152e-01
-1.270902007818222046e-01 -4.123695492744445801e-01 -6.407852768898010254e-01
-1.689858287572860718e-01 -1.859960705041885376e-01 -7.145650386810302734e-01
-1.932164728641510010e-01 -3.306264579296112061e-01 -5.418026447296142578e-01
-3.378415107727050781e-01 -1.358587145805358887e-01 -7.006032466888427734e-01
-1.483538746833801270e-01 -2.402520179748535156e-01 -7.495871782302856445e-01
-2.847459018230438232e-01 -3.087107241153717041e-01 -8.204727172851562500e-01
-1.200485900044441223e-01 -3.933224081993103027e-01 -7.131836414337158203e-01
-1.410639435052871704e-01 -2.737405002117156982e-01 -7.658118009567260742e-01
-2.222539037466049194e-01 -1.084282249212265015e-01 -8.065453171730041504e-01
-1.305642873048782349e-01 -5.021138787269592285e-01 -7.472778558731079102e-01
-2.476240694522857666e-01 -1.735083758831024170e-01 -5.804009437561035156e-01
-3.442998230457305908e-01 -2.527280449867248535e-01 -7.102379202842712402e-01
-3.160921037197113037e-01 -4.572638869285583496e-01 -5.817335844039916992e-01
-1.848584711551666260e-01 -2.783272564411163330e-01 -5.774549245834350586e-01
-3.287131488323211670e-01 -1.456539928913116455e-01 -6.242011785507202148e-01
-1.362389028072357178e-01 -4.021133184432983398e-01 -7.950427532196044922e-01
-2.796167433261871338e-01 -4.521945118904113770e-01 -7.592000961303710938e-01
-1.242962479591369629e-01 -3.723179101943969727e-01 -6.822664141654968262e-01
