3.782125413417816162e-01 5.760860443115234375e-02 -3.179273009300231934e-01
3.295198976993560791e-01 -9.858679771423339844e-02 -3.385274708271026611e-01
4.398713409900665283e-01 -3.242475390434265137e-01 -3.142063319683074951e-01
3.529753088951110840e-01 6.284236907958984375e-02 -3.113038837909698486e-01
3.704968988895416260e-01 -1.017360985279083252e-01 -3.514471650123596191e-01
4.044054448604583740e-01 -8.039287328720092773e-01 -2.808955907821655273e-01
4.033262133598327637e-01 -7.022120952606201172e-01 -2.254130542278289795e-01
4.193958044052124023e-01 -5.922183394432067871e-01 -3.270797431468963623e-01
4.174127280712127686e-01 -6.864098310470581055e-01 -3.112959861755371094e-01
4.347296357154846191e-01 -1.195382773876190186e-01 -2.601866126060485840e-01
3.992552757263183594e-01 -6.847052574157714844e-01 -2.193842232227325439e-01
2.907717525959014893e-01 -4.192925393581390381e-01 -2.503172159194946289e-01
4.240531027317047119e-01 -1.176468133926391602e-01 -3.222709894180297852e-01
3.705992698669433594e-01 -7.684280872344970703e-01 -3.286955654621124268e-01
3.676705360412597656e-01 -1.933795213699340820e-02 -2.283514887094497681e-01
2.964299321174621582e-01 -1.664999127388000488e-01 -2.906651198863983154e-01
2.884359359741210938e-01 -5.404366254806518555e-01 -2.969046831130981445e-01
4.197028279304504395e-01 -7.057995796203613281e-01 -3.004304468631744385e-01
4.218237996101379395e-01 -9.561151266098022461e-02 -2.400007247924804688e-01
3.774022459983825684e-01 -7.829117774963378906e-01 -3.231085538864135742e-01
2.920560836791992188e-01 -4.049239456653594971e-01 -3.182494640350341797e-01
3.930283188819885254e-01 -2.865922451019287109e-02 -3.349357545375823975e-01
3.645496666431427002e-01 -8.542844057083129883e-01 -3.012762963771820068e-01
3.459250628948211670e-01 -4.708639383316040039e-01 -1.987659335136413574e-01
3.324041962623596191e-01 5.144178867340087891e-03 -2.551190853118896484e-01
4.035685956478118896e-01 -4.453811645507812500e-01 -2.033212929964065552e-01
3.249883949756622314e-01 -7.253900170326232910e-01 -2.304030358791351318e-01
3.974050283432006836e-01 -1.874882578849792480e-01 -2.095367461442947388e-01
3.148164451122283936e-01 -3.145858645439147949e-02 -2.880134880542755127e-01
3.906128406524658203e-01 5.119433999061584473e-02 -2.526074945926666260e-01
4.333768784999847412e-01 -2.303791046142578125e-01 -2.360389530658721924e-01
4.225035309791564941e-01 -2.840285599231719971e-01 -2.187870144844055176e-01
3.239998817443847656e-01 -1.149384379386901855e-01 -2.326108217239379883e-01
4.076543748378753662e-01 4.761967062950134277e-02 -2.778024971485137939e-01
4.240236580371856689e-01 -3.557028174400329590e-01 -2.178410291671752930e-01
3.200456500053405762e-01 -7.370235919952392578e-01 -3.185179829597473145e-01
3.123786747455596924e-01 -1.501704901456832886e-01 -2.399069815874099731e-01
3.409327268600463867e-01 -5.296920537948608398e-01 -3.569644987583160400e-01
4.126546978950500488e-01 -6.206604838371276855e-02 -3.263683021068572998e-01
3.320561051368713379e-01 -4.874119758605957031e-01 -2.047013044357299805e-01
3.268958628177642822e-01 -2.738980650901794434e-01 -2.120559513568878174e-01
3.903157114982604980e-01 -3.054938316345214844e-01 -3.599539995193481445e-01
3.372749984264373779e-01 -1.013097167015075684e-02 -2.442674934864044189e-01
4.117566645145416260e-01 -3.079705238342285156e-01 -3.486553430557250977e-01
4.375181198120117188e-01 -5.902166366577148438e-01 -2.869780957698822021e-01
3.754768669605255127e-01 -4.173427224159240723e-01 -3.634400963783264160e-01
3.531340062618255615e-01 -2.569367885589599609e-01 -2.016443014144897461e-01
2.885985672473907471e-01 -2.820497453212738037e-01 -2.947804331779479980e-01
3.386104404926300049e-01 -1.122547984123229980e-01 -2.218766510486602783e-01
3.660121560096740723e-01 -3.512627780437469482e-01 -1.957774311304092407e-01
3.188264966011047363e-01 -6.249625086784362793e-01 -3.373763561248779297e-01
3.046040534973144531e-01 -1.723991483449935913e-01 -3.211957812309265137e-01
3.664241731166839600e-01 -2.681019306182861328e-01 -1.990285515785217285e-01
3.158714473247528076e-01 -7.338637709617614746e-01 -2.425826787948608398e-01
3.672416508197784424e-01 -4.318565130233764648e-01 -1.949555426836013794e-01
2.944259345531463623e-01 -3.492035567760467529e-01 -2.447754442691802979e-01
3.636093735694885254e-01 1.564452052116394043e-02 -3.313105702400207520e-01
3.927045464515686035e-01 -6.380118131637573242e-01 -3.427349925041198730e-01
3.110008835792541504e-01 -3.586184382438659668e-01 -3.443520069122314453e-01
2.989484071731567383e-01 -2.992627024650573730e-01 -2.401572167873382568e-01
3.467357158660888672e-01 -5.234363675117492676e-02 -2.278168201446533203e-01
3.045625090599060059e-01 -2.567533254623413086e-01 -2.355151921510696411e-01
3.076863884925842285e-01 -1.457172930240631104e-01 -3.214577436447143555e-01
3.090957999229431152e-01 -1.121337711811065674e-01 -2.545010745525360107e-01
3.450685739517211914e-01 -1.448874175548553467e-01 -3.525220155715942383e-01
4.377039372920989990e-01 -4.683267474174499512e-01 -2.393126487731933594e-01
3.944168984889984131e-01 -6.946858167648315430e-01 -3.332046270370483398e-01
3.761509060859680176e-01 -5.508126020431518555e-01 -3.570460975170135498e-01
3.867341876029968262e-01 9.062507748603820801e-02 -2.789052426815032959e-01
4.324676990509033203e-01 -5.310840010643005371e-01 -3.161260187625885010e-01
2.872621417045593262e-01 -3.146728873252868652e-01 -2.729131579399108887e-01
3.504453897476196289e-01 -8.738684058189392090e-01 -2.799029350280761719e-01
4.468497037887573242e-01 -3.046273589134216309e-01 -2.892071306705474854e-01
3.173099160194396973e-01 -3.811194002628326416e-01 -3.498067855834960938e-01
3.140184283256530762e-01 -6.926087141036987305e-01 -2.359307557344436646e-01
4.121362268924713135e-01 -4.648206532001495361e-01 -2.089312225580215454e-01
3.798110187053680420e-01 -5.313267111778259277e-01 -3.575936257839202881e-01
4.094168245792388916e-01 -1.165394484996795654e-01 -3.379003703594207764e-01
3.915887176990509033e-01 -3.770749568939208984e-01 -3.597621321678161621e-01
2.951907515525817871e-01 -2.558400034904479980e-01 -3.151550590991973877e-01
3.378544747829437256e-01 -7.760850787162780762e-01 -2.315599322319030762e-01
3.444438874721527100e-01 -6.533973813056945801e-01 -2.094181776046752930e-01
2.935537993907928467e-01 -4.843579828739166260e-01 -2.449825257062911987e-01
3.878150582313537598e-01 3.619256615638732910e-02 -2.454279661178588867e-01
4.378030300140380859e-01 -2.840145528316497803e-01 -3.171565830707550049e-01
3.889715969562530518e-01 8.068117499351501465e-02 -2.991185784339904785e-01
3.523030877113342285e-01 -2.452390193939208984e-01 -3.614919185638427734e-01
3.226146399974822998e-01 -8.062356710433959961e-01 -2.593218684196472168e-01
3.023833036422729492e-01 -4.294842481613159180e-01 -2.293420433998107910e-01
4.026729762554168701e-01 -1.559499800205230713e-01 -2.150844037532806396e-01
4.400243759155273438e-01 -5.089282989501953125e-01 -3.016593456268310547e-01
3.545246422290802002e-01 -1.597375571727752686e-01 -3.562734127044677734e-01
4.067468643188476562e-01 -6.426185369491577148e-01 -2.187128663063049316e-01
2.852856516838073730e-01 -3.661143481731414795e-01 -2.891438901424407959e-01
4.363982379436492920e-01 -5.613189339637756348e-01 -3.016905784606933594e-01
2.945911288261413574e-01 -6.526844501495361328e-01 -2.803340852260589600e-01
4.201283752918243408e-01 -7.320396900177001953e-01 -2.661363780498504639e-01
3.298480808734893799e-01 -4.334672391414642334e-01 -3.567741513252258301e-01
3.672597706317901611e-01 9.887519478797912598e-02 -2.825852334499359131e-01
4.325482249259948730e-01 -1.121958494186401367e-01 -3.043489158153533936e-01
4.420022964477539062e-01 -1.842822134494781494e-01 -2.682740390300750732e-01
3.638526797294616699e-01 -7.878500223159790039e-01 -2.267271876335144043e-01
4.457566142082214355e-01 -3.678120374679565430e-01 -2.568674087524414062e-01
3.388802409172058105e-01 4.370319843292236328e-02 -3.062398731708526611e-01
3.142809569835662842e-01 -6.195098161697387695e-02 -2.608198523521423340e-01
2.872916460037231445e-01 -3.488580882549285889e-01 -2.659345865249633789e-01
3.713406622409820557e-01 -9.433004260063171387e-02 -2.151773422956466675e-01
3.443286716938018799e-01 -5.711535811424255371e-01 -2.029615044593811035e-01
3.592217862606048584e-01 -8.140632510185241699e-01 -3.178331851959228516e-01
2.958438396453857422e-01 -4.629456996917724609e-01 -2.397928833961486816e-01
4.070430994033813477e-01 -2.394789904356002808e-01 -3.497089147567749023e-01
2.940421104431152344e-01 -4.335829317569732666e-01 -3.220460116863250732e-01
2.941507399082183838e-01 -2.132852226495742798e-01 -3.025081157684326172e-01
3.094162940979003906e-01 -6.802946329116821289e-02 -2.968824505805969238e-01
4.160179495811462402e-01 -7.559106349945068359e-01 -2.698039412498474121e-01
4.335047602653503418e-01 -5.890928506851196289e-01 -3.030616939067840576e-01
3.112558424472808838e-01 -2.532305419445037842e-01 -3.399991393089294434e-01
2.950858473777770996e-01 -2.744300067424774170e-01 -2.507997751235961914e-01
3.468441963195800781e-01 -6.097979545593261719e-01 -2.047907114028930664e-01
2.914006412029266357e-01 -2.464121878147125244e-01 -2.688786685466766357e-01
4.004025459289550781e-01 5.823335051536560059e-02 -2.669986486434936523e-01
3.556564748287200928e-01 -8.137518167495727539e-01 -2.342054396867752075e-01
3.703573048114776611e-01 -1.187430322170257568e-01 -2.119445651769638062e-01
4.217725098133087158e-01 -2.278531938791275024e-01 -2.218745350837707520e-01
3.272742629051208496e-01 -1.716863065958023071e-01 -2.213216722011566162e-01
2.948364317417144775e-01 -5.819041728973388672e-01 -3.106770217418670654e-01
3.652952909469604492e-01 -4.631890058517456055e-01 -3.631181120872497559e-01
3.390893936157226562e-01 -7.370501160621643066e-01 -3.319867551326751709e-01
3.709461688995361328e-01 -4.415273070335388184e-01 -3.634274005889892578e-01
4.323297739028930664e-01 -5.345361232757568359e-01 -2.355563938617706299e-01
4.235679805278778076e-01 -5.414229631423950195e-01 -3.283836841583251953e-01
2.847564220428466797e-01 -4.337572753429412842e-01 -2.883531749248504639e-01
2.908965051174163818e-01 -2.392025142908096313e-01 -2.938145697116851807e-01
3.093329668045043945e-01 -6.359165906906127930e-01 -3.265518546104431152e-01
3.254303038120269775e-01 -3.472551107406616211e-01 -3.548541367053985596e-01
4.467585086822509766e-01 -3.716375231742858887e-01 -2.918964326381683350e-01
4.168421328067779541e-01 -3.389236330986022949e-01 -2.118901759386062622e-01
3.416645526885986328e-01 -6.585496664047241211e-02 -3.407900035381317139e-01
3.639167547225952148e-01 -7.177805900573730469e-02 -3.476377725601196289e-01
2.949306964874267578e-01 -3.223094344139099121e-01 -3.214355707168579102e-01
4.311827719211578369e-01 -6.093065738677978516e-01 -3.039017021656036377e-01
2.974252402782440186e-01 -3.485978841781616211e-01 -3.273187279701232910e-01
4.007329046726226807e-01 -2.032929658889770508e-02 -2.364142835140228271e-01
3.778270781040191650e-01 -2.817707061767578125e-01 -1.985288262367248535e-01
3.244053125381469727e-01 -1.267318427562713623e-01 -3.386968374252319336e-01
4.477890729904174805e-01 -3.254993259906768799e-01 -2.722635269165039062e-01
3.430629670619964600e-01 -7.144629359245300293e-01 -2.174688875675201416e-01
2.898831069469451904e-01 -4.990968108177185059e-01 -3.087776303291320801e-01
4.150141477584838867e-01 -5.420638322830200195e-01 -2.151430249214172363e-01
4.110472202301025391e-01 -7.749884128570556641e-01 -2.633124589920043945e-01
3.123974502086639404e-01 -3.231715261936187744e-01 -2.209556698799133301e-01
3.875602781772613525e-01 -5.375583171844482422e-01 -2.002628594636917114e-01
4.436196684837341309e-01 -4.547260701656341553e-01 -2.541254162788391113e-01
3.490099906921386719e-01 -5.533479452133178711e-01 -3.572696447372436523e-01
2.990657687187194824e-01 -3.217232823371887207e-01 -2.380987554788589478e-01
3.218553662300109863e-01 -5.565828084945678711e-02 -3.217601180076599121e-01
3.180643320083618164e-01 -1.549880504608154297e-01 -3.367690742015838623e-01
2.966078221797943115e-01 -2.952846288681030273e-01 -3.227049708366394043e-01
3.244365751743316650e-01 -4.516252279281616211e-01 -3.534815311431884766e-01
3.258180320262908936e-01 2.132058143615722656e-03 -3.057982325553894043e-01
3.794384896755218506e-01 -6.008797287940979004e-01 -3.519992232322692871e-01
4.466196894645690918e-01 -3.550262153148651123e-01 -2.930664420127868652e-01
3.836207389831542969e-01 -6.524285674095153809e-01 -3.448529839515686035e-01
3.846683502197265625e-01 -2.390590310096740723e-02 -2.285866439342498779e-01
3.557756245136260986e-01 -5.005604028701782227e-01 -1.971628367900848389e-01
2.953061461448669434e-01 -5.584303140640258789e-01 -3.153672814369201660e-01
3.620611131191253662e-01 -8.680079579353332520e-01 -2.576887011528015137e-01
3.923722207546234131e-01 -4.149102270603179932e-01 -3.588190078735351562e-01
3.044273257255554199e-01 -7.295277714729309082e-01 -2.703688740730285645e-01
3.062766492366790771e-01 -8.255624771118164062e-02 -2.847364842891693115e-01
4.294022321701049805e-01 -3.678106367588043213e-01 -3.315942287445068359e-01
4.116525650024414062e-01 -8.889281749725341797e-02 -3.320884704589843750e-01
4.442509114742279053e-01 -2.111239135265350342e-01 -2.751262187957763672e-01
4.289272427558898926e-01 -6.321797370910644531e-01 -2.464985400438308716e-01
4.451059401035308838e-01 -2.519975006580352783e-01 -2.916472852230072021e-01
3.087970018386840820e-01 -3.323619961738586426e-01 -3.415833413600921631e-01
3.639332950115203857e-01 -6.492784619331359863e-01 -2.054558396339416504e-01
3.047131001949310303e-01 -6.999423503875732422e-01 -3.046683669090270996e-01
3.287542164325714111e-01 -3.278809487819671631e-01 -2.079729288816452026e-01
3.298906981945037842e-01 -5.151967406272888184e-01 -3.536137938499450684e-01
3.096327185630798340e-01 -4.735265672206878662e-01 -2.211959511041641235e-01
3.084765672683715820e-01 -1.714710295200347900e-01 -2.417893409729003906e-01
2.963713407516479492e-01 -4.449449479579925537e-01 -2.385805100202560425e-01
3.424019813537597656e-01 -3.254206776618957520e-01 -3.617453575134277344e-01
3.112440109252929688e-01 -2.035656720399856567e-01 -2.329593747854232788e-01
4.203686714172363281e-01 -1.536183804273605347e-01 -3.319324254989624023e-01
4.378026723861694336e-01 -1.297087371349334717e-01 -2.893395125865936279e-01
3.765772581100463867e-01 -2.079769074916839600e-01 -2.030918747186660767e-01
4.433301687240600586e-01 -5.085549354553222656e-01 -2.641764581203460693e-01
3.063344359397888184e-01 -4.451166987419128418e-01 -3.392420113086700439e-01
4.258965551853179932e-01 -5.902594327926635742e-02 -3.043718934059143066e-01
4.248646795749664307e-01 -5.132049918174743652e-01 -3.296546936035156250e-01
-1.594924926757812500e-01 -2.805476784706115723e-01 -3.225086927413940430e-01
-1.469166725873947144e-01 -6.824279427528381348e-01 -3.095311522483825684e-01
-1.463969051837921143e-01 -4.369415044784545898e-01 -2.579189538955688477e-01
-1.570599079132080078e-01 -3.144332766532897949e-01 -2.518268525600433350e-01
-1.688238978385925293e-01 -2.735985517501831055e-01 -2.433907389640808105e-01
-2.444989681243896484e-01 -1.472736895084381104e-01 -3.109324574470520020e-01
-2.071366310119628906e-01 -5.275750160217285156e-01 -3.567337095737457275e-01
-1.810433119535446167e-01 -4.819937944412231445e-01 -2.249063849449157715e-01
-1.799970716238021851e-01 -3.614324033260345459e-01 -2.282293587923049927e-01
-1.435026675462722778e-01 -4.670077860355377197e-01 -3.160155117511749268e-01
-1.843028068542480469e-01 -8.373566865921020508e-01 -3.210844397544860840e-01
-2.611947357654571533e-01 -2.438137382268905640e-01 -2.629343569278717041e-01
-2.172904014587402344e-01 -7.988322973251342773e-01 -3.304607868194580078e-01
-2.273351699113845825e-01 -5.568172931671142578e-01 -2.250525802373886108e-01
-2.392463535070419312e-01 -6.910633444786071777e-01 -2.432289421558380127e-01
-2.022428065538406372e-01 -3.054251372814178467e-01 -2.249074280261993408e-01
-2.548864483833312988e-01 -3.248081803321838379e-01 -3.297652304172515869e-01
-1.842086464166641235e-01 -6.918929815292358398e-01 -3.457490205764770508e-01
-2.626145184040069580e-01 -6.214514374732971191e-01 -2.635755240917205811e-01
-1.734105497598648071e-01 -2.459186613559722900e-01 -3.318155109882354736e-01
-2.232012450695037842e-01 -3.294556438922882080e-01 -3.495828211307525635e-01
-2.464236170053482056e-01 -5.582402944564819336e-01 -3.405897319316864014e-01
-2.691404819488525391e-01 -5.313908457756042480e-01 -2.663832604885101318e-01
-2.652612030506134033e-01 -4.194179773330688477e-01 -2.531180977821350098e-01
-2.505439221858978271e-01 -2.959783673286437988e-01 -3.316323161125183105e-01
-1.896993368864059448e-01 -8.822610378265380859e-01 -3.028625547885894775e-01
-2.011558860540390015e-01 -4.100321829319000244e-01 -3.555595576763153076e-01
-2.562254965305328369e-01 -3.766315579414367676e-01 -2.418213933706283569e-01
-2.096746712923049927e-01 -7.342541217803955078e-01 -2.365122139453887939e-01
-1.992066502571105957e-01 -6.377225518226623535e-01 -2.263337373733520508e-01
-1.429088562726974487e-01 -3.930446207523345947e-01 -2.714588642120361328e-01
-1.738398075103759766e-01 -5.888210535049438477e-01 -2.311350703239440918e-01
-1.720959693193435669e-01 -7.263317704200744629e-01 -2.448557615280151367e-01
-1.525606811046600342e-01 -5.501989126205444336e-01 -2.477221190929412842e-01
-2.593466639518737793e-01 -6.995776295661926270e-01 -2.801826596260070801e-01
-2.303857803344726562e-01 -6.212084293365478516e-01 -3.472736179828643799e-01
-1.600360572338104248e-01 -7.328705787658691406e-01 -3.241361975669860840e-01
-2.296758294105529785e-01 -7.267883419990539551e-02 -2.826407253742218018e-01
-2.186855375766754150e-01 -6.788970232009887695e-01 -2.315277159214019775e-01
-2.049217522144317627e-01 -3.932012021541595459e-01 -3.550999760627746582e-01
-1.592375934123992920e-01 -2.503123581409454346e-01 -2.598223984241485596e-01
-2.642405629158020020e-01 -5.924291610717773438e-01 -2.621507644653320312e-01
-2.458294928073883057e-01 -7.753143310546875000e-01 -2.727383673191070557e-01
-2.626498341560363770e-01 -2.952117919921875000e-01 -2.568535804748535156e-01
-1.696753650903701782e-01 -7.534751892089843750e-01 -3.303550183773040771e-01
-2.175673842430114746e-01 -8.183046579360961914e-01 -3.256981968879699707e-01
-2.598979473114013672e-01 -4.845039248466491699e-01 -3.289390206336975098e-01
-2.454636245965957642e-01 -5.467403531074523926e-01 -2.341936826705932617e-01
-2.293612658977508545e-01 -1.673932373523712158e-01 -2.436563968658447266e-01
-2.509790360927581787e-01 -6.078355312347412109e-01 -3.329112529754638672e-01
-2.462694644927978516e-01 -4.969057142734527588e-01 -2.327670603990554810e-01
-1.824469566345214844e-01 -1.642868518829345703e-01 -2.509125471115112305e-01
-2.462041974067687988e-01 -6.934913992881774902e-01 -3.276927173137664795e-01
-1.864868253469467163e-01 -5.325312018394470215e-01 -2.236662805080413818e-01
-2.605025768280029297e-01 -2.111130654811859131e-01 -3.000826537609100342e-01
-2.473267614841461182e-01 -7.157144546508789062e-01 -2.559887766838073730e-01
-2.263782024383544922e-01 -2.898151278495788574e-01 -2.278942465782165527e-01
-2.347082346677780151e-01 -7.841139435768127441e-01 -3.214757442474365234e-01
-1.387760192155838013e-01 -5.755475163459777832e-01 -2.957244813442230225e-01
-1.857907921075820923e-01 -2.449947893619537354e-01 -3.392767906188964844e-01
-1.797251254320144653e-01 -6.219292879104614258e-01 -3.492562174797058105e-01
-2.251267135143280029e-01 -7.566591501235961914e-01 -3.347222208976745605e-01
-1.509104222059249878e-01 -6.681048870086669922e-01 -2.601009011268615723e-01
-1.562120616436004639e-01 -7.818940281867980957e-01 -2.817693054676055908e-01
-2.315157353878021240e-01 -8.371503353118896484e-01 -2.758408486843109131e-01
-2.258569151163101196e-01 -4.960474669933319092e-01 -2.225903272628784180e-01
-2.517966032028198242e-01 -1.630930304527282715e-01 -3.040224909782409668e-01
-2.696532011032104492e-01 -5.871235132217407227e-01 -2.837834358215332031e-01
-2.333091795444488525e-01 -2.555853724479675293e-01 -2.333501577377319336e-01
-1.422288864850997925e-01 -3.647963404655456543e-01 -2.852155864238739014e-01
-2.275831550359725952e-01 -7.289344072341918945e-01 -2.413277328014373779e-01
-2.706170678138732910e-01 -3.608603477478027344e-01 -3.040524423122406006e-01
-2.688057422637939453e-01 -2.810453772544860840e-01 -2.904996275901794434e-01
-2.718860208988189697e-01 -4.479196369647979736e-01 -3.045408427715301514e-01
-2.643443048000335693e-01 -3.166881203651428223e-01 -2.574655115604400635e-01
-2.301391363143920898e-01 -3.868264555931091309e-01 -2.242983579635620117e-01
-2.614114582538604736e-01 -5.532830953598022461e-01 -3.235538899898529053e-01
-1.446830332279205322e-01 -5.321292877197265625e-01 -2.599156498908996582e-01
-2.482763528823852539e-01 -4.553654193878173828e-01 -2.335336208343505859e-01
-1.837652027606964111e-01 -6.072095036506652832e-01 -2.276869565248489380e-01
-2.391905635595321655e-01 -5.304527878761291504e-01 -3.467952013015747070e-01
-2.677615284919738770e-01 -4.590949416160583496e-01 -3.160141110420227051e-01
-2.226469516754150391e-01 -5.330995917320251465e-01 -3.540426492691040039e-01
-1.506309062242507935e-01 -3.384279310703277588e-01 -3.174760937690734863e-01
-1.713120192289352417e-01 -8.456303477287292480e-01 -3.032508790493011475e-01
-2.564563751220703125e-01 -5.374676585197448730e-01 -3.315028548240661621e-01
-1.867540478706359863e-01 -4.139167666435241699e-01 -3.530773520469665527e-01
-2.321762889623641968e-01 -4.452271163463592529e-01 -3.509931564331054688e-01
-2.179113775491714478e-01 -1.558045148849487305e-01 -2.424896657466888428e-01
-2.048627585172653198e-01 -8.629420995712280273e-01 -3.160116672515869141e-01
-1.813278049230575562e-01 -5.735501646995544434e-01 -3.518904745578765869e-01
-1.931804418563842773e-01 -5.178215503692626953e-01 -2.216131091117858887e-01
-2.384671568870544434e-01 -5.693197846412658691e-01 -2.308184653520584106e-01
-2.515834867954254150e-01 -1.772558987140655518e-01 -3.096164464950561523e-01
-1.805933266878128052e-01 -1.261594295501708984e-01 -2.651229798793792725e-01
-2.329550236463546753e-01 -6.715564727783203125e-01 -2.364799529314041138e-01
-2.033798694610595703e-01 -4.250396192073822021e-01 -3.561291694641113281e-01
-1.819628924131393433e-01 -2.629391252994537354e-01 -2.350744307041168213e-01
-2.030501812696456909e-01 -1.674258708953857422e-01 -3.321542143821716309e-01
-2.509431540966033936e-01 -7.630491256713867188e-01 -2.874716818332672119e-01
-2.621495127677917480e-01 -4.337134659290313721e-01 -2.480951100587844849e-01
-1.736760586500167847e-01 -3.440787196159362793e-01 -2.328575551509857178e-01
-2.071109265089035034e-01 -3.451970219612121582e-01 -2.222288250923156738e-01
-1.711179018020629883e-01 -1.464936733245849609e-01 -3.000498414039611816e-01
-2.291500270366668701e-01 -1.900420784950256348e-01 -2.397549599409103394e-01
-2.410162091255187988e-01 -4.377843737602233887e-01 -2.285842597484588623e-01
-1.694713532924652100e-01 -3.686664700508117676e-01 -2.342393398284912109e-01
-1.531625539064407349e-01 -7.237265110015869141e-01 -2.667115032672882080e-01
-1.463561058044433594e-01 -4.000208377838134766e-01 -3.170402348041534424e-01
-1.657271832227706909e-01 -8.328858613967895508e-01 -2.952081859111785889e-01
-1.863471120595932007e-01 -7.454258799552917480e-01 -3.403562307357788086e-01
-2.559885978698730469e-01 -7.161542773246765137e-01 -2.742204368114471436e-01
-2.725101709365844727e-01 -5.037518143653869629e-01 -2.978818416595458984e-01
-2.729517817497253418e-01 -5.159497261047363281e-01 -2.894428670406341553e-01
-2.554998397827148438e-01 -6.083506941795349121e-01 -2.491403818130493164e-01
-1.434025764465332031e-01 -6.658382415771484375e-01 -2.813260853290557861e-01
-2.104293256998062134e-01 -8.175694942474365234e-01 -2.521812915802001953e-01
-2.146061658859252930e-01 -7.486605048179626465e-01 -3.402307331562042236e-01
-2.262586653232574463e-01 -7.202075719833374023e-01 -3.396191895008087158e-01
-2.658140063285827637e-01 -2.963712215423583984e-01 -3.085862398147583008e-01
-1.800064742565155029e-01 -1.070266664028167725e-01 -2.806785404682159424e-01
-2.084717154502868652e-01 -6.157201528549194336e-02 -2.773430645465850830e-01
-2.018719613552093506e-01 -3.768310248851776123e-01 -3.542559742927551270e-01
-2.730744481086730957e-01 -4.272702038288116455e-01 -2.989827990531921387e-01
-1.923950612545013428e-01 -7.724504470825195312e-01 -3.378414511680603027e-01
-1.402787417173385620e-01 -4.085409343242645264e-01 -2.959866523742675781e-01
-1.526878029108047485e-01 -2.946531176567077637e-01 -3.132153749465942383e-01
-2.676080763339996338e-01 -5.658112764358520508e-01 -2.667110562324523926e-01
-1.391854435205459595e-01 -4.468878805637359619e-01 -2.807126939296722412e-01
-2.085640430450439453e-01 -6.360141634941101074e-01 -3.524855375289916992e-01
-2.231654971837997437e-01 -7.163124680519104004e-01 -2.374802827835083008e-01
-1.813003867864608765e-01 -1.091545224189758301e-01 -2.990665733814239502e-01
-1.432700157165527344e-01 -5.528898835182189941e-01 -3.160424530506134033e-01
-1.923024654388427734e-01 -1.387949287891387939e-01 -2.504707574844360352e-01
-2.288610190153121948e-01 -7.928389906883239746e-01 -2.550323009490966797e-01
-1.620115637779235840e-01 -8.161550164222717285e-01 -2.969002723693847656e-01
-2.558734118938446045e-01 -3.224383890628814697e-01 -2.444210052490234375e-01
-2.109013944864273071e-01 -4.882540702819824219e-01 -3.567519187927246094e-01
-2.357018887996673584e-01 -7.294453382492065430e-01 -3.321085870265960693e-01
-2.219936549663543701e-01 -3.284122943878173828e-01 -2.243544459342956543e-01
-1.995865255594253540e-01 -3.431845307350158691e-01 -3.521788418292999268e-01
-2.434198409318923950e-01 -1.438309252262115479e-01 -2.598246037960052490e-01
-1.440127193927764893e-01 -3.394493460655212402e-01 -2.831412553787231445e-01
-1.453026235103607178e-01 -3.639395833015441895e-01 -3.089093565940856934e-01
-2.402555048465728760e-01 -7.349573373794555664e-01 -2.517662346363067627e-01
-1.606995463371276855e-01 -4.682916700839996338e-01 -2.380266189575195312e-01
-1.904714852571487427e-01 -5.340409278869628906e-01 -3.553374707698822021e-01
-1.496219635009765625e-01 -4.544309973716735840e-01 -2.515241503715515137e-01
-1.524357795715332031e-01 -6.215131282806396484e-01 -3.281962871551513672e-01
-2.443937659263610840e-01 -1.306233108043670654e-01 -3.045676946640014648e-01
-1.629842072725296021e-01 -6.990611553192138672e-01 -2.486158013343811035e-01
-2.489533424377441406e-01 -2.318164557218551636e-01 -3.250545859336853027e-01
-1.652575135231018066e-01 -2.349729388952255249e-01 -2.536952793598175049e-01
-2.558126747608184814e-01 -5.432652831077575684e-01 -2.436629086732864380e-01
-2.042618095874786377e-01 -3.940840959548950195e-01 -2.205393910408020020e-01
-1.570055633783340454e-01 -2.144974470138549805e-01 -2.918409705162048340e-01
-1.675758212804794312e-01 -4.799578189849853516e-01 -3.457348942756652832e-01
-2.572530210018157959e-01 -7.096776962280273438e-01 -3.018746972084045410e-01
-1.569096446037292480e-01 -5.078960061073303223e-01 -3.371144235134124756e-01
-2.162519693374633789e-01 -1.389127373695373535e-01 -3.262916505336761475e-01
-2.060539871454238892e-01 -2.509005665779113770e-01 -2.290906757116317749e-01
-2.609289288520812988e-01 -2.644624710083007812e-01 -3.136605620384216309e-01
-2.257463932037353516e-01 -5.732994675636291504e-01 -2.253412604331970215e-01
-1.831637024879455566e-01 -7.590681314468383789e-01 -2.437443137168884277e-01
-2.150519639253616333e-01 -8.771713376045227051e-01 -2.795696258544921875e-01
-2.128325998783111572e-01 -7.054188251495361328e-01 -3.460306525230407715e-01
-2.412230968475341797e-01 -6.132647395133972168e-01 -3.412797152996063232e-01
-1.848581284284591675e-01 -3.060435056686401367e-01 -2.295951545238494873e-01
-1.627740561962127686e-01 -2.557631731033325195e-01 -3.224001526832580566e-01
-2.465111762285232544e-01 -1.804459989070892334e-01 -2.536697983741760254e-01
-2.017098218202590942e-01 -5.120556354522705078e-01 -3.569317758083343506e-01
-1.780165135860443115e-01 -8.704087734222412109e-01 -2.902665734291076660e-01
-2.483415305614471436e-01 -7.775447368621826172e-01 -2.868570089340209961e-01
-1.947945952415466309e-01 -1.943179368972778320e-01 -3.350795805454254150e-01
-1.976172924041748047e-01 -8.336505889892578125e-01 -3.259375989437103271e-01
-1.662127673625946045e-01 -4.033357501029968262e-01 -3.421655595302581787e-01
-1.963834613561630249e-01 -7.712831497192382812e-01 -2.421578317880630493e-01
-2.180404812097549438e-01 -6.971971988677978516e-01 -2.333971112966537476e-01
-1.966351717710494995e-01 -3.295498192310333252e-01 -2.242819070816040039e-01
-1.838648319244384766e-01 -3.743097484111785889e-01 -3.502818942070007324e-01
-1.512005925178527832e-01 -7.537741065025329590e-01 -2.901895940303802490e-01
-1.621036976575851440e-01 -5.640202164649963379e-01 -3.411873579025268555e-01
-1.881540864706039429e-01 -3.782240748405456543e-01 -2.241482138633728027e-01
-2.738353312015533447e-01 -3.967862725257873535e-01 -2.881504893302917480e-01
-1.488254815340042114e-01 -6.143399477005004883e-01 -2.571941316127777100e-01
-2.651261985301971436e-01 -5.646526217460632324e-01 -3.154186010360717773e-01
-2.637161016464233398e-01 -3.545537292957305908e-01 -2.529935240745544434e-01
-2.198485434055328369e-01 -2.474178075790405273e-01 -2.300739288330078125e-01
-2.651798129081726074e-01 -5.784820318222045898e-01 -3.135562837123870850e-01
-1.570473909378051758e-01 -7.919394969940185547e-01 -2.942624092102050781e-01
-2.033792734146118164e-01 -1.308759152889251709e-01 -3.241721391677856445e-01
-2.390667051076889038e-01 -3.218238055706024170e-01 -2.309874296188354492e-01
-2.045588940382003784e-01 -7.210860848426818848e-01 -3.454002439975738525e-01
-1.599868535995483398e-01 -4.202348887920379639e-01 -3.377321660518646240e-01
-1.714002192020416260e-01 -6.927208304405212402e-01 -3.396811187267303467e-01
-2.320712208747863770e-01 -1.279146373271942139e-01 -3.172723054885864258e-01
-2.513201534748077393e-01 -2.569859921932220459e-01 -2.459285110235214233e-01
-1.707159131765365601e-01 -5.024632811546325684e-01 -2.303638011217117310e-01
-2.508610486984252930e-01 -1.952727735042572021e-01 -3.156695663928985596e-01
-1.745708286762237549e-01 -7.693181037902832031e-01 -3.311860263347625732e-01
-2.302540540695190430e-01 -1.462970077991485596e-01 -3.232142031192779541e-01
-2.196087837219238281e-01 -6.888803839683532715e-02 -2.718478441238403320e-01
-2.212395370006561279e-01 -8.390007615089416504e-01 -2.637210488319396973e-01
-2.537205815315246582e-01 -6.701205372810363770e-01 -3.214060664176940918e-01
-1.532243639230728149e-01 -7.049205899238586426e-01 -2.623832225799560547e-01
-1.638067811727523804e-01 -2.215163111686706543e-01 -2.589635848999023438e-01
-2.410740554332733154e-01 -6.163057088851928711e-01 -2.359549105167388916e-01
-2.130425721406936646e-01 -2.226704955101013184e-01 -3.411375284194946289e-01
-2.119818329811096191e-01 -9.912779927253723145e-02 -3.155716955661773682e-01
-1.507106125354766846e-01 -2.769526243209838867e-01 -3.016792535781860352e-01
-1.430758386850357056e-01 -6.193941235542297363e-01 -2.708465754985809326e-01
-2.624934017658233643e-01 -5.729232430458068848e-01 -2.558609843254089355e-01
-2.412988990545272827e-01 -8.029263019561767578e-01 -3.026863634586334229e-01
-1.402040272951126099e-01 -6.173191666603088379e-01 -2.850838601589202881e-01
-2.290900796651840210e-01 -2.722766399383544922e-01 -3.430501818656921387e-01
-1.463057994842529297e-01 -3.075118660926818848e-01 -2.870489060878753662e-01
-2.431098073720932007e-01 -6.627057790756225586e-01 -2.425440251827239990e-01
-1.621349602937698364e-01 -4.384030401706695557e-01 -2.372741103172302246e-01
-2.175490111112594604e-01 -7.332643270492553711e-01 -3.414804041385650635e-01
-1.402690708637237549e-01 -4.514130353927612305e-01 -3.048051595687866211e-01
-2.219486385583877563e-01 -2.041542828083038330e-01 -2.355169951915740967e-01
-2.370665818452835083e-01 -5.182399153709411621e-01 -2.276920378208160400e-01
-1.863881647586822510e-01 -4.410758912563323975e-01 -3.538099527359008789e-01
-2.224917709827423096e-01 -7.684825658798217773e-01 -2.456925958395004272e-01
-2.465267330408096313e-01 -3.561518788337707520e-01 -2.339525818824768066e-01
-2.705853581428527832e-01 -4.311206340789794922e-01 -2.648687958717346191e-01
-1.735262870788574219e-01 -6.093192696571350098e-01 -3.470603823661804199e-01
-2.320867031812667847e-01 -2.499030679464340210e-01 -3.394168019294738770e-01
-2.588090002536773682e-01 -6.327204108238220215e-01 -3.189523518085479736e-01
-2.640788555145263672e-01 -2.465972304344177246e-01 -3.012990951538085938e-01
-1.419228762388229370e-01 -6.131004095077514648e-01 -3.068944215774536133e-01
-2.376489788293838501e-01 -5.481133460998535156e-01 -3.471601009368896484e-01
-1.796459704637527466e-01 -2.757289409637451172e-01 -3.400620818138122559e-01
-2.592552006244659424e-01 -1.940055489540100098e-01 -2.750995755195617676e-01
-2.109877318143844604e-01 -2.076177895069122314e-01 -3.391975760459899902e-01
-1.987539529800415039e-01 -6.744104623794555664e-01 -3.499403893947601318e-01
-2.607222497463226318e-01 -6.828148961067199707e-01 -2.769131660461425781e-01
-1.730549633502960205e-01 -3.288467228412628174e-01 -3.416093289852142334e-01
-2.475021332502365112e-01 -4.802919924259185791e-01 -2.332902848720550537e-01
-2.484212517738342285e-01 -4.090023338794708252e-01 -2.338192015886306763e-01
-2.446427345275878906e-01 -3.113508820533752441e-01 -3.380000889301300049e-01
-2.031089216470718384e-01 -7.376558780670166016e-01 -3.434811532497406006e-01
-1.847130656242370605e-01 -2.291726469993591309e-01 -2.377517372369766235e-01
-1.765313148498535156e-01 -3.197022378444671631e-01 -2.328419536352157593e-01
-2.374189049005508423e-01 -2.194867134094238281e-01 -2.396087050437927246e-01
-2.665726840496063232e-01 -2.508714199066162109e-01 -2.853640913963317871e-01
-1.833184063434600830e-01 -4.655123353004455566e-01 -2.240032851696014404e-01
-2.238370329141616821e-01 -8.645458221435546875e-01 -2.831218838691711426e-01
-1.745647937059402466e-01 -8.117212057113647461e-01 -3.217895627021789551e-01
-2.239255309104919434e-01 -6.600356698036193848e-01 -2.311978787183761597e-01
-2.345796674489974976e-01 -3.550691008567810059e-01 -2.271157801151275635e-01
-1.453580260276794434e-01 -6.856933236122131348e-01 -2.788412868976593018e-01
-2.408198714256286621e-01 -5.831037163734436035e-01 -2.331596612930297852e-01
-1.775891631841659546e-01 -5.580168962478637695e-01 -3.508241176605224609e-01
-1.713982820510864258e-01 -5.185063481330871582e-01 -3.482873141765594482e-01
-2.375119328498840332e-01 -3.025918006896972656e-01 -2.314118742942810059e-01
-1.933768093585968018e-01 -1.920504570007324219e-01 -2.392737716436386108e-01
-1.622368693351745605e-01 -7.197374105453491211e-01 -3.288590312004089355e-01
-1.882025450468063354e-01 -8.594520092010498047e-01 -2.669459283351898193e-01
-2.711517214775085449e-01 -3.283643424510955811e-01 -2.948392331600189209e-01
-1.474991440773010254e-01 -7.140264511108398438e-01 -2.812641263008117676e-01
-1.501510739326477051e-01 -6.406140923500061035e-01 -3.230512440204620361e-01
-1.547499150037765503e-01 -7.771450877189636230e-01 -2.958950400352478027e-01
-1.491530835628509521e-01 -4.835554659366607666e-01 -3.271900415420532227e-01
-2.604741156101226807e-01 -4.567228257656097412e-01 -3.284445703029632568e-01
-1.933132410049438477e-01 -1.088854074478149414e-01 -3.135396242141723633e-01
-2.207616567611694336e-01 -5.713569521903991699e-01 -3.534516096115112305e-01
-2.576044797897338867e-01 -2.753051221370697021e-01 -2.512730360031127930e-01
-2.164632827043533325e-01 -8.505164384841918945e-01 -3.160087466239929199e-01
-2.131993919610977173e-01 -7.819894552230834961e-01 -2.450042665004730225e-01
-1.944017857313156128e-01 -2.137565910816192627e-01 -2.356976121664047241e-01
-1.720793247222900391e-01 -6.353294849395751953e-01 -3.448116481304168701e-01
-2.599422633647918701e-01 -4.839371442794799805e-01 -2.458529919385910034e-01
-2.307953238487243652e-01 -7.011271715164184570e-01 -2.389912307262420654e-01
-1.657456308603286743e-01 -8.020110130310058594e-01 -3.146665990352630615e-01
-2.706256806850433350e-01 -4.048723876476287842e-01 -3.078086078166961670e-01
-1.625947207212448120e-01 -3.540453910827636719e-01 -2.411277592182159424e-01
-1.718519777059555054e-01 -2.925721406936645508e-01 -3.370123803615570068e-01
-1.403528302907943726e-01 -4.821969270706176758e-01 -2.715268433094024658e-01
-1.972295045852661133e-01 -2.144952714443206787e-01 -3.388881385326385498e-01
-2.545338869094848633e-01 -7.330812811851501465e-01 -2.999217510223388672e-01
-2.043443173170089722e-01 -8.107552528381347656e-01 -3.312884569168090820e-01
-1.410598903894424438e-01 -5.763978958129882812e-01 -2.720052897930145264e-01
-2.468033432960510254e-01 -6.286128759384155273e-01 -2.417958229780197144e-01
-1.510727703571319580e-01 -5.369732379913330078e-01 -3.301361501216888428e-01
-2.043260037899017334e-01 -5.055336356163024902e-01 -2.200476378202438354e-01
-1.521360278129577637e-01 -5.980047583580017090e-01 -2.507907748222351074e-01
-2.221069633960723877e-01 -3.450219333171844482e-01 -3.508288860321044922e-01
-2.714172005653381348e-01 -4.870615005493164062e-01 -2.695062160491943359e-01
-2.220997810363769531e-01 -4.036973118782043457e-01 -2.216450572013854980e-01
-2.571345865726470947e-01 -5.044937133789062500e-01 -3.319757580757141113e-01
-1.464240252971649170e-01 -5.876111388206481934e-01 -3.209530115127563477e-01
-1.815358996391296387e-01 -6.628230214118957520e-01 -3.472923040390014648e-01
-2.015677690505981445e-01 -8.806430101394653320e-01 -2.743335962295532227e-01
-1.954358071088790894e-01 -8.918015956878662109e-01 -2.877143621444702148e-01
-1.599381268024444580e-01 -2.678131461143493652e-01 -2.549506723880767822e-01
-2.139393985271453857e-01 -6.412289738655090332e-01 -2.270627021789550781e-01
-1.459221839904785156e-01 -5.127741098403930664e-01 -2.571144104003906250e-01
-1.598518490791320801e-01 -7.028856873512268066e-01 -3.286864161491394043e-01
-1.738968044519424438e-01 -7.485045194625854492e-01 -2.470615059137344360e-01
-1.925182342529296875e-01 -4.958516955375671387e-01 -2.214002013206481934e-01
-2.646679580211639404e-01 -6.394541263580322266e-01 -3.013320267200469971e-01
-2.261898368597030640e-01 -4.854439496994018555e-01 -3.535014986991882324e-01
-1.592273414134979248e-01 -3.289028406143188477e-01 -3.293258845806121826e-01
-1.393268406391143799e-01 -4.372518360614776611e-01 -2.968636751174926758e-01
-1.901274174451828003e-01 -3.567024469375610352e-01 -3.512350916862487793e-01
-2.529402673244476318e-01 -7.490038871765136719e-01 -2.949303388595581055e-01
-1.456621438264846802e-01 -3.432281017303466797e-01 -3.052430748939514160e-01
-1.955537199974060059e-01 -6.178611516952514648e-01 -3.534219264984130859e-01
-1.565648615360260010e-01 -2.443683445453643799e-01 -3.081623911857604980e-01
-2.371506392955780029e-01 -2.310268878936767578e-01 -3.344036042690277100e-01
-1.917363405227661133e-01 -7.194205522537231445e-01 -2.354140579700469971e-01
-2.598779797554016113e-01 -6.086841821670532227e-01 -3.204939067363739014e-01
-2.507261931896209717e-01 -3.564000129699707031e-01 -3.361744284629821777e-01
-2.532949447631835938e-01 -4.345498085021972656e-01 -3.365857005119323730e-01
-2.307574599981307983e-01 -6.424475312232971191e-01 -3.455129265785217285e-01
-2.172343581914901733e-01 -8.602151870727539062e-01 -2.700232863426208496e-01
-1.533989906311035156e-01 -2.584609389305114746e-01 -2.718313336372375488e-01
-2.229814231395721436e-01 -4.823700189590454102e-01 -2.215908765792846680e-01
-1.410046666860580444e-01 -6.381930708885192871e-01 -2.906914353370666504e-01
-1.455992758274078369e-01 -6.475491523742675781e-01 -2.682025134563446045e-01
-2.424979805946350098e-01 -4.127262830734252930e-01 -3.448192775249481201e-01
-1.397912502288818359e-01 -5.165432095527648926e-01 -3.063560426235198975e-01
-1.409545391798019409e-01 -3.878248631954193115e-01 -2.856728136539459229e-01
-1.547052860260009766e-01 -4.216260313987731934e-01 -2.457286566495895386e-01
-1.841058284044265747e-01 -4.351479411125183105e-01 -2.239965945482254028e-01
-1.491107791662216187e-01 -3.730348646640777588e-01 -3.194818496704101562e-01
-1.657859385013580322e-01 -1.751616299152374268e-01 -2.717232704162597656e-01
-1.468197703361511230e-01 -4.394825398921966553e-01 -3.213974237442016602e-01
-1.837840229272842407e-01 -3.881898820400238037e-01 -3.509856164455413818e-01
-1.598898768424987793e-01 -1.948135495185852051e-01 -2.856139242649078369e-01
-2.364979386329650879e-01 -4.239861369132995605e-01 -2.262736111879348755e-01
-2.718536853790283203e-01 -5.216086506843566895e-01 -2.759769856929779053e-01
-2.622367739677429199e-01 -6.677584648132324219e-01 -2.764396369457244873e-01
-2.081694155931472778e-01 -4.092911779880523682e-01 -2.200600355863571167e-01
-1.822069436311721802e-01 -8.592486977577209473e-01 -3.112142384052276611e-01
-1.712831258773803711e-01 -8.529143333435058594e-01 -2.906727492809295654e-01
-2.101821452379226685e-01 -4.482941031455993652e-01 -2.196431457996368408e-01
-2.353700995445251465e-01 -9.665298461914062500e-02 -2.693295478820800781e-01
-2.475896477699279785e-01 -2.602267861366271973e-01 -3.303924202919006348e-01
-2.703852951526641846e-01 -4.730928540229797363e-01 -2.651911079883575439e-01
-1.387208700180053711e-01 -4.609393775463104248e-01 -2.819751501083374023e-01
-1.826822310686111450e-01 -8.000108003616333008e-01 -3.297907710075378418e-01
-2.467480450868606567e-01 -4.991636276245117188e-01 -3.422341048717498779e-01
-2.551073729991912842e-01 -6.980072259902954102e-01 -2.649861574172973633e-01
-2.184223532676696777e-01 -1.036427617073059082e-01 -2.552739083766937256e-01
-2.171535789966583252e-01 -4.717079401016235352e-01 -3.558294773101806641e-01
-1.671987622976303101e-01 -1.741531193256378174e-01 -3.057599365711212158e-01
-2.044536918401718140e-01 -6.653377413749694824e-02 -2.973302602767944336e-01
-2.572084665298461914e-01 -7.207370996475219727e-01 -2.925129532814025879e-01
-1.638565063476562500e-01 -3.753369748592376709e-01 -3.384612500667572021e-01
-2.052490860223770142e-01 -6.657654047012329102e-01 -2.284298688173294067e-01
-2.391960769891738892e-01 -3.398069143295288086e-01 -2.300712764263153076e-01
-1.539062857627868652e-01 -7.415913939476013184e-01 -3.118151426315307617e-01
-2.391100078821182251e-01 -7.453619241714477539e-01 -3.259868919849395752e-01
-1.978611499071121216e-01 -5.922114849090576172e-01 -2.235780954360961914e-01
-1.441527605056762695e-01 -5.639676451683044434e-01 -2.624223232269287109e-01
-2.477880418300628662e-01 -2.351385653018951416e-01 -2.452918887138366699e-01
-2.220587283372879028e-01 -4.243263602256774902e-01 -3.540668189525604248e-01
-1.514362692832946777e-01 -4.910374879837036133e-01 -2.482592165470123291e-01
-1.745360046625137329e-01 -1.243903636932373047e-01 -2.895714342594146729e-01
-2.414909005165100098e-01 -1.259403526782989502e-01 -2.637242078781127930e-01
-1.936609745025634766e-01 -8.506375551223754883e-01 -3.203329741954803467e-01
-1.543559879064559937e-01 -7.624472379684448242e-01 -3.051291406154632568e-01
-1.815039962530136108e-01 -3.435433506965637207e-01 -3.473500013351440430e-01
-1.598913073539733887e-01 -7.629061341285705566e-01 -2.646105587482452393e-01
-1.499844491481781006e-01 -2.994787693023681641e-01 -2.690906822681427002e-01
-2.652417123317718506e-01 -2.785403132438659668e-01 -3.065281212329864502e-01
-2.578209638595581055e-01 -3.906080424785614014e-01 -3.304770290851593018e-01
-2.736582756042480469e-01 -4.779539108276367188e-01 -2.924446463584899902e-01
-2.640145123004913330e-01 -4.560581147670745850e-01 -2.511031329631805420e-01
-2.332424223423004150e-01 -1.447400748729705811e-01 -2.504077255725860596e-01
-2.104893177747726440e-01 -5.775460600852966309e-01 -2.225602865219116211e-01
-1.966919898986816406e-01 -5.913822650909423828e-01 -3.547534644603729248e-01
-1.911643147468566895e-01 -2.904351353645324707e-01 -3.463601171970367432e-01
-2.439253926277160645e-01 -3.858079612255096436e-01 -2.311160117387771606e-01
-1.718205213546752930e-01 -7.839177846908569336e-01 -2.555325925350189209e-01
-2.114319652318954468e-01 -6.029274463653564453e-01 -3.539989590644836426e-01
-2.137785553932189941e-01 -3.146256208419799805e-01 -2.240155637264251709e-01
-2.263725399971008301e-01 -4.579681158065795898e-01 -3.533519804477691650e-01
-2.462097406387329102e-01 -6.026701331138610840e-01 -2.387188971042633057e-01
-2.015392035245895386e-01 -4.546024799346923828e-01 -3.566834330558776855e-01
-1.568805277347564697e-01 -3.914615213871002197e-01 -3.326617181301116943e-01
-1.752060353755950928e-01 -1.940315961837768555e-01 -2.507073879241943359e-01
-1.719584167003631592e-01 -4.101572334766387939e-01 -2.306583821773529053e-01
-2.390303313732147217e-01 -7.709981203079223633e-01 -3.199560642242431641e-01
-2.417381554841995239e-01 -7.933603525161743164e-01 -2.720542252063751221e-01
-2.585086226463317871e-01 -5.134209394454956055e-01 -2.452052682638168335e-01
-2.315392643213272095e-01 -8.039147853851318359e-01 -3.191387057304382324e-01
-1.745697408914566040e-01 -5.596703886985778809e-01 -2.294681221246719360e-01
-1.572094559669494629e-01 -3.637291789054870605e-01 -3.306758403778076172e-01
-1.762515306472778320e-01 -4.237557351589202881e-01 -3.493041396141052246e-01
-2.202608436346054077e-01 -5.095146894454956055e-01 -2.214706242084503174e-01
-1.863959580659866333e-01 -2.602229118347167969e-01 -3.414619565010070801e-01
-1.730224490165710449e-01 -4.497992992401123047e-01 -3.484418094158172607e-01
-2.021016031503677368e-01 -6.147807240486145020e-01 -2.245466113090515137e-01
-2.052601426839828491e-01 -2.927135229110717773e-01 -3.488177657127380371e-01
-2.702504992485046387e-01 -3.216694295406341553e-01 -2.739760279655456543e-01
-1.915726661682128906e-01 -7.900428771972656250e-02 -2.926706969738006592e-01
-2.635844349861145020e-01 -2.208503782749176025e-01 -2.846365272998809814e-01
-1.535228937864303589e-01 -5.083326101303100586e-01 -2.456017732620239258e-01
-2.160746455192565918e-01 -6.567277908325195312e-01 -3.497844338417053223e-01
-1.446902155876159668e-01 -4.154657721519470215e-01 -3.148705363273620605e-01
-1.407448947429656982e-01 -5.670015215873718262e-01 -3.079550266265869141e-01
-1.932474076747894287e-01 -8.171578049659729004e-01 -2.519699633121490479e-01
-2.434192448854446411e-01 -3.295438289642333984e-01 -3.402546644210815430e-01
-1.520836502313613892e-01 -3.791452646255493164e-01 -2.521521151065826416e-01
-2.697810530662536621e-01 -2.953314781188964844e-01 -2.903222739696502686e-01
-1.615586727857589722e-01 -7.618597745895385742e-01 -3.201027214527130127e-01
-1.451803445816040039e-01 -3.522609770298004150e-01 -2.714694738388061523e-01
-2.055300623178482056e-01 -1.454672813415527344e-01 -2.445066869258880615e-01
-1.988259404897689819e-01 -7.952924370765686035e-01 -2.463569790124893188e-01
-1.498415470123291016e-01 -6.667938828468322754e-01 -3.192525207996368408e-01
-1.499755978584289551e-01 -2.833797335624694824e-01 -2.748508155345916748e-01
-2.534369528293609619e-01 -6.526078581809997559e-01 -2.524480819702148438e-01
-2.475393563508987427e-01 -7.452328801155090332e-01 -3.142989873886108398e-01
-1.514742076396942139e-01 -2.632196545600891113e-01 -2.979126274585723877e-01
-2.669367194175720215e-01 -2.630935907363891602e-01 -2.948147058486938477e-01
-1.489804685115814209e-01 -3.133423328399658203e-01 -2.684159278869628906e-01
-2.098430693149566650e-01 -3.680158853530883789e-01 -2.212421149015426636e-01
-1.927706450223922729e-01 -7.904949784278869629e-01 -3.348191380500793457e-01
-2.409744560718536377e-01 -7.527039647102355957e-01 -2.566278278827667236e-01
-2.684756815433502197e-01 -5.109720826148986816e-01 -3.123268783092498779e-01
-1.507580876350402832e-01 -7.339278459548950195e-01 -2.764122188091278076e-01
-1.833670139312744141e-01 -4.874071776866912842e-01 -3.535967469215393066e-01
-2.299660742282867432e-01 -1.936704218387603760e-01 -3.326415419578552246e-01
