-2.151870131492614746e-01 2.467098087072372437e-01 -4.163788259029388428e-01
-1.545774042606353760e-01 1.474721729755401611e-01 -1.786834597587585449e-01
-3.590877950191497803e-01 2.257057875394821167e-01 -3.496421873569488525e-01
-2.267343103885650635e-01 3.442665636539459229e-01 -2.312586307525634766e-01
-3.326206803321838379e-01 2.906550168991088867e-01 -2.252599895000457764e-01
-2.940892279148101807e-01 3.310920000076293945e-01 -1.310351043939590454e-01
-3.575741648674011230e-01 -2.665463387966156006e-01 -3.420455753803253174e-01
-1.633588224649429321e-01 5.865123867988586426e-02 -1.986531764268875122e-01
-1.586254388093948364e-01 8.030638843774795532e-02 -2.184699177742004395e-01
-2.932865023612976074e-01 3.215338885784149170e-01 -2.711660265922546387e-01
-1.929513514041900635e-01 1.551093608140945435e-01 -4.547788798809051514e-01
-2.170329093933105469e-01 3.470014631748199463e-01 -1.199012845754623413e-01
-4.016467332839965820e-01 1.237518861889839172e-01 -3.867821097373962402e-01
-3.891880512237548828e-01 6.308896094560623169e-02 -6.877538561820983887e-02
-1.879422664642333984e-01 -4.112050682306289673e-02 -2.137620449066162109e-01
-2.901408672332763672e-01 -2.128950059413909912e-01 -2.380693852901458740e-01
-2.262448072433471680e-01 3.524974882602691650e-01 -1.655745655298233032e-01
-3.794618248939514160e-01 1.328514814376831055e-01 -6.704887747764587402e-02
-2.584377527236938477e-01 -2.096325606107711792e-01 -4.034851789474487305e-01
-3.062891960144042969e-01 1.007238589227199554e-02 -6.321119070053100586e-01
-3.511957526206970215e-01 -5.218890309333801270e-02 -6.366465091705322266e-01
-2.229888141155242920e-01 6.571786850690841675e-02 -5.496461391448974609e-01
-3.083205819129943848e-01 -2.615557014942169189e-01 -4.113356471061706543e-01
-1.834164261817932129e-01 6.267230212688446045e-02 -7.934318482875823975e-02
-2.254597544670104980e-01 -5.200812965631484985e-02 -5.476266145706176758e-01
-3.206054270267486572e-01 2.661554813385009766e-01 -3.695328235626220703e-01
-3.057121932506561279e-01 -2.385416030883789062e-01 -2.817865908145904541e-01
-2.046000957489013672e-01 3.146170079708099365e-01 -4.801745712757110596e-02
-3.631008267402648926e-01 1.006371378898620605e-01 -1.432564854621887207e-02
-2.501156032085418701e-01 1.569861769676208496e-01 -5.352339744567871094e-01
-2.626639008522033691e-01 -2.048971801996231079e-01 -4.731448888778686523e-01
-2.516022324562072754e-01 3.488287627696990967e-01 -2.202050685882568359e-01
-1.615710407495498657e-01 1.654892116785049438e-01 -1.090128272771835327e-01
-3.288276791572570801e-01 -2.707742154598236084e-01 -4.559149146080017090e-01
-3.172680139541625977e-01 3.073044419288635254e-01 -2.375535070896148682e-01
-4.176535010337829590e-01 1.047722250223159790e-02 -4.796786904335021973e-01
-3.431987762451171875e-01 2.763038873672485352e-01 -1.832286715507507324e-01
-4.157535433769226074e-01 -1.754019856452941895e-01 -5.286461114883422852e-01
-4.272793531417846680e-01 -7.076311111450195312e-02 -2.141392529010772705e-01
-4.007183611392974854e-01 1.364946663379669189e-01 -3.603271245956420898e-01
-2.911683917045593262e-01 2.051631510257720947e-01 -4.972021877765655518e-01
-3.922473192214965820e-01 3.197090700268745422e-02 -5.404266119003295898e-01
-4.043381810188293457e-01 1.151874661445617676e-01 -1.614297330379486084e-01
-4.134802818298339844e-01 -1.283183991909027100e-01 -1.987326890230178833e-01
-4.367962479591369629e-01 -1.471800357103347778e-01 -3.960117399692535400e-01
-3.854486048221588135e-01 -2.653207182884216309e-01 -4.366519153118133545e-01
-4.292652010917663574e-01 -1.840044260025024414e-01 -3.708305358886718750e-01
-3.424141407012939453e-01 2.680310010910034180e-01 -1.216357797384262085e-01
-1.842061728239059448e-01 -3.800062090158462524e-02 -2.388063669204711914e-01
-4.023582637310028076e-01 -4.719402641057968140e-02 -5.655157566070556641e-01
-4.151331484317779541e-01 -2.177653908729553223e-01 -3.509368598461151123e-01
-3.968457877635955811e-01 1.337444931268692017e-01 -1.413664668798446655e-01
-3.919088244438171387e-01 1.613682657480239868e-01 -1.579471230506896973e-01
-3.400535583496093750e-01 1.200692951679229736e-01 -5.495572090148925781e-01
-1.881823241710662842e-01 1.989185810089111328e-01 -4.123075604438781738e-01
-2.501689493656158447e-01 -1.495972275733947754e-01 -1.848770678043365479e-01
-2.648928165435791016e-01 3.491628170013427734e-01 -1.927641332149505615e-01
-3.364068567752838135e-01 8.060449361801147461e-02 2.567961812019348145e-02
-3.592997193336486816e-01 -2.580074071884155273e-01 -3.113586008548736572e-01
-3.772065341472625732e-01 1.591925621032714844e-01 -8.025763928890228271e-02
-2.469542771577835083e-01 2.870469093322753906e-01 2.020350098609924316e-02
-1.605623215436935425e-01 2.165804952383041382e-01 -2.778119444847106934e-01
-3.277269601821899414e-01 5.314788967370986938e-02 2.900692820549011230e-02
-3.281685113906860352e-01 2.696839570999145508e-01 -6.235577166080474854e-02
-2.733374536037445068e-01 2.678989470005035400e-01 -4.184399545192718506e-01
-3.683613240718841553e-01 1.756275296211242676e-01 -4.266539216041564941e-01
-3.673160076141357422e-01 2.306843698024749756e-01 -2.746202349662780762e-01
-3.123126924037933350e-01 6.170816719532012939e-02 -6.092246770858764648e-01
-2.606880068778991699e-01 -1.453957408666610718e-01 -1.535844653844833374e-01
-4.333005547523498535e-01 -5.206920206546783447e-02 -4.500062763690948486e-01
-4.334002137184143066e-01 -9.909135103225708008e-02 -4.682587981224060059e-01
-1.927459090948104858e-01 -2.961822599172592163e-02 -4.481083154678344727e-01
-1.576911807060241699e-01 8.528135716915130615e-02 -2.794041037559509277e-01
-1.896000802516937256e-01 1.337597221136093140e-01 -1.773050427436828613e-02
-2.460690736770629883e-01 2.658482193946838379e-01 3.593054413795471191e-02
-3.685138225555419922e-01 -2.739794850349426270e-01 -4.134246110916137695e-01
-1.598920822143554688e-01 2.110768109560012817e-01 -1.237155944108963013e-01
-2.356309890747070312e-01 -1.125165522098541260e-01 -5.347405076026916504e-01
-2.610311210155487061e-01 -1.682384461164474487e-01 -1.966993659734725952e-01
-2.883433401584625244e-01 3.008130192756652832e-01 -2.338147163391113281e-02
-2.790645360946655273e-01 -2.168036699295043945e-01 -2.762103974819183350e-01
-3.627773821353912354e-01 2.781840041279792786e-02 -1.617142558097839355e-02
-4.051454365253448486e-01 9.382709860801696777e-02 -1.417568027973175049e-01
-1.990371048450469971e-01 4.158435389399528503e-02 -5.173023045063018799e-02
-4.148165881633758545e-01 -1.531010717153549194e-01 -5.430629253387451172e-01
-3.971140682697296143e-01 1.642087250947952271e-01 -2.367681264877319336e-01
-1.725240647792816162e-01 2.524679303169250488e-01 -2.979857027530670166e-01
-2.796237170696258545e-01 -2.472494542598724365e-02 4.929602146148681641e-04
-3.916456401348114014e-01 -1.484782621264457703e-02 -5.729535818099975586e-01
-3.247169554233551025e-01 -2.598096430301666260e-01 -3.278308212757110596e-01
-2.352267801761627197e-01 3.037077486515045166e-01 9.473264217376708984e-04
-4.297302067279815674e-01 -1.501273065805435181e-01 -2.944413423538208008e-01
-3.973200619220733643e-01 -2.431274354457855225e-01 -4.965309202671051025e-01
-1.929634660482406616e-01 8.769714832305908203e-02 -4.803250432014465332e-01
-3.689677417278289795e-01 -2.686370611190795898e-01 -3.668085336685180664e-01
-2.058312594890594482e-01 -6.860263645648956299e-02 -1.735047698020935059e-01
-3.183332383632659912e-01 -2.118062973022460938e-01 -5.885158777236938477e-01
-3.324806988239288330e-01 2.763559222221374512e-01 -9.444831311702728271e-02
-2.503764331340789795e-01 1.374124437570571899e-01 -5.490657091140747070e-01
-2.008993327617645264e-01 1.253554970026016235e-01 3.092497587203979492e-03
-2.745149731636047363e-01 3.375367224216461182e-01 -2.462698221206665039e-01
-3.747527003288269043e-01 -2.268933653831481934e-01 -2.501636445522308350e-01
-3.818092942237854004e-01 1.517479270696640015e-01 -4.241573512554168701e-01
-2.270950973033905029e-01 -4.717785120010375977e-02 -7.874332368373870850e-02
-3.572334945201873779e-01 -1.112470626831054688e-01 -8.338555693626403809e-02
-2.112716883420944214e-01 5.504735559225082397e-02 -5.296505689620971680e-01
-3.986387252807617188e-01 -1.053326725959777832e-01 -1.406072080135345459e-01
-3.885472416877746582e-01 -9.657827019691467285e-02 -1.137385815382003784e-01
-3.554075956344604492e-01 -4.466176033020019531e-04 -1.447919011116027832e-02
-2.068206667900085449e-01 -1.329234242439270020e-02 -8.680613338947296143e-02
-3.036417067050933838e-01 -2.246175110340118408e-01 -5.524656176567077637e-01
-3.735544085502624512e-01 1.213395819067955017e-01 -4.385894536972045898e-02
-2.509829401969909668e-01 -1.912237852811813354e-01 -4.521719217300415039e-01
-4.317677021026611328e-01 2.705584652721881866e-02 -2.957744002342224121e-01
-4.008496403694152832e-01 -2.252836525440216064e-01 -5.228679180145263672e-01
-1.802954822778701782e-01 2.165388315916061401e-03 -4.087769389152526855e-01
-1.711779236793518066e-01 3.003658354282379150e-02 -1.814819723367691040e-01
-1.816079169511795044e-01 1.268907487392425537e-01 -4.191517829895019531e-02
-1.578007787466049194e-01 9.875430166721343994e-02 -3.025861680507659912e-01
-2.550961971282958984e-01 1.197138577699661255e-01 5.871465802192687988e-02
-3.549884557723999023e-01 2.557380795478820801e-01 -2.467730492353439331e-01
-1.744290888309478760e-01 2.825822234153747559e-01 -1.058918684720993042e-01
-2.735500633716583252e-01 -1.636042445898056030e-01 -1.630880236625671387e-01
-2.325603812932968140e-01 -1.465724706649780273e-01 -4.745884537696838379e-01
-4.063909053802490234e-01 -5.040101706981658936e-02 -1.288513839244842529e-01
-3.885312080383300781e-01 1.473844200372695923e-01 -1.152289360761642456e-01
-2.044438123703002930e-01 -9.962747991085052490e-02 -2.690292596817016602e-01
-4.025451838970184326e-01 5.154341831803321838e-02 -4.938261210918426514e-01
-2.930732369422912598e-01 1.510422080755233765e-01 -5.507439374923706055e-01
-4.024036526679992676e-01 1.692518033087253571e-02 -1.035540252923965454e-01
-4.094995260238647461e-01 1.267050355672836304e-01 -2.767955660820007324e-01
-4.250897169113159180e-01 4.752996563911437988e-02 -2.319674789905548096e-01
-2.391337305307388306e-01 3.534873425960540771e-01 -1.867803335189819336e-01
-3.065697550773620605e-01 2.615315020084381104e-01 -1.145809888839721680e-03
-3.185341358184814453e-01 -3.366371244192123413e-02 -6.435579657554626465e-01
-2.858987152576446533e-01 1.738808304071426392e-01 6.164807081222534180e-02
-3.558516204357147217e-01 1.925102472305297852e-01 -4.224006831645965576e-02
-2.261979281902313232e-01 -9.184579551219940186e-02 -5.246629714965820312e-01
-2.410450577735900879e-01 -1.028064787387847900e-01 -1.241847872734069824e-01
-3.016641736030578613e-01 3.263184130191802979e-01 -1.540109813213348389e-01
-3.317110538482666016e-01 1.942095905542373657e-01 -4.759041666984558105e-01
-3.536884784698486328e-01 2.506662607192993164e-01 -1.348284333944320679e-01
-1.837943792343139648e-01 -4.393066465854644775e-02 -2.729417085647583008e-01
-1.672297269105911255e-01 9.913930296897888184e-02 -3.804074227809906006e-01
-2.068545371294021606e-01 -8.584794402122497559e-02 -2.067259550094604492e-01
-2.922089397907257080e-01 2.966373860836029053e-01 -3.487702012062072754e-01
-4.223066568374633789e-01 4.655520245432853699e-02 -2.052721530199050903e-01
-2.177192270755767822e-01 2.752665281295776367e-01 1.358962059020996094e-02
-4.211394190788269043e-01 7.982458174228668213e-02 -2.597471475601196289e-01
-1.701879650354385376e-01 1.766975671052932739e-01 -3.695057630538940430e-01
-1.977853775024414062e-01 -5.482984334230422974e-02 -4.462088942527770996e-01
-3.516258001327514648e-01 -2.745267748832702637e-01 -4.665431380271911621e-01
-3.877098560333251953e-01 -1.507800221443176270e-01 -6.022979021072387695e-01
-3.510104715824127197e-01 1.803895682096481323e-01 -4.625003635883331299e-01
-3.011605441570281982e-01 -2.459504604339599609e-01 -4.944991469383239746e-01
-3.329483568668365479e-01 -2.738456130027770996e-01 -4.207215905189514160e-01
-3.989958167076110840e-01 -2.490650713443756104e-01 -3.802456855773925781e-01
-1.720546483993530273e-01 1.592236757278442383e-01 -6.135785579681396484e-02
-3.424258530139923096e-01 4.873144999146461487e-02 -6.015579700469970703e-01
-3.206776082515716553e-01 1.940965205430984497e-01 2.665039896965026855e-02
-1.563378125429153442e-01 9.443178772926330566e-02 -2.385793030261993408e-01
-1.837264001369476318e-01 2.447948791086673737e-02 -1.189745813608169556e-01
-4.137863516807556152e-01 -2.008442133665084839e-01 -5.119552612304687500e-01
-4.340507090091705322e-01 -1.591961979866027832e-01 -3.550478816032409668e-01
-3.401222527027130127e-01 2.172355502843856812e-01 -2.420362830162048340e-02
-1.563014090061187744e-01 1.243235915899276733e-01 -2.969714403152465820e-01
-1.851921975612640381e-01 2.125564962625503540e-01 -1.741626858711242676e-02
-3.044987618923187256e-01 -2.132143080234527588e-01 -2.177181392908096313e-01
-3.728076815605163574e-01 2.164170742034912109e-01 -2.967894971370697021e-01
-1.967413574457168579e-01 5.205884948372840881e-02 -4.942280054092407227e-01
-2.137372195720672607e-01 2.929247617721557617e-01 -3.469674885272979736e-01
-1.615938246250152588e-01 1.363401263952255249e-01 -1.212425827980041504e-01
-3.614678084850311279e-01 8.572862297296524048e-02 -5.530341863632202148e-01
-3.882973790168762207e-01 -6.927084177732467651e-02 -9.585939347743988037e-02
-3.140396773815155029e-01 -2.423024475574493408e-01 -5.351617336273193359e-01
-3.773109018802642822e-01 7.269378751516342163e-02 -4.035001993179321289e-02
-3.448213338851928711e-01 1.295711696147918701e-01 1.240849494934082031e-02
-2.397850751876831055e-01 -3.402766585350036621e-02 -5.824694633483886719e-01
-3.220760822296142578e-01 1.066747158765792847e-01 -5.758244991302490234e-01
-4.335756897926330566e-01 -1.651645451784133911e-01 -4.173543155193328857e-01
-4.293744564056396484e-01 -1.664410233497619629e-01 -3.200418353080749512e-01
-3.414697945117950439e-01 1.579169481992721558e-01 9.919017553329467773e-03
-3.523930311203002930e-01 2.031134366989135742e-01 -4.221366941928863525e-01
-2.660239934921264648e-01 -1.755565404891967773e-01 -5.466816425323486328e-01
-3.320049941539764404e-01 2.208816409111022949e-01 -4.351298809051513672e-01
-3.945555984973907471e-01 -2.041457593441009521e-01 -5.634182095527648926e-01
-3.544566035270690918e-01 7.320474088191986084e-02 -5.728110671043395996e-01
-1.870418190956115723e-01 -5.549315363168716431e-02 -3.448186516761779785e-01
-2.168632298707962036e-01 -1.163278520107269287e-01 -4.520570039749145508e-01
-2.100798487663269043e-01 5.760245025157928467e-02 -1.556754112243652344e-02
-2.205961942672729492e-01 1.035363301634788513e-01 2.538639307022094727e-02
-4.197624921798706055e-01 -1.790049970149993896e-01 -2.842865288257598877e-01
-1.697322279214859009e-01 2.768010497093200684e-01 -1.320717185735702515e-01
-2.834314703941345215e-01 7.810139656066894531e-02 -5.998638868331909180e-01
-1.853441298007965088e-01 2.520529329776763916e-01 -2.994683384895324707e-02
-2.449572682380676270e-01 4.168105870485305786e-02 2.121776342391967773e-02
-2.881063818931579590e-01 -1.974643468856811523e-01 -2.057883143424987793e-01
-2.205908447504043579e-01 -1.295232176780700684e-01 -2.528515458106994629e-01
-2.186917960643768311e-01 -1.330305039882659912e-01 -4.174284636974334717e-01
-2.200640738010406494e-01 1.309297531843185425e-01 3.409129381179809570e-02
-2.767775058746337891e-01 -2.326584756374359131e-01 -3.791798651218414307e-01
-3.947506546974182129e-01 1.687680184841156006e-01 -2.895419001579284668e-01
-1.666830331087112427e-01 1.863723099231719971e-01 -3.465126752853393555e-01
-1.937269270420074463e-01 -4.684717208147048950e-02 -1.890012323856353760e-01
-2.718586921691894531e-01 -2.217352092266082764e-01 -4.577267169952392578e-01
-3.213906586170196533e-01 -2.284134030342102051e-01 -5.697568655014038086e-01
-2.249403595924377441e-01 -1.511429697275161743e-01 -3.965950906276702881e-01
-4.405474066734313965e-01 -7.964421808719635010e-02 -3.836491405963897705e-01
-2.256916463375091553e-01 -1.499140858650207520e-01 -3.007391691207885742e-01
-2.516045272350311279e-01 2.175521701574325562e-01 5.744194984436035156e-02
-2.857605516910552979e-01 -1.396065950393676758e-01 -6.127861738204956055e-01
-3.237524628639221191e-01 -1.924956589937210083e-01 -6.105571389198303223e-01
-3.123403489589691162e-01 -2.268455922603607178e-01 -2.404455989599227905e-01
-1.859275698661804199e-01 2.826135158538818359e-01 -2.997688353061676025e-01
-3.798842132091522217e-01 -2.365368604660034180e-01 -5.506750345230102539e-01
-4.090328514575958252e-01 6.229390949010848999e-02 -4.565675556659698486e-01
-3.530324697494506836e-01 2.372098565101623535e-01 -9.397944808006286621e-02
-2.956443727016448975e-01 1.195851042866706848e-01 -5.752660036087036133e-01
-1.666061133146286011e-01 1.485875248908996582e-01 -8.790129423141479492e-02
-3.806692361831665039e-01 2.040165513753890991e-01 -1.982224285602569580e-01
-3.333600461483001709e-01 2.817012965679168701e-01 -2.789068818092346191e-01
-4.337926506996154785e-01 -6.124626845121383667e-02 -2.500887811183929443e-01
-4.392352104187011719e-01 -1.237765103578567505e-01 -3.888596892356872559e-01
-2.364869266748428345e-01 -4.293859750032424927e-02 -5.682365596294403076e-02
-3.776704072952270508e-01 -1.316999644041061401e-01 -6.186769008636474609e-01
-4.094394445419311523e-01 -2.596895396709442139e-02 -5.364576578140258789e-01
-4.378898739814758301e-01 -1.335964649915695190e-01 -3.536148369312286377e-01
-1.856830716133117676e-01 8.368213474750518799e-02 -5.521778762340545654e-02
-1.668052077293395996e-01 3.020168468356132507e-02 -3.229666352272033691e-01
-4.383568167686462402e-01 -4.060613363981246948e-02 -2.997127175331115723e-01
-1.813566088676452637e-01 2.083085663616657257e-02 -4.295028448104858398e-01
-4.090506136417388916e-01 -1.566699743270874023e-01 -2.144657969474792480e-01
-2.668303549289703369e-01 5.784284323453903198e-02 4.300904273986816406e-02
-2.474139034748077393e-01 3.547510504722595215e-01 -1.538630872964859009e-01
-3.086934089660644531e-01 -1.308068037033081055e-01 -6.360011100769042969e-01
-2.657963633537292480e-01 -1.861407756805419922e-01 -2.261093258857727051e-01
-1.906198859214782715e-01 2.524994313716888428e-03 -4.618867635726928711e-01
-3.836611509323120117e-01 -1.811726391315460205e-01 -1.891112327575683594e-01
-2.984960973262786865e-01 -2.000126987695693970e-01 -5.795640349388122559e-01
-2.773451209068298340e-01 1.356785595417022705e-01 6.460449099540710449e-02
-4.052744209766387939e-01 -2.413568496704101562e-01 -4.570030272006988525e-01
-3.019464612007141113e-01 -2.561838924884796143e-01 -4.356607794761657715e-01
-1.540508568286895752e-01 1.561904549598693848e-01 -2.640654444694519043e-01
-2.155562639236450195e-01 -5.479919910430908203e-02 -1.164463758468627930e-01
-3.001819252967834473e-01 5.323538929224014282e-02 4.311695694923400879e-02
-1.721469163894653320e-01 -9.459145367145538330e-04 -3.096667230129241943e-01
-3.121038675308227539e-01 1.877644658088684082e-01 -5.052407979965209961e-01
-3.019206225872039795e-01 -1.422967016696929932e-02 -6.380227804183959961e-01
-3.992536067962646484e-01 1.586297303438186646e-01 -2.637870907783508301e-01
-3.694934844970703125e-01 2.117851525545120239e-01 -1.238954961299896240e-01
-2.884671390056610107e-01 -2.364327311515808105e-01 -3.209894001483917236e-01
-2.073507755994796753e-01 3.412332832813262939e-01 -1.855933070182800293e-01
-1.682117283344268799e-01 2.313033789396286011e-01 -8.172880113124847412e-02
-2.002489417791366577e-01 3.122489750385284424e-01 -2.787669301033020020e-01
-1.739338040351867676e-01 1.078493595123291016e-01 -4.125495254993438721e-01
-1.727861911058425903e-01 1.598834991455078125e-03 -2.399937063455581665e-01
-1.814117133617401123e-01 1.555027514696121216e-01 -4.228394627571105957e-01
-2.029899954795837402e-01 -3.611152619123458862e-02 -4.876204133033752441e-01
-3.899671137332916260e-01 -2.611981630325317383e-01 -4.074022173881530762e-01
-3.619562685489654541e-01 2.027481943368911743e-01 -7.325974106788635254e-02
-4.207159578800201416e-01 -2.080215811729431152e-01 -4.558444619178771973e-01
-4.279372692108154297e-01 4.046268761157989502e-03 -4.315280914306640625e-01
-1.988528519868850708e-01 2.486193031072616577e-01 1.765727996826171875e-03
-1.549064517021179199e-01 1.221182644367218018e-01 -2.010075598955154419e-01
-2.668013870716094971e-01 3.257662951946258545e-01 -2.999199032783508301e-01
-3.868838250637054443e-01 -5.517257004976272583e-02 -5.985490083694458008e-01
-3.907816112041473389e-01 1.816517263650894165e-01 -2.564357817173004150e-01
-4.326418340206146240e-01 4.171431064605712891e-04 -3.964108824729919434e-01
-2.053924500942230225e-01 2.254291772842407227e-01 -4.246484339237213135e-01
-3.625991940498352051e-01 1.475574374198913574e-01 -4.842550754547119141e-01
-1.841812133789062500e-01 2.642820477485656738e-01 -3.259393572807312012e-01
-2.035942077636718750e-01 1.933320164680480957e-01 -4.509638845920562744e-01
-3.057866394519805908e-01 2.205295115709304810e-01 3.178867697715759277e-02
-2.086798995733261108e-01 3.437490165233612061e-01 -1.507225930690765381e-01
-2.132507264614105225e-01 2.307471036911010742e-01 2.909654378890991211e-02
-4.102151393890380859e-01 -1.730111837387084961e-01 -2.385784387588500977e-01
-1.967529952526092529e-01 -7.093745470046997070e-02 -4.114695489406585693e-01
-1.805895119905471802e-01 2.709285020828247070e-01 -5.904537439346313477e-02
-1.627561748027801514e-01 4.569588601589202881e-02 -2.754807770252227783e-01
-3.127976059913635254e-01 3.864750638604164124e-02 -6.206740140914916992e-01
-1.795228272676467896e-01 -2.491886913776397705e-02 -3.532624244689941406e-01
-1.859461665153503418e-01 6.625168025493621826e-02 -4.605835676193237305e-01
-4.348644614219665527e-01 -2.260943874716758728e-02 -4.081435203552246094e-01
-2.145052552223205566e-01 1.889361739158630371e-01 -4.728529453277587891e-01
-1.542222201824188232e-01 1.224212348461151123e-01 -2.530280351638793945e-01
-2.338800132274627686e-01 -1.703328192234039307e-01 -3.539028167724609375e-01
-4.051874876022338867e-01 1.367897689342498779e-01 -3.110885620117187500e-01
-1.783601939678192139e-01 1.755086146295070648e-02 -1.550784856081008911e-01
-1.623476892709732056e-01 1.170085221529006958e-01 -3.506509363651275635e-01
-3.238492608070373535e-01 2.484251409769058228e-01 -4.003797173500061035e-01
-2.966597080230712891e-01 -1.449232846498489380e-01 -1.100165992975234985e-01
-3.820759952068328857e-01 1.764746755361557007e-01 -3.702546358108520508e-01
-1.744098067283630371e-01 6.078262627124786377e-02 -1.177663505077362061e-01
-4.357117116451263428e-01 -8.415032178163528442e-02 -4.483940601348876953e-01
-4.163264036178588867e-01 2.555730752646923065e-02 -1.573801487684249878e-01
-2.656637430191040039e-01 2.532540634274482727e-02 -6.106644868850708008e-01
-2.252597510814666748e-01 -2.029889449477195740e-02 -5.569653511047363281e-01
-2.199454456567764282e-01 3.101034760475158691e-01 -3.225384950637817383e-01
-3.462207615375518799e-01 -2.408255636692047119e-01 -5.645900964736938477e-01
-2.636788487434387207e-01 -2.261442691087722778e-02 -6.156252026557922363e-01
-4.377003908157348633e-01 -1.771244406700134277e-02 -3.403446674346923828e-01
-4.108352363109588623e-01 -6.514944136142730713e-02 -1.481973826885223389e-01
-2.253329306840896606e-01 6.378425657749176025e-02 1.228049397468566895e-02
-4.117532968521118164e-01 9.368060529232025146e-02 -3.879269361495971680e-01
-1.695534884929656982e-01 2.154639549553394318e-02 -2.172642648220062256e-01
-4.208815395832061768e-01 5.673898756504058838e-02 -3.979487419128417969e-01
-1.541647017002105713e-01 1.782673448324203491e-01 -2.511980831623077393e-01
-2.089273631572723389e-01 -1.182390004396438599e-01 -3.377847075462341309e-01
-2.636294960975646973e-01 -2.158307731151580811e-01 -3.595141172409057617e-01
-1.735063493251800537e-01 5.224312841892242432e-02 -4.038848876953125000e-01
-2.598137259483337402e-01 -2.085576057434082031e-01 -4.354803562164306641e-01
-4.176948368549346924e-01 -4.264357686042785645e-02 -1.632809191942214966e-01
-2.666644454002380371e-01 2.406012713909149170e-01 4.854422807693481445e-02
-1.924542188644409180e-01 2.438452094793319702e-02 -4.773438572883605957e-01
-3.244563043117523193e-01 -1.020906567573547363e-01 -5.753667652606964111e-02
-2.298166155815124512e-01 -1.011937856674194336e-01 -1.491917520761489868e-01
-1.981880068778991699e-01 2.437240034341812134e-01 -3.904267549514770508e-01
-2.933240234851837158e-01 -5.737811326980590820e-02 -1.997804641723632812e-02
-3.579342365264892578e-01 1.252052187919616699e-01 -9.652256965637207031e-03
-3.725249469280242920e-01 -1.371035128831863403e-01 -1.233896613121032715e-01
-3.593778014183044434e-01 1.256422102451324463e-01 -5.169497728347778320e-01
-1.748754978179931641e-01 1.922571659088134766e-01 -4.635077714920043945e-02
-2.208268642425537109e-01 2.776392400264739990e-01 -3.817665874958038330e-01
-2.263904958963394165e-01 -1.257033348083496094e-01 -2.112168669700622559e-01
-4.150187373161315918e-01 9.823243319988250732e-02 -3.446272611618041992e-01
-2.832426428794860840e-01 2.217857986688613892e-01 5.010128021240234375e-02
-4.291945695877075195e-01 -2.590973675251007080e-02 -4.558031260967254639e-01
-2.697760760784149170e-01 2.467068135738372803e-01 -4.502806663513183594e-01
-1.739542484283447266e-01 2.892547845840454102e-02 -3.919372856616973877e-01
-2.535743117332458496e-01 3.501864373683929443e-01 -1.078166216611862183e-01
-1.795923858880996704e-01 6.047259271144866943e-02 -4.357830882072448730e-01
-4.346414506435394287e-01 -9.427113831043243408e-02 -2.705790400505065918e-01
-2.784635424613952637e-01 -1.725594103336334229e-01 -5.770825147628784180e-01
-1.818633377552032471e-01 -3.998646140098571777e-02 -3.103367388248443604e-01
-3.196861445903778076e-01 2.240926772356033325e-01 1.060613989830017090e-02
-2.236231714487075806e-01 3.222519159317016602e-01 -3.217104077339172363e-02
-1.580788791179656982e-01 1.098573431372642517e-01 -1.720409393310546875e-01
-3.715682327747344971e-01 -2.531959712505340576e-01 -5.308995842933654785e-01
-3.815217614173889160e-01 1.139709129929542542e-01 -4.825179576873779297e-01
-2.904556095600128174e-01 2.502641081809997559e-01 -4.377281069755554199e-01
-4.040890336036682129e-01 -1.701670438051223755e-01 -5.653114914894104004e-01
-3.895007669925689697e-01 5.538433417677879333e-02 -5.266763567924499512e-01
-3.435367345809936523e-01 2.472912818193435669e-01 -7.420699298381805420e-02
-2.726610898971557617e-01 -1.079680025577545166e-01 -6.115127801895141602e-01
-2.249493598937988281e-01 1.301031112670898438e-01 -5.271466374397277832e-01
-2.878842055797576904e-01 2.849482893943786621e-01 -6.917715072631835938e-04
-3.586111068725585938e-01 -2.169688045978546143e-01 -5.921645760536193848e-01
-3.633626997470855713e-01 2.424186617136001587e-01 -2.179258614778518677e-01
-3.613451421260833740e-01 2.123668640851974487e-01 -3.749600648880004883e-01
-4.122183918952941895e-01 1.082497686147689819e-01 -2.165313512086868286e-01
-2.304135560989379883e-01 3.356695473194122314e-01 -5.378516018390655518e-02
-2.501669526100158691e-01 -1.940294802188873291e-01 -3.270067572593688965e-01
-3.925367295742034912e-01 -2.184411287307739258e-01 -2.654071152210235596e-01
-2.333122789859771729e-01 5.051292479038238525e-02 -5.691667199134826660e-01
-3.282167911529541016e-01 -2.021685391664505005e-01 -1.822472661733627319e-01
-2.059486508369445801e-01 -9.288395941257476807e-02 -4.317452907562255859e-01
-1.925019472837448120e-01 -6.909453868865966797e-02 -2.681629061698913574e-01
-2.170020490884780884e-01 1.609940230846405029e-01 -4.971886873245239258e-01
-4.107354879379272461e-01 8.293123543262481689e-02 -1.627520471811294556e-01
-2.079990804195404053e-01 -9.749263525009155273e-02 -2.318074405193328857e-01
-2.307218313217163086e-01 2.429636418819427490e-01 4.108649492263793945e-02
-1.672081798315048218e-01 6.841560453176498413e-02 -1.491771489381790161e-01
-4.291524887084960938e-01 -1.778731942176818848e-01 -4.499741196632385254e-01
-4.282038509845733643e-01 -9.143556654453277588e-02 -2.292324751615524292e-01
-3.787141740322113037e-01 1.928074955940246582e-01 -3.433037698268890381e-01
-3.183515071868896484e-01 3.072555065155029297e-01 -1.417754888534545898e-01
-4.162673950195312500e-01 -2.230572998523712158e-01 -3.906704187393188477e-01
-3.877669572830200195e-01 1.818231642246246338e-01 -3.118814527988433838e-01
-3.990950882434844971e-01 1.121262162923812866e-01 -4.237294793128967285e-01
-2.196446657180786133e-01 2.071527987718582153e-01 4.058432579040527344e-02
-2.577516138553619385e-01 1.583647727966308594e-01 6.464388966560363770e-02
-3.835296034812927246e-01 3.604308515787124634e-02 -5.332088470458984375e-02
-2.138109058141708374e-01 9.034641087055206299e-02 -5.266885161399841309e-01
-3.993883132934570312e-01 9.111669659614562988e-02 -4.558962881565093994e-01
-4.325473904609680176e-01 -1.276536881923675537e-01 -2.847579717636108398e-01
-1.576632708311080933e-01 1.455015987157821655e-01 -1.450743973255157471e-01
-4.231283068656921387e-01 -5.883340537548065186e-02 -1.902916729450225830e-01
-2.054279297590255737e-01 -1.067882925271987915e-01 -2.965798079967498779e-01
-2.075601220130920410e-01 -3.056760877370834351e-02 -1.062323749065399170e-01
-3.755385279655456543e-01 -1.535525918006896973e-01 -1.442354917526245117e-01
-2.741253077983856201e-01 -1.297428309917449951e-01 -1.095712333917617798e-01
-3.421195447444915771e-01 -1.228479295969009399e-02 -6.308354139328002930e-01
-4.191901087760925293e-01 7.810904085636138916e-02 -2.233961522579193115e-01
-1.592028141021728516e-01 1.387259662151336670e-01 -3.255152404308319092e-01
-3.148153424263000488e-01 2.887557148933410645e-01 -3.252179920673370361e-01
-3.779343366622924805e-01 4.352651163935661316e-02 -5.606809854507446289e-01
-2.425103187561035156e-01 6.583981215953826904e-03 -4.418551921844482422e-03
-2.091631591320037842e-01 -1.181714236736297607e-01 -3.622302114963531494e-01
-1.995604634284973145e-01 2.729917168617248535e-01 -1.080179214477539062e-02
-3.561124801635742188e-01 -2.438696920871734619e-01 -2.696666717529296875e-01
-3.228086829185485840e-01 2.419724762439727783e-01 -1.034000515937805176e-02
-3.697095811367034912e-01 3.410689532756805420e-04 -3.390985727310180664e-02
-2.606356739997863770e-01 -6.914586573839187622e-02 -6.076703071594238281e-01
-3.499480485916137695e-01 6.964350491762161255e-02 8.246719837188720703e-03
2.055693864822387695e-01 3.569145798683166504e-01 -9.866406023502349854e-02
-3.425254821777343750e-01 4.057132601737976074e-01 -7.027788460254669189e-02
-6.883023679256439209e-02 4.788073897361755371e-01 -4.498282670974731445e-01
-4.019409045577049255e-02 4.007605910301208496e-01 -5.050011873245239258e-01
-3.200422823429107666e-01 2.735472023487091064e-01 -4.103289544582366943e-02
2.042504101991653442e-01 8.231729269027709961e-02 -5.138021111488342285e-01
-3.131588995456695557e-01 4.891134500503540039e-01 -5.971227586269378662e-02
2.441083043813705444e-01 -3.568816184997558594e-02 -2.835952639579772949e-01
1.760298162698745728e-01 4.768674969673156738e-01 -4.187217950820922852e-01
-1.007097512483596802e-01 6.006173789501190186e-02 7.589405775070190430e-02
-2.497459575533866882e-02 7.403087615966796875e-02 -3.244839310646057129e-01
8.443218469619750977e-02 3.888873755931854248e-02 -3.827566802501678467e-01
-7.201534509658813477e-02 3.996068239212036133e-01 -4.824774265289306641e-01
3.955279290676116943e-02 8.324058353900909424e-02 -4.080954790115356445e-01
-3.044961392879486084e-01 2.752496600151062012e-01 1.292176842689514160e-01
-1.527605801820755005e-01 5.579576492309570312e-01 -2.533677220344543457e-01
-2.695385217666625977e-01 2.520660758018493652e-01 -1.708815097808837891e-01
3.128450810909271240e-01 1.718968302011489868e-01 -1.145340800285339355e-01
-2.492876797914505005e-01 4.538559615612030029e-01 -2.777378559112548828e-01
1.468455195426940918e-01 7.029946148395538330e-02 -4.729568958282470703e-01
3.463528752326965332e-01 7.777172327041625977e-02 -5.107495188713073730e-01
1.734026968479156494e-01 -3.551864624023437500e-02 -1.112685725092887878e-01
3.517984971404075623e-02 6.546010076999664307e-02 -3.786310553550720215e-01
6.934250891208648682e-02 -2.106401324272155762e-02 -2.074988782405853271e-01
4.176234006881713867e-01 1.242789924144744873e-01 -4.446401894092559814e-01
3.254580497741699219e-01 2.161492407321929932e-01 -1.562576293945312500e-01
1.514280736446380615e-01 2.247685492038726807e-01 -5.892460346221923828e-01
3.451093733310699463e-01 -1.378685235977172852e-03 -3.220310807228088379e-01
2.060188353061676025e-01 -2.733540534973144531e-02 -3.192073404788970947e-01
2.953974902629852295e-01 1.863549649715423584e-02 -1.304703205823898315e-01
-2.329886108636856079e-01 3.269644081592559814e-01 -2.964997589588165283e-01
4.157017767429351807e-01 1.534661054611206055e-01 -4.693366885185241699e-01
-9.408637881278991699e-02 5.525769293308258057e-02 -1.674163788557052612e-01
1.574059873819351196e-01 3.066857457160949707e-01 8.884221315383911133e-03
1.329004466533660889e-01 2.384680509567260742e-02 -3.959504663944244385e-01
-5.251243337988853455e-02 4.557759165763854980e-01 4.753190279006958008e-02
-3.481886163353919983e-02 5.591542124748229980e-01 -2.749683856964111328e-01
-3.888593986630439758e-02 2.599788904190063477e-01 1.770715117454528809e-01
1.789519190788269043e-02 3.482951521873474121e-01 1.025411188602447510e-01
5.057910084724426270e-02 5.303749442100524902e-01 -3.833438754081726074e-01
3.328432738780975342e-01 3.414828181266784668e-01 -3.579863607883453369e-01
-1.397299915552139282e-01 5.641486644744873047e-01 -1.627120971679687500e-01
3.637478351593017578e-01 3.429470956325531006e-02 -2.426370680332183838e-01
-3.184572458267211914e-01 2.696379423141479492e-01 8.321064710617065430e-02
-3.284817636013031006e-01 3.140048384666442871e-01 1.011253297328948975e-01
-3.462541699409484863e-01 4.174684882164001465e-01 -3.154814243316650391e-02
2.230422347784042358e-01 1.647900044918060303e-01 -5.836900472640991211e-01
3.783719614148139954e-02 1.051985025405883789e-01 -4.336296319961547852e-01
-2.158547490835189819e-01 5.456423163414001465e-01 -2.019513100385665894e-01
-1.259599775075912476e-01 1.506907641887664795e-01 -3.012689948081970215e-01
-5.198999121785163879e-02 5.275909900665283203e-01 -4.000065326690673828e-01
4.127211868762969971e-01 2.053762078285217285e-01 -4.164881408214569092e-01
1.791263222694396973e-01 -4.359316825866699219e-02 -1.828092634677886963e-01
4.097383022308349609e-01 1.927443444728851318e-01 -4.831496477127075195e-01
-3.350680172443389893e-01 3.886967897415161133e-01 -1.030233949422836304e-01
-2.504772320389747620e-02 4.859910905361175537e-01 -1.743447780609130859e-02
2.677754163742065430e-01 1.109119355678558350e-01 -4.674370586872100830e-02
-1.781224012374877930e-01 1.655105352401733398e-01 -2.376141846179962158e-01
-5.912985280156135559e-02 5.248544216156005859e-01 -6.590619683265686035e-02
-2.683695852756500244e-01 4.444747567176818848e-01 1.080133020877838135e-01
-1.930830478668212891e-01 5.545976758003234863e-01 -1.103045865893363953e-01
1.770152896642684937e-01 4.634624719619750977e-01 -4.738294482231140137e-01
3.755161464214324951e-01 2.540142834186553955e-01 -3.090458512306213379e-01
-2.492649704217910767e-01 5.370185375213623047e-01 -1.448779702186584473e-01
-3.044129610061645508e-01 2.446420341730117798e-01 -4.678042232990264893e-02
1.338295340538024902e-01 4.549635946750640869e-02 -4.315953254699707031e-01
1.501747965812683105e-01 -3.965595364570617676e-02 -2.178293764591217041e-01
3.368933796882629395e-01 1.161118596792221069e-01 -5.495036840438842773e-01
3.196065872907638550e-02 1.833674013614654541e-01 -4.998915493488311768e-01
-2.293474823236465454e-01 2.857184112071990967e-01 -2.786946892738342285e-01
3.572462797164916992e-01 8.204062283039093018e-02 -1.876491308212280273e-01
1.096985042095184326e-01 4.900348782539367676e-01 -1.931106895208358765e-01
-2.028234004974365234e-01 1.166930943727493286e-01 4.769256711006164551e-02
3.904244899749755859e-01 4.360625147819519043e-02 -3.807575106620788574e-01
-3.390498161315917969e-01 3.419209718704223633e-01 8.147552609443664551e-02
-1.597786247730255127e-01 2.669707536697387695e-01 -3.651242852210998535e-01
1.670557633042335510e-02 1.789486855268478394e-01 1.594867706298828125e-01
-2.370457500219345093e-01 4.260008037090301514e-01 1.348123550415039062e-01
2.761448323726654053e-01 3.740139603614807129e-01 -2.564379274845123291e-01
-2.801353856921195984e-02 5.090177059173583984e-01 -5.795410275459289551e-02
-5.749639496207237244e-02 4.356296062469482422e-01 7.477459311485290527e-02
2.350166141986846924e-01 3.217289745807647705e-01 -1.016828864812850952e-01
-6.349299103021621704e-03 4.439082741737365723e-02 -2.932638525962829590e-01
1.876567751169204712e-01 1.083350032567977905e-01 3.633213043212890625e-02
-4.551542922854423523e-02 5.604537725448608398e-01 -2.321079075336456299e-01
-3.139036297798156738e-01 3.059266209602355957e-01 1.295252442359924316e-01
-1.087070852518081665e-01 1.127525120973587036e-01 1.532922983169555664e-01
-9.819149971008300781e-02 4.774772524833679199e-01 -4.305238723754882812e-01
9.281067177653312683e-03 4.967939853668212891e-02 -3.236213624477386475e-01
2.745045423507690430e-01 1.458327323198318481e-01 -5.789716839790344238e-01
-1.598086357116699219e-01 1.224737316370010376e-01 -1.972804069519042969e-01
-1.287482827901840210e-01 5.808764696121215820e-02 -2.157121896743774414e-03
1.186629533767700195e-01 6.692519783973693848e-02 -4.508371353149414062e-01
-1.183933615684509277e-01 4.141185879707336426e-01 -4.414541423320770264e-01
-3.109182715415954590e-01 4.752145409584045410e-01 2.044233679771423340e-02
2.946989834308624268e-01 -2.344220876693725586e-02 -3.144789636135101318e-01
1.569314599037170410e-01 -1.461118459701538086e-02 -3.298473358154296875e-01
1.101190783083438873e-02 4.909619987010955811e-01 -4.744074046611785889e-01
-1.677205264568328857e-01 4.771866798400878906e-01 7.402905821800231934e-02
1.625843644142150879e-01 4.870253205299377441e-01 -3.372471332550048828e-01
4.036431312561035156e-01 2.334608584642410278e-01 -4.314539432525634766e-01
1.909432560205459595e-01 6.153947114944458008e-02 -4.848085045814514160e-01
3.592175543308258057e-01 2.939992547035217285e-01 -3.285744786262512207e-01
2.321294099092483521e-01 3.931362330913543701e-01 -1.977860927581787109e-01
-1.472637653350830078e-01 5.114278793334960938e-01 -3.583816885948181152e-01
-3.582553192973136902e-02 1.127305477857589722e-01 1.568867564201354980e-01
2.383464127779006958e-01 1.026726216077804565e-01 -1.436838507652282715e-02
2.380749285221099854e-01 1.159532368183135986e-02 -4.265722632408142090e-01
-1.816016286611557007e-01 1.368650794029235840e-01 1.397865116596221924e-01
3.987653553485870361e-01 1.963015496730804443e-01 -5.154452323913574219e-01
-1.394801884889602661e-01 5.558804273605346680e-01 -1.091734394431114197e-01
2.300006002187728882e-01 3.653541803359985352e-01 -1.477545946836471558e-01
-1.451147049665451050e-01 8.671963214874267578e-02 8.725446462631225586e-02
8.831551671028137207e-02 4.545924961566925049e-01 -8.255700021982192993e-02
3.108016252517700195e-01 1.716961562633514404e-01 -5.875711441040039062e-01
-2.508760988712310791e-01 3.472330868244171143e-01 1.791204810142517090e-01
3.603496551513671875e-01 3.134701848030090332e-01 -4.178572297096252441e-01
2.788988873362541199e-02 2.239901423454284668e-01 1.507419943809509277e-01
1.256339102983474731e-01 4.995622038841247559e-01 -2.668274641036987305e-01
2.899443507194519043e-01 3.827157616615295410e-01 -3.238627910614013672e-01
2.928784787654876709e-01 3.565172851085662842e-02 -4.714439213275909424e-01
6.514649838209152222e-03 2.454148232936859131e-02 -2.655778825283050537e-01
-6.262838840484619141e-02 2.120192050933837891e-01 -4.371836781501770020e-01
-1.790537387132644653e-01 3.623415231704711914e-01 -3.793985843658447266e-01
-1.102511584758758545e-02 1.324242502450942993e-01 1.608130633831024170e-01
-1.629957258701324463e-01 4.225725829601287842e-01 1.334653794765472412e-01
-7.845722138881683350e-02 4.245982766151428223e-01 9.853014349937438965e-02
3.482317924499511719e-02 5.425960421562194824e-01 -2.897905111312866211e-01
3.504827618598937988e-03 6.930054724216461182e-02 -3.507862687110900879e-01
-3.322761952877044678e-01 4.355304539203643799e-01 4.529926180839538574e-02
2.578065991401672363e-01 -2.531203627586364746e-02 -3.332536816596984863e-01
-2.622919976711273193e-01 1.869709491729736328e-01 -6.760780513286590576e-02
-1.452553719282150269e-01 1.262785792350769043e-01 -2.327338457107543945e-01
-7.290580868721008301e-02 5.536553859710693359e-01 -1.436703354120254517e-01
1.403507739305496216e-01 5.071845650672912598e-02 4.797288775444030762e-02
5.861961096525192261e-02 -2.408877015113830566e-02 -7.588773965835571289e-02
-1.713715940713882446e-01 5.201058387756347656e-01 3.116577863693237305e-03
2.315152585506439209e-01 2.587647736072540283e-02 -4.592534899711608887e-02
5.316071584820747375e-02 -1.700341701507568359e-02 -3.809538483619689941e-02
2.264864742755889893e-01 -1.696026325225830078e-02 -3.587643504142761230e-01
-3.019753694534301758e-01 4.091590940952301025e-01 -1.934898495674133301e-01
3.639541566371917725e-01 1.572155952453613281e-02 -3.649404048919677734e-01
-1.100528389215469360e-01 1.142018735408782959e-01 -2.713534533977508545e-01
3.170942068099975586e-01 3.670392632484436035e-01 -4.059584140777587891e-01
-7.034559547901153564e-02 2.438718676567077637e-01 -4.501170217990875244e-01
4.032362401485443115e-01 2.251635491847991943e-01 -4.746088087558746338e-01
9.482705593109130859e-02 3.770429790019989014e-01 1.243464648723602295e-02
-1.836449801921844482e-01 1.996997296810150146e-01 1.915373206138610840e-01
3.071522712707519531e-01 -1.123011112213134766e-02 -3.609330356121063232e-01
-5.525577813386917114e-03 2.059984207153320312e-02 4.948738217353820801e-02
3.958770334720611572e-01 9.767442941665649414e-02 -2.747349143028259277e-01
-2.059164643287658691e-01 2.172036319971084595e-01 -2.559244930744171143e-01
2.993448674678802490e-01 -1.543790102005004883e-02 -2.029541283845901489e-01
1.927251517772674561e-01 2.862057685852050781e-01 -6.105935573577880859e-01
-2.755677103996276855e-01 4.949248433113098145e-01 2.831448614597320557e-02
4.119461476802825928e-01 1.272769719362258911e-01 -3.267730176448822021e-01
-1.595546305179595947e-01 2.483638674020767212e-01 2.064273655414581299e-01
2.296089231967926025e-01 2.267655432224273682e-01 -2.419535815715789795e-02
-7.448032498359680176e-02 1.201531440019607544e-01 -3.311811089515686035e-01
6.478972733020782471e-02 5.105383396148681641e-01 -1.765643656253814697e-01
-2.679471969604492188e-01 5.279597640037536621e-01 -8.766525238752365112e-02
-5.210904404520988464e-02 2.565988898277282715e-02 -1.590124070644378662e-01
1.950040012598037720e-01 -1.465362310409545898e-02 -3.530670404434204102e-01
1.252270340919494629e-01 4.687453508377075195e-01 -5.022536516189575195e-01
-3.789435699582099915e-02 3.155666589736938477e-02 5.896562337875366211e-02
3.042067885398864746e-01 3.074407577514648438e-03 -1.668767929077148438e-01
-2.751718834042549133e-02 5.531200170516967773e-01 -2.009381800889968872e-01
1.016502380371093750e-01 1.848179101943969727e-01 -5.469987392425537109e-01
-1.412823945283889771e-01 8.687421679496765137e-02 -1.508608311414718628e-01
1.603406518697738647e-01 1.353770345449447632e-01 6.348308920860290527e-02
-1.004278212785720825e-01 5.410084128379821777e-01 -3.485895097255706787e-01
-1.264013946056365967e-01 4.787770211696624756e-01 -4.069179296493530273e-01
1.268703788518905640e-01 2.651748955249786377e-01 6.430041790008544922e-02
4.363486170768737793e-02 -2.197524905204772949e-02 -1.246177777647972107e-01
-1.835158020257949829e-01 4.041435420513153076e-01 1.525474488735198975e-01
-7.489793002605438232e-02 3.364585340023040771e-01 1.633455157279968262e-01
3.932581245899200439e-01 2.242468744516372681e-01 -3.276081681251525879e-01
-7.241757214069366455e-02 2.960595786571502686e-01 1.802445650100708008e-01
-1.043692827224731445e-01 1.921462863683700562e-01 -3.753991127014160156e-01
-1.421568542718887329e-01 1.942041516304016113e-01 -3.289791345596313477e-01
-2.387336641550064087e-02 8.819079399108886719e-02 1.383081078529357910e-01
-2.793665602803230286e-02 2.871561050415039062e-01 1.635317802429199219e-01
9.473028779029846191e-02 5.591607093811035156e-02 7.776871323585510254e-02
-1.351729631423950195e-01 9.388427436351776123e-02 -1.847055256366729736e-01
-2.302531525492668152e-02 4.990642070770263672e-01 -4.536494612693786621e-01
3.054392635822296143e-01 2.447535693645477295e-01 -1.419656723737716675e-01
1.822363734245300293e-01 -4.081153869628906250e-02 -2.395687699317932129e-01
9.481359273195266724e-03 5.268079042434692383e-01 -1.441447734832763672e-01
-3.604850545525550842e-02 2.386049926280975342e-02 -1.896068155765533447e-01
2.497183978557586670e-01 3.911670744419097900e-01 -2.310166507959365845e-01
1.625361293554306030e-01 1.507012695074081421e-01 -5.555323362350463867e-01
2.396036237478256226e-01 4.656907916069030762e-02 -4.822734892368316650e-01
-2.734660804271697998e-01 2.010183781385421753e-01 9.673678874969482422e-02
1.523223668336868286e-01 4.823277294635772705e-01 -2.625351250171661377e-01
-5.716102942824363708e-02 2.123475074768066406e-02 -1.193460598587989807e-01
-2.001863867044448853e-01 5.275660157203674316e-01 -1.168510317802429199e-02
3.633758723735809326e-01 2.983744144439697266e-01 -4.951900243759155273e-01
2.471235096454620361e-01 1.517236232757568359e-04 -9.248949587345123291e-02
-2.955051660537719727e-01 2.188730835914611816e-01 4.352051019668579102e-02
1.121353358030319214e-01 3.913390934467315674e-01 -5.742710828781127930e-01
4.169693961739540100e-02 5.087672173976898193e-02 9.343606233596801758e-02
-1.700176447629928589e-01 1.127226650714874268e-01 1.122063994407653809e-01
-4.809905961155891418e-02 1.874805986881256104e-02 5.072146654129028320e-03
1.390933543443679810e-01 1.066050529479980469e-01 -5.078246593475341797e-01
2.933952510356903076e-01 2.783509492874145508e-01 -1.506302207708358765e-01
-1.308405250310897827e-01 3.773957192897796631e-01 1.598034799098968506e-01
-2.369524389505386353e-01 5.348374843597412109e-01 -5.012068152427673340e-02
-1.239421963691711426e-01 2.360236346721649170e-01 2.042142450809478760e-01
-1.490999460220336914e-01 7.512070238590240479e-02 3.446069359779357910e-02
1.872119307518005371e-01 4.110989272594451904e-01 -1.495864689350128174e-01
-4.062835499644279480e-02 2.628941833972930908e-01 -4.867719113826751709e-01
-2.623612880706787109e-01 3.225991427898406982e-01 -2.458748817443847656e-01
-2.207230180501937866e-01 1.358176171779632568e-01 6.678670644760131836e-02
-1.190583258867263794e-01 5.909188091754913330e-02 4.339112341403961182e-02
3.420397639274597168e-03 7.206648588180541992e-03 -2.078612446784973145e-01
1.249890625476837158e-01 1.565064787864685059e-01 9.235736727714538574e-02
5.776892602443695068e-02 -2.344408631324768066e-02 -1.658231765031814575e-01
3.996329009532928467e-02 5.229541063308715820e-01 -4.171522259712219238e-01
-3.163670301437377930e-01 2.855539321899414062e-01 -8.193008601665496826e-02
-1.857423335313796997e-01 4.500966668128967285e-01 -3.633531332015991211e-01
-1.517339944839477539e-01 5.405801534652709961e-01 -5.145408213138580322e-02
-3.375193178653717041e-01 3.590702712535858154e-01 -8.259574323892593384e-02
4.758019000291824341e-02 1.536526381969451904e-01 1.416741013526916504e-01
-1.751005202531814575e-01 2.246827781200408936e-01 -3.120694756507873535e-01
-2.627810537815093994e-01 4.010404944419860840e-01 -2.674372196197509766e-01
7.748045027256011963e-02 -3.085032105445861816e-02 -1.178513914346694946e-01
3.420757949352264404e-01 1.970714628696441650e-01 -5.818135738372802734e-01
-1.595116108655929565e-01 7.885880768299102783e-02 2.173408865928649902e-03
2.938443720340728760e-01 3.439612388610839844e-01 -2.385075241327285767e-01
