-7.996860146522521973e-02 2.385916113853454590e-01 1.149673759937286377e-02
1.061154454946517944e-01 7.089927196502685547e-01 -1.140282861888408661e-02
-6.836536526679992676e-02 3.642106056213378906e-01 1.812419295310974121e-02
1.161919608712196350e-01 2.519566416740417480e-01 -4.635944962501525879e-03
5.276105552911758423e-02 5.873328447341918945e-02 1.278342795558273792e-03
5.791348591446876526e-02 7.591209411621093750e-01 -1.605212315917015076e-02
2.357680350542068481e-02 7.128368020057678223e-01 2.061909250915050507e-02
-5.626244097948074341e-02 1.232614815235137939e-01 6.809249753132462502e-04
-1.002148315310478210e-01 5.366796255111694336e-01 1.767834462225437164e-02
-9.157011657953262329e-02 9.667414426803588867e-01 1.305444259196519852e-02
3.270853683352470398e-02 1.762960851192474365e-01 1.407633814960718155e-02
-1.218565623275935650e-03 6.668174862861633301e-01 2.194769494235515594e-02
-1.138209998607635498e-01 6.927469968795776367e-01 -7.322899065911769867e-03
-7.916308939456939697e-02 2.652891576290130615e-01 -6.307037547230720520e-03
1.060250960290431976e-02 7.345654964447021484e-01 -1.770539954304695129e-02
2.239403873682022095e-02 5.970533490180969238e-01 2.131776884198188782e-02
-5.529630929231643677e-02 2.564531564712524414e-01 1.587856188416481018e-02
-1.195333674550056458e-01 6.741738915443420410e-01 -6.028411909937858582e-03
-4.324530437588691711e-02 8.096365332603454590e-01 2.066793665289878845e-02
1.844514720141887665e-02 1.263124942779541016e-01 1.221324224025011063e-02
-1.957592181861400604e-02 6.680439710617065430e-01 2.221607603132724762e-02
-2.629268169403076172e-02 2.020499110221862793e-01 -1.095365453511476517e-02
-1.146983057260513306e-01 8.407351374626159668e-01 1.358073204755783081e-02
-1.287585198879241943e-01 7.600258588790893555e-01 1.164286863058805466e-02
-9.411190450191497803e-02 7.727833986282348633e-01 1.813121140003204346e-02
-1.168286427855491638e-01 8.500490188598632812e-01 -3.777029691264033318e-03
1.131235621869564056e-02 9.473853111267089844e-01 -1.305915415287017822e-02
-1.307807713747024536e-01 8.367745876312255859e-01 2.257812535390257835e-03
2.845745719969272614e-02 7.315042614936828613e-01 -1.761098019778728485e-02
-1.040441468358039856e-01 3.175086081027984619e-01 -2.031201031059026718e-03
7.642260193824768066e-02 9.292684793472290039e-01 8.925766684114933014e-03
-7.959844544529914856e-03 1.780917346477508545e-01 -1.123708486557006836e-02
-2.745356969535350800e-02 1.107624471187591553e-01 9.998881258070468903e-03
9.878207743167877197e-02 3.608232140541076660e-01 1.211844477802515030e-02
5.160947330296039581e-03 5.352709889411926270e-01 2.188863605260848999e-02
-5.745549499988555908e-02 8.550494909286499023e-01 -1.304992754012346268e-02
8.755298703908920288e-02 8.714522123336791992e-01 9.365883655846118927e-03
-7.469144463539123535e-02 9.084773063659667969e-01 1.714661531150341034e-02
-4.649845510721206665e-02 3.000141978263854980e-01 1.798045635223388672e-02
5.147459357976913452e-02 1.991608142852783203e-01 -1.252454612404108047e-02
-2.883857674896717072e-02 5.374258756637573242e-01 -1.726819574832916260e-02
-4.863329231739044189e-02 7.850468754768371582e-01 -1.494214683771133423e-02
-4.169150069355964661e-02 3.411434292793273926e-01 -1.393324322998523712e-02
-8.880360424518585205e-02 6.055812239646911621e-01 -1.187868416309356689e-02
-5.560920014977455139e-02 9.172131419181823730e-01 1.801809482276439667e-02
1.130802184343338013e-01 2.908810973167419434e-01 6.751078180968761444e-03
-1.088219806551933289e-01 9.254983663558959961e-01 -2.916360506787896156e-03
-1.248214542865753174e-01 5.825224518775939941e-01 -4.200124181807041168e-03
-8.776634186506271362e-02 8.332820534706115723e-01 -1.010101288557052612e-02
-3.810502239502966404e-04 9.886138439178466797e-01 1.553527731448411942e-02
-3.005914390087127686e-02 1.257008314132690430e-01 -6.301715038716793060e-03
6.912773847579956055e-02 4.844331443309783936e-01 -1.704305596649646759e-02
2.091109566390514374e-02 3.767805695533752441e-01 -1.729505695402622223e-02
1.761174760758876801e-02 2.461994588375091553e-01 -1.450280472636222839e-02
-6.661647558212280273e-02 2.296991646289825439e-01 -6.993669085204601288e-03
-6.770391762256622314e-02 8.214564323425292969e-01 1.956032216548919678e-02
-6.462706718593835831e-03 9.340330362319946289e-01 1.771199144423007965e-02
-1.083622574806213379e-01 9.845340251922607422e-01 6.148035638034343719e-03
9.950487315654754639e-02 8.426274061203002930e-01 -7.975342683494091034e-03
-3.438741341233253479e-02 2.572649717330932617e-01 1.726417057216167450e-02
-8.301850408315658569e-02 6.145154237747192383e-01 2.003089711070060730e-02
-2.265520021319389343e-02 1.131846547126770020e+00 1.344011398032307625e-03
-6.044078245759010315e-02 7.378254532814025879e-01 2.099763788282871246e-02
1.117528602480888367e-01 2.733919918537139893e-01 -7.814753800630569458e-03
5.686334520578384399e-02 6.910747885704040527e-01 1.832863129675388336e-02
1.016562953591346741e-01 8.940585255622863770e-01 -8.603613823652267456e-04
-6.640903651714324951e-02 8.917162418365478516e-01 -1.135828066617250443e-02
-7.614215463399887085e-02 3.056708872318267822e-01 1.550067029893398285e-02
-6.439145654439926147e-02 1.032572746276855469e+00 -5.952446721494197845e-03
9.830586612224578857e-02 5.071255564689636230e-01 1.376703847199678421e-02
2.822722494602203369e-02 3.528153300285339355e-01 1.920679025352001190e-02
4.136466979980468750e-02 4.561428427696228027e-01 1.977011933922767639e-02
1.132656335830688477e-01 3.429691195487976074e-01 8.524167351424694061e-03
-6.797384470701217651e-02 1.025985002517700195e+00 1.282803341746330261e-02
7.160931825637817383e-02 6.878376007080078125e-01 -1.614931598305702209e-02
-1.304874271154403687e-01 5.072484016418457031e-01 9.405073709785938263e-03
-6.663843989372253418e-02 4.035959839820861816e-01 -1.264882925897836685e-02
-1.139725930988788605e-02 2.912992835044860840e-01 1.878734119236469269e-02
2.656808588653802872e-03 9.002269506454467773e-01 1.834429986774921417e-02
-1.898639276623725891e-02 9.758585691452026367e-01 -1.182463020086288452e-02
-1.286640316247940063e-01 8.173068165779113770e-01 -4.381109029054641724e-04
3.509820252656936646e-02 3.009131848812103271e-01 1.782671734690666199e-02
-8.842029608786106110e-03 8.551415801048278809e-01 1.977930404245853424e-02
-5.120408255606889725e-03 1.938468813896179199e-01 1.568530127406120300e-02
1.110126525163650513e-01 6.275644302368164062e-01 1.073182933032512665e-02
-5.724489688873291016e-03 2.888858616352081299e-01 -1.500143669545650482e-02
5.232567340135574341e-02 4.170514047145843506e-01 -1.733220554888248444e-02
1.133585497736930847e-01 3.916050195693969727e-01 9.610711596906185150e-03
-6.642859429121017456e-02 7.906440496444702148e-01 -1.336655858904123306e-02
6.769739091396331787e-02 8.252502679824829102e-01 1.468028500676155090e-02
-3.223887179046869278e-03 4.358371496200561523e-01 2.132439985871315002e-02
-9.922411292791366577e-03 5.503547787666320801e-01 2.222622744739055634e-02
5.582612380385398865e-02 1.718755662441253662e-01 1.211221795529127121e-02
1.085919886827468872e-01 5.903909802436828613e-01 -1.273916475474834442e-02
-7.173906266689300537e-02 6.661807298660278320e-01 2.082905918359756470e-02
7.152580469846725464e-02 3.582023382186889648e-01 -1.557833142578601837e-02
4.639920592308044434e-02 7.948720455169677734e-02 -5.529584363102912903e-03
1.359971985220909119e-02 9.468551874160766602e-01 1.636009104549884796e-02
7.078517973423004150e-02 7.816385030746459961e-01 1.530880667269229889e-02
-5.487799271941184998e-02 6.390336155891418457e-01 -1.560967229306697845e-02
4.607025906443595886e-02 1.032409548759460449e+00 -6.202892400324344635e-03
-2.746765501797199249e-02 3.851458430290222168e-01 2.057508751749992371e-02
-1.192223653197288513e-02 7.394564747810363770e-01 2.160360291600227356e-02
-7.219815161079168320e-03 9.343644380569458008e-01 -1.349714584648609161e-02
-8.605058491230010986e-02 3.129297196865081787e-01 -7.024979218840599060e-03
-3.763404116034507751e-02 1.380166411399841309e-01 1.118109561502933502e-02
5.581928044557571411e-02 9.232151508331298828e-01 1.306280214339494705e-02
3.103719465434551239e-02 9.849435091018676758e-02 -7.870274595916271210e-03
9.813161939382553101e-02 6.649430990219116211e-01 1.298510842025279999e-02
-8.548019826412200928e-02 5.564517974853515625e-01 -1.213651709258556366e-02
4.877990856766700745e-02 2.746069729328155518e-01 -1.497076079249382019e-02
-4.567299783229827881e-02 3.970022797584533691e-01 2.023912407457828522e-02
-4.683152958750724792e-02 7.129923701286315918e-01 2.167421579360961914e-02
-7.535839825868606567e-02 9.945819377899169922e-01 -6.536511704325675964e-03
-1.644637435674667358e-02 1.068675398826599121e+00 1.189502142369747162e-02
-2.869720570743083954e-02 1.607232093811035156e-01 -8.738489821553230286e-03
-6.660266965627670288e-02 6.361620426177978516e-01 2.119023911654949188e-02
8.641146868467330933e-02 7.431458830833435059e-01 1.374264247715473175e-02
-1.012175753712654114e-01 3.706818222999572754e-01 -5.741297267377376556e-03
9.810910373926162720e-02 6.750409603118896484e-01 -1.342560164630413055e-02
7.101250439882278442e-02 8.153086900711059570e-01 -1.376574486494064331e-02
-4.001706093549728394e-02 9.704793691635131836e-01 -1.107861381024122238e-02
-7.202351093292236328e-02 4.229647219181060791e-01 -1.233400404453277588e-02
-9.281548112630844116e-02 1.025827407836914062e+00 8.313609287142753601e-03
-9.683484584093093872e-02 4.350125789642333984e-01 1.646611467003822327e-02
9.768888354301452637e-03 3.924681544303894043e-01 2.051012031733989716e-02
3.140445426106452942e-02 6.895733475685119629e-01 -1.800670102238655090e-02
-1.224956475198268890e-02 1.092742681503295898e+00 9.842415340244770050e-03
-8.017893135547637939e-02 9.868969917297363281e-01 1.364278793334960938e-02
-3.012837655842304230e-02 2.952235341072082520e-01 -1.375278271734714508e-02
6.052421033382415771e-02 3.795794844627380371e-01 1.740811020135879517e-02
1.054997891187667847e-01 8.597311973571777344e-01 3.426027949899435043e-03
-3.818386793136596680e-02 5.155341625213623047e-01 2.189785428345203400e-02
-6.489413976669311523e-02 6.991508007049560547e-01 2.107346057891845703e-02
1.230719164013862610e-01 4.121483564376831055e-01 7.190394215285778046e-03
-5.069179926067590714e-03 6.902666091918945312e-01 2.189517207443714142e-02
-8.352769166231155396e-02 1.065181493759155273e+00 5.096266977488994598e-03
-1.114302650094032288e-01 8.678206205368041992e-01 -4.685261286795139313e-03
-1.214873418211936951e-02 2.396863698959350586e-01 1.728945225477218628e-02
-1.015624254941940308e-01 6.770076155662536621e-01 -9.817424230277538300e-03
4.530273843556642532e-03 2.645504772663116455e-01 -1.473810523748397827e-02
1.314433366060256958e-01 5.747236609458923340e-01 -6.617528386414051056e-03
-1.162024289369583130e-01 7.300542593002319336e-01 1.534987706691026688e-02
-1.194799318909645081e-03 8.277310132980346680e-01 2.009900286793708801e-02
-7.044649869203567505e-02 6.242951154708862305e-01 -1.416324265301227570e-02
-1.437112502753734589e-02 5.883437395095825195e-02 4.452168010175228119e-03
-8.221515268087387085e-02 7.105490565299987793e-01 1.986547186970710754e-02
-1.188568323850631714e-01 3.826435804367065430e-01 5.820665974169969559e-04
-2.786180563271045685e-02 2.207592427730560303e-01 -1.156741753220558167e-02
-9.160818904638290405e-02 3.526638150215148926e-01 1.491062901914119720e-02
9.074956178665161133e-02 6.088277101516723633e-01 -1.510845869779586792e-02
3.699393477290868759e-03 9.805478453636169434e-01 -1.188704557716846466e-02
-2.436294034123420715e-02 4.035537838935852051e-01 2.091735973954200745e-02
-2.266959287226200104e-02 1.041634678840637207e+00 1.367675885558128357e-02
3.498097136616706848e-02 5.929775238037109375e-01 -1.848665066063404083e-02
-3.236521407961845398e-02 7.589976191520690918e-01 -1.626909151673316956e-02
-4.629649594426155090e-02 8.992961645126342773e-01 1.880081929266452789e-02
-4.531032219529151917e-02 4.818739891052246094e-01 2.141099050641059875e-02
-1.187684386968612671e-01 8.611860275268554688e-01 1.182174030691385269e-02
-1.176014244556427002e-01 6.018830537796020508e-01 1.529868412762880325e-02
-9.877283126115798950e-02 4.472955465316772461e-01 -8.510675281286239624e-03
1.352364197373390198e-02 6.856407523155212402e-01 -1.818865910172462463e-02
7.682499289512634277e-02 8.054021596908569336e-01 1.384985353797674179e-02
4.022541642189025879e-02 4.030025005340576172e-01 -1.750441826879978180e-02
5.145647097378969193e-03 7.945303916931152344e-01 2.043993957340717316e-02
7.808779925107955933e-02 9.908705949783325195e-02 -5.016331560909748077e-04
2.847129944711923599e-03 5.892145633697509766e-01 -1.849381998181343079e-02
9.815164655447006226e-02 4.515324532985687256e-01 1.347812823951244354e-02
-4.438628628849983215e-02 1.042801737785339355e+00 1.336575113236904144e-02
-2.430858276784420013e-02 5.979545116424560547e-01 -1.761649735271930695e-02
3.937222436070442200e-02 1.181993484497070312e-01 1.065486017614603043e-02
-3.891110420227050781e-03 8.599552512168884277e-01 -1.551122963428497314e-02
3.224049136042594910e-02 9.643804430961608887e-01 1.419029571115970612e-02
7.506094872951507568e-02 5.039532780647277832e-01 -1.672263815999031067e-02
-8.798525482416152954e-02 7.932691574096679688e-01 -1.078992057591676712e-02
2.712033689022064209e-02 3.068194687366485596e-01 -1.606355980038642883e-02
-2.717761322855949402e-02 9.556530714035034180e-01 -1.226195879280567169e-02
2.813919819891452789e-02 3.449114263057708740e-01 -1.679374836385250092e-02
1.036712974309921265e-01 3.389673233032226562e-01 -1.174242608249187469e-02
6.032098457217216492e-02 2.948752343654632568e-01 -1.498522609472274780e-02
5.007278546690940857e-02 8.978980779647827148e-01 1.476077456027269363e-02
4.266270622611045837e-02 2.759287655353546143e-01 1.676494628190994263e-02
-2.909487672150135040e-02 8.934316039085388184e-01 -1.399966329336166382e-02
2.275693044066429138e-02 9.465098381042480469e-02 9.968609549105167389e-03
2.642234973609447479e-02 2.865872979164123535e-01 -1.561190932989120483e-02
5.587311089038848877e-02 4.674521982669830322e-01 -1.762589998543262482e-02
-3.723654896020889282e-02 2.562883794307708740e-01 -1.200269535183906555e-02
3.192601725459098816e-02 9.521249532699584961e-01 -1.220784988254308701e-02
-1.123735755681991577e-01 6.344154477119445801e-01 -7.776840589940547943e-03
8.087275177240371704e-02 6.527160406112670898e-01 -1.574601978063583374e-02
-3.994745016098022461e-02 8.183422088623046875e-01 -1.499765738844871521e-02
-1.309848576784133911e-01 5.643250942230224609e-01 -1.517255324870347977e-03
5.265114456415176392e-02 1.049229741096496582e+00 3.956427797675132751e-03
-7.011800259351730347e-02 6.577231884002685547e-01 -1.414098963141441345e-02
-4.274822771549224854e-03 1.008856058120727539e+00 1.482320483773946762e-02
-8.805090934038162231e-02 5.971891880035400391e-01 1.952402852475643158e-02
-3.016432933509349823e-02 6.028274297714233398e-01 2.233790233731269836e-02
-4.003952071070671082e-02 7.401067018508911133e-01 2.159111946821212769e-02
6.718484219163656235e-03 1.956116259098052979e-01 -1.259098853915929794e-02
8.356306701898574829e-02 5.304992198944091797e-01 1.604513078927993774e-02
-1.059406921267509460e-01 8.043137788772583008e-01 -7.590037770569324493e-03
-7.049224525690078735e-02 9.570178389549255371e-01 -8.844414725899696350e-03
-3.072277875617146492e-03 1.300733089447021484e-01 1.259599160403013229e-02
3.437078744173049927e-02 8.431465625762939453e-01 1.782564260065555573e-02
-1.351643167436122894e-02 2.673983871936798096e-01 1.812503486871719360e-02
1.026970334351062775e-02 1.308524608612060547e-01 -9.723412804305553436e-03
6.682293117046356201e-02 4.503781199455261230e-01 1.761306822299957275e-02
7.067049294710159302e-02 1.935167014598846436e-01 -1.104705035686492920e-02
9.573151916265487671e-02 8.372125625610351562e-01 8.860688656568527222e-03
1.215443201363086700e-02 3.953064084053039551e-01 -1.746798492968082428e-02
-3.912218287587165833e-02 1.022427380084991455e-01 -2.230285434052348137e-03
6.641596555709838867e-02 8.667975068092346191e-01 1.361674442887306213e-02
2.398557402193546295e-02 9.923665523529052734e-01 -1.082847081124782562e-02
7.777298241853713989e-02 4.029777348041534424e-01 -1.576574891805648804e-02
3.402383998036384583e-02 7.525106668472290039e-01 -1.720601692795753479e-02
6.616895645856857300e-02 5.295426845550537109e-01 -1.735747233033180237e-02
3.649451956152915955e-02 5.220727920532226562e-01 -1.843792572617530823e-02
3.717255592346191406e-02 6.988431811332702637e-01 1.990208029747009277e-02
5.609033256769180298e-02 6.974570751190185547e-01 -1.705198921263217926e-02
3.928536549210548401e-02 8.393602371215820312e-01 -1.538374647498130798e-02
-1.957596652209758759e-02 6.467332839965820312e-01 2.230034396052360535e-02
-1.037081331014633179e-01 2.931737601757049561e-01 8.871383033692836761e-05
-9.542053565382957458e-03 9.575241804122924805e-01 1.704304479062557220e-02
-5.726535618305206299e-02 5.282545685768127441e-01 2.132368832826614380e-02
2.949896641075611115e-02 1.017806053161621094e+00 1.179820392280817032e-02
2.192206867039203644e-02 8.111011981964111328e-02 -6.500122137367725372e-03
-7.781686726957559586e-04 1.051374435424804688e+00 1.238038111478090286e-02
-1.021741256117820740e-01 3.797975778579711914e-01 1.387050282210111618e-02
-2.898716554045677185e-02 6.295360922813415527e-01 -1.734707877039909363e-02
-9.749457240104675293e-02 5.709080100059509277e-01 -1.038420479744672775e-02
-1.287539452314376831e-01 4.651212692260742188e-01 1.143378671258687973e-03
-5.701935291290283203e-02 3.485395908355712891e-01 1.861866004765033722e-02
1.302624642848968506e-01 5.057064890861511230e-01 -7.577250711619853973e-03
9.192141145467758179e-02 4.048212170600891113e-01 1.398000121116638184e-02
6.613592803478240967e-02 5.908347368240356445e-01 1.805918104946613312e-02
7.077620178461074829e-02 7.053833007812500000e-01 1.662741601467132568e-02
3.672413155436515808e-02 1.053174138069152832e+00 -5.694486200809478760e-03
-3.858662396669387817e-02 4.255667328834533691e-01 2.094219066202640533e-02
-1.569177024066448212e-02 4.894823133945465088e-01 2.193320356309413910e-02
2.720772102475166321e-02 1.022622704505920410e+00 -8.999905548989772797e-03
-7.590398937463760376e-02 4.294556081295013428e-01 1.884996704757213593e-02
-4.979626089334487915e-02 9.413609504699707031e-01 -1.140556018799543381e-02
-7.639460265636444092e-02 5.003960728645324707e-01 -1.286631263792514801e-02
8.628502488136291504e-03 3.037987649440765381e-01 -1.580414362251758575e-02
-1.069205924868583679e-01 7.658859491348266602e-01 -8.040442131459712982e-03
-9.711891412734985352e-02 1.003877878189086914e+00 -1.066075405105948448e-03
-1.330902129411697388e-01 6.843447685241699219e-01 1.097104325890541077e-02
3.825537394732236862e-03 1.550367474555969238e-01 -1.075163297355175018e-02
-5.086657404899597168e-02 6.927815675735473633e-01 -1.570128649473190308e-02
2.635586075484752655e-02 2.667709290981292725e-01 1.742640882730484009e-02
4.760903120040893555e-02 7.233958840370178223e-01 1.881223917007446289e-02
8.875539526343345642e-03 8.515118360519409180e-01 1.923654787242412567e-02
4.882302135229110718e-02 3.156169950962066650e-01 1.724830083549022675e-02
-3.648183122277259827e-02 3.461484611034393311e-01 1.959221437573432922e-02
1.547754555940628052e-02 1.075489521026611328e+00 9.219356812536716461e-03
8.057044446468353271e-02 6.460740566253662109e-01 1.601158455014228821e-02
-7.966200262308120728e-02 6.887803077697753906e-01 2.019036933779716492e-02
-5.751529708504676819e-02 2.013425230979919434e-01 -7.062563672661781311e-03
-2.382734790444374084e-02 9.127357602119445801e-02 8.426078595221042633e-03
1.938459463417530060e-03 1.118332624435424805e+00 -1.398568740114569664e-03
1.143610924482345581e-01 5.800036787986755371e-01 1.036897860467433929e-02
-5.422406271100044250e-02 6.712244153022766113e-01 -1.555592752993106842e-02
1.086208969354629517e-02 4.716809391975402832e-01 -1.823223195970058441e-02
-3.075301460921764374e-02 1.087903499603271484e+00 -5.170360207557678223e-03
-1.169639378786087036e-01 5.436863899230957031e-01 -6.033269688487052917e-03
5.284377187490463257e-02 3.692696094512939453e-01 -1.670551858842372894e-02
1.250503659248352051e-01 7.237250208854675293e-01 2.581783803179860115e-03
2.429461106657981873e-02 1.649008095264434814e-01 -1.165021397173404694e-02
5.192777886986732483e-02 1.258876323699951172e-01 -8.923250250518321991e-03
1.261953711509704590e-01 5.526092052459716797e-01 -8.911265991628170013e-03
-2.481435239315032959e-02 4.585415422916412354e-01 -1.693146117031574249e-02
4.193032905459403992e-02 5.421426892280578613e-01 2.016606554388999939e-02
-5.386010557413101196e-02 1.013093709945678711e+00 -8.205421268939971924e-03
8.647058159112930298e-02 8.856607675552368164e-01 -8.832004852592945099e-03
1.215767860412597656e-01 3.216046988964080811e-01 4.962629638612270355e-03
4.520872980356216431e-02 3.218943476676940918e-01 -1.612802967429161072e-02
2.902323938906192780e-02 4.413167238235473633e-01 -1.804845780134201050e-02
1.162033900618553162e-02 1.038921773433685303e-01 -8.082569576799869537e-03
-4.916189610958099365e-02 2.787109315395355225e-01 1.715528033673763275e-02
8.124474436044692993e-02 5.668652653694152832e-01 -1.625124551355838776e-02
-5.041920579969882965e-03 4.550270438194274902e-01 2.155109867453575134e-02
7.296262681484222412e-02 6.678664684295654297e-01 1.679356768727302551e-02
1.085732281208038330e-01 6.286534070968627930e-01 -1.235994882881641388e-02
-6.875220686197280884e-02 8.343045711517333984e-01 -1.240370050072669983e-02
-7.495363056659698486e-02 3.433157205581665039e-01 1.690525189042091370e-02
9.888079017400741577e-02 3.995443284511566162e-01 -1.355543546378612518e-02
-7.623403519392013550e-02 3.818934261798858643e-01 -1.091288216412067413e-02
8.676309138536453247e-02 6.990522146224975586e-01 -1.453384943306446075e-02
4.011639952659606934e-02 2.501288354396820068e-01 -1.454135961830615997e-02
-2.244348451495170593e-02 7.886608242988586426e-01 -1.632092520594596863e-02
1.161189377307891846e-02 5.809092521667480469e-02 -3.715185215696692467e-03
-2.670082077383995056e-02 6.649209260940551758e-01 -1.733122579753398895e-02
-7.000660151243209839e-02 5.149587392807006836e-01 2.047857455909252167e-02
6.663173437118530273e-02 2.306509017944335938e-01 -1.280267164111137390e-02
6.336263567209243774e-02 9.206026792526245117e-01 -1.089666783809661865e-02
-6.844194140285253525e-03 4.390103518962860107e-01 -1.752227731049060822e-02
6.563095748424530029e-02 3.058234453201293945e-01 1.554436795413494110e-02
-8.457532525062561035e-02 6.450809240341186523e-01 -1.247127819806337357e-02
-1.141446977853775024e-01 4.430438578128814697e-01 1.321549806743860245e-02
1.001355499029159546e-01 3.710488677024841309e-01 -1.293648872524499893e-02
-6.111430004239082336e-02 5.509861707687377930e-01 2.127792499959468842e-02
8.244389295578002930e-02 1.713183522224426270e-01 8.271170780062675476e-03
-5.758001469075679779e-03 2.240961492061614990e-01 -1.312228292226791382e-02
5.276953428983688354e-02 9.471677541732788086e-01 -1.085330080240964890e-02
9.331190586090087891e-02 5.815480351448059082e-01 1.454427745193243027e-02
1.145896837115287781e-01 5.983653068542480469e-01 1.016318518668413162e-02
-5.984346568584442139e-02 3.296850025653839111e-01 1.792427152395248413e-02
8.227752149105072021e-02 2.392299473285675049e-01 1.152473781257867813e-02
5.219238251447677612e-02 9.757693409919738770e-01 -9.425511583685874939e-03
-9.467194229364395142e-02 8.377920389175415039e-01 1.695507578551769257e-02
-1.546490564942359924e-02 8.063658475875854492e-01 -1.628525741398334503e-02
-1.353427320718765259e-01 5.990974307060241699e-01 9.422592818737030029e-03
4.261692240834236145e-02 8.666965961456298828e-01 -1.451947540044784546e-02
1.955182664096355438e-02 6.492151618003845215e-01 2.129111066460609436e-02
2.754596807062625885e-02 4.910953044891357422e-01 2.081808447837829590e-02
1.909013651311397552e-02 9.130371212959289551e-01 -1.404645666480064392e-02
-8.935327082872390747e-02 9.597095251083374023e-01 -5.876899696886539459e-03
-6.425721943378448486e-02 9.137750864028930664e-01 -1.097025536000728607e-02
5.903471633791923523e-02 2.537075579166412354e-01 1.483965665102005005e-02
-6.953670829534530640e-02 3.641478419303894043e-01 -1.142884511500597000e-02
-9.957883507013320923e-02 9.272028207778930664e-01 1.353066787123680115e-02
3.732865303754806519e-02 2.291114628314971924e-01 -1.396389119327068329e-02
-2.964025549590587616e-02 9.456244707107543945e-01 1.770998165011405945e-02
-7.851894199848175049e-02 9.759544134140014648e-01 -6.962395273149013519e-03
9.980676323175430298e-02 4.295988678932189941e-01 1.297601684927940369e-02
-4.195557162165641785e-02 1.125279426574707031e+00 3.819266799837350845e-03
-3.558837249875068665e-02 6.558014154434204102e-01 2.219623327255249023e-02
-7.700471580028533936e-02 1.906410753726959229e-01 -1.094086561352014542e-03
-1.134624183177947998e-01 8.040062189102172852e-01 1.475541945546865463e-02
5.844008550047874451e-02 1.587522029876708984e-01 -1.036931201815605164e-02
1.236215680837631226e-01 3.590217828750610352e-01 -7.530560716986656189e-03
-7.517406344413757324e-02 9.376684427261352539e-01 1.618677750229835510e-02
-4.520720243453979492e-02 8.307729363441467285e-01 2.027812972664833069e-02
-9.707036614418029785e-02 2.686249911785125732e-01 8.612363599240779877e-03
4.729491844773292542e-02 1.751590967178344727e-01 -1.171816606074571609e-02
-1.252110004425048828e-01 7.456065416336059570e-01 -3.738202853128314018e-03
1.043735072016716003e-01 2.360539436340332031e-01 6.709882989525794983e-03
-4.616219922900199890e-02 5.440090298652648926e-01 -1.617588661611080170e-02
2.878846414387226105e-02 4.158724546432495117e-01 2.009020000696182251e-02
-3.710477147251367569e-03 6.644967198371887207e-01 -1.812506280839443207e-02
9.759797155857086182e-02 7.162628173828125000e-01 1.222350820899009705e-02
1.718397811055183411e-02 7.761307358741760254e-01 -1.713515818119049072e-02
1.168137192726135254e-01 7.393563389778137207e-01 6.263179704546928406e-03
-1.234798207879066467e-01 4.193003773689270020e-01 6.565359653905034065e-04
-5.101158749312162399e-04 4.482221603393554688e-02 1.399942208081483841e-03
-4.353254288434982300e-02 6.376489400863647461e-01 2.209283225238323212e-02
-2.047478221356868744e-02 1.066791176795959473e+00 -7.208288647234439850e-03
-8.570699021220207214e-03 1.213604807853698730e-01 -8.189335465431213379e-03
-1.184621006250381470e-01 3.615737557411193848e-01 4.784877412021160126e-03
-2.710649743676185608e-02 8.516368865966796875e-01 -1.503373682498931885e-02
3.594677895307540894e-02 5.663648247718811035e-01 -1.850283145904541016e-02
4.305738955736160278e-02 7.104355096817016602e-01 -1.747573539614677429e-02
-3.860183060169219971e-02 9.123972654342651367e-01 -1.301587559282779694e-02
-3.064052760601043701e-02 7.010843753814697266e-01 2.201816812157630920e-02
1.134418770670890808e-01 4.535047411918640137e-01 -1.183764822781085968e-02
-3.694837540388107300e-02 1.738692522048950195e-01 1.355468947440385818e-02
-3.374954313039779663e-02 5.665580034255981445e-01 2.223489619791507721e-02
-3.428208455443382263e-02 2.323890030384063721e-01 1.638543419539928436e-02
-2.298574522137641907e-02 3.060383498668670654e-01 1.901932060718536377e-02
-1.165700852870941162e-01 7.794185876846313477e-01 1.459387410432100296e-02
-6.510646641254425049e-02 1.097786426544189453e+00 1.261584809981286526e-03
-8.604601770639419556e-02 1.046890497207641602e+00 7.885473780333995819e-03
1.506137289106845856e-02 8.467028737068176270e-01 -1.584253460168838501e-02
4.559280350804328918e-02 7.769295573234558105e-01 -1.640055701136589050e-02
-9.266959130764007568e-02 4.047733247280120850e-01 1.634839922189712524e-02
8.584813028573989868e-02 3.189330697059631348e-01 1.334000099450349808e-02
4.806948080658912659e-02 9.797677397727966309e-01 1.149262487888336182e-02
7.179997861385345459e-02 2.228461205959320068e-01 1.240263786166906357e-02
-7.408304512500762939e-02 3.338118791580200195e-01 -9.943966753780841827e-03
-1.593571528792381287e-02 7.805992364883422852e-01 2.117302641272544861e-02
5.647313594818115234e-02 4.227705895900726318e-01 1.831491850316524506e-02
4.086048528552055359e-02 6.049922108650207520e-01 2.021449990570545197e-02
8.215933293104171753e-02 9.108580350875854492e-01 8.588878437876701355e-03
2.196647413074970245e-02 4.498520493507385254e-01 2.076070941984653473e-02
-4.907227307558059692e-02 2.829228043556213379e-01 -1.166447903960943222e-02
6.740268319845199585e-02 4.827606379985809326e-01 1.778122596442699432e-02
1.069103367626667023e-02 7.517648339271545410e-01 2.081313915550708771e-02
-8.872765302658081055e-02 8.649896979331970215e-01 1.700883172452449799e-02
3.873344883322715759e-02 7.895662188529968262e-01 1.856026798486709595e-02
-3.937587514519691467e-02 1.065946578979492188e+00 -6.325045600533485413e-03
9.802200645208358765e-02 7.652324438095092773e-01 1.094180531799793243e-02
-5.990389734506607056e-02 4.965490698814392090e-01 2.091982215642929077e-02
7.617166638374328613e-02 9.865072369575500488e-01 3.366672899574041367e-03
-1.304706931114196777e-01 6.225975155830383301e-01 -2.493975916877388954e-03
6.472531706094741821e-02 1.508895754814147949e-01 9.984753094613552094e-03
6.519254297018051147e-02 8.800040483474731445e-01 -1.233929581940174103e-02
1.128576174378395081e-01 2.157514691352844238e-01 -5.863215774297714233e-04
8.849811553955078125e-02 1.394850909709930420e-01 3.882268909364938736e-03
1.069156900048255920e-01 1.960604488849639893e-01 2.113725058734416962e-03
-2.683459222316741943e-02 8.791015744209289551e-01 1.949869655072689056e-02
-8.243607729673385620e-02 7.053071856498718262e-01 -1.249603927135467529e-02
-6.499522179365158081e-02 4.855146408081054688e-01 -1.403497718274593353e-02
3.096917830407619476e-02 5.093230009078979492e-01 2.073587290942668915e-02
-1.923698373138904572e-02 2.570345997810363770e-01 -1.342866569757461548e-02
-1.089293137192726135e-01 3.432930409908294678e-01 -1.776763470843434334e-03
1.002567261457443237e-02 1.022906780242919922e+00 1.332631800323724747e-02
1.312570124864578247e-01 6.495959162712097168e-01 2.359157428145408630e-03
2.476572617888450623e-02 9.206457138061523438e-01 1.646196283400058746e-02
6.361962109804153442e-02 1.253707110881805420e-01 8.482764475047588348e-03
-9.452298283576965332e-02 8.047002553939819336e-01 1.760563999414443970e-02
7.424074690788984299e-03 8.200159668922424316e-01 -1.641321368515491486e-02
-3.866659477353096008e-03 5.036421418190002441e-01 -1.813260279595851898e-02
-5.862526595592498779e-02 8.446096181869506836e-01 1.959232427179813385e-02
-8.227761089801788330e-02 5.386896133422851562e-01 1.971626095473766327e-02
-1.116757690906524658e-01 4.685932993888854980e-01 -6.023084744811058044e-03
-1.355146467685699463e-01 6.555673480033874512e-01 -1.801943872123956680e-04
2.948747016489505768e-02 4.724798798561096191e-01 2.059452794492244720e-02
-5.164638627320528030e-03 9.972754120826721191e-01 -1.119343843311071396e-02
3.720519691705703735e-02 1.037767052650451660e+00 9.354769252240657806e-03
-1.344251930713653564e-01 7.312726378440856934e-01 9.754049591720104218e-03
9.498371183872222900e-02 7.742297053337097168e-01 -1.173085812479257584e-02
-9.724524617195129395e-02 5.150519013404846191e-01 -9.914855472743511200e-03
-1.894928049296140671e-03 5.635653138160705566e-01 -1.838806271553039551e-02
-1.151346713304519653e-01 9.479345083236694336e-01 7.204899564385414124e-03
8.332148939371109009e-02 2.797191739082336426e-01 -1.288508903235197067e-02
-7.841876149177551270e-02 4.450422823429107666e-01 -1.185787189751863480e-02
9.402032941579818726e-02 9.286879301071166992e-01 3.144590882584452629e-04
4.975977540016174316e-02 4.998410940170288086e-01 -1.802416145801544189e-02
-9.872394055128097534e-02 6.333348751068115234e-01 1.843494549393653870e-02
-5.271137878298759460e-02 6.802857518196105957e-01 2.169171348214149475e-02
-5.074142012745141983e-03 5.159317255020141602e-01 2.201532199978828430e-02
-1.029593646526336670e-01 5.898904204368591309e-01 -9.526772424578666687e-03
-6.225422024726867676e-02 6.133944392204284668e-01 2.141961082816123962e-02
4.242215305566787720e-02 8.690500259399414062e-01 1.646387018263339996e-02
8.662984520196914673e-02 3.813757896423339844e-01 1.442812383174896240e-02
7.445971714332699776e-04 6.349979043006896973e-01 -1.835408061742782593e-02
6.692715734243392944e-02 6.340868473052978516e-01 1.777143962681293488e-02
3.706487640738487244e-02 6.736053824424743652e-01 2.012651413679122925e-02
-1.441761478781700134e-02 3.227637410163879395e-01 1.951846480369567871e-02
-7.943754643201828003e-02 7.542192935943603516e-01 1.970820315182209015e-02
-1.517852582037448883e-02 4.869356751441955566e-01 -1.763280108571052551e-02
1.674693077802658081e-02 5.604764819145202637e-01 2.156423963606357574e-02
-1.116467788815498352e-01 9.653161764144897461e-01 1.710847485810518265e-03
-8.592679351568222046e-02 8.845885992050170898e-01 -9.141827002167701721e-03
-1.264018192887306213e-02 3.841400742530822754e-01 -1.658960990607738495e-02
2.037179470062255859e-02 9.798211455345153809e-01 1.460154075175523758e-02
3.105738945305347443e-02 8.972040414810180664e-01 -1.416510716080665588e-02
-2.056372165679931641e-02 5.601365566253662109e-01 -1.774941757321357727e-02
7.260282058268785477e-03 2.152052223682403564e-01 1.642444171011447906e-02
1.093086227774620056e-01 5.359134674072265625e-01 1.169567555189132690e-02
-5.993252620100975037e-02 7.395036220550537109e-01 -1.458707638084888458e-02
7.309977430850267410e-03 1.029445767402648926e+00 -9.508954361081123352e-03
-9.440360963344573975e-02 8.600344657897949219e-01 -8.459867909550666809e-03
4.606712982058525085e-02 5.466220378875732422e-01 -1.825332455337047577e-02
-6.736702471971511841e-02 5.847114920616149902e-01 2.108173258602619171e-02
6.125544011592864990e-02 5.585571527481079102e-01 1.859758980572223663e-02
-1.669903285801410675e-02 2.163444161415100098e-01 1.639976166188716888e-02
-6.855283677577972412e-02 2.865350246429443359e-01 1.570373028516769409e-02
2.562916465103626251e-02 6.582193374633789062e-01 -1.833665370941162109e-02
-1.862351410090923309e-02 7.243014574050903320e-01 -1.723886094987392426e-02
1.063747778534889221e-01 5.635696053504943848e-01 -1.326780579984188080e-02
4.730671271681785583e-02 2.143782377243041992e-01 1.458211429417133331e-02
-8.228915743529796600e-03 3.582647442817687988e-01 2.023716643452644348e-02
3.042169474065303802e-02 4.667332470417022705e-01 -1.824327558279037476e-02
3.202634677290916443e-02 1.911438703536987305e-01 -1.271157711744308472e-02
-8.658444881439208984e-02 4.638141393661499023e-01 -1.096247415989637375e-02
2.553586848080158234e-02 1.098855972290039062e+00 -1.073294319212436676e-03
8.626134693622589111e-02 3.398028612136840820e-01 1.373563893139362335e-02
-8.371330797672271729e-02 9.106140136718750000e-01 -8.694708347320556641e-03
1.424943655729293823e-02 8.792866468429565430e-01 1.832241192460060120e-02
-5.960198119282722473e-02 1.497446298599243164e-01 -2.491868799552321434e-03
-6.587687134742736816e-02 8.907170891761779785e-01 1.821865327656269073e-02
1.032533794641494751e-01 8.147253990173339844e-01 7.685428485274314880e-03
1.272532790899276733e-01 3.835145235061645508e-01 -6.898827850818634033e-03
6.590360403060913086e-02 5.168038606643676758e-01 1.808110624551773071e-02
-8.873902261257171631e-02 2.148727178573608398e-01 4.485169425606727600e-03
7.687229663133621216e-02 7.778478264808654785e-01 -1.409590058028697968e-02
-5.417027696967124939e-02 1.053010225296020508e+00 -5.867407657206058502e-03
-3.357646614313125610e-02 4.550009369850158691e-01 2.144339494407176971e-02
-4.161656834185123444e-03 1.573473513126373291e-01 1.406284794211387634e-02
1.333090811967849731e-01 4.414064288139343262e-01 -5.396153777837753296e-03
-4.501463379710912704e-03 5.315428972244262695e-01 -1.824283227324485779e-02
1.009006723761558533e-01 1.766713559627532959e-01 -4.092424176633358002e-03
8.591839671134948730e-02 8.029183149337768555e-01 -1.230317167937755585e-02
-3.712023049592971802e-02 8.701356649398803711e-01 -1.414768025279045105e-02
5.151340365409851074e-02 8.160551190376281738e-01 -1.529732905328273773e-02
-1.213759034872055054e-01 7.125720381736755371e-01 1.439942698925733566e-02
6.295606959611177444e-03 7.538160085678100586e-01 -1.744902506470680237e-02
1.353249400854110718e-01 4.794638454914093018e-01 2.317686099559068680e-03
-5.604220181703567505e-02 1.353277862071990967e-01 -3.451593592762947083e-02
-4.628336802124977112e-02 1.086867302656173706e-01 -4.919788613915443420e-02
-6.925721466541290283e-02 8.256208151578903198e-02 -2.767346799373626709e-02
-6.310100853443145752e-02 1.739038378000259399e-01 1.188944932073354721e-02
4.588016495108604431e-02 -1.885816454887390137e-03 -6.549011170864105225e-02
5.864829942584037781e-02 -2.319886386394500732e-01 -3.983982652425765991e-02
6.565244495868682861e-02 -2.189439535140991211e-01 8.075051940977573395e-03
3.484734892845153809e-02 2.431992739439010620e-01 -2.241265028715133667e-02
8.464680612087249756e-02 -7.601417601108551025e-04 6.793483160436153412e-03
5.624096468091011047e-02 -7.025229185819625854e-02 -6.101331859827041626e-02
5.904939025640487671e-02 -2.058456838130950928e-01 2.434829249978065491e-02
7.432305812835693359e-02 5.845367908477783203e-02 3.050431981682777405e-02
-5.660604685544967651e-03 -2.192940115928649902e-01 4.807956889271736145e-02
-2.698492631316184998e-02 1.412054449319839478e-01 -5.414312705397605896e-02
6.011791899800300598e-02 -3.577387332916259766e-02 4.834501445293426514e-02
6.764902919530868530e-02 1.679168492555618286e-01 -8.677216246724128723e-03
-6.722320616245269775e-02 -2.069848477840423584e-01 -1.542353350669145584e-02
-3.933692350983619690e-02 -2.552646398544311523e-01 -4.918382689356803894e-02
2.313812449574470520e-02 7.528923451900482178e-02 6.741452962160110474e-02
4.896273836493492126e-02 -2.185050547122955322e-01 3.127268701791763306e-02
6.595603376626968384e-02 -2.362528592348098755e-01 -1.103044301271438599e-02
-1.586487982422113419e-03 -1.656434088945388794e-01 -7.513382285833358765e-02
5.186517722904682159e-03 -5.845949798822402954e-02 -7.786465436220169067e-02
5.094965919852256775e-02 -1.630955189466476440e-01 4.174959659576416016e-02
-3.896334767341613770e-02 -4.549635574221611023e-03 6.174109503626823425e-02
3.023408539593219757e-02 2.566290795803070068e-01 -1.881306059658527374e-02
4.187829047441482544e-02 1.010348834097385406e-02 6.153595075011253357e-02
6.454990804195404053e-02 -1.023569330573081970e-01 -5.299047380685806274e-02
-7.113976031541824341e-02 -6.660696119070053101e-02 -3.850240632891654968e-02
6.833837926387786865e-02 -1.503085047006607056e-01 -4.415378347039222717e-02
-6.571922451257705688e-02 -8.361620828509330750e-03 4.093769565224647522e-02
5.206978693604469299e-02 -1.336107552051544189e-01 -6.197050586342811584e-02
1.010976266115903854e-02 1.885789930820465088e-01 -4.986969009041786194e-02
-5.742054432630538940e-02 2.008878737688064575e-01 6.155243143439292908e-03
3.923911601305007935e-02 -3.123925328254699707e-01 -2.719318121671676636e-02
-5.226856842637062073e-02 1.208539754152297974e-01 -4.187593236565589905e-02
-1.894430071115493774e-02 7.723965495824813843e-02 6.786851584911346436e-02
2.983528003096580505e-02 -7.675135880708694458e-02 -7.418709993362426758e-02
1.252656802535057068e-02 -2.725533545017242432e-01 3.414104878902435303e-02
-5.503239482641220093e-02 -8.739936351776123047e-02 4.688208550214767456e-02
3.396830055862665176e-03 1.556247919797897339e-01 6.420978158712387085e-02
-2.199003659188747406e-02 -1.757461577653884888e-01 5.295333638787269592e-02
-3.841661661863327026e-02 2.090840190649032593e-01 4.171280935406684875e-02
-6.414105743169784546e-02 -1.722184568643569946e-01 2.242760173976421356e-02
6.564889848232269287e-02 -1.169914975762367249e-01 -5.096185952425003052e-02
-4.914469271898269653e-02 -2.013505995273590088e-01 3.315636888146400452e-02
-1.332406327128410339e-02 -1.134859099984169006e-01 6.295206397771835327e-02
-3.200719878077507019e-02 2.422050088644027710e-01 3.519547358155250549e-02
-7.432255893945693970e-02 8.221926540136337280e-02 -1.515588629990816116e-02
-8.131303824484348297e-03 9.966473281383514404e-02 -6.562332063913345337e-02
6.656258553266525269e-02 -1.167133171111345291e-02 4.298765212297439575e-02
4.983454570174217224e-02 1.187580376863479614e-01 -4.910401999950408936e-02
5.187022686004638672e-02 -2.672855257987976074e-01 -3.614577278494834900e-02
-6.856644153594970703e-02 -1.690093725919723511e-01 -3.076797164976596832e-02
-7.728327810764312744e-02 -1.296458542346954346e-01 -7.804114371538162231e-03
-4.115916416049003601e-02 -1.421662271022796631e-01 4.993907734751701355e-02
-2.929200604557991028e-02 1.262388527393341064e-01 -5.588600039482116699e-02
1.704455167055130005e-02 -1.701368838548660278e-01 5.549336597323417664e-02
-4.953635111451148987e-02 6.140907108783721924e-02 -5.373582243919372559e-02
2.433578111231327057e-02 -1.369072645902633667e-01 5.836619064211845398e-02
-8.616470731794834137e-04 1.135150641202926636e-01 -6.431820988655090332e-02
-6.137176603078842163e-02 -2.371785640716552734e-01 -1.621118746697902679e-02
4.500430449843406677e-02 -2.413298934698104858e-01 2.802312001585960388e-02
8.522522449493408203e-02 9.447975084185600281e-03 -2.495197346433997154e-03
3.890901803970336914e-02 1.341666430234909058e-01 -5.283181369304656982e-02
7.709039747714996338e-02 9.731211513280868530e-02 1.673016883432865143e-02
7.126096636056900024e-02 1.059354841709136963e-01 2.907054498791694641e-02
-4.418035969138145447e-02 2.428692728281021118e-01 1.030768360942602158e-02
-6.063169240951538086e-02 5.586553364992141724e-02 4.533997550606727600e-02
3.233559057116508484e-02 2.716208994388580322e-01 -3.520460100844502449e-03
-1.128693763166666031e-02 -3.219605982303619385e-02 -7.609539479017257690e-02
-2.623018622398376465e-02 2.748336791992187500e-01 1.862098835408687592e-02
7.982928305864334106e-02 -1.980732753872871399e-02 -3.134103119373321533e-02
1.308083906769752502e-02 -3.130514025688171387e-01 -4.783548414707183838e-02
-4.390250891447067261e-02 -1.550022959709167480e-01 -6.194756552577018738e-02
4.265164211392402649e-02 1.353289633989334106e-01 5.493506789207458496e-02
6.318286806344985962e-02 1.892499178647994995e-01 1.516020763665437698e-02
-5.422972887754440308e-02 -2.180716246366500854e-01 -4.299598932266235352e-02
-1.680674403905868530e-02 -3.201537728309631348e-01 -4.121293500065803528e-02
1.981026865541934967e-02 2.094148248434066772e-01 -4.259732738137245178e-02
-3.980344161391258240e-02 -2.226938605308532715e-01 3.523147851228713989e-02
-5.108790472149848938e-02 9.806734323501586914e-02 5.111423507332801819e-02
3.381856903433799744e-02 -2.265088260173797607e-01 -6.232237815856933594e-02
-6.881773471832275391e-02 1.433955878019332886e-01 9.273759089410305023e-03
2.453574538230895996e-02 2.531553246080875397e-02 6.803863495588302612e-02
-7.290464639663696289e-02 9.531734138727188110e-02 -1.496274676173925400e-02
5.753018707036972046e-02 1.267417818307876587e-01 4.432399570941925049e-02
3.412672877311706543e-02 -2.291762083768844604e-01 3.848124668002128601e-02
-3.305572643876075745e-02 -2.721448838710784912e-01 -4.937911406159400940e-02
-3.478256985545158386e-02 2.640436887741088867e-01 6.554409861564636230e-03
-2.389613538980484009e-02 -1.048586890101432800e-01 6.148560717701911926e-02
8.695146068930625916e-03 9.899605810642242432e-02 -6.628103554248809814e-02
2.226432785391807556e-02 3.997104242444038391e-03 -7.358191162347793579e-02
-6.313224881887435913e-02 -2.280027568340301514e-01 -3.333130152896046638e-03
2.486290410161018372e-02 2.693790197372436523e-01 2.977883070707321167e-02
7.916215807199478149e-02 7.732015103101730347e-02 1.566636748611927032e-02
-7.020825892686843872e-02 7.876260578632354736e-02 2.961942553520202637e-02
-6.599833071231842041e-02 1.183324009180068970e-01 -2.425935491919517517e-02
-1.093071326613426208e-02 -1.626560986042022705e-01 5.728815868496894836e-02
3.559123352169990540e-02 5.253538489341735840e-02 -6.581299006938934326e-02
-7.520434260368347168e-02 9.669842571020126343e-02 4.206554032862186432e-03
-6.067317724227905273e-02 1.216903328895568848e-01 3.798890113830566406e-02
1.937292516231536865e-03 2.974018752574920654e-01 9.660324081778526306e-03
-5.642858147621154785e-02 -2.411208450794219971e-01 -3.116506524384021759e-02
1.567652262747287750e-02 4.756850749254226685e-02 6.972432136535644531e-02
5.364160984754562378e-02 -2.718884050846099854e-01 2.869406016543507576e-03
6.092040613293647766e-02 -2.566275894641876221e-01 -8.615239523351192474e-03
2.777965925633907318e-02 9.046548604965209961e-02 6.536939740180969238e-02
3.866686299443244934e-02 7.642087340354919434e-02 -6.185971572995185852e-02
4.736960679292678833e-02 1.199259310960769653e-01 5.363747105002403259e-02
-6.930369883775711060e-02 3.016500361263751984e-02 -3.647730126976966858e-02
6.018512696027755737e-02 1.365052014589309692e-01 -3.580158948898315430e-02
4.440174624323844910e-02 1.715134382247924805e-01 4.827200621366500854e-02
-7.504182308912277222e-02 -1.401094943284988403e-01 -1.936287991702556610e-02
1.215856242924928665e-02 -3.543764352798461914e-02 -7.691293209791183472e-02
-3.033584356307983398e-02 -9.089845418930053711e-02 6.069052591919898987e-02
6.247905641794204712e-02 2.582838572561740875e-02 4.720734804868698120e-02
4.425917752087116241e-03 -2.059968858957290649e-01 5.091597139835357666e-02
-4.886146634817123413e-02 7.064083218574523926e-02 5.482235923409461975e-02
3.008366376161575317e-02 1.708328276872634888e-01 5.652987211942672729e-02
-5.811668187379837036e-02 1.063447445631027222e-01 4.348314180970191956e-02
-5.398620665073394775e-02 1.692834794521331787e-01 3.626299649477005005e-02
5.743466690182685852e-02 -2.673080563545227051e-01 -2.168092317879199982e-02
-4.104412719607353210e-02 3.876443952322006226e-02 -6.164631620049476624e-02
7.913387566804885864e-02 -2.864823117852210999e-02 2.410633489489555359e-02
-2.731924690306186676e-02 2.613742947578430176e-01 -1.366931479424238205e-02
5.605112761259078979e-02 -2.460372895002365112e-01 1.368287298828363419e-02
-5.503436550498008728e-02 -1.036774888634681702e-01 4.514658078551292419e-02
3.259869292378425598e-03 1.740880906581878662e-01 -5.352939665317535400e-02
-2.776247262954711914e-02 2.710970938205718994e-01 -4.035403486341238022e-03
-5.995166674256324768e-02 -1.442945599555969238e-01 -4.876239225268363953e-02
4.190170764923095703e-02 -1.881304383277893066e-01 -6.349981576204299927e-02
-7.351086288690567017e-02 8.686728775501251221e-02 1.981461793184280396e-02
9.748074226081371307e-03 -3.359646499156951904e-01 -3.672726079821586609e-02
2.669286727905273438e-02 6.301466375589370728e-02 -6.762942671775817871e-02
1.213668379932641983e-03 -4.666722565889358521e-02 6.914240866899490356e-02
-7.674275338649749756e-02 8.087056875228881836e-02 4.282702691853046417e-03
-1.244120206683874130e-02 1.773259192705154419e-01 -5.117390677332878113e-02
-2.530517987906932831e-02 3.155933320522308350e-02 -6.910438090562820435e-02
-1.150139700621366501e-02 2.930642068386077881e-01 9.509073570370674133e-03
-3.967109695076942444e-02 9.612625092267990112e-02 -5.553198605775833130e-02
9.780326858162879944e-03 2.009026147425174713e-02 -7.423146069049835205e-02
7.602630555629730225e-02 -1.725287549197673798e-02 3.026236966252326965e-02
-5.010533705353736877e-02 -1.853630989789962769e-01 3.602135926485061646e-02
-6.770885735750198364e-02 -1.881438791751861572e-01 -2.644884586334228516e-02
-8.069381117820739746e-02 -2.289037406444549561e-02 8.343474008142948151e-03
-7.221034169197082520e-02 -6.319004297256469727e-02 2.887556701898574829e-02
3.805971890687942505e-02 -9.434487670660018921e-02 5.806302651762962341e-02
-2.500539645552635193e-02 6.807321310043334961e-02 -6.566196680068969727e-02
3.198374807834625244e-02 -3.291909992694854736e-01 -2.000174671411514282e-02
-2.038169652223587036e-02 1.457945257425308228e-01 6.238283589482307434e-02
