-5.587950348854064941e-03 -1.763079687952995300e-02 -3.710294514894485474e-02
1.788577139377593994e-01 -8.670265972614288330e-02 9.323748946189880371e-02
2.285854220390319824e-01 -5.731060728430747986e-02 -3.670491278171539307e-02
8.893966674804687500e-02 -9.497679769992828369e-03 5.257471650838851929e-02
1.419509649276733398e-01 -7.219563424587249756e-02 -1.647315770387649536e-01
7.072827965021133423e-02 -8.292604982852935791e-02 2.108684033155441284e-01
2.164898365736007690e-01 -7.652129232883453369e-02 7.029820978641510010e-02
1.557289808988571167e-01 -2.158834971487522125e-02 -1.347576677799224854e-01
7.441571354866027832e-02 -9.223192930221557617e-03 3.345414251089096069e-02
1.735657006502151489e-01 -8.717577159404754639e-02 4.506330937147140503e-02
1.133445650339126587e-01 -9.115895628929138184e-02 -1.994869112968444824e-02
-2.058425545692443848e-02 -3.342296928167343140e-02 -1.852647364139556885e-01
2.198539674282073975e-01 -4.447191208600997925e-02 -7.384642958641052246e-02
1.393149793148040771e-01 -9.028001129627227783e-02 1.408052742481231689e-01
2.690033614635467529e-02 -8.326884359121322632e-02 -1.005578860640525818e-01
1.453387737274169922e-01 -1.254209503531455994e-02 -4.517329484224319458e-02
2.550406754016876221e-02 -4.769200086593627930e-02 -2.535882592201232910e-01
2.074704021215438843e-01 -2.972474694252014160e-02 -5.585046112537384033e-02
2.281512320041656494e-01 -3.876260668039321899e-02 1.547807455062866211e-01
2.332731187343597412e-01 -5.897124111652374268e-02 1.791960000991821289e-01
-3.858122974634170532e-02 -3.083926253020763397e-02 1.282584946602582932e-02
1.782697737216949463e-01 -7.941393554210662842e-02 -6.161472946405410767e-02
6.109446659684181213e-02 -9.164315462112426758e-02 6.893941760063171387e-02
1.548763364553451538e-01 -8.854544162750244141e-02 1.496385037899017334e-01
7.976024597883224487e-02 -1.157239824533462524e-02 9.069487452507019043e-02
1.518963277339935303e-02 -8.577391505241394043e-02 -1.846502348780632019e-02
2.451758831739425659e-02 -2.186924405395984650e-02 -1.920649409294128418e-01
2.329345345497131348e-01 -6.558579951524734497e-02 1.505808830261230469e-01
-1.154389977455139160e-02 -2.363129146397113800e-02 6.241695582866668701e-02
1.696709543466567993e-01 -2.817307226359844208e-02 2.176005542278289795e-01
-2.240296453237533569e-02 -6.331387907266616821e-02 -1.674181967973709106e-01
2.775769680738449097e-02 -8.297833055257797241e-02 1.463451683521270752e-01
1.595274060964584351e-01 -8.609512448310852051e-02 1.809207051992416382e-01
1.208203211426734924e-01 -9.254997968673706055e-02 3.471620008349418640e-02
4.934251308441162109e-02 -2.702810615301132202e-02 2.015660852193832397e-01
9.976528584957122803e-02 -8.462011814117431641e-03 -2.704752609133720398e-03
1.607239544391632080e-01 -3.106549941003322601e-02 2.414134889841079712e-01
2.343497574329376221e-01 -6.568907946348190308e-02 4.277031868696212769e-02
5.611111968755722046e-02 -2.801204472780227661e-02 -2.350630462169647217e-01
1.132300645112991333e-01 -8.648702502250671387e-02 2.044901102781295776e-01
1.677222549915313721e-01 -1.528297364711761475e-02 6.734713912010192871e-02
1.227271854877471924e-01 -7.671474665403366089e-02 2.670717835426330566e-01
-1.802153885364532471e-02 -2.134842611849308014e-02 -7.966691255569458008e-02
1.414359807968139648e-01 -8.922073245048522949e-02 -1.637534424662590027e-02
1.077845096588134766e-01 -7.498064637184143066e-02 2.721115946769714355e-01
1.656567305326461792e-02 -1.343932002782821655e-02 -5.200310051441192627e-02
-3.871399909257888794e-02 -6.820391863584518433e-02 -7.013727724552154541e-02
1.406393945217132568e-01 -9.131623804569244385e-02 1.046382337808609009e-01
7.775485515594482422e-03 -8.107468485832214355e-02 1.125133782625198364e-01
1.123277470469474792e-01 -1.197821274399757385e-02 1.019959598779678345e-01
1.422900259494781494e-01 -4.022597149014472961e-02 -2.170878946781158447e-01
6.048929318785667419e-02 -1.007424667477607727e-02 3.794783726334571838e-02
8.826557546854019165e-02 -8.606335520744323730e-02 -1.049021184444427490e-01
1.936305761337280273e-01 -2.755169384181499481e-02 -8.780070394277572632e-02
-2.742977440357208252e-02 -2.425543218851089478e-02 -2.255344390869140625e-02
7.178629934787750244e-02 -3.774166107177734375e-02 -2.567348182201385498e-01
1.074476540088653564e-01 -1.945098489522933960e-02 1.860457658767700195e-01
-7.046714425086975098e-03 -8.124359697103500366e-02 2.076876163482666016e-02
1.169138327240943909e-01 -7.421156018972396851e-02 -1.771498471498489380e-01
3.752655908465385437e-02 -3.105596266686916351e-02 -2.400184571743011475e-01
1.310334205627441406e-01 -6.985346227884292603e-02 -1.857931166887283325e-01
2.035523951053619385e-02 -7.501810789108276367e-02 -1.666893661022186279e-01
1.773491799831390381e-01 -1.829745620489120483e-02 1.034744977951049805e-01
1.056324541568756104e-01 -2.168132178485393524e-02 2.025757879018783569e-01
7.431390881538391113e-02 -2.405866421759128571e-02 2.056668102741241455e-01
-1.539412885904312134e-02 -6.355185806751251221e-02 -1.801757663488388062e-01
2.296152710914611816e-01 -4.712538421154022217e-02 1.880067586898803711e-01
1.656201183795928955e-01 -1.807648688554763794e-02 -8.018756657838821411e-02
-1.714152097702026367e-02 -3.690040484070777893e-02 1.352597326040267944e-01
-2.470334619283676147e-02 -2.888314425945281982e-02 6.506423652172088623e-02
4.426171630620956421e-02 -1.601156219840049744e-02 -1.612236797809600830e-01
-1.977569609880447388e-02 -2.778615802526473999e-02 -1.575063318014144897e-01
1.335930675268173218e-01 -1.034611091017723083e-02 -1.182219013571739197e-03
1.952160298824310303e-01 -2.094879932701587677e-02 7.023027539253234863e-02
4.458178952336311340e-02 -1.906853169202804565e-02 -1.870444566011428833e-01
1.019323840737342834e-01 -9.256705641746520996e-02 8.878022432327270508e-03
7.241308689117431641e-03 -8.465126901865005493e-02 1.902741752564907074e-02
1.639323830604553223e-01 -4.754021763801574707e-02 -1.943277567625045776e-01
9.789770841598510742e-02 -8.877520263195037842e-02 -6.976471841335296631e-02
1.245699599385261536e-01 -9.202837944030761719e-02 2.000609971582889557e-02
2.356193661689758301e-01 -3.872054815292358398e-02 4.381470009684562683e-02
8.193046599626541138e-02 -5.795072391629219055e-02 -2.477524876594543457e-01
1.538223028182983398e-01 -7.202076911926269531e-02 -1.514528989791870117e-01
1.430696845054626465e-01 -2.504631318151950836e-02 2.182153612375259399e-01
4.194503650069236755e-02 -1.396883651614189148e-02 8.088266849517822266e-02
5.241138860583305359e-02 -8.164019137620925903e-02 -1.407893449068069458e-01
6.876066327095031738e-02 -3.035335429012775421e-02 -2.422806620597839355e-01
9.667062759399414062e-02 -4.601462185382843018e-02 2.931750416755676270e-01
4.845442995429039001e-02 -1.007067784667015076e-02 -6.065192073583602905e-02
1.612340509891510010e-01 -1.371090859174728394e-02 3.604505956172943115e-02
-6.188839673995971680e-03 -2.828636392951011658e-02 -1.896698474884033203e-01
6.304785609245300293e-02 -8.966185152530670166e-02 1.293885856866836548e-01
1.859621405601501465e-01 -1.832972839474678040e-02 2.473807707428932190e-02
1.296416074037551880e-01 -5.309911444783210754e-02 3.055080771446228027e-01
-3.133822977542877197e-02 -7.272588461637496948e-02 -4.498199373483657837e-02
2.236229479312896729e-01 -4.560426995158195496e-02 2.030237466096878052e-01
-4.980034381151199341e-02 -3.613762184977531433e-02 -6.966222077608108521e-02
-4.464707523584365845e-02 -3.855413943529129028e-02 -1.310292184352874756e-01
2.169249057769775391e-01 -7.423384487628936768e-02 2.237419784069061279e-02
4.710984602570533752e-02 -8.870761096477508545e-02 -4.763650894165039062e-02
3.711063414812088013e-02 -1.077581197023391724e-02 -2.600412815809249878e-02
-4.770732671022415161e-02 -6.394931674003601074e-02 -4.593853652477264404e-02
1.678785681724548340e-02 -8.269929885864257812e-02 -8.939023315906524658e-02
1.485935449600219727e-01 -9.089218080043792725e-02 8.137744665145874023e-02
9.938734769821166992e-02 -1.779746636748313904e-02 1.710550487041473389e-01
7.764056324958801270e-02 -7.660366594791412354e-02 -1.801734864711761475e-01
6.395748257637023926e-02 -4.828593879938125610e-02 -2.618170976638793945e-01
3.637313470244407654e-02 -2.082360722124576569e-02 1.453970372676849365e-01
8.549899607896804810e-02 -1.719275489449501038e-02 1.610329598188400269e-01
2.224089801311492920e-01 -7.427921891212463379e-02 9.034208953380584717e-02
2.675490081310272217e-02 -7.557235658168792725e-02 1.976821273565292358e-01
-5.503647029399871826e-03 -7.948478311300277710e-02 -7.227331399917602539e-02
1.267401874065399170e-01 -8.736854791641235352e-02 1.940350681543350220e-01
1.756597608327865601e-01 -6.689974665641784668e-02 -1.412200778722763062e-01
2.163265347480773926e-01 -7.557813823223114014e-02 4.102692008018493652e-02
2.860141545534133911e-02 -6.438567489385604858e-02 -2.244792580604553223e-01
6.604230403900146484e-02 -1.577206701040267944e-02 -1.670359820127487183e-01
-1.036350429058074951e-02 -4.119497537612915039e-02 -2.200843244791030884e-01
1.614589691162109375e-01 -8.010210841894149780e-02 -8.934628963470458984e-02
1.719347536563873291e-01 -8.618760108947753906e-02 1.529144495725631714e-01
-2.002800256013870239e-02 -7.467684894800186157e-02 7.450802624225616455e-02
7.829385250806808472e-02 -7.669391483068466187e-02 2.515817284584045410e-01
1.150613278150558472e-02 -2.328826859593391418e-02 1.217553243041038513e-01
2.128823846578598022e-01 -7.037754356861114502e-02 2.051523476839065552e-01
-1.260703802108764648e-02 -5.156337097287178040e-02 1.754864305257797241e-01
6.346862018108367920e-02 -9.093191474676132202e-03 6.667023524641990662e-03
8.712442964315414429e-02 -1.113790646195411682e-02 -1.104457527399063110e-01
3.303659334778785706e-02 -2.712016925215721130e-02 -2.247339785099029541e-01
1.017021015286445618e-01 -6.650954484939575195e-02 -2.181699872016906738e-01
1.226107180118560791e-01 -9.274283051490783691e-02 6.350780278444290161e-02
-5.162184685468673706e-02 -5.928191170096397400e-02 -6.966546177864074707e-02
2.269087731838226318e-01 -4.389324411749839783e-02 -4.608586430549621582e-02
2.127744257450103760e-02 -3.351824730634689331e-02 -2.379533052444458008e-01
-8.297584950923919678e-03 -8.005826175212860107e-02 -4.601048678159713745e-02
2.155133783817291260e-01 -7.233703136444091797e-02 1.833657920360565186e-01
1.532355546951293945e-01 -8.533876389265060425e-02 1.978930830955505371e-01
1.258242130279541016e-01 -1.385049521923065186e-02 -1.111954450607299805e-01
1.914038956165313721e-01 -3.572157025337219238e-02 2.311354279518127441e-01
1.010018214583396912e-01 -8.974678814411163330e-03 3.415949270129203796e-02
1.973893791437149048e-01 -2.198819071054458618e-02 -3.806021064519882202e-03
2.043250203132629395e-01 -2.594615891575813293e-02 -3.172784298658370972e-02
3.573920205235481262e-02 -8.885344862937927246e-02 6.880575418472290039e-02
9.708594530820846558e-02 -9.202087670564651489e-02 1.212899535894393921e-01
1.744663715362548828e-01 -3.993887081742286682e-02 2.657144069671630859e-01
7.481268793344497681e-02 -1.199534162878990173e-02 -1.256034225225448608e-01
1.954073160886764526e-01 -5.581984296441078186e-02 2.685662508010864258e-01
-5.364700406789779663e-02 -5.512297526001930237e-02 -8.324809372425079346e-02
1.560969203710556030e-01 -4.401640221476554871e-02 2.878316640853881836e-01
1.461864113807678223e-01 -9.017400443553924561e-02 1.754903420805931091e-02
1.472577303647994995e-01 -1.347367092967033386e-02 -6.066288799047470093e-02
-8.512362837791442871e-04 -3.442020341753959656e-02 1.620528995990753174e-01
1.419223546981811523e-01 -3.109164163470268250e-02 2.515313625335693359e-01
-2.233497798442840576e-03 -1.714250072836875916e-02 -1.491409540176391602e-02
-2.989972382783889771e-02 -2.932835556566715240e-02 4.668840765953063965e-02
1.206679195165634155e-01 -9.658217430114746094e-03 3.375083953142166138e-02
1.920911371707916260e-01 -8.344763517379760742e-02 4.842836409807205200e-02
3.050392866134643555e-02 -8.838350325822830200e-02 -3.742931410670280457e-03
8.054910600185394287e-02 -9.101311862468719482e-02 -3.341091796755790710e-02
1.197422221302986145e-01 -6.226891279220581055e-02 -2.198818922042846680e-01
-1.614898443222045898e-03 -7.941494882106781006e-02 9.892860800027847290e-02
2.204568088054656982e-01 -2.959603630006313324e-02 8.087143301963806152e-02
1.250427365303039551e-01 -8.530382812023162842e-02 -9.126704186201095581e-02
1.676248311996459961e-01 -3.027919493615627289e-02 -1.599923968315124512e-01
1.902145594358444214e-01 -2.164658345282077789e-02 -4.036173224449157715e-02
-1.787344366312026978e-02 -3.767126053571701050e-02 -2.029140144586563110e-01
5.179877579212188721e-02 -1.832315698266029358e-02 1.441537439823150635e-01
1.472335755825042725e-01 -8.854499459266662598e-02 1.628854274749755859e-01
2.125903666019439697e-01 -2.687490545213222504e-02 9.869681671261787415e-03
1.015549749135971069e-01 -9.298577904701232910e-02 8.866531401872634888e-02
5.970989167690277100e-02 -6.333566457033157349e-02 2.731859982013702393e-01
3.112617135047912598e-02 -1.188879832625389099e-02 5.561847239732742310e-03
1.531362533569335938e-02 -6.762004643678665161e-02 -2.023780643939971924e-01
2.080169320106506348e-02 -5.378587543964385986e-02 2.352259159088134766e-01
2.555987983942031860e-02 -8.697915077209472656e-02 -3.205705806612968445e-02
8.486904203891754150e-03 -1.578152924776077271e-02 1.570275425910949707e-02
6.696573644876480103e-02 -1.374579966068267822e-02 1.115599870681762695e-01
4.621580243110656738e-02 -6.124147400259971619e-02 -2.408164739608764648e-01
2.503023296594619751e-02 -2.488834597170352936e-02 1.577998697757720947e-01
1.140811443328857422e-01 -1.458691433072090149e-02 -1.342047601938247681e-01
1.502913683652877808e-01 -9.026773273944854736e-02 3.661217167973518372e-02
1.858194619417190552e-01 -8.309496939182281494e-02 1.634529680013656616e-01
1.414439231157302856e-01 -1.931696757674217224e-02 1.750032156705856323e-01
1.762651503086090088e-01 -8.313980698585510254e-02 1.874614059925079346e-01
7.670372724533081055e-03 -2.269952185451984406e-02 -1.776939183473587036e-01
1.530588120222091675e-01 -5.797018110752105713e-02 -1.979276984930038452e-01
1.544761657714843750e-01 -1.522981375455856323e-02 1.089800894260406494e-01
4.505954310297966003e-02 -1.211985573172569275e-02 5.527856573462486267e-02
9.012736380100250244e-02 -9.232069551944732666e-02 1.078536212444305420e-01
9.116275608539581299e-02 -6.274337321519851685e-02 -2.339439988136291504e-01
6.774280965328216553e-02 -1.768805831670761108e-02 -1.827131360769271851e-01
1.039464771747589111e-02 -7.755087316036224365e-02 1.528418511152267456e-01
2.377156913280487061e-01 -6.285524368286132812e-02 1.338050365447998047e-01
8.045230060815811157e-02 -9.280656278133392334e-02 2.971152588725090027e-02
-2.049717307090759277e-02 -2.166120894253253937e-02 -5.552859604358673096e-02
4.598014056682586670e-03 -8.310236036777496338e-02 6.467179954051971436e-02
-4.730404168367385864e-02 -6.451290100812911987e-02 -1.351672783493995667e-02
-3.567969053983688354e-02 -4.217892885208129883e-02 9.830494225025177002e-02
1.067671179771423340e-02 -6.162224337458610535e-02 2.143933027982711792e-01
5.305755883455276489e-02 -2.355090528726577759e-02 1.850500106811523438e-01
1.240106746554374695e-01 -5.291093513369560242e-02 -2.336227893829345703e-01
-1.715245842933654785e-02 -6.981168687343597412e-02 -1.416914761066436768e-01
2.148040235042572021e-01 -6.997878849506378174e-02 -2.997032925486564636e-02
6.593566387891769409e-02 -8.749608695507049561e-02 1.644110828638076782e-01
7.150624692440032959e-02 -1.086042076349258423e-02 7.120782136917114258e-02
6.765329837799072266e-02 -5.603653192520141602e-02 2.846783399581909180e-01
1.627843081951141357e-01 -8.842548727989196777e-02 2.828576788306236267e-02
2.029746472835540771e-01 -5.340194329619407654e-02 -1.211221665143966675e-01
1.092505306005477905e-01 -1.019546017050743103e-02 6.756901741027832031e-02
1.429406702518463135e-01 -1.158483698964118958e-02 4.476990550756454468e-02
1.122304946184158325e-01 -2.065927721560001373e-02 -1.835895925760269165e-01
2.035929560661315918e-01 -6.785537302494049072e-02 2.375431507825851440e-01
8.229368925094604492e-02 -8.291332423686981201e-02 2.203460335731506348e-01
2.120527029037475586e-01 -2.933187596499919891e-02 1.375677883625030518e-01
2.927298098802566528e-02 -8.716471493244171143e-02 8.905296772718429565e-02
1.991592943668365479e-01 -2.920902520418167114e-02 1.774573326110839844e-01
5.479387938976287842e-03 -6.985642015933990479e-02 1.834822744131088257e-01
8.093431591987609863e-03 -1.901077479124069214e-02 7.075130194425582886e-02
3.827429190278053284e-02 -8.957502245903015137e-02 1.227780524641275406e-02
1.072884723544120789e-01 -3.450533747673034668e-02 2.675599157810211182e-01
6.161156296730041504e-02 -9.187230467796325684e-02 5.244165658950805664e-02
9.298411011695861816e-02 -1.665689051151275635e-02 -1.687358766794204712e-01
2.025273144245147705e-01 -2.353452891111373901e-02 9.018200635910034180e-02
4.165253043174743652e-02 -1.135123893618583679e-02 -8.806367963552474976e-02
6.910240650177001953e-02 -2.062659710645675659e-02 1.791188865900039673e-01
1.179406046867370605e-01 -8.870442956686019897e-02 1.803992241621017456e-01
-2.957408130168914795e-02 -3.333055973052978516e-02 7.983693480491638184e-02
1.099890321493148804e-01 -3.371356427669525146e-02 -2.346091568470001221e-01
3.990750387310981750e-02 -7.686159014701843262e-02 -1.700894087553024292e-01
-1.011190563440322876e-02 -8.025135844945907593e-02 -2.295226976275444031e-02
1.690485328435897827e-01 -8.573960512876510620e-02 1.681590378284454346e-01
1.634119451045989990e-01 -7.402995973825454712e-02 -1.274489164352416992e-01
2.112604677677154541e-01 -4.145283252000808716e-02 -9.544777870178222656e-02
8.853364735841751099e-02 -1.538259163498878479e-02 1.445646882057189941e-01
1.727242171764373779e-01 -5.053793266415596008e-02 -1.805563122034072876e-01
4.536046460270881653e-02 -7.032649219036102295e-02 2.440550923347473145e-01
2.986507117748260498e-02 -1.828804239630699158e-02 -1.702564954757690430e-01
2.728298306465148926e-02 -1.402296498417854309e-02 4.837209731340408325e-02
1.486902236938476562e-01 -2.465820871293544769e-02 -1.647630333900451660e-01
4.923738539218902588e-02 -1.458673924207687378e-02 1.011778637766838074e-01
7.551221549510955811e-02 -8.549708127975463867e-02 1.948907822370529175e-01
5.444104224443435669e-02 -9.038951992988586426e-02 -2.000618726015090942e-02
-2.268630266189575195e-02 -7.607333362102508545e-02 2.969700843095779419e-02
7.951623946428298950e-02 -9.285179525613784790e-02 5.946888774633407593e-02
1.666280627250671387e-02 -1.336430385708808899e-02 -3.635122999548912048e-02
1.809398084878921509e-02 -7.704372704029083252e-02 1.733600944280624390e-01
1.505256444215774536e-01 -1.803333312273025513e-02 -1.148981302976608276e-01
1.678959280252456665e-02 -1.981884799897670746e-02 1.016832515597343445e-01
3.500904142856597900e-02 -1.101048290729522705e-02 -4.216160625219345093e-02
1.879115998744964600e-01 -4.672905430197715759e-02 -1.553553193807601929e-01
4.963148012757301331e-02 -8.481007814407348633e-02 1.696756184101104736e-01
2.719040960073471069e-02 -1.634927466511726379e-02 -1.478954404592514038e-01
1.475150585174560547e-01 -1.208585128188133240e-02 -1.863646879792213440e-02
2.009772360324859619e-01 -8.008018881082534790e-02 2.401686273515224457e-02
2.181710302829742432e-01 -6.525862962007522583e-02 -4.627732932567596436e-02
1.688912510871887207e-03 -7.897508144378662109e-02 -1.022613197565078735e-01
9.432800859212875366e-02 -8.964139968156814575e-03 -5.690714716911315918e-02
1.640759855508804321e-01 -1.653635129332542419e-02 -6.296411156654357910e-02
5.956121906638145447e-02 -8.385124802589416504e-02 1.919173002243041992e-01
-3.241839259862899780e-02 -2.887218818068504333e-02 2.829315885901451111e-02
6.466975063085556030e-02 -8.979391306638717651e-03 -4.788861423730850220e-02
3.172647953033447266e-02 -8.882164955139160156e-02 2.501089498400688171e-02
8.828879147768020630e-02 -1.258081942796707153e-02 -1.304056495428085327e-01
1.689306497573852539e-01 -2.458793856203556061e-02 -1.295201182365417480e-01
6.299133598804473877e-02 -1.321756839752197266e-02 -1.398799717426300049e-01
-2.468337118625640869e-02 -7.589399814605712891e-02 -1.027897372841835022e-02
2.145331203937530518e-01 -2.859716862440109253e-02 1.140698790550231934e-01
2.315962016582489014e-01 -3.528908267617225647e-02 7.303526252508163452e-02
7.291960716247558594e-02 -9.152740985155105591e-02 -1.572540402412414551e-02
8.747922629117965698e-02 -8.983130753040313721e-02 1.562471836805343628e-01
6.676108390092849731e-02 -9.182916581630706787e-02 4.641646519303321838e-03
-4.800879210233688354e-02 -5.267303809523582458e-02 6.023108586668968201e-02
-3.714548796415328979e-02 -6.781162321567535400e-02 -8.646624535322189331e-02
1.886377930641174316e-01 -6.906495988368988037e-02 -1.076306402683258057e-01
-2.558213472366333008e-02 -6.435906141996383667e-02 1.237131208181381226e-01
1.011488586664199829e-01 -8.621923625469207764e-03 1.412741933017969131e-02
1.449650079011917114e-01 -7.829848676919937134e-02 -1.267825216054916382e-01
4.856811836361885071e-02 -5.187437310814857483e-02 2.675299942493438721e-01
1.210961192846298218e-01 -1.900594681501388550e-02 1.813703030347824097e-01
2.172963619232177734e-01 -4.517951235175132751e-02 2.183151692152023315e-01
1.110098809003829956e-01 -9.169828891754150391e-02 1.315599232912063599e-01
1.575321257114410400e-01 -2.015728130936622620e-02 1.681011617183685303e-01
2.322697639465332031e-01 -4.597730934619903564e-02 -2.564664557576179504e-02
7.826558500528335571e-02 -1.442363485693931580e-02 -1.538541316986083984e-01
1.699731200933456421e-01 -7.566314190626144409e-02 2.512992620468139648e-01
1.788964569568634033e-01 -3.728423640131950378e-02 2.526578307151794434e-01
-4.967705160379409790e-02 -5.707849562168121338e-02 -1.025962308049201965e-01
-3.040786832571029663e-02 -3.507279604673385620e-02 -1.678712666034698486e-01
1.769059598445892334e-01 -7.804267853498458862e-02 2.301421016454696655e-01
1.012532934546470642e-01 -1.338864862918853760e-02 1.243165656924247742e-01
-2.915319800376892090e-01 -4.334978386759757996e-02 3.102392330765724182e-02
-4.984531998634338379e-01 -1.809574663639068604e-03 -8.851797133684158325e-02
-2.536635398864746094e-01 7.279503345489501953e-02 -6.279215216636657715e-02
-8.469142913818359375e-01 6.617463380098342896e-02 -3.703972790390253067e-03
-4.741715788841247559e-01 3.401418402791023254e-02 -9.666798263788223267e-02
-2.860771715641021729e-01 1.067702621221542358e-01 1.403121184557676315e-02
-4.142488837242126465e-01 -1.398181915283203125e-02 -8.645512163639068604e-02
-5.278542637825012207e-01 6.034184992313385010e-02 -9.416723251342773438e-02
-6.755995750427246094e-01 8.027084171772003174e-02 -7.825801521539688110e-02
-3.523032367229461670e-01 -6.578464806079864502e-02 -1.973284780979156494e-02
-5.675370097160339355e-01 7.423236966133117676e-03 6.718806177377700806e-02
-7.075514197349548340e-01 1.300122961401939392e-02 -6.047941744327545166e-02
-4.315958619117736816e-01 1.041353717446327209e-01 -7.467545568943023682e-02
-1.871470808982849121e-01 -2.334880456328392029e-02 -5.335967987775802612e-02
-3.233242332935333252e-01 9.940544515848159790e-02 -5.991869792342185974e-02
-6.003174781799316406e-01 7.205984741449356079e-02 7.531932741403579712e-02
-1.903482675552368164e-01 7.527156174182891846e-02 -1.004201080650091171e-02
-7.086716294288635254e-01 1.469442397356033325e-01 -1.673501916229724884e-02
-8.114774227142333984e-01 1.183197647333145142e-01 -1.867458224296569824e-02
-4.263054132461547852e-01 -6.459489464759826660e-02 -1.047285459935665131e-02
-6.375423073768615723e-01 1.178641170263290405e-01 -6.673192977905273438e-02
-4.500781297683715820e-01 -1.715281233191490173e-02 -8.412470668554306030e-02
-5.591175556182861328e-01 4.296666756272315979e-02 7.716536521911621094e-02
-7.085162401199340820e-01 -1.511422172188758850e-02 -2.177002653479576111e-02
-4.992541372776031494e-01 7.095088064670562744e-02 7.665082067251205444e-02
-3.104090094566345215e-01 5.094917491078376770e-02 -8.510776609182357788e-02
-5.356584191322326660e-01 1.526358574628829956e-01 -4.546842072159051895e-03
-1.566764712333679199e-01 1.155008375644683838e-02 2.090039476752281189e-02
-4.285869598388671875e-01 8.907809853553771973e-02 -8.353152871131896973e-02
-4.638456404209136963e-01 -4.835130646824836731e-02 -5.634701251983642578e-02
-1.412144005298614502e-01 1.371802948415279388e-02 -4.159314930438995361e-02
-6.832163929939270020e-01 4.495282843708992004e-02 -7.806315273046493530e-02
-4.362364113330841064e-01 -4.165089502930641174e-02 -6.686086952686309814e-02
-5.255887508392333984e-01 -4.134327173233032227e-04 -8.701463043689727783e-02
-4.827247262001037598e-01 -3.644728288054466248e-02 4.370405897498130798e-02
-1.696629822254180908e-01 2.268078736960887909e-02 2.695930749177932739e-02
-1.536461412906646729e-01 -2.867981418967247009e-02 -9.394112043082714081e-03
-4.114511609077453613e-01 1.388273239135742188e-01 -6.479928269982337952e-04
-8.446581363677978516e-01 8.605997264385223389e-02 -1.613770984113216400e-02
-4.106190800666809082e-01 -9.850915521383285522e-03 6.370680034160614014e-02
-6.000140309333801270e-01 1.218744665384292603e-01 -6.632788479328155518e-02
-2.306847870349884033e-01 3.481786698102951050e-03 -7.479164004325866699e-02
-7.682255506515502930e-01 1.229593306779861450e-01 -3.719233348965644836e-02
-6.602454781532287598e-01 1.526067554950714111e-01 -1.086893957108259201e-02
-4.692418873310089111e-01 -2.862576767802238464e-02 -7.586073875427246094e-02
-1.550508439540863037e-01 1.396877504885196686e-02 -5.029812827706336975e-02
-7.968318462371826172e-01 1.175899803638458252e-01 2.606311812996864319e-02
-5.513319969177246094e-01 -1.578548178076744080e-02 -7.603737711906433105e-02
-2.737679481506347656e-01 7.754260301589965820e-02 -6.531750410795211792e-02
-5.214121937751770020e-01 9.987255930900573730e-02 -8.183597773313522339e-02
-3.948284089565277100e-01 -1.026298105716705322e-02 6.292390823364257812e-02
-4.594404101371765137e-01 7.850275933742523193e-02 -8.974997699260711670e-02
-6.274461150169372559e-01 1.290299445390701294e-01 -5.851030349731445312e-02
-5.373807549476623535e-01 1.400195807218551636e-01 3.660493344068527222e-02
-7.497297525405883789e-01 1.041548997163772583e-01 4.998294264078140259e-02
-6.548080444335937500e-01 1.202496886253356934e-01 5.545322597026824951e-02
-8.095590472221374512e-01 3.278336673974990845e-02 -2.221167460083961487e-02
-4.904507696628570557e-01 -1.397590711712837219e-02 -8.351987600326538086e-02
-2.736798226833343506e-01 9.283810853958129883e-02 -5.075244605541229248e-02
-3.654404282569885254e-01 -3.732671961188316345e-02 4.420841857790946960e-02
-3.622616827487945557e-01 5.304307863116264343e-02 6.944153457880020142e-02
-4.364301264286041260e-01 -5.624135956168174744e-02 1.959133520722389221e-02
-5.545670986175537109e-01 1.417930573225021362e-01 3.534699603915214539e-02
-6.576199531555175781e-01 1.148654669523239136e-01 -6.668564677238464355e-02
-7.245451211929321289e-01 7.551580667495727539e-02 6.117335706949234009e-02
-5.348237752914428711e-01 -3.964062407612800598e-02 3.331814333796501160e-02
-2.739154100418090820e-01 -3.318686410784721375e-02 -6.762216985225677490e-02
-2.983816266059875488e-01 1.132403016090393066e-01 5.542071536183357239e-03
-3.342427611351013184e-01 -5.952065065503120422e-02 -4.278181120753288269e-02
-1.938458085060119629e-01 -4.113775119185447693e-02 -3.661729767918586731e-02
-6.354596614837646484e-01 -3.469271585345268250e-02 -2.529580146074295044e-02
-1.670271456241607666e-01 3.788221627473831177e-03 -5.575477704405784607e-02
-7.726085186004638672e-01 7.417356222867965698e-02 4.999746382236480713e-02
-4.025210440158843994e-01 2.290449477732181549e-02 7.304993271827697754e-02
-5.892354249954223633e-01 3.439299017190933228e-02 -9.014178067445755005e-02
-2.199464440345764160e-01 8.735029399394989014e-02 -2.349385991692543030e-02
-5.871334075927734375e-01 -4.465543851256370544e-02 4.342582076787948608e-03
-5.129056572914123535e-01 1.422626972198486328e-01 2.985147759318351746e-02
-5.040169954299926758e-01 1.399587243795394897e-01 -4.338515549898147583e-02
-7.667711973190307617e-01 1.742348261177539825e-02 2.614234760403633118e-02
-5.022616982460021973e-01 -2.354871109127998352e-02 -7.662878185510635376e-02
-8.023355007171630859e-01 2.833479829132556915e-02 1.315937470644712448e-02
-3.654053807258605957e-01 -4.871593043208122253e-02 3.234519809484481812e-02
-4.957211017608642578e-01 -5.528889968991279602e-02 -3.665856644511222839e-02
-5.075540542602539062e-01 2.956504747271537781e-02 -9.545143693685531616e-02
-5.679228901863098145e-01 5.932371318340301514e-02 -9.235270321369171143e-02
-3.938869833946228027e-01 1.361412256956100464e-01 -5.497137084603309631e-03
-3.129944801330566406e-01 1.063174307346343994e-01 -4.821975156664848328e-02
-4.169506430625915527e-01 1.111168563365936279e-01 -6.733337044715881348e-02
-4.287854731082916260e-01 1.297894269227981567e-01 -4.716483131051063538e-02
-2.625730633735656738e-01 4.766438156366348267e-03 -8.091383427381515503e-02
-2.500447034835815430e-01 -5.080141127109527588e-03 -7.683811336755752563e-02
-7.899445295333862305e-01 6.177836656570434570e-02 -5.106941983103752136e-02
-4.644359052181243896e-01 -6.213917210698127747e-02 -1.006554905325174332e-02
-2.009079754352569580e-01 7.786139845848083496e-02 3.032792359590530396e-03
-3.445978164672851562e-01 3.009138256311416626e-02 6.855913251638412476e-02
-2.801572084426879883e-01 -6.048251315951347351e-02 -2.868951857089996338e-02
-5.818876624107360840e-01 5.155294388532638550e-02 7.678779959678649902e-02
-5.778760910034179688e-01 1.225454211235046387e-01 5.661081522703170776e-02
-1.665331423282623291e-01 4.883056506514549255e-02 1.407014671713113785e-02
-8.166644573211669922e-01 9.411731362342834473e-02 3.098412975668907166e-02
-6.775342226028442383e-01 1.262388378381729126e-01 -5.564978718757629395e-02
-5.841467380523681641e-01 -2.457654103636741638e-02 4.257117211818695068e-02
-2.256559133529663086e-01 -4.960700497031211853e-02 3.920045681297779083e-03
-7.978935837745666504e-01 1.286994218826293945e-01 -2.953816670924425125e-03
-5.331663489341735840e-01 1.158324033021926880e-01 6.022202968597412109e-02
-3.452916145324707031e-01 -6.328666210174560547e-02 3.099894151091575623e-03
-3.988983333110809326e-01 -1.708925887942314148e-02 -8.502230793237686157e-02
-1.819612979888916016e-01 -4.160548374056816101e-02 -1.003184262663125992e-02
-7.276126146316528320e-01 -9.275436401367187500e-03 -1.830871030688285828e-02
-7.782607674598693848e-01 1.098482459783554077e-01 3.946892917156219482e-02
-4.046828448772430420e-01 -4.565555229783058167e-02 3.688296303153038025e-02
-2.951122522354125977e-01 3.152569010853767395e-02 6.150320917367935181e-02
-5.013428330421447754e-01 4.270703718066215515e-02 7.823137193918228149e-02
-6.232892274856567383e-01 -1.318570226430892944e-02 4.595063626766204834e-02
-4.832511842250823975e-01 1.317451298236846924e-01 -5.336743220686912537e-02
-3.844968080520629883e-01 -6.359162926673889160e-02 -3.281662613153457642e-02
-4.562917649745941162e-01 -5.707835778594017029e-02 -4.183157905936241150e-02
-4.260172843933105469e-01 1.392675936222076416e-01 -2.373244613409042358e-02
-2.207916676998138428e-01 3.512256592512130737e-02 -7.100313901901245117e-02
-1.399993896484375000e-01 3.503859043121337891e-02 2.237940207123756409e-04
-7.954558730125427246e-01 5.758915096521377563e-02 3.964519873261451721e-02
-5.114635825157165527e-01 5.936449766159057617e-02 7.824632525444030762e-02
-7.537088990211486816e-01 1.392754763364791870e-01 1.243538875132799149e-02
-4.956896007061004639e-01 1.409782022237777710e-01 2.926994860172271729e-02
-2.637192904949188232e-01 -1.228744909167289734e-02 -7.691244781017303467e-02
-6.050083637237548828e-01 1.192781701683998108e-02 -8.257517218589782715e-02
-1.533572077751159668e-01 3.015247359871864319e-02 1.599317416548728943e-02
-5.433485507965087891e-01 1.511914134025573730e-01 -2.081167511641979218e-02
-6.075146794319152832e-01 1.434001028537750244e-01 -4.208460822701454163e-02
-7.253729701042175293e-01 1.393853724002838135e-01 -2.953744307160377502e-02
-3.370048105716705322e-01 7.213447988033294678e-02 6.077601015567779541e-02
-1.449045836925506592e-01 -1.604862138628959656e-02 2.151262015104293823e-03
-5.207799673080444336e-01 7.961795479059219360e-02 7.536885887384414673e-02
-5.523051023483276367e-01 9.729744493961334229e-02 7.031485438346862793e-02
-3.850474655628204346e-01 9.463717043399810791e-02 5.812250077724456787e-02
-6.489295959472656250e-01 -3.255099430680274963e-02 5.990741774439811707e-04
-6.347614526748657227e-01 -2.384361252188682556e-02 3.046762198209762573e-02
-4.113342165946960449e-01 -2.550556138157844543e-02 5.485310405492782593e-02
-3.743480741977691650e-01 1.324343532323837280e-01 -1.207063999027013779e-02
-3.809491097927093506e-01 1.294974833726882935e-01 -3.193001821637153625e-02
-4.765409827232360840e-01 9.080445021390914917e-02 7.012114673852920532e-02
-5.468668937683105469e-01 -6.121776998043060303e-03 6.205292046070098877e-02
-1.961657702922821045e-01 2.449873089790344238e-02 3.753921389579772949e-02
-5.932272672653198242e-01 -3.549635037779808044e-02 -4.641172662377357483e-02
-7.072945237159729004e-01 8.310511708259582520e-02 6.340113282203674316e-02
-7.406662106513977051e-01 5.769098177552223206e-02 -6.666621565818786621e-02
-6.476276516914367676e-01 6.391278654336929321e-02 -8.433713763952255249e-02
-7.255976796150207520e-01 -9.882342070341110229e-03 3.652381710708141327e-03
-2.984221279621124268e-01 -1.286150887608528137e-02 -8.124053478240966797e-02
-7.485650181770324707e-01 1.182014942169189453e-01 -4.780591651797294617e-02
-6.507345438003540039e-01 1.387320905923843384e-01 3.894938156008720398e-02
-8.146868944168090820e-01 7.289609313011169434e-02 -4.073412343859672546e-02
-1.691584289073944092e-01 6.303687393665313721e-02 -7.558990269899368286e-03
-5.037605166435241699e-01 1.314977854490280151e-01 4.425462335348129272e-02
-6.745088696479797363e-01 7.698237150907516479e-02 6.861079484224319458e-02
-2.112496495246887207e-01 1.088789477944374084e-02 -7.090663164854049683e-02
-6.988812685012817383e-01 -5.949378013610839844e-03 3.091745451092720032e-02
-6.490412354469299316e-01 1.674145460128784180e-05 5.143623054027557373e-02
-6.543769836425781250e-01 1.335560083389282227e-01 -5.141974613070487976e-02
-5.847216844558715820e-01 6.635334342718124390e-03 6.518109142780303955e-02
-1.260015368461608887e-01 1.116635650396347046e-02 -7.272868417203426361e-03
-4.813387989997863770e-01 2.399829775094985962e-02 7.577680051326751709e-02
-6.374157071113586426e-01 -1.365157961845397949e-02 -6.029528006911277771e-02
-5.619103908538818359e-01 1.327688694000244141e-01 -5.686752870678901672e-02
-6.033746004104614258e-01 1.227449923753738403e-01 5.628477782011032104e-02
-5.673180818557739258e-01 1.083970069885253906e-01 6.539944559335708618e-02
-5.580727458000183105e-01 6.031493097543716431e-02 7.778599858283996582e-02
-7.864193320274353027e-01 1.274494528770446777e-01 1.868517324328422546e-02
-5.460601449012756348e-01 -4.231320694088935852e-02 -4.967039078474044800e-02
-5.482022762298583984e-01 1.510462313890457153e-01 1.358992140740156174e-02
-4.128579199314117432e-01 1.251295655965805054e-01 -5.074094980955123901e-02
-6.748677492141723633e-01 -1.088929548859596252e-02 -5.081734806299209595e-02
-3.471708893775939941e-01 -5.221008136868476868e-02 -5.601716786623001099e-02
-2.584856748580932617e-01 3.784921765327453613e-02 -7.923866063356399536e-02
-7.329311370849609375e-01 4.272606223821640015e-03 2.837736159563064575e-02
-2.451253384351730347e-01 -4.545078799128532410e-02 1.855177059769630432e-02
-2.159648239612579346e-01 8.528451621532440186e-02 1.758197322487831116e-03
-7.167614102363586426e-01 6.912468373775482178e-02 -7.246269285678863525e-02
-5.823239684104919434e-01 -4.651341214776039124e-02 -2.078212797641754150e-02
-4.586668014526367188e-01 1.087149679660797119e-01 5.930889397859573364e-02
-2.414563894271850586e-01 -5.612603202462196350e-02 -2.429609932005405426e-02
-5.247435569763183594e-01 -1.956136152148246765e-02 -7.692761719226837158e-02
-7.739387750625610352e-01 1.212299615144729614e-02 -2.395860478281974792e-02
-2.797650694847106934e-01 5.886868387460708618e-02 5.380635708570480347e-02
-3.377336859703063965e-01 4.682440683245658875e-02 6.703706085681915283e-02
-3.123562335968017578e-01 3.013234585523605347e-03 -8.704981952905654907e-02
-5.639329552650451660e-01 8.363734185695648193e-02 -8.770745247602462769e-02
-7.843474149703979492e-01 9.680697321891784668e-02 -4.900826513767242432e-02
-7.514307498931884766e-01 -6.295368075370788574e-04 1.528839580714702606e-03
-7.554627656936645508e-01 9.693959355354309082e-02 -5.781054496765136719e-02
-5.396184921264648438e-01 -5.267055705189704895e-02 1.595270819962024689e-03
-1.405090391635894775e-01 -3.668878227472305298e-03 -3.905457258224487305e-02
-4.375739991664886475e-01 1.058301925659179688e-01 5.875023454427719116e-02
-4.294086396694183350e-01 5.036418512463569641e-02 7.588899880647659302e-02
-6.924008727073669434e-01 -1.406110078096389771e-02 -3.792512789368629456e-02
-5.122343897819519043e-01 1.106463819742202759e-01 -7.522968202829360962e-02
-3.831337094306945801e-01 1.250214278697967529e-01 2.731189876794815063e-02
-2.280271947383880615e-01 7.029584050178527832e-02 3.150944039225578308e-02
-5.121839046478271484e-01 1.108726561069488525e-01 6.234617531299591064e-02
-2.870019078254699707e-01 7.201253622770309448e-02 -7.226383686065673828e-02
-3.771935999393463135e-01 2.747580781579017639e-02 7.170309126377105713e-02
-5.016708970069885254e-01 1.500365883111953735e-01 -8.960003033280372620e-04
-7.559575438499450684e-01 2.306074090301990509e-02 3.709530457854270935e-02
-8.421159386634826660e-01 9.824431687593460083e-02 6.403712555766105652e-03
-6.836445927619934082e-01 -2.155758067965507507e-02 9.375791065394878387e-03
-7.471156120300292969e-01 1.243631392717361450e-01 3.797893226146697998e-02
-4.859276413917541504e-01 -4.169477149844169617e-02 -6.204442307353019714e-02
-2.779404520988464355e-01 -4.676162078976631165e-02 -5.574287474155426025e-02
-4.327093362808227539e-01 1.170887947082519531e-01 -6.382224708795547485e-02
-3.057214021682739258e-01 -5.536901578307151794e-02 1.679521054029464722e-02
-2.459912151098251343e-01 -5.027493461966514587e-02 -4.344408959150314331e-02
-4.880382418632507324e-01 1.151630878448486328e-01 5.770459771156311035e-02
-7.564399242401123047e-01 3.424454107880592346e-02 -5.550632625818252563e-02
-7.925968766212463379e-01 1.939359307289123535e-02 -1.634391397237777710e-02
-4.950080215930938721e-01 6.150195747613906860e-02 -9.463954716920852661e-02
-6.204777359962463379e-01 3.839387372136116028e-02 7.224401086568832397e-02
-7.209392189979553223e-01 9.897401928901672363e-02 5.755789577960968018e-02
-5.021049976348876953e-01 1.473875343799591064e-01 1.491454709321260452e-02
-5.447888374328613281e-01 1.381410211324691772e-01 -4.966833442449569702e-02
-7.911835908889770508e-01 9.406082332134246826e-02 4.176401346921920776e-02
-1.855657994747161865e-01 1.215222850441932678e-02 3.378988429903984070e-02
-5.428841710090637207e-01 1.270647943019866943e-01 -6.255738437175750732e-02
-7.259414196014404297e-01 -4.195015877485275269e-03 -3.401526436209678650e-02
-4.150621592998504639e-01 -6.485652923583984375e-02 -2.099132165312767029e-02
-6.814386844635009766e-01 -1.274682581424713135e-02 2.893800660967826843e-02
-6.416518092155456543e-01 1.510395705699920654e-01 -2.268453501164913177e-02
-2.561320066452026367e-01 8.301887661218643188e-03 5.257843807339668274e-02
-3.944241702556610107e-01 1.047600507736206055e-01 -6.956989318132400513e-02
-1.812976002693176270e-01 5.998225137591362000e-02 -4.051556810736656189e-02
-8.184469938278198242e-01 3.431646153330802917e-02 -6.841404363512992859e-03
-2.780910134315490723e-01 -6.145935133099555969e-02 -1.164642907679080963e-02
-8.065387606620788574e-01 4.703820124268531799e-02 -3.818009048700332642e-02
-7.985711693763732910e-01 1.111612468957901001e-01 -3.511201962828636169e-02
-7.517250776290893555e-01 7.316466420888900757e-03 2.171044424176216125e-02
-5.773528814315795898e-01 1.507064104080200195e-01 -2.654633671045303345e-02
-4.519286155700683594e-01 -6.221573427319526672e-02 -2.517921105027198792e-02
-6.123928427696228027e-01 8.184740692377090454e-02 7.325260341167449951e-02
-3.025570511817932129e-01 8.477951586246490479e-02 -6.747139245271682739e-02
-5.727858543395996094e-01 1.138438284397125244e-01 -7.313132286071777344e-02
-1.681827008724212646e-01 -3.548216447234153748e-02 -2.635242417454719543e-02
-3.324276804924011230e-01 4.683908075094223022e-03 6.345397233963012695e-02
-6.277337670326232910e-01 2.152264304459095001e-02 6.656107306480407715e-02
-5.794342756271362305e-01 1.375240683555603027e-01 -5.117234587669372559e-02
-2.176092863082885742e-01 2.699173614382743835e-02 4.424850642681121826e-02
-3.454666435718536377e-01 -3.899951651692390442e-02 -6.993865221738815308e-02
-3.791316449642181396e-01 5.252760648727416992e-02 -9.232196956872940063e-02
-4.582144021987915039e-01 3.751657158136367798e-02 7.717318832874298096e-02
-4.100853502750396729e-01 9.525963664054870605e-02 -7.838139683008193970e-02
-5.444151163101196289e-01 2.950586192309856415e-02 7.568392902612686157e-02
-3.078980147838592529e-01 7.786136120557785034e-03 6.116483360528945923e-02
-6.815773248672485352e-01 -2.363937720656394958e-02 -2.085507661104202271e-02
-6.552337408065795898e-01 2.594866976141929626e-02 -7.905003428459167480e-02
-6.196738481521606445e-01 1.293155550956726074e-01 5.055108666419982910e-02
-5.629699826240539551e-01 -1.858488097786903381e-02 5.163191631436347961e-02
-3.310783207416534424e-01 2.949536964297294617e-02 -9.082925319671630859e-02
-6.081734299659729004e-01 5.010784417390823364e-02 7.500877976417541504e-02
-5.521330237388610840e-01 -2.771886065602302551e-02 -6.638804078102111816e-02
-8.034777641296386719e-01 8.592925965785980225e-02 -4.482574015855789185e-02
-3.477573692798614502e-01 8.439628779888153076e-02 5.722603201866149902e-02
-5.657870769500732422e-01 2.869142219424247742e-02 -9.155851602554321289e-02
-2.759490609169006348e-01 2.209072001278400421e-02 -8.407398313283920288e-02
-5.842930078506469727e-01 7.816036045551300049e-02 7.515819370746612549e-02
-1.934007108211517334e-01 -2.013913169503211975e-02 2.595273032784461975e-02
-5.112698078155517578e-01 1.306304335594177246e-01 -5.734367296099662781e-02
-3.205741643905639648e-01 -1.383361965417861938e-02 -8.299452811479568481e-02
-6.943396925926208496e-01 2.141969650983810425e-02 -6.886167079210281372e-02
-5.839684009552001953e-01 -7.300488650798797607e-03 5.729167163372039795e-02
-3.813194036483764648e-01 1.219364106655120850e-01 -4.750715941190719604e-02
-3.979982435703277588e-01 -5.768748000264167786e-02 -4.723785817623138428e-02
-6.453163623809814453e-01 8.856515586376190186e-02 -8.005507290363311768e-02
-5.850799679756164551e-01 7.883846759796142578e-02 -8.792833983898162842e-02
-1.971578001976013184e-01 -6.266467273235321045e-03 3.390252590179443359e-02
-2.208073139190673828e-01 4.340004175901412964e-02 4.236437752842903137e-02
-7.532613277435302734e-01 6.888684630393981934e-02 5.498995631933212280e-02
-3.636102676391601562e-01 1.184873878955841064e-01 -4.755249619483947754e-02
-7.125634551048278809e-01 -8.873455226421356201e-03 1.909046247601509094e-02
-5.409387946128845215e-01 8.080646395683288574e-02 7.529974728822708130e-02
-7.431735992431640625e-01 1.334767788648605347e-03 -3.123007342219352722e-02
-2.681571245193481445e-01 1.061288565397262573e-01 -8.015297353267669678e-03
-1.684424281120300293e-01 5.883947014808654785e-04 2.503923699259757996e-02
-3.440876007080078125e-01 6.379583477973937988e-02 -8.576280623674392700e-02
-1.808079183101654053e-01 3.363435715436935425e-02 2.990419790148735046e-02
-3.495398163795471191e-01 -4.718305543065071106e-02 3.327970206737518311e-02
-2.596888840198516846e-01 9.902080893516540527e-02 1.159729715436697006e-02
-6.847534775733947754e-01 1.298488229513168335e-01 4.489970952272415161e-02
-2.576451897621154785e-01 7.690931856632232666e-02 3.822644427418708801e-02
-5.159627199172973633e-01 -5.483414977788925171e-03 6.459565460681915283e-02
-7.662132978439331055e-01 5.994673818349838257e-02 5.044567957520484924e-02
-4.784591197967529297e-01 -4.129711538553237915e-03 -8.876357972621917725e-02
-6.781086921691894531e-01 3.828913345932960510e-02 6.474558264017105103e-02
-6.656904816627502441e-01 -2.449477836489677429e-02 1.494262460619211197e-02
-3.614038228988647461e-01 -2.315119281411170959e-02 5.429861694574356079e-02
-7.762368917465209961e-01 5.502323806285858154e-02 -5.517357215285301208e-02
-5.383655428886413574e-01 4.613951966166496277e-02 7.808521389961242676e-02
-2.872343957424163818e-01 5.476977676153182983e-02 -8.013027906417846680e-02
-3.917742371559143066e-01 8.047780394554138184e-02 6.595640629529953003e-02
-7.028199434280395508e-01 -1.854676380753517151e-02 -7.417338900268077850e-03
-1.797445714473724365e-01 2.556354366242885590e-02 -5.977781489491462708e-02
-2.489955574274063110e-01 3.505375236272811890e-02 5.185821279883384705e-02
-3.469526469707489014e-01 -2.114826068282127380e-02 -8.157540112733840942e-02
-3.605287671089172363e-01 1.274334043264389038e-01 1.001565065234899521e-02
-6.010487675666809082e-01 7.521554082632064819e-02 -8.761497586965560913e-02
-5.291137695312500000e-01 8.105964213609695435e-02 -8.954848349094390869e-02
-8.304497003555297852e-01 6.009887158870697021e-02 2.041189000010490417e-02
-4.753866493701934814e-01 1.748035289347171783e-02 -9.490829706192016602e-02
-1.955947577953338623e-01 1.157869026064872742e-02 -6.651463359594345093e-02
-3.753192126750946045e-01 1.033455282449722290e-01 -6.764759868383407593e-02
-3.084470629692077637e-01 8.759795129299163818e-02 4.632799327373504639e-02
-4.892593026161193848e-01 1.470678150653839111e-01 -2.219645678997039795e-02
-3.275392651557922363e-01 4.951071739196777344e-02 -8.778253942728042603e-02
-4.765990078449249268e-01 1.458929628133773804e-01 1.072451006621122360e-02
-2.476112991571426392e-01 -5.710108950734138489e-02 -8.284088224172592163e-03
-5.588549375534057617e-01 1.523860245943069458e-01 -1.828271523118019104e-02
-7.084698677062988281e-01 -4.073604941368103027e-03 -4.448221996426582336e-02
-4.255775213241577148e-01 1.371747255325317383e-01 1.733409985899925232e-02
-5.915483236312866211e-01 3.491840139031410217e-02 7.405243068933486938e-02
-4.799440801143646240e-01 1.410840004682540894e-01 2.569752559065818787e-02
-4.202010929584503174e-01 -5.029430612921714783e-02 3.064006194472312927e-02
-6.595246791839599609e-01 1.469312608242034912e-01 2.494074404239654541e-02
-6.156483292579650879e-01 9.484749287366867065e-03 6.287271529436111450e-02
-6.690558195114135742e-01 5.428820103406906128e-02 -8.138851821422576904e-02
-3.859333395957946777e-01 -4.354454576969146729e-04 -9.092541784048080444e-02
-3.062483072280883789e-01 7.054050266742706299e-02 5.534611642360687256e-02
-2.570408284664154053e-01 -5.754141882061958313e-02 -2.933318540453910828e-02
-5.938762426376342773e-01 5.423843860626220703e-02 -9.068825840950012207e-02
-6.192138195037841797e-01 -2.220027521252632141e-02 -5.658657476305961609e-02
-6.958313584327697754e-01 1.153626739978790283e-01 -6.109370291233062744e-02
-6.089553236961364746e-01 1.375297307968139648e-01 4.244330525398254395e-02
-4.389358460903167725e-01 -3.803042694926261902e-02 4.447078704833984375e-02
-4.106956720352172852e-01 1.142220944166183472e-01 4.798468202352523804e-02
-4.457665085792541504e-01 8.096341043710708618e-03 -9.357384592294692993e-02
-7.524986267089843750e-01 8.913130313158035278e-02 5.381965637207031250e-02
-6.881863474845886230e-01 1.068832576274871826e-01 5.933990329504013062e-02
-6.461519002914428711e-01 1.705530658364295959e-02 6.204113364219665527e-02
-5.593908429145812988e-01 -3.093513473868370056e-02 4.006427526473999023e-02
