4.826921820640563965e-01 -1.400003284215927124e-01 1.373691856861114502e-01
3.652568757534027100e-01 -1.398130059242248535e-01 4.020393788814544678e-01
-7.345494627952575684e-02 -1.467958688735961914e-01 3.153781592845916748e-02
1.011899709701538086e-01 -1.712361350655555725e-02 -1.313769221305847168e-01
3.637244105339050293e-01 -1.063550412654876709e-01 4.939842224121093750e-01
3.149085342884063721e-01 2.400783821940422058e-02 -3.782146275043487549e-01
5.966877937316894531e-02 -3.878908604383468628e-02 2.767275273799896240e-01
5.078413486480712891e-01 -3.913246095180511475e-02 -4.853619933128356934e-01
2.070388644933700562e-01 3.850169107317924500e-02 -2.215429022908210754e-02
3.171237111091613770e-01 -6.265915185213088989e-02 -5.094341039657592773e-01
1.258075237274169922e-03 -2.076492160558700562e-01 -1.150275543332099915e-01
9.148186445236206055e-02 -3.830017894506454468e-02 3.671907186508178711e-01
1.476227194070816040e-01 -2.029895633459091187e-01 -2.404730021953582764e-01
8.802708983421325684e-02 -4.124901443719863892e-02 -2.237445116043090820e-01
4.497843384742736816e-01 -8.551871031522750854e-02 -4.655128419399261475e-01
3.574790060520172119e-01 5.767605826258659363e-02 -2.900462746620178223e-01
7.379785180091857910e-01 6.864063441753387451e-02 4.446221888065338135e-02
3.109785914421081543e-02 -1.121287941932678223e-01 4.276718497276306152e-01
1.664370447397232056e-01 6.352130323648452759e-03 -1.905072033405303955e-01
-4.327848553657531738e-02 -2.040930688381195068e-01 1.670084595680236816e-01
4.950630366802215576e-01 8.653612434864044189e-02 2.958697080612182617e-01
6.275826692581176758e-01 1.089684516191482544e-01 -1.459981799125671387e-01
5.723504424095153809e-01 -7.577065378427505493e-02 -3.353945314884185791e-01
6.703763604164123535e-01 -2.939318120479583740e-02 1.713032126426696777e-01
-3.832450509071350098e-02 -1.030105203390121460e-01 2.153303921222686768e-01
1.574362069368362427e-01 -1.930193006992340088e-01 -2.865872085094451904e-01
2.384382486343383789e-02 -7.289069890975952148e-02 3.313361108303070068e-01
8.726310729980468750e-02 -2.101661264896392822e-01 2.950284779071807861e-01
6.914608478546142578e-01 1.010453552007675171e-01 -1.098097339272499084e-01
3.973647654056549072e-01 -1.718695312738418579e-01 1.189432740211486816e-01
2.018064260482788086e-03 -7.267063111066818237e-02 -7.574950903654098511e-02
2.821504771709442139e-01 -1.805507093667984009e-01 -2.910860180854797363e-01
4.354485869407653809e-01 1.013467833399772644e-02 -4.828566312789916992e-01
5.557196140289306641e-01 2.332990989089012146e-02 -4.553773105144500732e-01
1.049537807703018188e-01 -1.773802936077117920e-01 4.253719747066497803e-01
5.371922254562377930e-01 -1.238793730735778809e-01 -4.261562600731849670e-03
1.805377453565597534e-01 2.989118918776512146e-02 1.009222343564033508e-01
9.077952802181243896e-02 -1.855266094207763672e-02 -9.748314321041107178e-02
1.527051627635955811e-01 -1.578922569751739502e-02 3.989949524402618408e-01
6.020424962043762207e-01 -9.045891463756561279e-02 4.611827805638313293e-02
2.559868991374969482e-01 -3.037446737289428711e-02 5.331614017486572266e-01
5.772518515586853027e-01 1.134563535451889038e-01 -9.873636811971664429e-02
1.801325529813766479e-01 -4.051017388701438904e-02 -3.893518447875976562e-01
9.098963439464569092e-02 -2.244899570941925049e-01 -7.879984378814697266e-02
6.894201040267944336e-02 -1.310159116983413696e-01 4.744601249694824219e-01
7.948872447013854980e-02 -1.508712023496627808e-02 9.954762458801269531e-02
4.129518270492553711e-01 9.726557135581970215e-02 1.619282364845275879e-02
2.951135039329528809e-01 2.730179205536842346e-02 -3.422707319259643555e-01
6.575220823287963867e-02 -2.248730883002281189e-02 5.053272470831871033e-02
5.277366042137145996e-01 -1.133528351783752441e-01 -2.514296770095825195e-01
3.419515490531921387e-01 7.376840710639953613e-02 2.147628366947174072e-01
1.227409988641738892e-01 -2.045885920524597168e-01 3.220123052597045898e-01
4.215635657310485840e-01 -8.045454323291778564e-02 -4.897471070289611816e-01
4.390109181404113770e-01 -1.318309307098388672e-01 -3.390774130821228027e-01
2.654853463172912598e-01 3.227625042200088501e-03 -3.862519562244415283e-01
6.388297677040100098e-02 -2.290505170822143555e-01 2.762246504426002502e-02
4.524368047714233398e-02 -3.452243655920028687e-02 1.336741745471954346e-01
1.233947277069091797e-01 -2.197997719049453735e-01 2.142402827739715576e-01
5.549733638763427734e-01 -1.844866573810577393e-02 4.298543334007263184e-01
2.270721793174743652e-01 4.219117388129234314e-02 1.990801990032196045e-01
8.116939663887023926e-02 -8.611121773719787598e-02 4.674548208713531494e-01
-3.048628568649291992e-02 -8.753821253776550293e-02 4.860515519976615906e-02
2.987509071826934814e-01 -1.997006684541702271e-01 1.074759289622306824e-01
-7.829442620277404785e-02 -1.676400005817413330e-01 8.719114214181900024e-02
2.694174647331237793e-01 -2.027628570795059204e-01 -1.334992051124572754e-01
1.499573886394500732e-01 7.667016237974166870e-03 -1.235495582222938538e-01
5.962042212486267090e-01 -9.539961814880371094e-02 -4.538396373391151428e-03
4.943125844001770020e-01 -3.151949495077133179e-02 4.826928973197937012e-01
3.341684341430664062e-01 3.890194371342658997e-02 -3.461069464683532715e-01
5.941953659057617188e-01 -8.669635653495788574e-02 1.425018012523651123e-01
6.097177267074584961e-01 -8.190952986478805542e-02 1.040127202868461609e-01
2.254604101181030273e-01 -1.398155242204666138e-01 -4.351481795310974121e-01
4.884575009346008301e-01 3.248964622616767883e-02 4.590286910533905029e-01
2.661732733249664307e-01 -1.861188560724258423e-02 -4.390212893486022949e-01
3.990828990936279297e-01 7.673291862010955811e-02 -2.360252439975738525e-01
6.278438568115234375e-01 -7.771196961402893066e-02 -2.647610381245613098e-03
2.887178361415863037e-01 5.990982428193092346e-02 2.159147858619689941e-01
2.285096347332000732e-01 4.731265082955360413e-02 1.018538698554039001e-01
1.710146367549896240e-01 -1.808156818151473999e-01 -3.320289552211761475e-01
4.480531811714172363e-01 5.893198028206825256e-02 4.004036486148834229e-01
4.440250992774963379e-01 9.450800716876983643e-02 -1.615629792213439941e-01
1.778653115034103394e-01 -2.214023768901824951e-01 1.161555796861648560e-01
3.067347407341003418e-01 -8.323399722576141357e-02 5.521056652069091797e-01
6.838898062705993652e-01 5.977931246161460876e-02 -3.013739585876464844e-01
4.606193304061889648e-01 -1.505908221006393433e-01 1.097074002027511597e-01
-4.070317745208740234e-02 -1.749617755413055420e-01 -1.239307299256324768e-01
3.806723356246948242e-01 8.972825109958648682e-02 9.238481521606445312e-02
2.232867479324340820e-01 -2.132047712802886963e-01 1.429372429847717285e-01
6.922298073768615723e-01 1.336847618222236633e-02 2.158710956573486328e-01
7.467602491378784180e-01 3.969395533204078674e-02 -4.479803144931793213e-03
-6.999388337135314941e-02 -1.330474764108657837e-01 1.043844744563102722e-01
4.423801302909851074e-01 9.370891749858856201e-02 2.062620520591735840e-01
3.069567382335662842e-01 6.871521472930908203e-02 1.641270816326141357e-01
1.690320074558258057e-01 -9.786973893642425537e-02 5.395993590354919434e-01
6.875242590904235840e-01 -1.549727842211723328e-02 -2.482702732086181641e-01
6.898496150970458984e-01 -3.377230465412139893e-02 2.407828345894813538e-02
5.402334928512573242e-01 -1.292962580919265747e-02 -4.771321713924407959e-01
6.245025396347045898e-01 8.894814550876617432e-02 -2.781447172164916992e-01
1.828263252973556519e-01 -2.160336449742317200e-02 -3.461755514144897461e-01
1.573145389556884766e-02 -2.237586081027984619e-01 5.954355001449584961e-04
2.821562588214874268e-01 -4.707333818078041077e-02 5.561335086822509766e-01
4.073418974876403809e-01 8.441373705863952637e-02 -1.899473667144775391e-01
3.242835402488708496e-02 -4.362315312027931213e-02 3.663506358861923218e-03
3.607273101806640625e-04 -2.225354164838790894e-01 4.789648205041885376e-02
4.615615606307983398e-01 -1.296006739139556885e-01 -3.116145133972167969e-01
6.522383689880371094e-01 -5.548911169171333313e-02 9.841132909059524536e-02
-6.313100457191467285e-02 -1.853046715259552002e-01 1.863491237163543701e-01
4.978225827217102051e-01 -1.270145028829574585e-01 -2.419692277908325195e-01
5.602176785469055176e-01 -1.098906099796295166e-01 8.197185397148132324e-02
5.381520390510559082e-01 -1.012325584888458252e-01 2.470227181911468506e-01
4.888592958450317383e-01 -1.428893506526947021e-01 -8.670475333929061890e-02
4.036294817924499512e-01 9.388911724090576172e-02 -5.251874774694442749e-02
3.188979327678680420e-01 -1.676718741655349731e-01 -3.215119838714599609e-01
3.607311248779296875e-01 -1.837497204542160034e-01 1.039839833974838257e-01
5.453236103057861328e-01 9.201896190643310547e-02 -2.736234664916992188e-01
-4.177549481391906738e-02 -1.017458438873291016e-01 1.800878345966339111e-01
4.024051427841186523e-01 -1.037506312131881714e-01 -4.614740610122680664e-01
6.171813011169433594e-01 1.101401746273040771e-01 1.131254360079765320e-01
3.424948453903198242e-01 -1.871784776449203491e-01 1.332368552684783936e-01
6.272327899932861328e-02 -2.000308930873870850e-01 3.392293751239776611e-01
6.928384304046630859e-01 -2.998974546790122986e-02 -1.344305276870727539e-01
2.409011870622634888e-01 -1.934272795915603638e-01 2.996571660041809082e-01
5.155861377716064453e-01 -1.290537416934967041e-01 1.010766178369522095e-01
4.137406647205352783e-01 1.429976895451545715e-02 5.008366107940673828e-01
2.601979970932006836e-01 5.524004623293876648e-02 -5.995032191276550293e-02
3.916200101375579834e-01 -1.414878368377685547e-01 3.589605689048767090e-01
1.904219835996627808e-01 4.658214747905731201e-03 3.784746229648590088e-01
4.528527259826660156e-01 1.038954555988311768e-01 6.018832325935363770e-02
1.793343275785446167e-01 -2.230556905269622803e-01 2.803801931440830231e-02
3.899076581001281738e-02 -6.352263689041137695e-02 -1.762363910675048828e-01
2.960583567619323730e-02 -6.107451394200325012e-02 -1.314122974872589111e-01
4.570488929748535156e-01 3.650264069437980652e-02 -4.403450787067413330e-01
4.391688108444213867e-02 -1.825693845748901367e-01 3.866469860076904297e-01
2.227516174316406250e-01 -2.151388078927993774e-01 1.065810471773147583e-01
1.876411437988281250e-01 -1.903103590011596680e-01 3.638105690479278564e-01
7.212518453598022461e-01 9.150543808937072754e-02 -3.912166506052017212e-02
4.113000631332397461e-01 8.208456635475158691e-02 2.650904953479766846e-01
1.634701192378997803e-01 -4.616328701376914978e-02 4.948118329048156738e-01
5.064592361450195312e-01 1.063422113656997681e-01 -1.298974752426147461e-01
1.536096483469009399e-01 8.743677288293838501e-03 2.627170979976654053e-01
3.488211929798126221e-01 5.443781241774559021e-02 3.617377281188964844e-01
7.647922635078430176e-02 -1.903550326824188232e-02 -1.121382415294647217e-02
-2.082112431526184082e-02 -1.010408326983451843e-01 2.890553176403045654e-01
6.024754643440246582e-01 -7.487986981868743896e-02 1.918741464614868164e-01
-4.298987984657287598e-02 -1.018036007881164551e-01 1.616329699754714966e-02
5.805795192718505859e-01 -1.036219745874404907e-01 -4.961987584829330444e-02
-3.899693489074707031e-01 -5.021383762359619141e-01 4.004243016242980957e-01
-4.901050329208374023e-01 -4.169494211673736572e-01 4.359388649463653564e-01
-5.691540241241455078e-01 -4.887482523918151855e-01 4.049339890480041504e-01
-3.144181370735168457e-01 -3.780094385147094727e-01 4.116765558719635010e-01
-4.656655192375183105e-01 -5.453135967254638672e-01 4.284991919994354248e-01
-9.222457557916641235e-02 -3.224536478519439697e-01 4.544043242931365967e-01
-3.288175463676452637e-01 -4.599335491657257080e-01 4.517936706542968750e-01
4.467223286628723145e-01 -3.668503463268280029e-01 4.478830397129058838e-01
5.109737440943717957e-02 -4.855953156948089600e-01 4.135167598724365234e-01
-1.589226424694061279e-01 -3.169147372245788574e-01 4.431890547275543213e-01
1.704640239477157593e-01 -4.151474237442016602e-01 4.201354682445526123e-01
-5.058528184890747070e-01 -5.475061535835266113e-01 4.101279377937316895e-01
-3.508314490318298340e-02 -3.215751051902770996e-01 4.581665992736816406e-01
-1.421222090721130371e-01 -3.965624868869781494e-01 4.092759490013122559e-01
-2.239962965250015259e-01 -5.599390268325805664e-01 4.399495720863342285e-01
4.680204391479492188e-01 -3.784075975418090820e-01 4.495007097721099854e-01
1.007701605558395386e-01 -3.263149261474609375e-01 4.304162561893463135e-01
2.092711627483367920e-01 -4.211290776729583740e-01 4.222922921180725098e-01
-4.158188402652740479e-01 -4.189207255840301514e-01 4.446204602718353271e-01
2.346448600292205811e-01 -5.255351662635803223e-01 4.494991302490234375e-01
1.778974235057830811e-01 -4.009725451469421387e-01 4.740588665008544922e-01
-2.795743346214294434e-01 -3.693255186080932617e-01 4.510087072849273682e-01
-1.064264178276062012e-01 -3.872824311256408691e-01 4.643099606037139893e-01
-3.609672784805297852e-01 -3.845155537128448486e-01 4.459645748138427734e-01
-2.422084808349609375e-01 -4.882668554782867432e-01 4.546621143817901611e-01
1.647967100143432617e-01 -3.331579267978668213e-01 4.692336320877075195e-01
2.189878523349761963e-01 -3.578360080718994141e-01 4.290674924850463867e-01
-3.404567241668701172e-01 -5.651466846466064453e-01 4.311766028404235840e-01
-3.870761767029762268e-02 -3.415498733520507812e-01 4.628047049045562744e-01
-3.107511997222900391e-01 -4.702010750770568848e-01 4.007991552352905273e-01
4.781199693679809570e-01 -4.044035971164703369e-01 4.497533142566680908e-01
-2.927876710891723633e-01 -4.655354022979736328e-01 4.011446237564086914e-01
-7.661986351013183594e-02 -3.269773423671722412e-01 4.260780513286590576e-01
-4.331831336021423340e-01 -4.004007279872894287e-01 4.406534135341644287e-01
3.245672881603240967e-01 -3.174236714839935303e-01 4.656464457511901855e-01
6.863765418529510498e-02 -5.083835124969482422e-01 4.167371690273284912e-01
-1.085595041513442993e-01 -5.193618535995483398e-01 4.084262549877166748e-01
3.270057961344718933e-02 -5.591718554496765137e-01 4.300205111503601074e-01
-1.206545829772949219e-01 -3.771673142910003662e-01 4.126214683055877686e-01
3.586577475070953369e-01 -3.316110372543334961e-01 4.692112803459167480e-01
3.184252083301544189e-01 -4.200961887836456299e-01 4.304854571819305420e-01
4.655611515045166016e-01 -4.144829809665679932e-01 4.680497050285339355e-01
-3.855678141117095947e-01 -5.423059463500976562e-01 4.046174883842468262e-01
1.655396670103073120e-01 -4.428426325321197510e-01 4.190901219844818115e-01
-1.696636974811553955e-01 -4.078952372074127197e-01 4.073292016983032227e-01
2.597079575061798096e-01 -3.738895654678344727e-01 4.293112158775329590e-01
1.636778414249420166e-01 -4.905662536621093750e-01 4.652359485626220703e-01
4.518775939941406250e-01 -3.446275293827056885e-01 4.551054239273071289e-01
1.279947906732559204e-01 -5.010690689086914062e-01 4.199297130107879639e-01
-5.519332736730575562e-02 -3.250789344310760498e-01 4.269719719886779785e-01
-2.677667140960693359e-01 -5.564824938774108887e-01 4.393573105335235596e-01
-5.906583070755004883e-01 -5.177305340766906738e-01 4.158609807491302490e-01
3.198895156383514404e-01 -4.029747545719146729e-01 4.746912121772766113e-01
-2.287124693393707275e-01 -3.747771084308624268e-01 4.558501839637756348e-01
-2.146519124507904053e-01 -4.827904105186462402e-01 4.566172659397125244e-01
3.650625944137573242e-01 -4.291704595088958740e-01 4.720488488674163818e-01
-3.954498097300529480e-02 -3.786557316780090332e-01 4.144093692302703857e-01
1.607654392719268799e-01 -3.810797035694122314e-01 4.735740125179290771e-01
-7.713885605335235596e-02 -3.983816206455230713e-01 4.106898307800292969e-01
-1.477660983800888062e-02 -3.270367383956909180e-01 4.609650373458862305e-01
-3.140945434570312500e-01 -4.189212024211883545e-01 4.043843746185302734e-01
1.052157580852508545e-01 -5.381813049316406250e-01 4.264226257801055908e-01
-2.212733924388885498e-01 -5.651909112930297852e-01 4.137830436229705811e-01
5.069085359573364258e-01 -3.890541493892669678e-01 4.603919684886932373e-01
-8.843857049942016602e-02 -3.807165324687957764e-01 4.648119807243347168e-01
-1.789291054010391235e-01 -5.214882493019104004e-01 4.525249004364013672e-01
-1.531576663255691528e-01 -5.619586706161499023e-01 4.154765903949737549e-01
-1.593285948038101196e-01 -3.888304531574249268e-01 4.100311100482940674e-01
-3.703777119517326355e-02 -5.568808913230895996e-01 4.209240674972534180e-01
3.050795495510101318e-01 -3.573321104049682617e-01 4.350142776966094971e-01
-1.176546514034271240e-01 -4.760122001171112061e-01 4.615296125411987305e-01
-2.216999679803848267e-01 -5.339722633361816406e-01 4.060858488082885742e-01
-9.664487838745117188e-02 -3.512246608734130859e-01 4.183767139911651611e-01
1.658200621604919434e-01 -3.558630943298339844e-01 4.722041189670562744e-01
-4.352189898490905762e-01 -4.925559461116790771e-01 4.003023207187652588e-01
-3.421006500720977783e-01 -5.543628931045532227e-01 4.075692892074584961e-01
-4.890300631523132324e-01 -4.574024677276611328e-01 4.024580121040344238e-01
-2.106808423995971680e-01 -3.435742259025573730e-01 4.512853324413299561e-01
-3.219035565853118896e-01 -4.128789007663726807e-01 4.522421658039093018e-01
-9.392301738262176514e-02 -5.129199624061584473e-01 4.571140408515930176e-01
-9.107051044702529907e-02 -4.405435323715209961e-01 4.069321155548095703e-01
-2.926598191261291504e-01 -3.952192664146423340e-01 4.532557427883148193e-01
-2.110377848148345947e-01 -4.435051083564758301e-01 4.034971594810485840e-01
-1.943956762552261353e-01 -3.979488611221313477e-01 4.600441157817840576e-01
-4.828114807605743408e-01 -5.455214977264404297e-01 4.074087142944335938e-01
1.531792059540748596e-02 -5.077537894248962402e-01 4.133727848529815674e-01
-3.439484834671020508e-01 -4.314484298229217529e-01 4.511879384517669678e-01
2.749983966350555420e-01 -4.255483150482177734e-01 4.268631339073181152e-01
-3.793303072452545166e-01 -3.846557736396789551e-01 4.440417587757110596e-01
-7.209268212318420410e-02 -4.423880875110626221e-01 4.075157046318054199e-01
1.606243699789047241e-01 -3.096684217453002930e-01 4.394555091857910156e-01
1.024585962295532227e-01 -4.969585239887237549e-01 4.176363646984100342e-01
-5.057474374771118164e-01 -4.677609503269195557e-01 4.022617936134338379e-01
-1.311180368065834045e-02 -4.853510558605194092e-01 4.101299941539764404e-01
-2.630681097507476807e-01 -5.211731791496276855e-01 4.034044444561004639e-01
-3.638782799243927002e-01 -5.312538146972656250e-01 4.409088194370269775e-01
3.933910131454467773e-01 -3.878678083419799805e-01 4.737040400505065918e-01
1.533507257699966431e-01 -5.163185000419616699e-01 4.246476292610168457e-01
-4.817062616348266602e-02 -5.663669705390930176e-01 4.384353756904602051e-01
2.372557818889617920e-01 -3.839568495750427246e-01 4.266643822193145752e-01
7.943186163902282715e-02 -4.268423616886138916e-01 4.713227450847625732e-01
-2.359748035669326782e-01 -4.093385636806488037e-01 4.579979777336120605e-01
-1.459020227193832397e-01 -3.909095823764801025e-01 4.624361097812652588e-01
3.454702794551849365e-01 -4.616636335849761963e-01 4.676195085048675537e-01
2.693838179111480713e-01 -3.281294107437133789e-01 4.696674346923828125e-01
2.739964127540588379e-01 -4.928437471389770508e-01 4.626622200012207031e-01
1.236457079648971558e-01 -4.474028944969177246e-01 4.165458381175994873e-01
-2.995607554912567139e-01 -3.495719134807586670e-01 4.436451196670532227e-01
-1.556527316570281982e-01 -5.438659787178039551e-01 4.102355241775512695e-01
1.494438797235488892e-01 -5.083576440811157227e-01 4.612259864807128906e-01
-3.051403164863586426e-01 -3.989719748497009277e-01 4.072713851928710938e-01
-5.482755973935127258e-02 -5.040307641029357910e-01 4.598241150379180908e-01
1.453724652528762817e-01 -4.266745746135711670e-01 4.181732535362243652e-01
3.425773382186889648e-01 -4.136556982994079590e-01 4.327484369277954102e-01
-5.456691384315490723e-01 -4.134606122970581055e-01 4.194879233837127686e-01
-2.637522220611572266e-01 -4.172706604003906250e-01 4.048679769039154053e-01
-3.576761782169342041e-01 -4.375978708267211914e-01 4.023577272891998291e-01
-4.418185949325561523e-01 -4.652292728424072266e-01 4.429859220981597900e-01
-2.137686014175415039e-01 -5.212640762329101562e-01 4.511198997497558594e-01
-2.795288562774658203e-01 -3.378920853137969971e-01 4.402180016040802002e-01
-4.020284116268157959e-02 -5.074258446693420410e-01 4.103648662567138672e-01
2.524861395359039307e-01 -3.137302100658416748e-01 4.655047953128814697e-01
-1.888178139925003052e-01 -4.921410083770751953e-01 4.035247266292572021e-01
-6.383261084556579590e-02 -4.665295481681823730e-01 4.074098467826843262e-01
-2.853088267147541046e-02 -4.542567431926727295e-01 4.666126072406768799e-01
1.047382950782775879e-01 -3.925202190876007080e-01 4.725182056427001953e-01
-5.070198774337768555e-01 -4.349433183670043945e-01 4.357484579086303711e-01
7.872435450553894043e-02 -4.765374660491943359e-01 4.146046042442321777e-01
-3.540361523628234863e-01 -3.667485117912292480e-01 4.164125621318817139e-01
2.510886266827583313e-02 -4.423386454582214355e-01 4.690601527690887451e-01
-2.524026930332183838e-01 -3.293951749801635742e-01 4.338105916976928711e-01
1.133654862642288208e-01 -3.119480609893798828e-01 4.362900257110595703e-01
-1.215265989303588867e-01 -3.616982400417327881e-01 4.612183570861816406e-01
-1.913755685091018677e-01 -4.555388092994689941e-01 4.599056243896484375e-01
-3.050404191017150879e-01 -5.061383247375488281e-01 4.490039348602294922e-01
-3.395878672599792480e-01 -4.365930557250976562e-01 4.024550616741180420e-01
5.335992202162742615e-02 -3.212328553199768066e-01 4.305060505867004395e-01
1.222045719623565674e-01 -4.306536614894866943e-01 4.720541834831237793e-01
-1.575029641389846802e-01 -5.121687650680541992e-01 4.057549834251403809e-01
3.122366592288017273e-02 -5.422195792198181152e-01 4.512013196945190430e-01
4.050900638103485107e-01 -4.423854649066925049e-01 4.403494000434875488e-01
-8.966873586177825928e-02 -4.219214022159576416e-01 4.657604992389678955e-01
2.134753391146659851e-02 -5.075595974922180176e-01 4.608147442340850830e-01
2.090643346309661865e-01 -5.104183554649353027e-01 4.594315886497497559e-01
3.155975937843322754e-01 -5.060246586799621582e-01 4.519872069358825684e-01
-5.715789198875427246e-01 -4.686172604560852051e-01 4.060567915439605713e-01
3.965235054492950439e-01 -3.642328083515167236e-01 4.728888869285583496e-01
-3.892296552658081055e-01 -5.093751549720764160e-01 4.431160390377044678e-01
-3.693161010742187500e-01 -5.204364657402038574e-01 4.016991257667541504e-01
-8.427700400352478027e-02 -4.963619410991668701e-01 4.601804614067077637e-01
2.316151261329650879e-01 -3.783676326274871826e-01 4.746003448963165283e-01
-7.092991471290588379e-02 -5.327839851379394531e-01 4.532787203788757324e-01
1.359764188528060913e-01 -3.224585652351379395e-01 4.331340193748474121e-01
3.529910743236541748e-01 -4.138227999210357666e-01 4.736881256103515625e-01
2.763637006282806396e-01 -3.538314700126647949e-01 4.734922945499420166e-01
-3.073949217796325684e-01 -5.716094970703125000e-01 4.292780160903930664e-01
-3.976321518421173096e-01 -4.618457555770874023e-01 4.467644691467285156e-01
-2.986036837100982666e-01 -4.442505538463592529e-01 4.542801082134246826e-01
-2.642337977886199951e-01 -5.763856768608093262e-01 4.267464876174926758e-01
-4.150171875953674316e-01 -3.888543248176574707e-01 4.119368493556976318e-01
-3.709993064403533936e-01 -4.123113155364990234e-01 4.482396841049194336e-01
-9.330138564109802246e-02 -5.384724736213684082e-01 4.120690524578094482e-01
-1.827915459871292114e-01 -3.946031332015991211e-01 4.087941944599151611e-01
2.068262100219726562e-01 -4.308869242668151855e-01 4.731666743755340576e-01
2.860610485076904297e-01 -3.406413495540618896e-01 4.369511008262634277e-01
-2.634209990501403809e-01 -3.662840723991394043e-01 4.140074253082275391e-01
4.150111675262451172e-01 -4.115418493747711182e-01 4.719049930572509766e-01
-2.462457418441772461e-01 -5.294587016105651855e-01 4.047606885433197021e-01
-9.325421601533889771e-02 -3.532116413116455078e-01 4.616932868957519531e-01
-2.140046358108520508e-01 -4.176305532455444336e-01 4.054740965366363525e-01
1.166043430566787720e-01 -4.702392518520355225e-01 4.165927469730377197e-01
-4.302997291088104248e-01 -4.858379065990447998e-01 4.427006244659423828e-01
-3.124979436397552490e-01 -5.066835284233093262e-01 4.013359248638153076e-01
-1.615709811449050903e-01 -4.580750167369842529e-01 4.041473567485809326e-01
-2.488980293273925781e-01 -3.857767879962921143e-01 4.096057116985321045e-01
-5.030435323715209961e-01 -4.651911556720733643e-01 4.370247721672058105e-01
4.325357452034950256e-02 -2.992180585861206055e-01 4.493257403373718262e-01
-1.220175027847290039e-01 -3.987721502780914307e-01 4.094514846801757812e-01
1.109761372208595276e-02 -5.320869684219360352e-01 4.546818137168884277e-01
3.803395926952362061e-01 -3.413316905498504639e-01 4.705906510353088379e-01
1.253871023654937744e-01 -5.271314382553100586e-01 4.247764945030212402e-01
1.595354378223419189e-01 -5.409178137779235840e-01 4.457398653030395508e-01
3.657462298870086670e-01 -3.936555981636047363e-01 4.358157515525817871e-01
-2.552854418754577637e-01 -3.469288349151611328e-01 4.479174315929412842e-01
2.159597575664520264e-01 -4.953533411026000977e-01 4.263761341571807861e-01
-1.820591092109680176e-02 -3.417087197303771973e-01 4.223387241363525391e-01
-4.150778055191040039e-03 -5.033503770828247070e-01 4.611516594886779785e-01
5.729071423411369324e-02 -3.916701376438140869e-01 4.162697196006774902e-01
2.623678743839263916e-01 -5.131912827491760254e-01 4.551652669906616211e-01
-3.361721336841583252e-01 -3.575302958488464355e-01 4.418714046478271484e-01
1.037817597389221191e-01 -5.205861926078796387e-01 4.581616520881652832e-01
4.281023740768432617e-01 -4.476966857910156250e-01 4.446735382080078125e-01
-2.578963339328765869e-01 -3.786796331405639648e-01 4.541692137718200684e-01
9.340163320302963257e-03 -3.949164450168609619e-01 4.139787852764129639e-01
1.468944400548934937e-01 -5.300741791725158691e-01 4.539288282394409180e-01
-1.937614828348159790e-01 -3.770443499088287354e-01 4.115794301033020020e-01
4.087850153446197510e-01 -3.506274819374084473e-01 4.709539711475372314e-01
1.107165366411209106e-01 -4.474804699420928955e-01 4.706467986106872559e-01
1.672508418560028076e-01 -3.101463317871093750e-01 4.632162749767303467e-01
-4.674191176891326904e-01 -4.394046664237976074e-01 4.405887424945831299e-01
-1.350902616977691650e-01 -3.451851606369018555e-01 4.195951819419860840e-01
3.087857961654663086e-01 -4.561693668365478516e-01 4.697950780391693115e-01
1.312526315450668335e-01 -3.508788049221038818e-01 4.256480932235717773e-01
-1.321551799774169922e-01 -5.080199837684631348e-01 4.063588678836822510e-01
-1.943458616733551025e-01 -3.329569995403289795e-01 4.247123599052429199e-01
2.878348231315612793e-01 -3.162282705307006836e-01 4.450379014015197754e-01
-6.632784008979797363e-02 -4.270448982715606689e-01 4.666266143321990967e-01
-2.863558828830718994e-01 -5.723780393600463867e-01 4.159168899059295654e-01
8.298195898532867432e-02 -3.613763451576232910e-01 4.704251289367675781e-01
1.074634343385696411e-01 -3.921537995338439941e-01 4.185109138488769531e-01
-3.732453584671020508e-01 -3.598857522010803223e-01 4.368791580200195312e-01
3.073095679283142090e-01 -3.374438583850860596e-01 4.713642299175262451e-01
3.709794282913208008e-01 -3.272707164287567139e-01 4.490056037902832031e-01
-1.367914676666259766e-01 -3.191670775413513184e-01 4.485671222209930420e-01
2.357017099857330322e-01 -5.015227198600769043e-01 4.295125901699066162e-01
3.442270457744598389e-01 -4.347896873950958252e-01 4.329305589199066162e-01
-7.212429493665695190e-02 -3.229047060012817383e-01 4.560994803905487061e-01
-1.218780130147933960e-01 -5.541985630989074707e-01 4.453343749046325684e-01
-9.315229952335357666e-03 -5.218445658683776855e-01 4.571889936923980713e-01
2.931776642799377441e-01 -4.443478584289550781e-01 4.285241365432739258e-01
-2.238686233758926392e-01 -4.583884775638580322e-01 4.580873548984527588e-01
1.055398136377334595e-01 -3.050931096076965332e-01 4.589412212371826172e-01
4.815782234072685242e-02 -4.641241133213043213e-01 4.678150117397308350e-01
4.064043760299682617e-01 -4.190022945404052734e-01 4.392788112163543701e-01
4.517010971903800964e-02 -3.669674694538116455e-01 4.191196560859680176e-01
1.051408648490905762e-01 -4.135333597660064697e-01 4.723978340625762939e-01
-1.128884851932525635e-01 -5.307537317276000977e-01 4.527410268783569336e-01
1.168952584266662598e-01 -3.590063452720642090e-01 4.712501764297485352e-01
-3.054236769676208496e-01 -4.822756350040435791e-01 4.517516195774078369e-01
2.952369153499603271e-01 -4.311024844646453857e-01 4.731273651123046875e-01
-1.727283596992492676e-01 -3.749752640724182129e-01 4.121933579444885254e-01
1.016374379396438599e-01 -4.119921326637268066e-01 4.165587127208709717e-01
-3.011653386056423187e-02 -5.214244723320007324e-01 4.569244682788848877e-01
-3.526208400726318359e-01 -4.730631411075592041e-01 4.003614783287048340e-01
8.273903280496597290e-03 -4.513551592826843262e-01 4.679535031318664551e-01
-4.066671729087829590e-01 -4.920417964458465576e-01 4.001529216766357422e-01
5.219485610723495483e-03 -4.922291040420532227e-01 4.114497900009155273e-01
7.288817316293716431e-03 -3.127004504203796387e-01 4.574943780899047852e-01
-1.675274521112442017e-01 -5.367296934127807617e-01 4.495145976543426514e-01
3.705508112907409668e-01 -3.833336234092712402e-01 4.742700457572937012e-01
-3.741848170757293701e-01 -4.010217189788818359e-01 4.076309800148010254e-01
-8.134318888187408447e-02 -4.518852829933166504e-01 4.649246931076049805e-01
-2.867721617221832275e-01 -4.732730090618133545e-01 4.536080956459045410e-01
2.392160519957542419e-02 -5.379478335380554199e-01 4.191932678222656250e-01
7.275316119194030762e-02 -3.702650070190429688e-01 4.197010397911071777e-01
-2.634387314319610596e-01 -5.640376806259155273e-01 4.120145142078399658e-01
-1.591352969408035278e-01 -3.453050851821899414e-01 4.559605419635772705e-01
-4.577577114105224609e-01 -4.986381232738494873e-01 4.390847682952880859e-01
2.146109342575073242e-01 -3.891785740852355957e-01 4.746012687683105469e-01
-3.027953505516052246e-01 -4.903123378753662109e-01 4.008820652961730957e-01
-3.675724864006042480e-01 -5.052267313003540039e-01 4.452148079872131348e-01
-1.822832226753234863e-01 -3.493233323097229004e-01 4.182924628257751465e-01
-3.727229237556457520e-01 -5.535992383956909180e-01 4.339627325534820557e-01
-1.470199227333068848e-01 -4.802445769309997559e-01 4.045203924179077148e-01
3.381925821304321289e-01 -3.554195761680603027e-01 4.380426406860351562e-01
6.869454681873321533e-02 -4.599070549011230469e-01 4.686887264251708984e-01
-5.032440647482872009e-02 -4.705902338027954102e-01 4.644640386104583740e-01
-3.395605385303497314e-01 -5.007500648498535156e-01 4.476420283317565918e-01
1.440261751413345337e-01 -3.686558008193969727e-01 4.232250750064849854e-01
-1.128255277872085571e-01 -4.200436770915985107e-01 4.075367450714111328e-01
-5.138621926307678223e-01 -5.081554055213928223e-01 4.024719595909118652e-01
2.659873962402343750e-01 -3.488600254058837891e-01 4.337387979030609131e-01
-3.609171211719512939e-01 -4.498859345912933350e-01 4.498832821846008301e-01
-4.587263464927673340e-01 -4.668125510215759277e-01 4.010917842388153076e-01
-1.477917581796646118e-01 -4.219320416450500488e-01 4.064471125602722168e-01
-3.195305168628692627e-01 -3.642635345458984375e-01 4.460480213165283203e-01
7.298025488853454590e-02 -3.083295524120330811e-01 4.367935955524444580e-01
-3.843883052468299866e-02 -4.237435758113861084e-01 4.096985459327697754e-01
-7.603614032268524170e-02 -4.179197549819946289e-01 4.088227450847625732e-01
-2.019237726926803589e-02 -5.646615028381347656e-01 4.276644885540008545e-01
1.609222292900085449e-01 -3.331967890262603760e-01 4.311188161373138428e-01
-5.401564240455627441e-01 -4.453291893005371094e-01 4.064014852046966553e-01
-4.543205201625823975e-01 -5.319184660911560059e-01 4.034308791160583496e-01
-5.989354252815246582e-01 -4.514076709747314453e-01 4.184404909610748291e-01
-4.944829940795898438e-01 -5.109626650810241699e-01 4.020264148712158203e-01
4.242945089936256409e-02 -4.170289039611816406e-01 4.706520736217498779e-01
3.737680315971374512e-01 -4.073246121406555176e-01 4.736191034317016602e-01
1.269410252571105957e-01 -5.293430089950561523e-01 4.548464417457580566e-01
1.876469701528549194e-01 -4.921970367431640625e-01 4.647688269615173340e-01
-2.584056854248046875e-01 -5.035244226455688477e-01 4.021957516670227051e-01
-6.576023995876312256e-02 -3.461303114891052246e-01 4.621286094188690186e-01
-1.803626865148544312e-01 -4.933707118034362793e-01 4.569774270057678223e-01
-1.283124238252639771e-01 -4.385373592376708984e-01 4.058537483215332031e-01
2.407632172107696533e-01 -3.977297544479370117e-01 4.748318195343017578e-01
-5.357584953308105469e-01 -4.817660152912139893e-01 4.325688779354095459e-01
-2.080860361456871033e-02 -3.086918592453002930e-01 4.534377157688140869e-01
-3.248821496963500977e-01 -5.286689996719360352e-01 4.439336955547332764e-01
1.372044906020164490e-02 -4.289768934249877930e-01 4.114824831485748291e-01
-7.032763212919235229e-02 -5.147845745086669922e-01 4.574225842952728271e-01
-4.032929837703704834e-01 -4.323108196258544922e-01 4.032185971736907959e-01
4.767341539263725281e-02 -3.514487743377685547e-01 4.681760370731353760e-01
-5.251280590891838074e-02 -5.489525794982910156e-01 4.484293758869171143e-01
3.185165226459503174e-01 -4.653427004814147949e-01 4.324216842651367188e-01
3.393204212188720703e-01 -4.357237219810485840e-01 4.719672203063964844e-01
-2.692143023014068604e-01 -5.442605614662170410e-01 4.064978957176208496e-01
-5.511709451675415039e-01 -4.656607210636138916e-01 4.046752154827117920e-01
-1.579874753952026367e-01 -3.550879955291748047e-01 4.167360365390777588e-01
2.037463188171386719e-01 -3.417171239852905273e-01 4.313333928585052490e-01
-4.182211458683013916e-01 -5.532615184783935547e-01 4.076070785522460938e-01
3.856362700462341309e-01 -4.514425992965698242e-01 4.677636325359344482e-01
-2.884967625141143799e-01 -5.412395000457763672e-01 4.430460035800933838e-01
3.832256197929382324e-01 -3.637707233428955078e-01 4.408072233200073242e-01
-1.444165557622909546e-01 -4.648456275463104248e-01 4.614442586898803711e-01
-3.224651515483856201e-01 -5.484586954116821289e-01 4.063289761543273926e-01
-4.632739722728729248e-01 -5.189988017082214355e-01 4.355674088001251221e-01
-4.228784441947937012e-01 -5.664112567901611328e-01 4.202077686786651611e-01
-5.525936484336853027e-01 -5.114542245864868164e-01 4.047980606555938721e-01
2.138991281390190125e-02 -3.298788368701934814e-01 4.635027647018432617e-01
1.934215873479843140e-01 -4.856329262256622314e-01 4.231269657611846924e-01
-5.018571019172668457e-02 -5.362882018089294434e-01 4.139698743820190430e-01
-4.811059534549713135e-01 -4.862335324287414551e-01 4.009579122066497803e-01
-5.496957302093505859e-01 -5.103576779365539551e-01 4.274251461029052734e-01
-2.149292826652526855e-01 -5.391663312911987305e-01 4.470703899860382080e-01
4.643399119377136230e-01 -3.695508539676666260e-01 4.693633913993835449e-01
-1.766196638345718384e-01 -4.719433784484863281e-01 4.035426676273345947e-01
-2.091311216354370117e-01 -4.337536990642547607e-01 4.597777426242828369e-01
-4.837190806865692139e-01 -4.507159888744354248e-01 4.391591250896453857e-01
-3.163762390613555908e-02 -4.596486389636993408e-01 4.087350964546203613e-01
-1.303121298551559448e-01 -5.433001518249511719e-01 4.112490713596343994e-01
4.088220000267028809e-01 -4.428433179855346680e-01 4.680558443069458008e-01
9.647529572248458862e-03 -4.015361666679382324e-01 4.697006344795227051e-01
-2.049437761306762695e-01 -3.271603882312774658e-01 4.449042975902557373e-01
2.334411442279815674e-01 -3.538085818290710449e-01 4.731621742248535156e-01
3.018094599246978760e-01 -3.590394556522369385e-01 4.739596843719482422e-01
2.359383106231689453e-01 -3.006830215454101562e-01 4.559402465820312500e-01
-4.264079034328460693e-02 -3.407168686389923096e-01 4.220596849918365479e-01
4.543214663863182068e-02 -4.167933464050292969e-01 4.135706126689910889e-01
-7.668215781450271606e-03 -4.630901515483856201e-01 4.097932875156402588e-01
-2.393699735403060913e-01 -5.748257637023925781e-01 4.302064180374145508e-01
-5.564537644386291504e-01 -4.734468162059783936e-01 4.301986694335937500e-01
-3.398809134960174561e-01 -3.831874430179595947e-01 4.478257000446319580e-01
6.134126707911491394e-02 -5.563146471977233887e-01 4.410847723484039307e-01
-1.650426685810089111e-01 -3.769481778144836426e-01 4.603006541728973389e-01
1.109448522329330444e-01 -3.622159957885742188e-01 4.226500988006591797e-01
-7.666752487421035767e-02 -4.986231625080108643e-01 4.079567193984985352e-01
-8.011840283870697021e-02 -4.018133580684661865e-01 4.661088287830352783e-01
-4.469723105430603027e-01 -4.447698891162872314e-01 4.427574276924133301e-01
3.084950149059295654e-01 -3.778746724128723145e-01 4.323785603046417236e-01
-4.115520715713500977e-01 -5.121005773544311523e-01 4.410507082939147949e-01
2.718346714973449707e-01 -4.231749475002288818e-01 4.738888740539550781e-01
3.114518225193023682e-01 -3.325482010841369629e-01 4.410754144191741943e-01
-3.005144894123077393e-01 -3.549282550811767578e-01 4.186293482780456543e-01
2.950741350650787354e-01 -5.045854449272155762e-01 4.566465914249420166e-01
-1.757749319076538086e-01 -5.179045200347900391e-01 4.056386053562164307e-01
2.068391144275665283e-01 -3.028694093227386475e-01 4.465277493000030518e-01
1.671951636672019958e-02 -4.690455198287963867e-01 4.665448367595672607e-01
-3.172799050807952881e-01 -3.417727947235107422e-01 4.338766336441040039e-01
2.461345195770263672e-01 -4.494543075561523438e-01 4.714988768100738525e-01
-2.477684468030929565e-01 -4.427013099193572998e-01 4.574201703071594238e-01
2.867360785603523254e-02 -4.032638967037200928e-01 4.139088094234466553e-01
-3.282479345798492432e-01 -4.915574193000793457e-01 4.005610942840576172e-01
-1.446247696876525879e-01 -5.383999347686767578e-01 4.498341381549835205e-01
2.647672221064567566e-02 -3.274615406990051270e-01 4.276103675365447998e-01
-3.217143714427947998e-01 -5.726799964904785156e-01 4.161590933799743652e-01
1.242188066244125366e-01 -4.158918857574462891e-01 4.174912869930267334e-01
7.585085928440093994e-02 -3.371016085147857666e-01 4.264165163040161133e-01
2.402724325656890869e-01 -4.228140413761138916e-01 4.243492484092712402e-01
-1.075215116143226624e-01 -4.424107074737548828e-01 4.643982648849487305e-01
-3.542403876781463623e-01 -5.734083056449890137e-01 4.195694327354431152e-01
-4.053472280502319336e-01 -5.506168603897094727e-01 4.324402511119842529e-01
6.507240235805511475e-02 -3.796066045761108398e-01 4.710051417350769043e-01
3.344625830650329590e-01 -3.815787434577941895e-01 4.747910499572753906e-01
1.896249949932098389e-01 -4.217379093170166016e-01 4.735656380653381348e-01
-9.451732784509658813e-02 -5.328364372253417969e-01 4.527127742767333984e-01
3.895269632339477539e-01 -4.828535914421081543e-01 4.509974420070648193e-01
-2.330719828605651855e-01 -3.359662890434265137e-01 4.461396932601928711e-01
1.901765763759613037e-01 -3.549198210239410400e-01 4.279069900512695312e-01
3.142319619655609131e-01 -4.393896758556365967e-01 4.302355647087097168e-01
3.603913187980651855e-01 -4.567192196846008301e-01 4.361705780029296875e-01
-2.379944324493408203e-01 -5.494980812072753906e-01 4.084395170211791992e-01
3.341762125492095947e-01 -4.934928715229034424e-01 4.581497907638549805e-01
2.246543169021606445e-01 -3.379565775394439697e-01 4.334491491317749023e-01
-2.788981199264526367e-01 -5.070660710334777832e-01 4.503301978111267090e-01
2.908626198768615723e-01 -3.784475326538085938e-01 4.749327301979064941e-01
2.470663785934448242e-01 -4.028399586677551270e-01 4.257282614707946777e-01
1.662563830614089966e-01 -4.230844676494598389e-01 4.731948971748352051e-01
4.230833351612091064e-01 -3.845916986465454102e-01 4.425558149814605713e-01
-1.302739232778549194e-02 -4.032644331455230713e-01 4.122838377952575684e-01
3.276984095573425293e-01 -3.394372165203094482e-01 4.715009331703186035e-01
1.666402220726013184e-01 -4.892066717147827148e-01 4.214145839214324951e-01
2.201712429523468018e-01 -4.644026160240173340e-01 4.234739243984222412e-01
-1.396459490060806274e-01 -5.258747935295104980e-01 4.079149961471557617e-01
4.238386750221252441e-01 -3.392834961414337158e-01 4.674790203571319580e-01
-3.882476687431335449e-01 -4.068211615085601807e-01 4.462246298789978027e-01
3.831260502338409424e-01 -3.858420848846435547e-01 4.381090402603149414e-01
5.225814506411552429e-02 -3.498465418815612793e-01 4.225785136222839355e-01
-1.741751581430435181e-01 -5.728386640548706055e-01 4.339229166507720947e-01
-5.032008290290832520e-01 -4.053272306919097900e-01 4.134222567081451416e-01
1.141201108694076538e-01 -3.272565007209777832e-01 4.666555821895599365e-01
-1.772603690624237061e-01 -4.731950163841247559e-01 4.592924118041992188e-01
1.451190561056137085e-01 -3.943460881710052490e-01 4.202157258987426758e-01
-1.384959071874618530e-01 -3.228541612625122070e-01 4.285319149494171143e-01
-3.466098755598068237e-02 -3.045877814292907715e-01 4.399784207344055176e-01
3.958784043788909912e-01 -3.991076350212097168e-01 4.385006129741668701e-01
4.106597900390625000e-01 -4.742971658706665039e-01 4.523628056049346924e-01
-3.584155142307281494e-01 -4.728435873985290527e-01 4.490743577480316162e-01
-2.834733724594116211e-01 -4.875855743885040283e-01 4.011531472206115723e-01
-3.472271561622619629e-01 -4.021365046501159668e-01 4.494679570198059082e-01
-2.264454960823059082e-03 -4.700417518615722656e-01 4.659432470798492432e-01
-1.497019082307815552e-01 -4.407501518726348877e-01 4.051306843757629395e-01
1.404361054301261902e-02 -4.218405783176422119e-01 4.696537852287292480e-01
-1.895928382873535156e-01 -3.559067845344543457e-01 4.558425545692443848e-01
1.993559598922729492e-01 -4.647967219352722168e-01 4.695729315280914307e-01
3.685806319117546082e-02 -3.798375725746154785e-01 4.700667262077331543e-01
2.208061516284942627e-01 -4.669465720653533936e-01 4.692157506942749023e-01
-1.223761588335037231e-02 -5.425644516944885254e-01 4.178328812122344971e-01
-5.219197869300842285e-01 -4.259787499904632568e-01 4.088314473628997803e-01
-5.482785105705261230e-01 -4.885742664337158203e-01 4.034706056118011475e-01
-3.242674469947814941e-01 -5.239579677581787109e-01 4.025143980979919434e-01
-3.949950039386749268e-01 -4.023390114307403564e-01 4.078316390514373779e-01
-2.094259858131408691e-01 -3.903785943984985352e-01 4.090832769870758057e-01
-3.488548696041107178e-01 -4.173717200756072998e-01 4.046418070793151855e-01
4.918841123580932617e-01 -3.667036890983581543e-01 4.576369524002075195e-01
1.778651177883148193e-01 -4.538272619247436523e-01 4.708666801452636719e-01
5.273310467600822449e-02 -4.624355435371398926e-01 4.127359688282012939e-01
5.749104544520378113e-02 -4.280875921249389648e-01 4.707086384296417236e-01
-1.065696924924850464e-01 -5.002375841140747070e-01 4.068080186843872070e-01
-2.627418935298919678e-01 -4.856780767440795898e-01 4.015165567398071289e-01
1.052472442388534546e-01 -4.347072839736938477e-01 4.156904816627502441e-01
-1.148661971092224121e-01 -5.740133523941040039e-01 4.280891418457031250e-01
-2.953374087810516357e-01 -4.283464848995208740e-01 4.034343957901000977e-01
1.385938078165054321e-01 -4.583666026592254639e-01 4.699895381927490234e-01
5.149758234620094299e-02 -5.210185647010803223e-01 4.175121486186981201e-01
2.562648653984069824e-01 -3.478480279445648193e-01 4.727628231048583984e-01
-1.434886753559112549e-01 -5.090517401695251465e-01 4.561443626880645752e-01
4.154128134250640869e-01 -3.736335933208465576e-01 4.727194607257843018e-01
8.329603821039199829e-03 -3.663084208965301514e-01 4.681117534637451172e-01
-5.531841516494750977e-01 -4.430096447467803955e-01 4.296492338180541992e-01
-2.409737110137939453e-01 -4.270332157611846924e-01 4.041535258293151855e-01
1.904954761266708374e-01 -5.147325992584228516e-01 4.585322737693786621e-01
4.373025596141815186e-01 -3.935337364673614502e-01 4.717858433723449707e-01
-9.662933647632598877e-02 -3.233726024627685547e-01 4.276225566864013672e-01
6.954464316368103027e-02 -5.089622735977172852e-01 4.610919952392578125e-01
-4.384263157844543457e-01 -5.488308668136596680e-01 4.300558567047119141e-01
3.477334082126617432e-01 -3.129431903362274170e-01 4.600992500782012939e-01
2.472365498542785645e-01 -4.840657413005828857e-01 4.657258987426757812e-01
-1.255459189414978027e-01 -4.368962347507476807e-01 4.638352394104003906e-01
4.494514465332031250e-01 -4.479684233665466309e-01 4.620757400989532471e-01
-1.626167148351669312e-01 -4.203675985336303711e-01 4.623414576053619385e-01
2.523988187313079834e-01 -5.233249664306640625e-01 4.426643252372741699e-01
-5.033302307128906250e-01 -4.978946149349212646e-01 4.347980320453643799e-01
8.288390934467315674e-02 -3.902660012245178223e-01 4.175528287887573242e-01
2.523291110992431641e-01 -3.366768658161163330e-01 4.355353116989135742e-01
-5.049091577529907227e-01 -5.261278748512268066e-01 4.040233194828033447e-01
-4.118643999099731445e-01 -5.175334811210632324e-01 4.013597369194030762e-01
-4.381942451000213623e-01 -4.240609705448150635e-01 4.427737295627593994e-01
-3.415462076663970947e-01 -3.539772629737854004e-01 4.217492043972015381e-01
4.078204929828643799e-01 -3.248799443244934082e-01 4.594377279281616211e-01
-5.294811129570007324e-01 -4.593401551246643066e-01 4.339614212512969971e-01
-5.759654045104980469e-01 -4.333885908126831055e-01 4.215580523014068604e-01
1.679267585277557373e-01 -3.708697259426116943e-01 4.241524934768676758e-01
1.164938807487487793e-01 -5.454256534576416016e-01 4.465788900852203369e-01
-3.088930547237396240e-01 -5.452247262001037598e-01 4.408266544342041016e-01
-3.622303307056427002e-01 -5.593274831771850586e-01 4.090619981288909912e-01
2.336479723453521729e-03 -5.527117252349853516e-01 4.467127621173858643e-01
-3.904730081558227539e-01 -4.577850103378295898e-01 4.009018540382385254e-01
3.467509150505065918e-01 -4.757380783557891846e-01 4.374565780162811279e-01
-5.241192579269409180e-01 -4.883541464805603027e-01 4.022758901119232178e-01
7.536497712135314941e-02 -4.832828342914581299e-01 4.658863246440887451e-01
7.653151452541351318e-02 -3.216273784637451172e-01 4.639362394809722900e-01
1.270911097526550293e-01 -4.013153910636901855e-01 4.730865955352783203e-01
-3.435846865177154541e-01 -5.187561511993408203e-01 4.446814954280853271e-01
6.880819797515869141e-02 -4.022011458873748779e-01 4.715973734855651855e-01
7.088355720043182373e-02 -4.430717825889587402e-01 4.137018322944641113e-01
-4.189994037151336670e-01 -4.447384178638458252e-01 4.021024107933044434e-01
-4.698850214481353760e-01 -4.032548367977142334e-01 4.109454751014709473e-01
-4.506186246871948242e-01 -5.616773962974548340e-01 4.140232503414154053e-01
3.653176426887512207e-01 -3.722964227199554443e-01 4.378613531589508057e-01
-5.933032035827636719e-01 -4.809814095497131348e-01 4.077357053756713867e-01
-1.479289084672927856e-01 -5.751059055328369141e-01 4.306982457637786865e-01
1.144197955727577209e-02 -3.465802073478698730e-01 4.660458862781524658e-01
-2.350639700889587402e-01 -4.091490805149078369e-01 4.061360061168670654e-01
-1.913035959005355835e-01 -5.660663247108459473e-01 4.381996095180511475e-01
-2.756170928478240967e-01 -4.290996193885803223e-01 4.558794796466827393e-01
4.967865943908691406e-01 -4.110080301761627197e-01 4.552278518676757812e-01
-2.775283455848693848e-01 -3.803024590015411377e-01 4.107387661933898926e-01
4.833827614784240723e-01 -4.323179125785827637e-01 4.577403664588928223e-01
-7.803992927074432373e-02 -5.230699777603149414e-01 4.102961122989654541e-01
7.658967375755310059e-02 -5.371591448783874512e-01 4.232681989669799805e-01
-1.349092125892639160e-01 -4.609331190586090088e-01 4.048940837383270264e-01
1.833749562501907349e-01 -3.863481581211090088e-01 4.231231808662414551e-01
