-3.447484076023101807e-01 -3.576257228851318359e-01 7.042539715766906738e-01
-3.599289059638977051e-01 -1.874607652425765991e-01 7.529051303863525391e-01
-1.626338958740234375e-01 -2.727483510971069336e-01 7.615938782691955566e-01
-2.941154539585113525e-01 -3.452051281929016113e-01 8.038060069084167480e-01
-2.384123951196670532e-01 -1.583636403083801270e-01 8.256404399871826172e-01
-3.008325695991516113e-01 -1.262122690677642822e-01 7.519080638885498047e-01
-3.544333875179290771e-01 -3.382237255573272705e-01 7.710746526718139648e-01
-2.277623265981674194e-01 -3.555718064308166504e-01 6.676422953605651855e-01
-1.431133747100830078e-01 -2.365738600492477417e-01 7.115514278411865234e-01
-2.170180976390838623e-01 -2.771544456481933594e-01 8.259087800979614258e-01
-2.545661628246307373e-01 -3.748419880867004395e-01 7.257830500602722168e-01
-1.738689690828323364e-01 -2.285856902599334717e-01 6.279009580612182617e-01
-1.964738667011260986e-01 -3.291697204113006592e-01 6.619572043418884277e-01
-3.608731031417846680e-01 -2.549949586391448975e-01 6.614539027214050293e-01
-2.185691297054290771e-01 -3.562726378440856934e-01 7.327364087104797363e-01
-3.774642050266265869e-01 -3.022788465023040771e-01 7.096018791198730469e-01
-2.325986027717590332e-01 -3.652851879596710205e-01 7.293833494186401367e-01
-3.653053045272827148e-01 -3.127781152725219727e-01 7.814221978187561035e-01
-3.454599976539611816e-01 -2.743417918682098389e-01 6.396349668502807617e-01
-1.703821569681167603e-01 -2.944348156452178955e-01 7.552977204322814941e-01
-3.635377287864685059e-01 -3.342748880386352539e-01 7.555014491081237793e-01
-2.346211373805999756e-01 -1.412540525197982788e-01 8.110572099685668945e-01
-2.853192090988159180e-01 -2.500802278518676758e-01 6.010542511940002441e-01
-3.096595704555511475e-01 -3.362542986869812012e-01 6.352261304855346680e-01
-3.383929133415222168e-01 -3.005337417125701904e-01 8.200092315673828125e-01
-1.870231181383132935e-01 -2.688362598419189453e-01 8.035050034523010254e-01
-1.441211998462677002e-01 -2.271874099969863892e-01 7.334750294685363770e-01
-1.634024232625961304e-01 -2.874736189842224121e-01 7.451967000961303711e-01
-2.765835821628570557e-01 -1.142687946557998657e-01 7.238942384719848633e-01
-3.218699395656585693e-01 -2.655870616436004639e-01 6.187285184860229492e-01
-3.771777153015136719e-01 -2.294491231441497803e-01 7.518049478530883789e-01
-2.773695290088653564e-01 -1.903656721115112305e-01 8.433718681335449219e-01
-3.093156516551971436e-01 -3.203914463520050049e-01 6.248086690902709961e-01
-2.809967100620269775e-01 -1.154358536005020142e-01 7.348980307579040527e-01
-1.840996146202087402e-01 -1.245954483747482300e-01 7.294210195541381836e-01
-3.065404295921325684e-01 -3.739542663097381592e-01 6.888231635093688965e-01
-3.528766036033630371e-01 -2.685729563236236572e-01 8.169458508491516113e-01
-2.761730551719665527e-01 -3.115668892860412598e-01 6.100676655769348145e-01
-2.466776371002197266e-01 -1.190981343388557434e-01 6.789054274559020996e-01
-3.755500018596649170e-01 -2.713378071784973145e-01 6.903289556503295898e-01
-2.596501111984252930e-01 -3.236104249954223633e-01 6.160277128219604492e-01
-1.582279503345489502e-01 -2.644390463829040527e-01 6.611421704292297363e-01
-2.126755714416503906e-01 -1.429015696048736572e-01 6.463896632194519043e-01
-3.831210136413574219e-01 -2.701746523380279541e-01 7.284904122352600098e-01
-1.857232749462127686e-01 -3.129108548164367676e-01 6.556368470191955566e-01
-3.814577162265777588e-01 -2.577601969242095947e-01 7.178869843482971191e-01
-1.712292730808258057e-01 -1.364529579877853394e-01 7.314702272415161133e-01
-2.482182234525680542e-01 -3.452124595642089844e-01 6.368241310119628906e-01
-1.442284882068634033e-01 -2.197221666574478149e-01 6.858870387077331543e-01
-1.990264058113098145e-01 -3.433573544025421143e-01 7.086320519447326660e-01
-3.076021075248718262e-01 -1.749241948127746582e-01 6.427869796752929688e-01
-1.860913038253784180e-01 -2.636828720569610596e-01 6.211235523223876953e-01
-2.211894840002059937e-01 -2.782216072082519531e-01 6.042021512985229492e-01
-3.495894670486450195e-01 -2.848460674285888672e-01 8.167883753776550293e-01
-1.486136019229888916e-01 -2.319361418485641479e-01 7.507834434509277344e-01
-3.553031682968139648e-01 -1.867379397153854370e-01 7.735133767127990723e-01
-3.650263547897338867e-01 -1.965874135494232178e-01 7.283801436424255371e-01
-1.819094717502593994e-01 -3.093359470367431641e-01 7.605712413787841797e-01
-3.042918443679809570e-01 -3.558075129985809326e-01 7.891196012496948242e-01
-3.757030367851257324e-01 -3.158020973205566406e-01 7.314341068267822266e-01
-1.456535011529922485e-01 -1.985704302787780762e-01 7.390625476837158203e-01
-1.961362659931182861e-01 -1.676392257213592529e-01 8.099601268768310547e-01
-3.373054265975952148e-01 -2.186463922262191772e-01 6.427295207977294922e-01
-3.519194126129150391e-01 -1.823062598705291748e-01 7.019366025924682617e-01
-1.759768873453140259e-01 -3.115111291408538818e-01 6.766490936279296875e-01
-2.316104322671890259e-01 -1.135096997022628784e-01 6.917318105697631836e-01
-1.674072146415710449e-01 -2.718756198883056641e-01 7.727600336074829102e-01
-2.546420097351074219e-01 -1.213560774922370911e-01 7.862184643745422363e-01
-2.492716163396835327e-01 -2.935454845428466797e-01 8.343677520751953125e-01
-2.836008965969085693e-01 -1.425828337669372559e-01 6.586936116218566895e-01
-1.984766125679016113e-01 -1.525760591030120850e-01 8.018202781677246094e-01
-2.372106760740280151e-01 -2.535656988620758057e-01 5.964570045471191406e-01
-1.763280630111694336e-01 -1.357907056808471680e-01 7.500423192977905273e-01
-3.080038428306579590e-01 -1.392999738454818726e-01 6.912560462951660156e-01
-2.942768037319183350e-01 -1.412924975156784058e-01 7.999941110610961914e-01
-2.079353928565979004e-01 -2.205903828144073486e-01 8.315985798835754395e-01
-2.631106674671173096e-01 -3.417709469795227051e-01 8.032442331314086914e-01
-3.263859748840332031e-01 -3.005736470222473145e-01 6.271398067474365234e-01
-2.834727764129638672e-01 -1.215630546212196350e-01 7.003841400146484375e-01
-1.908623576164245605e-01 -1.289387345314025879e-01 7.642661929130554199e-01
-1.521282643079757690e-01 -1.718945503234863281e-01 6.901292800903320312e-01
-3.316147625446319580e-01 -1.599863767623901367e-01 6.929050087928771973e-01
-2.924376428127288818e-01 -2.924579679965972900e-01 6.071881651878356934e-01
-2.017370164394378662e-01 -1.432715952396392822e-01 6.509710550308227539e-01
-1.606478691101074219e-01 -2.762371003627777100e-01 6.655340194702148438e-01
-1.933805644512176514e-01 -3.373547196388244629e-01 6.974683403968811035e-01
-3.089370727539062500e-01 -2.655909657478332520e-01 6.107463836669921875e-01
-2.401874959468841553e-01 -1.607975959777832031e-01 6.262121796607971191e-01
-2.536553740501403809e-01 -2.229332327842712402e-01 5.985290408134460449e-01
-2.338698208332061768e-01 -1.935245543718338013e-01 6.075018048286437988e-01
-2.932223975658416748e-01 -2.269778996706008911e-01 8.493999242782592773e-01
-3.084442913532257080e-01 -3.761715888977050781e-01 7.006056904792785645e-01
-3.441164493560791016e-01 -3.602511584758758545e-01 7.164804339408874512e-01
-3.809491693973541260e-01 -2.960534095764160156e-01 7.392950057983398438e-01
-1.587905883789062500e-01 -2.889041006565093994e-01 7.109193205833435059e-01
-2.526835501194000244e-01 -3.738512396812438965e-01 6.969814896583557129e-01
-3.775848150253295898e-01 -3.073450922966003418e-01 7.471013069152832031e-01
-3.560575544834136963e-01 -3.493127822875976562e-01 7.257632613182067871e-01
-3.720050752162933350e-01 -2.309495955705642700e-01 7.782649397850036621e-01
-1.822023242712020874e-01 -2.041321992874145508e-01 6.241725087165832520e-01
-3.712270259857177734e-01 -3.166702985763549805e-01 7.007553577423095703e-01
-2.311564534902572632e-01 -2.958387136459350586e-01 8.251965045928955078e-01
-1.844518482685089111e-01 -1.411940306425094604e-01 7.753053307533264160e-01
-2.751798033714294434e-01 -2.328794151544570923e-01 8.516587615013122559e-01
-2.815163135528564453e-01 -1.790477335453033447e-01 6.233659982681274414e-01
-2.332653105258941650e-01 -2.080548852682113647e-01 8.428429961204528809e-01
-2.749214768409729004e-01 -1.296652257442474365e-01 7.941890954971313477e-01
-1.962227076292037964e-01 -1.383931487798690796e-01 7.857458591461181641e-01
-2.860895395278930664e-01 -2.508113682270050049e-01 8.505857586860656738e-01
-1.442160010337829590e-01 -2.014566510915756226e-01 6.920759081840515137e-01
-2.005106210708618164e-01 -3.340210914611816406e-01 7.555303573608398438e-01
-3.206859529018402100e-01 -2.402375042438507080e-01 8.411741256713867188e-01
-2.494090795516967773e-01 -3.203308582305908203e-01 8.177736997604370117e-01
-2.403552234172821045e-01 -2.180804610252380371e-01 8.461848497390747070e-01
-1.680029928684234619e-01 -1.514997184276580811e-01 6.776515841484069824e-01
-2.965593338012695312e-01 -1.318208128213882446e-01 6.907633543014526367e-01
-3.702590763568878174e-01 -2.631736695766448975e-01 6.777621507644653320e-01
-2.447478473186492920e-01 -2.019116133451461792e-01 6.039877533912658691e-01
-2.703952789306640625e-01 -3.731096386909484863e-01 7.526145577430725098e-01
-3.264648914337158203e-01 -1.782734394073486328e-01 6.590819954872131348e-01
-3.460943698883056641e-01 -1.881337910890579224e-01 7.965680360794067383e-01
-3.438416123390197754e-01 -3.498081862926483154e-01 7.689079046249389648e-01
-3.720951676368713379e-01 -2.672497034072875977e-01 7.886294126510620117e-01
-2.137823700904846191e-01 -3.418254256248474121e-01 6.577004194259643555e-01
-3.469778299331665039e-01 -2.028245627880096436e-01 8.077964782714843750e-01
-3.172505795955657959e-01 -2.084645479917526245e-01 8.367382287979125977e-01
-3.010685443878173828e-01 -1.564126908779144287e-01 6.555529236793518066e-01
-2.042712867259979248e-01 -1.944678127765655518e-01 6.142703890800476074e-01
-1.845484226942062378e-01 -2.757406532764434814e-01 6.270363330841064453e-01
-3.677995800971984863e-01 -2.522652745246887207e-01 7.963891625404357910e-01
-2.693717777729034424e-01 -3.771224617958068848e-01 6.942295432090759277e-01
-2.101747989654541016e-01 -3.516682088375091553e-01 7.239088416099548340e-01
-3.467227816581726074e-01 -1.677474677562713623e-01 7.240067124366760254e-01
-2.762622535228729248e-01 -1.659007668495178223e-01 6.305492520332336426e-01
-3.407869935035705566e-01 -2.976864576339721680e-01 6.386876106262207031e-01
-2.109495401382446289e-01 -3.530078232288360596e-01 7.029436826705932617e-01
-2.094917148351669312e-01 -3.294286131858825684e-01 6.443302631378173828e-01
-1.492950916290283203e-01 -2.632111012935638428e-01 7.200435400009155273e-01
-1.509858965873718262e-01 -2.699704468250274658e-01 7.084079384803771973e-01
-2.470731288194656372e-01 -3.729902803897857666e-01 7.149216532707214355e-01
-1.490304470062255859e-01 -2.313194721937179565e-01 6.693473458290100098e-01
-1.984426081180572510e-01 -3.371421992778778076e-01 7.428196072578430176e-01
-1.741755604743957520e-01 -1.990551799535751343e-01 6.328839659690856934e-01
-1.664284467697143555e-01 -1.601952910423278809e-01 6.685523390769958496e-01
-3.115951120853424072e-01 -2.534326314926147461e-01 6.126360893249511719e-01
-3.252293467521667480e-01 -1.606935411691665649e-01 6.793602108955383301e-01
-2.701091766357421875e-01 -1.139805465936660767e-01 7.105277180671691895e-01
-2.664378881454467773e-01 -3.562866449356079102e-01 7.858706712722778320e-01
-2.145169079303741455e-01 -3.011788129806518555e-01 6.167201995849609375e-01
-3.680194616317749023e-01 -2.081055492162704468e-01 7.125405669212341309e-01
-1.714727282524108887e-01 -3.055297434329986572e-01 7.377914190292358398e-01
-2.873865664005279541e-01 -2.087183445692062378e-01 6.108031868934631348e-01
-2.077011168003082275e-01 -3.475321829319000244e-01 6.835606694221496582e-01
-3.053669929504394531e-01 -1.521694958209991455e-01 8.055500984191894531e-01
-3.229887187480926514e-01 -1.687618046998977661e-01 6.650472879409790039e-01
-2.290766984224319458e-01 -1.097841709852218628e-01 7.064781188964843750e-01
-1.788964867591857910e-01 -1.776297688484191895e-01 7.981993556022644043e-01
-1.572999656200408936e-01 -1.855912953615188599e-01 7.681021094322204590e-01
-2.484073191881179810e-01 -1.438770592212677002e-01 6.423779129981994629e-01
-3.250007629394531250e-01 -3.117796182632446289e-01 8.220952153205871582e-01
-3.225257992744445801e-01 -1.409333944320678711e-01 7.330955266952514648e-01
-2.600037157535552979e-01 -1.349497437477111816e-01 8.060625195503234863e-01
-3.127571344375610352e-01 -3.430317342281341553e-01 8.022575974464416504e-01
-2.857963442802429199e-01 -3.537371158599853516e-01 7.936218976974487305e-01
-2.568741142749786377e-01 -3.650814294815063477e-01 6.635687351226806641e-01
-3.531093597412109375e-01 -3.456722795963287354e-01 7.595443129539489746e-01
-2.166162133216857910e-01 -2.296776473522186279e-01 6.016068458557128906e-01
-3.573336005210876465e-01 -2.126285880804061890e-01 7.985121607780456543e-01
-2.922065258026123047e-01 -1.347988843917846680e-01 6.787423491477966309e-01
-2.237973809242248535e-01 -1.271294206380844116e-01 7.906510829925537109e-01
-3.120214045047760010e-01 -1.900369226932525635e-01 8.318076729774475098e-01
-3.016383945941925049e-01 -1.308630108833312988e-01 7.023862600326538086e-01
-2.153486460447311401e-01 -2.871320247650146484e-01 6.096439957618713379e-01
-2.587909698486328125e-01 -3.700142502784729004e-01 7.536219954490661621e-01
-3.135393857955932617e-01 -1.340563744306564331e-01 7.281540036201477051e-01
-2.176073789596557617e-01 -3.288598060607910156e-01 7.878700494766235352e-01
-3.520152270793914795e-01 -2.449023723602294922e-01 6.507309675216674805e-01
-2.602671086788177490e-01 -1.161627918481826782e-01 6.922645568847656250e-01
-1.514627635478973389e-01 -2.428513616323471069e-01 6.660223007202148438e-01
-3.785996437072753906e-01 -2.467563152313232422e-01 7.094911336898803711e-01
-2.127452045679092407e-01 -1.887864470481872559e-01 8.296656012535095215e-01
-3.546118736267089844e-01 -3.493433594703674316e-01 7.427040338516235352e-01
-1.860235333442687988e-01 -2.056184262037277222e-01 8.134402036666870117e-01
-2.013411223888397217e-01 -1.718584746122360229e-01 6.267875432968139648e-01
-3.512728512287139893e-01 -2.952322065830230713e-01 8.113760948181152344e-01
-3.535598218441009521e-01 -1.766128987073898315e-01 7.289748787879943848e-01
-3.734669983386993408e-01 -3.143498003482818604e-01 7.570335268974304199e-01
-2.945761084556579590e-01 -3.038468658924102783e-01 6.113637685775756836e-01
-3.402100205421447754e-01 -3.570013046264648438e-01 7.590824365615844727e-01
-2.635446190834045410e-01 -1.104269176721572876e-01 7.229135632514953613e-01
-1.901431381702423096e-01 -1.606407463550567627e-01 6.414098739624023438e-01
-2.879949808120727539e-01 -3.211745321750640869e-01 8.249635696411132812e-01
-3.233966827392578125e-01 -3.724982738494873047e-01 7.312539815902709961e-01
-3.204092383384704590e-01 -2.881680727005004883e-01 6.198673248291015625e-01
-1.719782352447509766e-01 -2.419798821210861206e-01 6.306587457656860352e-01
-1.716819256544113159e-01 -1.892739981412887573e-01 7.938033342361450195e-01
-2.473997622728347778e-01 -3.155056536197662354e-01 6.126666069030761719e-01
-2.813540399074554443e-01 -1.175150573253631592e-01 7.135558724403381348e-01
-3.050031960010528564e-01 -3.657683432102203369e-01 7.721986174583435059e-01
-1.635234504938125610e-01 -2.253896892070770264e-01 6.403973102569580078e-01
-3.750698566436767578e-01 -2.360517978668212891e-01 7.034410238265991211e-01
-1.560072898864746094e-01 -2.746258080005645752e-01 6.789777278900146484e-01
-1.900523900985717773e-01 -3.166720867156982422e-01 7.658739089965820312e-01
-1.611044555902481079e-01 -2.528609335422515869e-01 7.727072238922119141e-01
-3.627672195434570312e-01 -1.954478025436401367e-01 7.625019550323486328e-01
-3.004630208015441895e-01 -1.311203390359878540e-01 7.733456492424011230e-01
-2.209746241569519043e-01 -3.027872741222381592e-01 8.144698143005371094e-01
-1.764672696590423584e-01 -1.335169076919555664e-01 6.989570856094360352e-01
-3.286362290382385254e-01 -1.987110972404479980e-01 8.248482942581176758e-01
-3.292754292488098145e-01 -2.970833778381347656e-01 8.272290229797363281e-01
-2.412076592445373535e-01 -2.799454033374786377e-01 5.995453000068664551e-01
-2.273831516504287720e-01 -2.478908896446228027e-01 8.401317596435546875e-01
-3.166330754756927490e-01 -1.892648637294769287e-01 6.394900083541870117e-01
-3.664120733737945557e-01 -2.987097203731536865e-01 7.895496487617492676e-01
-3.528422415256500244e-01 -3.482744991779327393e-01 7.003513574600219727e-01
-3.186547756195068359e-01 -3.340990543365478516e-01 8.087071180343627930e-01
-3.143692314624786377e-01 -3.069453835487365723e-01 6.214634180068969727e-01
-2.803257405757904053e-01 -3.462183475494384766e-01 8.023213148117065430e-01
-2.333586513996124268e-01 -1.799675226211547852e-01 8.354486227035522461e-01
-1.453833580017089844e-01 -2.497768998146057129e-01 7.068356275558471680e-01
-3.756982088088989258e-01 -2.917711138725280762e-01 6.948654055595397949e-01
-3.272134065628051758e-01 -2.206886857748031616e-01 6.317095756530761719e-01
-3.549828231334686279e-01 -2.025169432163238525e-01 6.806074380874633789e-01
-2.561253011226654053e-01 -2.555065751075744629e-01 8.482846021652221680e-01
-3.529400825500488281e-01 -2.212194800376892090e-01 8.100719451904296875e-01
-3.152453303337097168e-01 -3.025632500648498535e-01 8.309639692306518555e-01
-3.335780501365661621e-01 -3.568325936794281006e-01 7.691594362258911133e-01
-3.402409255504608154e-01 -1.769374608993530273e-01 7.934898138046264648e-01
-2.482220530509948730e-01 -2.339373677968978882e-01 5.965334177017211914e-01
-2.258547544479370117e-01 -3.561207950115203857e-01 7.504436373710632324e-01
-1.800518631935119629e-01 -2.266684323549270630e-01 8.077222108840942383e-01
-2.608475387096405029e-01 -3.093715012073516846e-01 6.081273555755615234e-01
-1.550359129905700684e-01 -1.815162301063537598e-01 6.700540781021118164e-01
-1.427141427993774414e-01 -2.060206681489944458e-01 7.235890626907348633e-01
-3.718986511230468750e-01 -2.775992155075073242e-01 6.810507774353027344e-01
-2.918814420700073242e-01 -1.780043989419937134e-01 6.293637752532958984e-01
-2.184496819972991943e-01 -1.244920864701271057e-01 6.700552105903625488e-01
-3.538918793201446533e-01 -3.349942564964294434e-01 6.791470050811767578e-01
-2.933488190174102783e-01 -1.242461279034614563e-01 7.087747454643249512e-01
-3.780905306339263916e-01 -2.560829818248748779e-01 7.714300751686096191e-01
-2.101546674966812134e-01 -3.333540260791778564e-01 7.729060053825378418e-01
-1.537778079509735107e-01 -2.685446739196777344e-01 7.381904125213623047e-01
-2.697845697402954102e-01 -2.962757050991058350e-01 6.033966541290283203e-01
-2.398959100246429443e-01 -2.420240938663482666e-01 8.458125591278076172e-01
-2.222613990306854248e-01 -3.187496662139892578e-01 8.027246594429016113e-01
-1.772084534168243408e-01 -2.781338691711425781e-01 6.366860866546630859e-01
-2.073612660169601440e-01 -2.020731121301651001e-01 8.295615911483764648e-01
-3.124092519283294678e-01 -3.727668523788452148e-01 7.497423887252807617e-01
-2.678946256637573242e-01 -1.415153443813323975e-01 8.122658729553222656e-01
-2.545984387397766113e-01 -1.082935333251953125e-01 7.350026965141296387e-01
-3.148360550403594971e-01 -1.372907161712646484e-01 7.135657668113708496e-01
-3.368124961853027344e-01 -3.183976709842681885e-01 8.108370900154113770e-01
-2.485623955726623535e-01 -1.454093158245086670e-01 8.172541856765747070e-01
-1.632976830005645752e-01 -1.891843080520629883e-01 6.500534415245056152e-01
-2.785886228084564209e-01 -1.560760587453842163e-01 6.402900218963623047e-01
-3.114943504333496094e-01 -1.392403841018676758e-01 7.759765982627868652e-01
-2.634754478931427002e-01 -1.583181023597717285e-01 6.320937871932983398e-01
-2.734226584434509277e-01 -3.537545800209045410e-01 6.422515511512756348e-01
-3.427564203739166260e-01 -1.614354848861694336e-01 7.396761178970336914e-01
-2.905530929565429688e-01 -2.198582291603088379e-01 6.083770990371704102e-01
-3.333204388618469238e-01 -3.491309881210327148e-01 6.664588451385498047e-01
-2.929105162620544434e-01 -3.587354421615600586e-01 6.513400673866271973e-01
-3.714190125465393066e-01 -2.194931507110595703e-01 7.081799507141113281e-01
-2.806024551391601562e-01 -3.760251104831695557e-01 6.852515339851379395e-01
-1.617481708526611328e-01 -1.495909988880157471e-01 7.350693941116333008e-01
-1.470349729061126709e-01 -2.187898159027099609e-01 6.745304465293884277e-01
-2.062965631484985352e-01 -1.152434349060058594e-01 7.496697306632995605e-01
-2.091039270162582397e-01 -1.212429627776145935e-01 7.706482410430908203e-01
-2.363852709531784058e-01 -3.644170165061950684e-01 7.427136898040771484e-01
-3.120724260807037354e-01 -2.208100408315658569e-01 8.425924777984619141e-01
-1.960226297378540039e-01 -2.954111993312835693e-01 6.267126798629760742e-01
-2.711938917636871338e-01 -1.339453756809234619e-01 6.629656553268432617e-01
-1.952880620956420898e-01 -3.355770111083984375e-01 6.799165606498718262e-01
-1.487640142440795898e-01 -2.013393193483352661e-01 7.523733973503112793e-01
-3.326400816440582275e-01 -3.302031755447387695e-01 6.471034288406372070e-01
-1.763799637556076050e-01 -1.523684859275817871e-01 7.768477201461791992e-01
-2.327880412340164185e-01 -3.451635539531707764e-01 6.446145772933959961e-01
-2.329469174146652222e-01 -3.252378702163696289e-01 8.046038150787353516e-01
-2.975725531578063965e-01 -1.669062972068786621e-01 6.419490575790405273e-01
-3.650752007961273193e-01 -3.246361315250396729e-01 7.685477733612060547e-01
-1.492443829774856567e-01 -1.742231845855712891e-01 7.018063664436340332e-01
-3.578405976295471191e-01 -2.921342551708221436e-01 6.578261256217956543e-01
-1.574339270591735840e-01 -2.851140797138214111e-01 6.973071098327636719e-01
-3.036965429782867432e-01 -1.269667893648147583e-01 7.345024943351745605e-01
-2.443716377019882202e-01 -3.647104501724243164e-01 7.537910938262939453e-01
-3.295936286449432373e-01 -3.651560544967651367e-01 6.919406056404113770e-01
-3.013870120048522949e-01 -2.373364865779876709e-01 8.482531309127807617e-01
-1.584467440843582153e-01 -2.077379375696182251e-01 6.504372954368591309e-01
-1.845498085021972656e-01 -1.257978826761245728e-01 7.047752141952514648e-01
-1.655247807502746582e-01 -2.034998387098312378e-01 6.412613391876220703e-01
-2.678959369659423828e-01 -3.180412650108337402e-01 8.251893520355224609e-01
-3.011931777000427246e-01 -1.984355747699737549e-01 8.405621051788330078e-01
-3.195194900035858154e-01 -3.556356132030487061e-01 7.831212878227233887e-01
-2.978511750698089600e-01 -3.725450634956359863e-01 6.787034273147583008e-01
-2.804951667785644531e-01 -2.708742022514343262e-01 6.000451445579528809e-01
-2.558265626430511475e-01 -2.370071262121200562e-01 8.500986695289611816e-01
-3.175952434539794922e-01 -1.809433400630950928e-01 8.226887583732604980e-01
-3.011385798454284668e-01 -1.817920506000518799e-01 8.328726291656494141e-01
-3.238112628459930420e-01 -3.581398129463195801e-01 6.693325042724609375e-01
-2.101400047540664673e-01 -1.176192760467529297e-01 6.899031996726989746e-01
-3.005862236022949219e-01 -3.785680532455444336e-01 7.310826778411865234e-01
-1.836544573307037354e-01 -3.270792365074157715e-01 7.159399986267089844e-01
-1.866519004106521606e-01 -2.481603473424911499e-01 6.174330711364746094e-01
-1.918327510356903076e-01 -2.205021530389785767e-01 6.140008568763732910e-01
-1.801565289497375488e-01 -2.593008279800415039e-01 7.996965646743774414e-01
-1.802670657634735107e-01 -1.461832523345947266e-01 6.658508181571960449e-01
-2.172596007585525513e-01 -3.269263207912445068e-01 6.345283389091491699e-01
-2.595173418521881104e-01 -2.223963290452957153e-01 8.503361940383911133e-01
-3.294006884098052979e-01 -3.636770248413085938e-01 7.584932446479797363e-01
-1.523047387599945068e-01 -2.218815386295318604e-01 6.601638793945312500e-01
-1.534239947795867920e-01 -2.254862636327743530e-01 7.658945322036743164e-01
-3.365551233291625977e-01 -2.557216882705688477e-01 8.320093154907226562e-01
-2.692744731903076172e-01 -1.621028780937194824e-01 8.297547698020935059e-01
-2.176821678876876831e-01 -2.069454193115234375e-01 8.361163139343261719e-01
-3.432871401309967041e-01 -3.533563613891601562e-01 6.883783936500549316e-01
-3.790574967861175537e-01 -2.343252599239349365e-01 7.379578948020935059e-01
-3.370054960250854492e-01 -2.657767832279205322e-01 6.309968829154968262e-01
-3.750161528587341309e-01 -2.557537853717803955e-01 6.915471553802490234e-01
-1.653251796960830688e-01 -3.013293147087097168e-01 7.098571658134460449e-01
-2.998585700988769531e-01 -2.476406991481781006e-01 6.069758534431457520e-01
-2.186824083328247070e-01 -2.066632360219955444e-01 6.054402589797973633e-01
-2.006704509258270264e-01 -1.272540688514709473e-01 6.752837896347045898e-01
-3.069019913673400879e-01 -2.269494086503982544e-01 6.146379113197326660e-01
-3.173004090785980225e-01 -1.493565142154693604e-01 7.881166934967041016e-01
-2.886324226856231689e-01 -1.190959513187408447e-01 7.450329661369323730e-01
-1.900979280471801758e-01 -2.264371812343597412e-01 8.178197741508483887e-01
-1.794965118169784546e-01 -1.831482946872711182e-01 6.347836256027221680e-01
-3.213953673839569092e-01 -1.646787375211715698e-01 8.047695755958557129e-01
-2.971538305282592773e-01 -2.011655271053314209e-01 6.187641620635986328e-01
-3.602264523506164551e-01 -2.718923687934875488e-01 8.078478574752807617e-01
-2.684730887413024902e-01 -3.758525550365447998e-01 7.410352826118469238e-01
-3.708528280258178711e-01 -2.098199129104614258e-01 7.506957650184631348e-01
-3.796953558921813965e-01 -2.639411091804504395e-01 7.057244181632995605e-01
-1.638080477714538574e-01 -2.979961633682250977e-01 6.980737447738647461e-01
-1.901026070117950439e-01 -1.945717036724090576e-01 8.152087926864624023e-01
-1.591098010540008545e-01 -1.640402376651763916e-01 7.546100020408630371e-01
-2.349461466073989868e-01 -1.091369241476058960e-01 7.515931725502014160e-01
-3.720082044601440430e-01 -2.181589007377624512e-01 7.639537453651428223e-01
-2.091779261827468872e-01 -3.154147863388061523e-01 7.938241958618164062e-01
-2.754038870334625244e-01 -1.155342310667037964e-01 7.570533156394958496e-01
-3.002534508705139160e-01 -1.356925070285797119e-01 7.847040891647338867e-01
-1.964661478996276855e-01 -2.967028617858886719e-01 7.965493202209472656e-01
-2.609882950782775879e-01 -1.415072679519653320e-01 6.482332348823547363e-01
-3.316380679607391357e-01 -2.335541248321533203e-01 8.340561389923095703e-01
-2.077027261257171631e-01 -3.245517313480377197e-01 7.819443941116333008e-01
-1.483649909496307373e-01 -1.789221316576004028e-01 7.324595451354980469e-01
-1.655248403549194336e-01 -1.763226687908172607e-01 7.788106799125671387e-01
-3.269703984260559082e-01 -3.119347691535949707e-01 6.318358182907104492e-01
-3.292116522789001465e-01 -1.478787362575531006e-01 7.242862582206726074e-01
-2.208578586578369141e-01 -2.533479630947113037e-01 5.999864339828491211e-01
-2.028906047344207764e-01 -1.593084037303924561e-01 6.349771022796630859e-01
-3.459812402725219727e-01 -3.185321688652038574e-01 8.030727505683898926e-01
-1.771202683448791504e-01 -2.880651354789733887e-01 6.435276269912719727e-01
-1.782248020172119141e-01 -3.183517456054687500e-01 7.280024886131286621e-01
-1.898079216480255127e-01 -2.554105222225189209e-01 8.119296431541442871e-01
-2.659056484699249268e-01 -3.669895529747009277e-01 7.661864161491394043e-01
-2.739506065845489502e-01 -2.967588603496551514e-01 8.382450342178344727e-01
-1.958771497011184692e-01 -2.664968967437744141e-01 8.136883378028869629e-01
-1.793414503335952759e-01 -2.544073462486267090e-01 6.250416040420532227e-01
-1.619948595762252808e-01 -2.414918988943099976e-01 6.440079212188720703e-01
-1.631023883819580078e-01 -1.904721856117248535e-01 7.813113927841186523e-01
-1.850987076759338379e-01 -1.360242664813995361e-01 6.756569147109985352e-01
-1.780004799365997314e-01 -3.203729093074798584e-01 7.066510319709777832e-01
-2.312304377555847168e-01 -1.199580058455467224e-01 6.758920550346374512e-01
-2.050381600856781006e-01 -2.782143056392669678e-01 6.119027733802795410e-01
-1.773107647895812988e-01 -2.758082449436187744e-01 7.868402004241943359e-01
-1.976634562015533447e-01 -1.174205839633941650e-01 7.403372526168823242e-01
-3.654927015304565430e-01 -2.150350511074066162e-01 6.930676102638244629e-01
-3.033646345138549805e-01 -2.121087610721588135e-01 6.175490617752075195e-01
-2.216661423444747925e-01 -1.479987800121307373e-01 8.125263452529907227e-01
-2.672578990459442139e-01 -3.316642343997955322e-01 6.212800741195678711e-01
-2.782186567783355713e-01 -3.360264301300048828e-01 6.251745223999023438e-01
-1.890935450792312622e-01 -3.262461125850677490e-01 7.455488443374633789e-01
-1.861450076103210449e-01 -2.882588207721710205e-01 7.903418540954589844e-01
-1.983994543552398682e-01 -1.357306838035583496e-01 6.628588438034057617e-01
-2.102275490760803223e-01 -1.115715503692626953e-01 7.191471457481384277e-01
-3.027005791664123535e-01 -2.541323602199554443e-01 8.475578427314758301e-01
-2.713999152183532715e-01 -2.454887330532073975e-01 5.977720022201538086e-01
-2.229436635971069336e-01 -2.249238640069961548e-01 8.399062752723693848e-01
-2.107310593128204346e-01 -3.424984216690063477e-01 7.571356296539306641e-01
-2.420755326747894287e-01 -3.282504081726074219e-01 6.226917505264282227e-01
-1.640165150165557861e-01 -1.467077434062957764e-01 7.004559636116027832e-01
-3.130491375923156738e-01 -1.500516235828399658e-01 6.779270768165588379e-01
-3.709409832954406738e-01 -3.000507950782775879e-01 6.855025291442871094e-01
-1.784680187702178955e-01 -3.027313649654388428e-01 6.557514667510986328e-01
-1.845586299896240234e-01 -2.339332550764083862e-01 6.181864142417907715e-01
-2.081289589405059814e-01 -3.029444515705108643e-01 8.037686347961425781e-01
-3.421162962913513184e-01 -2.073590159416198730e-01 6.550799608230590820e-01
-2.066714763641357422e-01 -3.416661024093627930e-01 6.686136722564697266e-01
-2.474600076675415039e-01 -1.742569357156753540e-01 6.173741817474365234e-01
-2.515525221824645996e-01 -1.894391030073165894e-01 6.095481514930725098e-01
-3.129162192344665527e-01 -1.642294228076934814e-01 6.583149433135986328e-01
-1.979342401027679443e-01 -1.869994848966598511e-01 8.195395469665527344e-01
-1.475257575511932373e-01 -1.875537782907485962e-01 6.881325840950012207e-01
-2.311905771493911743e-01 -3.439954519271850586e-01 7.810633182525634766e-01
-2.509421408176422119e-01 -3.366902470588684082e-01 8.036516904830932617e-01
-2.534399032592773438e-01 -1.801332682371139526e-01 8.396021127700805664e-01
-1.675227582454681396e-01 -2.675973773002624512e-01 6.448007822036743164e-01
-2.447954416275024414e-01 -1.080254018306732178e-01 7.449027299880981445e-01
-1.831954866647720337e-01 -1.699648052453994751e-01 6.396814584732055664e-01
-2.161558568477630615e-01 -1.369723975658416748e-01 7.992812395095825195e-01
-3.434255123138427734e-01 -1.681357026100158691e-01 7.707785367965698242e-01
-1.757411658763885498e-01 -2.922579646110534668e-01 7.700187563896179199e-01
-2.522033154964447021e-01 -1.087088733911514282e-01 7.184666395187377930e-01
-2.939210534095764160e-01 -1.673824489116668701e-01 8.267889618873596191e-01
-1.540272235870361328e-01 -2.022813558578491211e-01 7.668493390083312988e-01
-2.714994251728057861e-01 -2.156014889478683472e-01 6.032006740570068359e-01
-3.417001962661743164e-01 -2.379015386104583740e-01 8.269491195678710938e-01
-3.670782148838043213e-01 -2.346083074808120728e-01 6.810253262519836426e-01
-2.673296630382537842e-01 -1.823666095733642578e-01 8.409783840179443359e-01
-3.785753846168518066e-01 -2.775808870792388916e-01 7.696380615234375000e-01
-2.822110652923583984e-01 -1.589155793190002441e-01 8.246645331382751465e-01
-3.454024791717529297e-01 -2.498561292886734009e-01 8.248800039291381836e-01
-1.445636153221130371e-01 -1.923840641975402832e-01 7.261697649955749512e-01
-3.791053593158721924e-01 -2.874904870986938477e-01 7.632356882095336914e-01
-2.068544179201126099e-01 -3.464375138282775879e-01 7.370598316192626953e-01
-2.576365172863006592e-01 -1.558094471693038940e-01 8.260445594787597656e-01
-3.343918621540069580e-01 -2.771717607975006104e-01 8.306621909141540527e-01
-1.562374979257583618e-01 -2.440849542617797852e-01 6.550812721252441406e-01
-2.555812001228332520e-01 -3.482012152671813965e-01 7.924454808235168457e-01
-1.712152957916259766e-01 -2.151125669479370117e-01 7.974687814712524414e-01
-3.581514954566955566e-01 -1.932414025068283081e-01 7.013626694679260254e-01
-2.606857717037200928e-01 -1.696035861968994141e-01 8.348723649978637695e-01
-2.417773604393005371e-01 -2.686053514480590820e-01 8.413373231887817383e-01
-3.534181714057922363e-01 -2.549243569374084473e-01 8.170292973518371582e-01
-2.718487977981567383e-01 -3.614966273307800293e-01 6.530644297599792480e-01
-3.294166326522827148e-01 -3.441131114959716797e-01 7.923580408096313477e-01
-2.477787882089614868e-01 -3.710376024246215820e-01 7.356863021850585938e-01
-1.522971540689468384e-01 -2.447189092636108398e-01 7.560244798660278320e-01
-2.789795398712158203e-01 -1.717578172683715820e-01 8.342732787132263184e-01
-1.673422306776046753e-01 -1.463523805141448975e-01 7.491872310638427734e-01
-2.910979092121124268e-01 -2.735023200511932373e-01 8.463758826255798340e-01
-3.275127112865447998e-01 -1.917789131402969360e-01 6.484735608100891113e-01
-3.214322328567504883e-01 -2.577117681503295898e-01 8.406591415405273438e-01
-3.096615970134735107e-01 -3.201438486576080322e-01 8.226516842842102051e-01
-2.312549352645874023e-01 -2.156764566898345947e-01 6.007367372512817383e-01
-3.103183805942535400e-01 -3.537220954895019531e-01 6.526225209236145020e-01
-3.568478822708129883e-01 -1.836964488029479980e-01 7.193449139595031738e-01
-2.762249112129211426e-01 -2.706102132797241211e-01 8.475509285926818848e-01
-2.834084033966064453e-01 -1.275000274181365967e-01 7.847350835800170898e-01
-2.740311920642852783e-01 -1.435925960540771484e-01 6.514562368392944336e-01
-3.628356158733367920e-01 -3.345941305160522461e-01 7.010036110877990723e-01
-1.985937356948852539e-01 -2.470243871212005615e-01 6.091846823692321777e-01
-2.637378573417663574e-01 -1.812991201877593994e-01 6.159067153930664062e-01
-3.565725684165954590e-01 -3.165783584117889404e-01 7.924190163612365723e-01
-2.606867849826812744e-01 -2.104250937700271606e-01 6.025674939155578613e-01
-1.988236606121063232e-01 -2.853905260562896729e-01 8.069328665733337402e-01
-2.672840654850006104e-01 -1.504587531089782715e-01 6.407523751258850098e-01
-3.301895856857299805e-01 -1.478199362754821777e-01 7.400820851325988770e-01
-3.380035161972045898e-01 -2.494226247072219849e-01 6.335517764091491699e-01
-3.182989358901977539e-01 -3.275864124298095703e-01 6.341730952262878418e-01
-3.809878528118133545e-01 -2.599653005599975586e-01 7.597120404243469238e-01
-2.440967857837677002e-01 -1.254745125770568848e-01 6.662331819534301758e-01
-1.856919527053833008e-01 -1.927814036607742310e-01 6.253921389579772949e-01
-1.573144495487213135e-01 -1.672102659940719604e-01 6.796411871910095215e-01
-1.774252951145172119e-01 -3.179342448711395264e-01 6.910969018936157227e-01
-2.444665879011154175e-01 -1.171374619007110596e-01 7.782754898071289062e-01
-2.288840711116790771e-01 -1.692534238100051880e-01 8.291828632354736328e-01
-3.667416572570800781e-01 -2.213597893714904785e-01 7.853350639343261719e-01
-2.973028421401977539e-01 -2.728421986103057861e-01 6.056492328643798828e-01
-2.644164264202117920e-01 -2.709341943264007568e-01 8.463794589042663574e-01
-3.591529726982116699e-01 -3.006754815578460693e-01 7.996062040328979492e-01
-1.491162180900573730e-01 -2.484651207923889160e-01 6.767802834510803223e-01
-3.266803920269012451e-01 -2.451175004243850708e-01 6.241811513900756836e-01
-3.623485565185546875e-01 -3.229199647903442383e-01 6.829251050949096680e-01
-1.462788581848144531e-01 -2.051135450601577759e-01 6.802890896797180176e-01
-3.658488988876342773e-01 -2.870756983757019043e-01 6.698898077011108398e-01
-1.775210201740264893e-01 -2.653036415576934814e-01 6.302456855773925781e-01
-2.176808863878250122e-01 -1.947617828845977783e-01 6.096654534339904785e-01
-1.540026962757110596e-01 -1.649192422628402710e-01 7.368049025535583496e-01
-3.338516056537628174e-01 -1.553339064121246338e-01 7.656937241554260254e-01
-1.567178070545196533e-01 -1.598838865756988525e-01 6.949221491813659668e-01
-3.615058064460754395e-01 -1.889867484569549561e-01 7.374100685119628906e-01
-1.522304564714431763e-01 -2.562113702297210693e-01 7.471853494644165039e-01
-2.595497667789459229e-01 -1.097980588674545288e-01 7.456677556037902832e-01
-2.844335436820983887e-01 -2.021382898092269897e-01 8.462244272232055664e-01
-2.867238223552703857e-01 -2.948892712593078613e-01 8.395179510116577148e-01
-2.714973390102386475e-01 -3.788821101188659668e-01 7.060287594795227051e-01
-2.609641551971435547e-01 -2.871189415454864502e-01 8.403881192207336426e-01
-2.518824040889739990e-01 -3.573172092437744141e-01 7.765790224075317383e-01
-2.495042085647583008e-01 -1.949685662984848022e-01 8.442107439041137695e-01
-1.519680321216583252e-01 -1.653366684913635254e-01 7.196474075317382812e-01
-3.162795305252075195e-01 -2.002099752426147461e-01 6.322475671768188477e-01
-2.900294661521911621e-01 -3.785734176635742188e-01 6.976335048675537109e-01
-2.242778241634368896e-01 -3.137609064579010010e-01 6.192964911460876465e-01
-3.732498884201049805e-01 -2.154505401849746704e-01 7.309882640838623047e-01
-3.607337474822998047e-01 -2.028337419033050537e-01 6.943619847297668457e-01
-3.783452510833740234e-01 -2.420294880867004395e-01 7.627111673355102539e-01
-2.877178192138671875e-01 -1.450475901365280151e-01 8.090295791625976562e-01
-3.716105818748474121e-01 -3.230737447738647461e-01 7.469789385795593262e-01
-3.578054308891296387e-01 -2.346366792917251587e-01 8.083923459053039551e-01
-3.573075830936431885e-01 -2.339374125003814697e-01 6.625127196311950684e-01
-2.389098703861236572e-01 -3.527160286903381348e-01 7.742216587066650391e-01
-3.676618933677673340e-01 1.173712462186813354e-01 8.900680541992187500e-01
-8.253467082977294922e-02 -9.006174653768539429e-02 1.999400556087493896e-01
-3.888530433177947998e-01 1.105762645602226257e-01 1.147296905517578125e+00
-1.745807528495788574e-01 -7.009964436292648315e-02 9.139725565910339355e-01
-1.313987523317337036e-01 -1.013246104121208191e-01 1.214931607246398926e-01
-2.719805538654327393e-01 -1.126275882124900818e-01 2.081598937511444092e-01
-2.699467241764068604e-01 -7.106050103902816772e-02 9.662044644355773926e-01
-4.766943752765655518e-01 6.299665570259094238e-02 4.733685255050659180e-01
-1.996618807315826416e-01 1.069386228919029236e-01 5.117110610008239746e-01
-5.339058041572570801e-01 3.159697353839874268e-02 6.334003806114196777e-01
-3.678302764892578125e-01 1.180370226502418518e-01 9.498050212860107422e-01
-4.357286691665649414e-01 -7.425880432128906250e-02 1.170126795768737793e-01
-2.675424218177795410e-01 -1.088723242282867432e-01 4.446114301681518555e-01
-5.089802742004394531e-01 -3.764985874295234680e-02 7.148660421371459961e-01
-2.510108947753906250e-01 1.209748014807701111e-01 1.183441400527954102e+00
-1.642772555351257324e-01 -9.657274186611175537e-02 5.821415185928344727e-01
-1.208189278841018677e-01 -8.428607881069183350e-02 6.541244983673095703e-01
-3.752348721027374268e-01 -9.083358198404312134e-02 6.251483559608459473e-01
-4.441982805728912354e-01 8.663500845432281494e-02 1.207225084304809570e+00
-1.727991700172424316e-01 -1.057108044624328613e-01 4.059884548187255859e-01
8.927762508392333984e-03 -1.920195668935775757e-02 6.916977167129516602e-01
-1.970838010311126709e-01 7.498609274625778198e-02 1.737147867679595947e-01
-1.722677797079086304e-01 3.851256147027015686e-02 1.408615827560424805e+00
-3.328761160373687744e-01 -1.075647696852684021e-01 2.366431057453155518e-01
-4.506926238536834717e-02 -6.852097064256668091e-02 5.389558076858520508e-01
-2.532053887844085693e-01 -5.490674823522567749e-02 1.092425465583801270e+00
-2.229251414537429810e-01 1.059830412268638611e-01 1.330477237701416016e+00
-1.144222766160964966e-01 -5.216256156563758850e-02 9.582250714302062988e-01
-5.174623727798461914e-01 -1.887813396751880646e-02 8.432583212852478027e-01
-1.306746751070022583e-01 -3.794705495238304138e-02 1.085118174552917480e+00
-2.017779946327209473e-01 9.023116901516914368e-03 1.377627134323120117e+00
-1.237305998802185059e-01 8.381494134664535522e-02 3.458808660507202148e-01
-2.980876266956329346e-01 2.988315373659133911e-02 1.460316181182861328e+00
-1.310264319181442261e-01 -9.986593574285507202e-02 7.706618309020996094e-02
-2.040620893239974976e-01 1.229071244597434998e-01 9.844206571578979492e-01
-4.708421230316162109e-01 -4.756547138094902039e-02 8.485448360443115234e-01
-3.466615974903106689e-01 -9.435848891735076904e-02 -2.298092842102050781e-02
-3.511467278003692627e-01 7.171691209077835083e-02 2.091006338596343994e-01
-8.948591351509094238e-02 -8.873829990625381470e-02 8.064812421798706055e-02
-3.937506079673767090e-01 1.131085008382797241e-01 1.007146596908569336e+00
-3.924711942672729492e-01 4.729832988232374191e-03 1.331974029541015625e+00
-4.171484708786010742e-01 -7.571439445018768311e-02 4.168802499771118164e-02
-1.411126554012298584e-01 9.298273921012878418e-02 1.271039843559265137e+00
-2.650292813777923584e-01 6.094688922166824341e-02 1.484764695167541504e+00
-5.463355779647827148e-02 -5.679886788129806519e-02 7.396341562271118164e-01
-3.189345002174377441e-01 -1.802828721702098846e-02 1.300539255142211914e+00
-4.106459021568298340e-01 -8.840895444154739380e-02 5.172401070594787598e-01
-3.635905981063842773e-01 -3.643918409943580627e-02 1.171612977981567383e+00
-4.611338376998901367e-01 7.637177407741546631e-02 5.418986082077026367e-01
-3.314494788646697998e-01 9.180957078933715820e-02 1.414350271224975586e+00
-4.996869862079620361e-01 6.127458065748214722e-02 5.976773500442504883e-01
-7.342097163200378418e-02 4.384715855121612549e-02 1.218161582946777344e+00
-1.405996978282928467e-01 1.037671044468879700e-01 1.179916858673095703e+00
-3.577103018760681152e-01 -7.595499604940414429e-02 8.613075613975524902e-01
-4.366392493247985840e-01 -7.637415826320648193e-02 6.261111497879028320e-01
-3.910880982875823975e-01 1.050290614366531372e-01 6.634616851806640625e-01
-1.481115520000457764e-01 5.556878820061683655e-02 7.294154167175292969e-02
-4.602766335010528564e-01 -2.352810464799404144e-02 1.072146892547607422e+00
-4.270040988922119141e-01 8.081161975860595703e-02 1.301677465438842773e+00
-4.220727086067199707e-01 -2.324449643492698669e-02 1.163813114166259766e+00
-1.473531424999237061e-01 6.662674248218536377e-02 1.371486306190490723e+00
-2.788046002388000488e-02 -6.584335118532180786e-02 4.172862768173217773e-01
-4.659223556518554688e-02 8.069980889558792114e-02 6.402495503425598145e-01
-3.323636353015899658e-01 -2.355855889618396759e-02 1.267320036888122559e+00
-3.687005937099456787e-01 1.133749783039093018e-01 7.549579739570617676e-01
-5.408133864402770996e-01 1.712465472519397736e-02 6.729592680931091309e-01
-9.134626388549804688e-02 9.270058572292327881e-02 1.091562509536743164e+00
-3.012690842151641846e-01 7.562609016895294189e-02 1.874550879001617432e-01
-3.172321915626525879e-01 -8.620395511388778687e-02 7.925371527671813965e-01
-2.153184115886688232e-01 -1.017728075385093689e-01 -7.674521207809448242e-02
-2.447686940431594849e-01 -3.852849826216697693e-02 1.195833444595336914e+00
-1.652257889509201050e-01 -1.066173166036605835e-01 1.051717698574066162e-01
-3.913431167602539062e-01 -9.570161998271942139e-02 4.215669631958007812e-01
-4.822281599044799805e-01 -6.293459981679916382e-02 4.865178763866424561e-01
-2.443368732929229736e-02 -4.425515606999397278e-02 5.034518241882324219e-02
-3.546977937221527100e-01 -1.483174972236156464e-02 1.293519973754882812e+00
-2.857943177223205566e-01 -7.453481853008270264e-02 9.327399134635925293e-01
-1.452831327915191650e-01 -9.823858737945556641e-02 4.976704716682434082e-01
-3.881199359893798828e-01 -1.588299870491027832e-02 1.254208326339721680e+00
-3.946046531200408936e-02 -7.285415381193161011e-02 2.266189157962799072e-01
-3.793083429336547852e-01 7.062309980392456055e-02 1.422181248664855957e+00
-1.046436876058578491e-01 2.798658050596714020e-02 -2.480703592300415039e-02
-5.035153627395629883e-01 3.006290644407272339e-02 3.623682260513305664e-01
-3.466083705425262451e-01 -1.000175923109054565e-01 5.254490971565246582e-01
-2.659330964088439941e-01 1.187823787331581116e-01 1.229015588760375977e+00
-2.457201480865478516e-04 1.838977448642253876e-02 8.969550728797912598e-01
1.021975278854370117e-02 1.257495023310184479e-02 2.906010448932647705e-01
-3.901115059852600098e-01 -3.805746138095855713e-02 1.128931045532226562e+00
-4.468616843223571777e-01 -7.963942736387252808e-02 3.458253145217895508e-01
-3.548190891742706299e-01 -6.174296140670776367e-02 9.997318983078002930e-01
-1.832733750343322754e-01 -1.018282324075698853e-01 5.271770358085632324e-01
-1.712993532419204712e-01 1.181065812706947327e-01 1.026614904403686523e+00
-3.804977536201477051e-01 1.139579415321350098e-01 1.106875658035278320e+00
-4.116014838218688965e-01 -6.075280904769897461e-02 9.129109978675842285e-01
-3.107389807701110840e-01 -6.236340384930372238e-03 1.353762626647949219e+00
-3.333513736724853516e-01 6.292899698019027710e-02 1.234529316425323486e-01
-5.045899152755737305e-01 -2.556706033647060394e-02 8.765433430671691895e-01
-3.694328665733337402e-02 7.386282086372375488e-02 9.330441951751708984e-01
-2.571495473384857178e-01 1.078098416328430176e-01 4.971166551113128662e-01
-2.524935007095336914e-01 -1.111526787281036377e-01 3.738523423671722412e-01
2.199411392211914062e-03 -4.352640733122825623e-02 4.837421178817749023e-01
-3.418160974979400635e-01 -7.438877224922180176e-02 8.979011774063110352e-01
-4.359468519687652588e-01 5.434978287667036057e-03 2.291321754455566406e-02
-3.694433867931365967e-01 5.968178063631057739e-02 1.493552625179290771e-01
-3.940157294273376465e-01 -4.142680671066045761e-03 -9.232020378112792969e-02
-3.802694380283355713e-01 -6.348629295825958252e-02 -1.244267225265502930e-01
-4.971691370010375977e-01 5.900871753692626953e-02 5.517836809158325195e-01
-2.093733847141265869e-01 1.190520897507667542e-01 7.288526296615600586e-01
-4.474590718746185303e-02 8.178663253784179688e-02 8.593491315841674805e-01
-1.863600611686706543e-01 8.218065649271011353e-02 2.426414787769317627e-01
-2.111654877662658691e-01 9.425327926874160767e-02 1.385605573654174805e+00
-3.441237211227416992e-01 -9.707164764404296875e-02 5.937521457672119141e-01
-4.613418281078338623e-01 -3.201495483517646790e-02 5.040770769119262695e-02
-1.790479719638824463e-01 1.175924092531204224e-01 1.090678453445434570e+00
-1.200971305370330811e-01 1.088862046599388123e-01 9.245705604553222656e-01
-1.382288783788681030e-01 -2.337066829204559326e-02 -2.236236929893493652e-01
-4.767225980758666992e-01 -6.624011695384979248e-02 4.215928316116333008e-01
-3.163868486881256104e-01 1.155073344707489014e-01 1.253834605216979980e+00
-1.507457494735717773e-01 -9.696513414382934570e-02 5.402992963790893555e-01
-4.457980394363403320e-02 -5.997306853532791138e-02 1.866048574447631836e-02
-2.002226412296295166e-01 -3.231931477785110474e-02 1.204590559005737305e+00
-4.597764015197753906e-01 6.590465456247329712e-02 1.253592610359191895e+00
-5.320248603820800781e-01 4.003391414880752563e-02 7.237839102745056152e-01
-3.460987806320190430e-01 1.426025480031967163e-02 -1.090271472930908203e-01
-1.893271952867507935e-01 9.994883835315704346e-02 4.280692338943481445e-01
-2.366965413093566895e-01 -1.114252135157585144e-01 9.436196088790893555e-02
-4.099938273429870605e-01 3.738287836313247681e-02 9.167218208312988281e-02
-1.165769547224044800e-01 -4.022571444511413574e-02 1.044895410537719727e+00
-2.568896710872650146e-01 9.208753705024719238e-02 3.134891092777252197e-01
-9.056945145130157471e-02 -8.738418668508529663e-02 4.770315587520599365e-01
-1.034230291843414307e-01 1.943560317158699036e-02 -6.106823682785034180e-02
