-2.480188608169555664e-01 -4.600534737110137939e-01 -3.647402822971343994e-01
-2.076972275972366333e-01 -2.606998085975646973e-01 -2.969313263893127441e-01
-2.148957997560501099e-01 -2.976161241531372070e-01 -3.330560326576232910e-01
-2.323848009109497070e-01 -3.841171860694885254e-01 -3.508594930171966553e-01
-2.450758516788482666e-01 -5.893064737319946289e-01 -3.684794902801513672e-01
-2.039517462253570557e-01 -3.169620037078857422e-01 -3.303966820240020752e-01
-2.448929250240325928e-01 -4.848542809486389160e-01 -3.327753543853759766e-01
-2.047509551048278809e-01 -3.337111175060272217e-01 -3.319447636604309082e-01
-2.140770107507705688e-01 -3.467191457748413086e-01 -3.400932550430297852e-01
-2.580312192440032959e-01 -5.911970138549804688e-01 -3.828991651535034180e-01
-2.036514580249786377e-01 -1.921298950910568237e-01 -3.023004233837127686e-01
-2.089895606040954590e-01 -3.393771648406982422e-01 -3.360794484615325928e-01
-2.808127403259277344e-01 -6.409823298454284668e-01 -3.711948990821838379e-01
-2.747126221656799316e-01 -6.728217005729675293e-01 -3.937433362007141113e-01
-1.940434575080871582e-01 -2.232709676027297974e-01 -3.131982088088989258e-01
-2.343034744262695312e-01 -5.306971073150634766e-01 -3.459167480468750000e-01
-2.846432924270629883e-01 -6.388854980468750000e-01 -3.871780335903167725e-01
-2.129835635423660278e-01 -3.973832130432128906e-01 -3.416092991828918457e-01
-2.436626553535461426e-01 -4.292186200618743896e-01 -3.591360747814178467e-01
-1.873664110898971558e-01 -2.474754899740219116e-01 -3.044934868812561035e-01
-2.534012198448181152e-01 -5.315927863121032715e-01 -3.420188426971435547e-01
-2.297021746635437012e-01 -3.420980572700500488e-01 -3.132036030292510986e-01
-2.151277661323547363e-01 -4.351935386657714844e-01 -3.401408195495605469e-01
-2.797928750514984131e-01 -5.923982858657836914e-01 -3.789741396903991699e-01
-1.948916763067245483e-01 -3.086493015289306641e-01 -3.148580193519592285e-01
-2.190425246953964233e-01 -2.686017751693725586e-01 -3.053203821182250977e-01
-2.838322818279266357e-01 -6.734188199043273926e-01 -3.776208460330963135e-01
-2.828229069709777832e-01 -6.103282570838928223e-01 -3.777906596660614014e-01
-2.456890046596527100e-01 -3.917451798915863037e-01 -3.478342890739440918e-01
-2.403110265731811523e-01 -3.804976344108581543e-01 -3.229424357414245605e-01
-2.347619831562042236e-01 -3.588127195835113525e-01 -3.447954356670379639e-01
-2.594903409481048584e-01 -5.264021754264831543e-01 -3.757736682891845703e-01
-2.768325507640838623e-01 -6.692496538162231445e-01 -3.729065954685211182e-01
-2.789798676967620850e-01 -5.859827399253845215e-01 -3.779131174087524414e-01
-2.571916878223419189e-01 -4.429568052291870117e-01 -3.531684875488281250e-01
-2.070808261632919312e-01 -2.527230978012084961e-01 -2.962608933448791504e-01
-2.093878835439682007e-01 -3.804008662700653076e-01 -3.165403902530670166e-01
-1.922877430915832520e-01 -2.307633906602859497e-01 -3.129856586456298828e-01
-2.667734324932098389e-01 -5.999409556388854980e-01 -3.569898903369903564e-01
-2.648748755455017090e-01 -4.994381964206695557e-01 -3.662854135036468506e-01
-2.649568617343902588e-01 -6.621366739273071289e-01 -3.719895482063293457e-01
-2.553715705871582031e-01 -5.628805160522460938e-01 -3.798262774944305420e-01
-2.753086686134338379e-01 -6.376096606254577637e-01 -3.666745126247406006e-01
-2.150457501411437988e-01 -3.305860161781311035e-01 -3.385662734508514404e-01
-2.196201533079147339e-01 -4.540293216705322266e-01 -3.468033075332641602e-01
-2.822144031524658203e-01 -6.971989870071411133e-01 -3.965145051479339600e-01
-2.480244785547256470e-01 -4.527705311775207520e-01 -3.633153736591339111e-01
-2.243695408105850220e-01 -2.766666412353515625e-01 -3.222635090351104736e-01
-2.160281091928482056e-01 -2.807844579219818115e-01 -3.293863236904144287e-01
-2.315548956394195557e-01 -4.064162373542785645e-01 -3.544396460056304932e-01
-2.324198186397552490e-01 -4.492215812206268311e-01 -3.597764968872070312e-01
-2.053176909685134888e-01 -2.981365323066711426e-01 -3.003779053688049316e-01
-2.716850042343139648e-01 -5.353075861930847168e-01 -3.591960668563842773e-01
-2.104815840721130371e-01 -2.723996639251708984e-01 -3.274857103824615479e-01
-2.274660617113113403e-01 -2.871219813823699951e-01 -3.215522170066833496e-01
-2.504355311393737793e-01 -4.014917910099029541e-01 -3.396880626678466797e-01
-1.870696842670440674e-01 -1.617992818355560303e-01 -2.879258096218109131e-01
-2.873064279556274414e-01 -6.650252342224121094e-01 -3.904356360435485840e-01
-2.073851972818374634e-01 -3.055855333805084229e-01 -3.014302551746368408e-01
-2.212385088205337524e-01 -2.709275484085083008e-01 -3.238526880741119385e-01
-2.484442293643951416e-01 -5.076050162315368652e-01 -3.720250427722930908e-01
-2.305319607257843018e-01 -4.579416513442993164e-01 -3.267443478107452393e-01
-1.951150596141815186e-01 -1.744723916053771973e-01 -3.013014793395996094e-01
-2.454548180103302002e-01 -5.743559002876281738e-01 -3.725881278514862061e-01
-2.893045544624328613e-01 -6.829722523689270020e-01 -3.867091834545135498e-01
-1.881657391786575317e-01 -1.886596977710723877e-01 -3.036605119705200195e-01
-2.258953750133514404e-01 -4.445708096027374268e-01 -3.247459828853607178e-01
-2.045902907848358154e-01 -2.753987312316894531e-01 -2.973733544349670410e-01
-1.891855895519256592e-01 -2.538370192050933838e-01 -2.995818853378295898e-01
-2.442462146282196045e-01 -3.848443329334259033e-01 -3.467142283916473389e-01
-2.515176534652709961e-01 -4.071804881095886230e-01 -3.432756364345550537e-01
-2.800880670547485352e-01 -6.987047195434570312e-01 -3.808536529541015625e-01
-2.200469672679901123e-01 -2.560009360313415527e-01 -3.169350624084472656e-01
-2.046680152416229248e-01 -3.723732829093933105e-01 -3.206795454025268555e-01
-2.751987874507904053e-01 -5.924018621444702148e-01 -3.621639609336853027e-01
-2.396467626094818115e-01 -5.659723877906799316e-01 -3.623864948749542236e-01
-2.373210340738296509e-01 -4.014711081981658936e-01 -3.541410565376281738e-01
-2.045652121305465698e-01 -3.236587643623352051e-01 -3.313391208648681641e-01
-2.485557049512863159e-01 -5.271447300910949707e-01 -3.401462435722351074e-01
-2.551212608814239502e-01 -4.732215702533721924e-01 -3.378877341747283936e-01
-2.136532664299011230e-01 -3.113884627819061279e-01 -3.352272510528564453e-01
-2.771685719490051270e-01 -5.791809558868408203e-01 -3.785945773124694824e-01
-2.009400576353073120e-01 -2.187197953462600708e-01 -2.922996282577514648e-01
-2.569068074226379395e-01 -6.377344131469726562e-01 -3.685703575611114502e-01
-2.305379658937454224e-01 -3.985905945301055908e-01 -3.530498445034027100e-01
-2.485502362251281738e-01 -5.588749051094055176e-01 -3.759410977363586426e-01
-2.005226165056228638e-01 -2.593715190887451172e-01 -3.221056461334228516e-01
-2.439417988061904907e-01 -5.685727596282958984e-01 -3.513032495975494385e-01
-2.214797139167785645e-01 -4.744525253772735596e-01 -3.419584631919860840e-01
-2.467056810855865479e-01 -5.559551119804382324e-01 -3.462075591087341309e-01
-2.341971099376678467e-01 -4.870890974998474121e-01 -3.632553517818450928e-01
-2.856147885322570801e-01 -6.752589344978332520e-01 -3.941016793251037598e-01
-2.477524280548095703e-01 -4.152415692806243896e-01 -3.303587734699249268e-01
-2.872883081436157227e-01 -6.698024868965148926e-01 -3.815899789333343506e-01
-1.885917335748672485e-01 -2.279236614704132080e-01 -2.934731841087341309e-01
-2.312831878662109375e-01 -3.988215327262878418e-01 -3.177466392517089844e-01
-2.565930783748626709e-01 -4.552967250347137451e-01 -3.598143160343170166e-01
-2.153052538633346558e-01 -2.573835551738739014e-01 -3.020800054073333740e-01
-2.442568391561508179e-01 -3.710776567459106445e-01 -3.395083248615264893e-01
-1.915773004293441772e-01 -2.818317115306854248e-01 -3.116346001625061035e-01
-2.822220921516418457e-01 -7.163447141647338867e-01 -3.871923387050628662e-01
-2.844800353050231934e-01 -7.238572835922241211e-01 -3.944286108016967773e-01
-2.632184326648712158e-01 -6.146042346954345703e-01 -3.587281107902526855e-01
-2.519891262054443359e-01 -6.223606467247009277e-01 -3.721370398998260498e-01
-2.483206093311309814e-01 -4.793902635574340820e-01 -3.335049748420715332e-01
-2.238332629203796387e-01 -2.946876287460327148e-01 -3.087268769741058350e-01
-2.806404232978820801e-01 -6.274551153182983398e-01 -3.883706033229827881e-01
-2.601176500320434570e-01 -4.605263769626617432e-01 -3.467731773853302002e-01
-2.377182543277740479e-01 -4.651748538017272949e-01 -3.637340366840362549e-01
-2.712458372116088867e-01 -6.768429875373840332e-01 -3.745574355125427246e-01
-2.530469596385955811e-01 -4.154452383518218994e-01 -3.439747393131256104e-01
-2.050035595893859863e-01 -3.076762557029724121e-01 -3.305113911628723145e-01
-2.078901231288909912e-01 -3.151857554912567139e-01 -3.028507828712463379e-01
-2.054850757122039795e-01 -2.261087298393249512e-01 -3.163847327232360840e-01
-2.494976669549942017e-01 -4.555920362472534180e-01 -3.324042856693267822e-01
-2.241770476102828979e-01 -4.843928515911102295e-01 -3.498229086399078369e-01
-1.927891373634338379e-01 -2.654287815093994141e-01 -2.985554933547973633e-01
-2.803956866264343262e-01 -6.191697120666503906e-01 -3.866852223873138428e-01
-2.242427617311477661e-01 -4.691101014614105225e-01 -3.324727714061737061e-01
-2.389179021120071411e-01 -5.104994773864746094e-01 -3.675920665264129639e-01
-2.340350151062011719e-01 -5.308544635772705078e-01 -3.606639504432678223e-01
-2.683748602867126465e-01 -5.129783749580383301e-01 -3.661868870258331299e-01
-2.252630889415740967e-01 -3.795570135116577148e-01 -3.136761188507080078e-01
-2.657023668289184570e-01 -4.915552735328674316e-01 -3.602530658245086670e-01
-2.185514122247695923e-01 -3.022049665451049805e-01 -3.043906092643737793e-01
-1.867436468601226807e-01 -2.396934628486633301e-01 -2.999039292335510254e-01
-1.884330213069915771e-01 -1.759432256221771240e-01 -2.875936329364776611e-01
-2.206149548292160034e-01 -4.645707607269287109e-01 -3.464319407939910889e-01
-2.506626546382904053e-01 -5.671248435974121094e-01 -3.776114583015441895e-01
-2.550190389156341553e-01 -5.130506753921508789e-01 -3.404332399368286133e-01
-2.113002985715866089e-01 -2.323195785284042358e-01 -3.161640167236328125e-01
-2.334122061729431152e-01 -4.292514026165008545e-01 -3.580541908740997314e-01
-2.593881189823150635e-01 -4.519261717796325684e-01 -3.490025997161865234e-01
-2.503641843795776367e-01 -4.184350669384002686e-01 -3.529719412326812744e-01
-2.099781781435012817e-01 -3.658895492553710938e-01 -3.122002780437469482e-01
-2.467680573463439941e-01 -3.824538588523864746e-01 -3.352500796318054199e-01
-2.504535317420959473e-01 -6.104750633239746094e-01 -3.741622567176818848e-01
-2.278554737567901611e-01 -3.693508505821228027e-01 -3.478456735610961914e-01
-2.770308852195739746e-01 -6.592609882354736328e-01 -3.936778306961059570e-01
-2.626285254955291748e-01 -5.988040566444396973e-01 -3.853448927402496338e-01
-2.281068116426467896e-01 -5.076196789741516113e-01 -3.452605307102203369e-01
-2.612575888633728027e-01 -5.182936787605285645e-01 -3.451446890830993652e-01
-2.240643799304962158e-01 -3.017171919345855713e-01 -3.329413533210754395e-01
-2.156136333942413330e-01 -2.767174839973449707e-01 -3.018483817577362061e-01
-2.599613666534423828e-01 -6.552386283874511719e-01 -3.770984709262847900e-01
-2.030722945928573608e-01 -2.101996392011642456e-01 -2.938038110733032227e-01
-2.241420745849609375e-01 -4.124582409858703613e-01 -3.520499765872955322e-01
-1.939270198345184326e-01 -2.757568657398223877e-01 -3.001792430877685547e-01
-2.477487474679946899e-01 -3.913142979145050049e-01 -3.340062797069549561e-01
-1.973920166492462158e-01 -1.726745963096618652e-01 -2.957419753074645996e-01
-1.917981803417205811e-01 -2.550333738327026367e-01 -3.143734633922576904e-01
-2.709439098834991455e-01 -5.638655424118041992e-01 -3.564342856407165527e-01
-2.773360610008239746e-01 -6.322436332702636719e-01 -3.905390501022338867e-01
-2.526246607303619385e-01 -6.135963201522827148e-01 -3.616521656513214111e-01
-2.120110094547271729e-01 -4.204393327236175537e-01 -3.340917527675628662e-01
-2.425491362810134888e-01 -5.035602450370788574e-01 -3.694088757038116455e-01
-2.223003357648849487e-01 -3.677721321582794189e-01 -3.115214109420776367e-01
-2.698192894458770752e-01 -6.671460866928100586e-01 -3.717704713344573975e-01
-2.187086790800094604e-01 -3.387324213981628418e-01 -3.072508871555328369e-01
-2.687565088272094727e-01 -5.570320487022399902e-01 -3.539084494113922119e-01
-2.254442125558853149e-01 -4.214138984680175781e-01 -3.535496890544891357e-01
-2.661594450473785400e-01 -6.295670866966247559e-01 -3.886255323886871338e-01
-1.831918954849243164e-01 -1.764061748981475830e-01 -2.960882186889648438e-01
-2.681920230388641357e-01 -6.175934672355651855e-01 -3.885119557380676270e-01
-2.715688347816467285e-01 -5.823652744293212891e-01 -3.835532367229461670e-01
-2.440777570009231567e-01 -5.262997150421142578e-01 -3.717460334300994873e-01
-2.115731239318847656e-01 -3.230198323726654053e-01 -3.040525913238525391e-01
-2.018489837646484375e-01 -3.456350862979888916e-01 -3.273032605648040771e-01
-2.469070106744766235e-01 -4.776259362697601318e-01 -3.677003681659698486e-01
-2.900467514991760254e-01 -7.003112435340881348e-01 -3.899567127227783203e-01
-2.381767630577087402e-01 -4.022150933742523193e-01 -3.215110898017883301e-01
-2.576028704643249512e-01 -6.187155842781066895e-01 -3.828662633895874023e-01
-2.386909127235412598e-01 -3.639745712280273438e-01 -3.441748619079589844e-01
-2.721799910068511963e-01 -6.402201652526855469e-01 -3.913173079490661621e-01
-2.318953871726989746e-01 -4.943356513977050781e-01 -3.612298071384429932e-01
-2.389540225267410278e-01 -4.436481893062591553e-01 -3.614435791969299316e-01
-2.071940451860427856e-01 -3.578850924968719482e-01 -3.350354731082916260e-01
-2.266030907630920410e-01 -4.803444147109985352e-01 -3.554207980632781982e-01
-2.564352750778198242e-01 -4.802145659923553467e-01 -3.670524656772613525e-01
-2.086365222930908203e-01 -2.218101173639297485e-01 -2.982589006423950195e-01
-2.490111291408538818e-01 -5.089520812034606934e-01 -3.373898565769195557e-01
-2.697109580039978027e-01 -5.165220499038696289e-01 -3.592073023319244385e-01
-2.802883386611938477e-01 -6.316082477569580078e-01 -3.699080348014831543e-01
-2.734676897525787354e-01 -5.550696849822998047e-01 -3.752738237380981445e-01
-2.108542770147323608e-01 -4.111213088035583496e-01 -3.350780010223388672e-01
-2.129404395818710327e-01 -2.654401063919067383e-01 -3.259176313877105713e-01
-2.297500073909759521e-01 -4.855420291423797607e-01 -3.336926996707916260e-01
-2.546381354331970215e-01 -4.490601718425750732e-01 -3.595362007617950439e-01
-1.971130818128585815e-01 -3.025116920471191406e-01 -3.045371770858764648e-01
-2.614954411983489990e-01 -5.355222821235656738e-01 -3.465158641338348389e-01
-2.626933753490447998e-01 -4.712771475315093994e-01 -3.534622192382812500e-01
-1.995200067758560181e-01 -2.134575694799423218e-01 -3.131682872772216797e-01
-2.709326148033142090e-01 -5.875756144523620605e-01 -3.578998744487762451e-01
-2.554343938827514648e-01 -4.494075179100036621e-01 -3.388222157955169678e-01
-1.896730661392211914e-01 -2.653344273567199707e-01 -3.093072175979614258e-01
-2.287839800119400024e-01 -4.319458305835723877e-01 -3.219045400619506836e-01
-2.063067257404327393e-01 -3.859148323535919189e-01 -3.274637758731842041e-01
-2.362578511238098145e-01 -4.114709496498107910e-01 -3.210980892181396484e-01
-2.701739668846130371e-01 -5.201392173767089844e-01 -3.651754260063171387e-01
-2.048020660877227783e-01 -2.047007083892822266e-01 -2.962460815906524658e-01
-2.550950050354003906e-01 -4.364282488822937012e-01 -3.400371372699737549e-01
-2.531498670578002930e-01 -4.233662486076354980e-01 -3.385587334632873535e-01
-1.944011002779006958e-01 -2.187708914279937744e-01 -2.905707657337188721e-01
-2.509154379367828369e-01 -4.975788891315460205e-01 -3.366989791393280029e-01
-2.179173529148101807e-01 -2.459279298782348633e-01 -3.137994110584259033e-01
-2.544728219509124756e-01 -5.524303317070007324e-01 -3.785862028598785400e-01
-2.645536959171295166e-01 -5.784156322479248047e-01 -3.836428225040435791e-01
-2.570427954196929932e-01 -5.738950967788696289e-01 -3.813533186912536621e-01
-2.453344762325286865e-01 -3.756708502769470215e-01 -3.331957459449768066e-01
-2.624732851982116699e-01 -5.039758086204528809e-01 -3.699437379837036133e-01
-2.873654663562774658e-01 -6.562277078628540039e-01 -3.872528374195098877e-01
-2.444663047790527344e-01 -4.076106250286102295e-01 -3.538309037685394287e-01
-2.299684584140777588e-01 -3.691197037696838379e-01 -3.145318329334259033e-01
-2.448474019765853882e-01 -4.405720829963684082e-01 -3.282289505004882812e-01
-2.738352417945861816e-01 -5.736317634582519531e-01 -3.804758787155151367e-01
-2.182886004447937012e-01 -4.563601016998291016e-01 -3.377190530300140381e-01
-2.487856745719909668e-01 -5.999954342842102051e-01 -3.597118854522705078e-01
-1.998963505029678345e-01 -2.302890270948410034e-01 -2.923858165740966797e-01
-2.368550598621368408e-01 -5.452340245246887207e-01 -3.631347417831420898e-01
-2.238147854804992676e-01 -3.878227174282073975e-01 -3.494349718093872070e-01
-2.771576642990112305e-01 -5.719606280326843262e-01 -3.664325177669525146e-01
-1.924023926258087158e-01 -2.007205039262771606e-01 -3.083914518356323242e-01
-2.534934282302856445e-01 -5.830346345901489258e-01 -3.799154460430145264e-01
-2.463747560977935791e-01 -5.858335494995117188e-01 -3.559735119342803955e-01
-1.943959891796112061e-01 -1.652725636959075928e-01 -2.935163080692291260e-01
-2.408444434404373169e-01 -3.775607049465179443e-01 -3.470855355262756348e-01
-2.891930937767028809e-01 -7.092380523681640625e-01 -3.952710926532745361e-01
-2.192139178514480591e-01 -2.560053467750549316e-01 -3.080205321311950684e-01
-2.242347896099090576e-01 -3.170512318611145020e-01 -3.086011111736297607e-01
-2.497561126947402954e-01 -4.341011941432952881e-01 -3.321708142757415771e-01
-1.978452652692794800e-01 -3.126483261585235596e-01 -3.228555023670196533e-01
-1.970173567533493042e-01 -3.244045376777648926e-01 -3.157216906547546387e-01
-2.508938908576965332e-01 -5.251623988151550293e-01 -3.746989369392395020e-01
-2.765483558177947998e-01 -6.226122975349426270e-01 -3.656463027000427246e-01
-1.984152495861053467e-01 -2.514393329620361328e-01 -2.941872775554656982e-01
-2.509532570838928223e-01 -6.062213182449340820e-01 -3.600986003875732422e-01
-1.826342493295669556e-01 -1.830333173274993896e-01 -2.919103205204010010e-01
-2.139245420694351196e-01 -2.404701262712478638e-01 -3.023619651794433594e-01
-2.353535294532775879e-01 -3.848606944084167480e-01 -3.187204301357269287e-01
-2.538332641124725342e-01 -5.144838690757751465e-01 -3.738852143287658691e-01
-2.477730065584182739e-01 -4.025604724884033203e-01 -3.497396409511566162e-01
-2.000731229782104492e-01 -1.803866922855377197e-01 -2.989073097705841064e-01
-2.871116697788238525e-01 -7.162153124809265137e-01 -3.964962065219879150e-01
-2.061790972948074341e-01 -2.907966375350952148e-01 -2.993825078010559082e-01
-1.933073699474334717e-01 -2.348016798496246338e-01 -2.925385832786560059e-01
-2.132546305656433105e-01 -4.272986352443695068e-01 -3.361176848411560059e-01
-2.270145863294601440e-01 -4.929497539997100830e-01 -3.387931883335113525e-01
-2.666227519512176514e-01 -5.294233560562133789e-01 -3.740233778953552246e-01
-2.448555976152420044e-01 -4.378417730331420898e-01 -3.607349991798400879e-01
-2.645325362682342529e-01 -5.101363062858581543e-01 -3.485314548015594482e-01
-2.636305987834930420e-01 -5.757346153259277344e-01 -3.521640598773956299e-01
-2.239923328161239624e-01 -4.025407135486602783e-01 -3.510887920856475830e-01
-2.624354958534240723e-01 -5.398825407028198242e-01 -3.777945041656494141e-01
-2.604409754276275635e-01 -6.228600144386291504e-01 -3.608053624629974365e-01
-2.430499494075775146e-01 -4.948835372924804688e-01 -3.688617348670959473e-01
-2.214997857809066772e-01 -4.542824029922485352e-01 -3.298433423042297363e-01
-2.296564579010009766e-01 -4.843399524688720703e-01 -3.590459823608398438e-01
-2.375065684318542480e-01 -3.942016661167144775e-01 -3.206436634063720703e-01
-2.103338539600372314e-01 -3.902764320373535156e-01 -3.381746709346771240e-01
-2.537868916988372803e-01 -4.242001175880432129e-01 -3.501166105270385742e-01
-2.889627516269683838e-01 -7.126688957214355469e-01 -3.898248374462127686e-01
-2.017472982406616211e-01 -3.409644663333892822e-01 -3.116512000560760498e-01
-1.909696906805038452e-01 -1.833842396736145020e-01 -2.880586981773376465e-01
-2.355565577745437622e-01 -3.359578549861907959e-01 -3.205401897430419922e-01
-1.842695772647857666e-01 -1.680000424385070801e-01 -2.883037030696868896e-01
-2.596268355846405029e-01 -6.064665317535400391e-01 -3.843867778778076172e-01
-2.265112996101379395e-01 -4.990352392196655273e-01 -3.435126245021820068e-01
-2.637197375297546387e-01 -5.465731024742126465e-01 -3.490074276924133301e-01
-1.957412064075469971e-01 -2.847513258457183838e-01 -3.009697794914245605e-01
-2.738730609416961670e-01 -5.432316064834594727e-01 -3.671655058860778809e-01
-2.803824841976165771e-01 -6.166957020759582520e-01 -3.693826794624328613e-01
-1.882333457469940186e-01 -1.628645658493041992e-01 -2.971101403236389160e-01
-1.937896609306335449e-01 -2.694010734558105469e-01 -3.174102306365966797e-01
-2.130147218704223633e-01 -3.590899109840393066e-01 -3.405380249023437500e-01
-2.178347706794738770e-01 -3.507516384124755859e-01 -3.085065186023712158e-01
-2.321223169565200806e-01 -5.239906311035156250e-01 -3.581113517284393311e-01
-2.188591659069061279e-01 -2.938171029090881348e-01 -3.043383061885833740e-01
-2.099320739507675171e-01 -3.547749519348144531e-01 -3.097087144851684570e-01
-2.598817348480224609e-01 -6.315783858299255371e-01 -3.843384683132171631e-01
-1.906787306070327759e-01 -2.138606458902359009e-01 -2.903140187263488770e-01
-2.723624408245086670e-01 -5.454186201095581055e-01 -3.590556979179382324e-01
-2.154701352119445801e-01 -3.661696016788482666e-01 -3.427866101264953613e-01
-2.214516848325729370e-01 -4.491523504257202148e-01 -3.504892289638519287e-01
-2.497698962688446045e-01 -4.719978272914886475e-01 -3.336496055126190186e-01
-2.823144793510437012e-01 -6.896824836730957031e-01 -3.793863058090209961e-01
-1.979983150959014893e-01 -2.405044585466384888e-01 -2.929237186908721924e-01
-2.003593891859054565e-01 -3.472383916378021240e-01 -3.211031258106231689e-01
-2.415496706962585449e-01 -5.757266879081726074e-01 -3.598594665527343750e-01
-2.185440957546234131e-01 -4.120926856994628906e-01 -3.477486968040466309e-01
-2.737892866134643555e-01 -6.092926263809204102e-01 -3.876926898956298828e-01
-2.453185170888900757e-01 -5.482459068298339844e-01 -3.445929586887359619e-01
-2.349757701158523560e-01 -3.222262263298034668e-01 -3.248910009860992432e-01
-1.946713626384735107e-01 -2.579949498176574707e-01 -2.958858013153076172e-01
-1.828016638755798340e-01 -1.911684423685073853e-01 -2.934831380844116211e-01
-2.318785190582275391e-01 -3.309335410594940186e-01 -3.156461417675018311e-01
-2.507907152175903320e-01 -4.359780550003051758e-01 -3.583297431468963623e-01
-2.308530658483505249e-01 -4.714269340038299561e-01 -3.601146638393402100e-01
-2.783368825912475586e-01 -5.796990394592285156e-01 -3.682448267936706543e-01
-2.478013932704925537e-01 -4.014344513416290283e-01 -3.316730558872222900e-01
-2.050410956144332886e-01 -3.513295054435729980e-01 -3.115299940109252930e-01
-2.245888262987136841e-01 -3.782593309879302979e-01 -3.485085964202880859e-01
-2.566933333873748779e-01 -4.618133902549743652e-01 -3.618853390216827393e-01
-2.399989515542984009e-01 -3.699660897254943848e-01 -3.231187760829925537e-01
-2.583606243133544922e-01 -5.702047944068908691e-01 -3.494719266891479492e-01
-2.263839095830917358e-01 -3.589977622032165527e-01 -3.458421230316162109e-01
-2.061407119035720825e-01 -2.191656231880187988e-01 -3.140573501586914062e-01
-2.678074240684509277e-01 -5.087841153144836426e-01 -3.549387156963348389e-01
-2.108735144138336182e-01 -3.968608677387237549e-01 -3.205677866935729980e-01
-2.351167649030685425e-01 -3.298371136188507080e-01 -3.339941501617431641e-01
-1.954612284898757935e-01 -2.089586108922958374e-01 -2.899990975856781006e-01
-2.557462751865386963e-01 -4.978641867637634277e-01 -3.710216879844665527e-01
-2.284811437129974365e-01 -3.080047965049743652e-01 -3.322876691818237305e-01
-2.478879392147064209e-01 -5.811113119125366211e-01 -3.749910891056060791e-01
-2.241388559341430664e-01 -4.441987872123718262e-01 -3.536268472671508789e-01
-1.876477599143981934e-01 -2.033969163894653320e-01 -2.899118065834045410e-01
-2.252417951822280884e-01 -4.925462007522583008e-01 -3.496303856372833252e-01
-2.841018736362457275e-01 -6.843227148056030273e-01 -3.957507014274597168e-01
-2.418774515390396118e-01 -3.564167618751525879e-01 -3.313989639282226562e-01
-2.728971242904663086e-01 -6.243286728858947754e-01 -3.898332118988037109e-01
-2.276314049959182739e-01 -2.955400943756103516e-01 -3.276998996734619141e-01
-2.442929148674011230e-01 -5.882931947708129883e-01 -3.620881736278533936e-01
-1.839772164821624756e-01 -2.101868093013763428e-01 -2.960963845252990723e-01
-2.091538310050964355e-01 -2.852829098701477051e-01 -2.992784976959228516e-01
-2.328728735446929932e-01 -3.546698093414306641e-01 -3.159661591053009033e-01
-2.713001072406768799e-01 -5.264317989349365234e-01 -3.615427911281585693e-01
-2.030317783355712891e-01 -1.979239881038665771e-01 -3.073564767837524414e-01
-2.396928071975708008e-01 -4.155727922916412354e-01 -3.567801713943481445e-01
-2.317562103271484375e-01 -4.716214537620544434e-01 -3.294663727283477783e-01
-2.404743880033493042e-01 -5.254337191581726074e-01 -3.401018977165222168e-01
-2.526419460773468018e-01 -5.601091384887695312e-01 -3.467092514038085938e-01
-1.930921971797943115e-01 -2.102232575416564941e-01 -3.105080127716064453e-01
-2.872975468635559082e-01 -6.923017501831054688e-01 -3.953795731067657471e-01
-2.840554714202880859e-01 -6.305342912673950195e-01 -3.757190406322479248e-01
-2.733182013034820557e-01 -6.009707450866699219e-01 -3.609799146652221680e-01
-2.180413901805877686e-01 -4.193858504295349121e-01 -3.216725587844848633e-01
-2.640388011932373047e-01 -4.879418611526489258e-01 -3.499510884284973145e-01
-2.096429616212844849e-01 -3.988122642040252686e-01 -3.355594575405120850e-01
-1.841964125633239746e-01 -2.042440623044967651e-01 -3.004539608955383301e-01
-2.041746973991394043e-01 -2.674593329429626465e-01 -2.964558005332946777e-01
-2.316437363624572754e-01 -5.134527683258056641e-01 -3.594647943973541260e-01
-2.270640581846237183e-01 -4.592252373695373535e-01 -3.565663993358612061e-01
-2.572681307792663574e-01 -5.069183707237243652e-01 -3.413051664829254150e-01
-2.325394004583358765e-01 -4.597330689430236816e-01 -3.606804013252258301e-01
-2.066257447004318237e-01 -2.120485752820968628e-01 -3.110420107841491699e-01
-1.875799298286437988e-01 -1.545104682445526123e-01 -2.924702763557434082e-01
-2.781350016593933105e-01 -6.777979135513305664e-01 -3.751519620418548584e-01
-2.417782396078109741e-01 -4.612403213977813721e-01 -3.286889493465423584e-01
-2.739333510398864746e-01 -6.150934696197509766e-01 -3.628870844841003418e-01
-2.762219309806823730e-01 -5.617752075195312500e-01 -3.723284006118774414e-01
-2.383188158273696899e-01 -4.988839030265808105e-01 -3.666903674602508545e-01
-2.743499577045440674e-01 -5.532941818237304688e-01 -3.625224530696868896e-01
-1.973742842674255371e-01 -3.144389390945434570e-01 -3.081427216529846191e-01
-2.754507064819335938e-01 -6.472376585006713867e-01 -3.924453556537628174e-01
-2.242797613143920898e-01 -4.890967309474945068e-01 -3.435202538967132568e-01
-2.036908864974975586e-01 -3.661361336708068848e-01 -3.196372985839843750e-01
-1.937796175479888916e-01 -2.390782833099365234e-01 -3.151462376117706299e-01
-2.698613107204437256e-01 -5.702852606773376465e-01 -3.556765019893646240e-01
-2.388882040977478027e-01 -5.617017745971679688e-01 -3.556038439273834229e-01
-2.224259972572326660e-01 -4.601072669029235840e-01 -3.510401844978332520e-01
-2.204770594835281372e-01 -4.639294445514678955e-01 -3.357139825820922852e-01
-1.949363648891448975e-01 -2.757566571235656738e-01 -3.190441429615020752e-01
-2.183685898780822754e-01 -3.239521980285644531e-01 -3.057103157043457031e-01
-2.259379178285598755e-01 -3.096351027488708496e-01 -3.101788163185119629e-01
-1.942003816366195679e-01 -2.952018976211547852e-01 -3.170463740825653076e-01
-2.770048379898071289e-01 -6.917116641998291016e-01 -3.946585953235626221e-01
-2.290825098752975464e-01 -4.150818288326263428e-01 -3.192270696163177490e-01
-2.300571948289871216e-01 -4.239538013935089111e-01 -3.206961452960968018e-01
-1.942345947027206421e-01 -1.932108104228973389e-01 -3.073482513427734375e-01
-2.350610345602035522e-01 -3.371278345584869385e-01 -3.374953866004943848e-01
-2.478435933589935303e-01 -6.007952690124511719e-01 -3.712986707687377930e-01
-2.373893558979034424e-01 -3.530292510986328125e-01 -3.210371434688568115e-01
-2.849976122379302979e-01 -6.470928788185119629e-01 -3.770011663436889648e-01
-1.879465281963348389e-01 -1.787887513637542725e-01 -3.015016019344329834e-01
-2.317329943180084229e-01 -3.770751655101776123e-01 -3.495080471038818359e-01
-2.526437044143676758e-01 -4.303319156169891357e-01 -3.549482822418212891e-01
-2.757083475589752197e-01 -5.607516765594482422e-01 -3.647816777229309082e-01
-1.945142745971679688e-01 -2.458549737930297852e-01 -3.164840042591094971e-01
-1.853897720575332642e-01 -2.278830558061599731e-01 -3.011895418167114258e-01
-2.558147609233856201e-01 -5.047780871391296387e-01 -3.722967505455017090e-01
-2.661279141902923584e-01 -6.535882949829101562e-01 -3.684214055538177490e-01
-2.343257665634155273e-01 -4.397921860218048096e-01 -3.596425950527191162e-01
-2.076736092567443848e-01 -3.493682742118835449e-01 -3.354420363903045654e-01
-2.395077049732208252e-01 -3.486149311065673828e-01 -3.363288938999176025e-01
-2.684441506862640381e-01 -6.854840517044067383e-01 -3.848781585693359375e-01
-2.375097572803497314e-01 -4.344331920146942139e-01 -3.598198592662811279e-01
-2.756201326847076416e-01 -6.540126204490661621e-01 -3.695049285888671875e-01
-2.023916691541671753e-01 -3.607289195060729980e-01 -3.234317600727081299e-01
-2.138010710477828979e-01 -2.289208918809890747e-01 -3.097619116306304932e-01
-1.996422559022903442e-01 -3.032219409942626953e-01 -3.254429399967193604e-01
-2.228928655385971069e-01 -2.745576202869415283e-01 -3.101866543292999268e-01
-1.887295544147491455e-01 -2.602212429046630859e-01 -3.052182495594024658e-01
-2.585300505161285400e-01 -6.059562563896179199e-01 -3.567212224006652832e-01
-2.726291716098785400e-01 -1.044452637434005737e-01 -1.901847571134567261e-01
-2.559562325477600098e-01 -1.071313843131065369e-01 1.457032114267349243e-01
-2.836454212665557861e-01 -9.289123117923736572e-02 -1.292693316936492920e-01
-2.519393265247344971e-01 -7.623647153377532959e-02 -1.621833816170692444e-02
-2.368440181016921997e-01 -9.231133759021759033e-02 1.192386150360107422e-01
-2.417321950197219849e-01 -8.600352704524993896e-02 1.546476930379867554e-01
-2.403606921434402466e-01 -1.021801978349685669e-01 -7.849236577749252319e-02
-2.567927539348602295e-01 -8.950643986463546753e-02 -2.342895865440368652e-01
-2.757857143878936768e-01 -9.450316429138183594e-02 -2.097373306751251221e-01
-2.709144651889801025e-01 -1.089335381984710693e-01 1.122117042541503906e-01
-2.495667338371276855e-01 -1.067303717136383057e-01 1.139716133475303650e-01
-2.589332163333892822e-01 -7.676706463098526001e-02 6.061858311295509338e-02
-2.711841762065887451e-01 -8.042921125888824463e-02 -1.023341566324234009e-01
-2.709321081638336182e-01 -1.057871729135513306e-01 -1.828931570053100586e-01
-2.654916644096374512e-01 -7.832256704568862915e-02 7.836334407329559326e-02
-2.810789942741394043e-01 -1.080871596932411194e-01 -1.962035708129405975e-02
-2.590062022209167480e-01 -8.283609896898269653e-02 -1.913291066884994507e-01
-2.484865039587020874e-01 -8.527413755655288696e-02 -1.893770098686218262e-01
-2.428198605775833130e-01 -1.047159358859062195e-01 6.718758493661880493e-02
-2.730060517787933350e-01 -8.586360514163970947e-02 -1.791431009769439697e-01
-2.566034793853759766e-01 -1.106390208005905151e-01 -7.539182901382446289e-02
-2.415053695440292358e-01 -9.831763058900833130e-02 1.490191668272018433e-01
-2.679268717765808105e-01 -7.930423319339752197e-02 8.648703992366790771e-02
-2.456685751676559448e-01 -8.073560148477554321e-02 1.253933459520339966e-01
-2.669391930103302002e-01 -7.783731818199157715e-02 3.879221528768539429e-02
-2.867459654808044434e-01 -1.000638455152511597e-01 -6.148516014218330383e-02
-2.375390827655792236e-01 -9.011876583099365234e-02 -1.205195933580398560e-01
-2.755008041858673096e-01 -1.057073771953582764e-01 1.345337331295013428e-01
-2.784013450145721436e-01 -8.588626235723495483e-02 -1.289888769388198853e-01
-2.380246371030807495e-01 -8.731238543987274170e-02 1.239128410816192627e-01
-2.594490051269531250e-01 -1.025946959853172302e-01 -2.164222747087478638e-01
-2.609725594520568848e-01 -1.120136380195617676e-01 -3.030448406934738159e-02
-2.513457834720611572e-01 -9.099126607179641724e-02 -2.251391708850860596e-01
-2.442406862974166870e-01 -7.938822358846664429e-02 -7.968121767044067383e-02
-2.809801697731018066e-01 -1.030306741595268250e-01 1.125748157501220703e-01
-2.736504673957824707e-01 -8.002366870641708374e-02 -2.612567692995071411e-02
-2.660025358200073242e-01 -1.086443886160850525e-01 1.323207467794418335e-01
-2.636584043502807617e-01 -7.981783896684646606e-02 -1.403669118881225586e-01
-2.703110873699188232e-01 -1.070057153701782227e-01 -1.701827943325042725e-01
-2.798428237438201904e-01 -9.954640269279479980e-02 -1.771945655345916748e-01
-2.620500624179840088e-01 -7.929866015911102295e-02 1.234980970621109009e-01
-2.480108737945556641e-01 -7.764444500207901001e-02 -6.521365046501159668e-02
-2.451706826686859131e-01 -9.782993793487548828e-02 1.828743517398834229e-01
-2.764935791492462158e-01 -8.220844715833663940e-02 -7.176277041435241699e-02
-2.717202305793762207e-01 -1.097576916217803955e-01 -1.159944161772727966e-01
-2.530361413955688477e-01 -1.102157235145568848e-01 -4.610171169042587280e-02
-2.718032598495483398e-01 -1.109462231397628784e-01 -7.777388393878936768e-02
-2.712794244289398193e-01 -9.757314622402191162e-02 2.054460048675537109e-01
-2.530270218849182129e-01 -7.878065109252929688e-02 1.214526295661926270e-01
-2.593383491039276123e-01 -7.791341096162796021e-02 -1.083870008587837219e-01
-2.465427070856094360e-01 -1.077443137764930725e-01 -2.952635288238525391e-02
-2.642646729946136475e-01 -7.757276296615600586e-02 -7.386250793933868408e-02
-2.368501424789428711e-01 -9.469474107027053833e-02 1.113249585032463074e-01
-2.595233619213104248e-01 -1.115739792585372925e-01 -5.423872917890548706e-02
-2.563889324665069580e-01 -7.672803103923797607e-02 -7.061085850000381470e-02
-2.484971731901168823e-01 -7.695639878511428833e-02 3.482389450073242188e-02
-2.802544832229614258e-01 -1.010017544031143188e-01 1.350899934768676758e-01
-2.401306629180908203e-01 -8.732860535383224487e-02 1.482636183500289917e-01
-2.559900581836700439e-01 -8.689031004905700684e-02 -2.215035408735275269e-01
-2.550645470619201660e-01 -7.899828255176544189e-02 1.283544450998306274e-01
-2.774612903594970703e-01 -8.211593329906463623e-02 -1.821382343769073486e-02
-2.835935056209564209e-01 -1.060137450695037842e-01 -3.273119777441024780e-02
-2.515568733215332031e-01 -1.095967590808868408e-01 -5.404653772711753845e-02
-2.377651631832122803e-01 -9.764368832111358643e-02 -9.737299382686614990e-02
-2.640196979045867920e-01 -7.783374935388565063e-02 -8.649238198995590210e-02
-2.565566599369049072e-01 -1.012564599514007568e-01 2.081952393054962158e-01
-2.678567469120025635e-01 -1.117197126150131226e-01 -6.529793888330459595e-02
-2.551577091217041016e-01 -1.073607131838798523e-01 1.386848837137222290e-01
-2.476017624139785767e-01 -8.108671754598617554e-02 1.423192769289016724e-01
-2.856594622135162354e-01 -9.096807241439819336e-02 1.832989975810050964e-02
-2.746115922927856445e-01 -1.081215366721153259e-01 1.050310060381889343e-01
-2.764858603477478027e-01 -8.971314132213592529e-02 -1.871564984321594238e-01
-2.391901314258575439e-01 -1.026869639754295349e-01 1.664521917700767517e-02
-2.826796174049377441e-01 -8.942651748657226562e-02 8.117949217557907104e-02
-2.505333721637725830e-01 -7.666595280170440674e-02 4.070767387747764587e-02
-2.657072246074676514e-01 -1.117314472794532776e-01 4.816896095871925354e-02
-2.872268557548522949e-01 -9.437359869480133057e-02 -2.033442445099353790e-02
-2.595917880535125732e-01 -1.102829799056053162e-01 -1.076594814658164978e-01
-2.806584835052490234e-01 -1.083156690001487732e-01 -3.350609447807073593e-03
-2.422628104686737061e-01 -9.231034666299819946e-02 -1.745154559612274170e-01
-2.694624364376068115e-01 -1.037106662988662720e-01 -2.058676779270172119e-01
-2.805100381374359131e-01 -1.083496510982513428e-01 -3.774850815534591675e-02
-2.447740435600280762e-01 -1.061597913503646851e-01 6.113054975867271423e-02
-2.854712605476379395e-01 -1.021585017442703247e-01 4.196472465991973877e-02
-2.715344130992889404e-01 -8.133203536272048950e-02 1.011241301894187927e-01
-2.406577467918395996e-01 -7.982020825147628784e-02 -1.434307172894477844e-02
-2.633012831211090088e-01 -8.151986449956893921e-02 -1.697952896356582642e-01
-2.832039892673492432e-01 -8.981810510158538818e-02 -1.081476882100105286e-01
-2.768105864524841309e-01 -8.287218213081359863e-02 -8.832626044750213623e-02
-2.391144633293151855e-01 -1.012573018670082092e-01 -6.945423036813735962e-02
-2.717125713825225830e-01 -8.865792304277420044e-02 -2.089328169822692871e-01
-2.669571042060852051e-01 -7.946542650461196899e-02 -1.154623851180076599e-01
-2.782039940357208252e-01 -8.293795585632324219e-02 2.652762085199356079e-02
-2.578427195549011230e-01 -1.114570349454879761e-01 2.776919305324554443e-02
-2.800754606723785400e-01 -8.737839758396148682e-02 9.878173470497131348e-02
-2.651617825031280518e-01 -8.101055771112442017e-02 -1.561899036169052124e-01
-2.421054691076278687e-01 -9.299284219741821289e-02 1.763685196638107300e-01
-2.527111470699310303e-01 -7.671798765659332275e-02 5.841182544827461243e-02
-2.854986488819122314e-01 -1.009936481714248657e-01 5.555465444922447205e-02
-2.513281404972076416e-01 -1.099067255854606628e-01 -1.746419072151184082e-02
-2.458730638027191162e-01 -9.848071634769439697e-02 -1.847073733806610107e-01
-2.482851892709732056e-01 -8.030229806900024414e-02 1.335403621196746826e-01
-2.558953464031219482e-01 -7.954225689172744751e-02 1.387318372726440430e-01
-2.857404053211212158e-01 -9.602653235197067261e-02 6.711037456989288330e-02
-2.675545513629913330e-01 -8.102911710739135742e-02 1.284824162721633911e-01
-2.722393572330474854e-01 -1.113724112510681152e-01 -4.909529909491539001e-02
-2.598131895065307617e-01 -7.661891728639602661e-02 4.860000684857368469e-02
-2.681137025356292725e-01 -1.016120985150337219e-01 2.009143084287643433e-01
-2.776680588722229004e-01 -1.009371280670166016e-01 -1.878338754177093506e-01
-2.395288199186325073e-01 -8.068566769361495972e-02 3.291142731904983521e-02
-2.700383663177490234e-01 -1.106811687350273132e-01 7.350901514291763306e-02
-2.567697465419769287e-01 -1.029345840215682983e-01 -2.078679502010345459e-01
-2.834295332431793213e-01 -8.814025670289993286e-02 -7.043250650167465210e-02
-2.793269753456115723e-01 -8.711256086826324463e-02 1.062226295471191406e-01
-2.512406408786773682e-01 -9.917475283145904541e-02 2.063141465187072754e-01
-2.495404779911041260e-01 -7.727679610252380371e-02 6.469309329986572266e-02
-2.409191131591796875e-01 -1.041870340704917908e-01 -1.708478853106498718e-02
-2.479810714721679688e-01 -1.063708215951919556e-01 -1.100690886378288269e-01
-2.716679573059082031e-01 -8.302892744541168213e-02 -1.521599292755126953e-01
-2.769345641136169434e-01 -8.706218004226684570e-02 -1.608572453260421753e-01
-2.612982392311096191e-01 -1.079678237438201904e-01 -1.612514853477478027e-01
-2.669107615947723389e-01 -8.529846370220184326e-02 1.853041350841522217e-01
-2.630673050880432129e-01 -1.065914779901504517e-01 -1.827547699213027954e-01
-2.678203880786895752e-01 -1.058053746819496155e-01 1.678457111120223999e-01
-2.497834861278533936e-01 -1.060272231698036194e-01 1.294209659099578857e-01
-2.502127885818481445e-01 -8.192410320043563843e-02 -1.651533097028732300e-01
-2.860580980777740479e-01 -9.676247090101242065e-02 6.013778969645500183e-02
-2.365017831325531006e-01 -8.324214816093444824e-02 -7.072610780596733093e-03
-2.437989860773086548e-01 -1.062967851758003235e-01 -1.170465722680091858e-02
-2.554115355014801025e-01 -1.108038723468780518e-01 3.978848457336425781e-02
-2.367706596851348877e-01 -8.641038835048675537e-02 -8.766601234674453735e-02
-2.820426821708679199e-01 -9.908214211463928223e-02 1.239913254976272583e-01
-2.739663720130920410e-01 -1.095410510897636414e-01 7.879446446895599365e-02
-2.816756963729858398e-01 -9.438927471637725830e-02 1.299349516630172729e-01
-2.526376843452453613e-01 -9.458877891302108765e-02 2.247697263956069946e-01
-2.447914630174636841e-01 -1.006799414753913879e-01 1.594026684761047363e-01
-2.528549432754516602e-01 -8.690736442804336548e-02 2.103551477193832397e-01
-2.623511254787445068e-01 -1.086265444755554199e-01 -1.519605070352554321e-01
-2.835348844528198242e-01 -9.412989020347595215e-02 -1.372537016868591309e-01
-2.401991784572601318e-01 -8.032887428998947144e-02 -3.140926361083984375e-02
-2.435947209596633911e-01 -1.020201742649078369e-01 -1.326750069856643677e-01
-2.352491915225982666e-01 -9.750233590602874756e-02 2.405327558517456055e-02
-2.495739609003067017e-01 -7.658221572637557983e-02 1.635212451219558716e-02
-2.660439610481262207e-01 -1.032819896936416626e-01 1.944356113672256470e-01
-2.687564790248870850e-01 -1.121156662702560425e-01 -7.643510587513446808e-03
-2.556479275226593018e-01 -7.783217728137969971e-02 1.019964590668678284e-01
-2.773764431476593018e-01 -1.079724207520484924e-01 -1.131669878959655762e-01
-2.545176744461059570e-01 -8.365087211132049561e-02 1.898085474967956543e-01
-2.663915753364562988e-01 -7.733657211065292358e-02 -7.885013706982135773e-03
-2.422357350587844849e-01 -1.032757237553596497e-01 -9.234381467103958130e-02
-2.547152042388916016e-01 -1.104922294616699219e-01 -5.962555110454559326e-02
-2.551103234291076660e-01 -7.895103842020034790e-02 -1.327253431081771851e-01
-2.555540204048156738e-01 -1.109265685081481934e-01 3.330256044864654541e-02
-2.503256797790527344e-01 -7.763072103261947632e-02 8.295737951993942261e-02
-2.349749207496643066e-01 -8.663556724786758423e-02 -4.323757067322731018e-02
-2.789903581142425537e-01 -1.089643687009811401e-01 -5.550206825137138367e-02
-2.515396773815155029e-01 -1.019896417856216431e-01 1.884975880384445190e-01
-2.620663046836853027e-01 -9.807696938514709473e-02 -2.408146262168884277e-01
-2.771819233894348145e-01 -8.195886015892028809e-02 -1.198957208544015884e-03
-2.786982953548431396e-01 -1.064198985695838928e-01 -1.283602565526962280e-01
-2.690885961055755615e-01 -8.266529440879821777e-02 1.448177397251129150e-01
-2.793785333633422852e-01 -9.078672528266906738e-02 1.400633007287979126e-01
-2.359848022460937500e-01 -9.890581667423248291e-02 6.901737302541732788e-03
-2.480171322822570801e-01 -7.694036513566970825e-02 2.251227945089340210e-02
-2.786930203437805176e-01 -8.482529968023300171e-02 7.703925669193267822e-02
-2.700157761573791504e-01 -8.642731606960296631e-02 -2.004772424697875977e-01
-2.604609131813049316e-01 -1.027641445398330688e-01 2.019152641296386719e-01
-2.405843436717987061e-01 -1.036623343825340271e-01 -3.584237024188041687e-02
-2.774809300899505615e-01 -1.074994653463363647e-01 9.078344702720642090e-02
-2.413391470909118652e-01 -9.322509169578552246e-02 -1.655686646699905396e-01
-2.825575172901153564e-01 -8.846245706081390381e-02 6.934852153062820435e-02
-2.458309829235076904e-01 -9.987484663724899292e-02 1.741211563348770142e-01
-2.798593938350677490e-01 -9.625416249036788940e-02 -1.823458522558212280e-01
-2.759436666965484619e-01 -1.101512685418128967e-01 -6.228946894407272339e-02
-2.355413883924484253e-01 -9.477601945400238037e-02 8.383163809776306152e-02
-2.387241721153259277e-01 -8.126296103000640869e-02 -2.204106003046035767e-02
-2.394717186689376831e-01 -8.656058460474014282e-02 -1.294795870780944824e-01
-2.459241300821304321e-01 -1.023468077182769775e-01 1.513437032699584961e-01
-2.604448497295379639e-01 -8.430536836385726929e-02 1.941052228212356567e-01
-2.707918882369995117e-01 -1.098037138581275940e-01 9.390180557966232300e-02
-2.706862986087799072e-01 -1.090067476034164429e-01 -1.369974762201309204e-01
-2.870266139507293701e-01 -9.545488655567169189e-02 2.287395298480987549e-02
-2.644182443618774414e-01 -7.750838994979858398e-02 5.609455332159996033e-02
-2.671004533767700195e-01 -8.043492585420608521e-02 1.202228814363479614e-01
-2.604336440563201904e-01 -1.117834448814392090e-01 -4.776768758893013000e-02
-2.865062654018402100e-01 -1.014688462018966675e-01 -4.920759052038192749e-02
-2.412409335374832153e-01 -7.940714806318283081e-02 5.697729997336864471e-03
-2.477429062128067017e-01 -7.858499139547348022e-02 -9.344988316297531128e-02
-2.763995230197906494e-01 -1.057448312640190125e-01 1.274654716253280640e-01
-2.466244995594024658e-01 -1.064718887209892273e-01 -8.873233199119567871e-02
-2.729065120220184326e-01 -1.114478036761283875e-01 -1.712639257311820984e-02
-2.453157454729080200e-01 -8.509875088930130005e-02 1.728667914867401123e-01
-2.373930364847183228e-01 -9.418778121471405029e-02 -1.150082275271415710e-01
-2.528657317161560059e-01 -7.711014151573181152e-02 -7.853352278470993042e-02
-2.608768343925476074e-01 -9.088703989982604980e-02 -2.411985546350479126e-01
-2.465977072715759277e-01 -1.047964468598365784e-01 -1.251909285783767700e-01
-2.438814043998718262e-01 -9.194621443748474121e-02 1.894355118274688721e-01
-2.541393041610717773e-01 -1.101515814661979675e-01 5.817515775561332703e-02
-2.703341841697692871e-01 -1.115986630320549011e-01 -5.663372576236724854e-02
-2.684976756572723389e-01 -9.092350304126739502e-02 2.117226421833038330e-01
-2.621595859527587891e-01 -1.069242730736732483e-01 1.605229973793029785e-01
-2.444749623537063599e-01 -8.049701899290084839e-02 -1.078735142946243286e-01
-2.796350121498107910e-01 -1.078327670693397522e-01 -8.613146096467971802e-02
-2.676332294940948486e-01 -1.118899583816528320e-01 3.281532600522041321e-02
-2.586601376533508301e-01 -1.117395982146263123e-01 9.924500249326229095e-03
-2.843369543552398682e-01 -1.022014319896697998e-01 6.947600096464157104e-02
-2.391618788242340088e-01 -9.589231014251708984e-02 -1.328983455896377563e-01
-2.873850762844085693e-01 -9.627987444400787354e-02 -4.290280491113662720e-02
-2.404930889606475830e-01 -7.990649342536926270e-02 2.003617584705352783e-02
-2.602590024471282959e-01 -7.743755728006362915e-02 8.195313066244125366e-02
-2.377906292676925659e-01 -8.250546455383300781e-02 5.099474266171455383e-02
-2.731725871562957764e-01 -1.073144674301147461e-01 -1.549477279186248779e-01
-2.817531824111938477e-01 -8.547709137201309204e-02 -7.895473390817642212e-03
-2.677361667156219482e-01 -8.473993092775344849e-02 -1.943265497684478760e-01
-2.458063811063766479e-01 -1.029388532042503357e-01 1.430279165506362915e-01
-2.429020702838897705e-01 -9.181728959083557129e-02 1.828003823757171631e-01
-2.851839959621429443e-01 -1.041595786809921265e-01 -2.247719094157218933e-03
-2.377119511365890503e-01 -9.301452338695526123e-02 1.307598203420639038e-01
-2.873907089233398438e-01 -9.532027691602706909e-02 -9.378129616379737854e-03
-2.694147229194641113e-01 -8.474420011043548584e-02 1.681789010763168335e-01
-2.342713922262191772e-01 -8.784119039773941040e-02 4.270415380597114563e-02
-2.413475513458251953e-01 -8.011886477470397949e-02 -5.464334413409233093e-02
-2.426484972238540649e-01 -7.942663133144378662e-02 6.166120246052742004e-02
-2.486657649278640747e-01 -8.688762038946151733e-02 1.991797387599945068e-01
