2.547316253185272217e-01 -8.697080612182617188e-02 -4.625576436519622803e-01
5.828934907913208008e-02 -7.211729884147644043e-02 -1.793613657355308533e-02
3.793965578079223633e-01 -6.141470372676849365e-02 -3.576842844486236572e-01
2.350708991289138794e-01 -1.884849667549133301e-01 1.940733939409255981e-01
9.127955138683319092e-02 -8.607524633407592773e-02 3.440878093242645264e-01
5.613877177238464355e-01 -1.014800071716308594e-01 7.096984982490539551e-02
5.431357026100158691e-01 -1.233862340450286865e-01 2.470373660326004028e-01
5.099256038665771484e-01 -8.315771818161010742e-02 -2.666552364826202393e-01
4.177828133106231689e-01 -1.813089400529861450e-01 3.230122625827789307e-01
3.734382987022399902e-01 -1.186212599277496338e-01 5.108721256256103516e-01
3.070550262928009033e-01 -8.911330252885818481e-02 -4.831239879131317139e-01
4.992806911468505859e-02 -8.632175624370574951e-02 2.008417695760726929e-01
2.140907943248748779e-01 -9.707199037075042725e-02 5.073025226593017578e-01
1.158596128225326538e-01 -1.477128863334655762e-01 3.422380387783050537e-01
1.935791671276092529e-01 -1.442291736602783203e-01 4.811295568943023682e-01
3.774455189704895020e-01 -1.465095579624176025e-01 4.953732490539550781e-01
2.852773666381835938e-01 -8.998403698205947876e-02 4.994083344936370850e-01
4.737234711647033691e-01 -1.885025054216384888e-01 -7.094077765941619873e-02
3.321056365966796875e-01 -1.366026550531387329e-01 -4.764392971992492676e-01
2.647840380668640137e-01 -1.938814371824264526e-01 1.065201535820960999e-01
3.881326913833618164e-01 -8.268630504608154297e-02 4.146217703819274902e-01
3.585115969181060791e-01 -1.360139846801757812e-01 -4.791531562805175781e-01
2.324717044830322266e-01 -4.738669097423553467e-02 -2.691774666309356689e-01
2.395121604204177856e-01 -1.892315447330474854e-01 -3.228917717933654785e-02
3.853485882282257080e-01 -1.805668473243713379e-01 3.569152057170867920e-01
4.368563294410705566e-01 -1.887152493000030518e-01 2.210462987422943115e-01
2.746014595031738281e-01 -3.531839698553085327e-02 -6.587205082178115845e-02
4.518756270408630371e-02 -8.644996583461761475e-02 -4.266168549656867981e-02
2.857642471790313721e-01 -1.879679560661315918e-01 2.905960977077484131e-01
6.535823643207550049e-02 -8.586901426315307617e-02 -1.539219170808792114e-01
3.481065928936004639e-01 -6.394738703966140747e-02 -3.935485482215881348e-01
5.603759288787841797e-01 -1.610259413719177246e-01 -1.012190952897071838e-01
2.428467869758605957e-01 -6.236858293414115906e-02 3.849256336688995361e-01
2.969267070293426514e-01 -1.903517842292785645e-01 2.670133411884307861e-01
2.482587695121765137e-01 -5.739075317978858948e-02 3.523887991905212402e-01
2.835258841514587402e-01 -4.645389318466186523e-02 2.486045360565185547e-01
3.159834444522857666e-01 -4.257077723741531372e-02 1.725408136844635010e-01
3.960038423538208008e-01 -5.818794295191764832e-02 -3.147498667240142822e-01
1.875056922435760498e-01 -1.825581789016723633e-01 1.256739050149917603e-01
1.556205749511718750e-01 -6.230342760682106018e-02 -2.858689427375793457e-01
4.284235239028930664e-01 -1.558474898338317871e-01 4.333346784114837646e-01
4.018163084983825684e-01 -1.928076148033142090e-01 2.136944979429244995e-01
1.837484240531921387e-01 -5.548194795846939087e-02 3.106401264667510986e-01
3.625298142433166504e-01 -1.917696893215179443e-01 -1.561619043350219727e-01
2.932655513286590576e-01 -1.962659955024719238e-01 3.740497678518295288e-02
3.279817402362823486e-01 -1.969491541385650635e-01 1.530028879642486572e-01
4.404627084732055664e-01 -5.283468216657638550e-02 3.229415044188499451e-03
4.272939264774322510e-01 -1.796458214521408081e-01 -2.653540372848510742e-01
3.774575889110565186e-01 -1.737698316574096680e-01 -3.290818631649017334e-01
5.369480252265930176e-01 -1.565312445163726807e-01 -2.443889379501342773e-01
1.504511237144470215e-01 -4.570488631725311279e-02 -1.116738319396972656e-01
4.314869046211242676e-01 -7.279540598392486572e-02 -3.695582747459411621e-01
3.300225138664245605e-01 -1.120291873812675476e-01 5.281997919082641602e-01
5.817580223083496094e-02 -1.346430033445358276e-01 3.945639356970787048e-03
8.621965348720550537e-02 -1.453586518764495850e-01 -7.556841522455215454e-02
4.118400812149047852e-01 -1.898255497217178345e-01 2.449661195278167725e-01
2.954078316688537598e-01 -4.894736409187316895e-02 -3.029513657093048096e-01
6.485767662525177002e-02 -7.049192488193511963e-02 -5.569448322057723999e-02
4.494179785251617432e-01 -1.752559989690780640e-01 3.249013125896453857e-01
2.067547738552093506e-01 -7.380594313144683838e-02 4.339740574359893799e-01
2.713721096515655518e-01 -4.351332783699035645e-02 2.169456332921981812e-01
2.285671532154083252e-01 -4.299302399158477783e-02 2.079037725925445557e-01
4.424077272415161133e-02 -8.329054713249206543e-02 1.295895427465438843e-01
5.343503355979919434e-01 -1.642215400934219360e-01 1.928643584251403809e-01
2.990177273750305176e-01 -5.685102567076683044e-02 -3.630667626857757568e-01
5.001440048217773438e-01 -7.145527005195617676e-02 -1.780852377414703369e-01
8.637040853500366211e-02 -5.958348885178565979e-02 1.208082437515258789e-01
1.444376558065414429e-01 -4.607407748699188232e-02 1.288377046585083008e-01
8.581829071044921875e-02 -1.524858772754669189e-01 7.439912855625152588e-02
2.898927330970764160e-01 -1.943110525608062744e-01 1.809177845716476440e-01
2.820484340190887451e-01 -1.412307173013687134e-01 5.288482904434204102e-01
2.966702878475189209e-01 -4.456239938735961914e-02 -2.573828995227813721e-01
3.772129714488983154e-01 -4.764839261770248413e-02 1.510183215141296387e-01
1.279364526271820068e-01 -1.676359623670578003e-01 1.435278356075286865e-01
3.743135929107666016e-02 -1.117880046367645264e-01 1.483756452798843384e-01
4.694223999977111816e-01 -1.888152211904525757e-01 1.307477056980133057e-01
4.607366323471069336e-01 -1.876555383205413818e-01 1.825916618108749390e-01
3.367715775966644287e-01 -3.820403665304183960e-02 -7.650821655988693237e-02
5.561935901641845703e-01 -9.268049895763397217e-02 -5.902180075645446777e-02
3.068551421165466309e-01 -1.972663104534149170e-01 7.051382958889007568e-02
2.219827175140380859e-01 -1.642157882452011108e-01 -2.929551005363464355e-01
4.548985958099365234e-01 -1.801032125949859619e-01 -2.334865331649780273e-01
4.818205535411834717e-01 -6.452536582946777344e-02 5.353042110800743103e-02
5.115413665771484375e-01 -1.563778817653656006e-01 2.980374693870544434e-01
2.560869455337524414e-01 -1.749779880046844482e-01 3.904014229774475098e-01
9.468147158622741699e-02 -1.546291410923004150e-01 6.091838702559471130e-03
5.046334266662597656e-01 -9.594860672950744629e-02 -3.477495908737182617e-01
5.416997671127319336e-01 -1.459632515907287598e-01 -2.771090269088745117e-01
2.610344886779785156e-01 -1.620291471481323242e-01 -3.501391410827636719e-01
4.386099278926849365e-01 -6.781101971864700317e-02 2.495267242193222046e-01
4.751636981964111328e-01 -7.086115330457687378e-02 -2.700053155422210693e-01
5.219735503196716309e-01 -1.782347261905670166e-01 8.032076060771942139e-02
9.481340646743774414e-02 -1.561354696750640869e-01 1.287588626146316528e-01
2.985731065273284912e-01 -1.866407990455627441e-01 -1.882718503475189209e-01
2.926850914955139160e-01 -3.830041736364364624e-02 -1.593895852565765381e-01
6.794664263725280762e-02 -6.805928051471710205e-02 1.403916031122207642e-01
3.650094866752624512e-01 -1.668672412633895874e-01 -3.708926737308502197e-01
2.407179474830627441e-01 -3.751149773597717285e-02 1.115275695919990540e-01
3.771782517433166504e-01 -1.475469470024108887e-01 -4.490300714969635010e-01
2.865569889545440674e-01 -3.591977059841156006e-02 4.485853016376495361e-02
4.600953459739685059e-01 -1.715911477804183960e-01 -2.957674562931060791e-01
3.501998782157897949e-01 -1.797072440385818481e-01 3.792083859443664551e-01
2.457820326089859009e-01 -4.073130339384078979e-02 -1.984367966651916504e-01
1.617134362459182739e-01 -4.219964891672134399e-02 8.913205564022064209e-02
3.603854775428771973e-01 -1.786513924598693848e-01 -2.942499816417694092e-01
2.444839328527450562e-01 -1.809135526418685913e-01 3.283683359622955322e-01
5.720027685165405273e-01 -1.127975434064865112e-01 -1.658270508050918579e-01
5.296440124511718750e-01 -1.746638715267181396e-01 -9.515453875064849854e-02
4.087445437908172607e-01 -4.674326628446578979e-02 -8.781936019659042358e-03
4.952290654182434082e-01 -6.650359183549880981e-02 -7.288067787885665894e-02
6.817930936813354492e-02 -1.230489164590835571e-01 -1.427498459815979004e-01
4.381825327873229980e-01 -1.930843293666839600e-01 1.362071931362152100e-01
2.775996625423431396e-01 -1.468357443809509277e-01 -4.280813038349151611e-01
2.112584114074707031e-01 -1.234581246972084045e-01 -4.321395456790924072e-01
1.546686887741088867e-01 -1.583600342273712158e-01 -2.077355533838272095e-01
2.097865045070648193e-01 -1.853398084640502930e-01 1.783170104026794434e-01
1.354040950536727905e-01 -1.694466769695281982e-01 2.093654125928878784e-02
1.019475311040878296e-01 -1.562439501285552979e-01 -2.330018207430839539e-02
4.350812435150146484e-01 -6.117528676986694336e-02 -2.754873335361480713e-01
7.832863926887512207e-02 -7.866245508193969727e-02 2.788366079330444336e-01
5.183492898941040039e-01 -1.743356585502624512e-01 -1.546516567468643188e-01
4.153396189212799072e-01 -4.767122864723205566e-02 -5.743991583585739136e-02
2.317002713680267334e-01 -1.696475744247436523e-01 4.058191776275634766e-01
4.265290796756744385e-01 -5.114257335662841797e-02 4.906059056520462036e-02
5.418220758438110352e-01 -1.061042100191116333e-01 -2.826151251792907715e-01
8.954559266567230225e-02 -1.506852805614471436e-01 2.075826972723007202e-01
1.588421165943145752e-01 -1.742358356714248657e-01 -2.529989555478096008e-02
1.007268279790878296e-01 -6.037600338459014893e-02 -1.352771073579788208e-01
1.806626468896865845e-01 -3.948184102773666382e-02 6.498499214649200439e-02
4.129588901996612549e-01 -5.501338094472885132e-02 -2.536600232124328613e-01
4.685958027839660645e-01 -8.957580476999282837e-02 -3.915006518363952637e-01
3.499056696891784668e-01 -1.593284010887145996e-01 -4.066464304924011230e-01
9.436026215553283691e-02 -5.624937638640403748e-02 -3.316552564501762390e-02
3.192455768585205078e-01 -1.812542974948883057e-01 -2.596949636936187744e-01
4.839628934860229492e-01 -1.531953215599060059e-01 -3.613479435443878174e-01
2.025739699602127075e-01 -3.867700695991516113e-02 1.010019481182098389e-01
2.781929075717926025e-01 -1.709187924861907959e-01 -3.110462725162506104e-01
5.808534622192382812e-01 -1.433559805154800415e-01 -9.449244290590286255e-02
4.869749844074249268e-01 -1.812722384929656982e-01 1.957511901855468750e-01
4.300971925258636475e-01 -7.113067060708999634e-02 2.926417589187622070e-01
1.187688559293746948e-01 -1.347023248672485352e-01 4.039767682552337646e-01
3.271342515945434570e-01 -1.899469494819641113e-01 -1.690545231103897095e-01
2.031081765890121460e-01 -5.459907650947570801e-02 -3.016860187053680420e-01
1.737787425518035889e-01 -3.959567844867706299e-02 5.950408056378364563e-03
4.299345612525939941e-01 -1.567109376192092896e-01 -3.982050418853759766e-01
5.506080985069274902e-01 -1.688362210988998413e-01 1.510456018149852753e-02
4.535248577594757080e-01 -1.617741435766220093e-01 3.846361637115478516e-01
1.260285675525665283e-01 -1.203821823000907898e-01 4.424134194850921631e-01
1.295056343078613281e-01 -5.204458534717559814e-02 -1.418615579605102539e-01
4.400135874748229980e-01 -1.861299276351928711e-01 -1.866585761308670044e-01
1.523609012365341187e-01 -1.208829283714294434e-01 -3.605488836765289307e-01
2.115042358636856079e-01 -1.563992053270339966e-01 4.559539854526519775e-01
3.091143667697906494e-01 -1.972529292106628418e-01 9.715288877487182617e-02
4.262481629848480225e-01 -1.959380507469177246e-01 4.255275055766105652e-02
1.976978182792663574e-01 -1.841515302658081055e-01 2.577197179198265076e-02
5.605685710906982422e-01 -9.804591536521911621e-02 -1.323096454143524170e-01
7.540555298328399658e-02 -1.012190803885459900e-01 -2.096253782510757446e-01
2.367928922176361084e-01 -1.860215365886688232e-01 -9.548208862543106079e-02
5.728772878646850586e-01 -1.554358601570129395e-01 -2.018801495432853699e-02
2.297247946262359619e-01 -1.888044178485870361e-01 -8.298959583044052124e-04
3.115071356296539307e-01 -7.274878770112991333e-02 4.276307821273803711e-01
3.489497601985931396e-01 -4.959056526422500610e-02 2.273673862218856812e-01
4.123482704162597656e-01 -7.281018793582916260e-02 3.334926366806030273e-01
4.696862995624542236e-01 -1.810419410467147827e-01 2.429943233728408813e-01
3.044871389865875244e-01 -7.445548474788665771e-02 -4.460835158824920654e-01
4.533923864364624023e-01 -1.923130154609680176e-01 9.875828772783279419e-02
2.852376997470855713e-01 -1.943887770175933838e-01 -2.679007500410079956e-02
4.207261800765991211e-01 -1.961813271045684814e-01 7.564634084701538086e-02
3.872147798538208008e-01 -4.806343466043472290e-02 -2.096677273511886597e-01
2.462966442108154297e-01 -3.711601346731185913e-02 -1.274433284997940063e-01
3.262094259262084961e-01 -1.494402736425399780e-01 5.106763839721679688e-01
1.031873822212219238e-01 -9.373936802148818970e-02 3.890363574028015137e-01
4.326373338699340820e-01 -1.834207475185394287e-01 2.866438925266265869e-01
6.375744938850402832e-02 -1.386773735284805298e-01 1.712272018194198608e-01
4.152940511703491211e-01 -1.888571828603744507e-01 -1.772039234638214111e-01
3.760381639003753662e-01 -4.521878063678741455e-02 -1.827674210071563721e-01
5.351083874702453613e-01 -8.380995690822601318e-02 4.240817204117774963e-02
1.905042976140975952e-01 -5.913213640451431274e-02 3.436366915702819824e-01
4.803768396377563477e-01 -7.473474740982055664e-02 2.011347711086273193e-01
1.009064167737960815e-01 -5.798645317554473877e-02 1.744773834943771362e-01
4.476720094680786133e-02 -8.629590272903442383e-02 1.637539267539978027e-01
4.576346278190612793e-01 -6.173077225685119629e-02 -2.196311950683593750e-01
2.819361686706542969e-01 -3.536672145128250122e-02 1.829574815928936005e-02
3.765854835510253906e-01 -1.856292039155960083e-01 -2.315437495708465576e-01
1.514768600463867188e-01 -1.431540101766586304e-01 -2.909102439880371094e-01
2.000741064548492432e-01 -4.370842874050140381e-02 1.982739120721817017e-01
2.483384013175964355e-01 -4.611344635486602783e-02 2.515347599983215332e-01
4.070573449134826660e-01 -1.841219067573547363e-01 -2.370938360691070557e-01
1.813983768224716187e-01 -4.264418035745620728e-02 -1.431562602519989014e-01
1.546202301979064941e-01 -1.755229979753494263e-01 1.013829633593559265e-01
3.225277960300445557e-01 -4.420223832130432129e-02 -2.413930296897888184e-01
1.614347249269485474e-01 -7.646338641643524170e-02 -3.533906936645507812e-01
2.975705862045288086e-01 -1.915617138147354126e-01 -1.158579885959625244e-01
5.073989629745483398e-01 -7.291750609874725342e-02 5.503223463892936707e-02
4.647619128227233887e-01 -1.866430342197418213e-01 -1.370857208967208862e-01
2.725597918033599854e-01 -3.773207217454910278e-02 1.159453988075256348e-01
1.770458817481994629e-01 -4.051004350185394287e-02 -8.036532998085021973e-02
2.355909794569015503e-01 -1.748099774122238159e-01 -2.313586175441741943e-01
1.115258038043975830e-01 -7.189334183931350708e-02 3.233990371227264404e-01
1.055662184953689575e-01 -1.093809381127357483e-01 -2.865602374076843262e-01
3.956810235977172852e-01 -4.538552463054656982e-02 -1.153914183378219604e-01
8.494254946708679199e-02 -1.405595988035202026e-01 -1.132656037807464600e-01
2.368034571409225464e-01 -1.443147212266921997e-01 5.105826854705810547e-01
3.991330564022064209e-01 -4.676981270313262939e-02 -1.457071006298065186e-01
5.552644729614257812e-01 -1.031379997730255127e-01 -2.150569856166839600e-01
5.380496978759765625e-01 -1.604082584381103516e-01 -2.171415686607360840e-01
3.000640273094177246e-01 -1.817509233951568604e-01 -2.420761883258819580e-01
3.896837830543518066e-01 -5.454073101282119751e-02 -2.890614867210388184e-01
4.932640790939331055e-01 -7.221177220344543457e-02 1.255868077278137207e-01
2.340444177389144897e-01 -1.274387389421463013e-01 -4.463205039501190186e-01
3.177502751350402832e-01 -1.951543241739273071e-01 1.956193894147872925e-01
3.420780301094055176e-01 -7.972155511379241943e-02 -4.601708054542541504e-01
1.248177886009216309e-01 -6.186605244874954224e-02 -2.213250249624252319e-01
3.165417909622192383e-01 -1.486673951148986816e-01 -4.401368200778961182e-01
4.104018211364746094e-01 -1.957852244377136230e-01 -4.675789922475814819e-02
2.032963931560516357e-01 -1.768830865621566772e-01 -1.466560065746307373e-01
4.315919280052185059e-01 -6.829313933849334717e-02 -3.415291607379913330e-01
3.168131709098815918e-01 -6.724797189235687256e-02 -4.179741740226745605e-01
3.450514674186706543e-01 -4.016522318124771118e-02 6.780535727739334106e-02
2.445503473281860352e-01 -1.917646229267120361e-01 6.682732701301574707e-02
2.568034231662750244e-01 -1.716067790985107422e-01 -2.852158248424530029e-01
3.158262968063354492e-01 -3.663662075996398926e-02 4.465584643185138702e-03
8.017930388450622559e-02 -1.184551864862442017e-01 3.492494225502014160e-01
3.603026568889617920e-01 -4.354667663574218750e-02 1.142602711915969849e-01
1.399337202310562134e-01 -4.815489798784255981e-02 1.565355509519577026e-01
1.054883152246475220e-01 -5.243033170700073242e-02 7.545852661132812500e-02
4.239383339881896973e-01 -6.055101752281188965e-02 2.132057994604110718e-01
3.446549773216247559e-01 -7.882520556449890137e-02 4.360004961490631104e-01
1.937015652656555176e-01 -4.935712367296218872e-02 2.623957395553588867e-01
4.643497169017791748e-01 -7.174126058816909790e-02 -3.049618601799011230e-01
1.007331907749176025e-01 -1.483476758003234863e-01 2.892794013023376465e-01
5.392053723335266113e-01 -1.732376813888549805e-01 4.290650412440299988e-02
3.146602213382720947e-01 -1.933103799819946289e-01 2.315574288368225098e-01
2.750820517539978027e-01 -1.195955276489257812e-01 -4.841131269931793213e-01
5.701285004615783691e-01 -1.569668352603912354e-01 -5.475150793790817261e-02
2.093931734561920166e-01 -1.802562773227691650e-01 -1.164040714502334595e-01
1.897631585597991943e-01 -4.342404752969741821e-02 -1.729772686958312988e-01
4.653204679489135742e-01 -8.161992579698562622e-02 -3.638201057910919189e-01
5.417617559432983398e-01 -9.018257260322570801e-02 8.808425813913345337e-02
2.781568467617034912e-01 -5.643655359745025635e-02 3.420792818069458008e-01
5.577353835105895996e-01 -1.630533337593078613e-01 7.234399765729904175e-02
1.726049035787582397e-01 -4.312828928232192993e-02 1.467528343200683594e-01
4.652725458145141602e-01 -1.303307712078094482e-01 -4.356555342674255371e-01
4.992337226867675781e-01 -8.427539467811584473e-02 -3.060113489627838135e-01
3.087322413921356201e-01 -1.619491279125213623e-01 -3.828103840351104736e-01
3.902206122875213623e-01 -4.534263908863067627e-02 5.990671366453170776e-02
5.662345886230468750e-01 -1.594196259975433350e-01 3.432961553335189819e-02
3.424110710620880127e-01 -4.506876319646835327e-02 1.763509213924407959e-01
9.018580615520477295e-02 -1.376790553331375122e-01 3.201852440834045410e-01
3.472070097923278809e-01 -1.960358917713165283e-01 -7.176447659730911255e-02
3.460822701454162598e-01 -1.922605782747268677e-01 2.562882900238037109e-01
3.460978567600250244e-01 -5.189473181962966919e-02 2.563391625881195068e-01
4.444628953933715820e-02 -8.181504905223846436e-02 1.010800432413816452e-02
5.166904926300048828e-01 -1.668910384178161621e-01 -2.315475940704345703e-01
2.220866382122039795e-01 -5.834691599011421204e-02 3.543172776699066162e-01
4.110248088836669922e-01 -5.297434329986572266e-02 1.490836888551712036e-01
1.967408359050750732e-01 -1.610074490308761597e-01 4.186628162860870361e-01
5.154078006744384766e-01 -9.629744291305541992e-02 -3.236871957778930664e-01
1.199001371860504150e-01 -1.423590481281280518e-01 -2.222491353750228882e-01
3.496992588043212891e-01 -1.890149116516113281e-01 -1.913311779499053955e-01
3.836345076560974121e-01 -1.882690340280532837e-01 2.903866767883300781e-01
3.467460572719573975e-01 -1.964836418628692627e-01 1.756697893142700195e-01
1.016915738582611084e-01 -5.497847869992256165e-02 -6.104195117950439453e-02
5.572117567062377930e-01 -1.055825725197792053e-01 1.311137676239013672e-01
4.484157562255859375e-01 -1.920847147703170776e-01 -6.467272341251373291e-02
5.195605754852294922e-02 -7.523128390312194824e-02 9.972912818193435669e-02
1.382022202014923096e-01 -7.547209411859512329e-02 -3.137031793594360352e-01
4.863736331462860107e-01 -1.868228316307067871e-01 9.704478830099105835e-02
5.054811239242553711e-01 -1.756237149238586426e-01 -1.810215264558792114e-01
6.979027390480041504e-02 -9.255730360746383667e-02 3.067634105682373047e-01
3.965486288070678711e-01 -7.684533298015594482e-02 3.777627646923065186e-01
2.425585538148880005e-01 -1.639020442962646484e-01 -3.207572698593139648e-01
4.294717609882354736e-01 -6.312174350023269653e-02 -3.052172958850860596e-01
4.543375372886657715e-01 -5.836601182818412781e-02 8.039921522140502930e-02
4.628298282623291016e-01 -5.754210427403450012e-02 -2.549146488308906555e-02
4.703725576400756836e-01 -8.800244331359863281e-02 3.150216937065124512e-01
5.274404883384704590e-01 -1.778231859207153320e-01 6.631462834775447845e-03
2.983007729053497314e-01 -1.378181874752044678e-01 -4.642877876758575439e-01
5.682221651077270508e-01 -1.038367524743080139e-01 3.155601024627685547e-02
2.365442216396331787e-01 -1.077449470758438110e-01 -4.674473404884338379e-01
4.968563914299011230e-01 -7.376064360141754150e-02 -2.263171970844268799e-01
4.011610150337219238e-01 -1.099649369716644287e-01 4.787311851978302002e-01
3.018925189971923828e-01 -4.032586514949798584e-02 -1.949017792940139771e-01
5.369186401367187500e-01 -1.110284477472305298e-01 -3.104276359081268311e-01
1.857280433177947998e-01 -1.398994326591491699e-01 -3.608834147453308105e-01
3.991511464118957520e-01 -1.968101263046264648e-01 1.213188171386718750e-01
2.532055974006652832e-01 -6.683886051177978516e-02 -4.039788842201232910e-01
4.625888168811798096e-01 -9.037053585052490234e-02 3.413797318935394287e-01
2.854352593421936035e-01 -3.659927845001220703e-02 7.406365871429443359e-02
4.288334846496582031e-01 -9.199569374322891235e-02 4.018900394439697266e-01
1.452534198760986328e-01 -1.292203217744827271e-01 -3.295064270496368408e-01
2.685716152191162109e-01 -1.807883381843566895e-01 3.532963395118713379e-01
1.069972366094589233e-01 -1.380901038646697998e-01 3.663655817508697510e-01
9.468747675418853760e-02 -1.563774198293685913e-01 1.025076583027839661e-01
2.060698866844177246e-01 -1.418673694133758545e-01 -3.806626498699188232e-01
1.627159714698791504e-01 -1.559584587812423706e-01 -2.435034215450286865e-01
5.806703567504882812e-01 -1.360106468200683594e-01 7.055077701807022095e-02
2.672929167747497559e-01 -1.694532930850982666e-01 4.320342540740966797e-01
1.315829455852508545e-01 -1.497997194528579712e-01 3.693085610866546631e-01
2.503895163536071777e-01 -1.862061023712158203e-01 -1.239333152770996094e-01
1.266109943389892578e-01 -7.342125475406646729e-02 -2.846998870372772217e-01
3.276264071464538574e-01 -4.134888947010040283e-02 1.350201666355133057e-01
4.262839555740356445e-01 -5.079188942909240723e-02 -1.301034390926361084e-01
4.248654842376708984e-01 -1.635506600141525269e-01 -3.710321187973022461e-01
2.840862572193145752e-01 -1.855568438768386841e-01 3.177724778652191162e-01
1.775400042533874512e-01 -1.609080880880355835e-01 3.924706280231475830e-01
3.288168907165527344e-01 -1.771250665187835693e-01 -2.983708679676055908e-01
4.948834478855133057e-01 -7.689876854419708252e-02 1.727239936590194702e-01
2.926483154296875000e-01 -4.971136152744293213e-02 2.788400053977966309e-01
1.326009184122085571e-01 -6.960915029048919678e-02 3.467679321765899658e-01
2.962767183780670166e-01 -1.938038170337677002e-01 -6.795421242713928223e-02
2.773054540157318115e-01 -3.903856128454208374e-02 1.424331665039062500e-01
2.978034615516662598e-01 -1.091153919696807861e-01 5.341225862503051758e-01
4.345382153987884521e-01 -8.304324746131896973e-02 3.556922972202301025e-01
3.967322707176208496e-01 -1.957241594791412354e-01 1.605531722307205200e-01
5.368947982788085938e-01 -1.738685071468353271e-01 -5.129545181989669800e-02
3.504284620285034180e-01 -7.236295938491821289e-02 -4.323149025440216064e-01
1.178305894136428833e-01 -5.929662659764289856e-02 -1.830128431320190430e-01
1.838937699794769287e-01 -1.820921897888183594e-01 9.428396075963973999e-02
2.833707034587860107e-01 -1.889097094535827637e-01 -1.395137757062911987e-01
2.046611309051513672e-01 -6.375002861022949219e-02 -3.560584485530853271e-01
1.647066771984100342e-01 -1.326121836900711060e-01 4.776431024074554443e-01
7.165499031543731689e-02 -7.183779776096343994e-02 -1.106292307376861572e-01
5.856357812881469727e-01 -1.245411261916160583e-01 -2.203409373760223389e-02
5.229468345642089844e-01 -7.779828459024429321e-02 -1.323617994785308838e-01
4.040390253067016602e-01 -1.706447452306747437e-01 4.017772972583770752e-01
3.648011982440948486e-01 -4.170024394989013672e-02 -1.224174648523330688e-01
5.375379920005798340e-01 -9.522204846143722534e-02 1.578854322433471680e-01
3.347205221652984619e-01 -1.983751058578491211e-01 6.797166168689727783e-02
4.815438985824584961e-01 -1.696695089340209961e-01 -2.806089818477630615e-01
1.964290142059326172e-01 -1.714739501476287842e-01 -1.907844841480255127e-01
3.162842392921447754e-01 -1.819099932909011841e-01 3.649510145187377930e-01
3.397223949432373047e-01 -5.051048845052719116e-02 -3.009084165096282959e-01
2.639244198799133301e-01 -5.718554928898811340e-02 -3.594661951065063477e-01
3.343598246574401855e-01 -4.133968055248260498e-02 -1.833171695470809937e-01
5.515419244766235352e-01 -1.110865026712417603e-01 1.852637231349945068e-01
3.296366333961486816e-01 -5.276340246200561523e-02 2.820415496826171875e-01
3.765302598476409912e-01 -4.195659607648849487e-02 -4.870165884494781494e-02
5.838932394981384277e-01 -1.371774375438690186e-01 2.964568510651588440e-02
5.303972959518432617e-01 -1.535437852144241333e-01 2.580215930938720703e-01
1.603285074234008789e-01 -1.767932772636413574e-01 6.079661473631858826e-02
1.898306012153625488e-01 -7.513478398323059082e-02 -3.846178054809570312e-01
5.237673521041870117e-01 -1.639015227556228638e-01 2.314247786998748779e-01
4.725852310657501221e-01 -6.102748960256576538e-02 2.709486708045005798e-02
9.329852461814880371e-02 -8.566890656948089600e-02 -2.444938421249389648e-01
2.112851291894912720e-01 -3.639420866966247559e-02 3.582470118999481201e-03
1.762425750494003296e-01 -1.718861013650894165e-01 3.003852665424346924e-01
1.014065593481063843e-01 -1.573505848646163940e-01 1.778359860181808472e-01
2.366432547569274902e-01 -3.560952842235565186e-02 3.592534363269805908e-02
1.684251725673675537e-01 -9.915725886821746826e-02 4.825652241706848145e-01
2.305609434843063354e-01 -1.897257566452026367e-01 1.196111068129539490e-01
1.344298124313354492e-01 -4.583014547824859619e-02 6.377678364515304565e-02
4.327344000339508057e-01 -7.899347692728042603e-02 -3.986984789371490479e-01
3.155823945999145508e-01 -3.647060692310333252e-02 -1.980898156762123108e-02
1.944907903671264648e-01 -1.814413666725158691e-01 2.110029757022857666e-01
1.359042525291442871e-01 -1.687486767768859863e-01 1.859292834997177124e-01
7.695011794567108154e-02 -1.403606235980987549e-01 2.484513521194458008e-01
3.944082558155059814e-01 -7.525461912155151367e-02 -4.199627637863159180e-01
5.171904563903808594e-01 -1.765389144420623779e-01 -1.284701377153396606e-01
1.500488668680191040e-01 -4.289797693490982056e-02 4.032699018716812134e-02
3.260949254035949707e-01 -3.786903619766235352e-02 -1.006328091025352478e-01
4.354638457298278809e-01 -5.543738231062889099e-02 1.081379801034927368e-01
3.862294852733612061e-01 -4.324096441268920898e-02 -2.405624091625213623e-02
7.312020659446716309e-02 -1.419244408607482910e-01 -3.099505975842475891e-02
4.569862484931945801e-01 -5.706598609685897827e-02 -1.250690817832946777e-01
1.963887810707092285e-01 -6.705819070339202881e-02 3.961076140403747559e-01
4.843426048755645752e-01 -1.252229213714599609e-01 3.872005939483642578e-01
2.350405305624008179e-01 -1.854729056358337402e-01 2.551708817481994629e-01
4.149802029132843018e-01 -1.909845471382141113e-01 -1.464955359697341919e-01
3.829805850982666016e-01 -1.762134879827499390e-01 3.871054649353027344e-01
1.904460489749908447e-01 -1.777313202619552612e-01 2.637269198894500732e-01
1.483972370624542236e-01 -4.466126859188079834e-02 -7.896084338426589966e-02
3.614258170127868652e-01 -1.979589164257049561e-01 1.235637888312339783e-01
2.494459599256515503e-01 -9.143568575382232666e-02 5.041798353195190430e-01
4.130026698112487793e-01 -5.209080129861831665e-02 -2.121128290891647339e-01
2.648337185382843018e-01 -1.907659173011779785e-01 2.186293900012969971e-01
3.373098075389862061e-01 -6.747576594352722168e-02 3.844298124313354492e-01
3.452335596084594727e-01 -1.585245579481124878e-01 4.817841351032257080e-01
1.634421944618225098e-01 -1.712839007377624512e-01 2.710319459438323975e-01
2.678310871124267578e-01 -1.931322515010833740e-01 1.626306623220443726e-01
4.800439476966857910e-01 -8.345229923725128174e-02 2.678332328796386719e-01
2.776947021484375000e-01 -1.633696109056472778e-01 4.656151533126831055e-01
2.332889139652252197e-01 -1.780011504888534546e-01 -1.964424699544906616e-01
4.364078044891357422e-01 -1.108271554112434387e-01 4.414108395576477051e-01
5.012096166610717773e-01 -1.798750162124633789e-01 1.649374067783355713e-01
4.358161091804504395e-01 -1.272980719804763794e-01 -4.640649855136871338e-01
3.201347589492797852e-01 -1.755442917346954346e-01 4.100801348686218262e-01
4.735302925109863281e-01 -1.606119722127914429e-01 3.586364984512329102e-01
3.507563471794128418e-01 -1.898821741342544556e-01 2.869609892368316650e-01
3.353117108345031738e-01 -5.717322975397109985e-02 3.153978884220123291e-01
2.217686176300048828e-01 -4.597613215446472168e-02 2.433061599731445312e-01
1.582891941070556641e-01 -5.093476176261901855e-02 2.367537170648574829e-01
2.209824323654174805e-01 -4.088411480188369751e-02 -1.793509870767593384e-01
2.843066751956939697e-01 -6.580086797475814819e-02 4.014375805854797363e-01
9.079217910766601562e-02 -1.541837155818939209e-01 4.367291927337646484e-02
2.378979474306106567e-01 -3.980065882205963135e-02 1.602068096399307251e-01
3.824336528778076172e-01 -1.972218453884124756e-01 -3.430115804076194763e-02
1.272060126066207886e-01 -1.328369379043579102e-01 -2.821529209613800049e-01
3.764062821865081787e-01 -5.363198369741439819e-02 2.322591096162796021e-01
1.573720276355743408e-01 -4.787415266036987305e-02 -1.668389886617660522e-01
2.542136609554290771e-01 -7.307617366313934326e-02 4.416813254356384277e-01
4.366013407707214355e-02 -1.232381090521812439e-01 2.891563437879085541e-02
3.451304435729980469e-01 -1.816199719905853271e-01 -2.670502662658691406e-01
5.048246979713439941e-01 -1.067115887999534607e-01 3.137780725955963135e-01
3.363916873931884766e-01 -1.973555386066436768e-01 -2.292494103312492371e-02
3.574350476264953613e-02 -1.121202781796455383e-01 1.144829839468002319e-01
3.637513816356658936e-01 -1.986522376537322998e-01 6.109718233346939087e-02
5.529172420501708984e-01 -1.604534238576889038e-01 -1.567683368921279907e-01
6.015452742576599121e-02 -1.276456862688064575e-01 -7.940418273210525513e-02
-3.680887632071971893e-03 4.834251403808593750e-01 -1.520149502903223038e-02
-4.617025330662727356e-02 3.378490507602691650e-01 -1.630812883377075195e-02
-3.101228550076484680e-02 4.335515499114990234e-01 3.449026122689247131e-02
5.543801002204418182e-03 4.835365116596221924e-01 2.246968075633049011e-02
3.061752580106258392e-02 4.453394412994384766e-01 3.934010490775108337e-02
3.215286880731582642e-02 4.725062549114227295e-01 -4.166108556091785431e-03
3.342088311910629272e-02 2.462933957576751709e-01 2.366747334599494934e-02
4.775397107005119324e-02 4.148301482200622559e-01 -2.171294763684272766e-02
1.415453106164932251e-02 3.921279609203338623e-01 -5.630848929286003113e-02
-3.711842373013496399e-02 4.361837506294250488e-01 1.139453239738941193e-02
4.009059444069862366e-02 3.134754300117492676e-01 4.951386898756027222e-02
-1.919344998896121979e-02 2.227710187435150146e-01 4.655739292502403259e-03
-1.872986927628517151e-02 2.315894067287445068e-01 -1.087044458836317062e-02
-1.700459606945514679e-02 4.551266431808471680e-01 3.769502043724060059e-02
4.700763523578643799e-02 2.822863459587097168e-01 1.635845378041267395e-02
5.213140696287155151e-02 3.680826723575592041e-01 3.007906675338745117e-02
7.531377952545881271e-03 3.576076328754425049e-01 7.200671732425689697e-02
2.569345990195870399e-03 2.233508527278900146e-01 3.777718916535377502e-02
1.310066506266593933e-02 3.299728333950042725e-01 -5.558787658810615540e-02
2.173353172838687897e-02 4.196836948394775391e-01 5.676005035638809204e-02
-3.091141581535339355e-02 3.642876744270324707e-01 -4.193557053804397583e-02
5.767862778156995773e-03 3.466435372829437256e-01 7.268632203340530396e-02
-4.442882165312767029e-02 2.934145033359527588e-01 3.123985975980758667e-02
4.857729002833366394e-02 4.258448183536529541e-01 -1.161848288029432297e-02
3.049814887344837189e-02 3.445573449134826660e-01 6.226334348320960999e-02
1.118390262126922607e-02 4.104882478713989258e-01 -5.432929471135139465e-02
5.104110762476921082e-02 3.504624664783477783e-01 -2.306037768721580505e-02
1.850872486829757690e-02 2.947797775268554688e-01 -4.699219390749931335e-02
-3.557533398270606995e-02 3.233242630958557129e-01 5.443580821156501770e-02
3.063546027988195419e-04 4.759654402732849121e-01 -2.645125985145568848e-02
-1.518217846751213074e-02 3.790350258350372314e-01 6.678640097379684448e-02
-3.071929514408111572e-02 4.497216641902923584e-01 -9.657622314989566803e-03
-9.938644245266914368e-03 3.613365292549133301e-01 -5.595950409770011902e-02
-1.842503994703292847e-02 2.600390315055847168e-01 -3.147628530859947205e-02
-7.787975482642650604e-03 3.257084190845489502e-01 -5.437272042036056519e-02
4.374508932232856750e-02 4.370496273040771484e-01 2.269963175058364868e-02
2.936899848282337189e-02 3.817788362503051758e-01 6.053605303168296814e-02
-3.921169321984052658e-03 2.695337533950805664e-01 -4.156324267387390137e-02
2.755352482199668884e-02 2.731208801269531250e-01 -3.354210034012794495e-02
-4.330111294984817505e-02 3.396224379539489746e-01 4.275944083929061890e-02
5.611480399966239929e-02 3.734840750694274902e-01 -4.651905037462711334e-04
4.139342904090881348e-02 4.400336146354675293e-01 -2.229851484298706055e-02
8.384708315134048462e-03 2.173800915479660034e-01 -6.274860352277755737e-04
-2.696718554943799973e-03 4.885960221290588379e-01 -1.690677367150783539e-03
5.478572845458984375e-02 3.796450495719909668e-01 -9.660146199166774750e-03
8.355174213647842407e-03 4.182453155517578125e-01 6.154019758105278015e-02
2.541181445121765137e-02 2.648570537567138672e-01 -3.128462284803390503e-02
2.814246155321598053e-02 2.395879924297332764e-01 -7.022639736533164978e-03
-4.564890637993812561e-02 3.953256905078887939e-01 2.024084329605102539e-02
-1.966986060142517090e-02 4.271289110183715820e-01 -4.111244902014732361e-02
-2.325608208775520325e-02 3.860189616680145264e-01 -4.725162684917449951e-02
2.627340331673622131e-02 2.318258285522460938e-01 1.911506615579128265e-02
-3.038625791668891907e-02 2.859476208686828613e-01 -3.142675757408142090e-02
4.037237539887428284e-02 2.672190070152282715e-01 2.805428579449653625e-02
1.033687591552734375e-02 4.289010167121887207e-01 -5.036606639623641968e-02
2.475157752633094788e-02 4.813362956047058105e-01 -6.049861200153827667e-03
-4.942327737808227539e-03 3.708255887031555176e-01 7.082188129425048828e-02
-2.786288410425186157e-02 2.579538524150848389e-01 4.617648199200630188e-02
5.607356503605842590e-02 3.552698493003845215e-01 1.243655756115913391e-02
5.085856094956398010e-02 3.216040432453155518e-01 2.945991978049278259e-02
2.395321056246757507e-02 3.479783535003662109e-01 6.665883958339691162e-02
5.425177514553070068e-02 3.649548888206481934e-01 -1.395995821803808212e-02
3.345607221126556396e-02 3.089602291584014893e-01 5.659583956003189087e-02
-2.491297200322151184e-03 2.246253490447998047e-01 -1.379678677767515182e-02
2.207133360207080841e-02 3.941407799720764160e-01 6.296276301145553589e-02
4.644743725657463074e-02 2.851789593696594238e-01 -7.161783054471015930e-03
-1.528729125857353210e-02 3.667828142642974854e-01 -5.363070592284202576e-02
-4.720431193709373474e-02 2.990157604217529297e-01 2.186577394604682922e-02
-4.974720627069473267e-02 3.225201368331909180e-01 1.823450624942779541e-02
2.249588631093502045e-02 4.773277044296264648e-01 2.084303647279739380e-02
4.592964425683021545e-02 4.305964112281799316e-01 -1.742829009890556335e-02
5.488419532775878906e-02 3.931542634963989258e-01 7.193945813924074173e-03
3.850894793868064880e-02 3.690754175186157227e-01 -4.358405992388725281e-02
5.239964649081230164e-02 3.946675360202789307e-01 2.244105748832225800e-02
-2.344666048884391785e-02 3.605232536792755127e-01 -4.870743677020072937e-02
4.448250867426395416e-03 2.360364347696304321e-01 -2.397504076361656189e-02
-9.221935644745826721e-03 4.264271557331085205e-01 5.708970502018928528e-02
-1.339321956038475037e-03 3.376827538013458252e-01 -5.696899816393852234e-02
1.697152038104832172e-03 3.033990263938903809e-01 7.075823843479156494e-02
5.717729683965444565e-03 4.184553027153015137e-01 -5.311039090156555176e-02
2.037130482494831085e-02 2.236889302730560303e-01 1.606749743223190308e-02
-3.198623284697532654e-02 4.347823560237884521e-01 -2.132439613342285156e-02
3.455226495862007141e-02 2.745587825775146484e-01 4.491631686687469482e-02
-3.861864656209945679e-02 2.892041802406311035e-01 -2.054718509316444397e-02
-3.297988697886466980e-02 4.454591572284698486e-01 1.667188666760921478e-02
-2.769485116004943848e-02 3.932929039001464844e-01 -4.223823174834251404e-02
-2.940412983298301697e-02 3.614206314086914062e-01 5.991102382540702820e-02
2.938338741660118103e-02 2.842836380004882812e-01 5.471206456422805786e-02
-4.129270836710929871e-02 3.466871976852416992e-01 4.627951234579086304e-02
4.909730982035398483e-03 2.722295522689819336e-01 6.406109035015106201e-02
5.187531933188438416e-03 3.386799097061157227e-01 7.282696664333343506e-02
-4.724673926830291748e-02 2.942303419113159180e-01 1.308744587004184723e-02
3.034420870244503021e-02 3.673516809940338135e-01 6.146239489316940308e-02
6.003065500408411026e-03 3.859313130378723145e-01 -5.773087218403816223e-02
9.014181792736053467e-03 4.340579807758331299e-01 5.607071891427040100e-02
4.053846001625061035e-02 2.861172556877136230e-01 4.036934301257133484e-02
-1.222357247024774551e-02 3.416155278682708740e-01 7.102344185113906860e-02
5.072339624166488647e-02 3.595510423183441162e-01 3.446041792631149292e-02
-1.099753286689519882e-02 4.833302497863769531e-01 8.940286934375762939e-04
3.199506551027297974e-02 4.468175470829010010e-01 -3.282083570957183838e-02
2.967472374439239502e-02 2.529195547103881836e-01 -1.870971545577049255e-02
2.213420532643795013e-02 3.034131824970245361e-01 -4.758675396442413330e-02
-3.471120819449424744e-02 4.373795688152313232e-01 -1.166192349046468735e-02
4.002026468515396118e-02 3.216084539890289307e-01 -3.699219971895217896e-02
-3.495074436068534851e-02 2.695603966712951660e-01 4.189267754554748535e-02
3.814139962196350098e-02 4.607599973678588867e-01 -7.226696237921714783e-03
3.973214700818061829e-02 4.527210891246795654e-01 1.777051389217376709e-02
-1.850994676351547241e-02 4.107015728950500488e-01 5.787932127714157104e-02
2.983836829662322998e-02 4.568148255348205566e-01 -2.921390533447265625e-02
-3.366596996784210205e-02 2.446732521057128906e-01 1.928008347749710083e-02
-2.584929205477237701e-02 4.008713662624359131e-01 -4.263754934072494507e-02
-9.173041209578514099e-03 3.325221240520477295e-01 7.184883207082748413e-02
5.200528353452682495e-02 4.117396473884582520e-01 -6.907047703862190247e-03
1.210595201700925827e-02 2.771308124065399170e-01 -4.359624534845352173e-02
-2.249870635569095612e-02 4.220204353332519531e-01 5.096492916345596313e-02
-2.443085983395576477e-02 4.390004873275756836e-01 4.058236256241798401e-02
-2.340110018849372864e-03 2.130256295204162598e-01 1.867316104471683502e-02
-1.886038109660148621e-02 4.573772847652435303e-01 -2.656286209821701050e-02
-3.759050369262695312e-02 4.312604069709777832e-01 -7.532974705100059509e-03
-1.488532684743404388e-02 4.425288438796997070e-01 -3.889204934239387512e-02
5.551749095320701599e-02 3.526394069194793701e-01 -6.657170131802558899e-03
-4.290691390633583069e-02 3.776311874389648438e-01 3.801511228084564209e-02
1.051418296992778778e-02 4.369797408580780029e-01 -4.795747622847557068e-02
-1.368140988051891327e-02 3.393433392047882080e-01 -5.366019159555435181e-02
-4.192959889769554138e-02 3.971728086471557617e-01 -1.841835677623748779e-02
-4.521030932664871216e-02 3.182504773139953613e-01 3.690464049577713013e-02
5.334952473640441895e-02 4.007551670074462891e-01 1.414822787046432495e-02
1.280422043055295944e-02 2.495653331279754639e-01 -3.064203634858131409e-02
5.173058062791824341e-02 4.141246676445007324e-01 1.128647476434707642e-02
4.013759642839431763e-02 3.520376682281494141e-01 5.269523710012435913e-02
5.353512987494468689e-02 3.448470234870910645e-01 -1.463833544403314590e-02
5.453846231102943420e-02 3.852924406528472900e-01 1.665639877319335938e-02
2.015187777578830719e-02 2.247560918331146240e-01 2.257700543850660324e-03
2.147890441119670868e-02 2.544038295745849609e-01 4.967994242906570435e-02
-2.183891832828521729e-02 2.990486323833465576e-01 -4.294143244624137878e-02
2.894221432507038116e-02 4.181691706180572510e-01 -4.580743983387947083e-02
-3.763521835207939148e-02 4.287889301776885986e-01 2.178769931197166443e-02
4.931850731372833252e-02 2.910818159580230713e-01 3.070253413170576096e-03
-3.415339440107345581e-02 3.968282341957092285e-01 -3.369587287306785583e-02
-4.129946604371070862e-02 3.303030431270599365e-01 -2.646632865071296692e-02
5.977203138172626495e-03 4.489563703536987305e-01 -4.378504678606987000e-02
-2.193016465753316879e-03 3.507678806781768799e-01 7.268946617841720581e-02
1.656409911811351776e-02 3.834436237812042236e-01 -5.643049255013465881e-02
2.427150681614875793e-02 3.396526575088500977e-01 6.647005677223205566e-02
2.710541710257530212e-02 4.010504782199859619e-01 5.856146663427352905e-02
2.275132946670055389e-02 3.287121653556823730e-01 6.694141775369644165e-02
5.260659381747245789e-02 4.034839570522308350e-01 -1.039270963519811630e-02
-4.469968378543853760e-02 4.044036865234375000e-01 1.576172746717929840e-02
-3.684442862868309021e-02 4.369239211082458496e-01 -1.108670607209205627e-03
-4.310553520917892456e-02 2.774819731712341309e-01 1.999735832214355469e-05
8.966542780399322510e-03 2.158377468585968018e-01 2.094618231058120728e-02
1.730563491582870483e-02 2.839131951332092285e-01 -4.417167603969573975e-02
2.858409844338893890e-02 4.746812283992767334e-01 1.419489458203315735e-02
-1.768787577748298645e-02 4.709811210632324219e-01 2.031072787940502167e-02
4.227524250745773315e-02 2.910436689853668213e-01 -2.282931655645370483e-02
-4.382626339793205261e-02 3.502001166343688965e-01 -2.264815196394920349e-02
-2.049743384122848511e-02 2.278977334499359131e-01 -3.382182680070400238e-03
-2.838730067014694214e-02 4.559007883071899414e-01 1.649467647075653076e-02
-2.478249371051788330e-02 3.231908380985260010e-01 6.453341245651245117e-02
-8.963972330093383789e-03 4.527702927589416504e-01 4.484816640615463257e-02
4.409142956137657166e-02 4.114311337471008301e-01 -3.066165745258331299e-02
3.536616265773773193e-02 4.457693099975585938e-01 3.309992328286170959e-02
-3.941449336707592010e-03 2.906952500343322754e-01 -4.841420054435729980e-02
-2.076282911002635956e-02 4.177512526512145996e-01 -4.310381412506103516e-02
1.459032576531171799e-02 4.738801419734954834e-01 -2.787170931696891785e-02
2.806689962744712830e-02 2.447334080934524536e-01 -1.355658750981092453e-02
-2.644130028784275055e-03 4.883105158805847168e-01 7.249275222420692444e-03
3.494674339890480042e-02 4.140388667583465576e-01 -4.180144891142845154e-02
-5.253320559859275818e-03 4.429191648960113525e-01 -4.399659112095832825e-02
-4.124372079968452454e-02 3.123787939548492432e-01 -2.324568480253219604e-02
-3.367706388235092163e-02 3.676134943962097168e-01 5.476932972669601440e-02
-4.655621945858001709e-02 3.524263501167297363e-01 3.404971584677696228e-02
5.472729355096817017e-02 3.254718780517578125e-01 5.418813321739435196e-03
3.538547083735466003e-03 4.827724397182464600e-01 -1.998381689190864563e-02
-1.333112083375453949e-02 3.149435520172119141e-01 6.979173421859741211e-02
-1.944239623844623566e-02 3.975331485271453857e-01 6.094508990645408630e-02
-3.000118955969810486e-02 2.865372896194458008e-01 5.476703122258186340e-02
3.753009065985679626e-02 4.312906861305236816e-01 3.837563470005989075e-02
5.211327597498893738e-02 4.149480462074279785e-01 1.624114345759153366e-03
-2.340406738221645355e-02 3.114639520645141602e-01 -4.448951780796051025e-02
4.097248613834381104e-02 2.756174802780151367e-01 -1.571903005242347717e-02
1.651413179934024811e-02 2.198109328746795654e-01 9.628644213080406189e-03
3.281176835298538208e-02 4.556421935558319092e-01 2.954337000846862793e-02
1.527921482920646667e-02 3.724907636642456055e-01 -5.723705515265464783e-02
2.634210325777530670e-02 4.670291841030120850e-01 2.807272970676422119e-02
-2.970400732010602951e-03 2.742166817188262939e-01 6.495845317840576172e-02
-3.402138128876686096e-02 4.368275105953216553e-01 2.488798648118972778e-02
2.066932804882526398e-02 4.736387133598327637e-01 2.728204056620597839e-02
-4.807489365339279175e-02 3.031883537769317627e-01 3.923025913536548615e-03
-1.625948585569858551e-03 2.156414687633514404e-01 -6.394423544406890869e-04
5.006192624568939209e-02 3.773914575576782227e-01 3.415451943874359131e-02
1.015833951532840729e-02 3.534382581710815430e-01 -5.800586566329002380e-02
-2.683652006089687347e-02 2.648586034774780273e-01 -2.638924494385719299e-02
-2.019333280622959137e-02 3.120507001876831055e-01 6.652307510375976562e-02
-4.230739176273345947e-02 2.706551849842071533e-01 1.906673982739448547e-02
-3.426066599786281586e-03 2.341507971286773682e-01 4.731309041380882263e-02
-4.666588082909584045e-02 3.076657652854919434e-01 -7.246050983667373657e-03
-4.190157353878021240e-02 4.200752973556518555e-01 5.877134390175342560e-03
4.702752828598022461e-02 4.036869406700134277e-01 3.389447554945945740e-02
-1.135171297937631607e-02 4.602269828319549561e-01 -3.199341893196105957e-02
1.353652402758598328e-02 4.802451729774475098e-01 2.475243806838989258e-02
-4.707171395421028137e-02 3.930975198745727539e-01 7.981499657034873962e-03
5.069246888160705566e-02 4.035276472568511963e-01 2.434956654906272888e-02
-4.004192538559436798e-03 4.060837030410766602e-01 6.465116888284683228e-02
1.293293200433254242e-02 3.317667543888092041e-01 7.119172066450119019e-02
4.557763785123825073e-02 2.784322798252105713e-01 -2.516400068998336792e-03
3.948137909173965454e-02 3.493814170360565186e-01 -4.183047637343406677e-02
-4.047953337430953979e-02 2.837293744087219238e-01 3.766811266541481018e-02
-3.570682927966117859e-02 2.785735726356506348e-01 4.478329047560691833e-02
-2.654074318706989288e-02 4.566528797149658203e-01 -1.324260514229536057e-02
-1.694294437766075134e-02 2.200708985328674316e-01 2.045828849077224731e-02
3.247711807489395142e-02 2.635477185249328613e-01 -2.265188843011856079e-02
-3.217344637960195541e-03 4.557744562625885010e-01 -3.897966817021369934e-02
-4.810773208737373352e-02 3.672745227813720703e-01 -7.693997584283351898e-03
-3.020542860031127930e-02 2.505377531051635742e-01 -1.215235982090234756e-02
2.616802230477333069e-02 3.134606182575225830e-01 6.343087553977966309e-02
4.118002206087112427e-02 2.628307938575744629e-01 8.100531995296478271e-04
1.353953685611486435e-02 2.768093943595886230e-01 6.299211829900741577e-02
-5.006796121597290039e-02 3.224608600139617920e-01 8.029748685657978058e-03
4.988522082567214966e-02 3.930254280567169189e-01 -2.368870377540588379e-02
