2.004414498805999756e-01 -2.591952681541442871e-01 -5.016043186187744141e-01
2.529476284980773926e-01 -3.668296635150909424e-01 -6.031984090805053711e-01
-7.609320431947708130e-02 -3.240142464637756348e-01 -7.440396547317504883e-01
-8.348362892866134644e-02 -2.377155423164367676e-01 -4.495898187160491943e-01
1.971543580293655396e-01 -3.169563114643096924e-01 -7.200101613998413086e-01
1.921974867582321167e-01 -2.223576307296752930e-01 -6.876114010810852051e-01
9.370842576026916504e-02 -4.455486536026000977e-01 -6.845066547393798828e-01
5.130919814109802246e-02 -1.415973901748657227e-01 -6.134904623031616211e-01
1.555555313825607300e-01 -1.946043968200683594e-01 -6.796563267707824707e-01
5.418350547552108765e-02 -2.767257988452911377e-01 -7.497086524963378906e-01
1.924821436405181885e-01 -2.602005004882812500e-01 -7.113119363784790039e-01
-7.966635748744010925e-03 -2.794760763645172119e-01 -7.490081787109375000e-01
-1.703615188598632812e-01 -1.989355385303497314e-01 -5.113092660903930664e-01
6.784791499376296997e-02 -2.271835207939147949e-01 -4.571768045425415039e-01
-1.268259286880493164e-01 -1.609640866518020630e-01 -5.681200623512268066e-01
1.939375698566436768e-01 -1.851236820220947266e-01 -6.304664015769958496e-01
1.395176947116851807e-01 -2.386903762817382812e-01 -4.748971462249755859e-01
2.101998478174209595e-01 -3.274303674697875977e-01 -7.116538882255554199e-01
-9.102126210927963257e-02 -2.901067733764648438e-01 -7.365537881851196289e-01
-2.358146309852600098e-01 -3.916457593441009521e-01 -5.597344636917114258e-01
1.094835624098777771e-01 -4.535382091999053955e-01 -6.568849682807922363e-01
-2.321642488241195679e-01 -3.050474822521209717e-01 -4.994937777519226074e-01
1.335774213075637817e-01 -1.723143160343170166e-01 -6.584160923957824707e-01
1.145951300859451294e-01 -3.112038969993591309e-01 -4.596309661865234375e-01
7.566477358341217041e-02 -4.659613072872161865e-01 -6.383556723594665527e-01
-1.421986222267150879e-01 -2.701328992843627930e-01 -4.547109603881835938e-01
2.310488075017929077e-01 -3.216065764427185059e-01 -6.973261833190917969e-01
-7.012076675891876221e-02 -1.547756642103195190e-01 -6.282680034637451172e-01
1.466527432203292847e-01 -4.124178290367126465e-01 -5.287865400314331055e-01
1.997594088315963745e-01 -3.534665107727050781e-01 -7.116025686264038086e-01
-3.340133279561996460e-02 -3.277543187141418457e-01 -7.518385052680969238e-01
-1.281699240207672119e-01 -3.709620833396911621e-01 -4.672850072383880615e-01
-1.318321824073791504e-01 -2.663454711437225342e-01 -7.157439589500427246e-01
9.244529902935028076e-02 -3.023388981819152832e-01 -4.521434903144836426e-01
-2.641067802906036377e-01 -2.927970290184020996e-01 -5.454348325729370117e-01
-6.035888195037841797e-02 -4.139320850372314453e-01 -4.845426976680755615e-01
6.777583062648773193e-02 -1.995810270309448242e-01 -7.082036137580871582e-01
1.196441873908042908e-01 -2.744222879409790039e-01 -7.410081624984741211e-01
-1.285690814256668091e-01 -1.741787493228912354e-01 -6.314811706542968750e-01
2.692863903939723969e-02 -1.407173275947570801e-01 -6.140806674957275391e-01
-6.529076397418975830e-02 -2.277325093746185303e-01 -4.509781599044799805e-01
1.669985204935073853e-01 -3.221233189105987549e-01 -7.332947254180908203e-01
-1.168052107095718384e-01 -2.957305610179901123e-01 -4.459425210952758789e-01
-1.283376663923263550e-02 -3.198564052581787109e-01 -7.541325092315673828e-01
-1.970774084329605103e-01 -3.966151475906372070e-01 -5.174522995948791504e-01
-6.709303706884384155e-02 -4.710618853569030762e-01 -6.281597018241882324e-01
-1.634758114814758301e-01 -2.171110361814498901e-01 -4.869681894779205322e-01
-2.740248851478099823e-02 -4.292772114276885986e-01 -4.978988170623779297e-01
1.236930489540100098e-01 -4.539267122745513916e-01 -6.348947882652282715e-01
-6.520733982324600220e-02 -2.938530743122100830e-01 -7.435568571090698242e-01
-4.179432243108749390e-02 -3.883792161941528320e-01 -7.383434772491455078e-01
-1.932329833507537842e-01 -2.115553021430969238e-01 -6.339640617370605469e-01
-1.382843703031539917e-01 -2.504007816314697266e-01 -7.057368755340576172e-01
-2.614988386631011963e-01 -3.287005424499511719e-01 -6.240113973617553711e-01
2.735947072505950928e-01 -2.908790409564971924e-01 -6.357863545417785645e-01
-1.034492328763008118e-01 -2.487085908651351929e-01 -4.496641159057617188e-01
-1.009103357791900635e-01 -1.993955969810485840e-01 -4.750378727912902832e-01
2.570194303989410400e-01 -3.387388885021209717e-01 -6.617265343666076660e-01
-3.486986830830574036e-02 -1.522274762392044067e-01 -5.198039412498474121e-01
-9.422257542610168457e-02 -1.688490062952041626e-01 -5.082587599754333496e-01
-9.500192478299140930e-03 -2.034865468740463257e-01 -7.106235623359680176e-01
8.009061217308044434e-02 -4.146429896354675293e-01 -5.003951787948608398e-01
7.854826003313064575e-02 -3.790484666824340820e-01 -4.731649756431579590e-01
-1.482113543897867203e-02 -2.217316180467605591e-01 -4.507172703742980957e-01
-1.096632555127143860e-01 -4.244732856750488281e-01 -6.977772712707519531e-01
-2.065174430608749390e-01 -2.567764818668365479e-01 -4.899102747440338135e-01
1.518597602844238281e-01 -3.000701367855072021e-01 -7.377046346664428711e-01
1.908329874277114868e-01 -2.422269582748413086e-01 -5.007161498069763184e-01
-1.152982190251350403e-01 -4.537625908851623535e-01 -5.542013645172119141e-01
-1.493350118398666382e-01 -3.659900724887847900e-01 -7.141073346138000488e-01
-1.310771703720092773e-01 -4.448953270912170410e-01 -5.434840917587280273e-01
4.621603339910507202e-02 -1.393541395664215088e-01 -5.632733106613159180e-01
-4.718053154647350311e-03 -3.420948386192321777e-01 -4.447226524353027344e-01
9.029647707939147949e-02 -1.572114676237106323e-01 -5.266590714454650879e-01
-6.989900767803192139e-02 -4.569504857063293457e-01 -6.706437468528747559e-01
1.291271895170211792e-01 -3.303670585155487061e-01 -7.445015311241149902e-01
7.596511393785476685e-02 -3.718610703945159912e-01 -7.460321187973022461e-01
-1.224898397922515869e-01 -4.306956827640533447e-01 -6.854534149169921875e-01
-1.563433259725570679e-01 -4.400191903114318848e-01 -5.524533390998840332e-01
-2.520338259637355804e-02 -2.912307381629943848e-01 -4.364734590053558350e-01
3.465500473976135254e-02 -2.869588136672973633e-01 -7.525265216827392578e-01
-1.729232221841812134e-01 -3.225848674774169922e-01 -7.083097100257873535e-01
1.719059888273477554e-03 -3.033585250377655029e-01 -4.378472566604614258e-01
1.513627469539642334e-01 -2.401303648948669434e-01 -7.187354564666748047e-01
-1.297364830970764160e-01 -4.528298974037170410e-01 -6.417710185050964355e-01
-1.582136452198028564e-01 -3.373749852180480957e-01 -4.632921814918518066e-01
2.753472328186035156e-01 -3.087519705295562744e-01 -6.285364627838134766e-01
1.851893067359924316e-01 -4.231048524379730225e-01 -5.878213644027709961e-01
4.693579673767089844e-02 -4.723553061485290527e-01 -6.117413043975830078e-01
2.581278793513774872e-02 -3.655104041099548340e-01 -4.561255872249603271e-01
2.490774095058441162e-01 -2.270731627941131592e-01 -5.870199203491210938e-01
9.621125459671020508e-02 -1.493900716304779053e-01 -5.506914854049682617e-01
-1.788231432437896729e-01 -3.992775082588195801e-01 -5.075703263282775879e-01
2.389271557331085205e-01 -2.223104238510131836e-01 -6.383162736892700195e-01
-4.676645994186401367e-02 -2.312887907028198242e-01 -4.477715492248535156e-01
-2.186656445264816284e-01 -2.125391960144042969e-01 -5.784038901329040527e-01
2.459717392921447754e-01 -2.667627632617950439e-01 -6.741081476211547852e-01
-2.867451496422290802e-02 -4.283807873725891113e-01 -7.155732512474060059e-01
-1.490233540534973145e-01 -3.947185873985290527e-01 -7.018100619316101074e-01
-4.920848831534385681e-02 -3.585308492183685303e-01 -4.501382410526275635e-01
-1.206523030996322632e-01 -2.260427325963973999e-01 -4.631802439689636230e-01
2.281082272529602051e-01 -2.469410300254821777e-01 -6.799476742744445801e-01
1.646924167871475220e-01 -4.173830449581146240e-01 -5.492061972618103027e-01
-9.939526766538619995e-02 -2.843727767467498779e-01 -4.427832067012786865e-01
9.946679323911666870e-02 -2.338146418333053589e-01 -7.280815243721008301e-01
-2.516181468963623047e-01 -3.591503798961639404e-01 -6.287603378295898438e-01
-1.014470830559730530e-01 -3.257616460323333740e-01 -7.373711466789245605e-01
-7.346363365650177002e-02 -1.950437724590301514e-01 -4.719377458095550537e-01
5.694363266229629517e-02 -2.695014178752899170e-01 -4.447009563446044922e-01
1.539887487888336182e-01 -3.824576735496520996e-01 -5.047305822372436523e-01
-2.615414857864379883e-01 -2.781935334205627441e-01 -6.054154634475708008e-01
2.287744730710983276e-01 -2.071576118469238281e-01 -6.236293315887451172e-01
-2.685350477695465088e-01 -3.405066132545471191e-01 -5.931735634803771973e-01
5.697776004672050476e-02 -3.074694573879241943e-01 -7.548084855079650879e-01
-1.020601615309715271e-01 -3.338755667209625244e-01 -4.479347467422485352e-01
8.166583627462387085e-02 -3.965448141098022461e-01 -4.855532050132751465e-01
-9.734727442264556885e-02 -1.528912782669067383e-01 -5.937884449958801270e-01
-1.890684217214584351e-01 -4.329026341438293457e-01 -5.838100910186767578e-01
8.784118294715881348e-02 -4.607325494289398193e-01 -6.512001752853393555e-01
-2.096942812204360962e-01 -3.122445344924926758e-01 -6.842067837715148926e-01
2.030519992113113403e-01 -3.691926896572113037e-01 -7.019783854484558105e-01
-1.852373592555522919e-02 -1.385367810726165771e-01 -5.695621371269226074e-01
-2.481211870908737183e-01 -2.560054063796997070e-01 -6.118777990341186523e-01
6.573824584484100342e-02 -4.518370032310485840e-01 -6.837898492813110352e-01
-1.677331179380416870e-01 -2.256017029285430908e-01 -6.726346015930175781e-01
-2.740044891834259033e-02 -2.178573310375213623e-01 -7.189704179763793945e-01
3.404793143272399902e-02 -3.880078196525573730e-01 -4.692604541778564453e-01
1.055603325366973877e-01 -2.280511409044265747e-01 -4.666085243225097656e-01
-3.482647985219955444e-02 -2.765879333019256592e-01 -7.450815439224243164e-01
-1.060279011726379395e-01 -1.618110835552215576e-01 -5.301757454872131348e-01
-1.711499691009521484e-01 -3.937550485134124756e-01 -6.896992325782775879e-01
-8.221189677715301514e-02 -1.598090827465057373e-01 -5.198706388473510742e-01
-1.222644373774528503e-01 -1.641755551099777222e-01 -5.388854742050170898e-01
-5.393412336707115173e-02 -4.267109036445617676e-01 -4.962475597858428955e-01
1.661530695855617523e-02 -4.460026025772094727e-01 -6.996495723724365234e-01
-1.360411196947097778e-01 -3.913954496383666992e-01 -4.820197522640228271e-01
1.919809281826019287e-01 -3.599854111671447754e-01 -5.130706429481506348e-01
-1.877660155296325684e-01 -3.747969865798950195e-01 -6.891472935676574707e-01
-2.908683754503726959e-02 -3.607593476772308350e-01 -4.506082534790039062e-01
2.738683223724365234e-01 -2.759142518043518066e-01 -5.988068580627441406e-01
1.720196157693862915e-01 -4.242191910743713379e-01 -5.697913765907287598e-01
-1.528214812278747559e-01 -1.930290311574935913e-01 -5.056855678558349609e-01
2.210065722465515137e-02 -2.461488544940948486e-01 -7.392022609710693359e-01
1.732202470302581787e-01 -4.327985644340515137e-01 -6.014137864112854004e-01
-1.177701652050018311e-01 -1.717754453420639038e-01 -5.160143971443176270e-01
-1.593274027109146118e-01 -2.109296023845672607e-01 -6.639291048049926758e-01
3.144145756959915161e-02 -4.730594754219055176e-01 -6.321983933448791504e-01
-5.556384846568107605e-02 -4.045569002628326416e-01 -7.280257940292358398e-01
7.478076033294200897e-03 -4.391998052597045898e-01 -5.114243626594543457e-01
8.914416655898094177e-03 -2.250406742095947266e-01 -7.274841070175170898e-01
3.091108286753296852e-03 -1.521678119897842407e-01 -6.464664936065673828e-01
-5.006661638617515564e-02 -4.412628412246704102e-01 -6.991503238677978516e-01
1.052394211292266846e-01 -4.590507149696350098e-01 -6.381953358650207520e-01
-3.620894253253936768e-02 -1.814593225717544556e-01 -4.786113500595092773e-01
-2.291292548179626465e-01 -4.040678739547729492e-01 -5.822322368621826172e-01
-7.705827802419662476e-02 -3.683299124240875244e-01 -4.565149843692779541e-01
2.462149411439895630e-02 -2.139593809843063354e-01 -4.564819931983947754e-01
-7.754642516374588013e-02 -4.449292421340942383e-01 -6.870851516723632812e-01
-2.458361387252807617e-01 -3.748620152473449707e-01 -5.506452322006225586e-01
-5.104790441691875458e-03 -1.565643548965454102e-01 -5.082527399063110352e-01
-4.992685839533805847e-02 -1.616124659776687622e-01 -6.524704694747924805e-01
-1.525436788797378540e-01 -1.728871017694473267e-01 -5.939857363700866699e-01
-2.818755432963371277e-02 -4.083741307258605957e-01 -7.301399707794189453e-01
6.919580698013305664e-02 -4.011620879173278809e-01 -7.338320612907409668e-01
-2.104761004447937012e-01 -2.381272614002227783e-01 -6.480985879898071289e-01
9.784109145402908325e-02 -1.477491855621337891e-01 -6.146780252456665039e-01
-2.433620840311050415e-01 -3.858903050422668457e-01 -6.104452610015869141e-01
-2.080024480819702148e-01 -2.150882780551910400e-01 -6.194803118705749512e-01
-2.438005954027175903e-01 -3.301573991775512695e-01 -5.146676898002624512e-01
1.611149758100509644e-01 -1.806074231863021851e-01 -5.320482850074768066e-01
-3.596851602196693420e-02 -1.437572091817855835e-01 -5.448184013366699219e-01
8.569617569446563721e-02 -1.712413430213928223e-01 -5.027819275856018066e-01
1.586758345365524292e-01 -1.632280051708221436e-01 -6.037036180496215820e-01
1.157491430640220642e-01 -2.250541746616363525e-01 -7.196638584136962891e-01
5.525381118059158325e-02 -1.998392194509506226e-01 -4.690453708171844482e-01
5.007391050457954407e-02 -2.251874506473541260e-01 -7.280705571174621582e-01
-2.151455171406269073e-02 -4.680657386779785156e-01 -6.583485603332519531e-01
1.297631412744522095e-01 -4.370416998863220215e-01 -6.796814799308776855e-01
1.874624490737915039e-01 -2.042381167411804199e-01 -5.239415764808654785e-01
-1.737664341926574707e-01 -1.887430548667907715e-01 -6.132774949073791504e-01
9.368730336427688599e-02 -3.296210765838623047e-01 -4.570716023445129395e-01
1.342187169939279556e-03 -1.962671875953674316e-01 -4.654955565929412842e-01
1.996073424816131592e-01 -3.955316543579101562e-01 -5.518194437026977539e-01
-2.417865097522735596e-01 -2.847966849803924561e-01 -6.463006734848022461e-01
1.972680389881134033e-01 -2.964288890361785889e-01 -7.188943028450012207e-01
-1.351204216480255127e-01 -4.200112223625183105e-01 -5.076098442077636719e-01
2.512026429176330566e-01 -3.621134757995605469e-01 -6.496286392211914062e-01
1.362321376800537109e-01 -1.548646092414855957e-01 -5.836174488067626953e-01
-1.317537724971771240e-01 -3.415126502513885498e-01 -4.563866853713989258e-01
-1.484440267086029053e-01 -4.329098463058471680e-01 -5.319936275482177734e-01
-2.677072882652282715e-01 -3.322977721691131592e-01 -5.580715537071228027e-01
-1.937289983034133911e-01 -4.073216021060943604e-01 -6.602558493614196777e-01
2.093069404363632202e-01 -3.809828758239746094e-01 -5.446051955223083496e-01
1.340709030628204346e-01 -3.801591694355010986e-01 -4.932720065116882324e-01
7.231804728507995605e-02 -1.613410115242004395e-01 -6.608809828758239746e-01
1.926928162574768066e-01 -2.060965299606323242e-01 -6.702558398246765137e-01
-4.487241059541702271e-02 -2.871947586536407471e-01 -4.368929862976074219e-01
1.458230763673782349e-01 -3.270918726921081543e-01 -4.744110703468322754e-01
-1.718003302812576294e-01 -1.866426318883895874e-01 -5.371329784393310547e-01
-2.075865417718887329e-01 -4.048930108547210693e-01 -6.475831866264343262e-01
8.558276295661926270e-02 -4.533341526985168457e-01 -5.583156347274780273e-01
5.867778509855270386e-02 -1.509579718112945557e-01 -5.272080898284912109e-01
-1.345848888158798218e-01 -4.560519456863403320e-01 -5.836058259010314941e-01
-1.177444588392972946e-02 -3.802014589309692383e-01 -4.602375924587249756e-01
-1.357407867908477783e-01 -1.935478150844573975e-01 -6.588611006736755371e-01
3.922338597476482391e-03 -1.489771306514739990e-01 -5.229225158691406250e-01
-1.073943376541137695e-01 -2.467866390943527222e-01 -7.161814570426940918e-01
6.693600676953792572e-03 -1.376912593841552734e-01 -5.663898587226867676e-01
-2.721458077430725098e-01 -3.189047873020172119e-01 -5.859224796295166016e-01
-2.218770384788513184e-01 -2.438097894191741943e-01 -5.116556882858276367e-01
-1.310970932245254517e-01 -2.469966709613800049e-01 -4.572763442993164062e-01
1.159588396549224854e-01 -2.108824700117111206e-01 -4.787662029266357422e-01
-3.169276192784309387e-02 -1.606175601482391357e-01 -5.037521123886108398e-01
-1.023046895861625671e-01 -1.529920101165771484e-01 -5.741220712661743164e-01
2.695898115634918213e-01 -2.824335396289825439e-01 -5.773069262504577637e-01
-2.589915096759796143e-01 -3.663079440593719482e-01 -5.817174315452575684e-01
2.102962732315063477e-01 -2.097564041614532471e-01 -5.406366586685180664e-01
-4.309233650565147400e-02 -3.077532052993774414e-01 -7.495837807655334473e-01
-9.752502664923667908e-03 -2.248588502407073975e-01 -7.258020043373107910e-01
2.257664650678634644e-01 -3.933267891407012939e-01 -5.890881419181823730e-01
-3.368449211120605469e-02 -1.438371986150741577e-01 -6.129179000854492188e-01
-1.048108413815498352e-01 -1.560808420181274414e-01 -5.496699810028076172e-01
1.294373720884323120e-01 -3.992919325828552246e-01 -5.058358907699584961e-01
-9.703453630208969116e-02 -2.272956073284149170e-01 -4.564743041992187500e-01
1.164240166544914246e-01 -3.811131119728088379e-01 -7.348563671112060547e-01
-2.300412356853485107e-01 -2.495341897010803223e-01 -6.359800100326538086e-01
1.697612106800079346e-01 -3.465828597545623779e-01 -7.288578748703002930e-01
7.816818356513977051e-02 -4.671381413936614990e-01 -6.184766292572021484e-01
2.738692797720432281e-02 -3.992885947227478027e-01 -7.380378246307373047e-01
1.810025870800018311e-01 -3.760721087455749512e-01 -7.120586633682250977e-01
-1.842411309480667114e-01 -2.313699722290039062e-01 -6.657035946846008301e-01
-8.143051713705062866e-02 -1.737545281648635864e-01 -4.960424304008483887e-01
5.560636147856712341e-02 -1.684783399105072021e-01 -6.746787428855895996e-01
1.501511633396148682e-01 -1.889160871505737305e-01 -5.129684209823608398e-01
-1.407763510942459106e-01 -4.117918610572814941e-01 -6.942116022109985352e-01
5.357820540666580200e-02 -4.458333849906921387e-01 -5.302286744117736816e-01
2.037517875432968140e-01 -4.031214118003845215e-01 -5.691548585891723633e-01
-1.834997832775115967e-01 -3.017587959766387939e-01 -7.003408670425415039e-01
-1.812984198331832886e-01 -3.610959351062774658e-01 -4.818511307239532471e-01
7.214505225419998169e-02 -3.502435684204101562e-01 -4.580583572387695312e-01
9.962110966444015503e-02 -4.586845636367797852e-01 -5.865674018859863281e-01
-2.008931338787078857e-02 -1.387571692466735840e-01 -5.891311764717102051e-01
1.717588007450103760e-01 -3.927737772464752197e-01 -7.061622142791748047e-01
-1.078054457902908325e-01 -4.274618625640869141e-01 -5.067685842514038086e-01
-8.501313626766204834e-02 -2.150786966085433960e-01 -7.035167217254638672e-01
-1.099552214145660400e-01 -3.644965291023254395e-01 -7.299789190292358398e-01
-1.204777806997299194e-01 -1.886431276798248291e-01 -4.926342070102691650e-01
1.689972132444381714e-01 -1.736932247877120972e-01 -6.329425573348999023e-01
-1.206506192684173584e-01 -1.642930209636688232e-01 -6.129204034805297852e-01
-2.315856069326400757e-01 -3.103093802928924561e-01 -6.649731993675231934e-01
1.784342080354690552e-01 -2.957779169082641602e-01 -7.275620698928833008e-01
8.026653528213500977e-02 -4.184224009513854980e-01 -7.199943065643310547e-01
2.105555236339569092e-01 -2.766075432300567627e-01 -7.071684002876281738e-01
9.376621246337890625e-02 -3.346123099327087402e-01 -7.511273026466369629e-01
-1.373672783374786377e-01 -4.565105736255645752e-01 -6.021341085433959961e-01
-8.307282626628875732e-02 -3.274717926979064941e-01 -4.436928629875183105e-01
-5.352634191513061523e-02 -1.743363142013549805e-01 -4.885113239288330078e-01
1.571105569601058960e-01 -1.626691520214080811e-01 -5.797799229621887207e-01
1.179454326629638672e-01 -1.526307761669158936e-01 -5.597173571586608887e-01
-2.315930835902690887e-02 -2.579681873321533203e-01 -4.394102692604064941e-01
-7.068790495395660400e-02 -2.605230212211608887e-01 -7.329618930816650391e-01
-9.591546840965747833e-03 -4.157262146472930908e-01 -7.272281646728515625e-01
-2.124727219343185425e-01 -3.537348508834838867e-01 -4.965867400169372559e-01
-2.171627134084701538e-01 -2.150727808475494385e-01 -5.474170446395874023e-01
5.740622803568840027e-02 -3.730488121509552002e-01 -7.475429773330688477e-01
1.551886200904846191e-01 -4.427879452705383301e-01 -6.157469749450683594e-01
2.044440619647502899e-02 -1.596941351890563965e-01 -6.621432304382324219e-01
-2.036615014076232910e-01 -3.287233710289001465e-01 -4.820557236671447754e-01
2.185049504041671753e-01 -3.558854460716247559e-01 -6.972656250000000000e-01
2.629326581954956055e-01 -3.406733274459838867e-01 -5.844801664352416992e-01
-5.975011363625526428e-02 -4.445097148418426514e-01 -5.188178420066833496e-01
-3.569829836487770081e-02 -4.754059910774230957e-01 -6.133300065994262695e-01
-1.762770861387252808e-01 -3.015937805175781250e-01 -4.648866057395935059e-01
-1.006549671292304993e-01 -4.650563001632690430e-01 -5.847132205963134766e-01
-2.655771374702453613e-01 -3.501383066177368164e-01 -5.731298923492431641e-01
8.477897942066192627e-02 -2.360713928937911987e-01 -4.577780663967132568e-01
-2.647171355783939362e-02 -1.481826156377792358e-01 -6.304930448532104492e-01
1.299305912107229233e-02 -2.048465907573699951e-01 -7.136290669441223145e-01
-1.124746426939964294e-01 -1.810982674360275269e-01 -6.555423736572265625e-01
1.032117381691932678e-01 -1.543227136135101318e-01 -6.348885893821716309e-01
-1.786746680736541748e-01 -4.154377877712249756e-01 -5.263155698776245117e-01
2.198801487684249878e-01 -2.500058412551879883e-01 -5.199308991432189941e-01
-4.313936084508895874e-02 -1.410678029060363770e-01 -5.689546465873718262e-01
-4.231387004256248474e-02 -2.465729117393493652e-01 -7.328761816024780273e-01
-1.950094401836395264e-01 -3.257549703121185303e-01 -6.951854228973388672e-01
-8.558484166860580444e-02 -4.683702588081359863e-01 -6.252617835998535156e-01
-2.277695387601852417e-01 -2.306561768054962158e-01 -5.356426239013671875e-01
1.093374863266944885e-01 -2.586337327957153320e-01 -7.378814220428466797e-01
1.819456741213798523e-02 -4.561104476451873779e-01 -5.390062332153320312e-01
-2.191795036196708679e-02 -1.984577924013137817e-01 -4.638663530349731445e-01
7.106015086174011230e-02 -3.282581269741058350e-01 -7.542536258697509766e-01
-6.108374893665313721e-02 -4.715693295001983643e-01 -5.866165161132812500e-01
-1.757883578538894653e-01 -3.587966263294219971e-01 -7.024105191230773926e-01
2.587772309780120850e-01 -2.804426848888397217e-01 -6.638377904891967773e-01
-7.719303667545318604e-02 -2.994444370269775391e-01 -4.395344853401184082e-01
-2.386927008628845215e-01 -3.516440093517303467e-01 -6.527505517005920410e-01
-3.301657037809491158e-03 -1.868743598461151123e-01 -6.960410475730895996e-01
4.209099803119897842e-03 -4.744789898395538330e-01 -6.331964731216430664e-01
-1.322266012430191040e-01 -4.519855380058288574e-01 -5.625538825988769531e-01
-1.612846702337265015e-01 -2.462597191333770752e-01 -4.686527848243713379e-01
-5.112369358539581299e-02 -3.914865255355834961e-01 -4.670649766921997070e-01
-5.106095224618911743e-02 -2.277845144271850586e-01 -7.211203575134277344e-01
7.088255137205123901e-02 -4.402697384357452393e-01 -6.996548771858215332e-01
5.677038431167602539e-02 -4.221927821636199951e-01 -5.012148022651672363e-01
-4.103332757949829102e-03 -4.742474257946014404e-01 -5.889763832092285156e-01
1.359034627676010132e-01 -2.880498468875885010e-01 -7.404038906097412109e-01
1.340560913085937500e-01 -2.475833594799041748e-01 -7.277152538299560547e-01
-2.221783101558685303e-01 -4.015410542488098145e-01 -6.302366852760314941e-01
-8.407884091138839722e-02 -3.910663723945617676e-01 -4.700069725513458252e-01
-5.633573606610298157e-02 -1.623936146497726440e-01 -5.056567192077636719e-01
-1.609678864479064941e-01 -1.776632070541381836e-01 -5.490742921829223633e-01
-2.408284842967987061e-01 -2.416395694017410278e-01 -5.448866486549377441e-01
1.609685271978378296e-01 -2.568414211273193359e-01 -7.234771251678466797e-01
-2.054608017206192017e-01 -2.057117074728012085e-01 -6.006708741188049316e-01
-2.137449234724044800e-01 -3.047325015068054199e-01 -4.852664470672607422e-01
2.244855016469955444e-01 -2.958079874515533447e-01 -7.021319866180419922e-01
-3.599895164370536804e-02 -3.523442745208740234e-01 -7.493470907211303711e-01
-2.480863779783248901e-01 -2.975184023380279541e-01 -5.165666341781616211e-01
-8.683117479085922241e-02 -2.534022331237792969e-01 -7.258186340332031250e-01
1.436191350221633911e-01 -4.463236927986145020e-01 -6.373769640922546387e-01
1.834535449743270874e-01 -4.183688163757324219e-01 -6.652860045433044434e-01
9.496854990720748901e-02 -3.053430020809173584e-01 -7.508850097656250000e-01
-5.015598982572555542e-02 -1.425376683473587036e-01 -5.915263891220092773e-01
-1.798125654458999634e-01 -2.119750976562500000e-01 -6.486439108848571777e-01
-2.760034799575805664e-02 -1.732306033372879028e-01 -6.764267683029174805e-01
2.620113193988800049e-01 -3.055224716663360596e-01 -6.637355685234069824e-01
1.104176566004753113e-01 -4.247013330459594727e-01 -5.234106779098510742e-01
-1.846795529127120972e-01 -2.768984735012054443e-01 -4.706323146820068359e-01
2.297282963991165161e-01 -2.081254720687866211e-01 -5.777394175529479980e-01
-2.348787486553192139e-01 -2.769424021244049072e-01 -5.065011382102966309e-01
1.696027070283889771e-01 -3.265959620475769043e-01 -4.854418933391571045e-01
-1.295203715562820435e-01 -3.607800602912902832e-01 -7.239122986793518066e-01
-1.911693364381790161e-01 -4.198042750358581543e-01 -5.451025366783142090e-01
-2.181010395288467407e-01 -3.850422501564025879e-01 -6.564440727233886719e-01
-3.840259974822402000e-03 -2.496715188026428223e-01 -4.415260553359985352e-01
-2.549214363098144531e-01 -2.584735155105590820e-01 -5.559332370758056641e-01
-1.948200613260269165e-01 -3.924153149127960205e-01 -6.732550859451293945e-01
2.474723383784294128e-02 -4.691964983940124512e-01 -6.536002159118652344e-01
-8.190444856882095337e-02 -4.404204785823822021e-01 -5.168586969375610352e-01
2.140230238437652588e-01 -3.071131110191345215e-01 -5.089884400367736816e-01
9.053826332092285156e-02 -1.721988469362258911e-01 -6.741868257522583008e-01
-1.953788399696350098e-01 -2.378470301628112793e-01 -4.922999441623687744e-01
1.920881718397140503e-01 -4.214694201946258545e-01 -6.401081085205078125e-01
-2.741997363045811653e-03 -4.223147928714752197e-01 -4.917276501655578613e-01
3.044086880981922150e-02 -4.738017916679382324e-01 -6.030433773994445801e-01
1.969746686518192291e-02 -4.167937934398651123e-01 -7.274085283279418945e-01
-1.611472964286804199e-01 -4.160040616989135742e-01 -5.154812932014465332e-01
-1.922363787889480591e-01 -1.947338134050369263e-01 -5.525689125061035156e-01
-1.543144881725311279e-01 -4.374885261058807373e-01 -6.537656188011169434e-01
-6.423518061637878418e-04 -2.683392763137817383e-01 -4.383641481399536133e-01
-4.239528998732566833e-02 -1.984071731567382812e-01 -4.650655388832092285e-01
1.810064017772674561e-01 -3.865747451782226562e-01 -5.252925157546997070e-01
1.469541899859905243e-02 -1.663954854011535645e-01 -4.944037199020385742e-01
1.118083521723747253e-01 -3.551822602748870850e-01 -4.711553454399108887e-01
-2.709352672100067139e-01 -2.985502183437347412e-01 -5.719017982482910156e-01
-2.439582049846649170e-01 -3.888341188430786133e-01 -5.890989899635314941e-01
-1.825765669345855713e-01 -2.771976888179779053e-01 -6.942881941795349121e-01
-1.596473529934883118e-02 -1.620647907257080078e-01 -6.621535420417785645e-01
6.951428204774856567e-02 -4.349585771560668945e-01 -5.197498202323913574e-01
-4.200596362352371216e-02 -4.090199768543243408e-01 -4.792782366275787354e-01
-1.255001425743103027e-01 -4.588281512260437012e-01 -6.223621368408203125e-01
2.103233039379119873e-01 -1.898002475500106812e-01 -5.958695411682128906e-01
-1.678529828786849976e-01 -2.423471808433532715e-01 -6.854631304740905762e-01
4.375335201621055603e-02 -1.873698532581329346e-01 -6.982690095901489258e-01
2.480789273977279663e-02 -4.261661767959594727e-01 -4.987614750862121582e-01
2.249853461980819702e-01 -2.886371910572052002e-01 -5.164428949356079102e-01
8.086621016263961792e-02 -4.456776678562164307e-01 -5.403875708580017090e-01
1.722318828105926514e-01 -2.398709952831268311e-01 -4.903094172477722168e-01
-8.702822774648666382e-02 -4.019509553909301758e-01 -7.219542264938354492e-01
3.153125569224357605e-02 -2.560868561267852783e-01 -4.429468214511871338e-01
-2.110809087753295898e-01 -3.582338988780975342e-01 -6.781444549560546875e-01
-7.150540500879287720e-02 -2.756861746311187744e-01 -4.395207464694976807e-01
-2.360045164823532104e-01 -2.428805977106094360e-01 -6.180889010429382324e-01
1.285013109445571899e-01 -2.822863757610321045e-01 -4.626679122447967529e-01
-1.641206592321395874e-01 -4.449405074119567871e-01 -5.822564363479614258e-01
2.518064528703689575e-02 -1.401251256465911865e-01 -5.517014265060424805e-01
3.551887348294258118e-02 -2.034465670585632324e-01 -7.130752801895141602e-01
1.333301067352294922e-01 -2.139622271060943604e-01 -7.071171998977661133e-01
2.075371146202087402e-01 -3.503233790397644043e-01 -5.190739631652832031e-01
-2.357822805643081665e-01 -3.690683841705322266e-01 -6.469973921775817871e-01
2.640547454357147217e-01 -2.496665120124816895e-01 -5.928762555122375488e-01
2.357922941446304321e-01 -2.313568890094757080e-01 -6.572476029396057129e-01
-8.318680524826049805e-02 -4.557946920394897461e-01 -5.437046289443969727e-01
-1.747153550386428833e-01 -4.283586144447326660e-01 -5.444884896278381348e-01
1.266030371189117432e-01 -3.292962610721588135e-01 -4.674189090728759766e-01
4.833194240927696228e-02 -4.587531685829162598e-01 -5.527014136314392090e-01
2.509609460830688477e-01 -3.565067350864410400e-01 -5.758196711540222168e-01
-1.967135816812515259e-02 -1.716077774763107300e-01 -4.878483712673187256e-01
1.020530462265014648e-01 -2.710086405277252197e-01 -4.549022018909454346e-01
-9.194502979516983032e-02 -1.623223721981048584e-01 -6.332424283027648926e-01
-1.192917376756668091e-01 -3.257702887058258057e-01 -4.495387077331542969e-01
-1.625605076551437378e-01 -4.168777763843536377e-01 -6.761593222618103027e-01
-2.267670482397079468e-01 -3.725660741329193115e-01 -5.209544301033020020e-01
-1.990545988082885742e-01 -3.729786276817321777e-01 -4.986708760261535645e-01
2.655452191829681396e-01 -3.205101490020751953e-01 -5.735566020011901855e-01
-1.770694106817245483e-01 -1.853430271148681641e-01 -5.934452414512634277e-01
1.035093590617179871e-01 -4.312939345836639404e-01 -7.008568048477172852e-01
1.550047397613525391e-01 -3.888590633869171143e-01 -7.174476385116577148e-01
1.705911755561828613e-01 -3.741156160831451416e-01 -5.082955360412597656e-01
2.545472048223018646e-02 -2.809087336063385010e-01 -4.394085407257080078e-01
2.789686433970928192e-02 -3.424503505229949951e-01 -4.477106332778930664e-01
-8.481971919536590576e-02 -4.600118994712829590e-01 -6.572742462158203125e-01
-7.966062985360622406e-03 -2.530812621116638184e-01 -7.403310537338256836e-01
-1.367678195238113403e-01 -2.858521938323974609e-01 -7.200273871421813965e-01
-1.825972795486450195e-01 -4.369504451751708984e-01 -6.055365800857543945e-01
1.775255948305130005e-01 -4.105237424373626709e-01 -6.842355132102966309e-01
-2.040122598409652710e-01 -2.088086456060409546e-01 -5.350136756896972656e-01
3.767927736043930054e-02 -1.526616960763931274e-01 -6.485985517501831055e-01
-8.964360505342483521e-02 -4.136903285980224609e-01 -4.883151352405548096e-01
2.348797209560871124e-02 -3.823587894439697266e-01 -7.456533908843994141e-01
-1.146257594227790833e-01 -2.939852178096771240e-01 -7.301206588745117188e-01
1.549114882946014404e-01 -2.162838429212570190e-01 -4.927443265914916992e-01
1.655385792255401611e-01 -4.259719848632812500e-01 -6.705096364021301270e-01
-1.981007158756256104e-01 -4.194803833961486816e-01 -6.361620426177978516e-01
1.122267171740531921e-01 -1.698603481054306030e-01 -6.639183163642883301e-01
-1.510848253965377808e-01 -3.007414638996124268e-01 -4.553263783454895020e-01
-1.483007073402404785e-01 -3.590067327022552490e-01 -4.675956666469573975e-01
1.910593211650848389e-01 -2.397970259189605713e-01 -7.013285756111145020e-01
2.141260057687759399e-01 -2.251227796077728271e-01 -6.738513112068176270e-01
3.142672032117843628e-02 -1.377965807914733887e-01 -5.942957997322082520e-01
7.242152839899063110e-02 -1.416675448417663574e-01 -5.680958032608032227e-01
-8.975509554147720337e-02 -4.289811849594116211e-01 -5.039725303649902344e-01
7.482079416513442993e-02 -3.300677239894866943e-01 -4.524815678596496582e-01
5.247149616479873657e-02 -3.027284443378448486e-01 -4.435992836952209473e-01
1.381245851516723633e-01 -1.620642840862274170e-01 -5.495780706405639648e-01
-2.158831059932708740e-01 -2.608481049537658691e-01 -6.611047387123107910e-01
2.367220818996429443e-01 -3.876572251319885254e-01 -6.109752655029296875e-01
4.402424022555351257e-02 -4.666076600551605225e-01 -5.725086927413940430e-01
-6.275901198387145996e-02 -3.361853361129760742e-01 -4.436874985694885254e-01
5.839983373880386353e-02 -2.404091358184814453e-01 -7.360211014747619629e-01
2.186899334192276001e-01 -2.606633305549621582e-01 -6.955850124359130859e-01
1.034228578209877014e-01 -1.795177012681961060e-01 -4.996635913848876953e-01
1.759243905544281006e-01 -1.753300130367279053e-01 -5.603401064872741699e-01
1.933868974447250366e-01 -1.879886984825134277e-01 -5.543542504310607910e-01
2.225293964147567749e-01 -3.786308169364929199e-01 -6.768623590469360352e-01
1.309857219457626343e-01 -4.480320811271667480e-01 -6.518969535827636719e-01
2.477862872183322906e-04 -3.613640367984771729e-01 -4.518710970878601074e-01
2.020541131496429443e-01 -4.150756597518920898e-01 -5.995635390281677246e-01
1.356270909309387207e-01 -3.039163649082183838e-01 -4.661045074462890625e-01
3.508280031383037567e-03 -1.406227201223373413e-01 -5.482485890388488770e-01
2.414859682321548462e-01 -3.789961934089660645e-01 -5.946953892707824707e-01
9.439654648303985596e-02 -3.540095984935760498e-01 -4.652356803417205811e-01
1.992980390787124634e-01 -3.961261510848999023e-01 -6.824269890785217285e-01
-1.152389720082283020e-01 -3.596706688404083252e-01 -4.589437842369079590e-01
-8.323586732149124146e-02 -1.482221186161041260e-01 -5.694577097892761230e-01
-2.222121655941009521e-01 -2.211779057979583740e-01 -6.045311689376831055e-01
2.443823814392089844e-01 -2.900894880294799805e-01 -6.841577887535095215e-01
6.874495744705200195e-02 -4.663658738136291504e-01 -5.887710452079772949e-01
1.232680827379226685e-01 -4.375624060630798340e-01 -5.504194498062133789e-01
-1.179737150669097900e-01 -4.031303524971008301e-01 -7.107771635055541992e-01
-2.158215939998626709e-01 -4.058049023151397705e-01 -5.508218407630920410e-01
-4.946815315634012222e-03 -4.367942810058593750e-01 -7.572078704833984375e-01
1.485541760921478271e-01 -2.989309430122375488e-01 -9.219954013824462891e-01
-2.756786048412322998e-01 -2.878056764602661133e-01 -8.604665994644165039e-01
1.796014904975891113e-01 -3.497079014778137207e-04 -7.052054405212402344e-01
-3.251420557498931885e-01 -1.772755682468414307e-01 -8.537393212318420410e-01
-1.725626736879348755e-01 -7.390626519918441772e-02 -6.713854670524597168e-01
-2.824291884899139404e-01 -2.074312567710876465e-01 -8.839681744575500488e-01
-1.039451658725738525e-01 1.998874545097351074e-01 -8.474276661872863770e-01
-2.613963782787322998e-01 -1.842322647571563721e-01 -6.948080062866210938e-01
-3.222733736038208008e-01 -1.195687055587768555e-01 -7.317761778831481934e-01
2.776238918304443359e-01 3.859950602054595947e-02 -8.982812762260437012e-01
-1.008223146200180054e-01 -1.552102267742156982e-01 -6.583611965179443359e-01
-2.344861924648284912e-01 8.744728565216064453e-02 -7.449715137481689453e-01
-1.479599326848983765e-01 -3.876039385795593262e-01 -7.236690521240234375e-01
4.437623918056488037e-02 -2.961812019348144531e-01 -6.823391914367675781e-01
-1.337540000677108765e-01 9.675081074237823486e-02 -9.190917015075683594e-01
2.439810484647750854e-01 -2.303686439990997314e-01 -7.351006269454956055e-01
3.004570603370666504e-01 5.187943577766418457e-02 -8.107100725173950195e-01
2.649754881858825684e-01 1.128327697515487671e-01 -8.430761098861694336e-01
4.675724543631076813e-03 2.018911838531494141e-01 -7.682045698165893555e-01
2.762332856655120850e-01 -2.823461890220642090e-01 -7.977889180183410645e-01
2.510512173175811768e-01 -3.864601254463195801e-03 -9.261499643325805664e-01
-7.308100163936614990e-02 9.339666366577148438e-02 -6.993523836135864258e-01
2.381063997745513916e-01 1.042303442955017090e-01 -8.933433294296264648e-01
-2.525941729545593262e-01 8.068978786468505859e-05 -7.118505835533142090e-01
2.573448419570922852e-01 -2.241833955049514771e-01 -9.060286283493041992e-01
4.683172330260276794e-02 1.984850466251373291e-01 -7.683175206184387207e-01
8.022136986255645752e-02 -4.337346553802490234e-02 -9.687564373016357422e-01
1.802602857351303101e-01 -2.920517921447753906e-01 -7.204388976097106934e-01
8.760680258274078369e-02 -1.831434071063995361e-01 -9.622502923011779785e-01
-3.030540049076080322e-01 -8.932898938655853271e-02 -7.198340296745300293e-01
-1.333220154047012329e-01 -2.151088416576385498e-01 -9.421653151512145996e-01
7.388442754745483398e-02 -2.569079995155334473e-01 -6.782066822052001953e-01
2.803153991699218750e-01 -6.825336813926696777e-02 -7.447639703750610352e-01
-8.434599265456199646e-03 2.430342137813568115e-03 -9.641720056533813477e-01
-6.323648989200592041e-02 -3.993834853172302246e-01 -8.830159902572631836e-01
-1.083929687738418579e-01 -3.519124388694763184e-01 -9.040617942810058594e-01
3.011726737022399902e-01 -1.380512416362762451e-01 -7.613808512687683105e-01
3.045056760311126709e-01 -4.854167997837066650e-02 -8.977749347686767578e-01
-2.046718746423721313e-01 -4.035824537277221680e-01 -7.850669026374816895e-01
5.166122317314147949e-02 -1.080761924386024475e-01 -9.707115292549133301e-01
1.778738349676132202e-01 -3.274808526039123535e-01 -7.355296611785888672e-01
2.170794308185577393e-01 8.897328376770019531e-02 -7.517117857933044434e-01
-2.943219542503356934e-01 -2.490821182727813721e-01 -8.625621795654296875e-01
2.433167546987533569e-01 -1.954532414674758911e-01 -9.222606420516967773e-01
-2.295001298189163208e-01 1.323132365942001343e-01 -8.157635331153869629e-01
-1.148336529731750488e-01 -1.199474260210990906e-01 -9.559855461120605469e-01
-3.268409073352813721e-01 -3.054636716842651367e-02 -8.375412821769714355e-01
8.512018620967864990e-02 -1.175328269600868225e-01 -9.687429666519165039e-01
2.045554518699645996e-01 -3.013967275619506836e-01 -9.000763297080993652e-01
-2.250845283269882202e-01 -1.267361640930175781e-02 -6.964823603630065918e-01
-7.271084189414978027e-02 2.136344313621520996e-01 -8.348749876022338867e-01
-1.615283787250518799e-01 5.541655421257019043e-02 -9.242385625839233398e-01
8.482602238655090332e-02 -2.290624082088470459e-01 -6.754896044731140137e-01
1.445123925805091858e-03 1.831861436367034912e-01 -7.492433190345764160e-01
-7.121454179286956787e-02 -2.153548151254653931e-01 -9.532365202903747559e-01
3.260661065578460693e-01 -1.179579272866249084e-01 -8.728836774826049805e-01
-1.874768584966659546e-01 -3.924757838249206543e-01 -8.449113965034484863e-01
-1.805894523859024048e-01 1.430202424526214600e-01 -7.580262422561645508e-01
-1.738236993551254272e-01 -1.021660417318344116e-01 -9.416323304176330566e-01
-3.202432394027709961e-01 -9.553756564855575562e-02 -8.627302050590515137e-01
1.051304489374160767e-01 -9.614831209182739258e-02 -9.677716493606567383e-01
3.384929597377777100e-01 -8.850131928920745850e-02 -8.215590715408325195e-01
-1.083915233612060547e-01 -4.328814446926116943e-01 -7.595810294151306152e-01
-8.589252829551696777e-02 -2.581974864006042480e-01 -9.420385360717773438e-01
4.951340146362781525e-03 2.275593578815460205e-03 -6.721630096435546875e-01
-2.597927153110504150e-01 -3.605388402938842773e-01 -7.825903296470642090e-01
1.621472686529159546e-01 5.039162933826446533e-02 -9.448325634002685547e-01
2.522284090518951416e-01 -1.677515208721160889e-01 -7.278988957405090332e-01
2.837007343769073486e-01 -6.663495302200317383e-02 -9.148116111755371094e-01
1.228610724210739136e-01 9.829470515251159668e-02 -9.380558729171752930e-01
1.141990572214126587e-01 -3.309865891933441162e-01 -7.102673649787902832e-01
-1.380919069051742554e-01 -4.180143475532531738e-01 -7.493832707405090332e-01
1.752316020429134369e-03 -1.208408176898956299e-01 -9.697699546813964844e-01
1.502031981945037842e-01 -5.050621926784515381e-02 -6.879289150238037109e-01
2.161281406879425049e-01 -1.695001870393753052e-01 -7.092965245246887207e-01
1.235316246747970581e-01 -4.133364260196685791e-01 -7.843795418739318848e-01
5.186260119080543518e-02 -6.217953190207481384e-02 -9.707336425781250000e-01
-7.279169559478759766e-02 1.964437365531921387e-01 -7.709128856658935547e-01
-2.444973587989807129e-01 3.578463196754455566e-02 -7.213765978813171387e-01
9.374405443668365479e-02 2.166909575462341309e-01 -8.322302103042602539e-01
1.913145929574966431e-01 -3.431709110736846924e-01 -7.544410228729248047e-01
1.486118584871292114e-01 -4.037454724311828613e-03 -9.573918581008911133e-01
-1.259059738367795944e-02 -6.663687527179718018e-02 -9.694426655769348145e-01
2.993432283401489258e-01 -2.305231541395187378e-01 -8.629837632179260254e-01
5.961461737751960754e-02 1.748382449150085449e-01 -9.066355228424072266e-01
-3.494830131530761719e-01 -1.906086355447769165e-01 -7.952806353569030762e-01
7.546921074390411377e-02 -3.311884403228759766e-01 -6.997202634811401367e-01
1.358686685562133789e-01 1.194977164268493652e-01 -7.321323752403259277e-01
-1.067094970494508743e-02 2.247576415538787842e-01 -8.224990963935852051e-01
2.669095695018768311e-01 -2.739689648151397705e-01 -7.741609215736389160e-01
-1.753804236650466919e-01 1.715791821479797363e-01 -8.229682445526123047e-01
1.130116134881973267e-01 9.237419068813323975e-02 -7.133767604827880859e-01
-6.696558743715286255e-02 3.105027973651885986e-02 -6.782534122467041016e-01
-1.528639644384384155e-01 -4.235676825046539307e-01 -8.235962390899658203e-01
2.896771132946014404e-01 -9.372827410697937012e-02 -7.500845789909362793e-01
1.098002344369888306e-01 -1.734568178653717041e-02 -9.642947912216186523e-01
1.328687667846679688e-01 1.367873549461364746e-01 -9.192629456520080566e-01
-1.857215166091918945e-01 -1.922583281993865967e-01 -6.716938614845275879e-01
9.976741671562194824e-02 1.500258743762969971e-01 -7.393641471862792969e-01
-1.033181697130203247e-01 -4.416091442108154297e-01 -8.177787065505981445e-01
-3.506416082382202148e-02 -2.985026538372039795e-01 -6.756944656372070312e-01
2.410285547375679016e-02 -1.147402077913284302e-02 -9.672341346740722656e-01
1.722316443920135498e-02 1.646159887313842773e-01 -7.356770634651184082e-01
1.911187544465065002e-03 1.599957942962646484e-01 -9.159275889396667480e-01
7.477493584156036377e-02 -9.040944278240203857e-02 -6.680003404617309570e-01
1.826399415731430054e-01 1.248365342617034912e-01 -7.539945244789123535e-01
2.398364841938018799e-01 -9.350293874740600586e-02 -9.370688199996948242e-01
-1.134763956069946289e-01 4.589119553565979004e-02 -9.408129453659057617e-01
-9.374862909317016602e-02 -2.327888309955596924e-01 -9.465550184249877930e-01
1.895217150449752808e-01 -1.931181848049163818e-01 -7.006844878196716309e-01
6.618660688400268555e-02 -1.549269258975982666e-02 -6.751982569694519043e-01
3.132894337177276611e-01 -2.903886139392852783e-03 -7.924820184707641602e-01
-1.177174448966979980e-01 9.945470094680786133e-02 -7.077695131301879883e-01
-5.076329037547111511e-02 -2.684053778648376465e-01 -9.439134597778320312e-01
-4.676089063286781311e-02 4.724232852458953857e-02 -6.820255517959594727e-01
1.223675757646560669e-01 1.919872164726257324e-01 -7.849872112274169922e-01
2.051221281290054321e-01 1.037027686834335327e-02 -7.174398899078369141e-01
-1.388927102088928223e-01 -1.242399141192436218e-01 -6.623516678810119629e-01
1.339263916015625000e-01 1.995626389980316162e-01 -8.578343391418457031e-01
8.934521675109863281e-02 6.084528565406799316e-02 -6.971111297607421875e-01
1.175522804260253906e-01 -1.496393084526062012e-01 -9.632026553153991699e-01
-2.521372735500335693e-01 9.984193742275238037e-02 -7.748571634292602539e-01
1.808421760797500610e-01 -2.796849310398101807e-01 -9.201716184616088867e-01
-9.338928759098052979e-02 -6.036296859383583069e-02 -6.626489758491516113e-01
1.827364265918731689e-01 -3.971645236015319824e-02 -9.537725448608398438e-01
1.245017349720001221e-01 -3.086365759372711182e-03 -6.885927319526672363e-01
2.334201931953430176e-01 -3.409045040607452393e-01 -8.092904090881347656e-01
-2.272441685199737549e-01 -2.688681483268737793e-01 -8.980224728584289551e-01
-3.242155611515045166e-01 -1.504545658826828003e-01 -8.585229516029357910e-01
-3.541984260082244873e-01 -1.411520689725875854e-01 -7.947447896003723145e-01
-4.017900675535202026e-02 -4.179193079471588135e-02 -6.633138060569763184e-01
-1.132274866104125977e-01 -8.574201166629791260e-02 -9.566457271575927734e-01
1.187990605831146240e-01 -3.589583039283752441e-01 -7.259390950202941895e-01
3.232573270797729492e-01 -1.930416822433471680e-01 -8.377739787101745605e-01
1.869101822376251221e-02 2.256160378456115723e-01 -8.309497237205505371e-01
-2.494530528783798218e-01 -3.622959256172180176e-01 -8.219360709190368652e-01
1.533180177211761475e-01 -1.489362865686416626e-01 -6.848651170730590820e-01
1.326980441808700562e-01 -3.001981377601623535e-01 -7.045096755027770996e-01
-2.070626318454742432e-01 -1.321511715650558472e-02 -9.229515790939331055e-01
-1.545089632272720337e-01 9.377826750278472900e-02 -7.133100628852844238e-01
1.123936846852302551e-03 -1.613123118877410889e-01 -9.667808413505554199e-01
2.152744382619857788e-01 2.459676563739776611e-02 -9.355251193046569824e-01
1.499187797307968140e-01 1.656253039836883545e-01 -7.692818045616149902e-01
6.052972748875617981e-02 -1.371172368526458740e-01 -6.645259261131286621e-01
2.101685851812362671e-01 -2.643787860870361328e-01 -9.150449037551879883e-01
3.779994696378707886e-02 -2.065777778625488281e-01 -9.610464572906494141e-01
-2.230618745088577271e-01 1.160888969898223877e-01 -8.589161634445190430e-01
4.264954105019569397e-02 -3.731777071952819824e-01 -7.121474742889404297e-01
-9.492330253124237061e-03 -3.095085024833679199e-01 -6.800279617309570312e-01
-2.958282828330993652e-01 1.213893294334411621e-03 -8.636275529861450195e-01
-8.302231132984161377e-02 -5.128120258450508118e-02 -9.608332514762878418e-01
2.471408396959304810e-01 -3.246309161186218262e-01 -8.362507224082946777e-01
-2.011936306953430176e-01 -4.381150752305984497e-02 -9.294669628143310547e-01
-1.867321729660034180e-01 -5.441755056381225586e-03 -6.865160465240478516e-01
-2.868569493293762207e-01 4.313862323760986328e-02 -7.586144208908081055e-01
-2.751511931419372559e-01 -3.199795633554458618e-02 -7.142732143402099609e-01
-2.793737351894378662e-01 -1.604897379875183105e-01 -7.020113468170166016e-01
-1.462020725011825562e-01 -2.937079966068267822e-01 -9.191010594367980957e-01
-1.064907908439636230e-01 -4.362471401691436768e-03 -9.518572688102722168e-01
6.312224268913269043e-02 -3.057718873023986816e-01 -9.336889982223510742e-01
-3.836590796709060669e-02 -1.537919044494628906e-01 -6.567226052284240723e-01
-9.785285592079162598e-02 -4.110244214534759521e-01 -8.662273287773132324e-01
-2.643448710441589355e-01 -4.906365275382995605e-02 -9.001756310462951660e-01
4.344326630234718323e-02 1.014211028814315796e-01 -7.046658992767333984e-01
2.000257372856140137e-01 -3.688831925392150879e-01 -7.986069321632385254e-01
-6.071241199970245361e-02 -2.348894774913787842e-01 -6.628600358963012695e-01
-1.037960946559906006e-01 -3.581590354442596436e-01 -6.986922621726989746e-01
