-1.390741616487503052e-01 -1.251589134335517883e-02 -9.495554864406585693e-02
-1.152401715517044067e-01 -5.596983060240745544e-02 2.912912666797637939e-01
-8.005090802907943726e-02 -8.021204173564910889e-02 -1.475129276514053345e-01
-1.224916577339172363e-01 -4.417600482702255249e-02 2.989375889301300049e-01
-2.162485867738723755e-01 -1.113732159137725830e-01 6.708317995071411133e-02
-1.092249304056167603e-01 -3.734791278839111328e-02 -2.616834938526153564e-01
-1.840286701917648315e-01 -8.381585776805877686e-02 3.211511373519897461e-01
-1.371793150901794434e-01 -1.561557501554489136e-02 1.786520630121231079e-01
-1.287804543972015381e-01 -8.983230590820312500e-02 2.241476923227310181e-01
-9.321763366460800171e-02 -7.713389396667480469e-02 -2.412252277135848999e-01
-9.880692511796951294e-02 -2.307439967989921570e-02 -1.283230483531951904e-01
-1.271644979715347290e-01 -1.031922325491905212e-01 8.777438104152679443e-02
-2.772919237613677979e-01 -5.902037024497985840e-02 -6.718678772449493408e-02
-2.138928025960922241e-01 -1.051234006881713867e-01 1.760199517011642456e-01
-1.601043045520782471e-01 -7.308006286621093750e-02 3.392056524753570557e-01
-1.507987976074218750e-01 -1.031447723507881165e-01 1.673011779785156250e-01
-2.723907232284545898e-01 -9.115140140056610107e-02 1.254075020551681519e-02
-2.398088574409484863e-01 -5.111452937126159668e-02 -2.332469224929809570e-01
-1.269420832395553589e-01 -1.015989482402801514e-01 -1.828778833150863647e-01
-1.451624631881713867e-01 -1.087754890322685242e-01 -1.320017576217651367e-01
-2.221638709306716919e-01 -1.005133762955665588e-01 2.090166807174682617e-01
-2.277823388576507568e-01 -2.238763868808746338e-02 1.715276986360549927e-01
-7.660242170095443726e-02 -7.225874066352844238e-02 -1.753725856542587280e-01
-7.187525182962417603e-02 -7.251134514808654785e-02 5.177713558077812195e-02
-8.577255904674530029e-02 -4.284934327006340027e-02 -2.168162465095520020e-01
-2.221280485391616821e-01 -1.083984375000000000e-01 -1.213947907090187073e-01
-7.348942756652832031e-02 -4.226727411150932312e-02 1.057529002428054810e-01
-2.539609372615814209e-01 -5.457513779401779175e-02 -1.933927536010742188e-01
-8.478733152151107788e-02 -5.177120491862297058e-02 1.912216097116470337e-01
-1.650661677122116089e-01 -1.095144823193550110e-01 -1.641570329666137695e-01
-2.215503454208374023e-01 -3.491722047328948975e-02 -2.137499749660491943e-01
-2.578663229942321777e-01 -8.459541946649551392e-02 2.217263430356979370e-01
-1.608583182096481323e-01 -1.034969463944435120e-02 -6.242778897285461426e-02
-2.714304625988006592e-01 -4.434363543987274170e-02 -1.401546690613031387e-02
-9.602058678865432739e-02 -9.373281151056289673e-02 -1.084313541650772095e-01
-1.772977262735366821e-01 -2.536454796791076660e-02 -2.299814522266387939e-01
-2.588871717453002930e-01 -6.781243532896041870e-02 2.634859085083007812e-01
-2.370905578136444092e-01 -9.196450561285018921e-02 2.424519509077072144e-01
-6.459306925535202026e-02 -4.547577723860740662e-02 4.251535516232252121e-03
-6.901491433382034302e-02 -4.200033470988273621e-02 -1.047537997364997864e-01
-2.429070174694061279e-01 -4.020280763506889343e-02 -1.753944009542465210e-01
-2.348492145538330078e-01 -2.646740525960922241e-02 1.917504817247390747e-01
-6.799240410327911377e-02 -6.299738585948944092e-02 -1.379607319831848145e-01
-1.248763054609298706e-01 -9.074437618255615234e-02 2.077116668224334717e-01
-1.820663511753082275e-01 -3.961690515279769897e-02 -3.009303212165832520e-01
-2.758231461048126221e-01 -7.661604136228561401e-02 -8.881252259016036987e-02
-2.252191454172134399e-01 -3.208040073513984680e-02 2.701412439346313477e-01
-2.158426940441131592e-01 -4.233508929610252380e-02 -2.632803022861480713e-01
-2.625967264175415039e-01 -5.722260475158691406e-02 -1.617270559072494507e-01
-2.635955810546875000e-01 -3.592702001333236694e-02 6.312261521816253662e-02
-9.202799201011657715e-02 -6.847214698791503906e-02 2.013206034898757935e-01
-2.413846552371978760e-01 -9.060667455196380615e-02 -2.114403098821640015e-01
-1.636406481266021729e-01 -2.589048445224761963e-02 -2.421908378601074219e-01
-2.810972929000854492e-01 -7.773323357105255127e-02 -2.061931416392326355e-02
-2.200980335474014282e-01 -2.661158144474029541e-02 2.444380074739456177e-01
-1.337411105632781982e-01 -1.033385843038558960e-02 -1.228018756955862045e-02
-1.611820012331008911e-01 -1.118530407547950745e-01 -1.095751896500587463e-01
-2.027263343334197998e-01 -1.691310480237007141e-02 1.847673058509826660e-01
-2.433621585369110107e-01 -9.268328547477722168e-02 2.225971221923828125e-01
-1.573795825242996216e-01 -1.063315123319625854e-01 -1.975693255662918091e-01
-2.680163085460662842e-01 -4.235893487930297852e-02 -3.302019834518432617e-02
-1.415983736515045166e-01 -1.023183166980743408e-01 -2.149632126092910767e-01
-2.168756723403930664e-01 -1.558392122387886047e-02 5.628141388297080994e-02
-1.369218677282333374e-01 -1.092142611742019653e-01 -4.739690572023391724e-02
-1.233113110065460205e-01 -6.951525062322616577e-02 2.927511632442474365e-01
-1.291466504335403442e-01 -1.113327965140342712e-02 6.098243221640586853e-02
-1.633179634809494019e-01 -1.040470451116561890e-01 -2.269847095012664795e-01
-2.726859450340270996e-01 -7.991670817136764526e-02 1.692207902669906616e-01
-1.410134732723236084e-01 -6.073329225182533264e-02 3.360474109649658203e-01
-2.799195945262908936e-01 -5.964542180299758911e-02 1.349079310894012451e-01
-2.669569551944732666e-01 -5.828626826405525208e-02 -1.411749869585037231e-01
-2.153083682060241699e-01 -8.555138856172561646e-02 3.049142658710479736e-01
-1.790725737810134888e-01 -1.212308928370475769e-02 -7.895156741142272949e-02
-2.776482105255126953e-01 -4.941105097532272339e-02 7.274471223354339600e-02
-1.949061900377273560e-01 -1.225227490067481995e-02 1.158667132258415222e-01
-1.651724278926849365e-01 -9.193759411573410034e-03 8.787333965301513672e-02
-2.201486825942993164e-01 -2.117622271180152893e-02 1.881060004234313965e-01
-1.989069283008575439e-01 -5.635828524827957153e-02 -3.271652460098266602e-01
-1.575708985328674316e-01 -1.081168651580810547e-01 1.188604235649108887e-01
-2.834060192108154297e-01 -6.050961464643478394e-02 6.528340280055999756e-02
-1.358522772789001465e-01 -1.026563793420791626e-01 -1.979745626449584961e-01
-7.193243503570556641e-02 -5.827759206295013428e-02 1.140755563974380493e-01
-2.293224036693572998e-01 -2.674501016736030579e-02 -1.228210553526878357e-01
-2.021587938070297241e-01 -8.434148877859115601e-02 -3.114664852619171143e-01
-1.509549319744110107e-01 -8.703865110874176025e-03 2.465705573558807373e-02
-8.122655004262924194e-02 -6.926345080137252808e-02 1.455477625131607056e-01
-1.376462876796722412e-01 -9.645055979490280151e-02 1.992022842168807983e-01
-1.563914567232131958e-01 -1.126413047313690186e-01 -3.642591461539268494e-02
-1.861020773649215698e-01 -1.080715507268905640e-01 1.553557515144348145e-01
-2.073872834444046021e-01 -9.459131956100463867e-02 -2.684116065502166748e-01
-1.462498903274536133e-01 -1.081586927175521851e-01 -1.482792794704437256e-01
-1.648005694150924683e-01 -1.401066407561302185e-02 1.884852796792984009e-01
-1.780382245779037476e-01 -9.271998703479766846e-02 2.786239385604858398e-01
-2.257204353809356689e-01 -2.817338705062866211e-02 -1.513703316450119019e-01
-2.677490711212158203e-01 -5.174842476844787598e-02 -1.114179641008377075e-01
-1.226546615362167358e-01 -7.651178538799285889e-02 2.718774378299713135e-01
-2.532870471477508545e-01 -9.465906023979187012e-02 -1.396707147359848022e-01
-1.834299862384796143e-01 -1.142878234386444092e-01 1.707806810736656189e-02
-2.667574286460876465e-01 -4.632272571325302124e-02 -8.498014509677886963e-02
-2.079521417617797852e-01 -2.988811954855918884e-02 -2.145497649908065796e-01
-6.825950741767883301e-02 -3.859873861074447632e-02 -3.862104564905166626e-02
-1.715583652257919312e-01 -8.936998993158340454e-02 2.920708358287811279e-01
-2.650393843650817871e-01 -3.697638213634490967e-02 4.801481589674949646e-02
-1.598375737667083740e-01 -1.104020625352859497e-01 -1.404802352190017700e-01
-1.724010258913040161e-01 -1.141584292054176331e-01 -1.555751729756593704e-02
-1.666175872087478638e-01 -2.965672686696052551e-02 3.076844215393066406e-01
-1.209917366504669189e-01 -2.494193241000175476e-02 -2.108421027660369873e-01
-2.418322563171386719e-01 -1.063280254602432251e-01 5.598065257072448730e-02
-1.856948286294937134e-01 -1.106706559658050537e-01 -1.542092412710189819e-01
-2.810160219669342041e-01 -5.959383770823478699e-02 1.195156052708625793e-01
-1.964856535196304321e-01 -1.151232048869132996e-02 7.031888514757156372e-02
-2.061589062213897705e-01 -9.539793431758880615e-02 2.625462710857391357e-01
-1.461378633975982666e-01 -7.428773492574691772e-02 3.208639025688171387e-01
-6.932362914085388184e-02 -3.928791359066963196e-02 -8.106975257396697998e-02
-2.318388819694519043e-01 -1.065843850374221802e-01 -1.105111762881278992e-01
-8.518910408020019531e-02 -2.452079579234123230e-02 -2.004202082753181458e-02
-9.481599926948547363e-02 -9.335829317569732666e-02 1.463378500193357468e-02
-1.983486562967300415e-01 -1.861444488167762756e-02 2.156556248664855957e-01
-1.103007793426513672e-01 -6.438718736171722412e-02 -3.118857443332672119e-01
-2.358505874872207642e-01 -6.225838884711265564e-02 -2.665551900863647461e-01
-1.139917671680450439e-01 -9.829752147197723389e-02 9.235618263483047485e-02
-2.516539096832275391e-01 -8.641178160905838013e-02 -1.925075352191925049e-01
-9.847965836524963379e-02 -8.497723937034606934e-02 1.489868462085723877e-01
-1.440139859914779663e-01 -3.507027029991149902e-02 -2.914359569549560547e-01
-1.651743650436401367e-01 -4.409770667552947998e-02 -3.251849114894866943e-01
-2.783462405204772949e-01 -8.462260663509368896e-02 5.681677162647247314e-02
-2.086328864097595215e-01 -1.364981010556221008e-02 3.629159554839134216e-02
-7.850643992424011230e-02 -7.234834134578704834e-02 1.135306507349014282e-01
-2.610010802745819092e-01 -9.330619126558303833e-02 1.455231755971908569e-01
-1.635584384202957153e-01 -1.150192320346832275e-02 -8.686001598834991455e-02
-1.290602236986160278e-01 -1.064341291785240173e-01 2.534935250878334045e-02
-1.593770235776901245e-01 -3.474792465567588806e-02 -2.920770049095153809e-01
-2.833916246891021729e-01 -6.981381773948669434e-02 9.418360143899917603e-02
-2.489002943038940430e-01 -2.847289666533470154e-02 -1.277602929621934891e-02
-1.239716708660125732e-01 -6.175768002867698669e-02 3.065328299999237061e-01
-1.320200711488723755e-01 -1.388006284832954407e-02 1.422306597232818604e-01
-2.816330790519714355e-01 -7.822622358798980713e-02 7.870870083570480347e-02
-2.280052006244659424e-01 -9.670069813728332520e-02 -2.176645994186401367e-01
-2.533370852470397949e-01 -3.495480120182037354e-02 -7.872593402862548828e-02
-1.782178431749343872e-01 -1.099243760108947754e-01 1.243001222610473633e-01
-1.221396848559379578e-01 -1.026916131377220154e-01 6.790416687726974487e-02
-1.127884387969970703e-01 -1.882667466998100281e-02 1.445652544498443604e-01
-1.670888364315032959e-01 -1.083198264241218567e-01 -1.831817328929901123e-01
-2.139732241630554199e-01 -2.128269150853157043e-02 2.098795026540756226e-01
-2.016848325729370117e-01 -2.994637191295623779e-02 -2.274230867624282837e-01
-6.967496871948242188e-02 -7.341401278972625732e-02 4.303982481360435486e-03
-8.541569858789443970e-02 -8.429704606533050537e-02 6.954966485500335693e-02
-1.874528080224990845e-01 -7.160727679729461670e-02 3.545940518379211426e-01
-2.207455933094024658e-01 -1.065660715103149414e-01 -1.521507203578948975e-01
-1.763083636760711670e-01 -7.622541487216949463e-02 3.421220481395721436e-01
-2.019505798816680908e-01 -1.140611246228218079e-01 9.153224527835845947e-05
-1.292683780193328857e-01 -1.072462201118469238e-01 -1.273985859006643295e-02
-8.509673923254013062e-02 -2.558975666761398315e-02 -6.319560855627059937e-02
-2.843151092529296875e-01 -7.173670828342437744e-02 3.764808923006057739e-02
-1.668671369552612305e-01 -8.517935872077941895e-02 3.072101771831512451e-01
-1.964995712041854858e-01 -1.141942292451858521e-01 -4.863276705145835876e-02
-2.467180043458938599e-01 -9.443950653076171875e-02 1.999763399362564087e-01
-1.477972865104675293e-01 -2.847805991768836975e-02 2.893392443656921387e-01
-9.756583720445632935e-02 -9.100566804409027100e-02 8.516136556863784790e-02
-2.649410963058471680e-01 -3.830490261316299438e-02 1.162196472287178040e-01
-2.081269621849060059e-01 -1.106409281492233276e-01 -1.250659078359603882e-01
-6.285586953163146973e-02 -5.694787949323654175e-02 -7.136705517768859863e-02
-1.691978722810745239e-01 -3.569971024990081787e-02 3.316285312175750732e-01
-2.602492868900299072e-01 -7.662153989076614380e-02 2.428614497184753418e-01
-1.557213217020034790e-01 -2.361232414841651917e-02 2.698090374469757080e-01
-1.934413164854049683e-01 -4.536639153957366943e-02 -3.091086745262145996e-01
-2.695268392562866211e-01 -5.096639320254325867e-02 1.916664093732833862e-01
-7.619937509298324585e-02 -6.538556516170501709e-02 1.278656274080276489e-01
-1.200145930051803589e-01 -1.042750775814056396e-01 -8.365230262279510498e-02
-1.959270387887954712e-01 -2.095927298069000244e-02 -1.664538234472274780e-01
-2.602211236953735352e-01 -4.640318453311920166e-02 -1.293434500694274902e-01
-2.294529378414154053e-01 -2.049614489078521729e-02 -1.988507062196731567e-02
-7.611813396215438843e-02 -6.116374954581260681e-02 -2.014208585023880005e-01
-8.358250558376312256e-02 -8.731514215469360352e-02 -2.149436995387077332e-02
-2.267597764730453491e-01 -2.161361277103424072e-02 -6.553935259580612183e-02
-2.695108950138092041e-01 -4.617461562156677246e-02 1.623695194721221924e-01
-1.564439684152603149e-01 -9.550589323043823242e-02 -2.834328711032867432e-01
-1.794552654027938843e-01 -1.133716255426406860e-01 -9.649962186813354492e-02
-1.265153288841247559e-01 -4.857528954744338989e-02 3.121863305568695068e-01
-2.135686576366424561e-01 -1.126114875078201294e-01 3.170458972454071045e-02
-1.945837140083312988e-01 -9.503349661827087402e-02 -2.807452976703643799e-01
-2.273623049259185791e-01 -8.039425313472747803e-02 -2.790707647800445557e-01
-2.079091072082519531e-01 -1.369776204228401184e-02 7.938183844089508057e-02
-2.672351002693176270e-01 -7.428546994924545288e-02 -1.515551358461380005e-01
-6.579294055700302124e-02 -5.694049969315528870e-02 5.673101916909217834e-02
-2.004081457853317261e-01 -9.196893870830535889e-02 2.846357226371765137e-01
-1.403671354055404663e-01 -1.086425483226776123e-01 -1.129644885659217834e-01
-1.034698039293289185e-01 -9.833364933729171753e-02 -1.595568284392356873e-02
-2.349345982074737549e-01 -1.089443415403366089e-01 9.045131504535675049e-03
-8.166415244340896606e-02 -7.817040383815765381e-02 9.810314327478408813e-02
-9.495774656534194946e-02 -2.112134173512458801e-02 6.726055592298507690e-02
-8.459904789924621582e-02 -2.505181357264518738e-02 -3.454866632819175720e-02
-2.001290917396545410e-01 -1.239785924553871155e-02 -2.143946476280689240e-04
-2.133690863847732544e-01 -3.274451941251754761e-02 2.964987754821777344e-01
-2.622528076171875000e-01 -3.896385803818702698e-02 -5.183564499020576477e-02
-1.982013583183288574e-01 -1.087188720703125000e-01 -1.713451296091079712e-01
-1.157897561788558960e-01 -1.445309445261955261e-02 8.208057284355163574e-02
-1.463665217161178589e-01 -1.281955093145370483e-02 1.566557735204696655e-01
-2.407299578189849854e-01 -3.322535753250122070e-02 -1.345546394586563110e-01
-1.530955135822296143e-01 -3.517066687345504761e-02 3.206455409526824951e-01
-9.766349941492080688e-02 -9.120038151741027832e-02 -1.652040481567382812e-01
-2.275250852108001709e-01 -1.929200440645217896e-02 1.032897457480430603e-01
-2.385019063949584961e-01 -2.877011522650718689e-02 -1.007130593061447144e-01
-1.257313191890716553e-01 -3.018175065517425537e-02 -2.524868249893188477e-01
-1.445085406303405762e-01 -1.080909594893455505e-01 7.801295816898345947e-02
-2.260931432247161865e-01 -1.848537847399711609e-02 8.629493415355682373e-02
-2.109569013118743896e-01 -2.284927293658256531e-02 -1.481083035469055176e-01
-9.156522899866104126e-02 -2.417055889964103699e-02 -1.002133935689926147e-01
-1.488846689462661743e-01 -1.698542013764381409e-02 -1.668276488780975342e-01
-1.341693848371505737e-01 -1.036658734083175659e-01 1.119957491755485535e-01
-2.083238512277603149e-01 -1.129959225654602051e-01 -6.271930783987045288e-02
-2.167531102895736694e-01 -8.372226357460021973e-02 -2.922492921352386475e-01
-2.051844000816345215e-01 -1.016348972916603088e-01 2.180245816707611084e-01
-8.894206583499908447e-02 -9.043906629085540771e-02 -8.605658262968063354e-02
-2.462035417556762695e-01 -7.531952112913131714e-02 2.880638539791107178e-01
-1.575162112712860107e-01 -1.246254891157150269e-02 -1.066699400544166565e-01
-2.650860548019409180e-01 -3.724291175603866577e-02 2.879806607961654663e-02
-1.134079694747924805e-01 -1.015200242400169373e-01 -1.036518439650535583e-01
-1.546208560466766357e-01 -9.400645643472671509e-02 2.487787008285522461e-01
-1.149084046483039856e-01 -2.162274345755577087e-02 1.821066886186599731e-01
-2.062888741493225098e-01 -1.043917015194892883e-01 -2.058373242616653442e-01
-2.700357139110565186e-01 -8.496675640344619751e-02 -1.001947447657585144e-01
-2.217488884925842285e-01 -2.824530750513076782e-02 -1.656094789505004883e-01
-1.619579643011093140e-01 -1.501050218939781189e-02 -1.431075036525726318e-01
-2.023120373487472534e-01 -1.433867961168289185e-02 1.398638486862182617e-01
-2.533735632896423340e-01 -3.217013552784919739e-02 -3.922774642705917358e-02
-1.982149183750152588e-01 -1.716405525803565979e-02 -1.162754669785499573e-01
-1.557812690734863281e-01 -9.860761463642120361e-02 -2.640197575092315674e-01
-1.382012665271759033e-01 -1.080288439989089966e-01 4.705663025379180908e-02
-6.230838596820831299e-02 -5.715014040470123291e-02 -2.503180503845214844e-02
-2.003917098045349121e-01 -1.773816347122192383e-02 2.013793289661407471e-01
-7.339271157979965210e-02 -3.282914683222770691e-02 -1.239860709756612778e-02
-7.250155508518218994e-02 -4.094393178820610046e-02 -1.326231211423873901e-01
-1.651605963706970215e-01 -9.645469486713409424e-03 1.046723052859306335e-01
-6.387526541948318481e-02 -6.443210691213607788e-02 -3.890120983123779297e-02
-2.001704424619674683e-01 -1.075472384691238403e-01 1.604276597499847412e-01
-2.763490378856658936e-01 -4.820846766233444214e-02 8.815729618072509766e-02
-1.172944158315658569e-01 -1.022243499755859375e-01 -1.215137913823127747e-01
-2.635224759578704834e-01 -9.653542935848236084e-02 -3.465712070465087891e-02
-1.047972738742828369e-01 -7.883643358945846558e-02 2.112692445516586304e-01
-1.496399790048599243e-01 -1.003664359450340271e-02 -5.074627324938774109e-02
-1.413404345512390137e-01 -2.558010444045066833e-02 -2.378279417753219604e-01
-1.664341241121292114e-01 -1.131198108196258545e-01 -8.207830786705017090e-02
-9.260200709104537964e-02 -8.335550874471664429e-02 1.299759447574615479e-01
-7.004941999912261963e-02 -6.332992017269134521e-02 -1.565946042537689209e-01
-2.332471907138824463e-01 -2.070404589176177979e-02 3.115425631403923035e-02
-6.522691994905471802e-02 -6.508073955774307251e-02 -8.854962140321731567e-02
-1.972585916519165039e-01 -1.069899946451187134e-01 -1.925805211067199707e-01
-1.369384527206420898e-01 -9.835839271545410156e-03 4.416409879922866821e-02
-2.502512931823730469e-01 -5.879652872681617737e-02 2.908243834972381592e-01
-2.441764473915100098e-01 -1.006511151790618896e-01 -1.301322579383850098e-01
-1.614281535148620605e-01 -1.614534854888916016e-02 2.126060575246810913e-01
-2.604411840438842773e-01 -8.564276248216629028e-02 2.059062868356704712e-01
-1.043542400002479553e-01 -7.427863776683807373e-02 2.283951491117477417e-01
-2.014247179031372070e-01 -7.263465225696563721e-02 3.502324521541595459e-01
-2.433935254812240601e-01 -1.036859825253486633e-01 1.089917793869972229e-01
-2.060042172670364380e-01 -1.127814650535583496e-01 -8.019544929265975952e-02
-1.737626791000366211e-01 -7.485378533601760864e-02 -3.486416637897491455e-01
-1.210197284817695618e-01 -9.153743833303451538e-02 1.904072165489196777e-01
-2.109811305999755859e-01 -4.407754912972450256e-02 -2.791877985000610352e-01
-1.214767843484878540e-01 -1.205048337578773499e-02 2.463429793715476990e-02
-9.142024070024490356e-02 -2.134149521589279175e-02 9.580722078680992126e-03
-7.431084662675857544e-02 -3.399359807372093201e-02 4.868587851524353027e-02
-9.696684032678604126e-02 -5.535516515374183655e-02 2.396300435066223145e-01
-2.490044534206390381e-01 -4.154396057128906250e-02 2.501850426197052002e-01
-2.118072956800460815e-01 -5.007755011320114136e-02 -2.958680987358093262e-01
-1.411950290203094482e-01 -1.098719090223312378e-01 1.782677136361598969e-04
-9.547816962003707886e-02 -9.461924433708190918e-02 -5.991237610578536987e-02
-2.328118979930877686e-01 -1.082029417157173157e-01 7.311661541461944580e-02
-1.500855386257171631e-01 -1.065018028020858765e-01 -1.836090683937072754e-01
-1.320219784975051880e-01 -1.155367121100425720e-02 -5.516678839921951294e-02
-2.617691159248352051e-01 -9.530727565288543701e-02 -7.649281620979309082e-02
-2.538048326969146729e-01 -3.068500943481922150e-02 1.095989421010017395e-01
-1.129620522260665894e-01 -1.763652265071868896e-02 -1.126496344804763794e-01
-2.004554122686386108e-01 -3.654164820909500122e-02 -2.659903466701507568e-01
-1.124663501977920532e-01 -9.644764661788940430e-02 1.089790016412734985e-01
-1.926791369915008545e-01 -4.924188554286956787e-02 3.607723116874694824e-01
-1.826349496841430664e-01 -9.140716493129730225e-02 -3.044665455818176270e-01
-2.773014605045318604e-01 -5.662357807159423828e-02 1.524019390344619751e-01
-8.227834850549697876e-02 -6.667990982532501221e-02 -2.252902388572692871e-01
-2.647486925125122070e-01 -8.453431725502014160e-02 1.918570399284362793e-01
-1.733102351427078247e-01 -1.726165413856506348e-02 2.251888513565063477e-01
-2.365182936191558838e-01 -4.480422660708427429e-02 2.998455166816711426e-01
-2.467969357967376709e-01 -6.551840156316757202e-02 -2.376536875963211060e-01
-2.312844842672348022e-01 -8.288060128688812256e-02 2.953556776046752930e-01
-1.638294756412506104e-01 -5.891107022762298584e-02 3.598428666591644287e-01
-2.634640336036682129e-01 -7.763984799385070801e-02 -1.658919304609298706e-01
-1.283530890941619873e-01 -1.767142489552497864e-02 -1.539768725633621216e-01
-1.493559032678604126e-01 -4.337831586599349976e-02 -3.233366608619689941e-01
-1.171526610851287842e-01 -1.516262069344520569e-02 -8.456066250801086426e-02
-1.468231678009033203e-01 -2.291652560234069824e-02 -2.209819406270980835e-01
-1.013361364603042603e-01 -3.576399758458137512e-02 2.224604338407516479e-01
-2.365640401840209961e-01 -1.076614186167716980e-01 -5.605009570717811584e-02
-1.479333043098449707e-01 -1.080577820539474487e-02 1.210871413350105286e-01
-2.577538192272186279e-01 -3.735283017158508301e-02 1.765954941511154175e-01
-2.309783101081848145e-01 -3.812162950634956360e-02 2.879816293716430664e-01
-1.426854729652404785e-01 -1.047290563583374023e-01 1.270847618579864502e-01
-1.720771938562393188e-01 -1.139341741800308228e-01 -5.887516587972640991e-02
-1.035284921526908875e-01 -1.682145521044731140e-02 -2.363703772425651550e-02
-1.227348446846008301e-01 -7.517553865909576416e-02 -3.202226758003234863e-01
-2.487378567457199097e-01 -1.036476716399192810e-01 -4.894353821873664856e-02
-8.663979172706604004e-02 -6.456262618303298950e-02 -2.468455135822296143e-01
-1.701870262622833252e-01 -1.130210831761360168e-01 4.388834908604621887e-02
-1.385945677757263184e-01 -4.895265400409698486e-02 -3.326784372329711914e-01
-2.019735723733901978e-01 -1.106947660446166992e-01 1.121035888791084290e-01
-9.782242029905319214e-02 -4.963006824254989624e-02 -2.739040553569793701e-01
-1.791464537382125854e-01 -4.301656037569046021e-02 -3.150891065597534180e-01
-1.116190701723098755e-01 -9.862878918647766113e-02 -1.517251282930374146e-01
-1.486778706312179565e-01 -1.793688535690307617e-02 2.204127609729766846e-01
-1.301039457321166992e-01 -9.023745357990264893e-02 -2.807984948158264160e-01
-2.362319827079772949e-01 -1.033984795212745667e-01 1.454138010740280151e-01
-1.698657274246215820e-01 -1.801992580294609070e-02 -1.732772886753082275e-01
-1.221486032009124756e-01 -1.521122083067893982e-02 1.306105554103851318e-01
-2.748320102691650391e-01 -6.036060303449630737e-02 -9.379892796277999878e-02
-1.652794629335403442e-01 -2.263934537768363953e-02 -2.178654521703720093e-01
-9.212211519479751587e-02 -7.639767229557037354e-02 1.710450351238250732e-01
-1.225263625383377075e-01 -1.054934486746788025e-01 -3.572928160429000854e-02
-1.118655875325202942e-01 -8.801788091659545898e-02 -2.514445185661315918e-01
-2.061787992715835571e-01 -1.011927053332328796e-01 -2.314875423908233643e-01
-2.790481448173522949e-01 -5.118761211633682251e-02 4.405056685209274292e-02
-2.580214142799377441e-01 -5.472482740879058838e-02 -1.763588935136795044e-01
-2.569894492626190186e-01 -1.001678705215454102e-01 6.889297068119049072e-02
-1.898020207881927490e-01 -1.040450781583786011e-01 2.005488723516464233e-01
-2.458861470222473145e-01 -3.061007522046566010e-02 1.811903864145278931e-01
-1.409071832895278931e-01 -8.975128829479217529e-02 -2.983644902706146240e-01
-1.829552501440048218e-01 -1.464379578828811646e-02 1.888155192136764526e-01
-2.153224349021911621e-01 -1.542048901319503784e-02 1.573863811790943146e-02
-1.397513449192047119e-01 -3.686834871768951416e-02 3.112503290176391602e-01
-2.726781666278839111e-01 -7.122691720724105835e-02 1.970219314098358154e-01
-7.185731083154678345e-02 -5.347144603729248047e-02 -1.737753599882125854e-01
-2.039582431316375732e-01 -1.119961589574813843e-01 8.249273151159286499e-02
-2.356477379798889160e-01 -2.403068169951438904e-02 1.514832377433776855e-01
-2.116930335760116577e-01 -1.842352747917175293e-02 -8.870194107294082642e-02
-2.148465514183044434e-01 -1.692161336541175842e-02 -4.314698278903961182e-02
-2.732141017913818359e-01 -7.079007476568222046e-02 -1.177315786480903625e-01
-1.976423710584640503e-01 -1.485933363437652588e-02 1.656461209058761597e-01
-2.299836575984954834e-01 -8.875253796577453613e-02 -2.504974007606506348e-01
-2.380360662937164307e-01 -2.289400622248649597e-02 8.882325142621994019e-03
-1.050157099962234497e-01 -2.524612843990325928e-02 -1.758349388837814331e-01
-1.591158062219619751e-01 -1.096056997776031494e-01 9.746993333101272583e-02
-1.253676712512969971e-01 -2.264770865440368652e-02 2.192667126655578613e-01
-1.092288643121719360e-01 -1.861707866191864014e-02 1.252653300762176514e-01
-1.655024737119674683e-01 -8.204261213541030884e-02 -3.371233642101287842e-01
4.552894830703735352e-01 -4.736200571060180664e-01 3.267608284950256348e-01
5.022974610328674316e-01 -5.161364078521728516e-01 3.425695300102233887e-01
4.975751042366027832e-01 -5.679886937141418457e-01 3.212015628814697266e-01
4.503700435161590576e-01 -4.870010018348693848e-01 3.425857424736022949e-01
4.773063063621520996e-01 -5.167796015739440918e-01 3.123381137847900391e-01
4.508532285690307617e-01 -7.382683753967285156e-01 3.525933623313903809e-01
5.025029778480529785e-01 -5.212273597717285156e-01 3.352769017219543457e-01
4.839230477809906006e-01 -6.285837292671203613e-01 3.133831918239593506e-01
4.404085874557495117e-01 -5.525776147842407227e-01 3.334278166294097900e-01
4.775155186653137207e-01 -4.698339700698852539e-01 3.557831645011901855e-01
4.852274954319000244e-01 -5.132019519805908203e-01 3.151366114616394043e-01
4.705365300178527832e-01 -5.321412086486816406e-01 3.106980025768280029e-01
5.036000013351440430e-01 -6.128695011138916016e-01 3.526206314563751221e-01
5.042967796325683594e-01 -6.383950710296630859e-01 3.452228307723999023e-01
4.427960813045501709e-01 -6.282401084899902344e-01 3.563315868377685547e-01
4.505181908607482910e-01 -6.794044971466064453e-01 3.198227882385253906e-01
4.478323161602020264e-01 -5.929510593414306641e-01 3.169427216053009033e-01
4.408639371395111084e-01 -6.722054481506347656e-01 3.305341303348541260e-01
4.644211232662200928e-01 -6.646692156791687012e-01 3.700355589389801025e-01
4.615598320960998535e-01 -6.569823026657104492e-01 3.695445060729980469e-01
4.415442347526550293e-01 -6.412292718887329102e-01 3.542750477790832520e-01
4.421888291835784912e-01 -5.457450747489929199e-01 3.287000656127929688e-01
4.977163672447204590e-01 -6.729193925857543945e-01 3.301099240779876709e-01
4.535851776599884033e-01 -7.566701173782348633e-01 3.457167744636535645e-01
5.056920647621154785e-01 -5.982421636581420898e-01 3.392327129840850830e-01
4.869051575660705566e-01 -5.375170707702636719e-01 3.141547441482543945e-01
4.638456106185913086e-01 -5.032745003700256348e-01 3.143254518508911133e-01
5.044569373130798340e-01 -5.410112738609313965e-01 3.391508460044860840e-01
4.486917853355407715e-01 -6.967549324035644531e-01 3.592707812786102295e-01
4.432200789451599121e-01 -5.642993450164794922e-01 3.522531986236572266e-01
4.903533160686492920e-01 -5.301251411437988281e-01 3.624807596206665039e-01
4.511058628559112549e-01 -6.909558176994323730e-01 3.210113644599914551e-01
4.614646136760711670e-01 -6.834794878959655762e-01 3.156315088272094727e-01
4.588472843170166016e-01 -5.949383378028869629e-01 3.109416067600250244e-01
4.796667098999023438e-01 -7.441255450248718262e-01 3.590137660503387451e-01
4.727362990379333496e-01 -5.708665847778320312e-01 3.093504905700683594e-01
4.780034124851226807e-01 -7.353087663650512695e-01 3.620654940605163574e-01
4.488433301448822021e-01 -6.281281709671020508e-01 3.167468011379241943e-01
4.390835464000701904e-01 -6.602691411972045898e-01 3.331763744354248047e-01
4.962985813617706299e-01 -6.064537763595581055e-01 3.631231784820556641e-01
4.750427603721618652e-01 -6.630464792251586914e-01 3.133825063705444336e-01
4.759004712104797363e-01 -5.967441797256469727e-01 3.711459338665008545e-01
4.858761429786682129e-01 -4.968724250793457031e-01 3.173182904720306396e-01
4.858672618865966797e-01 -5.223262906074523926e-01 3.635833263397216797e-01
4.500904679298400879e-01 -7.031540870666503906e-01 3.597916960716247559e-01
4.561637043952941895e-01 -4.627373218536376953e-01 3.392798304557800293e-01
4.663423895835876465e-01 -7.236269712448120117e-01 3.213034272193908691e-01
4.848518073558807373e-01 -6.358476877212524414e-01 3.142752647399902344e-01
5.028191804885864258e-01 -5.234004259109497070e-01 3.441277742385864258e-01
4.721319079399108887e-01 -4.364339411258697510e-01 3.383636474609375000e-01
4.890107810497283936e-01 -6.306117177009582520e-01 3.679303526878356934e-01
4.828271865844726562e-01 -5.470764040946960449e-01 3.671861886978149414e-01
4.756322205066680908e-01 -5.795671343803405762e-01 3.704445958137512207e-01
4.415350258350372314e-01 -6.581450104713439941e-01 3.534494042396545410e-01
4.495477378368377686e-01 -6.626883745193481445e-01 3.628707230091094971e-01
4.567947983741760254e-01 -7.429686784744262695e-01 3.574276864528656006e-01
4.440734982490539551e-01 -5.172312855720520020e-01 3.372072577476501465e-01
4.608670473098754883e-01 -6.295511126518249512e-01 3.113380670547485352e-01
4.376432001590728760e-01 -6.405241489410400391e-01 3.429162502288818359e-01
4.908570349216461182e-01 -4.581176638603210449e-01 3.422114849090576172e-01
4.811406135559082031e-01 -6.339846253395080566e-01 3.707582056522369385e-01
4.685471355915069580e-01 -7.730593085289001465e-01 3.409739136695861816e-01
4.978511035442352295e-01 -6.480808854103088379e-01 3.259267807006835938e-01
4.625612795352935791e-01 -7.347772121429443359e-01 3.622703254222869873e-01
4.942121505737304688e-01 -5.742818713188171387e-01 3.179110586643218994e-01
5.020575523376464844e-01 -5.684537291526794434e-01 3.548181653022766113e-01
4.742322862148284912e-01 -7.288854122161865234e-01 3.232212960720062256e-01
4.953378736972808838e-01 -6.821890473365783691e-01 3.284773826599121094e-01
4.522686898708343506e-01 -5.434536337852478027e-01 3.599099218845367432e-01
4.912554919719696045e-01 -5.078353881835937500e-01 3.194110393524169922e-01
4.566787183284759521e-01 -5.498607754707336426e-01 3.636913895606994629e-01
4.867853224277496338e-01 -6.048882007598876953e-01 3.135755658149719238e-01
4.750408530235290527e-01 -7.274953126907348633e-01 3.644118010997772217e-01
4.790480434894561768e-01 -6.745309233665466309e-01 3.156099617481231689e-01
4.505802392959594727e-01 -7.284672260284423828e-01 3.295731246471405029e-01
4.769885241985321045e-01 -7.138627767562866211e-01 3.208767175674438477e-01
4.583407938480377197e-01 -4.561159908771514893e-01 3.380011916160583496e-01
4.376141726970672607e-01 -6.231406331062316895e-01 3.344314098358154297e-01
4.924571812152862549e-01 -4.881785213947296143e-01 3.534600138664245605e-01
4.399861395359039307e-01 -6.398511528968811035e-01 3.280386626720428467e-01
4.914869666099548340e-01 -5.660361051559448242e-01 3.651507496833801270e-01
4.914312362670898438e-01 -4.665824770927429199e-01 3.469349741935729980e-01
4.969902634620666504e-01 -5.403680801391601562e-01 3.586328923702239990e-01
4.837795197963714600e-01 -6.555018424987792969e-01 3.693740963935852051e-01
4.395964741706848145e-01 -5.600668191909790039e-01 3.398966193199157715e-01
4.621462523937225342e-01 -6.543511748313903809e-01 3.126321136951446533e-01
4.592289030551910400e-01 -5.117026567459106445e-01 3.598379194736480713e-01
4.711432456970214844e-01 -5.618307590484619141e-01 3.094394207000732422e-01
4.977999627590179443e-01 -6.856667995452880859e-01 3.337719440460205078e-01
4.797302484512329102e-01 -7.508255243301391602e-01 3.566596210002899170e-01
4.459442794322967529e-01 -6.807181835174560547e-01 3.240157961845397949e-01
4.487090110778808594e-01 -6.906601190567016602e-01 3.600120544433593750e-01
4.488721489906311035e-01 -7.029993534088134766e-01 3.248997032642364502e-01
4.480711519718170166e-01 -5.527095794677734375e-01 3.185594975948333740e-01
4.836804568767547607e-01 -5.557132363319396973e-01 3.120137453079223633e-01
4.593514502048492432e-01 -7.223232984542846680e-01 3.223774731159210205e-01
4.671714007854461670e-01 -6.145983338356018066e-01 3.711178302764892578e-01
4.578481018543243408e-01 -5.191782712936401367e-01 3.602801859378814697e-01
4.644131660461425781e-01 -5.711628794670104980e-01 3.097383975982666016e-01
4.917277991771697998e-01 -5.864432454109191895e-01 3.660498857498168945e-01
4.643041789531707764e-01 -4.442873001098632812e-01 3.332626819610595703e-01
4.609824419021606445e-01 -6.480627059936523438e-01 3.124047219753265381e-01
4.918545782566070557e-01 -4.760347008705139160e-01 3.503658175468444824e-01
4.919678866863250732e-01 -6.505316495895385742e-01 3.200234770774841309e-01
5.017974972724914551e-01 -5.102212429046630859e-01 3.402681946754455566e-01
4.452175498008728027e-01 -6.411969065666198730e-01 3.206048905849456787e-01
4.620469212532043457e-01 -5.062325000762939453e-01 3.603349626064300537e-01
4.442702233791351318e-01 -6.658622622489929199e-01 3.239411115646362305e-01
4.445480704307556152e-01 -5.486813187599182129e-01 3.233367502689361572e-01
4.709225594997406006e-01 -6.006375551223754883e-01 3.093974888324737549e-01
4.589071571826934814e-01 -7.217575311660766602e-01 3.631070852279663086e-01
4.391936659812927246e-01 -6.323671340942382812e-01 3.495481908321380615e-01
5.011827349662780762e-01 -5.188824534416198730e-01 3.483783006668090820e-01
5.057690143585205078e-01 -5.734525322914123535e-01 3.418870568275451660e-01
5.048172473907470703e-01 -5.714953541755676270e-01 3.343307077884674072e-01
4.415784478187561035e-01 -6.954311728477478027e-01 3.469385504722595215e-01
4.936138093471527100e-01 -7.184887528419494629e-01 3.381360769271850586e-01
4.881880283355712891e-01 -4.922805726528167725e-01 3.575839698314666748e-01
4.705219864845275879e-01 -5.491542220115661621e-01 3.098313808441162109e-01
4.866943061351776123e-01 -7.247397899627685547e-01 3.293092846870422363e-01
4.622340202331542969e-01 -4.720846414566040039e-01 3.524293601512908936e-01
4.407012760639190674e-01 -5.465598702430725098e-01 3.355523943901062012e-01
4.422346651554107666e-01 -7.056597471237182617e-01 3.387825489044189453e-01
4.681140482425689697e-01 -5.744568109512329102e-01 3.697065711021423340e-01
4.423835873603820801e-01 -5.564187169075012207e-01 3.492410778999328613e-01
4.817582368850708008e-01 -4.759025573730468750e-01 3.565553724765777588e-01
5.038138031959533691e-01 -5.950180888175964355e-01 3.313579559326171875e-01
4.958952963352203369e-01 -6.909623146057128906e-01 3.563120067119598389e-01
4.998580813407897949e-01 -6.344725489616394043e-01 3.583262562751770020e-01
4.591564834117889404e-01 -7.541170716285705566e-01 3.317165076732635498e-01
4.784667789936065674e-01 -6.662350296974182129e-01 3.702608346939086914e-01
4.806356728076934814e-01 -4.378383755683898926e-01 3.364723622798919678e-01
4.444031119346618652e-01 -5.761440992355346680e-01 3.209763765335083008e-01
4.968463480472564697e-01 -6.663938760757446289e-01 3.274313211441040039e-01
4.393710494041442871e-01 -6.787876486778259277e-01 3.420629203319549561e-01
4.510591924190521240e-01 -5.547931194305419922e-01 3.603224456310272217e-01
4.630598425865173340e-01 -6.967104673385620117e-01 3.170642852783203125e-01
4.439239799976348877e-01 -5.371508002281188965e-01 3.265184164047241211e-01
4.976195991039276123e-01 -5.339211225509643555e-01 3.571214675903320312e-01
4.919739961624145508e-01 -7.248915433883666992e-01 3.516297638416290283e-01
4.454308748245239258e-01 -7.075626850128173828e-01 3.530995845794677734e-01
5.014107227325439453e-01 -6.621311306953430176e-01 3.512494266033172607e-01
4.632302820682525635e-01 -6.621613502502441406e-01 3.130992054939270020e-01
4.942097663879394531e-01 -5.108606815338134766e-01 3.568496108055114746e-01
4.566978216171264648e-01 -5.026118755340576172e-01 3.563960194587707520e-01
4.651637375354766846e-01 -5.232263803482055664e-01 3.119208216667175293e-01
4.565965831279754639e-01 -4.869535863399505615e-01 3.523816764354705811e-01
4.398328959941864014e-01 -6.152182817459106445e-01 3.272239863872528076e-01
4.471218883991241455e-01 -6.458157300949096680e-01 3.612667322158813477e-01
4.466767609119415283e-01 -5.310049057006835938e-01 3.515837192535400391e-01
4.631040692329406738e-01 -5.793905854225158691e-01 3.098701238632202148e-01
4.994439184665679932e-01 -6.171624660491943359e-01 3.596740663051605225e-01
4.776580333709716797e-01 -7.372120022773742676e-01 3.265577256679534912e-01
4.431167244911193848e-01 -6.156902909278869629e-01 3.218887448310852051e-01
4.691598117351531982e-01 -4.399565458297729492e-01 3.312647640705108643e-01
5.040325522422790527e-01 -5.342311859130859375e-01 3.410474956035614014e-01
4.505044519901275635e-01 -5.225927233695983887e-01 3.196608722209930420e-01
4.431859850883483887e-01 -6.477427482604980469e-01 3.234442174434661865e-01
4.648818075656890869e-01 -6.940623521804809570e-01 3.682927787303924561e-01
4.443897604942321777e-01 -6.730042099952697754e-01 3.247301578521728516e-01
4.951021373271942139e-01 -5.286861062049865723e-01 3.206265568733215332e-01
4.710277020931243896e-01 -6.975212693214416504e-01 3.169260621070861816e-01
4.386512637138366699e-01 -6.504811048507690430e-01 3.328784108161926270e-01
4.749417901039123535e-01 -4.444380700588226318e-01 3.464922308921813965e-01
4.432748258113861084e-01 -5.911878347396850586e-01 3.217943608760833740e-01
4.987973570823669434e-01 -6.713623404502868652e-01 3.554498553276062012e-01
4.681726992130279541e-01 -5.959269404411315918e-01 3.707688152790069580e-01
4.719132184982299805e-01 -4.472113847732543945e-01 3.254161477088928223e-01
4.647028744220733643e-01 -7.488715648651123047e-01 3.278830647468566895e-01
4.929774701595306396e-01 -4.746778011322021484e-01 3.281696736812591553e-01
4.432331025600433350e-01 -5.243301391601562500e-01 3.393736779689788818e-01
4.514097273349761963e-01 -7.510434985160827637e-01 3.441940844058990479e-01
4.962344765663146973e-01 -5.929545760154724121e-01 3.629832863807678223e-01
4.849308431148529053e-01 -4.697618782520294189e-01 3.217448890209197998e-01
4.500303566455841064e-01 -4.988579750061035156e-01 3.254789412021636963e-01
4.471718370914459229e-01 -7.352609634399414062e-01 3.413422107696533203e-01
4.802242517471313477e-01 -6.950701475143432617e-01 3.188166618347167969e-01
4.543804228305816650e-01 -7.168203592300415039e-01 3.235262334346771240e-01
4.992169141769409180e-01 -6.417306661605834961e-01 3.270364403724670410e-01
5.006184577941894531e-01 -6.659107804298400879e-01 3.345623016357421875e-01
4.627033174037933350e-01 -7.719473242759704590e-01 3.433644473552703857e-01
4.524674415588378906e-01 -6.208403110504150391e-01 3.141620159149169922e-01
4.412489831447601318e-01 -6.650391221046447754e-01 3.522932827472686768e-01
4.630761742591857910e-01 -7.522769570350646973e-01 3.581458926200866699e-01
4.589728415012359619e-01 -5.524461865425109863e-01 3.117476999759674072e-01
4.542446732521057129e-01 -6.086398959159851074e-01 3.129288256168365479e-01
5.019777417182922363e-01 -5.149480104446411133e-01 3.357092440128326416e-01
4.624973833560943604e-01 -4.511242508888244629e-01 3.291212022304534912e-01
4.510007500648498535e-01 -5.160011053085327148e-01 3.539678752422332764e-01
4.757318198680877686e-01 -7.627678513526916504e-01 3.536979854106903076e-01
4.825322329998016357e-01 -6.870802640914916992e-01 3.186274468898773193e-01
4.995668828487396240e-01 -6.874336004257202148e-01 3.469347953796386719e-01
4.659929573535919189e-01 -4.561885595321655273e-01 3.237149119377136230e-01
4.948161840438842773e-01 -4.696824550628662109e-01 3.368495106697082520e-01
4.628742039203643799e-01 -4.684818983078002930e-01 3.213516175746917725e-01
5.039182305335998535e-01 -5.453647971153259277e-01 3.472343981266021729e-01
4.524001479148864746e-01 -7.437051534652709961e-01 3.332710266113281250e-01
4.807177186012268066e-01 -6.743950247764587402e-01 3.692541122436523438e-01
4.855476319789886475e-01 -5.312973856925964355e-01 3.138652443885803223e-01
4.573290646076202393e-01 -6.926943063735961914e-01 3.180176913738250732e-01
4.867509901523590088e-01 -7.099378705024719238e-01 3.254183828830718994e-01
4.711749255657196045e-01 -7.177243828773498535e-01 3.203132152557373047e-01
4.463866651058197021e-01 -7.282418012619018555e-01 3.474522531032562256e-01
4.966421425342559814e-01 -6.980095505714416504e-01 3.526609838008880615e-01
4.940606951713562012e-01 -6.044086217880249023e-01 3.183558285236358643e-01
4.433769285678863525e-01 -6.237604022026062012e-01 3.217833936214447021e-01
4.833254218101501465e-01 -5.747554898262023926e-01 3.115997314453125000e-01
4.809222519397735596e-01 -4.451926350593566895e-01 3.281713724136352539e-01
4.866614043712615967e-01 -6.035611629486083984e-01 3.689873218536376953e-01
4.418421685695648193e-01 -5.361763834953308105e-01 3.343979120254516602e-01
4.564015865325927734e-01 -4.706613421440124512e-01 3.459950387477874756e-01
4.972061514854431152e-01 -6.838517785072326660e-01 3.557117581367492676e-01
4.379147291183471680e-01 -5.878429412841796875e-01 3.391581177711486816e-01
4.842525124549865723e-01 -4.855103790760040283e-01 3.579692244529724121e-01
4.637541472911834717e-01 -6.321841478347778320e-01 3.705485165119171143e-01
4.506082534790039062e-01 -6.301870942115783691e-01 3.643366396427154541e-01
4.730131328105926514e-01 -7.713472843170166016e-01 3.484376966953277588e-01
4.711881875991821289e-01 -7.681497335433959961e-01 3.368211984634399414e-01
4.409517049789428711e-01 -6.795814037322998047e-01 3.319894075393676758e-01
5.012388825416564941e-01 -6.704061627388000488e-01 3.488398790359497070e-01
4.506324827671051025e-01 -5.816211104393005371e-01 3.150008022785186768e-01
4.373881816864013672e-01 -6.137557029724121094e-01 3.361244797706604004e-01
4.465064406394958496e-01 -6.546609997749328613e-01 3.603908121585845947e-01
4.524433016777038574e-01 -6.435186266899108887e-01 3.152948617935180664e-01
4.802482426166534424e-01 -5.975812077522277832e-01 3.108118772506713867e-01
4.513865709304809570e-01 -5.619487762451171875e-01 3.613737821578979492e-01
5.049089193344116211e-01 -5.486948490142822266e-01 3.418402075767517090e-01
4.999832510948181152e-01 -5.930430889129638672e-01 3.243131637573242188e-01
4.935849606990814209e-01 -6.775640249252319336e-01 3.616096675395965576e-01
4.621426761150360107e-01 -6.402831673622131348e-01 3.700605928897857666e-01
4.949923157691955566e-01 -4.844213128089904785e-01 3.491943478584289551e-01
4.875441789627075195e-01 -4.497195482254028320e-01 3.416873216629028320e-01
4.492519497871398926e-01 -5.118625164031982422e-01 3.231186568737030029e-01
4.768582582473754883e-01 -6.151230931282043457e-01 3.714712858200073242e-01
4.463453590869903564e-01 -6.232141852378845215e-01 3.605514466762542725e-01
4.836052358150482178e-01 -6.543984413146972656e-01 3.152390122413635254e-01
4.440129101276397705e-01 -5.906148552894592285e-01 3.563845157623291016e-01
4.378466010093688965e-01 -6.496633887290954590e-01 3.425702452659606934e-01
4.434310793876647949e-01 -6.156507730484008789e-01 3.569697737693786621e-01
4.639491140842437744e-01 -5.652589201927185059e-01 3.681395053863525391e-01
4.569282829761505127e-01 -6.821805834770202637e-01 3.664906024932861328e-01
4.474242031574249268e-01 -4.976025223731994629e-01 3.337519764900207520e-01
4.471049308776855469e-01 -5.351535677909851074e-01 3.216491639614105225e-01
4.469756186008453369e-01 -7.235097289085388184e-01 3.512988984584808350e-01
4.980019927024841309e-01 -6.433519124984741211e-01 3.601824641227722168e-01
4.790133833885192871e-01 -5.354366898536682129e-01 3.114038109779357910e-01
4.813690483570098877e-01 -7.571684122085571289e-01 3.379808962345123291e-01
4.695526361465454102e-01 -6.581647396087646484e-01 3.710555732250213623e-01
4.617284536361694336e-01 -4.753160476684570312e-01 3.201719522476196289e-01
4.994513690471649170e-01 -5.389496684074401855e-01 3.249745368957519531e-01
4.557370245456695557e-01 -4.642956852912902832e-01 3.323661684989929199e-01
4.480148255825042725e-01 -5.083108544349670410e-01 3.474222421646118164e-01
4.522837996482849121e-01 -6.790956854820251465e-01 3.639875948429107666e-01
4.810901880264282227e-01 -5.577181577682495117e-01 3.684406876564025879e-01
4.768746197223663330e-01 -5.731176733970642090e-01 3.700196743011474609e-01
4.861978590488433838e-01 -5.535018444061279297e-01 3.667091429233551025e-01
4.590814113616943359e-01 -5.871219038963317871e-01 3.678242564201354980e-01
5.020319223403930664e-01 -5.994043946266174316e-01 3.561019897460937500e-01
4.535834789276123047e-01 -5.540830492973327637e-01 3.142165839672088623e-01
4.912235736846923828e-01 -6.523847579956054688e-01 3.658057749271392822e-01
4.854150712490081787e-01 -6.655467152595520020e-01 3.681928515434265137e-01
5.030572414398193359e-01 -6.557303667068481445e-01 3.454391360282897949e-01
4.655408859252929688e-01 -4.528801441192626953e-01 3.471910953521728516e-01
4.575348496437072754e-01 -7.611598372459411621e-01 3.503872752189636230e-01
4.548690319061279297e-01 -5.888330936431884766e-01 3.124889135360717773e-01
4.738891720771789551e-01 -6.895155906677246094e-01 3.161972463130950928e-01
4.566262066364288330e-01 -5.218556523323059082e-01 3.151495456695556641e-01
4.746230542659759521e-01 -6.547469496726989746e-01 3.125611245632171631e-01
5.027060508728027344e-01 -6.571092605590820312e-01 3.393942713737487793e-01
4.503661990165710449e-01 -5.773145556449890137e-01 3.619507551193237305e-01
4.528347849845886230e-01 -5.982242822647094727e-01 3.135192394256591797e-01
4.904267191886901855e-01 -6.949107646942138672e-01 3.620890080928802490e-01
4.910824894905090332e-01 -5.448095202445983887e-01 3.162638247013092041e-01
4.455215036869049072e-01 -5.125150084495544434e-01 3.307754397392272949e-01
4.801793694496154785e-01 -5.664002895355224609e-01 3.692119121551513672e-01
4.716158509254455566e-01 -7.328995466232299805e-01 3.638296425342559814e-01
4.585960507392883301e-01 -7.010481357574462891e-01 3.187979459762573242e-01
4.783547222614288330e-01 -4.822235703468322754e-01 3.167120814323425293e-01
4.705723822116851807e-01 -6.025844812393188477e-01 3.712615072727203369e-01
4.963506758213043213e-01 -6.930096149444580078e-01 3.330909907817840576e-01
4.682301878929138184e-01 -5.347601771354675293e-01 3.663253486156463623e-01
