-6.612624228000640869e-02 4.723029583692550659e-02 4.293570816516876221e-01
-1.855847090482711792e-01 2.981284447014331818e-02 -4.646086692810058594e-02
-1.329978406429290771e-01 -8.235128223896026611e-02 2.465420067310333252e-01
-4.932585060596466064e-01 -4.094240814447402954e-02 2.102408111095428467e-01
-2.455903291702270508e-01 1.071347594261169434e-01 1.068180277943611145e-01
-1.148951202630996704e-01 5.756245180964469910e-02 4.682601690292358398e-01
-1.876228153705596924e-01 1.079654246568679810e-01 1.714775562286376953e-01
-4.167017936706542969e-01 9.593254327774047852e-02 2.056591063737869263e-01
-8.340390026569366455e-02 -5.951175093650817871e-02 1.807152628898620605e-01
-3.648839592933654785e-01 -5.844816565513610840e-02 3.651978969573974609e-01
-3.048309087753295898e-01 -4.613602533936500549e-02 4.308437108993530273e-01
-1.865919828414916992e-01 5.618248879909515381e-02 -1.260052621364593506e-02
-3.501584529876708984e-01 1.096832752227783203e-01 1.408849209547042847e-01
-2.618453800678253174e-01 1.153792068362236023e-01 1.664445996284484863e-01
-1.665535867214202881e-01 -8.284955471754074097e-02 8.629582822322845459e-02
-3.061096668243408203e-01 8.742517977952957153e-02 1.650929450988769531e-03
-3.600782752037048340e-01 7.138248998671770096e-03 4.484013319015502930e-01
-1.366030424833297729e-01 -6.459315866231918335e-02 6.280572712421417236e-02
-8.281075954437255859e-02 -5.392005667090415955e-02 1.488593220710754395e-01
-2.136970311403274536e-01 1.129788011312484741e-01 1.822500228881835938e-01
-3.047187030315399170e-01 -1.053375899791717529e-01 1.510270088911056519e-01
-4.229083657264709473e-02 3.408323973417282104e-02 1.804421991109848022e-01
-1.610125601291656494e-01 9.950949251651763916e-02 3.801766335964202881e-01
-4.777733683586120605e-01 -2.748649194836616516e-02 -7.168424129486083984e-02
-4.085442423820495605e-01 8.750953525304794312e-02 2.943858206272125244e-01
-2.161169648170471191e-01 1.148100346326828003e-01 2.043496370315551758e-01
-1.141860783100128174e-01 -3.962031379342079163e-02 4.267980158329010010e-02
-8.989240229129791260e-02 8.680903166532516479e-02 2.706725597381591797e-01
-2.021577358245849609e-01 -9.890963882207870483e-02 1.855028718709945679e-01
-2.103522419929504395e-01 7.098834216594696045e-02 -1.405373215675354004e-03
-1.644753962755203247e-01 7.764198631048202515e-02 5.750186741352081299e-02
-1.011437475681304932e-01 -5.399432033300399780e-02 9.925408661365509033e-02
-3.105748295783996582e-01 8.647979050874710083e-02 4.119117259979248047e-01
-2.364508062601089478e-01 -1.028951928019523621e-01 1.875702440738677979e-01
-5.272983908653259277e-01 1.376139931380748749e-03 2.173544466495513916e-02
-5.105954408645629883e-02 5.601987242698669434e-02 3.738739490509033203e-01
-2.470912784337997437e-01 5.517495796084403992e-02 -5.506046116352081299e-02
-2.355741858482360840e-01 -9.640975296497344971e-02 2.741569280624389648e-01
-1.827461570501327515e-01 -7.084950059652328491e-02 1.579706370830535889e-02
-3.343169391155242920e-01 -1.037581562995910645e-01 1.460346877574920654e-01
-2.465468198060989380e-01 1.105672419071197510e-01 3.459263443946838379e-01
-2.850648760795593262e-01 -2.861061692237854004e-02 4.659752249717712402e-01
-9.728437662124633789e-02 8.328854292631149292e-02 3.744501471519470215e-01
-4.056332111358642578e-01 7.585092633962631226e-02 -1.053044199943542480e-02
-2.754415869712829590e-01 -1.047627180814743042e-01 1.851639896631240845e-01
-1.823384165763854980e-01 -3.875793889164924622e-02 4.645616114139556885e-01
-3.257655799388885498e-01 -5.705398321151733398e-02 3.974244296550750732e-01
-1.921310424804687500e-01 8.422702550888061523e-02 4.494131505489349365e-01
-4.238007068634033203e-01 -4.022036120295524597e-02 -1.032527983188629150e-01
-5.948506295680999756e-02 -3.775515407323837280e-02 3.520717620849609375e-01
-4.977940320968627930e-01 1.169313676655292511e-02 2.626226544380187988e-01
-3.597816228866577148e-01 1.077051758766174316e-01 2.557380497455596924e-01
-7.209514081478118896e-02 -9.080929681658744812e-03 8.658319711685180664e-02
-1.262191087007522583e-01 -1.518396846950054169e-02 4.789687991142272949e-01
-3.622578382492065430e-01 9.695832431316375732e-02 5.100245773792266846e-02
-5.059085786342620850e-02 3.505804389715194702e-02 4.166750907897949219e-01
-1.125690191984176636e-01 -7.594604045152664185e-02 2.293222397565841675e-01
-9.715577960014343262e-02 -5.888208001852035522e-02 1.273712515830993652e-01
-3.155928552150726318e-01 9.289479255676269531e-02 2.072820067405700684e-02
-2.510372400283813477e-01 -1.042530611157417297e-01 1.672913730144500732e-01
-3.223489522933959961e-01 -6.731949746608734131e-02 -7.829511165618896484e-02
-3.598724603652954102e-01 7.902482897043228149e-02 -2.162609994411468506e-02
-1.102881431579589844e-01 -5.426203086972236633e-02 3.860270380973815918e-01
-2.143795788288116455e-01 -5.747827887535095215e-02 4.295297265052795410e-01
-2.604078948497772217e-01 7.658854126930236816e-02 -1.688520610332489014e-02
-1.430142819881439209e-01 -3.961180895566940308e-02 4.500682353973388672e-01
-1.868068873882293701e-01 -8.126511424779891968e-02 3.429175019264221191e-01
-4.739411771297454834e-01 7.053348422050476074e-02 1.958046406507492065e-01
-2.465988695621490479e-01 -9.289078414440155029e-02 3.003286123275756836e-01
-3.368412852287292480e-01 4.872332885861396790e-02 4.543320536613464355e-01
-1.123103797435760498e-01 -7.431425154209136963e-02 1.812783628702163696e-01
-3.802421689033508301e-02 -2.536969259381294250e-02 3.218415975570678711e-01
-9.444810450077056885e-02 7.755243033170700073e-02 3.966594040393829346e-01
-2.189007401466369629e-01 1.131751611828804016e-01 3.207611441612243652e-01
-4.735528230667114258e-01 -5.822700262069702148e-02 -1.592038571834564209e-02
-4.288470745086669922e-01 1.421529613435268402e-02 3.801829516887664795e-01
-4.403072595596313477e-01 -5.215482041239738464e-02 -7.474672794342041016e-02
-4.254791140556335449e-01 8.721265196800231934e-02 6.551438570022583008e-02
-5.236288905143737793e-01 2.401970140635967255e-02 1.624410599470138550e-01
-4.262153208255767822e-01 -6.572406738996505737e-02 2.724224030971527100e-01
-2.890944778919219971e-01 -1.014010235667228699e-01 2.316552400588989258e-01
-5.334247350692749023e-01 7.465964183211326599e-03 1.117934584617614746e-01
-3.678268194198608398e-01 4.252818971872329712e-02 -9.823167324066162109e-02
-1.170829981565475464e-01 6.817115843296051025e-02 9.400315582752227783e-02
-2.918108999729156494e-01 -1.048120185732841492e-01 1.112850010395050049e-01
-4.840836524963378906e-01 5.299691110849380493e-05 2.908465266227722168e-01
-3.122521638870239258e-01 -8.776219934225082397e-02 3.078646063804626465e-01
-3.676302433013916016e-01 -4.211488738656044006e-02 -1.174036264419555664e-01
-6.872755289077758789e-02 -3.268011659383773804e-02 3.907603919506072998e-01
-2.720093727111816406e-01 1.180201098322868347e-01 2.239543646574020386e-01
-4.787019491195678711e-01 6.475900113582611084e-02 5.364480614662170410e-02
-1.088431924581527710e-01 7.919316738843917847e-02 4.126236736774444580e-01
-5.311425030231475830e-02 3.233047947287559509e-02 1.454800367355346680e-01
-1.684045493602752686e-01 -4.969662800431251526e-02 4.392461180686950684e-01
-4.207344651222229004e-01 8.413939177989959717e-02 3.929141163825988770e-02
-1.182346045970916748e-01 9.737073630094528198e-02 2.612631618976593018e-01
-1.114364564418792725e-01 9.021110832691192627e-02 2.015324831008911133e-01
-1.737323701381683350e-01 2.978429012000560760e-02 5.119308233261108398e-01
-1.367543488740921021e-01 6.757177412509918213e-02 6.393578648567199707e-02
-2.713515758514404297e-01 1.106029450893402100e-01 3.380672931671142578e-01
-2.089687287807464600e-01 -9.660658240318298340e-02 1.085586398839950562e-01
-2.229447513818740845e-01 -1.005234718322753906e-01 1.304289251565933228e-01
-2.459269315004348755e-01 -2.705426141619682312e-02 -9.815803170204162598e-02
-1.715025752782821655e-01 -1.854641921818256378e-02 4.910551607608795166e-01
-5.020369887351989746e-01 -1.236131787300109863e-02 2.418706417083740234e-01
-1.671331971883773804e-01 -7.895819842815399170e-02 6.594101339578628540e-02
-3.360411524772644043e-01 -6.885161995887756348e-02 3.607761263847351074e-01
-1.568955332040786743e-01 7.396606728434562683e-03 -3.385707736015319824e-02
-1.591018140316009521e-01 -8.056160807609558105e-02 3.235137462615966797e-01
-4.049513339996337891e-01 5.267438665032386780e-02 -7.119882106781005859e-02
-3.277584314346313477e-01 1.056548506021499634e-01 3.239159286022186279e-01
-2.904904782772064209e-01 5.936743319034576416e-02 4.715809524059295654e-01
-5.306568145751953125e-01 1.205719076097011566e-02 1.370697170495986938e-01
-9.675695002079010010e-02 5.770111829042434692e-02 4.522750079631805420e-01
-3.499665260314941406e-01 1.117435097694396973e-01 1.956292688846588135e-01
-4.696262180805206299e-01 -6.800758838653564453e-02 2.469964325428009033e-02
-1.015150994062423706e-01 9.065894782543182373e-02 3.245849609375000000e-01
-4.063008725643157959e-02 -3.181498870253562927e-02 2.451165020465850830e-01
-1.948629319667816162e-01 1.012498140335083008e-01 1.165787875652313232e-01
-4.400160312652587891e-01 -3.340387716889381409e-02 3.297798037528991699e-01
-3.585580885410308838e-01 -5.761637538671493530e-02 -9.775441884994506836e-02
-4.453459382057189941e-01 3.941134363412857056e-02 -7.075196504592895508e-02
-1.686140894889831543e-01 8.629348874092102051e-02 8.084561675786972046e-02
-1.824440658092498779e-01 6.737023126333951950e-03 -5.780149996280670166e-02
-4.045743644237518311e-01 -3.368512168526649475e-02 3.735078573226928711e-01
-1.579930484294891357e-01 -8.932113647460937500e-02 2.368884682655334473e-01
-2.219330966472625732e-01 -3.816065564751625061e-02 4.675823748111724854e-01
-5.000373125076293945e-01 -5.152410268783569336e-02 3.639404475688934326e-02
-4.528632760047912598e-01 7.295645028352737427e-02 3.424975275993347168e-02
-6.659509241580963135e-02 5.989819020032882690e-02 4.032709002494812012e-01
-4.043638706207275391e-01 7.106962800025939941e-02 3.545622825622558594e-01
-3.180131614208221436e-01 -6.937909871339797974e-02 3.709038496017456055e-01
-2.806890308856964111e-01 -2.176263928413391113e-02 -1.167478859424591064e-01
-2.816260159015655518e-01 -9.715839475393295288e-02 3.722319006919860840e-02
-2.601731717586517334e-01 -9.381138533353805542e-02 3.039830923080444336e-02
-4.587047398090362549e-01 4.524665698409080505e-02 3.161589801311492920e-01
-6.399746239185333252e-02 1.299399510025978088e-02 1.024848446249961853e-01
-4.196722507476806641e-01 4.099046811461448669e-02 -8.471792936325073242e-02
-1.288460642099380493e-01 -7.351238280534744263e-02 1.159599646925926208e-01
-2.108388096094131470e-01 -8.798917382955551147e-02 3.198857307434082031e-01
-4.560484886169433594e-01 -6.517735868692398071e-02 2.166823148727416992e-01
-2.681136727333068848e-01 1.178717687726020813e-01 2.509114444255828857e-01
-1.147017925977706909e-01 -5.330729857087135315e-02 6.956873089075088501e-02
-1.172395646572113037e-01 -6.956387311220169067e-02 3.264421224594116211e-01
-2.259478271007537842e-01 -1.017837375402450562e-01 1.518416106700897217e-01
-4.463152885437011719e-01 -6.617919355630874634e-02 -3.219440579414367676e-02
-3.388207852840423584e-01 -1.027917861938476562e-01 9.476408362388610840e-02
-4.451322555541992188e-02 -2.415668033063411713e-02 1.811795532703399658e-01
-3.805685043334960938e-01 4.224071651697158813e-02 4.228271245956420898e-01
-4.964765310287475586e-01 5.972926318645477295e-02 1.242664530873298645e-01
-7.077829539775848389e-02 7.709395140409469604e-02 2.693969011306762695e-01
-4.166094362735748291e-01 -7.714953273534774780e-02 -2.445338666439056396e-02
-4.462623894214630127e-01 7.845977693796157837e-02 2.495653033256530762e-01
-2.766155302524566650e-01 -8.595104515552520752e-02 3.315137326717376709e-01
-3.142270147800445557e-01 -9.130619466304779053e-02 -3.536760807037353516e-03
-4.961433708667755127e-01 -3.362779691815376282e-02 -3.566136956214904785e-02
-2.487574368715286255e-01 -8.253507316112518311e-02 3.509084880352020264e-01
-3.244950771331787109e-01 1.000964492559432983e-01 3.554991185665130615e-01
-1.868488490581512451e-01 -6.642039865255355835e-02 4.004837274551391602e-01
-4.312896132469177246e-01 5.460859276354312897e-03 -1.135751605033874512e-01
-8.905956149101257324e-02 6.606972962617874146e-02 4.256177544593811035e-01
-1.906650066375732422e-01 1.038957461714744568e-01 1.370187848806381226e-01
-1.888980567455291748e-01 1.129564121365547180e-01 2.422486394643783569e-01
-1.439472436904907227e-01 5.804621055722236633e-02 3.377373516559600830e-02
-5.261285901069641113e-01 -2.202257886528968811e-02 4.026956856250762939e-02
-4.470372796058654785e-01 -7.548228651285171509e-02 1.282967627048492432e-02
-5.246350765228271484e-01 -2.020167652517557144e-03 1.761705130338668823e-01
-2.024147957563400269e-01 1.147360652685165405e-01 2.677379250526428223e-01
-1.116824597120285034e-01 -7.526355981826782227e-02 2.042673975229263306e-01
-4.035158753395080566e-01 -9.577112272381782532e-03 4.006750583648681641e-01
-8.123056590557098389e-02 5.392991378903388977e-02 1.222217157483100891e-01
-3.325895667076110840e-01 -8.043017983436584473e-02 3.250654339790344238e-01
-1.990492045879364014e-01 9.397107362747192383e-02 7.824338972568511963e-02
-5.211192369461059570e-02 -4.020026698708534241e-02 3.073107600212097168e-01
-4.752456545829772949e-01 -4.583225399255752563e-02 -4.815322160720825195e-02
-4.897578954696655273e-01 -3.534282371401786804e-02 2.344271093606948853e-01
-2.172866165637969971e-01 1.107659414410591125e-01 3.421506583690643311e-01
-3.752804398536682129e-01 -7.022342085838317871e-02 3.229942321777343750e-01
-2.731406986713409424e-01 8.732365071773529053e-02 8.928343653678894043e-03
-3.017142415046691895e-01 1.081679090857505798e-01 9.757418185472488403e-02
-4.495985507965087891e-01 8.467517793178558350e-02 1.239387542009353638e-01
-4.380993843078613281e-01 7.039189338684082031e-02 7.111579179763793945e-04
-3.795378208160400391e-01 1.053527370095252991e-01 1.445913910865783691e-01
-4.857513904571533203e-01 -1.587925665080547333e-02 2.755730450153350830e-01
-5.200307369232177734e-01 2.774229459464550018e-02 3.610765933990478516e-02
-3.410739302635192871e-01 -4.419314488768577576e-02 -1.154424846172332764e-01
-2.205632179975509644e-01 1.066729426383972168e-01 3.700850009918212891e-01
-2.321145534515380859e-01 -8.861040323972702026e-02 3.225743770599365234e-01
-1.250277310609817505e-01 -7.347979117184877396e-03 1.356422901153564453e-03
-5.921846628189086914e-02 5.398816615343093872e-02 1.768754124641418457e-01
-1.247604489326477051e-01 -2.789842709898948669e-02 4.609267115592956543e-01
-2.475125789642333984e-01 1.045977696776390076e-01 3.794228434562683105e-01
-4.238890409469604492e-01 -5.707892030477523804e-02 3.024922609329223633e-01
-4.159867763519287109e-01 2.688319794833660126e-02 3.935252130031585693e-01
-4.798634648323059082e-01 5.488632619380950928e-02 1.008693873882293701e-02
-4.050323367118835449e-01 -6.150457262992858887e-02 -7.872307300567626953e-02
-3.108306825160980225e-01 1.702734082937240601e-02 -1.204628944396972656e-01
-1.594239920377731323e-01 -6.762091070413589478e-02 3.835205435752868652e-01
-1.012463569641113281e-01 2.738735824823379517e-02 4.830983579158782959e-01
-2.674866020679473877e-01 -6.532653421163558960e-02 -6.449073553085327148e-02
-1.990144699811935425e-01 8.580952137708663940e-02 4.844552278518676758e-02
-3.831933140754699707e-01 -8.961105346679687500e-02 7.191404700279235840e-03
-3.839518427848815918e-01 1.011111214756965637e-01 2.626599967479705811e-01
-9.211564064025878906e-02 2.955811098217964172e-02 6.277073919773101807e-02
-2.962865829467773438e-01 1.171298101544380188e-01 2.326692342758178711e-01
-8.229658007621765137e-02 -5.958782881498336792e-02 2.971319556236267090e-01
-4.385161399841308594e-01 -2.099271863698959351e-02 3.486128151416778564e-01
-2.665029466152191162e-01 1.095760613679885864e-01 1.125868335366249084e-01
-1.933938413858413696e-01 -8.054368942975997925e-02 3.546689450740814209e-02
-2.404667437076568604e-01 -9.872582554817199707e-02 8.068376034498214722e-02
-3.466229736804962158e-01 1.115707829594612122e-01 2.326589971780776978e-01
-3.860107362270355225e-01 8.327598683536052704e-03 -1.273923516273498535e-01
-2.586886584758758545e-01 -2.972083911299705505e-02 4.734351933002471924e-01
-3.041831254959106445e-01 6.960251182317733765e-02 4.503851830959320068e-01
-1.491679400205612183e-01 -8.487700670957565308e-02 1.433165371417999268e-01
-4.250372648239135742e-01 -8.703479915857315063e-02 1.452786326408386230e-01
-7.717610895633697510e-02 -3.308088332414627075e-02 1.024305149912834167e-01
-4.809330105781555176e-01 3.539792075753211975e-02 2.847624123096466064e-01
-3.916015028953552246e-01 9.907834976911544800e-02 9.586795419454574585e-02
-4.469185471534729004e-01 -7.844877988100051880e-02 3.580668568611145020e-02
-3.795619010925292969e-01 -7.122037559747695923e-02 -6.583005189895629883e-02
-2.932012379169464111e-01 9.930682927370071411e-02 4.938672482967376709e-02
-3.269383311271667480e-01 1.099075675010681152e-01 1.187848299741744995e-01
-2.638292610645294189e-01 4.336281679570674896e-03 5.001803040504455566e-01
-3.809154033660888672e-01 -8.385738730430603027e-02 -2.329599857330322266e-02
-3.225136995315551758e-01 3.897615894675254822e-02 -1.023788154125213623e-01
-3.797990679740905762e-01 8.948265016078948975e-02 2.529528737068176270e-02
-2.385765463113784790e-01 -1.005387008190155029e-01 1.012422367930412292e-01
-1.851808130741119385e-01 -9.575586020946502686e-02 2.104657143354415894e-01
-4.074216783046722412e-01 -6.248196959495544434e-02 -3.600330948829650879e-01
-3.594318330287933350e-01 -1.062638834118843079e-01 -7.116369158029556274e-02
-2.271570712327957153e-01 3.029388934373855591e-02 -1.538284868001937866e-01
-2.885963916778564453e-01 1.068953946232795715e-01 -7.684178650379180908e-02
-2.373630702495574951e-01 -8.399241603910923004e-03 -2.683002352714538574e-01
-2.386223077774047852e-01 5.260053649544715881e-02 -1.006890088319778442e-01
-2.632757127285003662e-01 -1.945826411247253418e-02 -3.507215976715087891e-01
-4.615575671195983887e-01 -1.008004769682884216e-01 -1.614428013563156128e-01
-4.237177073955535889e-01 4.946278408169746399e-02 8.101774752140045166e-02
-4.231788814067840576e-01 -5.571542680263519287e-02 -3.613567948341369629e-01
-4.088368713855743408e-01 1.202770695090293884e-01 -1.324617266654968262e-01
-5.101785659790039062e-01 -7.481393404304981232e-03 -2.205394059419631958e-01
-2.507490515708923340e-01 5.240394920110702515e-02 -4.058800935745239258e-01
-2.568911612033843994e-01 -2.893380820751190186e-02 -2.990914881229400635e-01
-5.150329470634460449e-01 1.561871729791164398e-02 -1.404303163290023804e-01
-4.601783752441406250e-01 -4.531276598572731018e-02 1.053104549646377563e-01
-4.283722639083862305e-01 1.003008708357810974e-01 -3.233826160430908203e-01
-3.210738301277160645e-01 1.407385021448135376e-01 -2.494398057460784912e-01
-2.789587378501892090e-01 1.308910846710205078e-01 -2.451769411563873291e-01
-3.344764411449432373e-01 1.229360029101371765e-01 -8.429420739412307739e-02
-4.313214421272277832e-01 1.074195131659507751e-01 -1.090479195117950439e-01
-2.264454066753387451e-01 7.399885356426239014e-02 -2.899709343910217285e-01
-3.791229724884033203e-01 1.347309947013854980e-01 -2.367768585681915283e-01
-4.423685371875762939e-01 2.907356992363929749e-02 -4.007559716701507568e-01
-3.421580195426940918e-01 -3.574828058481216431e-02 -4.166761636734008789e-01
-4.993894100189208984e-01 2.428247034549713135e-02 -1.036068797111511230e-02
-2.349290251731872559e-01 1.511837821453809738e-02 -1.158849745988845825e-01
-2.888740003108978271e-01 9.944196790456771851e-02 -4.254072308540344238e-01
-5.067319869995117188e-01 6.556252483278512955e-03 -2.331820130348205566e-01
-2.637550830841064453e-01 -3.749198466539382935e-02 -7.971045374870300293e-02
-4.496721029281616211e-01 6.554590165615081787e-02 -3.550699651241302490e-01
-2.392132431268692017e-01 -1.536286715418100357e-02 -1.689753979444503784e-01
-3.700981438159942627e-01 1.240516826510429382e-01 -9.200067073106765747e-02
-4.150364696979522705e-01 1.214386522769927979e-01 -2.235351502895355225e-01
-2.371818721294403076e-01 -4.772388376295566559e-03 -1.388576626777648926e-01
-2.764776945114135742e-01 1.287569850683212280e-01 -2.947239279747009277e-01
-3.248100280761718750e-01 -8.387727290391921997e-02 -2.610928714275360107e-01
-4.765225648880004883e-01 7.769052684307098389e-02 -1.489150524139404297e-01
-3.908289670944213867e-01 1.104624643921852112e-01 -3.717430233955383301e-01
-3.443235754966735840e-01 1.201945766806602478e-01 -3.908109068870544434e-01
-4.487864971160888672e-01 3.025807067751884460e-02 8.621151745319366455e-02
-4.058233201503753662e-01 1.257484108209609985e-01 -2.047824263572692871e-01
-3.822187185287475586e-01 -7.698369771242141724e-02 -3.333287537097930908e-01
-4.258031249046325684e-01 -8.545664697885513306e-02 7.490591704845428467e-02
-3.138203918933868408e-01 -8.765220642089843750e-02 -1.879241466522216797e-01
-2.654016017913818359e-01 -1.956273987889289856e-02 -3.265768289566040039e-02
-3.901784420013427734e-01 -4.151811078190803528e-02 -4.057270884513854980e-01
-4.994680583477020264e-01 -2.055250480771064758e-02 -2.622145414352416992e-01
-5.174086093902587891e-01 -1.766294986009597778e-02 -1.712921559810638428e-01
-4.345861077308654785e-01 -1.121381670236587524e-01 -5.210567265748977661e-02
-2.914413809776306152e-01 8.841530978679656982e-02 -4.424329996109008789e-01
-3.295752704143524170e-01 8.572684228420257568e-02 1.892460882663726807e-02
-5.177195072174072266e-01 1.857417635619640350e-03 -1.527579128742218018e-01
-4.359259605407714844e-01 1.070344597101211548e-01 -2.556809186935424805e-01
-3.075118064880371094e-01 -2.151535823941230774e-02 6.183911859989166260e-02
-2.434349507093429565e-01 6.498302519321441650e-02 -3.852071464061737061e-01
-3.812334537506103516e-01 -5.967511236667633057e-02 -3.756546974182128906e-01
-2.464167773723602295e-01 1.089323908090591431e-01 -2.809301614761352539e-01
-4.113098382949829102e-01 -1.140876412391662598e-01 -5.804658681154251099e-02
-2.224208414554595947e-01 5.302496254444122314e-02 -2.045091390609741211e-01
-3.576817810535430908e-01 -7.899052649736404419e-02 -3.213822245597839355e-01
-3.718533515930175781e-01 5.182860046625137329e-02 -4.679211974143981934e-01
-3.842185139656066895e-01 6.518279761075973511e-02 7.112053036689758301e-02
-3.743271827697753906e-01 -1.063260883092880249e-01 -3.010900318622589111e-02
-5.037785768508911133e-01 4.170460253953933716e-02 -1.348026096820831299e-01
-3.384034931659698486e-01 -8.001232147216796875e-02 2.041481435298919678e-02
-2.227718979120254517e-01 2.598448842763900757e-02 -2.365990281105041504e-01
-3.080237507820129395e-01 -7.801029831171035767e-02 -2.490782886743545532e-01
-5.201173424720764160e-01 -6.714547984302043915e-03 -9.030408412218093872e-02
-3.713700473308563232e-01 1.234625354409217834e-01 -3.543933629989624023e-01
-3.361017107963562012e-01 -4.775335639715194702e-02 7.923169434070587158e-02
-3.778184950351715088e-01 -2.464261651039123535e-02 -4.326918721199035645e-01
-3.448490202426910400e-01 3.241786733269691467e-02 9.773458540439605713e-02
-4.147010445594787598e-01 -9.209172427654266357e-02 5.934277176856994629e-02
-3.374796211719512939e-01 -9.915105998516082764e-02 -1.741369217634201050e-01
-2.574649453163146973e-01 -3.744134679436683655e-02 -1.182012110948562622e-01
-4.169182777404785156e-01 1.029190793633460999e-01 -3.444302380084991455e-01
-3.249042630195617676e-01 6.648017466068267822e-02 -4.725965261459350586e-01
-4.983830451965332031e-01 -7.062675803899765015e-02 -3.876402974128723145e-03
-2.992939949035644531e-01 -1.920128241181373596e-02 -4.142407476902008057e-01
-5.156183242797851562e-01 1.026851125061511993e-03 -1.787170469760894775e-01
-2.460581362247467041e-01 -2.667059190571308136e-03 -3.359530568122863770e-01
-4.020444750785827637e-01 -3.268582001328468323e-02 1.330183297395706177e-01
-5.040630102157592773e-01 -2.299283072352409363e-02 2.833048999309539795e-02
-4.217709302902221680e-01 1.183533221483230591e-01 -2.023899853229522705e-01
-2.782975137233734131e-01 -5.441097915172576904e-02 -2.743201851844787598e-01
-2.738730907440185547e-01 -5.315941572189331055e-02 -9.129106253385543823e-02
-4.819597601890563965e-01 -9.379918128252029419e-02 -1.176767945289611816e-01
-3.233968615531921387e-01 -6.246048957109451294e-02 3.630168735980987549e-02
-3.593153953552246094e-01 -3.408811986446380615e-02 -4.224711656570434570e-01
-2.716598510742187500e-01 1.213286519050598145e-01 -3.368545174598693848e-01
-4.239406883716583252e-01 -4.347256571054458618e-02 1.271262317895889282e-01
-3.740951418876647949e-01 1.349243521690368652e-01 -2.667662501335144043e-01
-3.315627872943878174e-01 1.474961731582880020e-02 -4.695385694503784180e-01
-3.950259983539581299e-01 8.343937993049621582e-02 -4.229291677474975586e-01
-4.714778065681457520e-01 -6.815878301858901978e-02 -2.663690447807312012e-01
-4.902187585830688477e-01 6.208224594593048096e-02 -1.472229361534118652e-01
-2.328442782163619995e-01 -4.499231465160846710e-03 -2.319367229938507080e-01
-2.401314824819564819e-01 9.322715550661087036e-02 -3.315348029136657715e-01
-2.289025783538818359e-01 5.331113189458847046e-02 -1.484533250331878662e-01
-2.284541130065917969e-01 5.800921097397804260e-02 -3.295993804931640625e-01
-4.609464406967163086e-01 -6.049942225217819214e-02 -3.038316071033477783e-01
-3.744495809078216553e-01 1.313732117414474487e-01 -1.449360996484756470e-01
-4.733290672302246094e-01 -3.452027961611747742e-02 9.390796720981597900e-02
-2.923475503921508789e-01 1.352344602346420288e-01 -2.309422343969345093e-01
-2.410621792078018188e-01 3.620688617229461670e-02 -3.753762841224670410e-01
-4.308036267757415771e-01 1.123250499367713928e-01 -2.330160140991210938e-01
-3.725879788398742676e-01 -2.773835882544517517e-02 1.256194263696670532e-01
-4.742271006107330322e-01 -9.785772860050201416e-02 -3.868925571441650391e-02
-4.986279010772705078e-01 4.274915531277656555e-02 -2.116028517484664917e-01
-4.954978823661804199e-01 -7.762052863836288452e-02 -1.539275348186492920e-01
-4.333971142768859863e-01 -5.903306603431701660e-02 -3.451577425003051758e-01
-2.770777940750122070e-01 -5.800727754831314087e-02 -2.456130385398864746e-01
-4.873323440551757812e-01 1.877091638743877411e-02 3.790032863616943359e-02
-3.907952606678009033e-01 -5.214431881904602051e-02 -3.878478705883026123e-01
-3.520441651344299316e-01 -6.054470688104629517e-02 8.142440021038055420e-02
-2.585335373878479004e-01 1.070568617433309555e-02 -3.945865929126739502e-01
-3.896729350090026855e-01 1.289952546358108521e-01 -1.568037271499633789e-01
-2.307424694299697876e-01 2.032275311648845673e-02 -1.362283229827880859e-01
-4.812226891517639160e-01 7.008775323629379272e-02 -2.092414647340774536e-01
-4.221902489662170410e-01 1.103034690022468567e-01 -2.974964380264282227e-01
-3.866500854492187500e-01 8.196177333593368530e-02 3.878721594810485840e-02
-3.801100254058837891e-01 -1.017841249704360962e-01 -2.364419102668762207e-01
-5.060259103775024414e-01 -3.073070943355560303e-02 -2.279288768768310547e-01
-2.947139441967010498e-01 -7.224671542644500732e-02 -2.342623174190521240e-01
-4.068960547447204590e-01 1.229225918650627136e-01 -1.523834168910980225e-01
-3.301544487476348877e-01 -9.729921817779541016e-02 -1.346176266670227051e-01
-3.200385570526123047e-01 1.403734982013702393e-01 -2.287463843822479248e-01
-2.853321433067321777e-01 -3.801836445927619934e-02 -3.543432950973510742e-01
-3.667401671409606934e-01 -9.712098538875579834e-02 -2.529344558715820312e-01
-4.774932861328125000e-01 -8.125342428684234619e-04 7.903094589710235596e-02
-3.420636653900146484e-01 1.360650509595870972e-01 -3.184632062911987305e-01
-3.551214635372161865e-01 -1.039342731237411499e-01 -1.860416382551193237e-01
-4.686428606510162354e-01 5.368648469448089600e-02 -3.229141533374786377e-01
-4.590093195438385010e-01 -1.069143563508987427e-01 -8.470642566680908203e-02
-5.014858245849609375e-01 -5.774080008268356323e-02 -1.990735679864883423e-01
-4.527088999748229980e-01 -7.739112526178359985e-02 -2.781364619731903076e-01
-2.902433276176452637e-01 1.190271750092506409e-01 -3.812546730041503906e-01
-2.447416186332702637e-01 1.697942428290843964e-02 -6.983023881912231445e-02
-3.951674401760101318e-01 4.113018512725830078e-02 -4.547651410102844238e-01
-4.957990646362304688e-01 -8.282686769962310791e-02 -5.824002623558044434e-02
-3.350332975387573242e-01 8.944058418273925781e-02 -4.538341164588928223e-01
-2.844601273536682129e-01 1.245635747909545898e-01 -1.566382348537445068e-01
-4.754160642623901367e-01 1.598039641976356506e-02 -3.377130031585693359e-01
-3.641763627529144287e-01 1.205820813775062561e-01 -7.245742529630661011e-02
-3.576775491237640381e-01 -1.022655963897705078e-01 -3.864671289920806885e-02
-2.329447269439697266e-01 9.182759374380111694e-02 -2.674052417278289795e-01
-3.593230247497558594e-01 1.365017443895339966e-01 -1.737667471170425415e-01
-3.401443958282470703e-01 4.566722735762596130e-02 -4.785026907920837402e-01
-2.832732200622558594e-01 -6.812997907400131226e-02 -1.793461441993713379e-01
-2.505508661270141602e-01 -2.906157635152339935e-03 -6.351673603057861328e-02
-2.838242650032043457e-01 1.219709366559982300e-01 -3.613828122615814209e-01
-2.258134782314300537e-01 5.998532474040985107e-02 -1.792586892843246460e-01
-4.201286435127258301e-01 1.151100099086761475e-01 -2.735211253166198730e-01
-3.455960154533386230e-01 -9.187812358140945435e-02 -2.562882304191589355e-01
-3.075410723686218262e-01 -7.696749269962310791e-02 -5.182131379842758179e-02
-2.729698419570922852e-01 9.267812222242355347e-02 -6.855287402868270874e-02
-3.522880375385284424e-01 1.077006980776786804e-01 -2.479669451713562012e-02
-3.805713951587677002e-01 1.019308194518089294e-01 -1.067599654197692871e-02
-4.655186831951141357e-01 8.233863860368728638e-02 -8.953204005956649780e-02
-3.000639975070953369e-01 -7.844769209623336792e-02 -2.066215574741363525e-01
-3.669392466545104980e-01 1.302805095911026001e-01 -1.269513517618179321e-01
-4.563572406768798828e-01 5.615324154496192932e-02 3.122287988662719727e-02
-3.581225275993347168e-01 -8.408853411674499512e-02 -3.037682771682739258e-01
-2.303194701671600342e-01 3.300920128822326660e-03 -2.530601620674133301e-01
-4.148167073726654053e-01 -2.609635517001152039e-02 -4.103133082389831543e-01
-3.103030323982238770e-01 -7.053608447313308716e-02 -1.530748605728149414e-02
-2.579655051231384277e-01 8.621979504823684692e-04 -3.400401771068572998e-02
-4.811197817325592041e-01 5.874522775411605835e-02 -2.643634974956512451e-01
-2.945500016212463379e-01 -7.686301320791244507e-02 -1.581640988588333130e-01
-4.663877487182617188e-01 -4.080234095454216003e-02 -3.262039422988891602e-01
-3.513783812522888184e-01 9.201245009899139404e-02 1.632186770439147949e-02
-4.039235711097717285e-01 -6.794070452451705933e-02 1.048899441957473755e-01
-3.819068372249603271e-01 3.271450847387313843e-02 -4.650423526763916016e-01
-3.870765566825866699e-01 -1.065778434276580811e-01 -1.222424209117889404e-02
-3.390348851680755615e-01 1.407146006822586060e-01 -2.219715863466262817e-01
-4.464770853519439697e-01 8.963353931903839111e-02 -5.488587170839309692e-02
-4.437136352062225342e-01 -1.090451553463935852e-01 -3.460505604743957520e-02
-3.549761772155761719e-01 -9.841876477003097534e-02 -2.317081093788146973e-01
-3.113094568252563477e-01 -3.902100026607513428e-02 5.204038321971893311e-02
-2.940189838409423828e-01 -3.053123503923416138e-02 -3.867678046226501465e-01
-3.568647801876068115e-01 6.634159386157989502e-02 -4.682019352912902832e-01
-4.882931709289550781e-01 -4.633904621005058289e-02 -2.681382000446319580e-01
-3.202497959136962891e-01 -7.821213454008102417e-02 -2.804919183254241943e-01
-2.344522476196289062e-01 -7.307405583560466766e-03 -1.846794933080673218e-01
-3.799056410789489746e-01 9.425818175077438354e-02 1.120913028717041016e-02
-3.222898542881011963e-01 -9.330677986145019531e-02 -1.576325446367263794e-01
-3.805544376373291016e-01 1.340168416500091553e-01 -1.989787817001342773e-01
-3.575675487518310547e-01 8.321096003055572510e-02 3.671199083328247070e-02
-4.345756769180297852e-01 -1.129496246576309204e-01 -1.139146387577056885e-01
-4.617329835891723633e-01 -9.226302057504653931e-02 2.784696221351623535e-02
-3.024387657642364502e-01 1.313417851924896240e-01 -1.594587564468383789e-01
-4.493686556816101074e-01 5.155376344919204712e-02 -3.740773499011993408e-01
-5.102785825729370117e-01 -5.695278197526931763e-02 -1.491905152797698975e-01
-4.607983231544494629e-01 5.403190851211547852e-02 -3.444799780845642090e-01
-2.353422641754150391e-01 4.378614947199821472e-03 -3.030530810356140137e-01
-2.521634995937347412e-01 -3.041281178593635559e-02 -2.653771936893463135e-01
-3.956699371337890625e-01 -1.055184453725814819e-01 -2.188112735748291016e-01
-4.592826664447784424e-01 -1.053701713681221008e-01 -4.544386267662048340e-02
-2.936727702617645264e-01 -1.927622780203819275e-02 3.878901898860931396e-02
-4.483655393123626709e-01 5.225067213177680969e-02 5.171944200992584229e-02
-3.549258112907409668e-01 1.709898188710212708e-02 -4.713622331619262695e-01
-4.827448129653930664e-01 6.320697069168090820e-02 -7.055435329675674438e-02
-4.451008737087249756e-01 1.043085232377052307e-01 -1.971461772918701172e-01
-2.814881205558776855e-01 3.911129012703895569e-02 -4.509690999984741211e-01
-4.126912057399749756e-01 -1.118501499295234680e-01 -1.669329106807708740e-01
-4.313534498214721680e-01 -2.153252437710762024e-02 -3.985685706138610840e-01
-4.481492042541503906e-01 -2.363638207316398621e-02 -3.750715851783752441e-01
-2.209853529930114746e-01 5.006221681833267212e-02 -2.498295009136199951e-01
-4.341230392456054688e-01 1.674237474799156189e-02 1.127448827028274536e-01
-2.745751440525054932e-01 -3.538960218429565430e-02 -3.372053503990173340e-01
-4.373742043972015381e-01 1.089828982949256897e-01 -2.163670957088470459e-01
-3.398817777633666992e-01 1.067583113908767700e-01 -4.258694052696228027e-01
-3.265287280082702637e-01 -9.087114781141281128e-02 -6.111666560173034668e-02
-3.527826964855194092e-01 1.265901476144790649e-01 -9.819421917200088501e-02
-3.494847416877746582e-01 1.164382919669151306e-01 -5.443213135004043579e-02
-3.438658416271209717e-01 -1.156124938279390335e-02 1.098873466253280640e-01
-2.302394360303878784e-01 2.852332964539527893e-02 -3.245542049407958984e-01
-4.123787581920623779e-01 5.025007762014865875e-03 -4.356220960617065430e-01
-4.696258902549743652e-01 -9.364656358957290649e-02 -1.805403977632522583e-01
-3.911752998828887939e-01 -9.529026597738265991e-02 4.107962548732757568e-02
-3.705951571464538574e-01 9.279060363769531250e-02 -4.331331253051757812e-01
-2.585923671722412109e-01 -2.084041759371757507e-02 -3.329229950904846191e-01
-4.519694745540618896e-01 -3.304537013173103333e-02 1.170401424169540405e-01
-4.157151579856872559e-01 6.910447776317596436e-02 5.153235793113708496e-02
-4.639272391796112061e-01 -8.523565530776977539e-02 4.611842334270477295e-02
-3.810957968235015869e-01 1.249341592192649841e-01 -1.072856858372688293e-01
-4.543259739875793457e-01 -8.252474665641784668e-02 -2.603791654109954834e-01
-2.649002373218536377e-01 1.239049658179283142e-01 -2.554773092269897461e-01
-3.046581447124481201e-01 -6.594107300043106079e-02 -3.016515970230102539e-01
-4.045455753803253174e-01 9.392851591110229492e-02 -1.460671424865722656e-03
-4.550378918647766113e-01 -7.607080973684787750e-03 1.116336435079574585e-01
-3.777009248733520508e-01 -1.123027652502059937e-01 -1.049118116497993469e-01
-4.674166440963745117e-01 7.891378551721572876e-02 -2.568234205245971680e-01
-3.816874623298645020e-01 -1.116570159792900085e-01 -1.539979428052902222e-01
-4.461474418640136719e-01 -1.043881997466087341e-01 -3.151997923851013184e-03
-4.083343148231506348e-01 1.105617508292198181e-01 -6.883934140205383301e-02
-3.298980891704559326e-01 2.919303253293037415e-02 8.844445645809173584e-02
-2.300409376621246338e-01 4.094427078962326050e-02 -1.338448822498321533e-01
-4.161115288734436035e-01 -7.118581980466842651e-02 -3.350728750228881836e-01
-5.172582864761352539e-01 -2.478746324777603149e-02 -3.553748130798339844e-02
-4.512689411640167236e-01 2.474161610007286072e-02 -3.866451382637023926e-01
-3.082187771797180176e-01 1.251476556062698364e-01 -3.749338984489440918e-01
-3.788019120693206787e-01 -1.093614175915718079e-01 -4.655542224645614624e-02
-4.229401946067810059e-01 5.436956882476806641e-02 -4.175595641136169434e-01
-5.009520649909973145e-01 -6.104129552841186523e-02 1.011323928833007812e-02
-3.369896113872528076e-01 -9.334043413400650024e-02 -2.304410338401794434e-01
-3.975511193275451660e-01 1.970841363072395325e-02 1.226177364587783813e-01
-3.355441391468048096e-01 -5.854845046997070312e-02 -3.662981986999511719e-01
-4.296738207340240479e-01 1.113151609897613525e-01 -1.365912556648254395e-01
-5.050275325775146484e-01 3.561970219016075134e-02 -1.822868436574935913e-01
-3.887173831462860107e-01 1.290516108274459839e-01 -2.824560105800628662e-01
-3.242916762828826904e-01 1.082734316587448120e-01 -3.890886902809143066e-02
-2.995919883251190186e-01 5.211624875664710999e-02 -4.674652218818664551e-01
-4.770538806915283203e-01 7.672031223773956299e-02 -1.877833455801010132e-01
-5.193648338317871094e-01 -3.935012966394424438e-02 -1.003576368093490601e-01
-2.641121745109558105e-01 3.253715112805366516e-03 -1.457332074642181396e-02
-3.797207474708557129e-01 -9.321024268865585327e-02 -2.777541279792785645e-01
-3.526361584663391113e-01 1.399108618497848511e-01 -2.339046597480773926e-01
-2.346007972955703735e-01 5.653281882405281067e-02 -1.217922121286392212e-01
-3.326433897018432617e-01 -6.658212281763553619e-03 -4.524778723716735840e-01
-2.633432447910308838e-01 7.443589717149734497e-02 -4.223977327346801758e-01
-3.373830020427703857e-01 -6.737894564867019653e-02 5.017808079719543457e-02
-4.383651018142700195e-01 8.263186365365982056e-02 -9.660854935646057129e-03
-5.194123983383178711e-01 -2.007154375314712524e-02 -1.495074182748794556e-01
-4.892896115779876709e-01 -4.650638252496719360e-02 6.122595071792602539e-02
-2.227824777364730835e-01 2.943189069628715515e-02 -2.593536078929901123e-01
-2.671070396900177002e-01 1.208787262439727783e-01 -1.928902715444564819e-01
-4.862229228019714355e-01 -5.768682062625885010e-02 -2.531383633613586426e-01
-3.368987739086151123e-01 -8.499854803085327148e-02 3.879517316818237305e-04
-2.820232808589935303e-01 -1.181328669190406799e-03 2.592074871063232422e-02
-2.268076688051223755e-01 1.655345782637596130e-02 -1.771891862154006958e-01
-4.324361979961395264e-01 6.675425171852111816e-02 4.122504591941833496e-02
-4.444500207901000977e-01 -9.081877768039703369e-02 -2.480341196060180664e-01
-5.192182660102844238e-01 -6.266589276492595673e-03 -7.305728644132614136e-02
-4.063621759414672852e-01 -9.095904976129531860e-02 -2.833900749683380127e-01
-2.218281030654907227e-01 5.438777431845664978e-02 -2.703740000724792480e-01
-4.503936767578125000e-01 7.140529155731201172e-02 2.708241343498229980e-03
-2.881328165531158447e-01 7.405581325292587280e-02 -6.288453936576843262e-03
-3.959422111511230469e-01 1.192687600851058960e-01 -9.471913427114486694e-02
-2.860646247863769531e-01 1.141358241438865662e-01 -1.055063530802726746e-01
-5.178406834602355957e-01 -4.490657523274421692e-02 -7.621891796588897705e-02
-4.808960855007171631e-01 1.750890538096427917e-02 5.422577261924743652e-02
-4.685282409191131592e-01 3.216489031910896301e-02 5.625958740711212158e-02
-2.773877978324890137e-01 1.158633083105087280e-01 -1.312537193298339844e-01
-3.347013294696807861e-01 -9.167129546403884888e-02 -3.653268516063690186e-02
-4.844850301742553711e-01 3.071405738592147827e-02 -3.028572797775268555e-01
-3.585351407527923584e-01 1.222858875989913940e-01 -3.737842440605163574e-01
-4.890423417091369629e-01 -7.613433897495269775e-02 -1.919874846935272217e-01
-4.587650001049041748e-01 9.355530142784118652e-02 -1.507271230220794678e-01
-2.698171734809875488e-01 -4.459207877516746521e-02 -2.876493930816650391e-01
-4.146247208118438721e-01 8.831278234720230103e-02 -3.865724802017211914e-01
-3.661187589168548584e-01 1.055907085537910461e-01 -4.134191274642944336e-01
-3.706421554088592529e-01 7.589006423950195312e-02 -4.537303447723388672e-01
-3.141509294509887695e-01 9.739549458026885986e-02 -1.886802911758422852e-02
-3.402469754219055176e-01 1.389905363321304321e-01 -1.889325380325317383e-01
-2.395307272672653198e-01 2.172766253352165222e-02 -8.894072473049163818e-02
-4.269720613956451416e-01 -1.052561327815055847e-01 9.405374526977539062e-03
-3.193438351154327393e-01 1.356208473443984985e-01 -1.663663536310195923e-01
-3.307427763938903809e-01 -7.147001475095748901e-02 -3.238709568977355957e-01
-4.378370046615600586e-01 4.859246686100959778e-02 -3.985105752944946289e-01
-3.627547025680541992e-01 4.433491080999374390e-02 9.604938328266143799e-02
-4.574828445911407471e-01 8.587539941072463989e-02 -7.327724993228912354e-02
-5.096850991249084473e-01 -2.472377195954322815e-02 7.388070225715637207e-03
-4.336958527565002441e-01 -9.882153570652008057e-02 3.411681950092315674e-02
-3.839356601238250732e-01 9.662056714296340942e-02 -4.140460491180419922e-01
-4.140893220901489258e-01 8.206979930400848389e-02 2.309811115264892578e-02
-4.894558191299438477e-01 -8.028816431760787964e-02 -1.722567826509475708e-01
-2.410732507705688477e-01 1.530941482633352280e-02 -3.525837659835815430e-01
-4.562566578388214111e-01 9.497694671154022217e-02 -2.157059013843536377e-01
-3.831770122051239014e-01 -1.005272120237350464e-01 1.446186006069183350e-02
-3.781473040580749512e-01 -1.091630160808563232e-01 -1.797979921102523804e-01
-3.351503014564514160e-01 1.312396377325057983e-01 -1.254274696111679077e-01
-2.942975759506225586e-01 -5.395672470331192017e-02 -1.227374374866485596e-02
-3.453013896942138672e-01 1.311321109533309937e-01 -3.469266295433044434e-01
-3.374092578887939453e-01 -9.894665330648422241e-02 -8.740828186273574829e-02
-3.116877675056457520e-01 1.377021968364715576e-01 -1.986435651779174805e-01
-2.488849163055419922e-01 7.380630075931549072e-02 -9.238876402378082275e-02
-2.847082018852233887e-01 -5.559028685092926025e-02 -2.923262119293212891e-01
-2.492759823799133301e-01 1.051238030195236206e-01 -1.830331981182098389e-01
-4.244023859500885010e-01 9.208973497152328491e-02 -3.588725328445434570e-01
-5.115662813186645508e-01 -3.035647422075271606e-02 -2.011540085077285767e-01
-3.764062523841857910e-01 1.332791615277528763e-02 1.239309757947921753e-01
-3.096307814121246338e-01 1.302822083234786987e-01 -1.413199305534362793e-01
-4.086066484451293945e-01 1.056804135441780090e-01 -4.724489897489547729e-02
-4.952035248279571533e-01 5.238199234008789062e-02 -9.761269390583038330e-02
-5.093459486961364746e-01 -4.893628135323524475e-02 -6.185173988342285156e-03
-2.558192014694213867e-01 -4.032925143837928772e-02 -2.158028185367584229e-01
-5.063055157661437988e-01 2.921901270747184753e-02 -6.419603526592254639e-02
-4.163741171360015869e-01 -4.589268565177917480e-02 -3.834452629089355469e-01
-2.538114488124847412e-01 3.071600943803787231e-02 -3.889000415802001953e-02
-3.965908586978912354e-01 -1.142634451389312744e-01 -7.647639513015747070e-02
-2.717346847057342529e-01 6.353162974119186401e-02 -2.060091495513916016e-02
-2.700472772121429443e-01 2.657888457179069519e-02 -4.304528832435607910e-01
-3.988163471221923828e-01 -1.117254346609115601e-01 -3.806877136230468750e-02
-2.670911550521850586e-01 1.221231967210769653e-01 -3.140981197357177734e-01
-2.540043294429779053e-01 2.900918573141098022e-02 -4.034842848777770996e-01
-4.835576117038726807e-01 6.250812858343124390e-02 -2.364515364170074463e-01
-4.416361451148986816e-01 -3.875032439827919006e-02 -3.674182891845703125e-01
-4.345883131027221680e-01 -1.078062057495117188e-01 -1.761067807674407959e-01
-2.961912751197814941e-01 -7.631857693195343018e-02 -1.122241318225860596e-01
-2.615727186203002930e-01 -4.767065122723579407e-02 -1.940565556287765503e-01
-3.305842876434326172e-01 1.136249005794525146e-01 -4.129228293895721436e-01
-4.772240221500396729e-01 -7.976379245519638062e-02 -2.183550596237182617e-01
-2.516167461872100830e-01 7.193063944578170776e-02 -4.017095565795898438e-01
-4.468857944011688232e-01 -7.379689067602157593e-02 8.728219568729400635e-02
-2.984410226345062256e-01 2.685676887631416321e-02 5.335506796836853027e-02
-3.181751072406768799e-01 1.150389686226844788e-01 -6.525710225105285645e-02
-4.400819540023803711e-01 8.933722227811813354e-02 -3.732296824455261230e-02
-4.138557314872741699e-01 -1.027663648128509521e-01 2.282753586769104004e-02
-2.414828240871429443e-01 -8.045147173106670380e-03 -1.170338690280914307e-01
-4.249738454818725586e-01 1.906949281692504883e-02 -4.259715676307678223e-01
-3.100618124008178711e-01 8.248370885848999023e-02 7.981866598129272461e-03
-3.253639340400695801e-01 -9.459064155817031860e-02 -1.136905997991561890e-01
-5.074099302291870117e-01 3.173904120922088623e-02 -8.913806825876235962e-02
-4.225893616676330566e-01 -1.146046370267868042e-01 -7.742885500192642212e-02
-5.137479305267333984e-01 4.233457148075103760e-03 -4.203979671001434326e-02
-3.241837322711944580e-01 -6.458888202905654907e-02 -3.386128544807434082e-01
-2.787673771381378174e-01 5.770944058895111084e-02 -5.806088447570800781e-04
-2.440242618322372437e-01 9.300418198108673096e-02 -3.501444458961486816e-01
-4.187959730625152588e-01 7.457330077886581421e-02 -4.025368988513946533e-01
-3.255350887775421143e-01 -9.128532558679580688e-02 -2.109122276306152344e-01
-2.231961488723754883e-01 3.598883375525474548e-02 -1.884090006351470947e-01
-2.387406826019287109e-01 9.562838822603225708e-02 -3.132569193840026855e-01
-4.324664473533630371e-01 3.570573776960372925e-02 -4.139668941497802734e-01
-4.225049018859863281e-01 5.922948196530342102e-02 6.555020809173583984e-02
-3.353737890720367432e-01 1.398892998695373535e-01 -2.829877734184265137e-01
-4.030241966247558594e-01 8.914980292320251465e-02 -4.034200906753540039e-01
-3.785531818866729736e-01 -8.298913389444351196e-02 -3.150142431259155273e-01
-4.980695843696594238e-01 2.765147015452384949e-02 -2.526352703571319580e-01
-5.011355280876159668e-01 3.440707176923751831e-02 -4.841452836990356445e-02
-4.687926173210144043e-01 -5.915450863540172577e-03 9.524409472942352295e-02
-4.262703061103820801e-01 -1.045855954289436340e-01 -2.086444795131683350e-01
-4.895260930061340332e-01 4.238206148147583008e-02 -2.662304937839508057e-01
-3.876317441463470459e-01 1.178040206432342529e-01 -7.578768581151962280e-02
-3.041501343250274658e-01 1.251807957887649536e-01 -1.216697618365287781e-01
-3.400433361530303955e-01 1.566458679735660553e-02 1.035582870244979858e-01
-3.619675040245056152e-01 6.362566351890563965e-02 7.162584364414215088e-02
-2.977283596992492676e-01 1.353284418582916260e-01 -3.010939955711364746e-01
-2.888947129249572754e-01 -6.721667200326919556e-02 -8.506687730550765991e-02
-4.332150816917419434e-01 -7.472877949476242065e-02 -3.110769391059875488e-01
-2.948029935359954834e-01 1.117590665817260742e-01 -4.060344099998474121e-01
-4.241720139980316162e-01 -7.465942949056625366e-02 9.555058181285858154e-02
-2.977758049964904785e-01 -7.236150093376636505e-03 5.321967601776123047e-02
-4.806794226169586182e-01 -4.077566042542457581e-02 -2.959697842597961426e-01
-4.348367452621459961e-01 -1.118618398904800415e-01 -1.342082470655441284e-01
-3.313325047492980957e-01 -7.377383299171924591e-03 9.855280816555023193e-02
-2.211418747901916504e-01 4.354963079094886780e-02 -2.218366563320159912e-01
-3.667218685150146484e-01 1.293075233697891235e-01 -3.327289223670959473e-01
-4.760954380035400391e-01 7.833507657051086426e-02 -1.668774783611297607e-01
-4.321854114532470703e-01 1.772213727235794067e-04 1.247053295373916626e-01
-4.893888831138610840e-01 -2.652512118220329285e-02 -2.893112003803253174e-01
-3.980789780616760254e-01 1.283459812402725220e-01 -1.892185360193252563e-01
-3.563905954360961914e-01 1.377501338720321655e-01 -2.821525633335113525e-01
