4.634942859411239624e-02 -1.352583803236484528e-02 -1.143396552652120590e-02
-1.631485372781753540e-01 -1.353070326149463654e-02 1.495137065649032593e-01
-1.848243176937103271e-01 -1.353627908974885941e-02 2.879664301872253418e-02
1.849735900759696960e-02 -1.352978590875864029e-02 -1.852315217256546021e-01
-1.440287679433822632e-01 -1.353212073445320129e-02 -1.285976767539978027e-01
-9.090355038642883301e-02 -1.352842990309000015e-02 -4.727984964847564697e-02
5.166224390268325806e-02 -1.352688204497098923e-02 -7.718756794929504395e-02
2.761710435152053833e-03 -1.353403180837631226e-02 -2.325222790241241455e-01
9.043514728546142578e-02 -1.353277824819087982e-02 -1.020549535751342773e-01
-1.338631808757781982e-01 -1.353783439844846725e-02 -4.748310893774032593e-02
8.425601571798324585e-02 -1.352715305984020233e-02 -7.540478557348251343e-02
-6.556867063045501709e-02 -1.352642197161912918e-02 1.262960731983184814e-01
-8.418953418731689453e-02 -1.352858822792768478e-02 -6.900471448898315430e-02
-6.393250077962875366e-03 -1.353012025356292725e-02 -1.916394531726837158e-01
-1.101790592074394226e-01 -1.352871581912040710e-02 -2.518323436379432678e-02
-6.870658695697784424e-02 -1.353562902659177780e-02 -2.340362519025802612e-01
-2.884332463145256042e-02 -1.353485882282257080e-02 1.218294426798820496e-01
-1.305126696825027466e-01 -1.353698689490556717e-02 -1.807289272546768188e-01
2.717233821749687195e-02 -1.353181898593902588e-02 -2.185659110546112061e-01
-3.917181119322776794e-02 -1.353086251765489578e-02 -1.998026818037033081e-01
-5.237339437007904053e-02 -1.353734079748392105e-02 -1.515616923570632935e-01
-9.232637286186218262e-02 -1.353059336543083191e-02 2.496010512113571167e-01
-1.029076576232910156e-01 -1.353136450052261353e-02 2.389622032642364502e-01
-1.690495908260345459e-01 -1.353639829903841019e-02 5.423989146947860718e-02
-1.580423861742019653e-02 -1.352651417255401611e-02 -2.507037296891212463e-02
-2.011389285326004028e-01 -1.353430654853582382e-02 4.353187605738639832e-02
3.948196023702621460e-02 -1.352526247501373291e-02 4.819945245981216431e-02
3.385799378156661987e-02 -1.353344973176717758e-02 1.118218079209327698e-01
-1.219854354858398438e-01 -1.353672333061695099e-02 6.534278392791748047e-02
-6.524924933910369873e-02 -1.353455893695354462e-02 1.604167222976684570e-01
-3.832122310996055603e-02 -1.353715639561414719e-02 -5.979956686496734619e-02
-1.000837236642837524e-01 -1.352756563574075699e-02 6.294260919094085693e-02
-1.669894605875015259e-01 -1.353671867400407791e-02 3.615352883934974670e-02
-1.334627866744995117e-01 -1.352893002331256866e-02 3.534038737416267395e-02
-5.270641669631004333e-02 -1.352624222636222839e-02 1.712260544300079346e-01
-2.596214972436428070e-02 -1.352818496525287628e-02 -1.139270067214965820e-01
-1.393706202507019043e-01 -1.353535149246454239e-02 1.297569572925567627e-01
-7.981394231319427490e-02 -1.353772543370723724e-02 -1.387974172830581665e-01
-4.710091277956962585e-02 -1.353594847023487091e-02 7.731053233146667480e-02
-1.268445700407028198e-01 -1.352912560105323792e-02 -1.083362195640802383e-02
8.294667303562164307e-02 -1.353094168007373810e-02 1.317417472600936890e-01
-8.426859974861145020e-02 -1.353305578231811523e-02 2.132915258407592773e-01
-1.071773841977119446e-02 -1.353627722710371017e-02 -9.127556346356868744e-03
-1.396704465150833130e-02 -1.352847088128328323e-02 -1.339277327060699463e-01
-1.728626526892185211e-02 -1.352552883327007294e-02 1.596743613481521606e-01
-1.810765713453292847e-01 -1.353691518306732178e-02 -2.241062000393867493e-02
-7.772940397262573242e-02 -1.353122945874929428e-02 -1.846623122692108154e-01
-1.419151760637760162e-02 -1.353299524635076523e-02 1.876565665006637573e-01
-8.085809648036956787e-02 -1.353593915700912476e-02 -2.281080782413482666e-01
5.452104657888412476e-02 -1.353459060192108154e-02 -4.857964068651199341e-02
-2.870259620249271393e-02 -1.353123225271701813e-02 2.430267184972763062e-01
1.082637906074523926e-01 -1.353078056126832962e-02 6.770108640193939209e-02
-2.448055893182754517e-02 -1.353695522993803024e-02 -7.792195677757263184e-02
-7.778295874595642090e-02 -1.352786738425493240e-02 -3.312760218977928162e-02
2.376142889261245728e-02 -1.352678053081035614e-02 -6.902758777141571045e-02
4.248909652233123779e-03 -1.352524012327194214e-02 1.003111898899078369e-01
3.053929656744003296e-02 -1.353492122143507004e-02 -1.776034981012344360e-01
9.160187840461730957e-02 -1.352565735578536987e-02 3.439315408468246460e-02
-6.535506248474121094e-02 -1.353686209768056870e-02 2.836993336677551270e-02
-1.491537392139434814e-01 -1.352954469621181488e-02 4.480964317917823792e-02
8.392591774463653564e-02 -1.353301666676998138e-02 1.576435752213001251e-03
4.998802393674850464e-02 -1.352499239146709442e-02 1.183309555053710938e-01
-1.639173775911331177e-01 -1.353751495480537415e-02 -5.887740850448608398e-02
2.936902642250061035e-02 -1.352768670767545700e-02 -1.150074452161788940e-01
-1.371377259492874146e-01 -1.353687979280948639e-02 5.137332156300544739e-02
-8.747230470180511475e-02 -1.353681460022926331e-02 5.027378350496292114e-02
1.727646961808204651e-02 -1.353527139872312546e-02 2.210557088255882263e-02
-5.074623227119445801e-02 -1.353213377296924591e-02 -2.220639288425445557e-01
1.280079334974288940e-01 -1.352839358150959015e-02 7.295470684766769409e-02
-2.939828857779502869e-02 -1.352676842361688614e-02 -2.818907424807548523e-02
-1.285262107849121094e-01 -1.352849788963794708e-02 7.848826795816421509e-02
-1.275687664747238159e-01 -1.352842524647712708e-02 1.192822530865669250e-01
1.856976002454757690e-02 -1.352554559707641602e-02 2.026309072971343994e-01
-5.292015522718429565e-02 -1.353051885962486267e-02 -1.827192604541778564e-01
-6.149110943078994751e-02 -1.352663151919841766e-02 4.665012657642364502e-02
-3.662173449993133545e-02 -1.352591440081596375e-02 1.725500822067260742e-01
3.202997148036956787e-02 -1.353530492633581161e-02 -3.426013886928558350e-02
1.046184003353118896e-01 -1.353206671774387360e-02 -4.457857459783554077e-02
6.803601235151290894e-02 -1.352627389132976532e-02 -3.834082931280136108e-02
-2.673009410500526428e-02 -1.352618355304002762e-02 1.873321831226348877e-02
1.306855231523513794e-01 -1.352926343679428101e-02 -5.646585486829280853e-03
3.389894962310791016e-03 -1.352704316377639771e-02 -7.483050227165222168e-02
-3.754140809178352356e-02 -1.353721506893634796e-02 -8.164896070957183838e-02
-1.897542029619216919e-01 -1.353358011692762375e-02 -6.175051629543304443e-02
-1.465023159980773926e-01 -1.353076845407485962e-02 -6.570500135421752930e-02
-1.918283700942993164e-01 -1.353393495082855225e-02 9.529341757297515869e-02
-1.088147535920143127e-01 -1.352799870073795319e-02 3.962521255016326904e-02
7.422460615634918213e-02 -1.352531649172306061e-02 5.171509832143783569e-02
5.924148112535476685e-02 -1.353318523615598679e-02 7.498227804899215698e-02
2.020057290792465210e-02 -1.352583710104227066e-02 2.192152887582778931e-01
1.167614609003067017e-01 -1.353057846426963806e-02 3.980293497443199158e-02
-1.316824555397033691e-01 -1.353016123175621033e-02 -6.780385226011276245e-02
-1.815749853849411011e-01 -1.353139523416757584e-02 7.312218099832534790e-02
8.029120415449142456e-02 -1.352628134191036224e-02 1.901452094316482544e-01
1.798722147941589355e-02 -1.353592239320278168e-02 -1.008696407079696655e-01
-8.314409106969833374e-02 -1.353737618774175644e-02 -3.069996833801269531e-03
8.355426788330078125e-02 -1.352527178823947906e-02 8.608862757682800293e-02
-9.298975765705108643e-02 -1.352741848677396774e-02 1.773120164871215820e-01
-1.525305360555648804e-01 -1.353612728416919708e-02 8.690171688795089722e-02
6.447885185480117798e-02 -1.353048719465732574e-02 -1.811677664518356323e-01
-1.071852222084999084e-01 -1.352983433753252029e-02 -9.805037826299667358e-02
5.605238676071166992e-02 -1.353161223232746124e-02 1.561632007360458374e-01
5.808212608098983765e-02 -1.353429537266492844e-02 -1.332146823406219482e-01
-4.506741464138031006e-02 -1.352619379758834839e-02 5.888532847166061401e-02
-1.735693663358688354e-01 -1.353551354259252548e-02 9.169384837150573730e-02
-1.507890783250331879e-02 -1.352576818317174911e-02 4.598433896899223328e-02
-1.920366473495960236e-02 -1.353631634265184402e-02 6.973212119191884995e-03
6.339164823293685913e-02 -1.353428419679403305e-02 -6.738345324993133545e-02
1.428827643394470215e-03 -1.352955494076013565e-02 -1.774436235427856445e-01
-5.059333518147468567e-03 -1.352690719068050385e-02 2.520092725753784180e-01
6.746605783700942993e-02 -1.352508738636970520e-02 9.357228875160217285e-02
-1.453549563884735107e-01 -1.353113912045955658e-02 -8.701848238706588745e-02
4.719095677137374878e-02 -1.353300269693136215e-02 -2.035763710737228394e-01
-7.144486904144287109e-02 -1.352885365486145020e-02 -1.014426872134208679e-01
-2.133179642260074615e-02 -1.353060919791460037e-02 -2.002940028905868530e-01
-1.628248393535614014e-01 -1.353491004556417465e-02 -1.559056043624877930e-01
-1.711494661867618561e-02 -1.353344228118658066e-02 1.738302856683731079e-01
-1.977962702512741089e-01 -1.353347860276699066e-02 -1.319746207445859909e-02
-1.276255697011947632e-01 -1.352849509567022324e-02 1.388910263776779175e-01
-9.420961141586303711e-02 -1.352724339812994003e-02 9.879868477582931519e-02
-1.179608553647994995e-01 -1.353795826435089111e-02 -1.096139252185821533e-01
-7.849972695112228394e-03 -1.353092119097709656e-02 -2.102442979812622070e-01
-3.721832484006881714e-02 -1.353689841926097870e-02 -1.740624904632568359e-01
-2.834715694189071655e-02 -1.352875214070081711e-02 -1.370052695274353027e-01
1.653660833835601807e-02 -1.353392563760280609e-02 1.146324276924133301e-01
7.566930353641510010e-02 -1.353297568857669830e-02 -1.522259414196014404e-01
-6.246106326580047607e-02 -1.353654917329549789e-02 -2.135250568389892578e-01
-1.483027487993240356e-01 -1.353752240538597107e-02 -1.344755198806524277e-02
-7.197877764701843262e-02 -1.352823060005903244e-02 2.487116456031799316e-01
5.499596893787384033e-02 -1.352732721716165543e-02 -9.785164147615432739e-02
-4.819234833121299744e-02 -4.110451042652130127e-02 9.740169346332550049e-02
-5.151139199733734131e-02 5.191704258322715759e-03 -5.962814763188362122e-02
5.786870047450065613e-02 -5.514173209667205811e-02 -7.501210272312164307e-02
-2.048023790121078491e-01 -8.303109556436538696e-03 -1.142536997795104980e-01
-1.565704047679901123e-01 5.976162850856781006e-03 7.504035532474517822e-02
-1.449453458189964294e-02 -5.194111168384552002e-02 -1.114640980958938599e-01
1.793416962027549744e-02 -1.466291025280952454e-03 7.842723280191421509e-03
-1.124050915241241455e-01 9.221667423844337463e-03 -4.817458242177963257e-02
-1.612137705087661743e-01 -3.604013472795486450e-02 1.961823552846908569e-03
8.283001184463500977e-02 -5.294712260365486145e-02 -8.764973282814025879e-02
1.113083362579345703e-01 -4.137913137674331665e-02 -1.132322996854782104e-01
-2.054702937602996826e-01 -1.826630346477031708e-02 -1.052996218204498291e-01
2.310320362448692322e-02 -3.847341984510421753e-02 1.133818477392196655e-01
5.426970496773719788e-02 -1.275234296917915344e-02 7.239650189876556396e-02
8.207046985626220703e-02 -1.426247693598270416e-02 -4.979678243398666382e-02
-1.371227800846099854e-01 3.504289314150810242e-03 9.597595036029815674e-02
-6.293484568595886230e-02 -4.826596379280090332e-02 -1.110775768756866455e-01
-1.122891157865524292e-01 -4.435691237449645996e-02 -2.586362883448600769e-03
-1.235928833484649658e-01 -4.339750856161117554e-02 -2.984569407999515533e-02
4.700880870223045349e-02 -5.182386189699172974e-02 -1.215179115533828735e-01
-6.945896893739700317e-02 -1.493902690708637238e-02 1.464350074529647827e-01
-1.550260931253433228e-01 4.677893593907356262e-03 -1.006157845258712769e-01
-2.074509710073471069e-01 6.252903491258621216e-03 -3.166031837463378906e-02
-1.250454634428024292e-01 3.896035254001617432e-03 -1.113256216049194336e-01
-1.063884049654006958e-01 -3.582425415515899658e-05 1.148796230554580688e-01
9.602391719818115234e-02 -5.099555850028991699e-02 -9.160184860229492188e-02
-1.639867573976516724e-01 -1.578343659639358521e-02 1.132244616746902466e-01
-2.237271517515182495e-01 -1.817530207335948944e-02 2.142306417226791382e-03
-2.138971239328384399e-01 -2.211346104741096497e-02 -5.756694823503494263e-02
-8.914731442928314209e-02 5.023989826440811157e-03 -9.422779083251953125e-02
-2.011217176914215088e-01 7.316844537854194641e-03 1.257554441690444946e-02
-2.386639825999736786e-02 -5.366624146699905396e-02 -2.023396641016006470e-02
1.112735420465469360e-01 -4.187315702438354492e-02 4.518363252282142639e-02
4.356402531266212463e-02 -1.336295437067747116e-02 -1.231329590082168579e-01
-1.561939418315887451e-01 1.037540473043918610e-02 1.286650821566581726e-02
1.040372103452682495e-01 -3.442989289760589600e-02 -1.239383667707443237e-01
-7.116491347551345825e-02 -4.541783779859542847e-02 5.239034071564674377e-02
1.097482889890670776e-01 -4.747384786605834961e-02 2.127149328589439392e-02
-1.395624876022338867e-01 6.692165508866310120e-03 7.398372888565063477e-02
1.316215470433235168e-02 -7.704749703407287598e-03 -1.204111874103546143e-01
-1.083440780639648438e-01 -3.983950242400169373e-02 6.266875565052032471e-02
-3.521470353007316589e-02 -4.943894594907760620e-02 -1.245155334472656250e-01
-1.210546940565109253e-01 5.492592230439186096e-03 8.440887928009033203e-02
-1.274415403604507446e-01 -3.629411011934280396e-02 6.770397722721099854e-02
-6.072436273097991943e-02 -1.573759503662586212e-02 -1.862336546182632446e-01
-3.228243812918663025e-02 -1.549632847309112549e-02 -1.808261126279830933e-01
1.031255722045898438e-02 -5.287376046180725098e-02 2.657438814640045166e-02
-9.390822798013687134e-02 -3.510894253849983215e-02 -1.697903871536254883e-01
-2.451850287616252899e-02 -1.218639127910137177e-02 1.348358541727066040e-01
2.424973994493484497e-03 -5.423051118850708008e-02 6.969943642616271973e-04
-1.832245737314224243e-01 -2.064329013228416443e-02 8.259887993335723877e-02
-1.891403943300247192e-01 4.160616546869277954e-03 -8.379566669464111328e-02
-1.041492372751235962e-01 -3.443261235952377319e-02 1.002572774887084961e-01
-3.618758916854858398e-02 2.458566799759864807e-03 6.546777486801147461e-02
-1.127578094601631165e-01 -4.486795142292976379e-02 -5.662722140550613403e-02
-2.180897891521453857e-01 -5.147576332092285156e-03 5.860364064574241638e-02
-1.948406547307968140e-01 -2.854330465197563171e-02 -4.528364166617393494e-03
-5.909627676010131836e-02 5.207961425185203552e-03 -6.934329867362976074e-02
3.475065156817436218e-02 -5.596911907196044922e-02 -5.284777656197547913e-02
-1.604305803775787354e-01 -3.061371669173240662e-02 -1.258912086486816406e-01
-7.003217190504074097e-02 1.642173156142234802e-03 -1.151262819766998291e-01
-5.952681973576545715e-02 -8.690038695931434631e-03 -1.669843196868896484e-01
-1.873225867748260498e-01 -3.102292120456695557e-02 -3.890741616487503052e-02
-2.351372390985488892e-01 -7.976298220455646515e-03 1.150865852832794189e-02
-2.144538462162017822e-01 -3.601361066102981567e-03 -9.202782809734344482e-02
7.725145667791366577e-03 -5.067376419901847839e-03 -1.058333963155746460e-01
-9.097336977720260620e-02 -1.448354311287403107e-02 -1.836646795272827148e-01
-4.079801216721534729e-02 -3.127031773328781128e-02 -1.936214864253997803e-01
8.096795529127120972e-03 -5.334977433085441589e-02 -1.052877157926559448e-01
-1.651716977357864380e-02 -8.617751300334930420e-04 7.647171616554260254e-02
2.256409451365470886e-02 -5.310597270727157593e-02 2.653007954359054565e-02
1.318605840206146240e-01 -3.342569246888160706e-02 -5.000778287649154663e-02
-2.972175367176532745e-02 -4.346401244401931763e-02 -1.655537337064743042e-01
3.334357962012290955e-02 -4.969480633735656738e-02 -1.392917931079864502e-01
-1.471152305603027344e-01 9.732699021697044373e-03 -4.468632489442825317e-02
4.333632811903953552e-02 -3.818555176258087158e-02 1.081147640943527222e-01
-1.979608833789825439e-01 5.255812779068946838e-03 4.752664640545845032e-02
-2.028062939643859863e-01 -1.595632918179035187e-02 7.018634676933288574e-02
1.250435560941696167e-01 -2.787791937589645386e-02 -1.663358509540557861e-02
9.694063663482666016e-02 -4.332630336284637451e-02 -1.281329542398452759e-01
-6.433533132076263428e-02 -5.066251754760742188e-02 -5.393871665000915527e-02
-1.641043573617935181e-01 -2.183358184993267059e-02 1.000247746706008911e-01
-1.993114799261093140e-01 -2.610014565289020538e-02 -7.356636226177215576e-02
-2.040803432464599609e-01 3.581222146749496460e-03 -7.088002562522888184e-02
7.996711134910583496e-02 -1.305275410413742065e-02 -2.871036715805530548e-02
-2.169522047042846680e-01 -2.051014453172683716e-04 -7.466562092304229736e-02
7.497979700565338135e-02 -3.981363028287887573e-02 -1.533599048852920532e-01
-6.059726327657699585e-02 -1.621928066015243530e-03 1.125377267599105835e-01
-2.094046622514724731e-01 -2.459330856800079346e-02 -3.843675181269645691e-02
5.142777785658836365e-02 -1.259651128202676773e-02 -1.071184575557708740e-01
-6.305418908596038818e-02 -4.962626844644546509e-02 -9.060268104076385498e-02
-9.833967685699462891e-02 -4.677703231573104858e-02 -2.285723760724067688e-02
5.314771085977554321e-03 -2.075821906328201294e-02 -1.796052753925323486e-01
-1.507947295904159546e-01 1.042088679969310760e-02 -2.391945384442806244e-02
-1.067599654197692871e-01 -3.406052663922309875e-02 -1.652304977178573608e-01
-1.751193404197692871e-01 5.433851853013038635e-03 -8.491824567317962646e-02
-2.150725573301315308e-01 4.292100667953491211e-03 2.287029474973678589e-02
-1.885476410388946533e-01 -2.757205814123153687e-02 3.289285674691200256e-02
1.031794548034667969e-01 -5.185699835419654846e-02 -6.512113660573959351e-02
-3.391571342945098877e-03 -1.019202172756195068e-03 -7.842104136943817139e-02
8.588571846485137939e-02 -1.885148696601390839e-02 5.411650612950325012e-02
8.568240702152252197e-02 -3.270345926284790039e-02 8.782467246055603027e-02
6.862062215805053711e-02 -1.133492682129144669e-02 -5.279282480478286743e-02
-2.242567837238311768e-01 2.579852938652038574e-03 1.040636748075485229e-02
1.095458716154098511e-01 -2.693786285817623138e-02 4.415341094136238098e-02
-1.368324309587478638e-01 -2.535043284296989441e-02 1.123424917459487915e-01
1.116415262222290039e-01 -2.360109798610210419e-02 -5.934299528598785400e-02
-2.784605510532855988e-02 -3.606919199228286743e-02 1.230765879154205322e-01
-2.106305658817291260e-01 -5.352854728698730469e-03 7.058089971542358398e-02
-2.094921618700027466e-01 -2.458122372627258301e-02 -1.890403218567371368e-02
-2.293014079332351685e-01 9.917933493852615356e-04 -2.808977849781513214e-02
-1.823496073484420776e-02 2.623520791530609131e-03 -4.536528140306472778e-02
-1.471490561962127686e-01 -3.864506632089614868e-02 -7.533098012208938599e-02
-2.191266603767871857e-02 -3.309836238622665405e-02 -1.922330558300018311e-01
9.440147876739501953e-02 -3.100341185927391052e-02 -1.314731538295745850e-01
1.174478828907012939e-01 -4.835864529013633728e-02 -7.185992598533630371e-02
-1.415845751762390137e-01 -8.667293004691600800e-03 -1.612244695425033569e-01
-1.216823756694793701e-01 1.024645380675792694e-02 -2.578036114573478699e-02
2.283604070544242859e-02 -1.429883670061826706e-02 1.140359491109848022e-01
-8.980130404233932495e-02 7.470261305570602417e-03 -6.404659152030944824e-02
-1.275071501731872559e-02 -5.404224246740341187e-02 -1.134860236197710037e-02
-4.418693482875823975e-03 -5.551241338253021240e-05 -6.624117493629455566e-02
2.378072217106819153e-02 -2.217356115579605103e-03 -1.612399145960807800e-02
1.585474237799644470e-02 -4.255066812038421631e-02 1.002668738365173340e-01
-5.862089246511459351e-02 -5.071533471345901489e-02 -7.540540397167205811e-02
1.032716929912567139e-01 -2.162009477615356445e-02 2.890130504965782166e-02
-1.482545211911201477e-02 -5.448018014430999756e-02 -4.478087276220321655e-02
1.152135580778121948e-01 -2.537436969578266144e-02 1.780698820948600769e-02
-2.020083367824554443e-01 6.434686481952667236e-03 2.754651382565498352e-02
1.581009104847908020e-02 -2.968110144138336182e-03 -6.930498033761978149e-02
-6.218929961323738098e-02 -3.445010259747505188e-02 1.211226731538772583e-01
-1.823548674583435059e-01 -3.210814297199249268e-02 -1.709120534360408783e-02
-6.840990483760833740e-02 7.982058450579643250e-03 1.658553257584571838e-03
-1.844104528427124023e-01 -2.399800159037113190e-02 -1.210193336009979248e-01
-4.914715886116027832e-02 -5.201541632413864136e-02 -3.034248389303684235e-02
-6.133811920881271362e-02 7.401973009109497070e-03 -1.698538474738597870e-02
4.648790135979652405e-02 -1.254211924970149994e-02 8.250814676284790039e-02
-1.755457371473312378e-03 -9.651691652834415436e-03 1.157268434762954712e-01
-5.090344697237014771e-02 5.362411960959434509e-03 4.383372887969017029e-02
-4.783615842461585999e-02 4.031458869576454163e-03 6.005671247839927673e-02
-1.246179491281509399e-01 6.992803886532783508e-03 7.193684577941894531e-02
-5.138600617647171021e-02 -4.990921914577484131e-02 2.003626525402069092e-02
5.150918290019035339e-02 -6.961362436413764954e-03 -2.687739208340644836e-03
-5.924624949693679810e-02 -5.098108574748039246e-02 -2.150414511561393738e-02
2.069482579827308655e-02 -2.339002862572669983e-02 -1.775344759225845337e-01
6.556116044521331787e-02 -5.548717081546783447e-02 -5.064854770898818970e-02
4.023027792572975159e-02 -4.900170490145683289e-03 -1.739371009171009064e-02
7.520452141761779785e-02 -1.639402471482753754e-02 -9.513200819492340088e-02
-1.626483798027038574e-01 -3.495683148503303528e-02 -8.451811969280242920e-02
-1.722618788480758667e-01 -3.394886478781700134e-02 -2.726133912801742554e-03
6.825383752584457397e-03 -6.455723196268081665e-03 9.311959147453308105e-02
-1.139332503080368042e-01 -4.151210933923721313e-02 -1.141177564859390259e-01
-2.130281180143356323e-01 -2.059978619217872620e-02 2.475708350539207458e-02
-4.082438349723815918e-02 5.405759438872337341e-03 1.957448571920394897e-02
2.087097615003585815e-03 3.460552543401718140e-04 -4.039616137742996216e-02
-4.862505942583084106e-03 -5.472858250141143799e-02 -6.608693301677703857e-02
1.246788650751113892e-01 -4.746215045452117920e-02 -2.376205846667289734e-02
7.392750680446624756e-02 -1.156297884881496429e-02 -7.084166631102561951e-03
-1.420874893665313721e-01 -3.653285652399063110e-02 -1.139443963766098022e-01
-2.265918999910354614e-01 -1.768086105585098267e-02 -3.044930100440979004e-02
-3.430175036191940308e-02 4.209600389003753662e-03 3.528381884098052979e-02
-1.284801512956619263e-01 -4.107929021120071411e-02 -9.059712290763854980e-02
-1.197156682610511780e-02 -2.975362353026866913e-02 1.372457146644592285e-01
1.097532659769058228e-01 -5.125046521425247192e-02 -5.066990107297897339e-02
-4.099532589316368103e-02 -5.254017189145088196e-03 -1.455427557229995728e-01
-2.328921705484390259e-01 -7.113032042980194092e-04 9.540170431137084961e-04
-6.967189908027648926e-02 3.537382930517196655e-03 -9.834042191505432129e-02
-1.742466986179351807e-01 -2.560283802449703217e-02 7.317340373992919922e-02
-1.515193730592727661e-01 8.625725284218788147e-03 -6.236156821250915527e-02
-1.390999704599380493e-01 -3.638870641589164734e-02 5.076880380511283875e-02
-1.755923479795455933e-01 8.089000359177589417e-03 -5.619891360402107239e-02
1.486654952168464661e-02 -1.614410616457462311e-02 -1.616867035627365112e-01
6.253644824028015137e-02 -1.738091558218002319e-02 -1.223076283931732178e-01
-1.658777892589569092e-02 -4.268963634967803955e-02 -1.713141053915023804e-01
-5.998197570443153381e-02 -4.253192991018295288e-02 8.340817689895629883e-02
-6.952499598264694214e-02 7.837885990738868713e-03 1.725379750132560730e-02
-1.244536936283111572e-01 -2.932141534984111786e-02 1.077043414115905762e-01
-1.499589681625366211e-01 -2.544253692030906677e-02 1.012945175170898438e-01
-9.899933636188507080e-02 9.601419791579246521e-03 -2.137504145503044128e-02
2.525705471634864807e-02 -7.491094991564750671e-03 7.837419211864471436e-02
-7.658772170543670654e-02 -3.320057690143585205e-02 -1.831237673759460449e-01
-5.396644026041030884e-02 6.772944703698158264e-03 1.028174906969070435e-02
-1.709044426679611206e-01 8.427452296018600464e-03 4.321441426873207092e-02
-2.175397984683513641e-02 -2.055885270237922668e-02 1.440351754426956177e-01
-1.063287109136581421e-01 -2.064779400825500488e-02 -1.858110278844833374e-01
-5.770496279001235962e-02 -4.412893205881118774e-02 -1.502265483140945435e-01
3.245737403631210327e-03 7.324647158384323120e-04 -2.757877111434936523e-03
-2.145604789257049561e-01 1.981770619750022888e-03 4.375633969902992249e-02
9.561741352081298828e-02 -1.733312755823135376e-02 -3.843327984213829041e-02
-2.165901213884353638e-01 -2.178789116442203522e-02 -9.008010849356651306e-03
-6.606028974056243896e-02 -5.054331198334693909e-02 -3.683571889996528625e-02
-1.635726094245910645e-01 -3.607492893934249878e-02 -1.145234238356351852e-02
-1.759599447250366211e-01 8.965184912085533142e-03 2.952964231371879578e-02
-1.362916827201843262e-01 -2.951234206557273865e-02 9.730859100818634033e-02
4.898447170853614807e-02 -5.550767481327056885e-02 -1.655024848878383636e-02
-3.366736322641372681e-02 -5.085801705718040466e-03 1.162212193012237549e-01
-8.794520050287246704e-02 8.971733972430229187e-03 -2.604986913502216339e-02
-1.298429369926452637e-01 -3.945804759860038757e-02 -1.080094575881958008e-01
-7.492054253816604614e-02 6.614888086915016174e-03 -6.444962322711944580e-02
-8.543729782104492188e-02 5.688952282071113586e-03 7.269215583801269531e-02
-5.555837228894233704e-02 7.020128890872001648e-03 -6.089823320508003235e-03
-6.956002861261367798e-02 7.488038390874862671e-03 2.930141985416412354e-02
2.752762660384178162e-02 -1.987330988049507141e-02 -1.653522104024887085e-01
1.025099307298660278e-01 -2.608032152056694031e-02 -1.029584556818008423e-01
-8.372393250465393066e-02 -3.920684754848480225e-02 -1.598850786685943604e-01
-1.473959088325500488e-01 -3.370060026645660400e-02 -1.265114843845367432e-01
7.874554395675659180e-02 -4.198313504457473755e-02 7.868748903274536133e-02
-1.905614286661148071e-01 5.062492564320564270e-03 5.810925737023353577e-02
-1.247461438179016113e-01 -1.187512651085853577e-03 -1.408386975526809692e-01
-4.414717853069305420e-02 -4.988026246428489685e-02 -1.122421920299530029e-01
-4.753705859184265137e-02 -3.799262642860412598e-02 -1.802225261926651001e-01
-3.076246380805969238e-02 2.302899956703186035e-04 -9.935159981250762939e-02
-5.186804011464118958e-02 6.132883951067924500e-03 2.846689149737358093e-02
-1.741064190864562988e-01 -3.103134036064147949e-02 -9.788715839385986328e-02
5.859081819653511047e-02 -5.144543945789337158e-02 3.848883137106895447e-02
-8.542983978986740112e-02 -6.178943440318107605e-03 1.339264512062072754e-01
-8.788093179464340210e-02 -4.751604050397872925e-02 -7.760547846555709839e-02
-1.205839365720748901e-01 -3.368329629302024841e-02 -1.560984700918197632e-01
1.013233140110969543e-02 -2.302434295415878296e-04 -1.680037938058376312e-02
5.513830855488777161e-02 -5.573710799217224121e-02 -5.672578141093254089e-02
-2.170554399490356445e-01 -1.670774072408676147e-02 3.887331113219261169e-02
-1.019644588232040405e-01 -3.786282613873481750e-02 8.310784399509429932e-02
-6.186884641647338867e-02 -4.857981204986572266e-02 2.610875293612480164e-02
-9.740371257066726685e-02 3.378491848707199097e-03 9.588631987571716309e-02
-1.984665393829345703e-01 7.949220016598701477e-03 -1.193705573678016663e-02
-2.037904858589172363e-01 -1.909733004868030548e-02 5.678131058812141418e-02
-4.976665228605270386e-02 -4.807817190885543823e-02 -1.263009756803512573e-01
3.170390054583549500e-02 -5.499777942895889282e-02 -2.030080184340476990e-03
3.955609723925590515e-02 -1.820803619921207428e-02 1.116842627525329590e-01
-1.760233640670776367e-01 -1.946947537362575531e-02 9.476345777511596680e-02
-1.911263912916183472e-01 8.290573954582214355e-03 -3.023768775165081024e-02
-1.458115875720977783e-04 -1.906001940369606018e-03 6.512854993343353271e-02
1.157860085368156433e-02 -1.129905041307210922e-02 -1.434331983327865601e-01
-1.902506947517395020e-01 -2.898415923118591309e-02 1.043906062841415405e-02
-1.225827038288116455e-01 9.117944166064262390e-03 -5.480664968490600586e-02
-8.155338466167449951e-02 -3.208756446838378906e-03 -1.486338973045349121e-01
-1.948105096817016602e-01 -9.246926754713058472e-03 -1.267341226339340210e-01
-8.496730774641036987e-02 6.431678310036659241e-03 -7.561589777469635010e-02
-1.612923666834831238e-02 -4.889872670173645020e-02 5.797585472464561462e-02
-3.325396031141281128e-02 -5.319710075855255127e-02 -5.963196605443954468e-02
1.013157516717910767e-01 -1.924787834286689758e-02 6.630212068557739258e-03
3.283236175775527954e-03 -2.489367127418518066e-02 1.379595398902893066e-01
-1.872980892658233643e-01 -2.623394504189491272e-02 -1.048520058393478394e-01
-1.176854595541954041e-02 2.555057406425476074e-03 -1.946759596467018127e-02
-2.058457583189010620e-03 -2.573981881141662598e-03 -9.456521272659301758e-02
-2.973435074090957642e-02 -5.082851648330688477e-02 -1.138104647397994995e-01
-1.566843688488006592e-01 -3.714713454246520996e-02 -6.759607046842575073e-02
-1.192187666893005371e-01 -4.205480217933654785e-02 -9.818659722805023193e-02
-1.923773437738418579e-02 -4.744182527065277100e-02 -1.478844434022903442e-01
-1.375099420547485352e-01 1.065765134990215302e-02 -1.367640495300292969e-02
1.511144265532493591e-02 -5.162093043327331543e-02 -1.254852116107940674e-01
-9.887960553169250488e-02 9.222632274031639099e-03 2.767132967710494995e-02
8.485698699951171875e-02 -2.469745278358459473e-02 -1.260582953691482544e-01
-1.476515084505081177e-01 -3.906710818409919739e-02 -1.050079707056283951e-02
-1.091905310750007629e-02 -5.595162510871887207e-03 1.040270924568176270e-01
-1.689510643482208252e-01 6.346689537167549133e-03 6.606101989746093750e-02
-2.151985839009284973e-02 3.274006769061088562e-03 2.393506094813346863e-02
-5.293921753764152527e-02 2.614304423332214355e-03 -9.547320008277893066e-02
-1.270946264266967773e-01 9.193705394864082336e-03 4.529423639178276062e-02
-3.430147469043731689e-02 -4.812316969037055969e-02 5.575168505311012268e-02
-1.338523775339126587e-01 8.289696648716926575e-03 -6.921995431184768677e-02
-1.912545710802078247e-01 7.393119856715202332e-03 3.392104431986808777e-02
-1.237455904483795166e-01 -2.759494632482528687e-02 -1.715816706418991089e-01
-1.103428155183792114e-01 8.853698149323463440e-03 4.507667943835258484e-02
-5.053251981735229492e-02 -4.888565093278884888e-02 3.509204462170600891e-02
-2.168652266263961792e-01 -1.899883523583412170e-02 -7.429360598325729370e-02
-4.665663838386535645e-02 5.428312346339225769e-03 -4.602935910224914551e-02
-4.654997959733009338e-02 -5.111822113394737244e-02 5.633618682622909546e-03
-4.909871891140937805e-02 -5.146300047636032104e-02 -7.401416078209877014e-03
2.964283153414726257e-02 -3.156697377562522888e-03 -1.024924218654632568e-03
-8.486247062683105469e-02 -4.177472740411758423e-02 -1.452531069517135620e-01
-1.460863351821899414e-01 -2.942725084722042084e-02 8.821070194244384766e-02
6.593538820743560791e-02 -1.001173257827758789e-02 5.148204043507575989e-03
1.880946382880210876e-02 -5.579129606485366821e-02 -4.505989328026771545e-02
-1.900502145290374756e-01 -1.916076987981796265e-03 8.863921463489532471e-02
-1.626372039318084717e-01 7.012356072664260864e-04 -1.215132921934127808e-01
5.331521108746528625e-02 -4.915582388639450073e-02 5.819901451468467712e-02
3.281861543655395508e-03 -5.497377365827560425e-02 -1.860328391194343567e-02
7.431249320507049561e-02 -1.813688687980175018e-02 -1.092383563518524170e-01
-2.278807312250137329e-01 -6.959419697523117065e-04 -5.155942589044570923e-02
3.987289965152740479e-03 -4.584991931915283203e-02 -1.604889482259750366e-01
-1.773906499147415161e-01 9.210279211401939392e-03 -3.330957889556884766e-02
-1.427315920591354370e-02 -6.450947374105453491e-03 -1.364085972309112549e-01
8.917765319347381592e-02 -1.688956655561923981e-02 2.784425020217895508e-02
2.504983916878700256e-02 -5.567390471696853638e-02 -6.491964310407638550e-02
-1.122915670275688171e-01 -2.777658961713314056e-02 1.207894533872604370e-01
-1.572265177965164185e-01 1.052960194647312164e-02 -7.615970447659492493e-03
-6.282298266887664795e-02 -3.906643390655517578e-02 -1.715698093175888062e-01
2.593250200152397156e-02 -1.390824187546968460e-02 -1.442337781190872192e-01
-2.196073159575462341e-02 -5.115155130624771118e-02 3.153619170188903809e-02
7.608185708522796631e-02 -5.116993933916091919e-02 3.092931210994720459e-02
7.700482010841369629e-02 -1.493622455745935440e-02 -7.727693021297454834e-02
-5.969996005296707153e-02 6.763689219951629639e-03 -3.901296481490135193e-02
-1.355421841144561768e-01 9.915007278323173523e-03 -4.140174016356468201e-02
-7.878459244966506958e-02 -1.844837889075279236e-02 -1.900522857904434204e-01
6.662492454051971436e-02 -1.181443035602569580e-02 -6.770797073841094971e-02
1.382945850491523743e-02 -5.550017952919006348e-02 -2.674709632992744446e-02
4.366464912891387939e-03 -1.538207288831472397e-02 1.287420988082885742e-01
1.514923945069313049e-02 -1.459810882806777954e-03 -4.097605496644973755e-02
-1.781752556562423706e-01 -1.189169380813837051e-02 1.056294888257980347e-01
-1.349355578422546387e-01 -3.570917621254920959e-02 -1.307660341262817383e-01
-2.010977566242218018e-01 -2.316691726446151733e-02 -9.283220767974853516e-02
-1.783238351345062256e-01 -3.079874068498611450e-02 2.601989358663558960e-02
1.243109628558158875e-02 -9.711313061416149139e-03 1.050837039947509766e-01
-1.903285831212997437e-02 -1.599353551864624023e-02 -1.779545545578002930e-01
-1.596376299858093262e-03 8.563511073589324951e-05 4.081179574131965637e-02
-2.752345800399780273e-02 -5.258683860301971436e-02 -8.986432850360870361e-02
-1.614259779453277588e-01 -3.665939345955848694e-02 -5.294084921479225159e-02
1.937871053814888000e-02 -4.413981735706329346e-02 -1.665489971637725830e-01
3.653892502188682556e-02 -2.511065825819969177e-02 -1.718633025884628296e-01
-2.423315867781639099e-02 -5.244112387299537659e-02 1.031007617712020874e-02
6.475393474102020264e-02 -9.827390313148498535e-03 -3.496812656521797180e-02
1.277839988470077515e-01 -3.860785439610481262e-02 1.874391362071037292e-02
5.211644247174263000e-02 -1.090577989816665649e-02 -9.145422279834747314e-02
5.495060607790946960e-02 -4.966422170400619507e-02 -1.336395293474197388e-01
-1.440410912036895752e-01 9.810732677578926086e-03 3.441095724701881409e-02
-2.781741321086883545e-02 -5.368395149707794189e-02 -3.878543153405189514e-02
-1.552420854568481445e-01 9.026305750012397766e-03 4.444142803549766541e-02
1.058289781212806702e-02 -5.481458455324172974e-02 -8.133956789970397949e-02
-5.070222169160842896e-02 -3.749447688460350037e-02 1.132741868495941162e-01
-8.007077872753143311e-02 -4.701022431254386902e-02 -1.033374220132827759e-01
-6.748257577419281006e-02 -8.654929697513580322e-04 -1.316783726215362549e-01
-1.074606031179428101e-01 -4.448093473911285400e-02 -8.777654170989990234e-02
3.105923533439636230e-03 -3.552607446908950806e-02 -1.874261498451232910e-01
-1.203386634588241577e-01 -3.598950058221817017e-02 7.774488627910614014e-02
-1.572072952985763550e-01 -2.746462076902389526e-02 -1.438211798667907715e-01
9.470327198505401611e-02 -4.795054346323013306e-02 3.845937177538871765e-02
-1.859242171049118042e-01 -1.760380715131759644e-02 -1.350850909948348999e-01
-9.620353579521179199e-02 2.551320940256118774e-03 -1.177033782005310059e-01
-3.822567313909530640e-02 -3.897288814187049866e-02 1.106368899345397949e-01
-9.937421977519989014e-02 -2.108671143651008606e-02 1.400355994701385498e-01
-1.579316407442092896e-01 -3.497761487960815430e-02 -9.694999456405639648e-02
-1.041982024908065796e-01 -4.447189718484878540e-02 1.694932207465171814e-02
-1.424057930707931519e-01 4.303855821490287781e-03 -1.066595315933227539e-01
1.220547705888748169e-01 -2.851574681699275970e-02 -6.339013576507568359e-02
3.277856484055519104e-02 -5.175133049488067627e-02 4.166913405060768127e-02
-1.117042452096939087e-01 1.023148931562900543e-02 -8.199065923690795898e-03
2.630942687392234802e-02 -8.119546808302402496e-03 -1.078555583953857422e-01
-3.432872146368026733e-02 -2.262933179736137390e-03 1.022643744945526123e-01
-4.918324574828147888e-02 -7.409248501062393188e-04 -1.218335032463073730e-01
3.522542491555213928e-02 -4.558334127068519592e-03 -4.118398949503898621e-02
-2.140991948544979095e-02 -3.992617130279541016e-03 -1.259326636791229248e-01
-9.848207235336303711e-03 -4.385811090469360352e-02 9.340898692607879639e-02
7.257169485092163086e-02 -1.202749926596879959e-02 1.944155246019363403e-02
-1.421010792255401611e-01 7.993156090378761292e-03 6.109805777668952942e-02
1.152416169643402100e-01 -2.362516149878501892e-02 -8.325869217514991760e-03
-1.337264478206634521e-02 -5.298057943582534790e-02 -9.778393805027008057e-02
4.420056566596031189e-02 -5.328176170587539673e-02 2.394340932369232178e-02
-7.184371352195739746e-04 -5.185848474502563477e-02 3.485962748527526855e-02
-1.505277305841445923e-01 -1.491918135434389114e-02 1.234106123447418213e-01
8.330990374088287354e-02 -4.810811579227447510e-02 4.811051115393638611e-02
1.090416461229324341e-01 -5.106499046087265015e-02 -1.891880854964256287e-02
4.870234802365303040e-02 -1.608307287096977234e-02 9.642843902111053467e-02
-1.773164868354797363e-01 -2.885315194725990295e-02 4.719076678156852722e-02
6.651808321475982666e-02 -4.353582486510276794e-02 8.107288181781768799e-02
-8.521827310323715210e-02 -3.390107303857803345e-04 1.137591451406478882e-01
5.807534232735633850e-02 -2.994784340262413025e-02 -1.648273169994354248e-01
1.310817897319793701e-04 5.615502595901489258e-04 2.547575160861015320e-02
-1.808109506964683533e-02 -8.959831669926643372e-03 -1.521289944648742676e-01
9.791497886180877686e-02 -4.920282587409019470e-02 2.586157247424125671e-02
7.233580946922302246e-02 -1.444698683917522430e-02 5.078897252678871155e-02
-8.327743411064147949e-02 -2.386853843927383423e-02 1.408328711986541748e-01
-1.004308834671974182e-01 -8.726064115762710571e-03 -1.702746450901031494e-01
-1.455207914113998413e-01 -3.794290870428085327e-02 -9.180153906345367432e-02
-1.580691486597061157e-01 -3.590651601552963257e-02 1.568950712680816650e-02
8.292856812477111816e-02 -1.994544453918933868e-02 6.602217257022857666e-02
-1.792757660150527954e-01 3.097390756011009216e-03 -9.896405041217803955e-02
-1.115417480468750000e-01 -4.080628231167793274e-02 5.004794523119926453e-02
1.228628307580947876e-01 -3.856354951858520508e-02 3.128555417060852051e-02
-1.401650309562683105e-01 -4.074304550886154175e-02 -2.944613620638847351e-02
-8.828018605709075928e-02 7.028000429272651672e-03 5.888047441840171814e-02
-1.822743713855743408e-01 9.340656921267509460e-03 5.844475701451301575e-03
-5.096612125635147095e-02 -2.635437250137329102e-02 1.425895988941192627e-01
-7.543645799160003662e-02 -3.660251945257186890e-02 1.072518080472946167e-01
-1.523888558149337769e-01 -4.977067932486534119e-03 -1.476752012968063354e-01
3.966398164629936218e-02 -4.754444211721420288e-02 -1.494516134262084961e-01
-1.836878061294555664e-01 7.074136286973953247e-03 4.755954816937446594e-02
-1.055421531200408936e-01 5.344225093722343445e-03 8.344453573226928711e-02
-1.329159289598464966e-01 -3.405364230275154114e-02 -1.425928622484207153e-01
-1.725156754255294800e-01 -2.740232646465301514e-02 -1.244189292192459106e-01
-4.936325550079345703e-02 -5.181353539228439331e-02 -6.602974981069564819e-02
1.080033481121063232e-01 -3.755825385451316833e-02 5.853988602757453918e-02
-1.334949880838394165e-01 -3.867247700691223145e-02 3.731182590126991272e-02
-2.124782651662826538e-01 2.928785979747772217e-03 -6.229372322559356689e-02
-8.236418664455413818e-02 -3.066937997937202454e-02 1.262005865573883057e-01
1.289162784814834595e-03 -6.678309291601181030e-03 -1.251079440116882324e-01
-1.155907362699508667e-01 -8.444475010037422180e-03 -1.677393615245819092e-01
-9.031590819358825684e-02 -4.792750626802444458e-02 -4.062036052346229553e-02
-1.583213061094284058e-01 -3.419416397809982300e-02 3.687219321727752686e-02
-1.621791422367095947e-01 7.971994578838348389e-03 5.456111952662467957e-02
-1.688797473907470703e-01 9.899558499455451965e-03 1.518945395946502686e-02
-7.924174517393112183e-02 -3.983077034354209900e-02 8.826538920402526855e-02
-4.308139160275459290e-02 -9.518451988697052002e-03 1.347756683826446533e-01
-1.522512286901473999e-01 -1.830677688121795654e-02 -1.641773134469985962e-01
1.348640397191047668e-02 -5.483136326074600220e-02 -4.976656287908554077e-03
7.548762857913970947e-02 -4.846534132957458496e-02 -1.288685500621795654e-01
2.471111342310905457e-02 -3.910158574581146240e-02 -1.780685335397720337e-01
7.568080723285675049e-02 -1.975904032588005066e-02 7.683561742305755615e-02
9.226121008396148682e-02 -2.384329028427600861e-02 -1.110155135393142700e-01
8.947327733039855957e-04 -5.030737817287445068e-02 -1.336721181869506836e-01
1.198749095201492310e-01 -3.829982876777648926e-02 -1.002774834632873535e-01
9.386183321475982666e-02 -5.353149026632308960e-02 -3.536241129040718079e-02
-9.698922932147979736e-02 -3.315527364611625671e-02 1.105097532272338867e-01
-1.310272961854934692e-01 -4.061866924166679382e-02 1.658074557781219482e-02
-1.998097300529479980e-01 6.238522008061408997e-03 -5.044897645711898804e-02
-2.159680277109146118e-01 3.799585625529289246e-03 -4.570041224360466003e-02
4.420014098286628723e-02 -5.203434824943542480e-02 3.747637197375297546e-02
-1.001416221261024475e-01 6.911754608154296875e-04 -1.307261735200881958e-01
8.815287053585052490e-02 -1.513830944895744324e-02 -1.599723473191261292e-03
-4.548992589116096497e-02 -5.165300890803337097e-02 -8.113019168376922607e-02
2.749313041567802429e-02 -5.403810739517211914e-02 -1.006787866353988647e-01
2.158098295331001282e-02 -2.988449856638908386e-02 1.294993162155151367e-01
-1.058648526668548584e-01 7.201706990599632263e-03 -7.708036154508590698e-02
-6.248522549867630005e-03 -2.960841171443462372e-02 -1.922895163297653198e-01
-1.589923352003097534e-01 -3.730192035436630249e-02 -2.787712030112743378e-02
-1.725662648677825928e-01 -2.209524437785148621e-02 -1.421307027339935303e-01
-1.353221684694290161e-01 -2.390953525900840759e-02 -1.703699976205825806e-01
2.696130052208900452e-02 -5.237976461648941040e-02 -1.194422245025634766e-01
-1.516279280185699463e-01 -3.255239501595497131e-02 6.279818713665008545e-02
2.447002753615379333e-02 -3.244796767830848694e-03 -5.112305656075477600e-02
-9.035514295101165771e-02 -4.664365947246551514e-02 -8.968508243560791016e-02
1.997959986329078674e-02 -3.485957160592079163e-03 4.727702215313911438e-02
-1.403794586658477783e-01 6.901398301124572754e-04 1.081426590681076050e-01
-4.243774339556694031e-02 -4.619367420673370361e-02 -1.459092944860458374e-01
1.304983198642730713e-01 -3.454784303903579712e-02 6.957171484827995300e-03
-1.413616389036178589e-01 9.569656103849411011e-04 -1.274703592061996460e-01
-2.393922582268714905e-02 -5.338660627603530884e-02 -7.661554962396621704e-02
-2.533568628132343292e-02 -5.318537726998329163e-02 -7.378762587904930115e-03
-4.877498373389244080e-02 2.867577597498893738e-03 7.426537573337554932e-02
4.096447303891181946e-02 -5.589817464351654053e-02 -2.980068884789943695e-02
-1.806166917085647583e-01 6.217911839485168457e-03 -7.379153370857238770e-02
-1.371352747082710266e-02 -4.094250500202178955e-02 1.066959053277969360e-01
-7.524638622999191284e-02 -4.946631565690040588e-02 -2.448672428727149963e-02
9.860680997371673584e-02 -2.241784706711769104e-02 4.757093265652656555e-02
-9.299129992723464966e-02 -4.224189370870590210e-02 -1.345350444316864014e-01
-1.601771116256713867e-01 5.989966914057731628e-03 -8.815895020961761475e-02
-7.324107736349105835e-02 -4.918802902102470398e-02 -7.723891735076904297e-02
1.293272897601127625e-02 -1.335827633738517761e-03 2.809548005461692810e-02
-1.773631870746612549e-01 -3.236659243702888489e-02 -7.198810577392578125e-02
-4.382200911641120911e-02 -4.533062130212783813e-02 7.316054403781890869e-02
1.143936365842819214e-01 -2.388373948633670807e-02 4.672951996326446533e-03
-1.707531809806823730e-01 1.008396036922931671e-02 -4.705747589468955994e-03
8.854310214519500732e-02 -5.381048470735549927e-02 -2.296562306582927704e-02
4.898190870881080627e-02 -6.806530058383941650e-03 1.281692460179328918e-02
-1.247816532850265503e-01 7.459854707121849060e-03 -7.885785400867462158e-02
6.148124113678932190e-02 -9.954423643648624420e-03 2.742728590965270996e-02
-8.414406329393386841e-02 -4.832554236054420471e-02 -1.647749543190002441e-02
-8.395854383707046509e-02 8.030213415622711182e-03 -4.776900261640548706e-02
-2.363380976021289825e-02 -1.608988270163536072e-03 8.974392712116241455e-02
-1.932002454996109009e-01 2.211857587099075317e-03 7.197658717632293701e-02
1.187263876199722290e-01 -4.796038568019866943e-02 -3.132570534944534302e-03
5.438921973109245300e-02 -5.447286367416381836e-02 4.021661356091499329e-03
-1.189132928848266602e-01 -4.114123433828353882e-02 3.500507771968841553e-02
-6.064470484852790833e-02 -4.426296800374984741e-03 -1.491891145706176758e-01
-3.029878623783588409e-02 2.244018018245697021e-03 -7.544568926095962524e-02
-1.849735081195831299e-01 9.238855913281440735e-03 -6.066352128982543945e-03
8.661933243274688721e-02 -4.221571981906890869e-02 -1.404823511838912964e-01
-1.334248334169387817e-01 1.062714867293834686e-02 6.420753896236419678e-03
-4.726017266511917114e-02 3.354741260409355164e-03 -8.170098811388015747e-02
6.596259772777557373e-02 -2.100235596299171448e-02 9.358841180801391602e-02
-1.927756965160369873e-01 -2.155874855816364288e-02 6.488798558712005615e-02
4.330066218972206116e-02 -3.908886760473251343e-02 -1.719807088375091553e-01
-5.443833768367767334e-03 -5.059939622879028320e-02 4.646708443760871887e-02
3.174964338541030884e-03 -3.915192559361457825e-03 7.928876578807830811e-02
-1.201498061418533325e-01 -1.962582021951675415e-02 1.341248899698257446e-01
-1.595387607812881470e-01 -2.690747566521167755e-02 8.550691604614257812e-02
-1.751207411289215088e-01 -6.748160347342491150e-03 -1.396811902523040771e-01
-7.349245995283126831e-02 8.238811045885086060e-03 -1.909274607896804810e-02
-1.670246720314025879e-01 -3.133926168084144592e-02 -1.102961003780364990e-01
-6.954575330018997192e-02 -4.949209839105606079e-02 -4.436271265149116516e-03
-1.615882962942123413e-01 -3.397475928068161011e-03 1.115531176328659058e-01
-2.792633697390556335e-02 -3.897598385810852051e-02 -1.813866198062896729e-01
-2.017065584659576416e-01 -2.308359555900096893e-02 3.767256066203117371e-02
-1.086699813604354858e-01 -5.157107487320899963e-03 -1.584250032901763916e-01
-2.171702235937118530e-01 4.760477691888809204e-03 -2.386294491589069366e-02
2.419259026646614075e-02 -5.093874409794807434e-03 -8.113326877355575562e-02
-8.482951670885086060e-03 -1.527686044573783875e-02 -1.716219931840896606e-01
-5.012720078229904175e-02 3.930553793907165527e-05 9.799243509769439697e-02
-4.774607717990875244e-02 -1.371973287314176559e-02 -1.799631714820861816e-01
-1.004162058234214783e-01 -4.634682089090347290e-02 -6.553113460540771484e-02
8.577005565166473389e-02 -1.435868721455335617e-02 -1.409519743174314499e-02
4.362047836184501648e-02 -5.577871948480606079e-02 -6.357484310865402222e-02
6.477639079093933105e-02 -5.534031242132186890e-02 -2.519970200955867767e-02
-9.425865858793258667e-02 9.433226659893989563e-03 1.058848202228546143e-02
-1.427017301321029663e-01 -4.029253870248794556e-02 -4.666688665747642517e-02
-9.842046350240707397e-02 -4.450242593884468079e-02 2.762171253561973572e-02
-2.273302674293518066e-01 -1.215743925422430038e-02 2.984797954559326172e-02
4.288253560662269592e-02 -4.756996780633926392e-02 7.122372090816497803e-02
-2.340043149888515472e-02 2.152785658836364746e-03 5.123025551438331604e-02
7.496662437915802002e-03 -3.606779873371124268e-02 1.225424110889434814e-01
-4.021883383393287659e-02 -5.144131183624267578e-02 -9.418874979019165039e-02
-1.134703159332275391e-01 2.947913482785224915e-03 1.006316691637039185e-01
