-2.680411934852600098e-02 -3.015011847019195557e-01 -5.480726361274719238e-01
9.097734838724136353e-02 -3.207718729972839355e-01 -5.399436354637145996e-01
-1.573966741561889648e-01 -3.122456073760986328e-01 -4.706351459026336670e-01
-2.848708629608154297e-01 -2.681041955947875977e-01 -5.417392849922180176e-01
-2.061181068420410156e-01 -3.356972336769104004e-01 -5.480087995529174805e-01
-1.533031314611434937e-01 -4.186037778854370117e-01 -4.801938533782958984e-01
1.895487904548645020e-01 -4.663796722888946533e-01 -5.234683752059936523e-01
-9.131386876106262207e-02 -4.821075201034545898e-01 -4.900997579097747803e-01
1.498111784458160400e-01 -2.768081426620483398e-01 -4.765827059745788574e-01
1.203932687640190125e-01 -4.236920773983001709e-01 -5.372466444969177246e-01
1.378448605537414551e-01 -4.284439980983734131e-01 -5.350753664970397949e-01
1.524513363838195801e-01 -3.339976072311401367e-01 -5.327823758125305176e-01
-1.551648974418640137e-01 -3.463698029518127441e-01 -5.499251484870910645e-01
2.245475053787231445e-01 -3.681580722332000732e-01 -5.213392972946166992e-01
8.767981082201004028e-02 -3.020754456520080566e-01 -5.385270118713378906e-01
1.801657676696777344e-01 -4.251587688922882080e-01 -4.698452055454254150e-01
-4.671274125576019287e-02 -5.014934539794921875e-01 -4.924314618110656738e-01
1.057435795664787292e-01 -3.143482208251953125e-01 -5.375836491584777832e-01
-2.699644863605499268e-01 -2.110016793012619019e-01 -4.907315969467163086e-01
-1.395557820796966553e-01 -2.939975261688232422e-01 -4.694234430789947510e-01
2.133297622203826904e-01 -4.390625059604644775e-01 -4.746149182319641113e-01
7.311293482780456543e-02 -4.760737419128417969e-01 -4.740883409976959229e-01
-8.847841992974281311e-03 -2.569403648376464844e-01 -5.423250198364257812e-01
-2.586501836776733398e-02 -4.022089540958404541e-01 -5.470739006996154785e-01
-3.026526421308517456e-02 -1.663711965084075928e-01 -4.998390376567840576e-01
1.090441867709159851e-01 -2.169977426528930664e-01 -4.970042705535888672e-01
-2.854686975479125977e-02 -5.060319900512695312e-01 -4.921543896198272705e-01
-4.760842025279998779e-02 -1.633478701114654541e-01 -5.133134126663208008e-01
-2.889302372932434082e-01 -2.255752831697463989e-01 -4.918062388896942139e-01
-2.784774601459503174e-01 -1.699111014604568481e-01 -5.176541209220886230e-01
4.278127849102020264e-02 -3.463264405727386475e-01 -5.456285476684570312e-01
-1.412196159362792969e-01 -2.458705604076385498e-01 -5.467199087142944336e-01
-1.115814894437789917e-01 -2.356595247983932495e-01 -4.725337326526641846e-01
-8.341867476701736450e-02 -3.614460825920104980e-01 -5.502574443817138672e-01
-1.065939851105213165e-02 -4.645660519599914551e-01 -4.750142991542816162e-01
4.276768863201141357e-02 -1.869843006134033203e-01 -5.030848383903503418e-01
-3.919851034879684448e-03 -4.455062150955200195e-01 -5.414964556694030762e-01
1.763459444046020508e-01 -5.079965591430664062e-01 -4.884501993656158447e-01
5.189140141010284424e-02 -2.556415200233459473e-01 -4.707030951976776123e-01
-3.551359474658966064e-01 -2.872723937034606934e-01 -5.193613171577453613e-01
-8.119902014732360840e-02 -4.548922777175903320e-01 -5.384300947189331055e-01
-1.032728627324104309e-01 -2.172337770462036133e-01 -5.413327813148498535e-01
8.407353609800338745e-02 -4.203591942787170410e-01 -4.655467569828033447e-01
5.285113304853439331e-02 -2.098469436168670654e-01 -4.839995801448822021e-01
-2.782781124114990234e-01 -1.774542480707168579e-01 -5.032054185867309570e-01
-1.438062265515327454e-02 -2.937169671058654785e-01 -4.646034240722656250e-01
1.063622906804084778e-01 -4.013828039169311523e-01 -4.645532965660095215e-01
-1.176375821232795715e-01 -2.992058396339416504e-01 -4.678286910057067871e-01
-3.636465594172477722e-02 -2.458603233098983765e-01 -4.697303771972656250e-01
9.731501340866088867e-04 -2.094238102436065674e-01 -4.786937832832336426e-01
-7.634477317333221436e-02 -4.227274954319000244e-01 -4.721263647079467773e-01
-2.510468065738677979e-01 -2.584671080112457275e-01 -5.445634126663208008e-01
-1.235867813229560852e-01 -3.950893282890319824e-01 -5.470913648605346680e-01
-1.326819956302642822e-01 -3.244434893131256104e-01 -4.687198698520660400e-01
-4.801600798964500427e-02 -3.967764377593994141e-01 -4.668960869312286377e-01
1.243223175406455994e-01 -2.837117016315460205e-01 -5.304527878761291504e-01
-2.257503196597099304e-02 -4.555967450141906738e-01 -5.397748947143554688e-01
1.766149401664733887e-01 -4.381621479988098145e-01 -5.293484926223754883e-01
1.709990501403808594e-01 -3.612470924854278564e-01 -5.317615270614624023e-01
-6.696183979511260986e-02 -4.689285457134246826e-01 -5.353571176528930664e-01
-3.133379295468330383e-02 -2.070541679859161377e-01 -4.777825474739074707e-01
-9.529169648885726929e-03 -3.079935908317565918e-01 -5.475192070007324219e-01
1.445278897881507874e-02 -2.720462679862976074e-01 -5.424746274948120117e-01
-1.683517992496490479e-01 -3.845447003841400146e-01 -5.461600422859191895e-01
-9.589362144470214844e-02 -2.360705733299255371e-01 -5.443444252014160156e-01
3.000088036060333252e-03 -5.148777961730957031e-01 -4.934368133544921875e-01
-3.486555516719818115e-01 -2.308142632246017456e-01 -5.128184556961059570e-01
-3.346936404705047607e-01 -2.619965076446533203e-01 -5.320829749107360840e-01
-9.879413247108459473e-02 -4.829642474651336670e-01 -5.269479155540466309e-01
1.884263381361961365e-02 -4.131796360015869141e-01 -5.448396205902099609e-01
1.572227478027343750e-01 -3.280410170555114746e-01 -4.689107835292816162e-01
2.278579771518707275e-01 -4.745275378227233887e-01 -4.836785197257995605e-01
-1.073826476931571960e-02 -4.216285645961761475e-01 -5.448695421218872070e-01
-1.403756737709045410e-01 -2.720093429088592529e-01 -4.704583585262298584e-01
-6.781414896249771118e-02 -2.233282029628753662e-01 -4.735626578330993652e-01
6.825006753206253052e-02 -3.573115766048431396e-01 -4.627172946929931641e-01
-1.060984581708908081e-01 -2.805649638175964355e-01 -4.679791927337646484e-01
1.896720826625823975e-01 -4.042832255363464355e-01 -4.695431888103485107e-01
2.434498667716979980e-01 -4.330974221229553223e-01 -4.790829420089721680e-01
1.680533587932586670e-01 -2.578538358211517334e-01 -5.095838308334350586e-01
-4.926538467407226562e-02 -3.037680685520172119e-01 -5.492197871208190918e-01
1.335137486457824707e-01 -2.400432825088500977e-01 -5.139880776405334473e-01
2.024187445640563965e-01 -4.896627664566040039e-01 -4.839326441287994385e-01
-2.921796441078186035e-01 -3.200946450233459473e-01 -5.395369529724121094e-01
3.758262097835540771e-02 -2.038073092699050903e-01 -4.844907522201538086e-01
2.715470790863037109e-01 -4.402969181537628174e-01 -5.035368204116821289e-01
-1.184967756271362305e-01 -3.509467542171478271e-01 -5.505322813987731934e-01
1.586913168430328369e-01 -2.698803544044494629e-01 -5.191871523857116699e-01
-3.966442495584487915e-02 -4.106914401054382324e-01 -4.678571820259094238e-01
-1.424634456634521484e-01 -3.736032843589782715e-01 -5.485729575157165527e-01
2.460583299398422241e-02 -2.284357547760009766e-01 -5.332519412040710449e-01
-3.206810951232910156e-01 -3.327619433403015137e-01 -5.017598271369934082e-01
2.538154274225234985e-02 -5.196918845176696777e-01 -4.943116903305053711e-01
2.306697964668273926e-01 -3.307833969593048096e-01 -4.818404912948608398e-01
2.099924385547637939e-01 -3.277918994426727295e-01 -5.198309421539306641e-01
1.064378097653388977e-01 -2.982358634471893311e-01 -5.356038212776184082e-01
4.214885830879211426e-02 -2.095103859901428223e-01 -5.241938233375549316e-01
-2.762220501899719238e-01 -2.598542571067810059e-01 -4.862738847732543945e-01
2.555467188358306885e-01 -3.582330346107482910e-01 -4.848605394363403320e-01
-3.192740678787231445e-01 -2.548145353794097900e-01 -5.355218648910522461e-01
-1.960700452327728271e-01 -4.037083983421325684e-01 -4.840424656867980957e-01
-9.892362356185913086e-02 -1.906772404909133911e-01 -5.345298647880554199e-01
-8.947310596704483032e-02 -2.979382872581481934e-01 -5.501411557197570801e-01
-1.094889417290687561e-01 -1.627712547779083252e-01 -4.931452870368957520e-01
1.562089025974273682e-01 -2.924044728279113770e-01 -4.740174114704132080e-01
2.541031688451766968e-02 -2.896740138530731201e-01 -5.435729026794433594e-01
2.153427600860595703e-01 -4.075043797492980957e-01 -4.726668596267700195e-01
-1.221791841089725494e-02 -4.488837718963623047e-01 -4.718627333641052246e-01
-6.520870327949523926e-02 -3.336969017982482910e-01 -5.505335927009582520e-01
1.462121903896331787e-01 -3.854821324348449707e-01 -5.359043478965759277e-01
-1.264569759368896484e-01 -1.986417323350906372e-01 -4.799155294895172119e-01
3.526093065738677979e-02 -3.346538543701171875e-01 -4.626802802085876465e-01
2.159351110458374023e-01 -3.477834165096282959e-01 -5.214066505432128906e-01
-2.098087668418884277e-01 -3.511736094951629639e-01 -4.784064590930938721e-01
2.396316230297088623e-01 -3.946586847305297852e-01 -5.187663435935974121e-01
-3.766485676169395447e-02 -5.110367536544799805e-01 -5.170125961303710938e-01
2.604909837245941162e-01 -4.182214140892028809e-01 -5.119047164916992188e-01
1.172737255692481995e-01 -2.325005829334259033e-01 -5.156331062316894531e-01
-1.880285441875457764e-01 -4.284536242485046387e-01 -5.354693531990051270e-01
1.634353101253509521e-01 -2.654649019241333008e-01 -4.833360910415649414e-01
-1.673139035701751709e-01 -3.925849497318267822e-01 -4.775138199329376221e-01
2.632396519184112549e-01 -4.009224772453308105e-01 -5.108960270881652832e-01
1.669884920120239258e-01 -4.215660095214843750e-01 -5.320254564285278320e-01
1.492939889430999756e-01 -5.219396948814392090e-01 -5.067840218544006348e-01
-5.228712782263755798e-02 -2.478085160255432129e-01 -5.439934730529785156e-01
1.006148084998130798e-01 -3.391044735908508301e-01 -5.400956869125366211e-01
-3.218953609466552734e-01 -2.096780240535736084e-01 -5.039647817611694336e-01
1.240577027201652527e-01 -2.758813798427581787e-01 -4.730846881866455078e-01
-2.940803170204162598e-01 -3.632056713104248047e-01 -5.317063331604003906e-01
9.810907393693923950e-02 -3.077043592929840088e-01 -4.661832749843597412e-01
-7.581287622451782227e-02 -3.004433810710906982e-01 -4.656776785850524902e-01
2.152466773986816406e-01 -4.686434268951416016e-01 -5.180871486663818359e-01
1.180477365851402283e-01 -3.924688994884490967e-01 -5.390477180480957031e-01
-2.433655858039855957e-01 -3.214373588562011719e-01 -4.812555909156799316e-01
1.860772967338562012e-01 -4.823179244995117188e-01 -5.204967856407165527e-01
2.304978668689727783e-03 -4.168875217437744141e-01 -4.665215611457824707e-01
-2.591484487056732178e-01 -1.907401382923126221e-01 -5.330418944358825684e-01
-1.187071278691291809e-01 -4.503470659255981445e-01 -4.828838407993316650e-01
1.159549728035926819e-01 -4.912883639335632324e-01 -4.779919087886810303e-01
1.290494799613952637e-01 -2.424457818269729614e-01 -4.843662977218627930e-01
1.325165033340454102e-01 -4.976594746112823486e-01 -5.232528448104858398e-01
1.683442294597625732e-02 -3.393763899803161621e-01 -4.625959992408752441e-01
-3.563929349184036255e-03 -2.578164339065551758e-01 -4.683150053024291992e-01
1.204800829291343689e-01 -3.456922769546508789e-01 -5.381217598915100098e-01
-7.012099027633666992e-02 -1.806408464908599854e-01 -5.286526679992675781e-01
-2.884370833635330200e-02 -4.384678602218627930e-01 -5.428113341331481934e-01
-2.544015645980834961e-01 -3.964027166366577148e-01 -4.960218667984008789e-01
-3.102431297302246094e-01 -2.741300463676452637e-01 -5.380660891532897949e-01
-5.915605276823043823e-02 -1.597547829151153564e-01 -5.016032457351684570e-01
9.354557842016220093e-02 -4.972048401832580566e-01 -4.796985685825347900e-01
2.232611775398254395e-01 -4.981374740600585938e-01 -5.012349486351013184e-01
1.824602112174034119e-02 -2.486927360296249390e-01 -4.703248143196105957e-01
9.232901781797409058e-02 -2.822729945182800293e-01 -5.352319478988647461e-01
1.406053900718688965e-01 -3.775782883167266846e-01 -4.653208553791046143e-01
-9.573371708393096924e-02 -4.403007030487060547e-01 -5.410491228103637695e-01
-1.228107288479804993e-01 -4.301258325576782227e-01 -5.416651368141174316e-01
8.921746164560317993e-02 -3.667142391204833984e-01 -5.420847535133361816e-01
1.010123118758201599e-01 -4.382575154304504395e-01 -5.375886559486389160e-01
9.177804738283157349e-02 -3.592828214168548584e-01 -4.632495641708374023e-01
1.448324322700500488e-02 -4.851309061050415039e-01 -5.326802730560302734e-01
1.114456132054328918e-01 -4.567744731903076172e-01 -4.703586101531982422e-01
1.829713210463523865e-02 -5.029059648513793945e-01 -4.849561452865600586e-01
-1.356225013732910156e-01 -4.798827171325683594e-01 -5.206599831581115723e-01
-7.070495933294296265e-02 -2.450919747352600098e-01 -5.445894002914428711e-01
-2.702281475067138672e-01 -2.355878055095672607e-01 -5.408009290695190430e-01
-1.051385253667831421e-01 -4.151330292224884033e-01 -4.736426174640655518e-01
-8.396076038479804993e-03 -4.905505180358886719e-01 -4.823458790779113770e-01
1.154539957642555237e-01 -4.871850609779357910e-01 -5.278962254524230957e-01
-1.529335826635360718e-01 -2.289853692054748535e-01 -4.755011200904846191e-01
1.935132145881652832e-01 -2.890328764915466309e-01 -4.829373657703399658e-01
-2.038440406322479248e-01 -2.144457995891571045e-01 -4.816408455371856689e-01
-2.034137845039367676e-01 -2.512775659561157227e-01 -5.465528368949890137e-01
3.819514811038970947e-02 -4.058444201946258545e-01 -5.445343255996704102e-01
-9.391283988952636719e-02 -3.158886134624481201e-01 -4.661613106727600098e-01
-1.932464241981506348e-01 -3.012925684452056885e-01 -4.740877151489257812e-01
-1.078995838761329651e-01 -2.507666051387786865e-01 -5.467250943183898926e-01
-5.056813359260559082e-02 -2.223490476608276367e-01 -4.737610816955566406e-01
-6.494001299142837524e-02 -4.084730744361877441e-01 -4.692468047142028809e-01
4.357253760099411011e-02 -2.499853074550628662e-01 -5.358166098594665527e-01
-2.110024392604827881e-01 -3.076268434524536133e-01 -4.761868119239807129e-01
-2.467244267463684082e-01 -2.705977559089660645e-01 -4.811713993549346924e-01
-2.243298590183258057e-01 -2.379799783229827881e-01 -5.443319678306579590e-01
1.208524405956268311e-02 -4.812998771667480469e-01 -4.778089225292205811e-01
-1.820911765098571777e-01 -3.678717017173767090e-01 -4.762851297855377197e-01
-3.375836014747619629e-01 -2.813393771648406982e-01 -5.312795042991638184e-01
-1.297077834606170654e-01 -3.172748386859893799e-01 -5.509615540504455566e-01
8.184339106082916260e-02 -2.837008535861968994e-01 -4.680211842060089111e-01
-1.426146365702152252e-02 -1.703727096319198608e-01 -5.107321143150329590e-01
1.279804706573486328e-01 -2.263574004173278809e-01 -4.991059899330139160e-01
-1.971274316310882568e-01 -2.329078316688537598e-01 -4.783536195755004883e-01
-4.706380888819694519e-02 -4.137100875377655029e-01 -5.461780428886413574e-01
-3.220364451408386230e-01 -1.964399814605712891e-01 -5.199304223060607910e-01
-3.439103960990905762e-01 -3.179380297660827637e-01 -5.212473273277282715e-01
-6.223528087139129639e-02 -2.074478864669799805e-01 -5.367405414581298828e-01
-2.295271158218383789e-01 -3.698128759860992432e-01 -4.839165806770324707e-01
1.060797497630119324e-01 -3.248599171638488770e-01 -4.651900827884674072e-01
-2.778211832046508789e-01 -3.968424201011657715e-01 -5.070244669914245605e-01
-2.580845654010772705e-01 -3.636099994182586670e-01 -5.396888852119445801e-01
2.445343136787414551e-01 -4.653970897197723389e-01 -4.852676689624786377e-01
-4.559888318181037903e-02 -3.192519545555114746e-01 -5.497150421142578125e-01
-8.136619627475738525e-02 -1.562208980321884155e-01 -5.126404762268066406e-01
1.497620344161987305e-01 -5.144247412681579590e-01 -4.890879392623901367e-01
-9.995185583829879761e-02 -2.484823167324066162e-01 -4.704767167568206787e-01
-2.278748750686645508e-01 -3.702403604984283447e-01 -5.428287982940673828e-01
5.722784250974655151e-02 -3.590576648712158203e-01 -5.447319746017456055e-01
2.327614426612854004e-01 -4.786654412746429443e-01 -5.104208588600158691e-01
1.010036990046501160e-01 -2.618543505668640137e-01 -5.298953056335449219e-01
-7.348462939262390137e-02 -2.464909851551055908e-01 -4.699811339378356934e-01
-2.368192672729492188e-01 -3.085643053054809570e-01 -5.467905998229980469e-01
-3.316299617290496826e-01 -3.118297457695007324e-01 -5.305327773094177246e-01
7.016809284687042236e-02 -4.545976817607879639e-01 -5.375139117240905762e-01
1.562036275863647461e-01 -4.848451614379882812e-01 -4.777125716209411621e-01
-3.427469134330749512e-01 -2.388418018817901611e-01 -5.268319249153137207e-01
1.026800200343132019e-01 -2.688001692295074463e-01 -4.721796810626983643e-01
-3.159206509590148926e-01 -2.848868966102600098e-01 -4.945899546146392822e-01
2.268274426460266113e-01 -4.493641853332519531e-01 -4.779748618602752686e-01
1.208856180310249329e-01 -2.580797076225280762e-01 -4.770026504993438721e-01
-8.153933286666870117e-02 -2.145406007766723633e-01 -4.754123687744140625e-01
-1.403046026825904846e-02 -2.725057899951934814e-01 -5.447570085525512695e-01
-2.314907014369964600e-01 -4.268102049827575684e-01 -5.015982389450073242e-01
-1.931203603744506836e-01 -2.357990741729736328e-01 -5.451555252075195312e-01
1.294246315956115723e-01 -5.188486576080322266e-01 -4.904677271842956543e-01
1.160056963562965393e-01 -3.506087362766265869e-01 -4.643927514553070068e-01
4.314013570547103882e-02 -4.861213564872741699e-01 -5.320141911506652832e-01
3.624854236841201782e-02 -3.246317207813262939e-01 -5.453442931175231934e-01
-5.361327156424522400e-02 -4.831912815570831299e-01 -4.845989048480987549e-01
-1.640860438346862793e-01 -2.249170243740081787e-01 -5.439441800117492676e-01
2.420164048671722412e-01 -3.673638403415679932e-01 -4.788356721401214600e-01
1.141576841473579407e-01 -4.533106684684753418e-01 -5.346006751060485840e-01
2.891568094491958618e-02 -4.581319391727447510e-01 -5.386562943458557129e-01
4.211634397506713867e-02 -3.784261345863342285e-01 -4.629181921482086182e-01
-1.096605584025382996e-01 -3.141644001007080078e-01 -4.670854210853576660e-01
9.065955132246017456e-02 -4.490669965744018555e-01 -4.689614772796630859e-01
-1.427291929721832275e-01 -1.615417897701263428e-01 -4.938780963420867920e-01
-1.531022787094116211e-01 -3.991266489028930664e-01 -5.451564788818359375e-01
-7.344554364681243896e-02 -2.234768569469451904e-01 -5.410869717597961426e-01
-3.410418927669525146e-01 -2.165295183658599854e-01 -5.194882750511169434e-01
-2.347311079502105713e-01 -2.034975588321685791e-01 -4.870455563068389893e-01
-1.728689670562744141e-01 -3.311903774738311768e-01 -4.725413620471954346e-01
-1.722438633441925049e-01 -4.046041369438171387e-01 -5.428833365440368652e-01
7.021126896142959595e-02 -2.556570768356323242e-01 -4.719597399234771729e-01
-1.271563768386840820e-01 -1.827111393213272095e-01 -4.844221174716949463e-01
-3.282760828733444214e-02 -2.418486326932907104e-01 -5.417703390121459961e-01
-2.013903558254241943e-01 -1.616933941841125488e-01 -5.250357985496520996e-01
2.490237951278686523e-01 -3.316608071327209473e-01 -5.032654404640197754e-01
3.465079516172409058e-02 -5.038076043128967285e-01 -5.261542201042175293e-01
-1.891251504421234131e-01 -4.065559804439544678e-01 -5.408722758293151855e-01
1.637292802333831787e-01 -3.628563284873962402e-01 -4.672224521636962891e-01
1.918548643589019775e-01 -4.733272790908813477e-01 -4.777970314025878906e-01
2.267318591475486755e-02 -3.777481615543365479e-01 -4.630847275257110596e-01
-1.074574664235115051e-01 -3.173923492431640625e-01 -5.509715080261230469e-01
-1.782155334949493408e-01 -2.021975815296173096e-01 -4.818258285522460938e-01
-3.072742521762847900e-01 -3.485253751277923584e-01 -5.314545035362243652e-01
-5.641116201877593994e-02 -1.723800152540206909e-01 -4.901220202445983887e-01
-2.578998357057571411e-02 -4.370280504226684570e-01 -4.706392884254455566e-01
4.496244341135025024e-02 -3.062748312950134277e-01 -5.434038639068603516e-01
-1.310368627309799194e-01 -2.823674082756042480e-01 -5.498343706130981445e-01
-1.249443665146827698e-01 -4.145309329032897949e-01 -4.757035374641418457e-01
-1.715409196913242340e-02 -3.433933258056640625e-01 -4.630954861640930176e-01
-1.158552542328834534e-01 -2.177383005619049072e-01 -4.755438268184661865e-01
-1.577047407627105713e-01 -1.946934312582015991e-01 -5.377660393714904785e-01
-1.752769947052001953e-01 -2.026270627975463867e-01 -5.397419929504394531e-01
-1.973576247692108154e-01 -1.637591868638992310e-01 -4.959495365619659424e-01
-1.892334818840026855e-01 -2.834883928298950195e-01 -4.739283919334411621e-01
-1.088436022400856018e-01 -3.339467346668243408e-01 -5.510041117668151855e-01
1.586430966854095459e-01 -2.948795855045318604e-01 -5.259737968444824219e-01
-2.894542217254638672e-01 -1.962704956531524658e-01 -4.982133507728576660e-01
-7.447197288274765015e-02 -4.893895983695983887e-01 -4.905973672866821289e-01
5.505557358264923096e-02 -4.227218627929687500e-01 -4.658395051956176758e-01
1.729109883308410645e-01 -2.781631946563720703e-01 -5.177364349365234375e-01
1.624244749546051025e-01 -4.468549489974975586e-01 -4.708404242992401123e-01
-1.226927489042282104e-01 -2.602713108062744141e-01 -4.702872335910797119e-01
-3.000480830669403076e-01 -3.411189019680023193e-01 -4.958806633949279785e-01
-2.075242698192596436e-01 -2.674285471439361572e-01 -5.476385354995727539e-01
4.232760518789291382e-03 -3.639549911022186279e-01 -4.629416763782501221e-01
2.604445517063140869e-01 -3.896475732326507568e-01 -4.825164079666137695e-01
-5.148276686668395996e-04 -7.701832056045532227e-01 5.190591216087341309e-01
-5.001004040241241455e-02 -5.117973089218139648e-01 4.960283339023590088e-01
-3.660565987229347229e-02 -5.297231078147888184e-01 4.951511621475219727e-01
1.071492284536361694e-01 -4.745823442935943604e-01 5.386736392974853516e-01
1.122784987092018127e-02 -5.426833629608154297e-01 4.958987832069396973e-01
4.178930446505546570e-02 -4.953297376632690430e-01 5.003517270088195801e-01
8.550097048282623291e-02 -6.970449686050415039e-01 5.093042850494384766e-01
5.590527877211570740e-02 -7.402139306068420410e-01 5.644546151161193848e-01
-9.425444155931472778e-02 -5.618659257888793945e-01 5.596479773521423340e-01
8.899901807308197021e-02 -6.748310923576354980e-01 5.065868496894836426e-01
-8.568726480007171631e-02 -7.561736106872558594e-01 5.629093050956726074e-01
-1.952602155506610870e-02 -4.417064189910888672e-01 5.332319140434265137e-01
-2.809581160545349121e-02 -7.922494411468505859e-01 5.574002265930175781e-01
-2.200011536478996277e-02 -4.699057638645172119e-01 5.012059807777404785e-01
-2.121434062719345093e-01 -7.058303952217102051e-01 5.562552213668823242e-01
-1.337196081876754761e-01 -5.442002415657043457e-01 5.550749301910400391e-01
-2.077755779027938843e-01 -6.162877678871154785e-01 5.014245510101318359e-01
2.104309499263763428e-01 -6.025835871696472168e-01 5.182629227638244629e-01
-1.797899901866912842e-01 -7.860583662986755371e-01 5.391298532485961914e-01
9.184667468070983887e-02 -6.710065007209777832e-01 5.657861828804016113e-01
2.093116492033004761e-01 -5.713634490966796875e-01 5.452485680580139160e-01
1.295522004365921021e-01 -6.634623408317565918e-01 5.630724430084228516e-01
-5.841210111975669861e-02 -4.501886963844299316e-01 5.364799499511718750e-01
-1.173550635576248169e-01 -5.995228290557861328e-01 4.957283437252044678e-01
-2.494863271713256836e-01 -5.163334012031555176e-01 5.124853253364562988e-01
-2.382037639617919922e-01 -6.504456400871276855e-01 5.071544051170349121e-01
-2.284599840641021729e-01 -6.917476654052734375e-01 5.546050667762756348e-01
-7.839205861091613770e-02 -5.445556044578552246e-01 5.580241084098815918e-01
2.818923443555831909e-03 -6.794969439506530762e-01 5.684751272201538086e-01
3.173786774277687073e-02 -7.681715488433837891e-01 5.616675019264221191e-01
-1.441304385662078857e-01 -6.807461977005004883e-01 5.639110207557678223e-01
1.263735443353652954e-01 -5.617969632148742676e-01 5.564979314804077148e-01
5.022945627570152283e-02 -7.103517055511474609e-01 5.668576359748840332e-01
-1.069774776697158813e-01 -4.904108047485351562e-01 5.465823411941528320e-01
-9.130400419235229492e-02 -6.594462990760803223e-01 5.666322708129882812e-01
-5.568253621459007263e-02 -7.089885473251342773e-01 5.051214098930358887e-01
-2.274468392133712769e-01 -5.621149539947509766e-01 5.478088855743408203e-01
1.747287511825561523e-01 -7.259715795516967773e-01 5.291829109191894531e-01
-3.758451715111732483e-02 -5.562986135482788086e-01 4.945081472396850586e-01
-7.890281081199645996e-02 -8.071050643920898438e-01 5.487880706787109375e-01
1.392382234334945679e-01 -5.158599019050598145e-01 5.082205533981323242e-01
-1.754483580589294434e-01 -5.391055345535278320e-01 4.986381828784942627e-01
-1.316089183092117310e-01 -6.906281709671020508e-01 5.037186741828918457e-01
6.875754892826080322e-02 -6.161710619926452637e-01 5.000208020210266113e-01
-3.080736994743347168e-01 -6.025266647338867188e-01 5.248428583145141602e-01
5.961310490965843201e-02 -7.854789495468139648e-01 5.553530454635620117e-01
-1.284247785806655884e-01 -5.823215842247009277e-01 5.601190924644470215e-01
-1.698445081710815430e-01 -7.637785077095031738e-01 5.214643478393554688e-01
-1.976568400859832764e-01 -6.124832034111022949e-01 5.570026636123657227e-01
5.999368056654930115e-02 -4.888958036899566650e-01 5.024501681327819824e-01
-2.872677743434906006e-01 -6.663476228713989258e-01 5.188732743263244629e-01
-1.304474323987960815e-01 -7.145037651062011719e-01 5.072672367095947266e-01
-1.740937530994415283e-01 -7.026870846748352051e-01 5.609100461006164551e-01
2.017204761505126953e-01 -6.445568203926086426e-01 5.189272761344909668e-01
7.622399926185607910e-02 -7.615317702293395996e-01 5.222700834274291992e-01
-1.281056702136993408e-01 -5.629028081893920898e-01 4.954833388328552246e-01
-1.600521802902221680e-01 -5.795638561248779297e-01 5.575855970382690430e-01
-2.147118449211120605e-01 -5.457342863082885742e-01 5.020267367362976074e-01
-2.265670150518417358e-01 -5.145752429962158203e-01 5.071127414703369141e-01
-5.259138345718383789e-02 -5.160377621650695801e-01 5.542672276496887207e-01
1.225380450487136841e-01 -7.051733136177062988e-01 5.144175887107849121e-01
-3.868335112929344177e-02 -5.739153027534484863e-01 5.626517534255981445e-01
2.758807316422462463e-02 -8.063226938247680664e-01 5.462663769721984863e-01
-1.033793985843658447e-01 -7.491464018821716309e-01 5.131627917289733887e-01
-4.492554441094398499e-02 -6.493118405342102051e-01 5.677008628845214844e-01
4.099082201719284058e-03 -5.419895052909851074e-01 5.589358210563659668e-01
1.440656483173370361e-01 -5.463740825653076172e-01 5.524753332138061523e-01
-1.648132652044296265e-01 -4.558040499687194824e-01 5.151813626289367676e-01
-2.609332501888275146e-01 -5.880903005599975586e-01 5.074120163917541504e-01
-1.342068985104560852e-02 -7.011710405349731445e-01 5.682291984558105469e-01
8.107574284076690674e-02 -4.464919567108154297e-01 5.225265026092529297e-01
4.794086143374443054e-02 -6.742696762084960938e-01 5.036671161651611328e-01
-2.539755403995513916e-01 -6.420457959175109863e-01 5.507149696350097656e-01
1.129105240106582642e-01 -6.246248483657836914e-01 5.040650963783264160e-01
1.273018121719360352e-01 -7.481915950775146484e-01 5.254693031311035156e-01
1.424278765916824341e-01 -4.896094501018524170e-01 5.384256839752197266e-01
-3.276590257883071899e-03 -6.793745160102844238e-01 5.020443201065063477e-01
3.247119858860969543e-02 -5.011142492294311523e-01 5.513637661933898926e-01
1.181681603193283081e-01 -6.625224947929382324e-01 5.078781247138977051e-01
5.345525220036506653e-02 -5.695676803588867188e-01 4.976600706577301025e-01
9.442675113677978516e-02 -4.638132750988006592e-01 5.121033787727355957e-01
-1.547509133815765381e-01 -7.794668674468994141e-01 5.258271694183349609e-01
1.006668359041213989e-01 -5.825445055961608887e-01 5.012363791465759277e-01
9.042833745479583740e-02 -7.830358743667602539e-01 5.516005158424377441e-01
-2.391196042299270630e-02 -7.520647048950195312e-01 5.136258006095886230e-01
-2.120869606733322144e-01 -5.862880945205688477e-01 5.530132055282592773e-01
4.876908287405967712e-02 -7.567039728164672852e-01 5.183013081550598145e-01
1.301216632127761841e-01 -5.652853250503540039e-01 5.041511654853820801e-01
1.503109186887741089e-02 -6.146407127380371094e-01 5.662583708763122559e-01
-1.454747915267944336e-01 -6.392586231231689453e-01 5.630485415458679199e-01
4.717204347252845764e-02 -6.880389451980590820e-01 5.676160454750061035e-01
4.860753938555717468e-02 -6.245427727699279785e-01 4.992974400520324707e-01
1.095577701926231384e-02 -7.045546770095825195e-01 5.058898925781250000e-01
2.279974669218063354e-01 -5.902175307273864746e-01 5.246423482894897461e-01
-3.019161820411682129e-01 -6.683403849601745605e-01 5.335220098495483398e-01
-1.748124212026596069e-01 -6.853203177452087402e-01 5.613409280776977539e-01
4.331883043050765991e-03 -4.446970820426940918e-01 5.087473988533020020e-01
5.614678934216499329e-02 -6.048641204833984375e-01 4.986816644668579102e-01
-2.942468523979187012e-01 -6.109693050384521484e-01 5.388468503952026367e-01
-2.022901624441146851e-01 -6.977443695068359375e-01 5.092740654945373535e-01
1.027201488614082336e-02 -5.235034227371215820e-01 4.965857565402984619e-01
-1.473342478275299072e-01 -5.556838512420654297e-01 5.557086467742919922e-01
1.799292117357254028e-01 -6.151707768440246582e-01 5.121822953224182129e-01
-1.852267384529113770e-01 -4.835398197174072266e-01 5.358862280845642090e-01
-1.311963349580764771e-01 -5.253038406372070312e-01 4.967606663703918457e-01
-1.207496523857116699e-01 -7.610611915588378906e-01 5.601269006729125977e-01
2.594847232103347778e-03 -5.262433886528015137e-01 5.565306544303894043e-01
6.946542859077453613e-02 -4.539299607276916504e-01 5.118073225021362305e-01
-7.058896124362945557e-02 -6.373011469841003418e-01 4.971323013305664062e-01
8.984602987766265869e-02 -4.615454673767089844e-01 5.353471040725708008e-01
8.571182191371917725e-02 -5.226550102233886719e-01 5.532948374748229980e-01
1.285171210765838623e-01 -6.340512633323669434e-01 5.063260197639465332e-01
-1.229005157947540283e-01 -5.024887323379516602e-01 4.982083737850189209e-01
9.020553529262542725e-02 -6.194413900375366211e-01 5.017628073692321777e-01
-4.523690789937973022e-02 -8.109018206596374512e-01 5.373250246047973633e-01
1.801076084375381470e-01 -6.567817926406860352e-01 5.571018457412719727e-01
9.374870359897613525e-02 -7.776486873626708984e-01 5.312266349792480469e-01
-1.599197685718536377e-01 -4.593622982501983643e-01 5.293284058570861816e-01
-2.826717495918273926e-01 -5.513336658477783203e-01 5.164110660552978516e-01
6.757669150829315186e-03 -7.234255075454711914e-01 5.087999105453491211e-01
-2.169975638389587402e-02 -5.095731019973754883e-01 5.535653233528137207e-01
4.992012307047843933e-02 -5.141534209251403809e-01 5.534350275993347168e-01
-2.024649977684020996e-01 -5.413417816162109375e-01 5.479703545570373535e-01
1.671849489212036133e-01 -7.019867897033691406e-01 5.571386814117431641e-01
6.916446983814239502e-02 -6.657668948173522949e-01 5.668717026710510254e-01
1.661617308855056763e-01 -6.503961086273193359e-01 5.590582489967346191e-01
-2.361699342727661133e-01 -4.951867759227752686e-01 5.167295932769775391e-01
-2.310351133346557617e-01 -5.301011800765991211e-01 5.056376457214355469e-01
-6.127814203500747681e-02 -5.311488509178161621e-01 5.565840005874633789e-01
-2.128550782799720764e-02 -7.493304014205932617e-01 5.652104616165161133e-01
-1.016327142715454102e-01 -7.352986335754394531e-01 5.642920136451721191e-01
-5.471667647361755371e-02 -4.956031441688537598e-01 4.973984062671661377e-01
-3.672570362687110901e-02 -7.438431978225708008e-01 5.115715265274047852e-01
-2.698766067624092102e-02 -7.635101675987243652e-01 5.634176731109619141e-01
-1.509630978107452393e-01 -7.325154542922973633e-01 5.611102581024169922e-01
-1.899154111742973328e-02 -5.658186078071594238e-01 4.947944581508636475e-01
-2.230131328105926514e-01 -6.663898229598999023e-01 5.070551037788391113e-01
1.901607960462570190e-02 -5.315911769866943359e-01 5.572239160537719727e-01
1.081071645021438599e-01 -7.270166277885437012e-01 5.169953107833862305e-01
-1.232996582984924316e-01 -8.004845976829528809e-01 5.471925139427185059e-01
-1.017564386129379272e-01 -6.798417568206787109e-01 5.015261769294738770e-01
1.430423259735107422e-01 -6.438802480697631836e-01 5.088406205177307129e-01
-2.370656281709671021e-01 -7.047491669654846191e-01 5.522686243057250977e-01
3.765093162655830383e-02 -7.824586033821105957e-01 5.581746697425842285e-01
2.124071866273880005e-01 -5.509750843048095703e-01 5.394253730773925781e-01
-5.350843816995620728e-02 -5.588778257369995117e-01 4.943664073944091797e-01
1.212231367826461792e-01 -5.804621577262878418e-01 5.031830072402954102e-01
-1.928845942020416260e-01 -7.466693520545959473e-01 5.544412732124328613e-01
2.126310020685195923e-03 -6.115150451660156250e-01 4.965764880180358887e-01
4.790730401873588562e-02 -5.841420888900756836e-01 4.975430667400360107e-01
-1.588047742843627930e-01 -7.069451808929443359e-01 5.074160099029541016e-01
-1.303432583808898926e-01 -7.386478781700134277e-01 5.118449330329895020e-01
9.963509440422058105e-02 -5.458220839500427246e-01 5.562692284584045410e-01
-2.206138521432876587e-01 -6.524779200553894043e-01 5.561565160751342773e-01
-1.958518289029598236e-02 -5.188912749290466309e-01 4.959615767002105713e-01
1.578498035669326782e-01 -6.179354190826416016e-01 5.088779926300048828e-01
1.021609604358673096e-01 -6.067867875099182129e-01 5.021106004714965820e-01
-1.023296862840652466e-01 -4.375689923763275146e-01 5.237154364585876465e-01
3.348806872963905334e-02 -5.759020447731018066e-01 4.966639280319213867e-01
1.876528412103652954e-01 -5.468510389328002930e-01 5.143775939941406250e-01
1.244543343782424927e-01 -6.869545578956604004e-01 5.116914510726928711e-01
-2.335974574089050293e-02 -6.034842133522033691e-01 5.655116438865661621e-01
1.200127750635147095e-01 -6.063951253890991211e-01 5.037802457809448242e-01
-1.916257888078689575e-01 -6.813282370567321777e-01 5.597059726715087891e-01
-1.765628755092620850e-01 -5.752357840538024902e-01 4.979248046875000000e-01
-9.766656160354614258e-02 -6.735123395919799805e-01 5.665591955184936523e-01
-6.671054661273956299e-02 -4.697711765766143799e-01 5.431334376335144043e-01
1.647254079580307007e-02 -5.110164880752563477e-01 5.536929965019226074e-01
-3.981983661651611328e-02 -7.071249485015869141e-01 5.049698948860168457e-01
1.349905133247375488e-01 -5.324050188064575195e-01 5.510087609291076660e-01
-1.590573042631149292e-01 -5.635789036750793457e-01 4.968851208686828613e-01
-4.876325279474258423e-02 -6.436842083930969238e-01 4.976775646209716797e-01
1.573713719844818115e-01 -5.864503979682922363e-01 5.563186407089233398e-01
-5.783719196915626526e-02 -4.373112320899963379e-01 5.111292600631713867e-01
-1.591433733701705933e-01 -6.720857024192810059e-01 5.627821683883666992e-01
-2.895947359502315521e-02 -5.449325442314147949e-01 5.592579841613769531e-01
-1.445819437503814697e-01 -7.933235168457031250e-01 5.323064327239990234e-01
-1.998915523290634155e-01 -7.185158729553222656e-01 5.569798946380615234e-01
1.693654805421829224e-01 -5.717586874961853027e-01 5.530754327774047852e-01
3.105854615569114685e-02 -4.775578975677490234e-01 5.456735491752624512e-01
-2.476156055927276611e-01 -6.378557085990905762e-01 5.073099732398986816e-01
-6.724015623331069946e-02 -6.150993108749389648e-01 4.957250356674194336e-01
-1.807995699346065521e-02 -6.797778606414794922e-01 5.684908628463745117e-01
1.924138665199279785e-01 -7.241251468658447266e-01 5.371674299240112305e-01
1.073682159185409546e-01 -5.912005901336669922e-01 5.611746311187744141e-01
4.474481567740440369e-02 -5.147984027862548828e-01 4.987793266773223877e-01
7.097460329532623291e-02 -6.575584411621093750e-01 5.033293366432189941e-01
1.214809343218803406e-02 -4.331216812133789062e-01 5.246164202690124512e-01
-8.487322926521301270e-02 -6.972197890281677246e-01 5.035061836242675781e-01
-1.591686159372329712e-01 -6.480972766876220703e-01 5.002636909484863281e-01
-9.492504596710205078e-02 -6.266605257987976074e-01 4.966134727001190186e-01
1.395263075828552246e-01 -4.918265938758850098e-01 5.125114917755126953e-01
-1.193206906318664551e-01 -4.806780219078063965e-01 5.431199669837951660e-01
6.399583816528320312e-02 -6.889768838882446289e-01 5.065106153488159180e-01
3.548716381192207336e-02 -6.071520447731018066e-01 4.976828396320343018e-01
-1.787654608488082886e-01 -4.659074246883392334e-01 5.120422840118408203e-01
-2.980260252952575684e-01 -5.830512046813964844e-01 5.326558947563171387e-01
-1.097859591245651245e-01 -7.000117301940917969e-01 5.043461918830871582e-01
-2.280383408069610596e-01 -6.162832975387573242e-01 5.034603476524353027e-01
1.709593534469604492e-01 -6.139691472053527832e-01 5.569894313812255859e-01
-1.244158111512660980e-02 -6.162586212158203125e-01 5.664612650871276855e-01
-2.331355810165405273e-01 -7.566488981246948242e-01 5.358759760856628418e-01
-1.110675781965255737e-01 -7.360035777091979980e-01 5.105508565902709961e-01
7.756458222866058350e-02 -7.178850769996643066e-01 5.120973587036132812e-01
-8.928166329860687256e-02 -5.424261093139648438e-01 4.948203265666961670e-01
1.611469388008117676e-01 -4.857780337333679199e-01 5.239192247390747070e-01
1.439909934997558594e-01 -7.307407855987548828e-01 5.232611894607543945e-01
-1.670882105827331543e-01 -5.368778705596923828e-01 5.511882305145263672e-01
1.513491570949554443e-02 -7.817326784133911133e-01 5.236062407493591309e-01
1.626991629600524902e-01 -7.517614960670471191e-01 5.416494011878967285e-01
-1.473748385906219482e-01 -4.951921701431274414e-01 5.004857778549194336e-01
9.815886616706848145e-02 -7.362005114555358887e-01 5.620725154876708984e-01
-2.571454048156738281e-01 -6.551045179367065430e-01 5.104180574417114258e-01
1.779751479625701904e-01 -5.260818600654602051e-01 5.428869724273681641e-01
-1.873389184474945068e-01 -5.210639834403991699e-01 5.459956526756286621e-01
6.499183177947998047e-02 -5.145555138587951660e-01 5.001544356346130371e-01
-9.134416282176971436e-02 -5.086777210235595703e-01 5.514747500419616699e-01
-1.721645742654800415e-01 -5.633226633071899414e-01 5.546197891235351562e-01
-1.595097929239273071e-01 -6.914891600608825684e-01 5.625808835029602051e-01
3.330922499299049377e-02 -4.365877211093902588e-01 5.171359777450561523e-01
8.698761463165283203e-02 -5.064731836318969727e-01 5.499470233917236328e-01
-5.131296068429946899e-02 -4.357555508613586426e-01 5.286611318588256836e-01
-1.139588281512260437e-02 -8.104943633079528809e-01 5.385867953300476074e-01
-1.919091641902923584e-01 -6.828399896621704102e-01 5.061585307121276855e-01
1.473331451416015625e-01 -6.572479605674743652e-01 5.613287687301635742e-01
-4.423944279551506042e-02 -7.289834022521972656e-01 5.667050480842590332e-01
-1.897005550563335419e-02 -5.328622460365295410e-01 5.575797557830810547e-01
-2.692243829369544983e-02 -8.123514652252197266e-01 5.405001640319824219e-01
-2.488298416137695312e-01 -5.438649654388427734e-01 5.073664784431457520e-01
7.659992575645446777e-02 -6.367033720016479492e-01 5.019016265869140625e-01
2.272004634141921997e-02 -7.394856810569763184e-01 5.126037597656250000e-01
1.603182107210159302e-01 -5.260686874389648438e-01 5.106862783432006836e-01
1.845652163028717041e-01 -6.862621903419494629e-01 5.552703738212585449e-01
-2.417685091495513916e-01 -6.052807569503784180e-01 5.046955943107604980e-01
-1.041123270988464355e-01 -7.096347808837890625e-01 5.656950473785400391e-01
-4.890136420726776123e-03 -5.006845593452453613e-01 5.518317222595214844e-01
-6.914560496807098389e-02 -7.204958796501159668e-01 5.666080117225646973e-01
-9.308280050754547119e-02 -6.548057794570922852e-01 4.987612068653106689e-01
4.420712962746620178e-02 -4.911355376243591309e-01 5.487187504768371582e-01
2.311774939298629761e-01 -6.172063350677490234e-01 5.263363718986511230e-01
-2.728086411952972412e-01 -6.573396325111389160e-01 5.469347238540649414e-01
8.296564221382141113e-02 -5.077554583549499512e-01 5.022328495979309082e-01
1.414921134710311890e-01 -6.911822557449340820e-01 5.145038962364196777e-01
1.720242202281951904e-01 -7.330371141433715820e-01 5.504491925239562988e-01
9.153570234775543213e-02 -5.431916117668151855e-01 5.007443428039550781e-01
-1.781120449304580688e-01 -4.812155663967132568e-01 5.062127709388732910e-01
-1.051308512687683105e-01 -5.314611196517944336e-01 5.548512339591979980e-01
-1.357062608003616333e-01 -6.980841755867004395e-01 5.642182826995849609e-01
3.125983104109764099e-02 -5.808107852935791016e-01 5.632668733596801758e-01
-2.775266468524932861e-01 -7.100064158439636230e-01 5.386809706687927246e-01
1.855317503213882446e-01 -7.028229236602783203e-01 5.251340270042419434e-01
-2.032788693904876709e-01 -5.200684070587158203e-01 5.435868501663208008e-01
7.751980423927307129e-02 -5.990020632743835449e-01 4.998390674591064453e-01
-2.595798671245574951e-01 -5.826565623283386230e-01 5.449723601341247559e-01
1.926891356706619263e-01 -6.050969362258911133e-01 5.141508579254150391e-01
3.846810385584831238e-02 -7.225329875946044922e-01 5.665894746780395508e-01
-5.559557303786277771e-02 -7.373496890068054199e-01 5.100726485252380371e-01
3.055222705006599426e-02 -7.668899297714233398e-01 5.198089480400085449e-01
6.799842417240142822e-02 -7.115232944488525391e-01 5.660547614097595215e-01
-1.296458542346954346e-01 -4.425974488258361816e-01 5.209782719612121582e-01
1.445843428373336792e-01 -6.079441308975219727e-01 5.066170692443847656e-01
-8.523213863372802734e-02 -7.509298920631408691e-01 5.131598711013793945e-01
6.117528304457664490e-02 -4.907632470130920410e-01 5.478451251983642578e-01
-6.427759677171707153e-02 -7.386918067932128906e-01 5.655205249786376953e-01
-1.928563863039016724e-01 -5.727330446243286133e-01 5.537133812904357910e-01
-2.447792887687683105e-02 -5.853278636932373047e-01 4.949527084827423096e-01
-1.121683865785598755e-01 -4.659522771835327148e-01 5.390610098838806152e-01
-1.562392115592956543e-01 -5.426288843154907227e-01 4.972053170204162598e-01
1.689815074205398560e-01 -6.293084025382995605e-01 5.580900907516479492e-01
-1.366830915212631226e-01 -6.048691272735595703e-01 4.965533018112182617e-01
9.203888475894927979e-02 -6.965514421463012695e-01 5.653633475303649902e-01
-2.925032675266265869e-01 -6.519957184791564941e-01 5.410619974136352539e-01
1.440593898296356201e-01 -6.367453932762145996e-01 5.611970424652099609e-01
3.399584069848060608e-02 -6.360072493553161621e-01 4.993374943733215332e-01
2.005057483911514282e-01 -6.910166740417480469e-01 5.508930683135986328e-01
-2.552468776702880859e-01 -6.964073777198791504e-01 5.492151379585266113e-01
1.397126019001007080e-01 -7.239061594009399414e-01 5.589499473571777344e-01
1.560263633728027344e-01 -5.323320627212524414e-01 5.483493208885192871e-01
1.844006329774856567e-01 -5.112856626510620117e-01 5.205142498016357422e-01
9.145991504192352295e-02 -5.640387535095214844e-01 5.592367053031921387e-01
7.715594768524169922e-02 -5.484363436698913574e-01 4.994238018989562988e-01
-4.848239198327064514e-02 -5.987255573272705078e-01 4.950506389141082764e-01
2.748931571841239929e-02 -7.004677653312683105e-01 5.060066580772399902e-01
-7.934127002954483032e-02 -5.659708380699157715e-01 5.607286691665649414e-01
1.040608137845993042e-01 -6.806301474571228027e-01 5.086616277694702148e-01
5.882089212536811829e-02 -7.733162641525268555e-01 5.242737531661987305e-01
9.067690372467041016e-02 -7.509342432022094727e-01 5.208293199539184570e-01
-1.224306970834732056e-01 -7.395635843276977539e-01 5.626733303070068359e-01
2.475570514798164368e-02 -4.593679010868072510e-01 5.400716662406921387e-01
-4.084560647606849670e-02 -5.902118682861328125e-01 5.642024278640747070e-01
-1.668445914983749390e-01 -6.340100169181823730e-01 4.995681941509246826e-01
-2.179497927427291870e-01 -4.957089424133300781e-01 5.096679329872131348e-01
-1.393253207206726074e-01 -5.096523761749267578e-01 4.983413219451904297e-01
-6.831638514995574951e-02 -5.051234364509582520e-01 5.517252683639526367e-01
1.134777963161468506e-01 -7.372598648071289062e-01 5.604353547096252441e-01
-2.100046426057815552e-01 -5.791311860084533691e-01 5.006541609764099121e-01
1.221569329500198364e-01 -6.254305839538574219e-01 5.625889897346496582e-01
-3.244677186012268066e-02 -6.225317120552062988e-01 5.666891336441040039e-01
-1.775880008935928345e-01 -5.853801369667053223e-01 5.566599965095520020e-01
2.155163735151290894e-01 -6.807014346122741699e-01 5.297244787216186523e-01
-1.659226417541503906e-01 -7.240393161773681641e-01 5.109282135963439941e-01
9.027124941349029541e-02 -5.983746051788330078e-01 5.627978444099426270e-01
-2.744355499744415283e-01 -6.963374614715576172e-01 5.213715434074401855e-01
-1.580780446529388428e-01 -7.169905900955200195e-01 5.616593360900878906e-01
1.707916706800460815e-01 -7.113633155822753906e-01 5.236533284187316895e-01
-2.911385297775268555e-01 -6.944237947463989258e-01 5.328040719032287598e-01
-1.142825037240982056e-01 -5.072585940361022949e-01 5.498950481414794922e-01
-5.474526062607765198e-02 -4.514465332031250000e-01 5.051965713500976562e-01
1.305902302265167236e-01 -5.466142296791076660e-01 5.046792626380920410e-01
-2.584385275840759277e-01 -5.447102189064025879e-01 5.383991599082946777e-01
-2.407605350017547607e-01 -7.389374375343322754e-01 5.255804657936096191e-01
-9.538537263870239258e-02 -5.735141038894653320e-01 4.946625232696533203e-01
2.262659817934036255e-01 -5.657751560211181641e-01 5.363656878471374512e-01
-1.479732543230056763e-01 -4.760884344577789307e-01 5.388345122337341309e-01
-1.422238498926162720e-01 -5.757001042366027832e-01 5.585184097290039062e-01
-1.227888613939285278e-01 -7.884113192558288574e-01 5.265320539474487305e-01
3.649627789855003357e-02 -5.321813821792602539e-01 4.973589479923248291e-01
-2.962085306644439697e-01 -5.658376216888427734e-01 5.273669958114624023e-01
-1.114262789487838745e-01 -6.898890733718872070e-01 5.658394098281860352e-01
-2.366282790899276733e-01 -6.759934425354003906e-01 5.538335442543029785e-01
-2.961696684360504150e-01 -6.159188151359558105e-01 5.165566205978393555e-01
2.177680581808090210e-01 -5.555492639541625977e-01 5.237275362014770508e-01
-6.584236770868301392e-02 -5.881842374801635742e-01 4.946665167808532715e-01
-8.744868636131286621e-02 -4.613928794860839844e-01 5.393114686012268066e-01
-4.508161544799804688e-02 -6.165929436683654785e-01 4.958908259868621826e-01
1.885013729333877563e-01 -7.156177759170532227e-01 5.499560832977294922e-01
5.127305164933204651e-02 -5.902036428451538086e-01 5.636742711067199707e-01
-6.439393013715744019e-02 -6.958670020103454590e-01 5.676113963127136230e-01
2.061059921979904175e-01 -6.354114413261413574e-01 5.520057082176208496e-01
1.659449189901351929e-01 -5.054103732109069824e-01 5.156397223472595215e-01
-5.413549020886421204e-02 -5.549113750457763672e-01 5.601404905319213867e-01
-6.975270807743072510e-02 -7.782952785491943359e-01 5.599671602249145508e-01
9.782858192920684814e-02 -6.326847672462463379e-01 5.645592212677001953e-01
1.097273826599121094e-01 -6.744155883789062500e-01 5.646273493766784668e-01
-4.280436784029006958e-02 -5.303751230239868164e-01 5.568974018096923828e-01
7.322445511817932129e-02 -7.585467100143432617e-01 5.608944892883300781e-01
-1.489186286926269531e-01 -5.249738097190856934e-01 4.976831972599029541e-01
8.633176982402801514e-02 -5.236163139343261719e-01 5.012515187263488770e-01
-1.975440233945846558e-01 -4.954240322113037109e-01 5.058165192604064941e-01
1.181655675172805786e-01 -5.164784193038940430e-01 5.495325922966003418e-01
-8.819782733917236328e-02 -6.961691379547119141e-01 5.668046474456787109e-01
-2.143067419528961182e-01 -5.516475439071655273e-01 5.481060147285461426e-01
2.518831938505172729e-02 -4.808966219425201416e-01 5.012347102165222168e-01
-6.725739687681198120e-03 -7.377464175224304199e-01 5.662901997566223145e-01
-6.077240407466888428e-02 -7.821181416511535645e-01 5.215956568717956543e-01
-8.164547383785247803e-02 -7.298188209533691406e-01 5.656085014343261719e-01
-2.605343163013458252e-01 -6.043141484260559082e-01 5.471976995468139648e-01
