4.793602824211120605e-01 3.246832489967346191e-01 3.698644787073135376e-02
5.542222857475280762e-01 4.417288601398468018e-01 4.257868975400924683e-02
4.973585903644561768e-01 3.232608735561370850e-01 -7.987964153289794922e-02
5.292347073554992676e-01 3.312553763389587402e-01 -1.033860892057418823e-01
5.257430076599121094e-01 2.206132560968399048e-01 3.944697976112365723e-02
4.918690025806427002e-01 2.922287583351135254e-01 -6.937976181507110596e-02
5.889213085174560547e-01 4.780939817428588867e-01 -3.277177363634109497e-02
5.224695205688476562e-01 4.434724450111389160e-01 -8.188931271433830261e-03
5.754802823066711426e-01 2.955285310745239258e-01 5.345997959375381470e-02
5.736235976219177246e-01 4.794257283210754395e-01 -1.364327315241098404e-02
5.887737870216369629e-01 3.607363700866699219e-01 -8.692152053117752075e-02
5.931152701377868652e-01 4.732624888420104980e-01 -1.589011028409004211e-02
5.219227671623229980e-01 2.733792066574096680e-01 -8.136982470750808716e-02
5.449523329734802246e-01 4.686727523803710938e-01 -2.615248039364814758e-02
5.952312946319580078e-01 3.191927373409271240e-01 2.182237617671489716e-02
5.928666591644287109e-01 3.827520012855529785e-01 -8.783756196498870850e-02
5.199298858642578125e-01 4.280804395675659180e-01 -6.371761113405227661e-02
6.072896122932434082e-01 4.340459704399108887e-01 7.345722988247871399e-03
5.680714249610900879e-01 3.001542389392852783e-01 6.739560514688491821e-02
5.911971926689147949e-01 3.914230167865753174e-01 -9.124276041984558105e-02
5.557273030281066895e-01 3.008112311363220215e-01 -8.895759284496307373e-02
6.124566793441772461e-01 3.804861307144165039e-01 -8.853763341903686523e-03
6.127886176109313965e-01 4.108408689498901367e-01 -2.339019440114498138e-03
5.204936265945434570e-01 2.369147539138793945e-01 -5.156759172677993774e-02
4.923211634159088135e-01 2.833272814750671387e-01 -6.745698302984237671e-02
5.258353948593139648e-01 3.936113715171813965e-01 6.497678160667419434e-02
5.898548364639282227e-01 4.669139385223388672e-01 4.625864326953887939e-03
4.860819578170776367e-01 3.145947754383087158e-01 5.765245854854583740e-02
5.016006827354431152e-01 3.294436931610107422e-01 7.397249341011047363e-02
5.835354924201965332e-01 2.911609113216400146e-01 2.795751951634883881e-02
5.221316218376159668e-01 4.021712541580200195e-01 -8.924859017133712769e-02
5.066869854927062988e-01 3.914613425731658936e-01 -7.296439260244369507e-02
5.856824517250061035e-01 4.096780717372894287e-01 -9.671533107757568359e-02
5.212060809135437012e-01 3.502358794212341309e-01 -1.011769101023674011e-01
5.121930837631225586e-01 3.994826078414916992e-01 4.538074880838394165e-02
5.832992792129516602e-01 3.028810918331146240e-01 4.274825006723403931e-02
5.316437482833862305e-01 2.178405225276947021e-01 1.715780049562454224e-02
6.098624467849731445e-01 4.397059679031372070e-01 -8.288403041660785675e-03
5.947828292846679688e-01 4.373719990253448486e-01 2.951117418706417084e-02
4.869489967823028564e-01 2.269814312458038330e-01 3.539916127920150757e-02
5.121058821678161621e-01 3.256214857101440430e-01 8.313608169555664062e-02
5.073408484458923340e-01 2.618065476417541504e-01 7.724219560623168945e-02
5.943468213081359863e-01 3.202574849128723145e-01 -4.619125276803970337e-02
4.872749745845794678e-01 3.756680488586425781e-01 -2.294697612524032593e-02
5.456520318984985352e-01 3.799622654914855957e-01 -1.093343645334243774e-01
4.798799753189086914e-01 2.307299971580505371e-01 1.096692122519016266e-02
5.664885044097900391e-01 2.571779489517211914e-01 2.522670291364192963e-02
4.849544167518615723e-01 2.786596417427062988e-01 -5.538219213485717773e-02
5.117924809455871582e-01 2.108704447746276855e-01 2.094634249806404114e-02
4.754851162433624268e-01 2.866614460945129395e-01 -3.580771014094352722e-02
4.987092614173889160e-01 3.503495752811431885e-01 -7.845436781644821167e-02
5.931609869003295898e-01 3.449189364910125732e-01 -7.217544317245483398e-02
5.340802073478698730e-01 3.945589065551757812e-01 -1.023619472980499268e-01
5.966705679893493652e-01 4.502074122428894043e-01 -7.227919250726699829e-02
5.234274268150329590e-01 2.361395061016082764e-01 6.255538761615753174e-02
5.732574462890625000e-01 3.275760412216186523e-01 -8.980568498373031616e-02
5.306117534637451172e-01 4.034059345722198486e-01 -9.684639424085617065e-02
6.025337576866149902e-01 4.203051626682281494e-01 2.651373483240604401e-02
5.730434656143188477e-01 3.990566134452819824e-01 6.618035584688186646e-02
5.036242604255676270e-01 4.001596271991729736e-01 2.697288058698177338e-02
5.306352376937866211e-01 4.226573109626770020e-01 4.575488716363906860e-02
5.600255131721496582e-01 3.482004702091217041e-01 -1.056112796068191528e-01
5.379645824432373047e-01 4.475699663162231445e-01 2.297042123973369598e-02
5.914155840873718262e-01 3.359328508377075195e-01 -6.947286427021026611e-02
5.304571986198425293e-01 3.867685794830322266e-01 7.183658331632614136e-02
5.740838646888732910e-01 3.615370988845825195e-01 7.285133004188537598e-02
4.944859445095062256e-01 2.769089937210083008e-01 7.221417874097824097e-02
4.873852729797363281e-01 2.275100350379943848e-01 -1.797261089086532593e-02
4.845865666866302490e-01 3.393113613128662109e-01 4.189214110374450684e-02
5.146376490592956543e-01 3.672648072242736816e-01 -9.404590725898742676e-02
5.021575689315795898e-01 4.073190391063690186e-01 -4.034244269132614136e-02
6.073884367942810059e-01 3.825314342975616455e-01 2.013570815324783325e-02
5.664950609207153320e-01 3.803458213806152344e-01 -1.077365949749946594e-01
5.100000500679016113e-01 2.101158052682876587e-01 6.501326337456703186e-03
5.172748565673828125e-01 4.255514144897460938e-01 2.129237167537212372e-02
4.785362482070922852e-01 3.461392521858215332e-01 6.432367488741874695e-03
5.256429314613342285e-01 2.889510989189147949e-01 -8.983720839023590088e-02
5.056436061859130859e-01 2.753926813602447510e-01 8.002597093582153320e-02
5.607387423515319824e-01 2.580023705959320068e-01 4.404325038194656372e-02
5.108130574226379395e-01 4.274060726165771484e-01 -2.216277830302715302e-02
6.000125408172607422e-01 3.553844690322875977e-01 3.389168530702590942e-02
6.091824173927307129e-01 3.922921121120452881e-01 1.510915718972682953e-02
5.829133987426757812e-01 3.101764321327209473e-01 4.929562658071517944e-02
4.786395430564880371e-01 3.487184345722198486e-01 -4.663412459194660187e-03
4.706774652004241943e-01 2.955856323242187500e-01 1.306051574647426605e-02
5.654241442680358887e-01 4.652540981769561768e-01 -7.368019223213195801e-02
4.935986697673797607e-01 2.472765743732452393e-01 6.248822063207626343e-02
5.053725242614746094e-01 2.361683547496795654e-01 -4.828426241874694824e-02
5.465036034584045410e-01 4.039877057075500488e-01 6.836360692977905273e-02
5.212606191635131836e-01 3.364374935626983643e-01 -1.008109897375106812e-01
5.781665444374084473e-01 2.916701436042785645e-01 4.455468058586120605e-02
5.922876000404357910e-01 4.302874207496643066e-01 3.702718764543533325e-02
5.258951187133789062e-01 2.847688794136047363e-01 8.653266727924346924e-02
5.239404439926147461e-01 3.762468099594116211e-01 7.345060259103775024e-02
5.025749206542968750e-01 2.190838158130645752e-01 -2.275755070149898529e-02
5.732741355895996094e-01 3.450140058994293213e-01 -9.722272306680679321e-02
4.964061677455902100e-01 3.973772227764129639e-01 2.378270030021667480e-03
5.845695137977600098e-01 4.402454495429992676e-01 3.783939778804779053e-02
5.894876718521118164e-01 3.977211117744445801e-01 5.308488011360168457e-02
4.762812852859497070e-01 3.232960104942321777e-01 2.622196637094020844e-02
5.043895244598388672e-01 2.913987934589385986e-01 8.106382191181182861e-02
4.808194041252136230e-01 2.459358125925064087e-01 -2.770350314676761627e-02
4.903322458267211914e-01 3.810388147830963135e-01 -3.328024223446846008e-02
5.272963643074035645e-01 4.312298297882080078e-01 3.172637522220611572e-02
4.847542047500610352e-01 3.653786182403564453e-01 -2.956604771316051483e-02
5.145204067230224609e-01 2.892770469188690186e-01 8.564253151416778564e-02
5.073215365409851074e-01 4.209933280944824219e-01 -1.065152324736118317e-02
4.846172332763671875e-01 2.687441408634185791e-01 -5.082725733518600464e-02
5.839212536811828613e-01 2.831944823265075684e-01 -5.716256797313690186e-03
5.521334409713745117e-01 4.533787667751312256e-01 2.831702493131160736e-02
4.942208528518676758e-01 2.168925553560256958e-01 2.870243228971958160e-02
6.023559570312500000e-01 3.488287329673767090e-01 2.301192842423915863e-02
5.665089488029479980e-01 2.548319697380065918e-01 -1.490189228206872940e-02
5.104676485061645508e-01 2.152141034603118896e-01 -1.691069081425666809e-02
5.969824194908142090e-01 3.760626614093780518e-01 -7.995469868183135986e-02
5.520669221878051758e-01 4.244598746299743652e-01 -1.000100448727607727e-01
5.029816627502441406e-01 2.748502492904663086e-01 -7.429303228855133057e-02
5.715510845184326172e-01 3.176869750022888184e-01 7.007776945829391479e-02
5.265725851058959961e-01 2.523022592067718506e-01 7.377941906452178955e-02
5.910076498985290527e-01 3.197502195835113525e-01 -5.591502040624618530e-02
4.724093079566955566e-01 2.805561423301696777e-01 2.872965671122074127e-02
5.281207561492919922e-01 2.252475321292877197e-01 -3.091333433985710144e-02
5.733187198638916016e-01 4.480250477790832520e-01 3.726023435592651367e-02
6.061783432960510254e-01 4.068626165390014648e-01 -6.784390658140182495e-02
5.752282738685607910e-01 2.702330350875854492e-01 -2.305989526212215424e-02
6.071451306343078613e-01 3.524357974529266357e-01 1.144384033977985382e-03
4.724343419075012207e-01 2.701382637023925781e-01 2.739731036126613617e-02
5.583799481391906738e-01 2.441242039203643799e-01 2.043546177446842194e-02
5.602252483367919922e-01 3.160201609134674072e-01 8.006782829761505127e-02
4.820793569087982178e-01 2.646906673908233643e-01 5.370263755321502686e-02
5.521653890609741211e-01 3.350590169429779053e-01 8.616711944341659546e-02
5.657318830490112305e-01 3.300501704216003418e-01 -9.698440134525299072e-02
5.675771832466125488e-01 2.624291777610778809e-01 3.322736173868179321e-02
4.946722388267517090e-01 2.228023409843444824e-01 4.171741008758544922e-02
4.828042984008789062e-01 3.207732439041137695e-01 -5.477374792098999023e-02
4.918422102928161621e-01 3.834672570228576660e-01 1.240952126681804657e-02
4.751320481300354004e-01 3.324604928493499756e-01 3.232864663004875183e-03
5.187118649482727051e-01 2.562562227249145508e-01 -6.965571641921997070e-02
5.104725360870361328e-01 3.152990341186523438e-01 8.371954411268234253e-02
4.908657670021057129e-01 3.773630857467651367e-01 1.974631845951080322e-02
5.969697237014770508e-01 3.179131150245666504e-01 -2.905726991593837738e-02
5.364556908607482910e-01 3.710900247097015381e-01 -1.075493395328521729e-01
4.979158639907836914e-01 2.541658282279968262e-01 -5.871898680925369263e-02
5.638003349304199219e-01 4.063609242439270020e-01 -1.066697388887405396e-01
5.022353529930114746e-01 2.667354643344879150e-01 -6.971662491559982300e-02
5.004362463951110840e-01 3.715043962001800537e-01 -7.343900948762893677e-02
6.110913753509521484e-01 3.684876561164855957e-01 -2.071461081504821777e-02
5.575257539749145508e-01 2.454503774642944336e-01 -2.279578149318695068e-02
5.639605522155761719e-01 4.568691849708557129e-01 2.854989282786846161e-02
5.051216483116149902e-01 3.829961419105529785e-01 4.931636899709701538e-02
5.192075967788696289e-01 4.186307787895202637e-01 -7.324048876762390137e-02
5.997312068939208984e-01 3.767457902431488037e-01 3.932401537895202637e-02
5.467466711997985840e-01 2.384450733661651611e-01 4.178124666213989258e-02
5.129641294479370117e-01 2.323053479194641113e-01 6.101568043231964111e-02
6.141405105590820312e-01 4.028543531894683838e-01 -3.202413022518157959e-02
5.848522782325744629e-01 2.931486666202545166e-01 -3.678910806775093079e-02
4.849343299865722656e-01 2.374459505081176758e-01 4.426456242799758911e-02
5.810055732727050781e-01 2.776727378368377686e-01 3.028862178325653076e-03
5.680644512176513672e-01 3.690833449363708496e-01 7.620948553085327148e-02
5.486972928047180176e-01 3.265140354633331299e-01 8.726987987756729126e-02
6.048436164855957031e-01 3.776964247226715088e-01 -6.383952498435974121e-02
5.227640271186828613e-01 2.133047282695770264e-01 1.799354329705238342e-02
5.612921118736267090e-01 2.745869159698486328e-01 6.056595593690872192e-02
4.714354574680328369e-01 2.989700138568878174e-01 -1.651375368237495422e-02
4.722059369087219238e-01 2.825740575790405273e-01 -2.197244018316268921e-02
5.580135583877563477e-01 3.374970555305480957e-01 -1.035643368959426880e-01
4.904864728450775146e-01 3.478890061378479004e-01 4.959008842706680298e-02
5.093137025833129883e-01 4.029971659183502197e-01 3.647758066654205322e-02
5.584893226623535156e-01 4.346719384193420410e-01 4.978554695844650269e-02
5.397049188613891602e-01 3.402121365070343018e-01 -1.067791730165481567e-01
4.940123558044433594e-01 3.904699981212615967e-01 -3.454167395830154419e-02
4.798889756202697754e-01 3.028270602226257324e-01 4.850574582815170288e-02
6.128836870193481445e-01 4.275135695934295654e-01 -1.359634753316640854e-02
4.953421354293823242e-01 3.759721517562866211e-01 -5.930524319410324097e-02
5.970739722251892090e-01 3.919107019901275635e-01 -8.350481092929840088e-02
5.678605437278747559e-01 2.677518725395202637e-01 4.119143635034561157e-02
5.708603858947753906e-01 2.763248085975646973e-01 -4.941713809967041016e-02
5.295990705490112305e-01 2.713624238967895508e-01 8.220171928405761719e-02
5.998659133911132812e-01 4.663595557212829590e-01 -4.390165209770202637e-02
5.640997290611267090e-01 2.498517781496047974e-01 7.041197270154953003e-03
5.134397149085998535e-01 4.310272932052612305e-01 -1.038902066648006439e-02
5.486579537391662598e-01 3.896417915821075439e-01 7.550033181905746460e-02
5.279471278190612793e-01 4.381889104843139648e-01 2.233944647014141083e-02
5.545071363449096680e-01 4.399260282516479492e-01 -9.246610850095748901e-02
4.703609645366668701e-01 2.750409543514251709e-01 -5.686666350811719894e-03
5.814088582992553711e-01 3.584717512130737305e-01 6.597140431404113770e-02
4.736228883266448975e-01 3.253552019596099854e-01 -2.804741263389587402e-03
4.788413643836975098e-01 3.107318878173828125e-01 4.303512722253799438e-02
4.814887940883636475e-01 2.373548746109008789e-01 -1.906603947281837463e-02
5.907810926437377930e-01 3.516652882099151611e-01 -8.012770116329193115e-02
6.141253709793090820e-01 4.203940629959106445e-01 -2.235042303800582886e-02
5.013523697853088379e-01 2.376803457736968994e-01 6.228481978178024292e-02
5.111360549926757812e-01 2.441147565841674805e-01 6.993563473224639893e-02
5.847781896591186523e-01 3.159594535827636719e-01 -6.629426777362823486e-02
6.023045182228088379e-01 3.401445448398590088e-01 1.520957984030246735e-02
5.271614789962768555e-01 2.464006841182708740e-01 -6.043617427349090576e-02
6.144309043884277344e-01 4.112990200519561768e-01 -1.871346496045589447e-02
5.669807791709899902e-01 2.804909646511077881e-01 -6.167637556791305542e-02
5.406779050827026367e-01 2.307802438735961914e-01 3.855531662702560425e-02
5.701569318771362305e-01 4.810713529586791992e-01 -2.856123819947242737e-02
5.171408653259277344e-01 4.145398736000061035e-01 3.691782802343368530e-02
5.356654524803161621e-01 2.460981607437133789e-01 6.463840603828430176e-02
5.548210740089416504e-01 4.657188057899475098e-01 -6.570092588663101196e-02
4.740656912326812744e-01 3.126038312911987305e-01 2.428153343498706818e-02
5.572491288185119629e-01 2.555975317955017090e-01 -4.485868662595748901e-02
5.746821761131286621e-01 4.615699350833892822e-01 2.231105975806713104e-02
5.812101364135742188e-01 3.451960384845733643e-01 -8.984600007534027100e-02
4.991296529769897461e-01 3.893449008464813232e-01 -5.721239000558853149e-02
4.995789825916290283e-01 2.845942378044128418e-01 -7.548142969608306885e-02
5.399658679962158203e-01 2.244814932346343994e-01 2.063836529850959778e-02
4.779013395309448242e-01 2.376961112022399902e-01 -5.160307046025991440e-03
5.836044549942016602e-01 3.226718604564666748e-01 -7.381904125213623047e-02
6.095235943794250488e-01 4.128677546977996826e-01 -5.853975564241409302e-02
5.029155015945434570e-01 3.154019415378570557e-01 7.839767634868621826e-02
5.273261070251464844e-01 4.509641528129577637e-01 -2.093269675970077515e-02
5.876334309577941895e-01 3.420816659927368164e-01 5.523780733346939087e-02
5.325849652290344238e-01 2.203870862722396851e-01 2.742244116961956024e-02
5.828274488449096680e-01 4.081768691539764404e-01 5.637296289205551147e-02
5.097945928573608398e-01 2.195975482463836670e-01 4.540774226188659668e-02
5.913460850715637207e-01 4.085370302200317383e-01 4.784755408763885498e-02
5.556934475898742676e-01 3.745482861995697021e-01 7.992386072874069214e-02
5.558403134346008301e-01 2.906313538551330566e-01 -8.242052048444747925e-02
4.791891872882843018e-01 3.149329721927642822e-01 -4.626552760601043701e-02
5.830464959144592285e-01 4.518817067146301270e-01 2.913445793092250824e-02
4.784459173679351807e-01 3.048346638679504395e-01 -4.549013823270797729e-02
6.016699075698852539e-01 3.643291294574737549e-01 -6.522337347269058228e-02
5.123838186264038086e-01 3.435937762260437012e-01 7.884855568408966064e-02
4.756914973258972168e-01 2.427949011325836182e-01 1.910782977938652039e-02
4.959053397178649902e-01 2.140720486640930176e-01 4.254216328263282776e-04
5.449700951576232910e-01 3.493502438068389893e-01 -1.083880364894866943e-01
5.619123578071594238e-01 3.826925754547119141e-01 7.604616135358810425e-02
4.896470010280609131e-01 2.693762779235839844e-01 6.589356064796447754e-02
4.908927679061889648e-01 3.318207561969757080e-01 -6.953814625740051270e-02
5.415458679199218750e-01 4.309490919113159180e-01 4.666948318481445312e-02
4.853827655315399170e-01 2.819085717201232910e-01 6.144298613071441650e-02
5.801875591278076172e-01 2.868029177188873291e-01 -4.157031327486038208e-02
4.713129997253417969e-01 3.064780235290527344e-01 -9.510544128715991974e-03
5.851823091506958008e-01 4.366198778152465820e-01 -9.074910730123519897e-02
5.800051093101501465e-01 2.883861958980560303e-01 3.592340648174285889e-02
5.380743741989135742e-01 2.385548949241638184e-01 5.465572327375411987e-02
5.197662115097045898e-01 3.964874148368835449e-01 5.762644857168197632e-02
5.846631526947021484e-01 3.922204375267028809e-01 5.945204943418502808e-02
4.742665588855743408e-01 2.477890551090240479e-01 -3.282630350440740585e-03
5.695915818214416504e-01 4.253302812576293945e-01 -1.010904014110565186e-01
5.723986625671386719e-01 4.795004129409790039e-01 -4.704093188047409058e-02
5.234003067016601562e-01 2.989546060562133789e-01 -9.348254650831222534e-02
5.253559947013854980e-01 3.916954696178436279e-01 -9.695744514465332031e-02
5.499152541160583496e-01 2.835883498191833496e-01 7.754789292812347412e-02
6.004214286804199219e-01 4.669145345687866211e-01 -2.300507202744483948e-02
6.065279841423034668e-01 3.583713471889495850e-01 1.243074238300323486e-02
6.138830780982971191e-01 4.211291074752807617e-01 -3.228320181369781494e-02
4.979518353939056396e-01 3.379201889038085938e-01 -7.971849292516708374e-02
6.126841306686401367e-01 3.806205689907073975e-01 -2.610109932720661163e-02
4.714807569980621338e-01 2.594531476497650146e-01 2.529126591980457306e-03
5.545207262039184570e-01 4.679903090000152588e-01 5.150763317942619324e-03
4.918853044509887695e-01 3.399523496627807617e-01 5.696471035480499268e-02
5.139337778091430664e-01 4.174340963363647461e-01 2.672635577619075775e-02
5.555519461631774902e-01 2.433251887559890747e-01 2.979898266494274139e-02
5.213885307312011719e-01 4.389360547065734863e-01 -4.763323813676834106e-02
5.071498155593872070e-01 3.757054507732391357e-01 5.798680335283279419e-02
4.748486280441284180e-01 2.662710845470428467e-01 -2.633255161345005035e-02
5.570340156555175781e-01 4.765593409538269043e-01 -2.649442292749881744e-02
5.356661677360534668e-01 4.484537839889526367e-01 -6.617427617311477661e-02
5.566828846931457520e-01 2.409607619047164917e-01 -8.140766061842441559e-03
5.388110876083374023e-01 4.610415995121002197e-01 -7.031476125121116638e-03
5.460857152938842773e-01 2.995168566703796387e-01 8.489964157342910767e-02
5.888929963111877441e-01 3.769317269325256348e-01 5.690433830022811890e-02
4.999965727329254150e-01 4.066256284713745117e-01 -2.634436264634132385e-02
6.142531633377075195e-01 3.969237208366394043e-01 -2.141548506915569305e-02
4.771683216094970703e-01 2.737628221511840820e-01 -3.712488710880279541e-02
5.339179039001464844e-01 4.205435514450073242e-01 -9.090704470872879028e-02
5.946635007858276367e-01 4.184877872467041016e-01 -8.687547594308853149e-02
4.781976640224456787e-01 3.437042832374572754e-01 -2.146995440125465393e-02
5.651731491088867188e-01 4.796393513679504395e-01 -3.690320998430252075e-02
5.130433440208435059e-01 3.013697862625122070e-01 -9.022389352321624756e-02
5.469663739204406738e-01 3.076998591423034668e-01 -9.638322889804840088e-02
5.632094144821166992e-01 3.263052105903625488e-01 7.963085919618606567e-02
4.787622988224029541e-01 2.639301419258117676e-01 -3.652098774909973145e-02
5.325624346733093262e-01 3.831100463867187500e-01 -1.042382046580314636e-01
5.975087881088256836e-01 4.604962170124053955e-01 2.342654392123222351e-03
5.477811098098754883e-01 4.619302749633789062e-01 1.008262485265731812e-02
5.308227539062500000e-01 2.329233288764953613e-01 5.464266240596771240e-02
4.993354082107543945e-01 4.002947807312011719e-01 1.152312941849231720e-02
5.762427449226379395e-01 2.692828774452209473e-01 -1.079023629426956177e-02
5.427874326705932617e-01 2.257324755191802979e-01 3.096401691436767578e-03
5.141857862472534180e-01 3.775016665458679199e-01 6.495244055986404419e-02
5.295252799987792969e-01 3.165492415428161621e-01 8.965650200843811035e-02
5.060234665870666504e-01 3.474399745464324951e-01 -8.852729201316833496e-02
5.356993675231933594e-01 4.197346866130828857e-01 5.277665704488754272e-02
5.164363384246826172e-01 2.443994432687759399e-01 -5.943360179662704468e-02
5.128799676895141602e-01 4.120538830757141113e-01 -6.746762245893478394e-02
5.495684742927551270e-01 2.593235373497009277e-01 -6.012426316738128662e-02
5.564646720886230469e-01 4.012782573699951172e-01 7.033430039882659912e-02
5.963540077209472656e-01 3.415480256080627441e-01 -6.277468800544738770e-02
5.504065155982971191e-01 2.723625600337982178e-01 -7.229227572679519653e-02
6.115683913230895996e-01 3.921811878681182861e-01 4.755207337439060211e-03
5.740867853164672852e-01 4.686262011528015137e-01 -7.067091763019561768e-02
5.086541175842285156e-01 2.892783582210540771e-01 -8.386919647455215454e-02
5.734470486640930176e-01 2.811821997165679932e-01 4.459480941295623779e-02
5.761011242866516113e-01 3.424232602119445801e-01 7.039702683687210083e-02
5.884510874748229980e-01 2.930739521980285645e-01 -5.095573142170906067e-04
4.871719181537628174e-01 3.588560223579406738e-01 -4.905946552753448486e-02
4.904041588306427002e-01 2.636026144027709961e-01 -5.667124688625335693e-02
5.373615622520446777e-01 2.464886009693145752e-01 -5.571806430816650391e-02
5.158566236495971680e-01 2.304741740226745605e-01 -4.400977492332458496e-02
6.036809086799621582e-01 3.941417634487152100e-01 -7.192199677228927612e-02
4.886456727981567383e-01 2.993387579917907715e-01 6.522544473409652710e-02
6.103847026824951172e-01 4.234467744827270508e-01 -5.390433967113494873e-02
5.632798671722412109e-01 2.856303155422210693e-01 6.556255370378494263e-02
5.977873206138610840e-01 3.184764087200164795e-01 4.528705962002277374e-03
5.927401781082153320e-01 4.745017290115356445e-01 -4.231513291597366333e-02
5.066456794738769531e-01 3.922969102859497070e-01 4.323331266641616821e-02
5.459898710250854492e-01 3.952182531356811523e-01 -1.073400378227233887e-01
4.899803400039672852e-01 3.832734823226928711e-01 -1.439825631678104401e-03
5.011079907417297363e-01 2.958972454071044922e-01 -8.027715235948562622e-02
5.889177918434143066e-01 3.234899938106536865e-01 4.488000273704528809e-02
5.340517759323120117e-01 4.377302527427673340e-01 3.222452849149703979e-02
4.928176701068878174e-01 3.180623054504394531e-01 6.704766303300857544e-02
5.926824808120727539e-01 3.581511080265045166e-01 5.032909661531448364e-02
5.803605914115905762e-01 3.604443967342376709e-01 -9.612047672271728516e-02
5.594103932380676270e-01 4.768413305282592773e-01 -1.764895394444465637e-02
4.857149422168731689e-01 2.229036688804626465e-01 -6.619477644562721252e-04
5.906153321266174316e-01 3.058729469776153564e-01 -3.750134259462356567e-02
5.943733453750610352e-01 3.076540231704711914e-01 -1.537684816867113113e-02
5.477818846702575684e-01 3.621651828289031982e-01 8.410703390836715698e-02
5.746828317642211914e-01 3.274792432785034180e-01 6.922822445631027222e-02
4.897851645946502686e-01 2.179784923791885376e-01 1.864169538021087646e-02
4.726296663284301758e-01 2.556328177452087402e-01 1.801599562168121338e-02
5.939451456069946289e-01 3.341830074787139893e-01 3.923743218183517456e-02
5.152071714401245117e-01 3.168306946754455566e-01 -9.499520063400268555e-02
4.860311746597290039e-01 3.734889328479766846e-01 -9.417364373803138733e-03
5.080831646919250488e-01 4.198681116104125977e-01 -3.850123286247253418e-02
4.854093790054321289e-01 2.552835345268249512e-01 -4.448620229959487915e-02
5.284453630447387695e-01 4.450963735580444336e-01 9.866954758763313293e-03
4.825138747692108154e-01 3.543696105480194092e-01 -3.414582461118698120e-02
4.771405756473541260e-01 2.632547318935394287e-01 4.232060909271240234e-02
5.636571645736694336e-01 4.767068624496459961e-01 -4.993415623903274536e-02
4.935571253299713135e-01 2.346823513507843018e-01 5.400100350379943848e-02
5.921160578727722168e-01 4.633965492248535156e-01 -6.624072790145874023e-02
5.978737473487854004e-01 3.430869281291961670e-01 3.385508060455322266e-02
5.252035856246948242e-01 2.201646566390991211e-01 -2.229690365493297577e-02
5.536547899246215820e-01 3.564419448375701904e-01 -1.087373718619346619e-01
6.065596938133239746e-01 4.561436176300048828e-01 -2.599097229540348053e-02
5.866349935531616211e-01 3.751067221164703369e-01 -9.362065047025680542e-02
5.781190395355224609e-01 4.125748276710510254e-01 -1.012535616755485535e-01
5.293136239051818848e-01 4.414234161376953125e-01 -6.476042419672012329e-02
5.933774709701538086e-01 3.418516516685485840e-01 4.434631764888763428e-02
6.113440990447998047e-01 3.782599270343780518e-01 -3.743293136358261108e-02
5.669019222259521484e-01 3.093471825122833252e-01 -8.554966002702713013e-02
5.412429571151733398e-01 4.436608254909515381e-01 3.234446793794631958e-02
5.787261128425598145e-01 4.767383635044097900e-01 -5.542643368244171143e-02
5.931271910667419434e-01 4.578826427459716797e-01 1.306811720132827759e-02
5.395435094833374023e-01 2.804910838603973389e-01 -8.408746123313903809e-02
4.723371863365173340e-01 3.161988556385040283e-01 -8.291623555123806000e-03
5.725512504577636719e-01 3.065038621425628662e-01 -7.757212966680526733e-02
5.646764636039733887e-01 2.861939966678619385e-01 -7.049845159053802490e-02
6.038804054260253906e-01 4.580484330654144287e-01 -4.717585444450378418e-02
4.867302179336547852e-01 2.422425746917724609e-01 -3.599402308464050293e-02
5.752640962600708008e-01 4.670002162456512451e-01 1.459285616874694824e-02
5.222138762474060059e-01 3.531012833118438721e-01 8.173365890979766846e-02
5.819805860519409180e-01 3.463920950889587402e-01 6.423009186983108521e-02
5.843892693519592285e-01 4.709622263908386230e-01 -6.359362602233886719e-02
5.810661911964416504e-01 4.530851244926452637e-01 -8.410929143428802490e-02
5.742320418357849121e-01 2.759306728839874268e-01 -4.033297300338745117e-02
5.815657377243041992e-01 4.806129336357116699e-01 -2.539087459444999695e-02
5.463019609451293945e-01 4.452933669090270996e-01 -8.316429704427719116e-02
5.310418009757995605e-01 3.620754778385162354e-01 -1.059357821941375732e-01
5.588584542274475098e-01 4.721615016460418701e-01 -5.712502449750900269e-02
5.566275119781494141e-01 4.627760946750640869e-01 1.724274642765522003e-02
5.015832781791687012e-01 3.863255083560943604e-01 -6.625961512327194214e-02
5.870497822761535645e-01 3.325228691101074219e-01 5.306756496429443359e-02
5.336889028549194336e-01 2.576467394828796387e-01 -6.894943863153457642e-02
5.972884893417358398e-01 3.857114017009735107e-01 4.395899176597595215e-02
5.159693956375122070e-01 2.551565170288085938e-01 7.651297748088836670e-02
4.945201873779296875e-01 3.718242645263671875e-01 3.853271901607513428e-02
-2.664610445499420166e-01 1.896935999393463135e-01 3.071253374218940735e-02
-1.454314589500427246e-01 7.609590142965316772e-02 -2.314212545752525330e-02
6.833083927631378174e-03 2.372754365205764771e-01 5.370321124792098999e-02
3.671285137534141541e-02 2.520182728767395020e-01 2.245446201413869858e-03
1.169020682573318481e-01 2.173024266958236694e-01 6.586505472660064697e-02
1.369272768497467041e-01 2.149150222539901733e-01 -5.878533795475959778e-02
1.427867412567138672e-01 1.320068836212158203e-01 -3.462275490164756775e-02
-9.320974349975585938e-04 2.068203091621398926e-01 -6.929850578308105469e-02
-1.522852480411529541e-02 2.170698642730712891e-01 7.585091888904571533e-02
-1.888446211814880371e-01 2.134460806846618652e-01 3.864267468452453613e-02
4.315747693181037903e-02 1.016252189874649048e-01 -3.193143010139465332e-02
-3.253532946109771729e-01 1.268968582153320312e-01 5.290615931153297424e-02
-1.581013500690460205e-01 1.544267982244491577e-01 9.333191066980361938e-02
-2.140370458364486694e-01 1.835010498762130737e-01 -4.408838972449302673e-02
-5.167178064584732056e-02 1.062968969345092773e-01 -5.928950384259223938e-02
1.620117202401161194e-02 2.172904014587402344e-01 7.579305022954940796e-02
-5.410460755228996277e-02 8.241220563650131226e-02 3.745429962873458862e-02
-8.216891437768936157e-02 2.118650525808334351e-01 7.530914992094039917e-02
-3.364020287990570068e-01 1.344643235206604004e-01 4.290924221277236938e-02
1.017204970121383667e-01 2.151043415069580078e-01 6.973551958799362183e-02
-3.392141163349151611e-01 1.054504364728927612e-01 3.305309265851974487e-02
-1.716282516717910767e-01 2.052695900201797485e-01 6.287977099418640137e-02
-4.847842454910278320e-02 2.444923818111419678e-01 1.702509820461273193e-03
2.120610326528549194e-01 1.962855458259582520e-01 -4.285038635134696960e-02
1.711600646376609802e-02 1.631996333599090576e-01 9.085512161254882812e-02
-1.460098102688789368e-02 1.016653329133987427e-01 6.105175241827964783e-02
-1.111745834350585938e-01 8.450683951377868652e-02 -3.773200139403343201e-02
-1.683689504861831665e-01 1.467892825603485107e-01 -6.920098513364791870e-02
7.974991202354431152e-02 1.094053164124488831e-01 3.490034490823745728e-02
-1.812020838260650635e-01 2.179884612560272217e-01 -2.366905100643634796e-03
-2.729512453079223633e-01 9.157847613096237183e-02 -2.630980685353279114e-02
1.104799509048461914e-01 1.258197128772735596e-01 4.640937224030494690e-02
-1.227293312549591064e-01 1.731960475444793701e-01 9.290588647127151489e-02
-2.881828248500823975e-01 1.404643803834915161e-01 6.884896755218505859e-02
9.310619533061981201e-02 2.048580348491668701e-01 -6.880461424589157104e-02
-5.761864408850669861e-02 9.744052588939666748e-02 -5.070588365197181702e-02
8.393096923828125000e-02 2.469960153102874756e-01 3.508720174431800842e-02
2.178232520818710327e-01 2.258465886116027832e-01 2.196792885661125183e-02
9.178552776575088501e-03 2.437254935503005981e-01 -2.736657112836837769e-02
-2.136780172586441040e-01 6.983758509159088135e-02 1.357909198850393295e-02
-1.796872913837432861e-02 2.395337522029876709e-01 -3.102828562259674072e-02
8.008587360382080078e-02 2.010989040136337280e-01 -7.125236839056015015e-02
7.420310378074645996e-02 2.129416614770889282e-01 7.467725127935409546e-02
-6.308022886514663696e-02 2.076319456100463867e-01 -6.272595375776290894e-02
-2.134914845228195190e-01 1.929455995559692383e-01 -3.470664471387863159e-02
-2.022044211626052856e-01 2.117523252964019775e-01 -3.504070453345775604e-03
-2.667285203933715820e-01 7.517075538635253906e-02 1.850443705916404724e-02
-7.384230941534042358e-02 1.192731261253356934e-01 -6.945138424634933472e-02
-2.102930285036563873e-02 9.971051663160324097e-02 -4.815483093261718750e-02
-9.531162679195404053e-02 8.485081046819686890e-02 -3.694489598274230957e-02
-2.998343482613563538e-02 1.502522528171539307e-01 9.352826327085494995e-02
2.213948592543601990e-02 2.500271499156951904e-01 2.200058475136756897e-02
-1.503485292196273804e-01 2.210831791162490845e-01 -1.930843666195869446e-02
-8.620558679103851318e-02 1.287344694137573242e-01 9.092567861080169678e-02
-4.907436296343803406e-02 1.650421023368835449e-01 -7.993323355913162231e-02
-3.085442185401916504e-01 1.396046131849288940e-01 -2.714066579937934875e-02
7.365335524082183838e-02 2.386180609464645386e-01 -4.210064187645912170e-02
-1.162116527557373047e-01 2.198397219181060791e-01 -3.748816996812820435e-02
-6.281096488237380981e-02 2.345294654369354248e-01 -2.896021306514739990e-02
-1.305522024631500244e-02 1.597135663032531738e-01 -8.038328588008880615e-02
1.045470982789993286e-01 2.476236224174499512e-01 3.074060752987861633e-02
2.390911430120468140e-01 2.041413784027099609e-01 -2.291990444064140320e-02
1.624509692192077637e-01 1.312810331583023071e-01 -1.258742902427911758e-02
-9.733581542968750000e-02 1.550495326519012451e-01 -7.746028155088424683e-02
-2.436037659645080566e-01 1.217531338334083557e-01 7.983092218637466431e-02
-5.400685220956802368e-02 7.909761369228363037e-02 -1.173823047429323196e-02
-1.590872555971145630e-02 1.386015266180038452e-01 -7.618356496095657349e-02
-1.910695284605026245e-01 2.124288529157638550e-01 -1.291252765804529190e-02
-1.147643625736236572e-01 7.237046211957931519e-02 -5.385856144130229950e-03
1.284459531307220459e-01 2.391453981399536133e-01 4.278841242194175720e-02
-1.613892763853073120e-01 1.991700977087020874e-01 -4.810231178998947144e-02
1.323006153106689453e-01 2.453849613666534424e-01 3.000185638666152954e-02
-1.478521898388862610e-02 1.502212584018707275e-01 9.218854457139968872e-02
-2.126426547765731812e-01 1.185643225908279419e-01 8.348016440868377686e-02
1.708614826202392578e-01 1.806589961051940918e-01 -5.784700438380241394e-02
5.964379385113716125e-02 1.053699404001235962e-01 -3.193182870745658875e-02
6.706561148166656494e-02 9.973140060901641846e-02 -1.498297788202762604e-03
-2.486106753349304199e-01 9.763341397047042847e-02 6.677769869565963745e-02
-1.480565518140792847e-01 1.630811393260955811e-01 -7.051367312669754028e-02
1.946509331464767456e-01 1.449539363384246826e-01 -1.625658944249153137e-03
-2.958989441394805908e-01 9.201542288064956665e-02 4.784815758466720581e-02
-2.514375448226928711e-01 8.373900502920150757e-02 -2.319080755114555359e-02
-2.864713072776794434e-01 1.755403429269790649e-01 4.371865838766098022e-02
1.060801744461059570e-02 2.484492063522338867e-01 -1.266311015933752060e-02
3.200209513306617737e-02 1.212860643863677979e-01 7.004807144403457642e-02
1.342707499861717224e-02 8.971566706895828247e-02 2.271640300750732422e-02
-2.642594277858734131e-01 1.923337280750274658e-01 1.724691316485404968e-02
1.292737126350402832e-01 1.809621900320053101e-01 -6.819227337837219238e-02
-2.272952198982238770e-01 1.634892374277114868e-01 -5.206932127475738525e-02
-2.221875637769699097e-01 1.322152018547058105e-01 8.538211137056350708e-02
-4.988938197493553162e-02 9.164181351661682129e-02 5.544305220246315002e-02
2.437880486249923706e-01 2.142363488674163818e-01 -2.597077749669551849e-03
-1.085132956504821777e-01 1.312309354543685913e-01 -7.355952262878417969e-02
-9.272003173828125000e-02 1.701110750436782837e-01 -7.625964283943176270e-02
8.900780975818634033e-02 1.053801923990249634e-01 7.403953932225704193e-04
1.266489550471305847e-02 9.931520372629165649e-02 -3.930474445223808289e-02
-6.290518492460250854e-02 8.716259896755218506e-02 5.093332007527351379e-02
1.600078195333480835e-01 2.416182160377502441e-01 -2.539563924074172974e-02
-5.843263864517211914e-02 1.080199480056762695e-01 7.606319338083267212e-02
1.029670089483261108e-01 1.094362139701843262e-01 5.382860079407691956e-03
-1.840710043907165527e-01 1.727992147207260132e-01 8.540266752243041992e-02
-1.938409209251403809e-01 1.484466344118118286e-01 8.981229364871978760e-02
2.186834067106246948e-01 1.678433865308761597e-01 -2.590754628181457520e-02
-2.136365622282028198e-01 1.541688144207000732e-01 8.589793741703033447e-02
1.836966574192047119e-01 1.743327379226684570e-01 -5.170924589037895203e-02
-2.422807812690734863e-01 1.011663749814033508e-01 -4.318050667643547058e-02
-1.777309775352478027e-01 9.390945732593536377e-02 7.049345225095748901e-02
-5.996134132146835327e-02 1.272323727607727051e-01 8.858059346675872803e-02
2.328583151102066040e-01 1.725741475820541382e-01 -1.176496315747499466e-02
-1.710792630910873413e-01 1.670774668455123901e-01 8.950585871934890747e-02
1.904442012310028076e-01 1.456648856401443481e-01 -1.825271919369697571e-02
9.980943799018859863e-02 1.261809766292572021e-01 -4.774657264351844788e-02
1.290334165096282959e-01 2.448285222053527832e-01 -2.655779570341110229e-02
-1.119074374437332153e-01 1.846250891685485840e-01 -6.913028657436370850e-02
-1.516675651073455811e-01 7.372783869504928589e-02 3.728311508893966675e-02
-3.467105627059936523e-01 1.092977374792098999e-01 1.030684448778629303e-02
1.164825111627578735e-01 1.173426955938339233e-01 -2.252125740051269531e-02
-1.258086562156677246e-01 2.308551818132400513e-01 2.695821598172187805e-02
2.386048287153244019e-01 1.857095211744308472e-01 1.654029637575149536e-02
-2.673939168453216553e-01 1.047600060701370239e-01 6.787972897291183472e-02
-3.802364319562911987e-02 8.258920907974243164e-02 3.053499758243560791e-02
1.987717300653457642e-01 1.533431559801101685e-01 2.341277524828910828e-02
-2.022435069084167480e-01 8.315540850162506104e-02 5.673455446958541870e-02
-4.649735987186431885e-03 1.272850930690765381e-01 -7.027365267276763916e-02
7.457567751407623291e-02 1.884277760982513428e-01 -7.498974353075027466e-02
2.085733041167259216e-02 1.466725617647171021e-01 -7.641155272722244263e-02
1.547222882509231567e-01 1.781875044107437134e-01 6.412848830223083496e-02
-5.597630515694618225e-02 2.396692037582397461e-01 -1.815506815910339355e-02
4.590782150626182556e-02 9.689492732286453247e-02 -1.621332019567489624e-02
9.006392955780029297e-02 1.546033024787902832e-01 7.595833390951156616e-02
3.446852788329124451e-02 2.376686036586761475e-01 5.414169654250144958e-02
-1.918402463197708130e-01 2.162102609872817993e-01 2.147888019680976868e-02
-2.629681527614593506e-01 1.820386499166488647e-01 -2.043459191918373108e-02
7.755236327648162842e-02 1.162132173776626587e-01 4.876947775483131409e-02
-1.251101791858673096e-01 1.935536414384841919e-01 -6.184494122862815857e-02
1.908092796802520752e-01 2.415263950824737549e-01 1.395483501255512238e-03
-4.904395341873168945e-02 7.812911272048950195e-02 1.375395059585571289e-02
-1.360965222120285034e-01 8.189465105533599854e-02 -3.452222049236297607e-02
-2.431026995182037354e-01 1.434742957353591919e-01 8.154148608446121216e-02
-1.664405018091201782e-01 2.067624330520629883e-01 -3.757396340370178223e-02
5.124327167868614197e-02 1.736891567707061768e-01 8.712449669837951660e-02
2.297711819410324097e-01 2.165440618991851807e-01 -2.422145754098892212e-02
-3.251782059669494629e-01 1.580083668231964111e-01 2.924079075455665588e-02
-2.914033830165863037e-01 1.239584088325500488e-01 6.815895438194274902e-02
-2.140179648995399475e-02 9.423974901437759399e-02 5.189896374940872192e-02
-2.734377086162567139e-01 1.467706710100173950e-01 7.260041683912277222e-02
1.325939297676086426e-01 1.189425140619277954e-01 5.278539843857288361e-03
1.918275058269500732e-01 1.457553952932357788e-01 1.477810740470886230e-02
-3.710990771651268005e-02 1.237806901335716248e-01 8.445095270872116089e-02
-2.061363160610198975e-01 1.998726874589920044e-01 5.658763647079467773e-02
1.508021652698516846e-01 1.660398840904235840e-01 -6.011158600449562073e-02
-2.028190642595291138e-01 1.019743233919143677e-01 -5.120398104190826416e-02
4.858046770095825195e-03 1.149200946092605591e-01 7.086475938558578491e-02
2.305450662970542908e-02 2.411490380764007568e-01 4.798462986946105957e-02
1.892066746950149536e-01 1.593828201293945312e-01 3.926975652575492859e-02
1.126933097839355469e-01 1.460028886795043945e-01 6.497573107481002808e-02
2.126379162073135376e-01 2.248782217502593994e-01 -2.796327322721481323e-02
-2.349538356065750122e-01 7.125066220760345459e-02 1.239276677370071411e-02
-1.429104804992675781e-01 1.426169276237487793e-01 -7.262588292360305786e-02
-1.761714369058609009e-01 1.529217362403869629e-01 9.162909537553787231e-02
1.445675492286682129e-01 1.414837688207626343e-01 4.779884964227676392e-02
-6.247725337743759155e-02 2.273721098899841309e-01 6.031869351863861084e-02
1.304366439580917358e-01 1.602271497249603271e-01 -6.353385746479034424e-02
-2.360153496265411377e-01 1.835604310035705566e-01 -3.451808542013168335e-02
-1.395407915115356445e-01 1.034330576658248901e-01 -5.838469788432121277e-02
1.706948876380920410e-01 1.435412466526031494e-01 3.367109224200248718e-02
-1.465824618935585022e-02 1.735592633485794067e-01 -8.004436641931533813e-02
-1.323024332523345947e-01 1.244110539555549622e-01 -6.986886262893676758e-02
-1.340758800506591797e-01 2.169667184352874756e-01 -3.542760759592056274e-02
-8.724333345890045166e-02 2.265255898237228394e-01 5.645074322819709778e-02
1.292234957218170166e-01 1.406859457492828369e-01 5.443186685442924500e-02
1.094717681407928467e-01 2.515969872474670410e-01 1.313972659409046173e-02
1.484822630882263184e-01 1.335439682006835938e-01 3.455476462841033936e-02
-2.120955586433410645e-01 1.811894774436950684e-01 7.420583814382553101e-02
-1.954959630966186523e-01 1.258951127529144287e-01 8.755230903625488281e-02
1.629371345043182373e-01 1.954196691513061523e-01 6.208507716655731201e-02
-1.629774123430252075e-01 2.231568694114685059e-01 4.189126193523406982e-04
-1.180969476699829102e-01 1.902094334363937378e-01 8.650679886341094971e-02
3.137340769171714783e-02 1.737034171819686890e-01 8.967965841293334961e-02
-8.068199455738067627e-02 8.324356377124786377e-02 -3.196423128247261047e-02
1.210186630487442017e-03 1.810833960771560669e-01 9.176207333803176880e-02
-2.638050913810729980e-01 1.770142614841461182e-01 5.751660838723182678e-02
-2.519816458225250244e-01 1.759379208087921143e-01 -3.419218212366104126e-02
1.333704218268394470e-02 2.002358585596084595e-01 8.563515543937683105e-02
-2.167611867189407349e-01 7.310289889574050903e-02 3.409992158412933350e-02
-1.206009387969970703e-01 1.536628305912017822e-01 9.572558850049972534e-02
8.905920386314392090e-02 1.168267279863357544e-01 -3.917267173528671265e-02
-4.602088406682014465e-02 2.277423739433288574e-01 6.231801211833953857e-02
-2.334273308515548706e-01 1.708071231842041016e-01 7.482019811868667603e-02
-9.386209398508071899e-02 1.523664742708206177e-01 9.621562808752059937e-02
-8.067907392978668213e-02 1.978076696395874023e-01 8.575318753719329834e-02
-1.833508759737014771e-01 6.917913258075714111e-02 1.668942347168922424e-02
-9.223327040672302246e-02 2.357965707778930664e-01 -1.114429067820310593e-02
-5.596572905778884888e-02 1.997258961200714111e-01 8.612179011106491089e-02
-2.913530766963958740e-01 1.356366574764251709e-01 -3.665462136268615723e-02
-2.989836335182189941e-01 1.726431846618652344e-01 3.568712994456291199e-02
1.347522735595703125e-01 1.246167793869972229e-01 -2.565071731805801392e-02
-1.725852489471435547e-01 1.887010782957077026e-01 7.869549840688705444e-02
1.250088065862655640e-01 1.258835494518280029e-01 -3.533294051885604858e-02
-3.157546222209930420e-01 1.070048063993453979e-01 -1.977631449699401855e-02
-3.250810205936431885e-01 9.855324774980545044e-02 -5.722776986658573151e-03
-1.662809699773788452e-01 1.135431975126266479e-01 8.481448888778686523e-02
-1.260938793420791626e-01 1.729361563920974731e-01 -7.138228416442871094e-02
-2.600166797637939453e-01 1.458635032176971436e-01 -4.706958681344985962e-02
6.442429125308990479e-02 2.303021997213363647e-01 6.226702034473419189e-02
-2.325258255004882812e-01 1.937428414821624756e-01 -2.298628538846969604e-02
-1.258668899536132812e-01 2.114072889089584351e-01 -4.580643773078918457e-02
5.648970976471900940e-02 1.960567981004714966e-01 8.360180258750915527e-02
2.432495802640914917e-01 1.844030022621154785e-01 -8.773540146648883820e-03
-2.597916126251220703e-01 7.611870020627975464e-02 3.058739751577377319e-02
1.619451195001602173e-01 2.471509128808975220e-01 -1.042859628796577454e-03
9.442368149757385254e-02 1.097497642040252686e-01 2.344973012804985046e-02
9.588018059730529785e-02 1.942823827266693115e-01 7.836677879095077515e-02
-2.140463888645172119e-01 1.667376458644866943e-01 -5.468194559216499329e-02
-3.226442039012908936e-01 1.236180216073989868e-01 -2.085953578352928162e-02
-8.142355084419250488e-02 2.181221544742584229e-01 -4.954290762543678284e-02
-8.866224437952041626e-03 9.018984436988830566e-02 -2.793134003877639771e-02
-7.067486643791198730e-03 8.762161433696746826e-02 3.013875707983970642e-02
8.254896104335784912e-02 1.335496753454208374e-01 6.585722416639328003e-02
1.453947722911834717e-01 2.145154774188995361e-01 6.122818589210510254e-02
-4.684398323297500610e-02 2.100513577461242676e-01 -6.308095157146453857e-02
1.757288277149200439e-01 1.388846635818481445e-01 -1.949698850512504578e-02
-9.461084008216857910e-02 1.083811223506927490e-01 8.016222715377807617e-02
-1.690120249986648560e-01 1.682742089033126831e-01 -6.525317579507827759e-02
-1.670507043600082397e-01 7.159475982189178467e-02 3.132778778672218323e-02
-9.129159152507781982e-04 8.688098192214965820e-02 -1.203929539769887924e-02
-2.858510613441467285e-02 2.440721988677978516e-01 -1.517537515610456467e-02
-3.665810078382492065e-02 9.211450815200805664e-02 5.276841670274734497e-02
-5.762105435132980347e-02 8.387330919504165649e-02 -2.848391979932785034e-02
5.879512801766395569e-02 1.133538708090782166e-01 5.278511345386505127e-02
-3.483423590660095215e-01 1.299240738153457642e-01 2.838958799839019775e-02
-2.134426832199096680e-01 1.462258547544479370e-01 -6.041154637932777405e-02
-2.751803994178771973e-01 1.653410643339157104e-01 6.273149698972702026e-02
-2.922542095184326172e-01 8.562225103378295898e-02 -8.932410739362239838e-03
-1.415645629167556763e-01 2.069615423679351807e-01 -4.614903405308723450e-02
-1.100170984864234924e-02 1.114792376756668091e-01 -5.949978902935981750e-02
1.008481085300445557e-01 1.718814522027969360e-01 -7.241949439048767090e-02
3.107265010476112366e-02 2.181778848171234131e-01 7.468549907207489014e-02
1.642676293849945068e-01 1.568555980920791626e-01 5.139410495758056641e-02
5.194948241114616394e-02 1.567534655332565308e-01 8.468322455883026123e-02
-2.385882884263992310e-01 1.454353183507919312e-01 -5.396151542663574219e-02
2.795276418328285217e-02 9.133915603160858154e-02 1.428523939102888107e-02
8.754417300224304199e-02 2.374861091375350952e-01 5.173876136541366577e-02
-2.498729825019836426e-01 1.647201776504516602e-01 7.311143726110458374e-02
2.437080070376396179e-02 1.032732427120208740e-01 5.112614482641220093e-02
3.458352759480476379e-02 1.197584420442581177e-01 -5.933786556124687195e-02
-2.235239297151565552e-01 1.068087145686149597e-01 -5.058249458670616150e-02
-2.146308273077011108e-01 2.094698995351791382e-01 2.276087179780006409e-02
-2.976576387882232666e-01 1.766557097434997559e-01 2.211675234138965607e-02
1.368690654635429382e-02 9.303151071071624756e-02 -2.519252896308898926e-02
1.504136025905609131e-01 1.521029323339462280e-01 5.444101244211196899e-02
-3.032628297805786133e-01 8.665331453084945679e-02 3.432853519916534424e-02
2.089691534638404846e-02 2.073219120502471924e-01 -6.982796639204025269e-02
1.739681214094161987e-01 2.408057451248168945e-01 -2.145993709564208984e-02
9.102290868759155273e-02 2.526372671127319336e-01 9.447309188544750214e-03
-1.752116233110427856e-01 1.339567601680755615e-01 9.105624258518218994e-02
-3.000981211662292480e-01 1.735565513372421265e-01 2.186706289649009705e-03
-2.440652549266815186e-01 2.000988423824310303e-01 1.597759127616882324e-02
