-5.572587996721267700e-02 -1.702833175659179688e-01 5.957496538758277893e-02
-2.908738143742084503e-02 8.065370470285415649e-02 -1.598497480154037476e-01
1.529597640037536621e-01 7.895524799823760986e-02 4.164369031786918640e-02
-1.838459074497222900e-01 2.237013168632984161e-02 7.451851665973663330e-02
-1.511549204587936401e-01 -1.058264076709747314e-01 -7.735521346330642700e-02
3.716079518198966980e-02 1.384482234716415405e-01 1.380431838333606720e-02
-5.088356882333755493e-02 -1.461812406778335571e-01 1.240655556321144104e-01
1.309788674116134644e-01 9.402729570865631104e-02 5.312357097864151001e-02
6.162681058049201965e-02 1.053968593478202820e-01 -1.173056885600090027e-01
1.846046000719070435e-01 3.456641733646392822e-02 -5.084789916872978210e-02
6.985222548246383667e-02 -1.283921748399734497e-01 1.387565732002258301e-01
-1.412771195173263550e-01 -6.056212633848190308e-02 1.428978294134140015e-01
-9.729290753602981567e-02 3.889329731464385986e-03 1.787815839052200317e-01
2.485303394496440887e-02 -1.804548949003219604e-01 2.226552739739418030e-02
1.263921707868576050e-01 -1.460566222667694092e-01 2.460881695151329041e-02
1.249518319964408875e-01 -1.414277553558349609e-01 -4.690370336174964905e-02
1.676114350557327271e-01 -2.636385709047317505e-02 1.132645234465599060e-01
-1.084809452295303345e-01 1.124969497323036194e-01 -5.144631862640380859e-02
-1.069206222891807556e-01 -1.239867359399795532e-01 -1.074084937572479248e-01
-6.477617472410202026e-02 -1.482701599597930908e-01 1.133553460240364075e-01
7.294951379299163818e-02 -9.466835111379623413e-02 1.684045046567916870e-01
-4.051262512803077698e-02 -1.776899844408035278e-01 3.135075792670249939e-02
-1.438786983489990234e-01 -1.184707209467887878e-01 -6.709036231040954590e-02
1.040546130388975143e-02 -4.922743886709213257e-02 2.024000138044357300e-01
1.995764672756195068e-01 -4.927661642432212830e-02 -1.567415078170597553e-03
-1.088490989059209824e-02 -9.539242833852767944e-02 -1.760546267032623291e-01
-1.493047028779983521e-01 5.646760761737823486e-02 -1.015192195773124695e-01
-1.055189967155456543e-01 -1.568888574838638306e-01 3.458256274461746216e-02
1.133294776082038879e-01 8.895206451416015625e-02 9.319754689931869507e-02
1.685928106307983398e-01 -7.282529771327972412e-02 -9.140758961439132690e-02
-4.015633463859558105e-02 -1.323565244674682617e-01 1.473828703165054321e-01
1.369768232107162476e-01 5.941195040941238403e-02 -1.152935624122619629e-01
-8.956512808799743652e-02 -5.328654497861862183e-02 -1.748747974634170532e-01
1.407869998365640640e-02 -1.762295812368392944e-01 -4.570618644356727600e-02
1.015856936573982239e-01 1.005367711186408997e-01 -9.396786242723464966e-02
1.598003953695297241e-01 -8.424653857946395874e-02 9.773367643356323242e-02
-3.440713509917259216e-02 -1.732130944728851318e-01 -4.931829124689102173e-02
1.845753192901611328e-01 -7.330772280693054199e-02 5.271339043974876404e-02
1.872820854187011719e-01 -4.059772938489913940e-03 -7.721891254186630249e-02
-1.886364817619323730e-01 3.284779191017150879e-02 4.548516869544982910e-02
-1.978330314159393311e-01 6.396882236003875732e-04 4.799113795161247253e-02
1.406000256538391113e-01 -1.034589186310768127e-01 1.055113300681114197e-01
-5.895966291427612305e-02 4.979737102985382080e-02 1.741480529308319092e-01
-1.058243140578269958e-01 -1.173201203346252441e-02 1.767856329679489136e-01
-1.490292511880397797e-02 1.270256489515304565e-01 -8.943448215723037720e-02
-8.901628106832504272e-02 1.032997742295265198e-01 -1.018394604325294495e-01
8.357268571853637695e-02 7.603576779365539551e-02 -1.442994475364685059e-01
-1.610773503780364990e-01 -8.065123111009597778e-02 -9.340566396713256836e-02
-8.706828951835632324e-02 5.302841216325759888e-02 -1.609991788864135742e-01
-1.922742128372192383e-01 -4.573822021484375000e-02 6.541863828897476196e-02
1.441213637590408325e-01 6.468284875154495239e-02 9.068569540977478027e-02
-1.163006722927093506e-01 -1.528241038322448730e-01 1.493273768573999405e-02
2.007551044225692749e-01 -3.017004206776618958e-02 -2.718244493007659912e-02
-3.006047941744327545e-02 3.841382265090942383e-02 1.874194145202636719e-01
-1.341376900672912598e-01 6.990456581115722656e-02 -1.059462800621986389e-01
1.762077659368515015e-01 2.098402194678783417e-02 -8.887501060962677002e-02
6.811048090457916260e-02 6.673860549926757812e-02 -1.608153581619262695e-01
2.153212763369083405e-02 1.230050995945930481e-01 8.874641358852386475e-02
1.788212358951568604e-01 -9.620296955108642578e-02 -1.246661040931940079e-02
1.873134821653366089e-01 -8.254162967205047607e-02 6.439084652811288834e-03
1.789959520101547241e-01 -6.725875288248062134e-02 -7.524291425943374634e-02
-9.267019480466842651e-02 1.121341660618782043e-01 7.291236519813537598e-02
5.173057690262794495e-02 -1.470383256673812866e-01 -1.103809624910354614e-01
1.418151259422302246e-01 8.233816921710968018e-02 6.159411370754241943e-02
5.756953358650207520e-02 1.295429170131683350e-01 4.650915786623954773e-02
-1.180292889475822449e-01 -1.026637107133865356e-01 -1.237652078270912170e-01
-9.548606723546981812e-02 -1.594940871000289917e-01 -3.214301168918609619e-02
7.214874774217605591e-02 -1.712379902601242065e-01 1.995570771396160126e-02
5.567229352891445160e-03 -1.818821579217910767e-01 -1.938535249792039394e-03
-1.476064473390579224e-01 8.177660405635833740e-03 -1.348089277744293213e-01
-1.042121741920709610e-02 1.400897353887557983e-01 2.690577320754528046e-02
1.367354094982147217e-01 8.549236506223678589e-02 -7.418138533830642700e-02
1.084652692079544067e-01 1.090100184082984924e-01 5.028087273240089417e-02
-3.914027661085128784e-02 5.249189585447311401e-02 1.774264723062515259e-01
1.698560714721679688e-01 -1.013960763812065125e-01 -4.353794455528259277e-02
-3.595505654811859131e-02 -4.602640122175216675e-02 -1.955195218324661255e-01
1.788866519927978516e-01 -9.208643436431884766e-02 3.486700728535652161e-02
7.261944562196731567e-02 1.156703010201454163e-01 -8.842103928327560425e-02
-2.020856291055679321e-01 -4.216861352324485779e-02 1.340345013886690140e-02
-1.089875698089599609e-01 -1.416634321212768555e-01 -7.151180505752563477e-02
-7.079134881496429443e-02 1.316952705383300781e-01 1.761317625641822815e-02
1.866850107908248901e-01 -6.894831359386444092e-02 -5.098921433091163635e-02
1.257350482046604156e-02 1.170751079916954041e-01 1.038298010826110840e-01
-4.981455206871032715e-02 -7.224277406930923462e-02 -1.827647536993026733e-01
-3.156711906194686890e-02 5.723759531974792480e-04 -1.991768777370452881e-01
-2.032725960016250610e-01 -7.114123553037643433e-03 -1.103803422302007675e-02
3.430924564599990845e-02 -1.705845147371292114e-01 7.372744381427764893e-02
-7.191532850265502930e-02 -1.660899221897125244e-01 -4.305934533476829529e-02
-1.884401962161064148e-02 -2.578214928507804871e-02 -2.013939917087554932e-01
3.767282143235206604e-02 1.827557571232318878e-02 1.934970021247863770e-01
1.319883018732070923e-01 6.202042847871780396e-02 1.105728074908256531e-01
-7.095880061388015747e-02 1.254786998033523560e-01 -6.122551485896110535e-02
-1.051146909594535828e-01 9.592397511005401611e-02 9.623044729232788086e-02
3.597786417230963707e-03 1.286614835262298584e-01 -8.601718395948410034e-02
1.290358416736125946e-02 9.704723954200744629e-02 -1.439910382032394409e-01
-1.503779590129852295e-01 -1.278739124536514282e-01 -1.434863451868295670e-02
-1.885158866643905640e-01 -2.899988740682601929e-02 8.206766843795776367e-02
1.822075992822647095e-01 -2.018844336271286011e-02 8.775962144136428833e-02
-2.820668555796146393e-02 -1.151090860366821289e-02 2.030462026596069336e-01
4.701657220721244812e-02 -1.386275738477706909e-01 1.357459127902984619e-01
-6.822249293327331543e-02 -1.603377610445022583e-01 -6.812942773103713989e-02
3.372731804847717285e-02 8.691265434026718140e-02 -1.527070701122283936e-01
8.824382722377777100e-02 -1.132392883300781250e-01 -1.379463374614715576e-01
9.731742739677429199e-02 1.163103207945823669e-01 -5.410002544522285461e-02
1.377461701631546021e-01 -1.294935345649719238e-01 6.293189525604248047e-02
8.510626852512359619e-02 -1.517568528652191162e-01 -7.789639383554458618e-02
1.647679693996906281e-02 -4.445350170135498047e-02 -1.990558505058288574e-01
3.181179612874984741e-02 7.061625272035598755e-02 -1.686527580022811890e-01
-1.389769762754440308e-01 -1.308636665344238281e-01 5.975785851478576660e-02
6.052640080451965332e-02 2.685582265257835388e-03 1.917236894369125366e-01
1.895685195922851562e-01 -7.694961875677108765e-02 -1.423794683068990707e-02
3.091139532625675201e-02 -1.594825088977813721e-01 1.052455678582191467e-01
3.840875625610351562e-02 1.356828808784484863e-01 3.521473705768585205e-02
-1.350173503160476685e-01 9.815940260887145996e-02 3.943638876080513000e-02
1.949487477540969849e-01 -1.531537715345621109e-02 -5.727874115109443665e-02
3.949099779129028320e-02 -1.671426445245742798e-01 -6.980153918266296387e-02
1.151830554008483887e-01 6.369237601757049561e-02 -1.336536854505538940e-01
8.551491051912307739e-02 -1.369158029556274414e-01 1.166771054267883301e-01
1.051651462912559509e-01 7.058136165142059326e-03 1.692487448453903198e-01
1.181649323552846909e-02 1.351596862077713013e-01 -6.282182782888412476e-02
1.223890259861946106e-01 1.007364466786384583e-01 -6.093640625476837158e-02
-1.918748170137405396e-01 9.912842884659767151e-03 6.285724043846130371e-02
1.907025575637817383e-01 -2.910885959863662720e-02 6.700976938009262085e-02
-1.783043593168258667e-01 -9.381441771984100342e-02 -2.727151289582252502e-02
1.376002728939056396e-01 -6.434725224971771240e-02 1.398782134056091309e-01
-1.500743180513381958e-01 4.509316757321357727e-03 1.377568393945693970e-01
-1.480100899934768677e-01 2.258604206144809723e-02 1.322862058877944946e-01
-7.939171791076660156e-02 3.392378985881805420e-02 1.759092807769775391e-01
1.012833938002586365e-01 -1.448777616024017334e-01 -7.693531364202499390e-02
1.351912040263414383e-02 7.762578129768371582e-02 1.594142466783523560e-01
-1.765631437301635742e-01 5.728571861982345581e-02 3.731177747249603271e-02
-1.955702304840087891e-01 2.766867540776729584e-02 -5.287589970976114273e-03
-2.951598167419433594e-02 1.359233856201171875e-01 4.456290975213050842e-02
1.923208236694335938e-01 1.186148263514041901e-02 -5.241330340504646301e-02
-1.507800370454788208e-01 4.942224174737930298e-02 1.081267595291137695e-01
1.207991465926170349e-01 -1.402432024478912354e-01 6.772442162036895752e-02
-1.588858962059020996e-01 -4.829865694046020508e-02 1.276722103357315063e-01
5.714048631489276886e-03 1.090981289744377136e-01 1.193992868065834045e-01
2.605101466178894043e-02 -9.709447622299194336e-02 1.811475306749343872e-01
1.621265858411788940e-01 5.268067121505737305e-02 7.617833465337753296e-02
-2.009742707014083862e-01 9.873643517494201660e-03 -3.794016316533088684e-03
2.045345678925514221e-02 1.405936777591705322e-01 -2.316255122423171997e-02
1.457038521766662598e-01 8.962700515985488892e-02 -3.374743461608886719e-02
-2.363553456962108612e-02 -1.433420330286026001e-01 1.363546699285507202e-01
-1.507085412740707397e-01 -6.884917616844177246e-02 1.282421648502349854e-01
-7.039163261651992798e-02 -1.479745209217071533e-01 -9.629048407077789307e-02
-1.811098009347915649e-01 -2.792171388864517212e-02 -8.994177728891372681e-02
-1.632056683301925659e-01 1.802317798137664795e-03 1.227313578128814697e-01
8.965248614549636841e-02 1.243137791752815247e-01 -2.205450274050235748e-02
-1.754781305789947510e-01 6.315699964761734009e-02 1.611828058958053589e-02
1.044607385993003845e-01 8.105400949716567993e-02 -1.233074963092803955e-01
-1.634518951177597046e-01 -7.273351401090621948e-02 1.079928576946258545e-01
-1.534897983074188232e-01 -2.940331771969795227e-02 -1.305637806653976440e-01
-1.963323354721069336e-01 -5.676653981208801270e-02 -2.564956247806549072e-02
7.972220331430435181e-02 5.430644750595092773e-02 -1.649580001831054688e-01
-3.875083476305007935e-02 -1.700526922941207886e-01 7.392549514770507812e-02
-1.796101778745651245e-01 -6.462457031011581421e-02 -7.345996797084808350e-02
1.502384096384048462e-01 8.189127594232559204e-02 -5.030867829918861389e-02
-1.553425490856170654e-01 8.457274734973907471e-02 2.318992279469966888e-02
-2.035620212554931641e-01 -1.706452108919620514e-02 2.168078161776065826e-02
-8.945467323064804077e-02 1.156499013304710388e-01 -7.197207212448120117e-02
-1.795555800199508667e-01 -9.556806832551956177e-02 -9.940996766090393066e-03
9.959761798381805420e-02 -6.971797347068786621e-02 -1.646216213703155518e-01
-8.218701928853988647e-02 1.253545731306076050e-01 -4.465499892830848694e-02
-1.802464872598648071e-01 -4.508617520332336426e-02 -8.587700128555297852e-02
-4.761100932955741882e-02 1.188284829258918762e-01 9.150770306587219238e-02
-1.943610422313213348e-02 5.986639857292175293e-02 1.749799549579620361e-01
-7.310811430215835571e-03 6.582977250218391418e-03 -2.008870095014572144e-01
9.624131023883819580e-02 -7.979255914688110352e-02 1.649931222200393677e-01
7.056006044149398804e-02 1.197199299931526184e-01 6.879980862140655518e-02
-5.990032479166984558e-02 -4.475817829370498657e-02 1.955484896898269653e-01
5.586858093738555908e-02 -4.605771601200103760e-02 1.944944113492965698e-01
-5.520007014274597168e-02 3.409934043884277344e-02 -1.846603602170944214e-01
-1.132329851388931274e-01 -1.229082718491554260e-01 1.160948127508163452e-01
5.463798344135284424e-02 -1.471444517374038696e-01 1.192821487784385681e-01
-5.032994598150253296e-02 8.280009776353836060e-02 1.479564309120178223e-01
1.173115242272615433e-02 1.159212924540042877e-02 -1.998961269855499268e-01
7.581873238086700439e-02 -9.489972144365310669e-02 -1.611027717590332031e-01
-1.308383769355714321e-03 -1.319488734006881714e-01 -1.420548856258392334e-01
9.979633614420890808e-03 -1.559201627969741821e-01 1.168626323342323303e-01
1.964430660009384155e-01 -2.560945414006710052e-02 4.845423996448516846e-02
3.482764586806297302e-02 -1.164867803454399109e-01 -1.557710915803909302e-01
9.905144572257995605e-02 1.206955835223197937e-01 3.757196944206953049e-03
1.938427239656448364e-02 -1.248345673084259033e-01 1.591729074716567993e-01
7.874596863985061646e-02 6.076454371213912964e-02 1.545362621545791626e-01
-1.422369629144668579e-01 7.563927024602890015e-02 8.469247817993164062e-02
1.993125975131988525e-01 -1.142613030970096588e-02 -3.734501451253890991e-02
1.981858909130096436e-02 1.687090843915939331e-04 2.013860195875167847e-01
-1.735060513019561768e-01 -1.049062907695770264e-01 1.131240185350179672e-02
1.567129790782928467e-01 -5.529366433620452881e-02 1.218166053295135498e-01
5.878055095672607422e-02 -3.679101914167404175e-02 -1.929775476455688477e-01
1.600956916809082031e-01 -9.273397922515869141e-02 -8.434525877237319946e-02
-4.558752849698066711e-02 -3.091251105070114136e-02 -1.962573975324630737e-01
1.912358254194259644e-01 2.357292734086513519e-02 3.476316854357719421e-02
1.142095103859901428e-01 1.131884828209877014e-01 -1.278681866824626923e-02
1.653858274221420288e-01 -1.115571185946464539e-01 -2.610576152801513672e-02
1.941501721739768982e-02 -6.686230003833770752e-02 1.968562752008438110e-01
7.208771258592605591e-02 1.272782683372497559e-01 -4.814280942082405090e-02
7.026340812444686890e-02 -5.227954685688018799e-02 -1.854782402515411377e-01
5.361097678542137146e-02 6.607726216316223145e-02 1.609323918819427490e-01
6.875675916671752930e-02 -1.617872864007949829e-01 -6.550984829664230347e-02
1.793128252029418945e-01 -5.519406497478485107e-02 8.442212641239166260e-02
-4.607794433832168579e-02 -1.762643009424209595e-01 -2.015534415841102600e-02
1.005554273724555969e-01 1.176835522055625916e-01 2.777794748544692993e-02
2.022095769643783569e-01 -3.142461925745010376e-02 4.650678951293230057e-03
-1.926897019147872925e-01 -5.559625476598739624e-02 -4.491361975669860840e-02
9.045114368200302124e-02 -1.256577819585800171e-01 1.291381120681762695e-01
1.886946409940719604e-01 -2.609776146709918976e-02 -7.548248767852783203e-02
-8.650725334882736206e-02 8.404389768838882446e-02 1.297191381454467773e-01
9.761389344930648804e-02 1.521511003375053406e-03 -1.774826347827911377e-01
-1.840648949146270752e-01 -8.245953172445297241e-02 4.527499154210090637e-02
-1.661002170294523239e-03 5.786400288343429565e-02 -1.807577013969421387e-01
-6.381169706583023071e-02 -1.719267666339874268e-01 -2.266302146017551422e-02
1.511389315128326416e-01 -1.238396167755126953e-01 4.246487468481063843e-02
1.787107810378074646e-02 9.425722807645797729e-02 1.399797201156616211e-01
8.593065291643142700e-02 -1.594896763563156128e-01 6.361105293035507202e-02
1.286366209387779236e-02 -1.765341311693191528e-01 5.838489159941673279e-02
-4.138595238327980042e-02 1.284112334251403809e-01 6.823665648698806763e-02
6.149463728070259094e-02 -1.563784480094909668e-01 9.695962071418762207e-02
5.182154476642608643e-03 -1.851461082696914673e-02 -2.028599530458450317e-01
1.978942751884460449e-01 1.038797758519649506e-02 -2.311502397060394287e-02
1.107715517282485962e-01 -9.168087691068649292e-02 1.474281698465347290e-01
1.158664822578430176e-01 9.847670793533325195e-02 6.938885897397994995e-02
1.066457778215408325e-01 -4.526502639055252075e-02 -1.698199808597564697e-01
9.089531749486923218e-02 6.207154691219329834e-02 -1.529889851808547974e-01
-9.748255461454391479e-02 1.212623938918113708e-01 2.651033923029899597e-02
4.710069671273231506e-02 -1.739980429410934448e-01 4.937633872032165527e-02
7.366857677698135376e-02 -1.679874509572982788e-01 -3.317332267761230469e-02
-1.221245750784873962e-01 -1.232642158865928650e-01 -9.191355109214782715e-02
-6.817725300788879395e-02 1.225778833031654358e-01 6.767202913761138916e-02
-1.324321050196886063e-02 -8.432000130414962769e-02 1.905297338962554932e-01
-1.212356910109519958e-01 2.871666103601455688e-03 -1.600154787302017212e-01
-1.902673989534378052e-01 -2.078037895262241364e-02 -7.060266286134719849e-02
1.129461452364921570e-01 3.998553752899169922e-02 1.482904553413391113e-01
-1.213141009211540222e-01 -1.496321260929107666e-01 -5.718251690268516541e-03
1.693557947874069214e-01 6.705508381128311157e-02 -2.291953563690185547e-02
-6.874599307775497437e-02 1.312511712312698364e-01 -3.435579687356948853e-02
-9.165474027395248413e-02 1.180500462651252747e-01 5.517257750034332275e-02
1.150188148021697998e-01 -8.224486559629440308e-02 -1.467768251895904541e-01
6.343922019004821777e-02 -1.508194208145141602e-01 -9.714004397392272949e-02
1.345895528793334961e-01 -9.036289900541305542e-02 -1.225471124053001404e-01
-1.841470003128051758e-01 -9.948474355041980743e-03 -8.442635834217071533e-02
5.266532301902770996e-02 -1.757624000310897827e-01 2.717432379722595215e-02
1.515015363693237305e-01 -4.022455215454101562e-02 1.327526122331619263e-01
-1.912769228219985962e-01 9.227935224771499634e-03 -5.969829857349395752e-02
-1.743313819169998169e-01 -4.519561678171157837e-02 1.060576066374778748e-01
-1.236390396952629089e-01 -3.188282251358032227e-02 -1.585019826889038086e-01
-1.992967873811721802e-01 7.143817842006683350e-03 -2.790857851505279541e-02
-7.816249132156372070e-02 4.160664230585098267e-02 -1.723255366086959839e-01
-6.139133498072624207e-02 9.180994331836700439e-02 -1.373449563980102539e-01
-2.254925109446048737e-02 -5.986075103282928467e-02 1.994258910417556763e-01
-5.863999575376510620e-02 -1.090817824006080627e-01 -1.546086519956588745e-01
1.931934803724288940e-01 2.705670706927776337e-02 9.936053305864334106e-03
-6.576161086559295654e-02 -1.310375183820724487e-01 -1.268460154533386230e-01
1.238463819026947021e-01 -1.212567985057830811e-01 -9.647567570209503174e-02
8.279360085725784302e-02 -3.946757316589355469e-02 1.850752234458923340e-01
-2.063749125227332115e-03 8.562455326318740845e-02 1.519386619329452515e-01
6.488814204931259155e-02 -7.404796034097671509e-02 -1.785290986299514771e-01
8.379573374986648560e-02 -6.828247010707855225e-02 1.771909594535827637e-01
-2.623582817614078522e-02 -1.315153390169143677e-01 -1.398850381374359131e-01
-1.851061359047889709e-02 -1.130899637937545776e-01 1.708882898092269897e-01
2.073286101222038269e-02 5.502934753894805908e-02 1.774568110704421997e-01
6.688729673624038696e-02 -5.371777340769767761e-03 -1.918237805366516113e-01
-2.120130695402622223e-03 8.861494809389114380e-02 -1.544853597879409790e-01
4.456025362014770508e-02 1.337520927190780640e-01 -5.073089897632598877e-02
4.249825328588485718e-02 -6.007840484380722046e-02 -1.908029913902282715e-01
1.918979734182357788e-01 2.986227907240390778e-02 -1.921113580465316772e-02
1.637250930070877075e-01 7.123520970344543457e-02 2.762338332831859589e-02
3.238591179251670837e-02 -1.486896574497222900e-01 -1.141289994120597839e-01
1.534558683633804321e-01 1.280421391129493713e-03 -1.320556849241256714e-01
-4.792787879705429077e-02 -1.212318688631057739e-01 -1.461996436119079590e-01
-1.342748291790485382e-02 -1.780297756195068359e-01 5.062772706151008606e-02
-3.536015748977661133e-02 -9.269190579652786255e-02 1.832793354988098145e-01
3.172952681779861450e-02 -1.778254508972167969e-01 -2.755339816212654114e-02
1.470621973276138306e-01 -5.692806839942932129e-02 -1.320799142122268677e-01
1.015532314777374268e-01 8.553364872932434082e-02 1.110486239194869995e-01
1.876820474863052368e-01 1.875301636755466461e-02 5.566735193133354187e-02
7.028732448816299438e-02 7.642851769924163818e-02 1.438474506139755249e-01
-9.539730101823806763e-02 -7.128746807575225830e-02 1.729137897491455078e-01
-1.698239594697952271e-01 -1.896981336176395416e-02 -1.101006418466567993e-01
9.521097689867019653e-02 -2.765281125903129578e-02 1.796550452709197998e-01
-1.138990297913551331e-01 1.096537336707115173e-01 4.673961922526359558e-02
-2.023867703974246979e-02 1.414186656475067139e-01 3.505449276417493820e-03
-4.371688514947891235e-02 -1.648228168487548828e-01 -7.303857058286666870e-02
-1.626652926206588745e-01 -1.169330403208732605e-01 2.077286317944526672e-02
5.542276427149772644e-02 1.144619509577751160e-01 -1.034561917185783386e-01
1.134095713496208191e-01 -5.962774157524108887e-02 -1.604595929384231567e-01
-1.678211688995361328e-01 -1.080310493707656860e-01 -2.629578113555908203e-02
5.649674683809280396e-02 -1.244060546159744263e-01 1.496421247720718384e-01
-1.807531565427780151e-01 -6.013873964548110962e-02 8.542470633983612061e-02
-1.514284461736679077e-01 -1.154385656118392944e-01 7.164873927831649780e-02
-8.648275583982467651e-02 1.271565407514572144e-01 -1.638467423617839813e-02
3.690487006679177284e-03 -1.070305630564689636e-01 -1.676026880741119385e-01
3.673367947340011597e-02 1.275482624769210815e-01 -8.043073117733001709e-02
-2.441467158496379852e-02 -1.562995314598083496e-01 1.142881810665130615e-01
1.317579597234725952e-01 8.166934549808502197e-02 8.150035887956619263e-02
-9.235201776027679443e-02 4.977119714021682739e-02 1.597544997930526733e-01
-6.508378684520721436e-02 -1.576482504606246948e-01 9.290195256471633911e-02
-8.499544113874435425e-02 -3.654987365007400513e-02 -1.814703494310379028e-01
1.083356067538261414e-01 -1.547461152076721191e-01 3.786552697420120239e-02
5.642459541559219360e-02 9.749712049961090088e-02 -1.321932375431060791e-01
-6.892655044794082642e-03 3.610062599182128906e-02 1.903924047946929932e-01
-5.482574924826622009e-02 3.172980248928070068e-02 1.856465041637420654e-01
9.309252351522445679e-02 -1.628994345664978027e-01 2.985195443034172058e-02
9.698171168565750122e-02 -1.420852839946746826e-01 9.694416821002960205e-02
4.600660875439643860e-03 -1.633392125368118286e-01 1.016675010323524475e-01
-1.453908383846282959e-01 -8.499617129564285278e-02 -1.116694733500480652e-01
-1.233508139848709106e-01 -1.310401558876037598e-01 -7.529884576797485352e-02
1.494258344173431396e-01 -3.732303157448768616e-02 -1.363543123006820679e-01
1.030414253473281860e-01 -1.222576871514320374e-01 -1.162838935852050781e-01
-1.334899961948394775e-01 9.336061030626296997e-02 6.057424843311309814e-02
-1.618710458278656006e-01 -1.055167838931083679e-01 -5.464552342891693115e-02
1.742682307958602905e-01 2.137546427547931671e-02 8.656133711338043213e-02
-9.113138914108276367e-02 8.065380156040191650e-03 -1.780726462602615356e-01
-4.168180376291275024e-02 1.351056396961212158e-01 -4.863879829645156860e-02
-6.343389302492141724e-02 4.690337926149368286e-03 1.927355080842971802e-01
-1.806637495756149292e-01 4.157433658838272095e-02 5.872054770588874817e-02
1.054594516754150391e-01 -1.458956748247146606e-01 7.758414745330810547e-02
8.903696388006210327e-02 -1.658347547054290771e-01 8.210803382098674774e-03
1.409430503845214844e-01 -1.078640818595886230e-01 -9.435089677572250366e-02
-3.586586192250251770e-02 -9.941677004098892212e-02 -1.694806963205337524e-01
-1.764487922191619873e-01 1.336263306438922882e-02 -9.219928085803985596e-02
-1.229970157146453857e-01 8.844558149576187134e-02 8.936683088541030884e-02
1.379393637180328369e-01 -1.199285760521888733e-01 -7.859524339437484741e-02
5.348785594105720520e-02 4.459281265735626221e-02 1.767750680446624756e-01
-1.977691948413848877e-01 -4.731905460357666016e-02 4.219237715005874634e-02
-1.336158365011215210e-01 -3.217529132962226868e-02 1.572375446557998657e-01
1.205795779824256897e-01 -1.054201200604438782e-01 1.267220228910446167e-01
3.221400827169418335e-02 7.470022141933441162e-02 1.591824442148208618e-01
1.292706727981567383e-01 1.041140109300613403e-01 -4.116288619115948677e-04
-3.121166303753852844e-02 7.199738919734954834e-02 1.634058505296707153e-01
-1.872046142816543579e-01 1.953465864062309265e-03 8.052230626344680786e-02
-1.460628956556320190e-01 9.311372786760330200e-02 -2.167453803122043610e-02
4.839240573346614838e-03 -1.164246872067451477e-01 1.685977727174758911e-01
1.258781105279922485e-01 7.543739676475524902e-02 -1.087999045848846436e-01
-4.749973490834236145e-02 -1.612145006656646729e-01 9.519111365079879761e-02
-8.022376149892807007e-02 1.296339333057403564e-01 2.670936519280076027e-03
1.126587763428688049e-01 -1.208763942122459412e-01 1.161323562264442444e-01
1.620136797428131104e-01 -1.175166219472885132e-01 -9.461369365453720093e-03
8.558427542448043823e-02 -6.255581229925155640e-02 -1.753505468368530273e-01
-7.268051058053970337e-02 -1.299899816513061523e-02 1.925505846738815308e-01
-9.702563693281263113e-05 8.991393446922302246e-01 2.389736706390976906e-03
-2.226383890956640244e-03 9.460904598236083984e-01 2.118366304785013199e-03
-6.300177192315459251e-04 8.851580619812011719e-01 1.844871323555707932e-03
-9.170239209197461605e-04 8.808113932609558105e-01 1.546204905025660992e-03
2.771205618046224117e-04 8.555691242218017578e-01 -3.352962201461195946e-03
-4.545268020592629910e-04 9.193879961967468262e-01 2.620119135826826096e-03
-3.975452855229377747e-04 8.659232854843139648e-01 1.170136616565287113e-03
-5.820245132781565189e-05 8.771829009056091309e-01 1.781387487426400185e-03
1.703837537206709385e-03 9.219916462898254395e-01 9.136433945968747139e-04
-2.355123870074748993e-03 8.636515736579895020e-01 -1.442357664927840233e-03
-8.313737343996763229e-04 8.633667826652526855e-01 -3.312100656330585480e-03
-1.442836830392479897e-03 9.564064741134643555e-01 5.312697030603885651e-04
-3.634174820035696030e-03 9.166938662528991699e-01 2.838958753272891045e-04
9.011125657707452774e-04 9.353744983673095703e-01 1.527478103525936604e-03
4.847628297284245491e-04 9.296624064445495605e-01 -5.402207607403397560e-04
8.702035993337631226e-04 8.303896784782409668e-01 -3.056114306673407555e-03
2.141182776540517807e-03 8.420225381851196289e-01 6.443005986511707306e-04
3.014769405126571655e-03 8.731347322463989258e-01 -1.082638744264841080e-03
-1.847061212174594402e-03 9.016205072402954102e-01 1.742542022839188576e-03
1.450107549317181110e-03 9.156260490417480469e-01 -5.607890780083835125e-04
-4.986379062756896019e-04 9.481058716773986816e-01 2.120793098583817482e-03
-1.027430174872279167e-03 9.537210464477539062e-01 1.935695530846714973e-03
2.365575870499014854e-03 8.374878168106079102e-01 3.675424377433955669e-04
-3.233549417927861214e-03 8.939824104309082031e-01 -2.083161816699430346e-04
-2.125051803886890411e-03 8.587802052497863770e-01 -1.508719520643353462e-03
-2.508730394765734673e-03 8.781629204750061035e-01 -2.571284538134932518e-03
1.114666927605867386e-03 8.801937699317932129e-01 2.071197144687175751e-03
-6.894538528285920620e-04 9.373733401298522949e-01 2.558164997026324272e-03
8.547398028895258904e-04 9.059118032455444336e-01 -1.742306863889098167e-03
2.986054401844739914e-03 8.863555788993835449e-01 9.727836586534976959e-04
-5.812969757243990898e-04 8.510398864746093750e-01 -3.288158448413014412e-03
-2.280667191371321678e-03 9.576876163482666016e-01 1.621105475351214409e-03
3.548941109329462051e-03 8.545480966567993164e-01 -6.111377151682972908e-04
-7.734160171821713448e-04 9.419936537742614746e-01 2.471664687618613243e-03
1.269689295440912247e-03 8.366664052009582520e-01 -3.140136366710066795e-03
1.207588706165552139e-03 9.293201565742492676e-01 5.620476440526545048e-04
2.448956249281764030e-03 8.904976248741149902e-01 -9.778044186532497406e-04
2.241605427116155624e-03 9.103781580924987793e-01 1.052493811585009098e-03
5.502350977621972561e-04 8.853961825370788574e-01 -2.725728787481784821e-03
-7.398955058306455612e-04 9.435000419616699219e-01 -4.179084498900920153e-04
-2.832110505551099777e-03 9.220852851867675781e-01 1.554217305965721607e-03
-1.290457672439515591e-03 9.508630037307739258e-01 2.202288480475544930e-03
-2.290512435138225555e-03 9.281198978424072266e-01 -1.760652405209839344e-03
-8.821308729238808155e-04 9.065369963645935059e-01 -2.483602846041321754e-03
2.501441631466150284e-03 8.611269593238830566e-01 -2.187043428421020508e-03
2.392786089330911636e-03 8.629277348518371582e-01 1.415499020367860794e-03
-1.165009889518842101e-04 9.388404488563537598e-01 2.413701731711626053e-03
-1.972006633877754211e-03 9.378054141998291016e-01 2.293217228725552559e-03
-3.450202522799372673e-03 9.372443556785583496e-01 1.086888136342167854e-03
-2.445070305839180946e-03 8.847544193267822266e-01 4.830767866224050522e-04
1.826299587264657021e-03 8.360479474067687988e-01 3.034443361684679985e-04
-3.804155625402927399e-03 9.320359826087951660e-01 -5.675082211382687092e-04
2.414516871795058250e-03 8.470340967178344727e-01 -2.541178138926625252e-03
6.108681554906070232e-04 9.384084939956665039e-01 6.607013056054711342e-04
-3.608421422541141510e-03 9.406020641326904297e-01 7.876645540818572044e-04
-1.439244369976222515e-03 9.241080284118652344e-01 2.429522573947906494e-03
2.560773165896534920e-03 8.778740167617797852e-01 -1.514540519565343857e-03
2.684550127014517784e-03 8.530845046043395996e-01 -2.204544842243194580e-03
-1.678906613960862160e-03 9.121364951133728027e-01 2.125479746609926224e-03
3.642839146777987480e-04 9.118461012840270996e-01 2.593793440610170364e-03
-1.790957176126539707e-03 8.943687081336975098e-01 -2.847052179276943207e-03
8.052171324379742146e-04 8.889694213867187500e-01 2.270641503855586052e-03
-1.742557738907635212e-03 8.517243266105651855e-01 -2.166172023862600327e-03
-3.438531653955578804e-03 9.071162939071655273e-01 -1.718021696433424950e-03
6.091944524087011814e-04 9.278980493545532227e-01 2.417723182588815689e-03
-2.840864239260554314e-03 9.090899229049682617e-01 1.167410286143422127e-03
1.116998959332704544e-03 8.620226383209228516e-01 1.493921852670609951e-03
1.912776497192680836e-05 9.075731635093688965e-01 2.548283664509654045e-03
1.810003304854035378e-03 8.948327302932739258e-01 -1.503765932284295559e-03
2.149025909602642059e-03 8.979058265686035156e-01 1.934349536895751953e-03
-5.326544633135199547e-04 8.340722322463989258e-01 -1.610861858353018761e-03
-1.631945197004824877e-04 9.451997280120849609e-01 3.113716957159340382e-04
2.673398470506072044e-03 8.634474873542785645e-01 -1.945068128407001495e-03
-2.796868095174431801e-03 8.740612864494323730e-01 -1.585041405633091927e-03
-2.538959495723247528e-03 9.207864403724670410e-01 -2.009956166148185730e-03
-3.874153771903365850e-04 8.611919879913330078e-01 9.387322934344410896e-04
1.563747879117727280e-03 8.663988113403320312e-01 -2.744573866948485374e-03
-3.756777150556445122e-03 9.139863848686218262e-01 -1.003452343866229057e-03
2.894558245316147804e-03 8.444969058036804199e-01 -2.122625708580017090e-03
-1.839601784013211727e-03 8.831314444541931152e-01 -2.989547559991478920e-03
2.957704942673444748e-03 8.757417201995849609e-01 -1.041526091285049915e-03
-1.878684270195662975e-03 9.523252844810485840e-01 2.083599101752042770e-03
2.873041201382875443e-03 8.925589323043823242e-01 8.222397882491350174e-04
2.611281117424368858e-03 8.378191590309143066e-01 -2.436899347230792046e-03
1.230111811310052872e-03 9.168925285339355469e-01 2.315127756446599960e-03
-3.474904689937829971e-03 9.166359305381774902e-01 -1.578770228661596775e-03
3.382513299584388733e-03 8.712097406387329102e-01 -1.389911922160536051e-04
-1.827835221774876118e-03 9.469490647315979004e-01 -6.425017490983009338e-04
3.496051765978336334e-03 8.507494926452636719e-01 -9.743972914293408394e-04
-1.907927682623267174e-03 8.686439394950866699e-01 -2.922716084867715836e-03
1.900425646454095840e-03 8.886067867279052734e-01 2.078342949971556664e-03
1.501092570833861828e-03 8.268965482711791992e-01 -4.489268758334219456e-04
3.345889272168278694e-03 8.551127910614013672e-01 4.915192257612943649e-04
3.046281635761260986e-04 9.428609609603881836e-01 1.740941544994711876e-03
-3.089419333264231682e-03 8.829090595245361328e-01 -1.071915030479431152e-03
3.330070991069078445e-03 8.324222564697265625e-01 -8.035202044993638992e-04
6.525025237351655960e-04 8.529705405235290527e-01 9.852909715846180916e-04
-6.012723315507173538e-04 8.430359959602355957e-01 -3.081100294366478920e-03
-1.582516822963953018e-03 8.713589310646057129e-01 6.211143918335437775e-04
-2.262770663946866989e-03 9.474515318870544434e-01 2.078460063785314560e-03
-3.614195389673113823e-03 9.226896166801452637e-01 -1.268103020265698433e-03
2.610469935461878777e-03 8.318828344345092773e-01 -4.985579289495944977e-05
9.774420177564024925e-04 9.340547323226928711e-01 8.475189097225666046e-04
1.767702866345643997e-03 8.926320075988769531e-01 -1.656480017118155956e-03
8.136938558891415596e-04 8.951401710510253906e-01 2.385299652814865112e-03
-2.579449675977230072e-03 8.802983760833740234e-01 -2.536650979891419411e-03
-3.285824786871671677e-03 8.904989957809448242e-01 -1.591991516761481762e-03
9.952348191291093826e-04 9.098570346832275391e-01 -1.423848560079932213e-03
-7.491938886232674122e-04 9.493712186813354492e-01 1.704539754427969456e-04
2.953936927951872349e-04 9.260227680206298828e-01 2.570312237367033958e-03
-1.310282037593424320e-03 9.133737683296203613e-01 -2.310239244252443314e-03
-4.436860326677560806e-04 8.492715954780578613e-01 -3.298440016806125641e-03
1.428944058716297150e-03 8.556947112083435059e-01 1.272403751499950886e-03
7.613396737724542618e-04 8.404766917228698730e-01 3.070790553465485573e-04
7.000361219979822636e-04 8.658772706985473633e-01 1.570377498865127563e-03
-1.405374350724741817e-04 9.084607958793640137e-01 -2.178215188905596733e-03
-2.736406167969107628e-03 9.531141519546508789e-01 1.621612813323736191e-03
-1.990549033507704735e-03 8.679648041725158691e-01 -5.933002103120088577e-05
6.822209688834846020e-04 8.512520790100097656e-01 9.071225067600607872e-04
2.435285830870270729e-03 9.019255638122558594e-01 1.437580212950706482e-03
-2.285756636410951614e-06 8.425058722496032715e-01 1.660108682699501514e-05
-3.418064909055829048e-03 9.154759645462036133e-01 -1.664746669121086597e-03
8.436052303295582533e-05 8.703409433364868164e-01 -3.223487408831715584e-03
1.643079565837979317e-03 8.331160545349121094e-01 8.436039206571877003e-05
2.514888765290379524e-03 8.936002850532531738e-01 -6.530143436975777149e-04
-1.073809689842164516e-03 8.551886677742004395e-01 -3.175047459080815315e-03
2.262825582874938846e-04 8.965879678726196289e-01 -2.489541424438357353e-03
-3.364322474226355553e-03 9.142735600471496582e-01 6.932567339390516281e-04
-1.998809399083256721e-03 9.222610592842102051e-01 -2.015950158238410950e-03
1.026863814331591129e-03 8.351041078567504883e-01 4.529015859588980675e-05
9.361307602375745773e-04 8.245337605476379395e-01 -1.001899945549666882e-03
2.031430834904313087e-03 9.098583459854125977e-01 -1.259953860426321626e-04
-2.391276881098747253e-03 9.023027420043945312e-01 -2.549353986978530884e-03
8.098510443232953548e-04 8.729769587516784668e-01 1.842469675466418266e-03
-1.124473055824637413e-03 9.163419008255004883e-01 2.437439281493425369e-03
-3.737808205187320709e-03 9.249104857444763184e-01 3.398131811991333961e-04
-3.453423967584967613e-03 9.393091201782226562e-01 1.082731294445693493e-03
-3.621347481384873390e-03 9.128574728965759277e-01 -1.391747733578085899e-03
2.199030015617609024e-03 8.289014101028442383e-01 -2.646362641826272011e-03
-3.762601176276803017e-03 9.152835607528686523e-01 -2.000552049139514565e-04
-2.965365070849657059e-03 9.330699443817138672e-01 -1.396992942318320274e-03
3.780148108489811420e-04 8.903528451919555664e-01 2.270380500704050064e-03
-4.007301176898181438e-04 9.105304479598999023e-01 -2.192770596593618393e-03
-4.432267742231488228e-04 8.982438445091247559e-01 -2.660953206941485405e-03
-2.502167189959436655e-04 8.324100375175476074e-01 -2.666572108864784241e-03
2.429095562547445297e-03 8.206186294555664062e-01 -2.036563819274306297e-03
-3.032363718375563622e-03 9.349013566970825195e-01 1.571359229274094105e-03
-2.867566188797354698e-03 8.768466711044311523e-01 -1.801362726837396622e-03
4.884311347268521786e-04 8.603258728981018066e-01 1.282251439988613129e-03
-8.161252480931580067e-05 8.309900164604187012e-01 -2.706314437091350555e-03
1.931544858962297440e-03 9.141370058059692383e-01 1.535541377961635590e-04
1.792684546671807766e-03 9.198383092880249023e-01 1.325623132288455963e-03
7.875143783167004585e-04 8.306636810302734375e-01 -4.370499518699944019e-04
-2.378279576078057289e-03 8.971965909004211426e-01 -2.641259692609310150e-03
-2.438041847199201584e-04 8.300334811210632324e-01 -2.022317610681056976e-03
-2.658870071172714233e-03 9.115223288536071777e-01 -2.250752411782741547e-03
3.523863619193434715e-03 8.607688546180725098e-01 9.022187441587448120e-09
-1.878301554825156927e-05 9.366806745529174805e-01 -4.328404611442238092e-04
-3.928220830857753754e-04 8.736520409584045410e-01 -3.239227924495935440e-03
-1.156200887635350227e-03 9.549155235290527344e-01 5.504833534359931946e-04
-1.322702446486800909e-04 8.310524225234985352e-01 -1.319287228398025036e-03
-5.622695898637175560e-04 8.621005415916442871e-01 -3.346591489389538765e-03
-1.648793579079210758e-03 9.054733514785766602e-01 1.976137747988104820e-03
-2.608042443171143532e-03 8.791521787643432617e-01 -1.310546358581632376e-04
2.906058914959430695e-03 8.908287286758422852e-01 1.276663388125598431e-04
2.593804150819778442e-03 8.721072673797607422e-01 -1.723963418044149876e-03
-2.860504668205976486e-03 9.060607552528381348e-01 -2.270430559292435646e-03
-2.307590795680880547e-03 8.874326944351196289e-01 -2.770464168861508369e-03
2.165443031117320061e-03 8.242434859275817871e-01 -2.512556966394186020e-03
-9.957503061741590500e-04 8.837305307388305664e-01 1.618079608306288719e-03
2.895907731726765633e-03 8.815702199935913086e-01 -7.988129509612917900e-04
-1.206535380333662033e-03 8.767777085304260254e-01 1.197801670059561729e-03
-2.486733021214604378e-03 8.849129676818847656e-01 -2.663399791345000267e-03
-2.542436355724930763e-03 9.334706068038940430e-01 1.960497582331299782e-03
-9.200982749462127686e-04 8.795359134674072266e-01 1.492928713560104370e-03
2.943860832601785660e-03 8.357368707656860352e-01 -2.090285997837781906e-03
-2.449520397931337357e-03 8.753044605255126953e-01 -2.571282209828495979e-03
-3.136042738333344460e-03 8.857258558273315430e-01 -1.740649458952248096e-03
-3.296298906207084656e-03 9.427443146705627441e-01 1.286671031266450882e-03
-4.761583986692130566e-04 8.449815511703491211e-01 -1.749889197526499629e-04
-1.805870328098535538e-03 8.529496788978576660e-01 -1.479138503782451153e-03
-1.176055986434221268e-03 8.673066496849060059e-01 7.371067767962813377e-04
-1.086426927940919995e-04 8.349773287773132324e-01 -7.527158595621585846e-04
1.047703321091830730e-03 9.127961993217468262e-01 -1.203492749482393265e-03
2.488850150257349014e-03 8.661279082298278809e-01 -2.050444483757019043e-03
-1.924400334246456623e-03 9.398741126060485840e-01 2.306954003870487213e-03
3.513670992106199265e-03 8.404040336608886719e-01 -6.949744420126080513e-04
6.597730680368840694e-04 9.274816513061523438e-01 -5.370470462366938591e-04
-1.971076708287000656e-03 9.534916281700134277e-01 -1.048920094035565853e-04
-2.205268479883670807e-03 9.365680217742919922e-01 2.180980285629630089e-03
-3.064515301957726479e-03 9.412450790405273438e-01 -9.333376656286418438e-04
-2.296957653015851974e-03 8.652719855308532715e-01 -2.337143057957291603e-03
-4.252473008818924427e-04 8.930071592330932617e-01 2.161372220143675804e-03
9.274460608139634132e-04 8.584370017051696777e-01 -3.179755294695496559e-03
2.907254965975880623e-03 8.269609808921813965e-01 -6.421837024390697479e-04
2.698858734220266342e-03 8.497585654258728027e-01 8.578451815992593765e-04
-7.916926988400518894e-04 8.980709910392761230e-01 2.172216773033142090e-03
2.610094146803021431e-03 8.570486903190612793e-01 1.154716010205447674e-03
-2.043328480795025826e-03 8.600795269012451172e-01 -2.440141048282384872e-03
-3.507738001644611359e-03 9.020844101905822754e-01 -1.514032832346856594e-03
1.021027099341154099e-03 8.488235473632812500e-01 -3.236135467886924744e-03
2.845674520358443260e-03 8.406682014465332031e-01 -2.205215860158205032e-03
-1.539196819067001343e-04 9.388341903686523438e-01 -3.653329913504421711e-04
-3.373221494257450104e-03 9.396465420722961426e-01 -8.303516078740358353e-04
1.192741678096354008e-03 9.236261248588562012e-01 2.143177669495344162e-03
-8.794850436970591545e-04 8.626908063888549805e-01 7.012829883024096489e-04
1.423428766429424286e-03 8.696855902671813965e-01 -2.742486540228128433e-03
1.540334313176572323e-03 8.877136707305908203e-01 -2.069142647087574005e-03
2.770371967926621437e-03 8.220903277397155762e-01 -1.256353687494993210e-03
-5.878271767869591713e-04 8.354999423027038574e-01 -2.545009367167949677e-03
1.709683332592248917e-03 8.913264274597167969e-01 -1.771854818798601627e-03
-1.304188626818358898e-03 9.320906400680541992e-01 2.518377266824245453e-03
-1.744375913403928280e-04 9.134778380393981934e-01 2.599258441478013992e-03
-2.295446582138538361e-03 9.106909036636352539e-01 1.703342190012335777e-03
2.043445827439427376e-03 8.865621685981750488e-01 1.997685991227626801e-03
4.802229523193091154e-05 9.157418012619018555e-01 2.626041881740093231e-03
7.659784751012921333e-05 8.404392004013061523e-01 -3.248459193855524063e-03
-3.015767317265272141e-03 8.814837932586669922e-01 -1.767761772498488426e-03
1.770370290614664555e-03 8.915576338768005371e-01 2.155199879780411720e-03
8.699346799403429031e-04 8.567367792129516602e-01 1.227165805175900459e-03
-2.870097057893872261e-03 9.249778985977172852e-01 -1.762511208653450012e-03
2.009755000472068787e-03 9.136233329772949219e-01 1.511738519184291363e-03
1.633838517591357231e-03 9.207887053489685059e-01 3.187130205333232880e-04
-5.002047400921583176e-04 8.638025522232055664e-01 1.008985447697341442e-03
1.401925110258162022e-03 8.474748134613037109e-01 8.918602252379059792e-04
2.139231190085411072e-03 8.708621263504028320e-01 -2.215054817497730255e-03
2.538087312132120132e-03 8.767443895339965820e-01 1.625777920708060265e-03
3.199338912963867188e-03 8.519990444183349609e-01 -1.590531785041093826e-03
1.667043659836053848e-03 8.623914122581481934e-01 -2.776304027065634727e-03
3.446236718446016312e-03 8.490513563156127930e-01 -1.161180669441819191e-03
-1.946775591932237148e-03 9.227929711341857910e-01 2.188502345234155655e-03
1.717740902677178383e-03 8.994874358177185059e-01 -1.343275536783039570e-03
1.788874389603734016e-03 8.284083604812622070e-01 -2.485886798240244389e-04
-2.836935454979538918e-03 9.498606920242309570e-01 -4.199704853817820549e-04
2.745053498074412346e-04 8.612016439437866211e-01 -3.310708329081535339e-03
3.496794961392879486e-03 8.427642583847045898e-01 -3.137085004709661007e-04
8.547647157683968544e-04 8.964853286743164062e-01 2.403900260105729103e-03
3.411845536902546883e-03 8.462920188903808594e-01 8.849878213368356228e-05
-6.420417921617627144e-04 8.372049331665039062e-01 -2.672531642019748688e-03
7.358174771070480347e-04 8.598067164421081543e-01 -3.221268299967050552e-03
2.125064202118664980e-05 8.825825452804565430e-01 1.986542018130421638e-03
2.754502464085817337e-03 8.256585597991943359e-01 -2.063511405140161514e-03
2.228719415143132210e-03 8.893461823463439941e-01 -1.339069567620754242e-03
2.558840671554207802e-03 8.746933341026306152e-01 -1.657948596403002739e-03
-2.906280336901545525e-03 8.867602348327636719e-01 -7.813054253347218037e-05
-2.744535217061638832e-03 8.726966381072998047e-01 -1.616420107893645763e-03
-1.594663131982088089e-03 8.747215270996093750e-01 -3.111391328275203705e-03
-2.459650393575429916e-03 9.171689152717590332e-01 -2.148354426026344299e-03
3.140296787023544312e-03 8.383091688156127930e-01 3.810622729361057281e-05
-9.604173828847706318e-04 8.780336976051330566e-01 1.407387317158281803e-03
2.561431378126144409e-03 8.963679671287536621e-01 -3.222432860638946295e-04
-7.087206467986106873e-04 8.397310972213745117e-01 -9.799513500183820724e-04
-5.583343445323407650e-04 8.410690426826477051e-01 -6.188204279169440269e-04
1.797819742932915688e-03 8.263530135154724121e-01 -2.769754966720938683e-03
3.540579462423920631e-03 8.570335507392883301e-01 -5.234684795141220093e-04
2.803446492180228233e-03 8.938376903533935547e-01 1.006166101433336735e-03
-2.246412448585033417e-03 9.492111206054687500e-01 2.049576025456190109e-03
-2.588531468063592911e-03 8.815139532089233398e-01 7.837134762667119503e-05
-2.578874351456761360e-03 9.080164432525634766e-01 -2.363746287301182747e-03
6.533710402436554432e-04 8.448866009712219238e-01 5.396197666414082050e-04
-2.488370228093117476e-04 8.844447731971740723e-01 -3.004876431077718735e-03
-4.414213472045958042e-04 9.036670923233032227e-01 -2.474302425980567932e-03
-2.484500873833894730e-03 9.293828606605529785e-01 -1.684453454799950123e-03
-1.102567999623715878e-03 9.450299143791198730e-01 2.407891908660531044e-03
-9.653358138166368008e-04 8.996045589447021484e-01 -2.722410019487142563e-03
-2.564222784712910652e-03 9.412522912025451660e-01 1.967699034139513969e-03
-4.970898735336959362e-04 9.249265789985656738e-01 2.639058744534850121e-03
-1.192217809148132801e-03 8.993813395500183105e-01 2.040329854935407639e-03
1.185885048471391201e-03 9.177941679954528809e-01 -7.190784672275185585e-04
5.747542309109121561e-05 9.408276677131652832e-01 2.232939470559358597e-03
2.438654424622654915e-03 8.989539742469787598e-01 -3.514422278385609388e-04
-9.119306923821568489e-06 9.442905187606811523e-01 2.037962432950735092e-03
3.145859576761722565e-03 8.827322125434875488e-01 1.143914705608040094e-04
3.224643878638744354e-03 8.784785866737365723e-01 -1.050342107191681862e-04
2.081943908706307411e-03 8.399818539619445801e-01 -2.816012827679514885e-03
2.955211559310555458e-03 8.334822058677673340e-01 -1.173252239823341370e-04
1.104777329601347446e-03 9.323827028274536133e-01 9.419301059097051620e-04
-3.052152460440993309e-03 9.011963605880737305e-01 -2.188445068895816803e-03
-8.345688111148774624e-04 8.480331897735595703e-01 -3.123213769868016243e-03
5.354704917408525944e-04 8.436680436134338379e-01 -3.317116526886820793e-03
2.088451525196433067e-03 8.520479798316955566e-01 -2.707549836486577988e-03
-2.260338282212615013e-03 8.922716975212097168e-01 1.064148847945034504e-03
5.471839103847742081e-04 8.794035315513610840e-01 -2.897254191339015961e-03
8.458747761324048042e-04 9.299171566963195801e-01 2.179661765694618225e-03
-3.182048909366130829e-03 8.982680439949035645e-01 -2.051368355751037598e-03
-2.482555108144879341e-03 9.074270129203796387e-01 1.453041215427219868e-03
-2.134014852344989777e-03 9.150869846343994141e-01 1.929237274453043938e-03
