-2.277788072824478149e-01 4.187521338462829590e-02 -5.552316308021545410e-01
-6.122241020202636719e-01 -1.508479192852973938e-02 1.341354846954345703e-02
-5.396190285682678223e-01 -2.958558127284049988e-02 5.677074193954467773e-02
-5.591769814491271973e-01 7.980586588382720947e-02 -2.970254719257354736e-01
-1.237820684909820557e-01 -2.052500844001770020e-02 -2.937228977680206299e-02
-6.076757907867431641e-01 4.864779859781265259e-02 -3.157652616500854492e-01
-2.887701988220214844e-01 -3.667296841740608215e-02 -3.750135302543640137e-01
-4.126664996147155762e-01 1.133470982313156128e-01 -1.834490001201629639e-01
-2.283799797296524048e-01 1.229293942451477051e-01 -3.609776496887207031e-01
-9.026879072189331055e-02 -2.712430432438850403e-02 -2.228019833564758301e-01
-8.583292365074157715e-02 1.053418666124343872e-01 -4.217385649681091309e-01
-3.070302307605743408e-01 -4.130006954073905945e-02 -3.519121408462524414e-01
-3.379673361778259277e-01 -4.507355019450187683e-02 -3.305785059928894043e-01
-1.666691154241561890e-01 2.926841378211975098e-02 -5.342408418655395508e-01
-1.373238265514373779e-01 -3.797594830393791199e-02 -1.873217225074768066e-01
-6.367662549018859863e-02 9.545324742794036865e-02 -4.446571171283721924e-01
-3.383305668830871582e-01 -5.950849130749702454e-02 -1.103481203317642212e-01
-2.408001124858856201e-01 3.205381706357002258e-02 1.165328025817871094e-01
-4.623669981956481934e-01 1.650026254355907440e-02 -4.753299355506896973e-01
-3.993657231330871582e-01 1.121522188186645508e-01 -3.494619727134704590e-01
-5.818419456481933594e-01 6.874053180217742920e-02 -6.674876809120178223e-02
-2.950248420238494873e-01 4.283572733402252197e-02 -5.528956651687622070e-01
-5.345723032951354980e-01 8.794418722391128540e-02 -2.990079820156097412e-01
-6.525011658668518066e-01 1.168663986027240753e-02 -2.290653139352798462e-01
-4.838738441467285156e-01 -5.549792572855949402e-02 -1.474208086729049683e-01
-2.752357423305511475e-01 7.279749214649200439e-02 -5.459461212158203125e-01
-2.546032667160034180e-01 1.195918619632720947e-01 -3.954395055770874023e-01
-5.489951372146606445e-01 -4.658538475632667542e-02 -1.487141847610473633e-01
-3.874260187149047852e-01 1.173885762691497803e-01 -2.873733043670654297e-01
-5.113336443901062012e-01 8.991622924804687500e-02 -8.643385767936706543e-02
-3.066429495811462402e-01 1.109640300273895264e-01 -4.367045760154724121e-01
-1.501660794019699097e-01 1.218587607145309448e-01 -3.095862567424774170e-01
-5.887290835380554199e-01 4.967574775218963623e-02 7.016405463218688965e-03
-1.684010177850723267e-01 -3.886409103870391846e-03 -4.676859676837921143e-01
-6.171566247940063477e-01 -2.818289771676063538e-02 -7.068030536174774170e-02
-6.572148799896240234e-01 -6.106086075305938721e-03 -1.180825084447860718e-01
-2.133755683898925781e-01 -4.451923444867134094e-02 -5.232754349708557129e-02
-3.814940154552459717e-01 8.237133920192718506e-02 3.912399709224700928e-02
-4.392189383506774902e-01 1.111786216497421265e-01 -2.242765426635742188e-01
-3.001253008842468262e-01 1.153558492660522461e-01 -1.181801185011863708e-01
-4.139441847801208496e-01 3.779699653387069702e-02 -5.153248310089111328e-01
-6.353074312210083008e-01 -2.007985860109329224e-02 -1.523888856172561646e-01
-1.143018901348114014e-01 8.398529142141342163e-03 -4.724215865135192871e-01
-3.370806574821472168e-02 2.651393786072731018e-02 -4.940472543239593506e-02
-1.093861460685729980e-02 3.581736236810684204e-03 -3.058220148086547852e-01
-2.858666479587554932e-01 2.101976796984672546e-02 -5.368752479553222656e-01
-2.755721211433410645e-01 -4.996166750788688660e-02 -2.772941291332244873e-01
-2.630603313446044922e-01 -9.123109281063079834e-03 1.103133559226989746e-01
-2.831178009510040283e-01 -4.747800156474113464e-02 -2.878472208976745605e-03
-3.258593976497650146e-01 -5.666560307145118713e-02 -5.840654671192169189e-02
-5.292791128158569336e-02 1.073329150676727295e-01 -2.656282782554626465e-01
-1.182088404893875122e-01 8.864557743072509766e-02 -4.966795444488525391e-02
-4.059293270111083984e-01 -5.746875330805778503e-02 -2.068790197372436523e-01
-2.611651420593261719e-01 3.647266328334808350e-02 -5.526351928710937500e-01
-3.305048942565917969e-01 -5.881415680050849915e-02 -1.787007898092269897e-01
-5.579450130462646484e-01 7.353603839874267578e-02 -3.362398743629455566e-01
-9.540694952011108398e-02 -2.106544002890586853e-02 -3.232678472995758057e-01
-2.258569002151489258e-02 9.833575785160064697e-02 -2.498322725296020508e-01
-3.216870427131652832e-01 -5.062346532940864563e-02 -1.207783818244934082e-03
-2.119239568710327148e-01 1.091305315494537354e-01 -8.723273873329162598e-02
-5.099725723266601562e-01 7.534147799015045166e-02 -3.053396940231323242e-04
-6.634433865547180176e-01 4.806498065590858459e-03 -1.569477617740631104e-01
-2.691267728805541992e-01 1.020562499761581421e-01 -4.868951439857482910e-01
-1.438743621110916138e-01 8.243983611464500427e-03 -4.887592196464538574e-01
-4.395078420639038086e-01 -1.287569105625152588e-02 1.303692460060119629e-01
-3.517216145992279053e-01 -3.831696882843971252e-02 -3.682114481925964355e-01
-6.505560278892517090e-01 2.926335670053958893e-02 -5.898563563823699951e-02
-9.628300368785858154e-02 2.322350069880485535e-02 -4.930652081966400146e-01
-2.965424954891204834e-01 -5.434699729084968567e-02 -2.388107627630233765e-01
-4.393968582153320312e-01 1.098991334438323975e-01 -1.822452694177627563e-01
-2.445839643478393555e-01 1.690480113029479980e-02 -5.312368869781494141e-01
-3.935579657554626465e-01 1.080283969640731812e-01 -3.914196789264678955e-01
-5.100116729736328125e-01 -4.737001284956932068e-02 -2.245859950780868530e-01
1.292219758033752441e-02 6.312334537506103516e-02 -1.539385914802551270e-01
9.802013635635375977e-03 3.187564760446548462e-02 -1.290722489356994629e-01
-4.959381222724914551e-01 -4.463556781411170959e-02 -2.637355625629425049e-01
-2.283614873886108398e-01 -1.117937266826629639e-02 9.010463953018188477e-02
2.765360474586486816e-02 4.567971825599670410e-02 -1.730912476778030396e-01
3.982642292976379395e-02 4.848424345254898071e-02 -2.309323251247406006e-01
-3.032892048358917236e-01 6.726475059986114502e-02 8.423548936843872070e-02
-1.630759686231613159e-01 -8.555378764867782593e-03 4.929819703102111816e-02
-5.693972110748291016e-03 7.540011778473854065e-03 -1.566073894500732422e-01
-2.737045288085937500e-04 3.652823716402053833e-02 -1.028095334768295288e-01
-2.943138480186462402e-01 1.242954879999160767e-01 -2.992897927761077881e-01
-3.053780496120452881e-01 8.559921383857727051e-02 -5.210270881652832031e-01
-5.386776924133300781e-01 8.945965766906738281e-02 -1.489443331956863403e-01
-2.117552459239959717e-01 -2.349366620182991028e-02 5.155324935913085938e-02
-2.667835950851440430e-01 1.095881313085556030e-01 -7.656623423099517822e-02
-1.490149050951004028e-01 1.209076493978500366e-01 -3.404203653335571289e-01
-3.057546615600585938e-01 9.904168546199798584e-02 -1.880654692649841309e-02
-8.800792694091796875e-02 6.249179691076278687e-02 -8.449077606201171875e-03
-1.590437591075897217e-01 8.581727743148803711e-02 -1.198032498359680176e-02
-4.039291441440582275e-01 -6.007869914174079895e-02 -1.051837950944900513e-01
-6.969958543777465820e-03 9.449819475412368774e-02 -3.117974102497100830e-01
-9.702031314373016357e-02 4.325429350137710571e-02 -5.184293985366821289e-01
-2.765915393829345703e-01 -3.323398530483245850e-03 -4.933189451694488525e-01
-5.878629684448242188e-01 -2.215273678302764893e-02 -2.717369794845581055e-01
-1.392962485551834106e-01 1.115932315587997437e-01 -4.292978048324584961e-01
-7.088991999626159668e-02 1.113187670707702637e-01 -3.274824619293212891e-01
1.818513870239257812e-02 6.995243579149246216e-02 -1.879203319549560547e-01
-3.804762959480285645e-01 1.161862015724182129e-01 -3.297710120677947998e-01
-3.734404444694519043e-01 -5.773704126477241516e-02 -4.985667765140533447e-02
-3.490700125694274902e-01 1.599041372537612915e-02 -5.209378004074096680e-01
-3.290221095085144043e-02 7.873719930648803711e-02 -1.107491850852966309e-01
-3.987989425659179688e-01 -6.029832735657691956e-02 -1.309342086315155029e-01
-1.803222894668579102e-01 2.538822591304779053e-03 7.920739054679870605e-02
-5.042771697044372559e-01 8.935259282588958740e-02 -3.554201126098632812e-01
-2.883308529853820801e-01 -2.577991038560867310e-02 -4.243463873863220215e-01
-1.905508637428283691e-01 1.151230186223983765e-01 -4.281225800514221191e-01
-1.619253605604171753e-01 -3.730773553252220154e-02 -7.292251288890838623e-02
-2.689666450023651123e-01 9.435828775167465210e-02 -1.522600650787353516e-03
-2.515933215618133545e-01 1.169458478689193726e-01 -1.315814405679702759e-01
-3.581421673297882080e-01 -3.436218947172164917e-03 1.411050260066986084e-01
-4.818654060363769531e-01 8.414149284362792969e-02 -1.637262105941772461e-02
-4.761615991592407227e-01 -5.536307021975517273e-02 -6.198765337467193604e-02
-2.359338402748107910e-01 -2.871669456362724304e-02 -4.008972644805908203e-01
-6.383552551269531250e-01 2.445226535201072693e-02 -1.562708616256713867e-02
-5.712643265724182129e-01 1.268394291400909424e-03 -3.623718619346618652e-01
-1.385520398616790771e-01 1.097852438688278198e-01 -1.365033090114593506e-01
-4.724541008472442627e-01 -5.530327185988426208e-02 -1.774841845035552979e-01
-1.732865273952484131e-01 -3.684957697987556458e-02 -3.082455098628997803e-01
2.366831898689270020e-02 7.499834895133972168e-02 -2.339924573898315430e-01
-1.691168099641799927e-01 -1.508813351392745972e-02 -4.293900728225708008e-01
-6.008416414260864258e-02 -1.771498471498489380e-02 -2.565575838088989258e-01
-2.638309001922607422e-01 -2.700092270970344543e-02 -4.159963726997375488e-01
-6.052732467651367188e-01 1.339659467339515686e-02 4.774940013885498047e-02
-1.001843661069869995e-01 1.137670427560806274e-01 -2.233588099479675293e-01
-3.470291197299957275e-01 -5.844458565115928650e-02 -1.974748671054840088e-01
-3.538630604743957520e-01 -1.890193670988082886e-02 1.215654313564300537e-01
-5.842986702919006348e-01 7.381344586610794067e-02 -2.629126608371734619e-01
-1.523684114217758179e-01 1.176124811172485352e-01 -3.910447955131530762e-01
-1.339685469865798950e-01 5.782049894332885742e-02 -5.399768352508544922e-01
-1.352914273738861084e-01 5.745394155383110046e-02 3.726533055305480957e-02
-5.854436159133911133e-01 -3.184589371085166931e-02 -7.072657346725463867e-03
-2.632275223731994629e-01 -3.545897081494331360e-02 -3.757238686084747314e-01
-3.726124763488769531e-03 9.057231992483139038e-02 -3.548578917980194092e-01
-1.939856857061386108e-01 7.125653326511383057e-03 -5.049902200698852539e-01
-3.824120759963989258e-02 -3.771685063838958740e-03 -1.160188838839530945e-01
-1.473041623830795288e-01 7.459068298339843750e-02 1.210348308086395264e-02
-3.788165152072906494e-01 -6.032909080386161804e-02 -1.119775250554084778e-01
-3.908828496932983398e-01 1.054734289646148682e-01 -7.685299217700958252e-02
-2.662123441696166992e-01 -4.190583154559135437e-02 -3.382314443588256836e-01
-3.933936357498168945e-02 9.815230965614318848e-02 -3.967408239841461182e-01
-5.936381816864013672e-01 -9.574647992849349976e-03 5.023187398910522461e-02
-3.694947957992553711e-01 9.164458513259887695e-02 6.165653467178344727e-03
-5.091341137886047363e-01 -1.695165783166885376e-02 1.039388477802276611e-01
-2.118884623050689697e-01 -4.869587346911430359e-02 -1.104840263724327087e-01
-1.978491842746734619e-01 4.654928296804428101e-02 -5.541753172874450684e-01
-4.619860649108886719e-02 2.075882628560066223e-03 -3.816691637039184570e-01
-2.103621214628219604e-01 8.633118867874145508e-02 -5.304384231567382812e-01
-1.555700600147247314e-01 1.069204509258270264e-01 -4.617037773132324219e-01
-5.229780673980712891e-01 -4.075518622994422913e-02 -2.610295712947845459e-01
-4.857789874076843262e-01 7.670231163501739502e-03 -4.492064416408538818e-01
-7.282480597496032715e-02 9.524551033973693848e-02 -1.224779859185218811e-01
-3.815047144889831543e-01 5.777102708816528320e-02 -5.271573066711425781e-01
-3.194740414619445801e-02 2.353458851575851440e-02 -4.346415400505065918e-01
-2.849672734737396240e-01 -5.701109394431114197e-02 -1.542253494262695312e-01
-5.147048234939575195e-01 9.215925633907318115e-02 -3.139788508415222168e-01
-2.481260299682617188e-01 -5.350091680884361267e-02 -1.877617537975311279e-01
-1.848882734775543213e-01 -4.376554861664772034e-02 -2.467921078205108643e-01
-4.369106292724609375e-01 -5.471825227141380310e-02 -2.243127971887588501e-01
-5.538356900215148926e-01 -1.869687438011169434e-02 -3.310496211051940918e-01
-5.280911326408386230e-01 6.392902135848999023e-02 -4.103409349918365479e-01
-2.642580568790435791e-01 -5.536754801869392395e-02 -1.391798257827758789e-01
-3.812182545661926270e-01 -5.943675711750984192e-02 -7.882063090801239014e-02
-2.229278683662414551e-01 1.011337339878082275e-01 -4.138816893100738525e-02
-2.947971224784851074e-02 -3.059551119804382324e-03 -1.389480382204055786e-01
-3.163775801658630371e-02 5.154067277908325195e-02 -5.684773623943328857e-02
-1.978125125169754028e-01 -3.595337644219398499e-02 -1.120065152645111084e-02
-1.460896879434585571e-01 9.982419013977050781e-02 -4.852896928787231445e-01
-1.485293209552764893e-01 -3.607929870486259460e-02 -2.774703502655029297e-01
-6.044119596481323242e-01 5.896735563874244690e-02 -5.923561751842498779e-02
-5.647978186607360840e-02 9.977480769157409668e-02 -4.159886538982391357e-01
-2.045912742614746094e-01 1.024185270071029663e-01 -4.896960258483886719e-01
-4.690550863742828369e-01 -5.719684436917304993e-02 -1.070812717080116272e-01
-1.161621659994125366e-01 -3.263443335890769958e-02 -1.467592269182205200e-01
-2.037896960973739624e-01 -2.919493243098258972e-02 2.594330906867980957e-02
-2.828684449195861816e-01 -5.563630536198616028e-02 -9.142812341451644897e-02
-8.637644350528717041e-02 8.527625352144241333e-02 -6.665511429309844971e-02
-6.340981721878051758e-01 5.388630926609039307e-02 -1.927626579999923706e-01
-1.305812597274780273e-02 8.863395452499389648e-02 -1.923043578863143921e-01
-1.863922625780105591e-01 1.026752144098281860e-01 -6.368264555931091309e-02
-6.324977874755859375e-01 -6.064359098672866821e-03 -2.448575794696807861e-01
-2.540600299835205078e-01 1.098323613405227661e-01 -4.582423865795135498e-01
-3.703488111495971680e-01 1.166586279869079590e-01 -1.697416901588439941e-01
-4.053109586238861084e-01 9.437710791826248169e-02 -1.843641698360443115e-02
-1.175501942634582520e-01 1.017248034477233887e-01 -1.067458987236022949e-01
-1.359646320343017578e-01 -3.367118164896965027e-02 -9.403457492589950562e-02
-2.303216308355331421e-01 1.073377430438995361e-01 -7.066546380519866943e-02
-3.277259767055511475e-01 -1.729760691523551941e-02 1.192193925380706787e-01
-5.492775440216064453e-01 5.705369636416435242e-02 2.996358275413513184e-02
-2.495900690555572510e-01 -5.166901275515556335e-02 -2.328473031520843506e-01
-1.791289150714874268e-01 -4.528481885790824890e-02 -1.692084968090057373e-01
-1.185616254806518555e-01 1.188256591558456421e-01 -3.052186071872711182e-01
-4.833358526229858398e-01 -1.697045192122459412e-02 1.142741739749908447e-01
-2.517890334129333496e-01 1.137127578258514404e-01 -1.060817837715148926e-01
3.310444951057434082e-02 5.746152251958847046e-02 -2.054303735494613647e-01
-6.629680395126342773e-01 5.674533545970916748e-03 -9.078425914049148560e-02
-5.066009163856506348e-01 9.799931943416595459e-02 -1.736053824424743652e-01
-2.142181992530822754e-02 8.125595748424530029e-02 -4.356690645217895508e-01
-4.071375131607055664e-01 -4.744629934430122375e-02 3.700581192970275879e-02
-5.198702812194824219e-01 9.219766408205032349e-02 -1.260170042514801025e-01
-2.729546427726745605e-01 1.225079894065856934e-01 -1.928237229585647583e-01
-5.732320547103881836e-01 6.040636822581291199e-02 -3.534142673015594482e-01
-5.037910938262939453e-01 -5.352933332324028015e-02 -8.292207121849060059e-02
-1.492108255624771118e-01 1.218280047178268433e-01 -2.839379310607910156e-01
1.808980107307434082e-02 8.236999064683914185e-02 -3.131343126296997070e-01
-4.595635533332824707e-01 1.018170714378356934e-01 -3.471362888813018799e-01
-5.905011296272277832e-01 6.931918859481811523e-02 -9.313426911830902100e-02
-1.206761151552200317e-01 -3.232736513018608093e-02 -2.591299116611480713e-01
-5.365344285964965820e-01 5.095086991786956787e-02 5.789917707443237305e-02
-6.298867464065551758e-01 1.757597178220748901e-02 9.139537811279296875e-03
-1.938474774360656738e-01 -4.371492192149162292e-02 -7.685966789722442627e-02
-5.242438316345214844e-01 -4.970807209610939026e-02 -1.691287755966186523e-01
-2.694755792617797852e-01 1.199937462806701660e-01 -1.598736047744750977e-01
-3.273817598819732666e-01 1.113894432783126831e-01 -4.235346913337707520e-01
3.220218420028686523e-02 6.867757439613342285e-02 -3.313668966293334961e-01
-5.020574927330017090e-01 -3.097815439105033875e-02 -3.340884447097778320e-01
-2.953766584396362305e-01 1.233267188072204590e-01 -3.269233107566833496e-01
-2.237831056118011475e-01 1.140940338373184204e-01 -4.382655620574951172e-01
-6.473937630653381348e-01 4.128874465823173523e-02 -9.979929029941558838e-02
-2.859032452106475830e-01 1.072965413331985474e-01 -6.162324547767639160e-02
-3.309245109558105469e-01 1.221159547567367554e-01 -2.265308946371078491e-01
-6.266931295394897461e-01 5.629617348313331604e-02 -2.228916585445404053e-01
-5.639845132827758789e-01 -4.259463772177696228e-02 -1.679506599903106689e-01
-2.782806158065795898e-01 1.164613068103790283e-01 -4.137680232524871826e-01
-4.128016233444213867e-01 -5.095798894762992859e-02 -2.740455567836761475e-01
-2.077407538890838623e-01 8.226354420185089111e-02 2.257138490676879883e-02
-5.990992784500122070e-01 -4.694424569606781006e-04 -3.220808804035186768e-01
-1.030337661504745483e-01 -5.472663789987564087e-03 -5.942866206169128418e-03
-1.009999215602874756e-01 -3.002965077757835388e-02 -1.861319094896316528e-01
-3.662455379962921143e-01 -5.483585968613624573e-02 -1.847828924655914307e-02
-4.866143465042114258e-01 9.034563601016998291e-02 -5.589669942855834961e-02
-4.659632742404937744e-01 9.559901058673858643e-02 -3.794842958450317383e-01
-4.801278114318847656e-01 -1.487975195050239563e-02 -4.058503508567810059e-01
-1.520926356315612793e-01 1.140736192464828491e-01 -1.572931706905364990e-01
-3.445812463760375977e-01 -5.987852439284324646e-02 -1.472259163856506348e-01
-1.645568013191223145e-01 1.123993098735809326e-01 -4.370055198669433594e-01
-1.663912981748580933e-01 1.181989759206771851e-01 -1.840680837631225586e-01
-4.554045796394348145e-01 -3.177727386355400085e-02 -3.629596233367919922e-01
-2.641625702381134033e-01 7.729670032858848572e-03 -5.166047811508178711e-01
4.241347312927246094e-03 5.727425962686538696e-02 -4.251803755760192871e-01
-3.351827859878540039e-01 1.130337864160537720e-01 -1.078244000673294067e-01
-3.070296347141265869e-01 -2.464728802442550659e-02 9.878051280975341797e-02
-8.388429880142211914e-02 1.123057156801223755e-01 -3.559247553348541260e-01
-5.994514822959899902e-01 6.875978410243988037e-02 -1.203868463635444641e-01
-3.336530029773712158e-01 1.015655100345611572e-01 -3.341734409332275391e-02
-4.121386706829071045e-01 1.051355749368667603e-01 -8.915253728628158569e-02
-4.026302695274353027e-02 1.013743281364440918e-01 -2.225529104471206665e-01
-3.728054165840148926e-01 2.518160641193389893e-02 -5.244314670562744141e-01
-5.191446542739868164e-01 9.577110409736633301e-02 -2.426185011863708496e-01
-4.347474873065948486e-01 1.083339750766754150e-01 -3.298253417015075684e-01
-3.667643666267395020e-02 -7.739063352346420288e-03 -2.930290699005126953e-01
-6.935022771358489990e-02 -1.988616958260536194e-02 -1.506529301404953003e-01
-5.482530593872070312e-02 8.174455910921096802e-02 -9.032299369573593140e-02
-2.336430400609970093e-01 9.507703781127929688e-02 -1.217105984687805176e-02
-2.482230812311172485e-01 8.276540040969848633e-02 -5.359745025634765625e-01
-4.100551605224609375e-01 -4.355395957827568054e-02 -3.261797428131103516e-01
-4.199450314044952393e-01 2.629161067306995392e-02 1.412618458271026611e-01
-5.123182535171508789e-01 9.861171245574951172e-03 -4.327879548072814941e-01
-6.032501459121704102e-01 6.951867043972015381e-02 -2.068686485290527344e-01
-5.224558115005493164e-01 9.525875747203826904e-02 -2.014648467302322388e-01
-2.224469035863876343e-01 1.139912009239196777e-01 -1.154803484678268433e-01
-4.029380083084106445e-01 -3.349531441926956177e-03 1.427665650844573975e-01
-6.930634379386901855e-02 5.874260514974594116e-02 -5.060065984725952148e-01
-2.007694840431213379e-01 -1.589918881654739380e-02 -4.412689805030822754e-01
-5.210531949996948242e-01 -4.176825284957885742e-03 -4.016062617301940918e-01
4.220518469810485840e-02 4.537700489163398743e-02 -2.706784009933471680e-01
-5.571794509887695312e-01 6.697979569435119629e-02 -1.580630242824554443e-02
-2.516064047813415527e-02 8.789491653442382812e-02 -1.610510945320129395e-01
-4.882270693778991699e-01 1.005659103393554688e-01 -2.937213182449340820e-01
-3.970442712306976318e-01 9.638659656047821045e-02 -4.469691812992095947e-01
-3.552660048007965088e-01 1.086175888776779175e-01 -4.213902950286865234e-01
-3.640766143798828125e-01 -6.861314177513122559e-03 -4.757712483406066895e-01
-9.812073409557342529e-02 -1.468359306454658508e-02 -4.333508014678955078e-02
-4.621128737926483154e-01 4.757902398705482483e-02 1.056013107299804688e-01
-1.867702454328536987e-01 1.137723773717880249e-01 -1.299854218959808350e-01
3.922808170318603516e-02 4.056135937571525574e-02 -2.994191050529479980e-01
-4.640150070190429688e-01 -4.539107158780097961e-02 -2.858317196369171143e-01
-3.266917467117309570e-01 4.005494713783264160e-02 1.306266486644744873e-01
-5.490498542785644531e-01 7.760109752416610718e-02 -6.057293713092803955e-02
-5.631921291351318359e-01 1.098937168717384338e-02 8.966475725173950195e-02
-1.595426052808761597e-01 -3.333939984440803528e-02 -4.584725201129913330e-02
-3.878405094146728516e-01 -2.581405267119407654e-02 -4.140827059745788574e-01
-5.868262052536010742e-01 3.187664598226547241e-02 -3.686518967151641846e-01
-6.039497852325439453e-01 -3.373874351382255554e-02 -1.338392943143844604e-01
-5.048237442970275879e-01 -5.108752474188804626e-02 -1.897765845060348511e-01
-3.099846243858337402e-01 1.238935440778732300e-01 -2.686139345169067383e-01
-4.320613145828247070e-01 1.110949069261550903e-01 -2.945742309093475342e-01
-2.103007435798645020e-01 -2.677056193351745605e-02 -3.997142314910888672e-01
-3.421780765056610107e-01 -3.106992319226264954e-02 -4.025445282459259033e-01
-3.477315306663513184e-01 -5.202477797865867615e-02 -4.179477691650390625e-04
-2.508908212184906006e-01 -4.624266549944877625e-02 -2.146774530410766602e-02
-1.341082751750946045e-01 -3.699900582432746887e-02 -2.126210331916809082e-01
-2.285165488719940186e-01 -5.187358334660530090e-02 -1.589630246162414551e-01
-5.030969381332397461e-01 2.430863678455352783e-02 1.189141571521759033e-01
-4.184612631797790527e-01 4.695683345198631287e-02 1.183830201625823975e-01
-3.893181979656219482e-01 2.324332296848297119e-02 1.457182765007019043e-01
-3.076271712779998779e-01 1.192067563533782959e-01 -3.757099509239196777e-01
-4.155510365962982178e-01 9.904219210147857666e-02 -4.200696647167205811e-01
-4.374126493930816650e-01 1.111361533403396606e-01 -2.708732485771179199e-01
-4.047190845012664795e-01 -3.470886126160621643e-02 -3.732528984546661377e-01
-1.669212430715560913e-01 6.051458418369293213e-02 -5.492830276489257812e-01
-2.007775902748107910e-01 -4.778623953461647034e-02 -2.057552337646484375e-01
-5.277844667434692383e-01 -4.926000162959098816e-02 -5.575142800807952881e-02
-2.001776695251464844e-01 4.997609928250312805e-02 8.414319157600402832e-02
-9.476065635681152344e-03 6.656144559383392334e-02 -1.152628287672996521e-01
-5.716088414192199707e-02 9.627594053745269775e-02 -1.499475389719009399e-01
-2.741897702217102051e-01 -5.520604178309440613e-02 -1.999940276145935059e-01
1.829439401626586914e-02 6.892250478267669678e-02 -3.853591680526733398e-01
-3.624738156795501709e-01 2.535540796816349030e-02 1.446812450885772705e-01
-1.239062845706939697e-01 6.697854399681091309e-02 1.284533739089965820e-02
-8.298602700233459473e-02 2.116356417536735535e-02 1.056650280952453613e-02
-2.759796380996704102e-02 -5.239874124526977539e-03 -1.666055619716644287e-01
-1.248060613870620728e-01 1.009091734886169434e-01 -4.719879329204559326e-01
-4.432500600814819336e-01 -4.453149065375328064e-02 4.696750640869140625e-02
-2.766215205192565918e-01 -4.605510458350181580e-02 -3.123189508914947510e-01
-2.932812273502349854e-01 6.449438631534576416e-03 1.347297728061676025e-01
-1.233392357826232910e-01 3.437686339020729065e-02 -5.238531231880187988e-01
-4.022825062274932861e-01 -3.524908050894737244e-02 8.724355697631835938e-02
-3.632706105709075928e-01 5.747187510132789612e-02 1.064601540565490723e-01
-4.005885422229766846e-01 1.163236349821090698e-01 -2.641935050487518311e-01
-5.734745860099792480e-01 7.773825526237487793e-02 -1.202260032296180725e-01
-1.627353429794311523e-01 -3.153618797659873962e-02 -3.385524749755859375e-01
-3.391875028610229492e-01 8.242175728082656860e-02 -5.158634185791015625e-01
-4.658269286155700684e-01 7.880800217390060425e-02 -4.432282447814941406e-01
-8.138284087181091309e-02 -5.142431706190109253e-03 -3.975854516029357910e-01
1.025569438934326172e-02 2.296843007206916809e-02 -3.555171489715576172e-01
-2.699199020862579346e-01 1.133322566747665405e-01 -4.365456104278564453e-01
-4.352464973926544189e-01 -5.915845558047294617e-02 -1.350619047880172729e-01
-1.855087280273437500e-01 8.744442462921142578e-02 -3.127396106719970703e-03
3.579348325729370117e-02 4.057703539729118347e-02 -3.245952725410461426e-01
-6.272001266479492188e-01 2.749738097190856934e-02 -3.003587722778320312e-01
-5.698754787445068359e-01 2.052186429500579834e-02 -3.876307606697082520e-01
-4.499285817146301270e-01 -2.169328927993774414e-02 -4.031252861022949219e-01
-3.415953218936920166e-01 -2.203455567359924316e-02 -4.366655945777893066e-01
-6.085438132286071777e-01 -1.025917381048202515e-02 -2.814407944679260254e-01
-1.506488472223281860e-01 -2.411052957177162170e-02 -3.739247620105743408e-01
-9.959922730922698975e-02 8.458868414163589478e-02 -5.014997124671936035e-01
-2.912607491016387939e-01 5.572216585278511047e-03 -5.123411417007446289e-01
-3.708947598934173584e-01 1.194795966148376465e-01 -2.690117359161376953e-01
-8.049757778644561768e-02 -1.426135003566741943e-02 -7.309943437576293945e-02
-2.465562522411346436e-01 7.033549249172210693e-02 6.622719764709472656e-02
-4.141362309455871582e-01 -5.129146203398704529e-02 1.285469532012939453e-02
-2.247565090656280518e-01 -5.114787444472312927e-02 -1.332937777042388916e-01
-3.198097646236419678e-01 1.043965965509414673e-01 -4.620002210140228271e-01
-6.187223196029663086e-01 5.733067169785499573e-02 -9.032210707664489746e-02
-1.271542459726333618e-01 -3.054885193705558777e-02 -2.968345284461975098e-01
-3.346420526504516602e-01 -5.505203083157539368e-02 -3.297457098960876465e-02
-3.448857963085174561e-01 1.052575409412384033e-01 -5.635383725166320801e-02
-3.100880384445190430e-01 -5.262770876288414001e-02 -2.659140825271606445e-01
-6.697833538055419922e-03 9.064017981290817261e-02 -2.268882393836975098e-01
-3.008541464805603027e-02 9.951673448085784912e-02 -3.627062439918518066e-01
-3.302827477455139160e-02 1.220829039812088013e-02 -7.037799060344696045e-02
-1.802808195352554321e-01 9.905198216438293457e-02 -4.972079098224639893e-01
-1.855193823575973511e-01 1.209061294794082642e-01 -3.758032321929931641e-01
-3.843991160392761230e-01 9.189043194055557251e-03 -5.012952089309692383e-01
-4.321172237396240234e-01 7.985997945070266724e-02 -4.691751599311828613e-01
-3.792169690132141113e-01 1.018474996089935303e-01 -4.764080047607421875e-02
-7.004821300506591797e-02 1.533048786222934723e-02 -9.521678090095520020e-03
-2.532016932964324951e-01 1.024116426706314087e-01 -3.953367471694946289e-02
-2.008429169654846191e-02 5.430495366454124451e-03 -3.474519848823547363e-01
-3.106198608875274658e-01 -5.813154950737953186e-02 -1.065547764301300049e-01
-5.536571145057678223e-01 -4.283601418137550354e-02 -1.935349702835083008e-01
-4.923647642135620117e-01 -5.516326054930686951e-02 -1.176506429910659790e-01
-3.703064620494842529e-01 -5.759106948971748352e-02 -2.148074358701705933e-01
-4.443249106407165527e-02 1.059888601303100586e-01 -3.104964792728424072e-01
-5.426132082939147949e-01 -4.844046011567115784e-02 -1.200763210654258728e-01
-6.536790728569030762e-01 -1.752167940139770508e-03 -5.775083601474761963e-02
-3.222267925739288330e-01 -3.517935797572135925e-02 7.432979345321655273e-02
-2.518070340156555176e-01 -2.068809047341346741e-02 -4.385786354541778564e-01
-4.805150926113128662e-01 7.660393416881561279e-02 1.789407432079315186e-02
-2.665517032146453857e-01 1.246268153190612793e-01 -3.198848366737365723e-01
-3.914467692375183105e-01 8.676444739103317261e-02 -4.806330800056457520e-01
-3.448143899440765381e-01 1.197958439588546753e-01 -3.307830095291137695e-01
-2.844173610210418701e-01 -1.805004477500915527e-02 -4.519310593605041504e-01
-1.277865618467330933e-01 1.181318014860153198e-01 -2.345490306615829468e-01
-5.884277820587158203e-01 7.451270520687103271e-02 -2.331466823816299438e-01
-2.031551003456115723e-01 1.176648214459419250e-02 1.003006994724273682e-01
-4.659577608108520508e-01 1.058340072631835938e-01 -2.816724181175231934e-01
-2.267664372920989990e-01 1.250948607921600342e-01 -2.549964189529418945e-01
-2.437081038951873779e-01 1.166590601205825806e-01 -4.205659031867980957e-01
-9.120009839534759521e-02 7.781812548637390137e-02 -3.925880789756774902e-02
-4.153133034706115723e-01 3.558039665222167969e-03 -4.805651903152465820e-01
-4.400535523891448975e-01 2.006513439118862152e-02 -4.914628565311431885e-01
-1.445043981075286865e-01 -3.912408277392387390e-02 -1.588449925184249878e-01
-5.899781584739685059e-01 -3.826922550797462463e-02 -1.081268787384033203e-01
-1.202562153339385986e-01 9.548763930797576904e-02 -7.465445995330810547e-02
-1.623910963535308838e-01 -4.192271456122398376e-02 -1.385005861520767212e-01
-4.290383756160736084e-01 -1.707987859845161438e-02 -4.273302555084228516e-01
-3.112294673919677734e-01 5.397249758243560791e-02 1.104694008827209473e-01
-2.718510925769805908e-01 4.694904759526252747e-02 1.130688190460205078e-01
-8.202213048934936523e-02 -1.239210367202758789e-03 -2.316331863403320312e-02
-2.379364073276519775e-01 1.241505742073059082e-01 -2.233318984508514404e-01
-4.467616677284240723e-01 -5.629191920161247253e-02 -1.944085210561752319e-01
-2.718243002891540527e-01 1.250854283571243286e-01 -2.568945586681365967e-01
-2.515017986297607422e-01 -5.230207368731498718e-02 -8.531025052070617676e-02
-1.431929767131805420e-01 1.061028838157653809e-01 -1.091353222727775574e-01
-5.300033092498779297e-01 9.207612276077270508e-02 -2.639996111392974854e-01
-3.363671004772186279e-01 -4.946724697947502136e-02 -2.993055880069732666e-01
-7.095335423946380615e-02 -1.443549618124961853e-02 -3.277122378349304199e-01
-4.957671165466308594e-01 7.804781198501586914e-02 -4.139495790004730225e-01
-1.300400346517562866e-01 1.408655568957328796e-02 5.122491717338562012e-02
-1.049857735633850098e-01 1.125918626785278320e-01 -3.909443616867065430e-01
-3.532610237598419189e-01 -3.391061350703239441e-02 8.653500676155090332e-02
-5.650086402893066406e-01 4.895433783531188965e-02 -3.870172500610351562e-01
-5.496579408645629883e-02 2.517559193074703217e-02 -4.637491106986999512e-01
-3.806563615798950195e-01 -4.974087700247764587e-02 2.266608178615570068e-02
-4.423537850379943848e-01 6.906709074974060059e-02 6.321340799331665039e-02
-3.767438828945159912e-01 1.122259348630905151e-01 -1.232322081923484802e-01
-1.274348348379135132e-01 -1.419518142938613892e-02 -8.428841829299926758e-04
-2.137825489044189453e-01 -4.124821349978446960e-02 -3.122723698616027832e-01
-3.837031424045562744e-01 -4.951507225632667542e-02 -2.947612702846527100e-01
-2.242310345172882080e-01 -4.780554398894309998e-02 -2.554354667663574219e-01
-5.588080883026123047e-01 8.343580365180969238e-02 -2.624340653419494629e-01
-1.158880442380905151e-01 -7.900774478912353516e-03 -4.208003282546997070e-01
-2.889468371868133545e-01 7.956965267658233643e-02 5.131033062934875488e-02
-5.346505045890808105e-01 3.071713633835315704e-02 -4.294906258583068848e-01
-5.568643808364868164e-01 -4.555493965744972229e-02 -8.394587039947509766e-02
-4.850688576698303223e-01 -3.994308039546012878e-02 -3.034467697143554688e-01
-1.854849308729171753e-01 -2.985396236181259155e-02 -3.690849244594573975e-01
-3.830812573432922363e-01 1.179580688476562500e-01 -2.227829992771148682e-01
-4.406526684761047363e-01 9.462796151638031006e-02 -4.026113450527191162e-02
-5.481500625610351562e-01 1.166051067411899567e-02 -4.030207991600036621e-01
-4.269901812076568604e-01 8.334068953990936279e-02 2.102795243263244629e-02
-3.041182160377502441e-01 -5.760500952601432800e-02 -1.830146759748458862e-01
-2.479801177978515625e-01 -4.707063362002372742e-02 -2.874989807605743408e-01
-5.667964220046997070e-01 3.476471453905105591e-02 6.539839506149291992e-02
-6.287829875946044922e-01 5.760729312896728516e-02 -1.681205630302429199e-01
-4.402105212211608887e-01 1.039763689041137695e-01 -1.069678664207458496e-01
-5.185364484786987305e-01 4.894060641527175903e-02 7.533770799636840820e-02
-1.773699373006820679e-01 1.218835115432739258e-01 -2.235236763954162598e-01
-2.169539332389831543e-01 -3.542795777320861816e-03 -4.850855767726898193e-01
-4.558250308036804199e-01 1.056198626756668091e-01 -3.161505162715911865e-01
-3.933136463165283203e-01 -1.133729889988899231e-02 -4.565863013267517090e-01
-2.886383533477783203e-01 1.181104928255081177e-01 -1.416757106781005859e-01
-5.530620813369750977e-01 8.010652661323547363e-02 -8.636919409036636353e-02
-4.982440769672393799e-01 4.511857032775878906e-02 9.452116489410400391e-02
-1.001561284065246582e-01 1.158796250820159912e-01 -2.634695768356323242e-01
-5.690250396728515625e-01 -3.950305655598640442e-02 -3.048132359981536865e-02
-3.219357728958129883e-01 1.838162541389465332e-02 1.428517401218414307e-01
-3.497144877910614014e-01 9.971550107002258301e-02 -4.654008746147155762e-01
-1.799472421407699585e-01 -4.450410977005958557e-02 -2.184241265058517456e-01
-5.249615907669067383e-01 -1.601289957761764526e-02 -3.684192001819610596e-01
-3.166516125202178955e-01 9.633184969425201416e-02 -4.915180802345275879e-01
-4.931810498237609863e-01 -5.203190073370933533e-02 -3.453394770622253418e-02
-2.070516943931579590e-01 1.679822616279125214e-02 -5.263191461563110352e-01
-4.613882303237915039e-01 -3.877788409590721130e-02 6.674930453300476074e-02
-5.686292052268981934e-01 -8.991185575723648071e-03 7.614517211914062500e-02
-5.077781677246093750e-01 -3.021772578358650208e-02 7.577484846115112305e-02
-3.871324658393859863e-02 6.406626850366592407e-02 -4.788396656513214111e-01
-6.139095425605773926e-01 -2.177160233259201050e-02 -2.208779305219650269e-01
-2.794246375560760498e-01 1.221474409103393555e-01 -3.586205840110778809e-01
-2.907941937446594238e-01 3.840319067239761353e-02 1.264869868755340576e-01
-6.372474133968353271e-02 -1.365488022565841675e-02 -1.085627153515815735e-01
-6.149752140045166016e-01 -3.015917167067527771e-02 -9.578781574964523315e-02
-6.246968507766723633e-01 5.817600339651107788e-02 -1.273415386676788330e-01
-4.510512650012969971e-01 9.338060766458511353e-02 -4.090908765792846680e-01
-2.849677503108978271e-01 -5.252100154757499695e-02 -4.379704594612121582e-02
-1.062920987606048584e-01 1.062143296003341675e-01 -1.450567543506622314e-01
-6.620339155197143555e-01 2.292760089039802551e-02 -1.876614242792129517e-01
-5.176144838333129883e-01 5.282809585332870483e-02 -4.378919601440429688e-01
-6.387641429901123047e-01 -8.935604244470596313e-03 -2.166390419006347656e-01
-2.117105126380920410e-01 1.207513958215713501e-01 -1.814823150634765625e-01
-1.134341955184936523e-02 -2.827756106853485107e-04 -2.522642016410827637e-01
-5.527122020721435547e-01 -3.201892599463462830e-02 -2.758049964904785156e-01
-4.656082689762115479e-01 -6.206728518009185791e-03 -4.363318979740142822e-01
-5.831405520439147949e-01 -2.836682647466659546e-02 -2.486038804054260254e-01
-1.934829503297805786e-01 -4.314569011330604553e-02 -2.707602977752685547e-01
-5.550022125244140625e-01 6.479840725660324097e-02 -3.716465234756469727e-01
-2.345030158758163452e-01 1.254297941923141479e-01 -2.982663214206695557e-01
-1.513562351465225220e-01 1.209895461797714233e-01 -2.449288815259933472e-01
-1.834974139928817749e-01 1.090971827507019043e-01 -1.002283617854118347e-01
-2.307175993919372559e-01 -3.644734993577003479e-02 1.821137964725494385e-02
-7.483585178852081299e-02 -2.324266731739044189e-02 -2.002016156911849976e-01
-5.800452232360839844e-01 7.865327596664428711e-02 -1.805149018764495850e-01
-1.757665127515792847e-01 1.235690563917160034e-01 -2.735037803649902344e-01
-3.401392400264739990e-01 4.518867284059524536e-02 -5.441973209381103516e-01
-8.149211108684539795e-02 9.331792593002319336e-02 -4.685103595256805420e-01
-4.916845560073852539e-01 -4.707988724112510681e-02 1.095359027385711670e-02
-6.491948366165161133e-01 3.971566259860992432e-02 -2.098095715045928955e-01
5.675182342529296875e-01 -1.624697297811508179e-01 2.708197832107543945e-01
4.800229668617248535e-01 -5.110253766179084778e-02 3.367049098014831543e-01
5.294283032417297363e-01 -6.426695734262466431e-02 5.866717696189880371e-01
5.802521109580993652e-01 -1.568067222833633423e-01 3.021590709686279297e-01
4.459246397018432617e-01 -3.568004071712493896e-02 5.277526378631591797e-01
5.060225129127502441e-01 -1.774386465549468994e-01 3.455430865287780762e-01
4.481838047504425049e-01 -1.357510983943939209e-01 3.806098699569702148e-01
4.458736777305603027e-01 -5.099561065435409546e-02 5.957253575325012207e-01
5.739387273788452148e-01 -7.255284488201141357e-02 3.323558568954467773e-01
5.289947986602783203e-01 -1.056406050920486450e-01 5.907895565032958984e-01
4.743217527866363525e-01 -1.472408175468444824e-01 3.052975237369537354e-01
5.563046932220458984e-01 -1.597333252429962158e-01 4.554654359817504883e-01
5.172435045242309570e-01 -1.776680350303649902e-01 4.194549918174743652e-01
5.059167146682739258e-01 -1.384974122047424316e-01 2.366825938224792480e-01
5.042980313301086426e-01 -1.098154336214065552e-01 6.104112267494201660e-01
4.391932189464569092e-01 -1.003230884671211243e-01 3.730563521385192871e-01
5.000056624412536621e-01 -1.740223765373229980e-01 3.330827951431274414e-01
5.321574807167053223e-01 -1.665784418582916260e-01 2.561597228050231934e-01
4.767121374607086182e-01 -1.396620571613311768e-01 2.865442335605621338e-01
5.019191503524780273e-01 -1.769443899393081665e-01 3.594443798065185547e-01
4.484148621559143066e-01 -9.117560088634490967e-02 3.426411747932434082e-01
5.825147628784179688e-01 -1.506820321083068848e-01 2.888777256011962891e-01
4.272455275058746338e-01 -6.145756319165229797e-02 5.214660763740539551e-01
5.448263883590698242e-01 -1.643835008144378662e-01 4.628412723541259766e-01
4.748795330524444580e-01 -5.754007771611213684e-02 3.293481171131134033e-01
4.591327607631683350e-01 -8.523751795291900635e-02 6.260051727294921875e-01
5.786334276199340820e-01 -7.606345415115356445e-02 3.443736433982849121e-01
4.678842723369598389e-01 -1.566923707723617554e-01 3.617832362651824951e-01
5.752618312835693359e-01 -6.925928592681884766e-02 4.290215671062469482e-01
5.079990029335021973e-01 -1.190228313207626343e-01 5.982203483581542969e-01
4.354013204574584961e-01 -8.484849333763122559e-02 3.937149345874786377e-01
4.626705050468444824e-01 -1.567416042089462280e-01 4.114504456520080566e-01
5.634036660194396973e-01 -1.669970750808715820e-01 4.029994606971740723e-01
4.246256649494171143e-01 -7.467296719551086426e-02 4.827292263507843018e-01
5.469204187393188477e-01 -4.041972383856773376e-02 4.242775142192840576e-01
5.561441183090209961e-01 -7.337211072444915771e-02 2.806746065616607666e-01
4.708170890808105469e-01 -1.627557426691055298e-01 4.030190706253051758e-01
5.760818719863891602e-01 -9.886152297258377075e-02 4.840070605278015137e-01
5.880337953567504883e-01 -1.442402303218841553e-01 3.085337877273559570e-01
4.423911571502685547e-01 -9.397434443235397339e-02 3.612453043460845947e-01
5.458745956420898438e-01 -1.746297925710678101e-01 4.103017449378967285e-01
5.809664726257324219e-01 -1.059115603566169739e-01 4.641447663307189941e-01
5.790947079658508301e-01 -1.603125035762786865e-01 3.318567872047424316e-01
5.466528534889221191e-01 -1.298242807388305664e-01 5.399857759475708008e-01
4.522233903408050537e-01 -4.097729548811912537e-02 4.274282157421112061e-01
5.282582640647888184e-01 -4.825685173273086548e-02 3.246476054191589355e-01
4.387016296386718750e-01 -6.317089498043060303e-02 4.100087881088256836e-01
4.500711560249328613e-01 -1.111458688974380493e-01 3.358174562454223633e-01
4.659979641437530518e-01 -2.919186651706695557e-02 5.607278347015380859e-01
5.109049677848815918e-01 -4.036226123571395874e-02 3.473836481571197510e-01
5.107809305191040039e-01 -1.697732210159301758e-01 2.862483263015747070e-01
4.467931389808654785e-01 -1.398356258869171143e-01 4.781320691108703613e-01
5.693871378898620605e-01 -7.975162565708160400e-02 4.957972466945648193e-01
4.830366969108581543e-01 -1.689257025718688965e-01 4.302371144294738770e-01
5.913993716239929199e-01 -1.227170377969741821e-01 3.041181862354278564e-01
4.248976707458496094e-01 -7.978437095880508423e-02 4.684362709522247314e-01
5.304130315780639648e-01 -1.224042922258377075e-01 5.735847949981689453e-01
5.009722709655761719e-01 -1.593022048473358154e-01 5.131240487098693848e-01
5.088443160057067871e-01 -1.212608069181442261e-01 2.281461507081985474e-01
4.969364404678344727e-01 -3.712980449199676514e-02 3.635983467102050781e-01
4.666166603565216064e-01 -3.749006986618041992e-02 4.019335806369781494e-01
5.351093411445617676e-01 -3.328526765108108521e-02 4.510291516780853271e-01
4.845975041389465332e-01 -1.705294847488403320e-01 4.118307232856750488e-01
4.695110917091369629e-01 -2.413818240165710449e-02 5.138710141181945801e-01
5.078079700469970703e-01 -1.393439769744873047e-01 5.656930804252624512e-01
4.430450797080993652e-01 -3.876116871833801270e-02 5.385429859161376953e-01
4.291505217552185059e-01 -6.020746380090713501e-02 4.772734940052032471e-01
4.589141607284545898e-01 -1.492625027894973755e-01 4.877599775791168213e-01
4.761973321437835693e-01 -1.660717278718948364e-01 3.941040337085723877e-01
4.767859280109405518e-01 -3.134699165821075439e-02 5.786084532737731934e-01
5.541961193084716797e-01 -1.482955217361450195e-01 4.921424984931945801e-01
5.764157176017761230e-01 -8.506421744823455811e-02 2.978610992431640625e-01
5.085955858230590820e-01 -2.448517084121704102e-02 4.489442110061645508e-01
4.582591652870178223e-01 -4.591333121061325073e-02 3.916760087013244629e-01
4.574099779129028320e-01 -9.852096438407897949e-02 3.148154616355895996e-01
4.666065275669097900e-01 -1.359275877475738525e-01 3.075239956378936768e-01
4.827893376350402832e-01 -3.263346850872039795e-02 3.952241837978363037e-01
5.000480413436889648e-01 -1.624543368816375732e-01 2.814573347568511963e-01
5.843067765235900879e-01 -9.644833207130432129e-02 4.413998723030090332e-01
4.577806293964385986e-01 -9.798879921436309814e-02 6.159602999687194824e-01
4.387373626232147217e-01 -4.288803413510322571e-02 4.943641424179077148e-01
4.236312806606292725e-01 -7.981625199317932129e-02 4.953148066997528076e-01
4.638333618640899658e-01 -4.609346389770507812e-02 3.780631721019744873e-01
4.564428329467773438e-01 -1.346022486686706543e-01 5.454193949699401855e-01
4.816361963748931885e-01 -1.547456681728363037e-01 3.027501702308654785e-01
4.840865731239318848e-01 -9.038183838129043579e-02 2.692824602127075195e-01
5.407767295837402344e-01 -9.896855056285858154e-02 5.763282179832458496e-01
4.309263527393341064e-01 -1.107539162039756775e-01 4.325284957885742188e-01
5.602586865425109863e-01 -1.609729379415512085e-01 2.531881630420684814e-01
4.610008299350738525e-01 -3.699755668640136719e-02 4.176951050758361816e-01
5.908452272415161133e-01 -1.389968991279602051e-01 3.259237408638000488e-01
4.425204694271087646e-01 -1.250427663326263428e-01 3.830100595951080322e-01
4.748856425285339355e-01 -4.882710799574851990e-02 3.500459790229797363e-01
4.580560028553009033e-01 -2.834276854991912842e-02 5.245460271835327148e-01
5.290547013282775879e-01 -1.489791572093963623e-01 5.292204618453979492e-01
4.675745069980621338e-01 -1.389708220958709717e-01 5.523627996444702148e-01
5.488326549530029297e-01 -4.998708888888359070e-02 5.085157155990600586e-01
5.126551985740661621e-01 -1.054051443934440613e-01 2.297734469175338745e-01
5.864601135253906250e-01 -1.458807140588760376e-01 3.748032748699188232e-01
5.255852341651916504e-01 -1.624201238155364990e-01 4.942692518234252930e-01
5.705776214599609375e-01 -6.143514066934585571e-02 4.100084006786346436e-01
4.445863962173461914e-01 -1.322302818298339844e-01 5.137776136398315430e-01
5.015593171119689941e-01 -6.053866446018218994e-02 6.194176077842712402e-01
4.387060403823852539e-01 -4.992365464568138123e-02 4.493393301963806152e-01
5.296869874000549316e-01 -1.780868470668792725e-01 4.112977385520935059e-01
5.587545633316040039e-01 -7.017509639263153076e-02 2.935228943824768066e-01
5.651431679725646973e-01 -1.690905094146728516e-01 2.955113649368286133e-01
5.370144844055175781e-01 -3.660827875137329102e-02 4.905302524566650391e-01
4.524488151073455811e-01 -1.473872959613800049e-01 4.222494363784790039e-01
4.437045753002166748e-01 -4.118409380316734314e-02 5.604817867279052734e-01
5.248270034790039062e-01 -1.745530217885971069e-01 2.887232601642608643e-01
4.282948970794677734e-01 -9.949569404125213623e-02 4.357800185680389404e-01
5.911688804626464844e-01 -1.099466681480407715e-01 3.155318200588226318e-01
5.111815333366394043e-01 -1.732326149940490723e-01 3.004524707794189453e-01
5.377329587936401367e-01 -7.828135043382644653e-02 2.548405528068542480e-01
5.877105593681335449e-01 -9.643448144197463989e-02 4.147826433181762695e-01
5.712504982948303223e-01 -8.349148929119110107e-02 2.861193716526031494e-01
4.862807393074035645e-01 -7.574816793203353882e-02 2.825081348419189453e-01
5.934454202651977539e-01 -1.131434664130210876e-01 3.637343943119049072e-01
5.241580009460449219e-01 -9.692355990409851074e-02 6.014492511749267578e-01
4.303503632545471191e-01 -9.537193179130554199e-02 4.175546765327453613e-01
4.463461041450500488e-01 -6.004120036959648132e-02 6.081447005271911621e-01
5.490747094154357910e-01 -8.222064375877380371e-02 5.593374371528625488e-01
5.410158038139343262e-01 -5.628975108265876770e-02 5.507504940032958984e-01
4.826956391334533691e-01 -1.524131894111633301e-01 5.270851254463195801e-01
5.869907140731811523e-01 -9.119544178247451782e-02 3.379809856414794922e-01
4.898176789283752441e-01 -2.211338281631469727e-02 4.698851108551025391e-01
4.915893971920013428e-01 -1.651429980993270874e-01 3.093946576118469238e-01
4.269382357597351074e-01 -1.050332486629486084e-01 4.702610373497009277e-01
4.600264132022857666e-01 -1.426981687545776367e-01 3.430672287940979004e-01
5.686154961585998535e-01 -9.539046138525009155e-02 5.102306604385375977e-01
4.718603193759918213e-01 -1.194264963269233704e-01 5.992942452430725098e-01
5.200603008270263672e-01 -7.206274569034576416e-02 2.642042040824890137e-01
5.411670207977294922e-01 -7.523455470800399780e-02 5.728606581687927246e-01
4.542671144008636475e-01 -1.489940434694290161e-01 4.531013965606689453e-01
5.429999232292175293e-01 -1.504737436771392822e-01 5.074461102485656738e-01
4.874943792819976807e-01 -2.325377613306045532e-02 4.539008438587188721e-01
5.029503107070922852e-01 -2.949623018503189087e-02 3.985649943351745605e-01
5.450536012649536133e-01 -1.794819086790084839e-01 3.508744239807128906e-01
5.671874284744262695e-01 -1.424149572849273682e-01 4.730894565582275391e-01
4.244389235973358154e-01 -7.369789481163024902e-02 5.215324163436889648e-01
4.259297251701354980e-01 -8.826946467161178589e-02 4.516595602035522461e-01
