-7.367514371871948242e-01 -2.035557292401790619e-02 -2.547672763466835022e-02
-6.967141628265380859e-01 -4.072003811597824097e-02 8.768348023295402527e-03
-7.691176533699035645e-01 -5.427918210625648499e-02 4.099809750914573669e-02
-8.159298896789550781e-01 -5.668053776025772095e-02 -4.627065733075141907e-02
-8.958820700645446777e-01 -3.906755894422531128e-02 -2.269413089379668236e-04
-7.720586061477661133e-01 -4.778163880109786987e-02 -4.431086778640747070e-02
-8.241811394691467285e-01 -9.804592281579971313e-02 -7.040319498628377914e-03
-8.563863039016723633e-01 -1.530351117253303528e-02 6.445390637964010239e-03
-7.014659047126770020e-01 -3.507624939084053040e-02 -1.296119391918182373e-02
-8.503476977348327637e-01 -4.443102702498435974e-02 3.603312000632286072e-02
-8.434101939201354980e-01 -6.404176354408264160e-02 3.618568927049636841e-02
-8.464960455894470215e-01 -5.715285614132881165e-02 -4.267536103725433350e-02
-7.886372804641723633e-01 -4.016280919313430786e-02 -4.451414942741394043e-02
-8.949688076972961426e-01 -6.872640550136566162e-02 -1.895435713231563568e-02
-8.283809423446655273e-01 -6.835510581731796265e-02 3.704046085476875305e-02
-7.867921590805053711e-01 -3.146515786647796631e-02 4.087412357330322266e-02
-7.840485572814941406e-01 -7.891729474067687988e-03 2.234571985900402069e-02
-7.918645739555358887e-01 -9.501285851001739502e-02 8.236066438257694244e-03
-7.529199719429016113e-01 -8.031185716390609741e-02 2.178491838276386261e-02
-7.979203462600708008e-01 -4.717293009161949158e-02 -4.612977802753448486e-02
-7.400582432746887207e-01 -8.425326645374298096e-02 3.869078122079372406e-03
-8.220208287239074707e-01 -7.856026291847229004e-02 3.191804140806198120e-02
-7.668919563293457031e-01 -1.149930432438850403e-02 -2.374012582004070282e-02
-7.788121700286865234e-01 -4.045482724905014038e-03 -1.026635803282260895e-02
-8.200111985206604004e-01 -5.481272935867309570e-03 4.740462638437747955e-03
-8.218905329704284668e-01 -9.437326341867446899e-03 -1.675043441355228424e-02
-7.850532531738281250e-01 -5.444173142313957214e-02 4.237584397196769714e-02
-7.516428232192993164e-01 -5.155827850103378296e-03 -4.318175837397575378e-03
-8.067958354949951172e-01 -7.964774966239929199e-03 1.985337212681770325e-02
-8.888820409774780273e-01 -8.125101029872894287e-02 -2.844497561454772949e-03
-7.414059042930603027e-01 -7.407702505588531494e-02 -2.850294858217239380e-02
-8.324158787727355957e-01 -9.646412730216979980e-02 4.443647805601358414e-03
-8.169276118278503418e-01 -8.356542885303497314e-02 -3.620640560984611511e-02
-7.230917811393737793e-01 -7.256980240345001221e-02 1.363026909530162811e-02
-7.863218784332275391e-01 -1.424438133835792542e-02 -2.873335964977741241e-02
-7.068503499031066895e-01 -6.537434458732604980e-02 1.456439844332635403e-03
-8.605226874351501465e-01 -8.787196874618530273e-02 1.341997645795345306e-02
-7.605106234550476074e-01 -9.093740582466125488e-02 2.240464091300964355e-03
-7.630972862243652344e-01 -3.877693787217140198e-02 -4.153167828917503357e-02
-7.804536819458007812e-01 -9.449499845504760742e-02 -1.314063649624586105e-02
-8.377658724784851074e-01 -8.928031474351882935e-02 1.898984797298908234e-02
-7.009305357933044434e-01 -5.764845758676528931e-02 -6.789594423025846481e-03
-8.976753354072570801e-01 -5.106946453452110291e-02 -1.737248711287975311e-02
-8.089340925216674805e-01 -1.719572022557258606e-02 -3.082778491079807281e-02
-7.395881414413452148e-01 -7.918020337820053101e-02 1.631876640021800995e-02
-7.778550386428833008e-01 -8.975669741630554199e-03 2.395243756473064423e-02
-7.605160474777221680e-01 -7.099827378988265991e-02 -3.750231117010116577e-02
-8.769782185554504395e-01 -7.629197835922241211e-02 -2.758543938398361206e-02
-8.316301703453063965e-01 -9.744216501712799072e-02 -9.558469057083129883e-03
-7.985952496528625488e-01 -5.792971700429916382e-02 4.204731434583663940e-02
-8.722984790802001953e-01 -5.193660035729408264e-02 -3.481569886207580566e-02
-8.322924375534057617e-01 -9.039558470249176025e-03 1.091592852026224136e-02
-8.852816224098205566e-01 -5.417050421237945557e-02 2.231203392148017883e-02
-7.617069482803344727e-01 -2.870362997055053711e-02 -3.750283271074295044e-02
-7.581281661987304688e-01 -6.722131371498107910e-02 3.442539647221565247e-02
-8.104906678199768066e-01 -6.200647726655006409e-02 4.073898494243621826e-02
-7.571361660957336426e-01 -3.905512392520904541e-03 -2.749850973486900330e-04
-7.517161965370178223e-01 -8.450567722320556641e-03 -1.484982296824455261e-02
-7.631661891937255859e-01 -6.100080907344818115e-03 1.673554442822933197e-02
-7.458563446998596191e-01 -4.927231743931770325e-02 -3.915807232260704041e-02
-8.425209522247314453e-01 -9.293976426124572754e-02 -2.144097350537776947e-02
-7.716446518898010254e-01 -4.268550872802734375e-02 4.211022704839706421e-02
-7.770030498504638672e-01 -5.136190727353096008e-02 -4.506073892116546631e-02
-8.524842858314514160e-01 -8.486920595169067383e-02 -3.009417466819286346e-02
-8.797985315322875977e-01 -6.853775680065155029e-02 2.212479896843433380e-02
-8.111382722854614258e-01 -9.766507148742675781e-02 -1.149864774197340012e-02
-8.794917464256286621e-01 -5.676435679197311401e-02 -3.210686519742012024e-02
-8.446009159088134766e-01 -3.920018300414085388e-02 -3.967410698533058167e-02
-8.815178275108337402e-01 -8.561857044696807861e-02 -5.433999001979827881e-03
-8.269565105438232422e-01 -4.847278445959091187e-02 -4.501633718609809875e-02
-7.887554764747619629e-01 -2.484291791915893555e-03 4.965881817042827606e-03
-7.271053791046142578e-01 -4.365992918610572815e-02 -3.248055651783943176e-02
-7.518662214279174805e-01 -6.040011346340179443e-02 -3.935469686985015869e-02
-8.166316151618957520e-01 -5.180420726537704468e-02 4.216558113694190979e-02
-7.616898417472839355e-01 -2.049413695931434631e-02 -3.222648426890373230e-02
-7.816314101219177246e-01 -9.136559069156646729e-02 1.440409757196903229e-02
-8.109816908836364746e-01 -8.998499810695648193e-02 -2.949431724846363068e-02
-7.170259356498718262e-01 -7.337745279073715210e-02 -2.932836068794131279e-04
-8.733897805213928223e-01 -8.910940587520599365e-02 -3.503630869090557098e-03
-8.266831040382385254e-01 -4.272206500172615051e-02 4.071910679340362549e-02
-8.852993249893188477e-01 -7.470737397670745850e-02 -2.347772754728794098e-02
-8.018118143081665039e-01 -9.129387140274047852e-02 -2.697772532701492310e-02
-8.878707289695739746e-01 -5.903852358460426331e-02 2.028390392661094666e-02
-7.616969943046569824e-01 -3.376200795173645020e-03 4.090212285518646240e-03
-8.848038315773010254e-01 -4.789088293910026550e-02 2.180546522140502930e-02
-7.915024161338806152e-01 -1.576740667223930359e-02 3.178435191512107849e-02
-8.436711430549621582e-01 -7.330315560102462769e-02 -3.981234133243560791e-02
-8.489724397659301758e-01 -8.928515017032623291e-02 1.594268716871738434e-02
-8.141629695892333984e-01 -7.272791862487792969e-02 -4.278759285807609558e-02
-8.816191554069519043e-01 -7.513418793678283691e-02 1.670848391950130463e-02
-8.309782743453979492e-01 -8.874921500682830811e-02 -3.016715869307518005e-02
-8.457357883453369141e-01 -8.382737636566162109e-02 2.373568899929523468e-02
-8.955776691436767578e-01 -4.230086505413055420e-02 -1.316388323903083801e-02
-8.510043621063232422e-01 -2.351884730160236359e-02 2.551670186221599579e-02
-7.569983601570129395e-01 -2.313526347279548645e-02 3.479212149977684021e-02
-8.339307308197021484e-01 -6.843571364879608154e-02 -4.295418784022331238e-02
-8.783733844757080078e-01 -8.180500566959381104e-02 1.154189743101596832e-02
-7.006937265396118164e-01 -4.459298774600028992e-02 1.491822674870491028e-02
-7.453061342239379883e-01 -6.673477590084075928e-02 3.119684383273124695e-02
-6.953407526016235352e-01 -3.952973335981369019e-02 -2.757779788225889206e-03
-7.171961665153503418e-01 -7.177151739597320557e-02 -1.128410547971725464e-02
-7.865219116210937500e-01 -4.290341213345527649e-02 4.304399713873863220e-02
-7.801321744918823242e-01 -8.811484277248382568e-02 1.984143629670143127e-02
-8.172535300254821777e-01 -6.287647783756256104e-02 -4.555541276931762695e-02
-8.787666559219360352e-01 -3.337433934211730957e-02 -2.159192599356174469e-02
-7.696043848991394043e-01 -9.085667133331298828e-02 1.056616008281707764e-02
-7.457781434059143066e-01 -8.671446144580841064e-02 1.416969229467213154e-03
-7.556824088096618652e-01 -3.038915619254112244e-02 -3.722133487462997437e-02
-8.118957281112670898e-01 -4.477620124816894531e-03 -4.311738535761833191e-03
-8.738201856613159180e-01 -7.451555877923965454e-02 2.164333313703536987e-02
-8.132352828979492188e-01 -2.125749178230762482e-02 3.416501358151435852e-02
-7.190476059913635254e-01 -2.199285291135311127e-02 -1.794256083667278290e-02
-7.382586002349853516e-01 -1.564329490065574646e-02 2.402732521295547485e-02
-8.426036834716796875e-01 -2.257115952670574188e-02 -2.906052768230438232e-02
-8.549343347549438477e-01 -6.957805156707763672e-02 -3.885151818394660950e-02
-8.381263613700866699e-01 -7.780056446790695190e-02 -3.844515606760978699e-02
-7.608458399772644043e-01 -8.372050523757934570e-02 2.035260200500488281e-02
-7.240843772888183594e-01 -6.001450493931770325e-02 2.636322006583213806e-02
-7.981941699981689453e-01 -5.786672234535217285e-03 1.690408401191234589e-02
-6.984035968780517578e-01 -3.342158347368240356e-02 8.371192030608654022e-03
-7.765350341796875000e-01 -8.439424633979797363e-02 2.411776594817638397e-02
-7.755933403968811035e-01 -9.446864575147628784e-02 -7.949131540954113007e-03
-8.425419330596923828e-01 -1.023416593670845032e-02 -1.464477973058819771e-04
-8.549290895462036133e-01 -1.484147086739540100e-02 -7.263469975441694260e-03
-7.254354357719421387e-01 -6.682515144348144531e-02 -2.551222592592239380e-02
-7.559979557991027832e-01 -1.016950979828834534e-02 -1.943942718207836151e-02
-7.221829891204833984e-01 -5.325064808130264282e-02 2.838823944330215454e-02
-8.830518722534179688e-01 -6.543993949890136719e-02 -2.940552122890949249e-02
-8.081700205802917480e-01 -1.474088430404663086e-02 2.921206876635551453e-02
-8.008781671524047852e-01 -9.524664282798767090e-02 -1.889539696276187897e-02
-7.049099206924438477e-01 -6.101350858807563782e-02 8.543548174202442169e-03
-7.693106532096862793e-01 -5.557402968406677246e-02 -4.384634643793106079e-02
-8.534011244773864746e-01 -1.858435198664665222e-02 -1.883497089147567749e-02
-8.554536104202270508e-01 -9.142163395881652832e-02 9.060089476406574249e-03
-8.554618954658508301e-01 -3.982127457857131958e-02 -3.706927224993705750e-02
-8.631538152694702148e-01 -7.054246962070465088e-02 2.838071063160896301e-02
-8.237187266349792480e-01 -6.495194137096405029e-02 3.884800523519515991e-02
-7.671873569488525391e-01 -7.531870156526565552e-02 -3.660823032259941101e-02
-8.692016005516052246e-01 -8.737535774707794189e-02 -1.913776434957981110e-02
-8.203419446945190430e-01 -3.184520825743675232e-02 3.885322064161300659e-02
-8.604875802993774414e-01 -9.261308610439300537e-02 -1.153873559087514877e-02
-8.458136916160583496e-01 -4.031150788068771362e-02 3.641194477677345276e-02
-7.284075617790222168e-01 -7.546716928482055664e-02 1.377060823142528534e-02
-7.566134333610534668e-01 -4.812179505825042725e-02 3.997795656323432922e-02
-7.647830843925476074e-01 -3.142688423395156860e-03 -1.127727096900343895e-03
-7.841600179672241211e-01 -1.767433434724807739e-02 3.351505473256111145e-02
-7.268476486206054688e-01 -3.694026544690132141e-02 -3.105683065950870514e-02
-8.324778676033020020e-01 -4.720883816480636597e-02 4.022854566574096680e-02
-8.898992538452148438e-01 -8.011252433061599731e-02 -9.720048867166042328e-03
-8.487722873687744141e-01 -9.398338198661804199e-02 5.763298831880092621e-03
-7.392084002494812012e-01 -7.127139717340469360e-03 1.678222208283841610e-03
-8.006895184516906738e-01 -6.734737753868103027e-02 3.902341052889823914e-02
-8.701283335685729980e-01 -5.412425845861434937e-02 3.003128990530967712e-02
-8.880887031555175781e-01 -4.654634371399879456e-02 -2.449958585202693939e-02
-7.245804667472839355e-01 -1.180119067430496216e-02 -5.064940778538584709e-04
-7.640585899353027344e-01 -8.021058142185211182e-02 2.575669623911380768e-02
-7.314742803573608398e-01 -7.810004055500030518e-02 -1.649715192615985870e-02
-8.459141850471496582e-01 -1.379591971635818481e-02 -1.381202414631843567e-02
-7.771996259689331055e-01 -2.377860248088836670e-03 2.503057476133108139e-05
-8.466426730155944824e-01 -2.736667171120643616e-02 3.038758784532546997e-02
-8.468479514122009277e-01 -1.574543491005897522e-02 1.734564453363418579e-02
-7.468976378440856934e-01 -7.881870865821838379e-02 -2.642063796520233154e-02
-8.521631956100463867e-01 -3.070470876991748810e-02 3.055529296398162842e-02
-8.366916775703430176e-01 -1.456511020660400391e-02 2.090550400316715240e-02
-7.238367795944213867e-01 -3.141792118549346924e-02 2.897661179304122925e-02
-8.324609398841857910e-01 -7.712464779615402222e-03 9.613308357074856758e-04
-6.999882459640502930e-01 -5.018303543329238892e-02 -1.229665707796812057e-02
-8.643690347671508789e-01 -7.213948667049407959e-02 -3.519721701741218567e-02
-7.507084608078002930e-01 -1.264123991131782532e-02 2.461257204413414001e-02
-7.900617718696594238e-01 -9.160923957824707031e-02 -2.444471605122089386e-02
-8.962079286575317383e-01 -7.309062033891677856e-02 -1.279289554804563522e-02
-7.356390357017517090e-01 -4.356282949447631836e-02 3.517781570553779602e-02
-7.336038947105407715e-01 -2.727650478482246399e-02 3.108770400285720825e-02
-7.469208836555480957e-01 -7.176846265792846680e-03 1.303876750171184540e-02
-7.215012907981872559e-01 -1.739443838596343994e-02 -1.361869648098945618e-02
-7.583833932876586914e-01 -9.079010039567947388e-02 -5.529399495571851730e-03
-7.664573788642883301e-01 -8.283131569623947144e-02 -2.996575087308883667e-02
-8.938167691230773926e-01 -3.757333755493164062e-02 -7.861679419875144958e-03
-8.877331614494323730e-01 -7.701201736927032471e-02 9.728212840855121613e-03
-7.301436066627502441e-01 -1.086413860321044922e-02 1.042493898421525955e-02
-8.212740421295166016e-01 -1.431097090244293213e-02 -2.533714286983013153e-02
-8.297637104988098145e-01 -6.030938029289245605e-02 3.946033492684364319e-02
-7.558617591857910156e-01 -6.487131118774414062e-03 1.544323749840259552e-02
-8.766817450523376465e-01 -4.407250881195068359e-02 2.565308101475238800e-02
-8.472362160682678223e-01 -3.338635712862014771e-02 -3.616834431886672974e-02
-7.290022373199462891e-01 -6.695707142353057861e-02 2.421408705413341522e-02
-7.722101211547851562e-01 -8.780796080827713013e-02 1.807129569351673126e-02
-8.265367746353149414e-01 -2.454293146729469299e-02 3.404051810503005981e-02
-8.997949957847595215e-01 -6.668545305728912354e-02 -1.350240968167781830e-02
-8.140416741371154785e-01 -8.412207663059234619e-02 2.764341421425342560e-02
-8.908586502075195312e-01 -3.391175344586372375e-02 -3.002565354108810425e-03
-8.069939613342285156e-01 -6.807110458612442017e-02 3.866323083639144897e-02
-7.775921821594238281e-01 -9.482962638139724731e-02 -5.444893613457679749e-04
-7.303861975669860840e-01 -8.080313354730606079e-02 -3.162326989695429802e-03
-7.722923755645751953e-01 -7.174409925937652588e-03 -1.746802218258380890e-02
-8.033303022384643555e-01 -8.785523474216461182e-03 -2.013076469302177429e-02
-7.830034494400024414e-01 -8.717719465494155884e-02 -2.943923138082027435e-02
-8.779154419898986816e-01 -8.060703426599502563e-02 -2.310397289693355560e-02
-8.337194919586181641e-01 -1.824884861707687378e-02 -2.705365046858787537e-02
-7.412763237953186035e-01 -8.529187738895416260e-02 -5.696479696780443192e-03
-8.226133584976196289e-01 -3.495508432388305664e-02 -4.162997379899024963e-02
-8.993359804153442383e-01 -7.158301025629043579e-02 -3.561336547136306763e-03
-8.500738739967346191e-01 -1.312271878123283386e-02 6.795679684728384018e-03
-7.416665554046630859e-01 -8.377262949943542480e-02 -1.399322412908077240e-02
-8.170210123062133789e-01 -9.192276000976562500e-02 1.756155677139759064e-02
-8.316098451614379883e-01 -9.389223158359527588e-02 1.214613579213619232e-02
-7.304505109786987305e-01 -9.707357734441757202e-03 -5.229307571426033974e-04
-7.243810296058654785e-01 -7.228326797485351562e-02 -1.920006424188613892e-02
-8.992701172828674316e-01 -4.943550750613212585e-02 7.895722053945064545e-03
-7.563611865043640137e-01 -7.712863385677337646e-02 2.659110911190509796e-02
-7.026182413101196289e-01 -4.193031787872314453e-02 -1.659500040113925934e-02
-7.169492244720458984e-01 -1.517759263515472412e-02 -1.823510974645614624e-04
-7.979069948196411133e-01 -5.889136344194412231e-02 -4.620447009801864624e-02
-8.763489127159118652e-01 -5.491197109222412109e-02 2.724144421517848969e-02
-7.481837868690490723e-01 -9.943831712007522583e-03 1.985634304583072662e-02
-8.642680644989013672e-01 -2.288720943033695221e-02 -1.860780268907546997e-02
-7.793000340461730957e-01 -5.698026716709136963e-02 4.147481173276901245e-02
-8.655532598495483398e-01 -5.959701165556907654e-02 -3.769926726818084717e-02
-7.807503342628479004e-01 -6.551030278205871582e-02 -4.353371262550354004e-02
-8.928945064544677734e-01 -5.608002841472625732e-02 1.667967624962329865e-02
-8.652248978614807129e-01 -7.762044668197631836e-02 2.311714179813861847e-02
-8.763236999511718750e-01 -2.397004887461662292e-02 2.568078693002462387e-03
-7.824071645736694336e-01 -7.567694783210754395e-02 -3.933869302272796631e-02
-7.110190391540527344e-01 -3.946173936128616333e-02 2.395407110452651978e-02
-8.369224071502685547e-01 -3.018263168632984161e-02 3.490699082612991333e-02
-8.114004135131835938e-01 -8.202537894248962402e-02 -3.745143115520477295e-02
-8.741996884346008301e-01 -2.608339861035346985e-02 -1.526080910116434097e-02
-8.414016962051391602e-01 -3.633328899741172791e-02 3.637098520994186401e-02
-8.265616893768310547e-01 -5.932637304067611694e-02 -4.538322240114212036e-02
-7.317516803741455078e-01 -5.205081030726432800e-02 -3.431054204702377319e-02
-8.240519762039184570e-01 -7.897726446390151978e-02 -3.919276967644691467e-02
-7.942470312118530273e-01 -6.882141530513763428e-02 3.821416199207305908e-02
-8.473250269889831543e-01 -6.590481102466583252e-02 -4.151232540607452393e-02
-7.293521165847778320e-01 -7.965093851089477539e-02 3.931289538741111755e-03
-7.050991058349609375e-01 -5.769050866365432739e-02 -1.456773839890956879e-02
-8.197591900825500488e-01 -1.243367046117782593e-02 2.392702922224998474e-02
-7.549495697021484375e-01 -2.965781651437282562e-02 3.741159290075302124e-02
-7.788807749748229980e-01 -4.433656111359596252e-02 4.275126382708549500e-02
-7.577632665634155273e-01 -8.771404623985290527e-02 1.143966708332300186e-02
-8.074284195899963379e-01 -9.570775926113128662e-02 9.246585890650749207e-03
-7.564119696617126465e-01 -4.084990546107292175e-02 3.999050334095954895e-02
-7.958593368530273438e-01 -9.271831810474395752e-02 -2.363695949316024780e-02
-8.127835392951965332e-01 -9.811968356370925903e-02 -2.097883494570851326e-03
-7.727182507514953613e-01 -3.645085170865058899e-02 -4.219103604555130005e-02
-7.993651032447814941e-01 -4.428518563508987427e-02 4.316349327564239502e-02
-7.673764228820800781e-01 -8.524011075496673584e-02 2.049182355403900146e-02
-8.708814978599548340e-01 -7.297457754611968994e-02 -3.241992741823196411e-02
-7.619856595993041992e-01 -9.502887725830078125e-03 2.291382476687431335e-02
-8.574435114860534668e-01 -1.765723899006843567e-02 -1.372708287090063095e-02
-7.849940061569213867e-01 -6.368111073970794678e-02 3.988829627633094788e-02
-8.621139526367187500e-01 -3.616463392972946167e-02 -3.290766850113868713e-02
-8.074491620063781738e-01 -2.621958591043949127e-02 3.788874298334121704e-02
-6.958707571029663086e-01 -3.654900193214416504e-02 3.307724371552467346e-03
-7.605461478233337402e-01 -5.700579285621643066e-02 3.907017409801483154e-02
-7.898110151290893555e-01 -4.968758672475814819e-02 4.312387481331825256e-02
-8.581914901733398438e-01 -9.374049305915832520e-02 -5.324058700352907181e-03
-7.830935716629028320e-01 -7.084187120199203491e-03 -1.816608756780624390e-02
-8.318251371383666992e-01 -8.845151215791702271e-02 2.120024152100086212e-02
-8.314939737319946289e-01 -8.630733937025070190e-03 -8.947131223976612091e-03
-8.307652473449707031e-01 -1.143287494778633118e-02 1.815397478640079498e-02
-8.729581236839294434e-01 -3.188055008649826050e-02 -2.419493719935417175e-02
-7.974804639816284180e-01 -8.675689995288848877e-02 2.438992448151111603e-02
-8.395408987998962402e-01 -3.209878131747245789e-02 -3.733429685235023499e-02
-8.712685108184814453e-01 -4.248410090804100037e-02 2.792210690677165985e-02
-6.986606121063232422e-01 -5.560023337602615356e-02 2.878945088014006615e-04
-7.320047616958618164e-01 -6.222225353121757507e-02 2.887692674994468689e-02
-8.548420071601867676e-01 -4.995758086442947388e-02 -4.023864120244979858e-02
-7.946497201919555664e-01 -9.240284562110900879e-03 -2.181975729763507843e-02
-7.865543961524963379e-01 -1.252046227455139160e-02 2.864311449229717255e-02
-8.888005614280700684e-01 -5.411163344979286194e-02 -2.640146762132644653e-02
-7.814278006553649902e-01 -7.888405770063400269e-02 3.060597181320190430e-02
-7.351201176643371582e-01 -6.848546117544174194e-02 2.602767571806907654e-02
-8.227671384811401367e-01 -9.590129554271697998e-02 -1.838058233261108398e-02
-7.547705769538879395e-01 -7.288692891597747803e-02 -3.471646457910537720e-02
-7.482207417488098145e-01 -8.408123254776000977e-02 -1.932642981410026550e-02
-8.087278008460998535e-01 -8.779092133045196533e-02 2.363629452884197235e-02
-8.033178448677062988e-01 -3.233174979686737061e-02 -4.187195003032684326e-02
-7.647236585617065430e-01 -8.866337686777114868e-02 1.332542393356561661e-02
-8.601937294006347656e-01 -6.433498114347457886e-02 -3.878040984272956848e-02
-8.414794206619262695e-01 -7.387749850749969482e-02 3.230543434619903564e-02
-8.423643708229064941e-01 -8.997865021228790283e-02 -2.658092044293880463e-02
-7.730807065963745117e-01 -2.315029874444007874e-02 3.671066835522651672e-02
-8.446753025054931641e-01 -2.865849807858467102e-02 -3.375658020377159119e-02
-8.533464074134826660e-01 -8.585946261882781982e-02 1.925419643521308899e-02
-7.015040516853332520e-01 -5.192291364073753357e-02 1.307788956910371780e-02
-9.039174318313598633e-01 -5.544957891106605530e-02 -4.094063770025968552e-03
-7.340470552444458008e-01 -7.974636554718017578e-02 1.057882886379957199e-02
-8.957139849662780762e-01 -6.135834008455276489e-02 1.328587159514427185e-02
-7.714058756828308105e-01 -9.189584851264953613e-02 -1.642531342804431915e-02
-8.110083937644958496e-01 -9.275723993778228760e-02 1.617104373872280121e-02
-8.316614031791687012e-01 -7.752151787281036377e-02 -3.940931707620620728e-02
-7.484686374664306641e-01 -2.017199434340000153e-02 3.119470179080963135e-02
-8.149078488349914551e-01 -1.995576173067092896e-02 -3.278391063213348389e-02
-8.498773574829101562e-01 -4.325488954782485962e-02 -3.987897932529449463e-02
-7.972022891044616699e-01 -3.430391103029251099e-02 4.162592440843582153e-02
-7.223822474479675293e-01 -4.723290354013442993e-02 -3.050094284117221832e-02
-6.972920298576354980e-01 -5.114119499921798706e-02 -5.808206740766763687e-03
-8.343246579170227051e-01 -1.201886683702468872e-02 -1.692817173898220062e-02
-7.696797847747802734e-01 -9.349101781845092773e-02 -4.955898970365524292e-03
-7.407662272453308105e-01 -5.796775966882705688e-02 3.403258323669433594e-02
-7.455682754516601562e-01 -5.878284573554992676e-03 -1.430931035429239273e-03
-7.241127490997314453e-01 -1.288082823157310486e-02 9.487105533480644226e-03
-8.847171068191528320e-01 -8.289684355258941650e-02 -1.206600107252597809e-02
-8.416941761970520020e-01 -8.336426317691802979e-02 -3.397411480545997620e-02
-8.912887573242187500e-01 -6.465753167867660522e-02 -2.413531579077243805e-02
-7.238557934761047363e-01 -5.499526485800743103e-02 -3.024085424840450287e-02
-8.481646776199340820e-01 -9.565924108028411865e-02 -7.668170146644115448e-03
-8.260789513587951660e-01 -6.904691457748413086e-03 7.249790709465742111e-03
-7.980496883392333984e-01 -1.546284556388854980e-02 3.110891208052635193e-02
-8.798716068267822266e-01 -4.478261992335319519e-02 -2.906909771263599396e-02
-7.644224762916564941e-01 -7.054939866065979004e-02 3.381698951125144958e-02
-8.371309638023376465e-01 -1.520561799407005310e-02 -2.160450629889965057e-02
-8.089669942855834961e-01 -5.907850712537765503e-02 -4.630439728498458862e-02
-7.323737740516662598e-01 -6.266336143016815186e-02 -3.168785199522972107e-02
-7.603449225425720215e-01 -3.231285884976387024e-02 3.910728543996810913e-02
-7.921426296234130859e-01 -5.606230348348617554e-03 -1.468264963477849960e-02
-7.579059600830078125e-01 -8.938984572887420654e-02 -1.360405609011650085e-02
-7.881362438201904297e-01 -8.440318703651428223e-02 -3.351570293307304382e-02
-7.198188304901123047e-01 -6.813031435012817383e-02 -2.013411745429039001e-02
-7.915589213371276855e-01 -7.154532521963119507e-02 -4.250280931591987610e-02
-7.995879054069519043e-01 -3.831965848803520203e-02 -4.422827437520027161e-02
-8.264746665954589844e-01 -1.862498000264167786e-02 -2.939235605299472809e-02
-8.258578777313232422e-01 -9.560006856918334961e-02 8.918789215385913849e-03
-8.906807303428649902e-01 -3.476362675428390503e-02 4.452410154044628143e-03
-7.015774846076965332e-01 -2.676053531467914581e-02 4.757187794893980026e-03
-8.166108727455139160e-01 -4.215383902192115784e-02 4.189760237932205200e-02
-7.532396316528320312e-01 -8.937638998031616211e-02 -2.446132712066173553e-03
-7.971313595771789551e-01 -2.787526696920394897e-03 -8.785291574895381927e-04
-8.008655309677124023e-01 -9.763970971107482910e-02 -1.979938009753823280e-03
-8.925975561141967773e-01 -3.961676731705665588e-02 9.630649350583553314e-03
-8.775575160980224609e-01 -8.422535657882690430e-02 -1.818367652595043182e-02
-8.135219216346740723e-01 -2.825100161135196686e-02 3.822734579443931580e-02
-7.139108180999755859e-01 -4.877423867583274841e-02 2.512222900986671448e-02
-8.057714700698852539e-01 -3.842081502079963684e-02 -4.415499046444892883e-02
-9.019827246665954590e-01 -6.177396699786186218e-02 4.086248110979795456e-03
-7.718287706375122070e-01 -2.952303737401962280e-03 7.561974693089723587e-03
-8.654764890670776367e-01 -8.877523243427276611e-02 8.706235326826572418e-03
-8.331137895584106445e-01 -9.572086483240127563e-02 -1.713347993791103363e-02
-8.734074234962463379e-01 -2.348976023495197296e-02 7.843497209250926971e-03
-8.210219740867614746e-01 -1.707505062222480774e-02 2.916527539491653442e-02
-8.008813858032226562e-01 -2.333260327577590942e-02 -3.671750798821449280e-02
-8.332667946815490723e-01 -7.779132574796676636e-02 3.119551017880439758e-02
-7.045074105262756348e-01 -3.331854939460754395e-02 1.713435538113117218e-02
-8.159444332122802734e-01 -2.627319656312465668e-02 -3.762506321072578430e-02
-7.312378883361816406e-01 -2.240047790110111237e-02 2.735151723027229309e-02
-8.713656663894653320e-01 -8.591413497924804688e-02 1.016871724277734756e-02
-8.444243073463439941e-01 -4.580707475543022156e-02 -4.181434214115142822e-02
-7.634561061859130859e-01 -4.375516623258590698e-02 4.120018333196640015e-02
-8.633208274841308594e-01 -9.176725149154663086e-02 1.359510584734380245e-03
-7.139014005661010742e-01 -6.217377632856369019e-02 -2.038900554180145264e-02
-7.952542901039123535e-01 -9.019064158201217651e-02 1.939550600945949554e-02
-8.906108140945434570e-01 -4.434153437614440918e-02 1.584143005311489105e-02
-7.832347750663757324e-01 -3.760752826929092407e-02 4.230432212352752686e-02
-6.953254342079162598e-01 -4.548474773764610291e-02 -3.296139184385538101e-03
-7.428073883056640625e-01 -8.310822397470474243e-02 1.105983741581439972e-02
-7.061243057250976562e-01 -4.681995511054992676e-02 -2.003524266183376312e-02
-7.795249819755554199e-01 -2.219297736883163452e-02 -3.560633212327957153e-02
-9.020556211471557617e-01 -4.989384114742279053e-02 -7.773397490382194519e-03
-8.983404040336608887e-01 -6.929560750722885132e-02 5.034579895436763763e-03
-8.116564154624938965e-01 -3.579023852944374084e-02 -4.295102879405021667e-02
-7.186163663864135742e-01 -1.473585143685340881e-02 6.797236856073141098e-03
-8.322675824165344238e-01 -1.721892505884170532e-02 2.618727460503578186e-02
-8.688558936119079590e-01 -6.448888778686523438e-02 2.875341102480888367e-02
-7.444393634796142578e-01 -8.136942982673645020e-03 -1.050950866192579269e-02
-7.752011418342590332e-01 -7.752729207277297974e-02 -3.688609227538108826e-02
-7.709577679634094238e-01 -7.657055556774139404e-02 3.078796714544296265e-02
-8.885990381240844727e-01 -7.150722295045852661e-02 1.446943543851375580e-02
-7.786857485771179199e-01 -1.151521131396293640e-02 -2.508050948381423950e-02
-8.574448227882385254e-01 -8.674430847167968750e-02 -2.631497755646705627e-02
-8.905364871025085449e-01 -6.501477956771850586e-02 1.667222380638122559e-02
-7.109333872795104980e-01 -2.112107537686824799e-02 1.207661628723144531e-02
-6.997075676918029785e-01 -2.977156452834606171e-02 -4.053371492773294449e-03
-8.348372578620910645e-01 -3.639877960085868835e-02 -4.046877846121788025e-02
-8.170939683914184570e-01 -6.065663695335388184e-02 4.070523008704185486e-02
-7.040336132049560547e-01 -6.239145994186401367e-02 -4.466218408197164536e-03
-8.676574230194091797e-01 -1.983025483787059784e-02 5.032528191804885864e-03
-7.719332575798034668e-01 -1.389686763286590576e-02 -2.740112133324146271e-02
-8.233882188796997070e-01 -2.958524972200393677e-02 -3.878159448504447937e-02
-7.095836400985717773e-01 -6.726665794849395752e-02 -6.878382060676813126e-03
-7.877985239028930664e-01 -2.091722004115581512e-02 -3.502274677157402039e-02
-7.357390522956848145e-01 -1.229594647884368896e-02 -1.469465717673301697e-02
-8.601842522621154785e-01 -8.960577845573425293e-02 -2.059760689735412598e-02
-8.464594483375549316e-01 -1.965175569057464600e-02 -2.416565082967281342e-02
-8.859380483627319336e-01 -4.005060344934463501e-02 -2.206883393228054047e-02
-8.571884632110595703e-01 -6.517020612955093384e-02 3.246591612696647644e-02
-7.134045362472534180e-01 -1.807098835706710815e-02 -5.322399549186229706e-03
-8.617557883262634277e-01 -6.014069914817810059e-02 3.239253908395767212e-02
-8.604052066802978516e-01 -8.258439600467681885e-02 -2.975841239094734192e-02
-8.197841644287109375e-01 -9.397948533296585083e-02 -2.309993654489517212e-02
-7.144447565078735352e-01 -6.322922557592391968e-02 1.758152991533279419e-02
-8.539280891418457031e-01 -9.408780187368392944e-02 -1.178229413926601410e-02
-7.099623680114746094e-01 -6.266393512487411499e-02 1.365822833031415939e-02
-8.576844334602355957e-01 -1.748423650860786438e-02 1.221278961747884750e-02
-7.722491025924682617e-01 -1.809734478592872620e-02 3.333674743771553040e-02
-7.439735531806945801e-01 -3.909469395875930786e-02 -3.747925907373428345e-02
-7.528755068778991699e-01 -8.263324946165084839e-02 -2.460758946835994720e-02
-8.364429473876953125e-01 -5.351790785789489746e-02 -4.431186616420745850e-02
-7.342797517776489258e-01 -3.531549870967864990e-02 -3.340587019920349121e-02
-7.152010202407836914e-01 -2.098070457577705383e-02 1.657673157751560211e-02
-8.228996992111206055e-01 -5.578383803367614746e-02 4.113423451781272888e-02
-7.806732058525085449e-01 -3.213525936007499695e-02 -4.132182523608207703e-02
-7.602125406265258789e-01 -1.417556032538414001e-02 2.842476777732372284e-02
-8.211236596107482910e-01 -5.121638625860214233e-02 -4.585533589124679565e-02
-8.276864886283874512e-01 -4.162310436367988586e-02 -4.344559833407402039e-02
-7.278136014938354492e-01 -4.614889249205589294e-02 3.231311589479446411e-02
-7.342442870140075684e-01 -6.989673525094985962e-02 -2.831111475825309753e-02
-8.828448653221130371e-01 -2.991412766277790070e-02 -1.193668693304061890e-02
-8.076601028442382812e-01 -6.095759570598602295e-03 -1.317429076880216599e-02
-7.525245547294616699e-01 -3.847039118409156799e-02 -3.943580761551856995e-02
-7.847394347190856934e-01 -2.616507932543754578e-02 3.875868767499923706e-02
-8.469026088714599609e-01 -5.819401517510414124e-02 3.680953755974769592e-02
-7.832190394401550293e-01 -9.239266067743301392e-02 -2.088084258139133453e-02
-7.682317495346069336e-01 -1.465377584099769592e-02 3.000703454017639160e-02
-7.451001405715942383e-01 -6.863589584827423096e-02 -3.394455462694168091e-02
-8.679849505424499512e-01 -4.498623311519622803e-02 -3.475762531161308289e-02
-5.994827151298522949e-01 -1.544089019298553467e-01 2.987738139927387238e-02
-8.063783049583435059e-01 -1.594683974981307983e-01 -2.474957704544067383e-02
-7.508628368377685547e-01 -1.131103113293647766e-01 3.127117082476615906e-02
-6.465693116188049316e-01 -1.357795000076293945e-01 3.864279761910438538e-02
-7.743614315986633301e-01 -1.680241525173187256e-01 -2.145853266119956970e-02
-7.997589707374572754e-01 -9.861550480127334595e-02 -8.851307444274425507e-03
-6.866102218627929688e-01 -1.009690910577774048e-01 -1.925192959606647491e-02
-8.105437755584716797e-01 -1.147326231002807617e-01 2.367726713418960571e-02
-7.783277630805969238e-01 -1.135764420032501221e-01 -3.364307805895805359e-02
-7.039518356323242188e-01 -9.807869791984558105e-02 -1.610339060425758362e-02
-7.488547563552856445e-01 -1.461891829967498779e-01 3.715982660651206970e-02
-6.609877347946166992e-01 -1.708597540855407715e-01 -2.181260846555233002e-02
-7.993806004524230957e-01 -1.651944965124130249e-01 -1.912638545036315918e-02
-8.469717502593994141e-01 -1.560192257165908813e-01 1.032875850796699524e-03
-7.523329854011535645e-01 -1.737597584724426270e-01 1.382162701338529587e-02
-6.524092555046081543e-01 -1.782726645469665527e-01 7.164922077208757401e-03
-6.060957312583923340e-01 -1.723344773054122925e-01 -4.264528863131999969e-03
-7.882043123245239258e-01 -1.655075699090957642e-01 -2.195187285542488098e-02
-6.301975250244140625e-01 -1.196610927581787109e-01 3.119582496583461761e-02
-8.608978390693664551e-01 -1.262090355157852173e-01 1.185844652354717255e-02
-5.881813764572143555e-01 -1.174561381340026855e-01 1.701546832919120789e-02
-6.897393465042114258e-01 -1.591079682111740112e-01 3.538121655583381653e-02
-6.109919548034667969e-01 -1.201622560620307922e-01 2.776732109487056732e-02
-8.272750377655029297e-01 -1.580562293529510498e-01 1.312274765223264694e-02
-7.712218761444091797e-01 -1.478072106838226318e-01 3.411517664790153503e-02
-6.602575182914733887e-01 -1.090527251362800598e-01 -2.544595114886760712e-02
-5.955252647399902344e-01 -1.230974271893501282e-01 2.579511515796184540e-02
-5.613705515861511230e-01 -1.321483552455902100e-01 1.739655248820781708e-02
-8.618292212486267090e-01 -1.437412053346633911e-01 -1.642120443284511566e-02
-7.257695198059082031e-01 -9.611839056015014648e-02 -1.315070223063230515e-02
-6.262902021408081055e-01 -1.584783345460891724e-01 3.229481354355812073e-02
-6.737824678421020508e-01 -1.693556457757949829e-01 -2.481077425181865692e-02
-6.130059361457824707e-01 -1.405368447303771973e-01 -3.017126955091953278e-02
-8.453783392906188965e-01 -1.177238225936889648e-01 1.491368003189563751e-02
-6.471928358078002930e-01 -1.074269711971282959e-01 2.260667271912097931e-02
-7.196207642555236816e-01 -1.508322507143020630e-01 3.800825029611587524e-02
-7.209747433662414551e-01 -1.782990545034408569e-01 7.591677363961935043e-03
-5.914531350135803223e-01 -1.390029340982437134e-01 -2.480247430503368378e-02
-5.683273077011108398e-01 -1.273027211427688599e-01 1.781066320836544037e-02
-7.123650312423706055e-01 -1.776348352432250977e-01 -1.117439661175012589e-02
-7.151453495025634766e-01 -1.452884078025817871e-01 -4.007963836193084717e-02
-6.059257388114929199e-01 -1.137352511286735535e-01 1.967443525791168213e-02
-6.652986407279968262e-01 -1.263615190982818604e-01 3.797325864434242249e-02
-5.611222982406616211e-01 -1.572492718696594238e-01 -4.262926522642374039e-03
-8.199431896209716797e-01 -1.065968722105026245e-01 -2.058837004005908966e-02
-7.807189226150512695e-01 -1.685945689678192139e-01 -1.894664019346237183e-02
-5.900483727455139160e-01 -1.414672881364822388e-01 3.053288348019123077e-02
-6.063659787178039551e-01 -1.621365100145339966e-01 -2.061572298407554626e-02
-5.787773132324218750e-01 -1.279743462800979614e-01 -1.712026074528694153e-02
-7.679252624511718750e-01 -1.292134523391723633e-01 3.583974391222000122e-02
-8.198789358139038086e-01 -1.015024930238723755e-01 -7.190907374024391174e-03
-8.256148099899291992e-01 -1.236237585544586182e-01 -3.150696307420730591e-02
-5.697610974311828613e-01 -1.388961225748062134e-01 -1.699266955256462097e-02
-6.966527700424194336e-01 -1.193672716617584229e-01 -3.673201799392700195e-02
-7.782137393951416016e-01 -1.163065135478973389e-01 3.028289414942264557e-02
-6.308695077896118164e-01 -1.130486950278282166e-01 -2.298490703105926514e-02
-7.565644383430480957e-01 -1.650954633951187134e-01 -2.788666263222694397e-02
-6.483029127120971680e-01 -1.011430025100708008e-01 -7.972636260092258453e-03
-8.650811910629272461e-01 -1.417695432901382446e-01 6.900392472743988037e-03
-6.583079099655151367e-01 -1.505520194768905640e-01 -3.543053194880485535e-02
-8.454694747924804688e-01 -1.079802587628364563e-01 -5.260816542431712151e-04
-8.571174144744873047e-01 -1.153813675045967102e-01 5.969100166112184525e-03
-7.395962476730346680e-01 -9.466294944286346436e-02 -7.229180075228214264e-03
-7.268551588058471680e-01 -1.355630010366439819e-01 -4.118937999010086060e-02
-5.875889062881469727e-01 -1.281154900789260864e-01 2.652224898338317871e-02
-5.804640054702758789e-01 -1.547754108905792236e-01 -1.761914417147636414e-02
-5.972654223442077637e-01 -1.286838799715042114e-01 2.946736477315425873e-02
-5.788542032241821289e-01 -1.414762586355209351e-01 -2.077688835561275482e-02
-8.112839460372924805e-01 -1.067645996809005737e-01 -2.317157760262489319e-02
-5.558271408081054688e-01 -1.406853199005126953e-01 -9.307827800512313843e-03
-8.026605248451232910e-01 -1.360286772251129150e-01 3.105201385915279388e-02
-6.794418096542358398e-01 -1.207930296659469604e-01 -3.594151139259338379e-02
-7.171008586883544922e-01 -1.789581626653671265e-01 -4.018431063741445541e-03
-6.545232534408569336e-01 -1.737396568059921265e-01 2.043483592569828033e-02
-6.435742378234863281e-01 -1.754579544067382812e-01 -1.101677678525447845e-02
-8.144360184669494629e-01 -1.097365915775299072e-01 1.864846609532833099e-02
-5.827744007110595703e-01 -1.655726432800292969e-01 1.419435255229473114e-02
-6.034247279167175293e-01 -1.677518039941787720e-01 1.964202150702476501e-02
-8.251919746398925781e-01 -1.637811362743377686e-01 -3.811784554272890091e-03
-7.736769914627075195e-01 -1.279292553663253784e-01 -3.917585313320159912e-02
-6.290995478630065918e-01 -1.669529080390930176e-01 2.620738558471202850e-02
-8.180896639823913574e-01 -1.581717282533645630e-01 -2.266998402774333954e-02
-6.964530348777770996e-01 -1.019792407751083374e-01 2.132713049650192261e-02
-8.181390762329101562e-01 -1.019084379076957703e-01 3.606526413932442665e-03
-8.569874763488769531e-01 -1.365578323602676392e-01 -2.285168692469596863e-02
-6.825523376464843750e-01 -1.775104403495788574e-01 -1.177158299833536148e-02
-6.898275613784790039e-01 -1.404338926076889038e-01 -3.986079618334770203e-02
-6.928897500038146973e-01 -1.765947937965393066e-01 -1.453682314604520798e-02
-7.059809565544128418e-01 -1.654237657785415649e-01 3.064837493002414703e-02
-7.447775602340698242e-01 -9.612984210252761841e-02 -1.342792902141809464e-02
-6.346193552017211914e-01 -1.082403734326362610e-01 -1.829865947365760803e-02
-7.349237799644470215e-01 -1.731179058551788330e-01 1.883862540125846863e-02
-6.675310730934143066e-01 -9.784355759620666504e-02 3.628507489338517189e-03
-6.120665073394775391e-01 -1.741670370101928711e-01 4.251594073139131069e-04
-5.808421969413757324e-01 -1.592547595500946045e-01 2.165533229708671570e-02
-6.738817691802978516e-01 -1.055869758129119873e-01 2.428475953638553619e-02
-7.274978756904602051e-01 -1.423857659101486206e-01 3.942531719803810120e-02
-5.863332152366638184e-01 -1.689197123050689697e-01 4.683680366724729538e-03
-6.796503067016601562e-01 -1.349343359470367432e-01 -3.923052549362182617e-02
-6.705201864242553711e-01 -1.150446459650993347e-01 3.279042243957519531e-02
-8.537333011627197266e-01 -1.213182806968688965e-01 1.341449562460184097e-02
-5.868382453918457031e-01 -1.175167486071586609e-01 -1.088661234825849533e-02
-8.405085206031799316e-01 -1.577935814857482910e-01 4.052784759551286697e-03
-7.582946419715881348e-01 -1.712918281555175781e-01 1.733542419970035553e-02
-6.016658544540405273e-01 -1.376321315765380859e-01 3.282720968127250671e-02
-7.449515461921691895e-01 -9.900648891925811768e-02 -2.015640959143638611e-02
-7.807849645614624023e-01 -1.230419799685478210e-01 -3.757110238075256348e-02
-8.673500418663024902e-01 -1.442344933748245239e-01 -9.902914054691791534e-03
-8.378094434738159180e-01 -1.468271464109420776e-01 1.880203559994697571e-02
-8.425251245498657227e-01 -1.567872613668441772e-01 -1.163309253752231598e-02
-7.148302793502807617e-01 -1.772548258304595947e-01 1.274374872446060181e-02
-8.548768758773803711e-01 -1.523783802986145020e-01 1.003675395622849464e-03
-8.035292029380798340e-01 -1.002267673611640930e-01 6.594323087483644485e-03
-6.745765209197998047e-01 -1.787036061286926270e-01 -6.856411695480346680e-03
-8.135601878166198730e-01 -1.424783766269683838e-01 2.780203148722648621e-02
-8.393180370330810547e-01 -1.104599758982658386e-01 -1.866269856691360474e-02
-5.668641328811645508e-01 -1.226599216461181641e-01 9.295040741562843323e-03
-7.414656877517700195e-01 -1.773788928985595703e-01 -5.134833045303821564e-03
-6.770949363708496094e-01 -1.796060651540756226e-01 3.565297462046146393e-03
-6.048177480697631836e-01 -1.564290523529052734e-01 -2.416543476283550262e-02
-7.000567317008972168e-01 -1.576340645551681519e-01 -3.524617478251457214e-02
-7.780210971832275391e-01 -1.513945311307907104e-01 -3.541921079158782959e-02
-6.114890575408935547e-01 -1.355630308389663696e-01 3.433735668659210205e-02
-8.499709367752075195e-01 -1.092472076416015625e-01 -6.037036422640085220e-03
-7.336136698722839355e-01 -9.600643813610076904e-02 -1.312988903373479843e-02
-5.561461448669433594e-01 -1.560823917388916016e-01 6.367448368109762669e-04
-7.610960006713867188e-01 -1.576052010059356689e-01 3.106081672012805939e-02
-7.607964873313903809e-01 -1.289534866809844971e-01 -4.006241634488105774e-02
-8.092326521873474121e-01 -1.672646701335906982e-01 -8.105198852717876434e-03
-7.910423874855041504e-01 -1.442299336194992065e-01 3.199557214975357056e-02
-7.280594110488891602e-01 -1.785260736942291260e-01 -2.816452411934733391e-03
-7.961696386337280273e-01 -1.220375746488571167e-01 -3.573930263519287109e-02
-7.497715950012207031e-01 -1.653990745544433594e-01 2.658750116825103760e-02
-7.474587559700012207e-01 -1.445218920707702637e-01 -3.990409150719642639e-02
-5.764467716217041016e-01 -1.190441623330116272e-01 1.148110814392566681e-02
-6.041637659072875977e-01 -1.088071912527084351e-01 -1.642490038648247719e-03
-8.495783805847167969e-01 -1.283071488142013550e-01 1.775683462619781494e-02
-6.894567608833312988e-01 -9.821063280105590820e-02 1.316182874143123627e-02
-6.968367695808410645e-01 -1.065028607845306396e-01 2.704476565122604370e-02
-6.678775548934936523e-01 -1.779270619153976440e-01 -8.887118659913539886e-03
-7.659685611724853516e-01 -9.647446870803833008e-02 -1.235478743910789490e-02
-7.923251986503601074e-01 -1.099723204970359802e-01 2.381463162600994110e-02
-7.778655290603637695e-01 -1.733303368091583252e-01 -5.259759258478879929e-03
-5.781539678573608398e-01 -1.660199165344238281e-01 8.750928565859794617e-03
-6.615271568298339844e-01 -1.416805982589721680e-01 -3.749631345272064209e-02
-6.206072568893432617e-01 -1.058900654315948486e-01 9.955934248864650726e-03
-7.573544979095458984e-01 -9.477588534355163574e-02 -4.488815553486347198e-03
-7.077195048332214355e-01 -1.748172938823699951e-01 -1.817423664033412933e-02
-6.921517848968505859e-01 -1.251660585403442383e-01 -3.850813582539558411e-02
-8.038364648818969727e-01 -1.459045559167861938e-01 -3.425114229321479797e-02
-5.660915970802307129e-01 -1.318624466657638550e-01 -1.292984560132026672e-02
-5.997113585472106934e-01 -1.615700274705886841e-01 -1.920807175338268280e-02
-6.037109494209289551e-01 -1.108931154012680054e-01 -9.051875211298465729e-03
-7.557454705238342285e-01 -9.505219757556915283e-02 3.308417275547981262e-03
-7.319647669792175293e-01 -1.647484600543975830e-01 2.935164608061313629e-02
-6.887034177780151367e-01 -9.637813270092010498e-02 6.136301439255475998e-03
-6.536195278167724609e-01 -1.442624032497406006e-01 -3.633350506424903870e-02
-7.947148084640502930e-01 -1.383876502513885498e-01 -3.736535087227821350e-02
-6.403290033340454102e-01 -1.602048575878143311e-01 -2.879307232797145844e-02
-6.801120638847351074e-01 -1.603840440511703491e-01 3.465449437499046326e-02
-8.462724685668945312e-01 -1.386194825172424316e-01 1.875884830951690674e-02
-6.521787047386169434e-01 -1.031764894723892212e-01 -1.518327277153730392e-02
-8.390477299690246582e-01 -1.058126240968704224e-01 -6.367045920342206955e-03
-7.695359587669372559e-01 -1.559990048408508301e-01 3.076199814677238464e-02
-8.237578868865966797e-01 -1.160807907581329346e-01 2.122571133077144623e-02
-6.365597844123840332e-01 -1.165288463234901428e-01 3.002046234905719757e-02
-6.906797289848327637e-01 -1.540412008762359619e-01 -3.660875931382179260e-02
-7.087615132331848145e-01 -1.795013546943664551e-01 2.605437766760587692e-04
-7.289448380470275879e-01 -1.782277226448059082e-01 5.096417851746082306e-03
-6.803424358367919922e-01 -1.711095124483108521e-01 -2.318877913057804108e-02
-6.585202813148498535e-01 -1.202313899993896484e-01 -3.324483335018157959e-02
-5.643844604492187500e-01 -1.462230384349822998e-01 -1.408613752573728561e-02
-6.739553809165954590e-01 -1.735699176788330078e-01 2.193421125411987305e-02
-8.096212148666381836e-01 -1.591037660837173462e-01 1.913828961551189423e-02
-5.760179162025451660e-01 -1.596373617649078369e-01 -1.177817210555076599e-02
-6.496464014053344727e-01 -1.099539175629615784e-01 -2.428558841347694397e-02
-6.305512785911560059e-01 -1.767489910125732422e-01 3.005873877555131912e-03
-8.181329965591430664e-01 -1.600045561790466309e-01 1.476434525102376938e-02
-7.367016077041625977e-01 -1.769246906042098999e-01 8.931889198720455170e-03
-6.532102227210998535e-01 -1.568285524845123291e-01 -3.236297890543937683e-02
-7.063922882080078125e-01 -1.012730449438095093e-01 -2.230367250740528107e-02
-6.959941983222961426e-01 -1.757028698921203613e-01 1.809909567236900330e-02
-7.805545926094055176e-01 -1.302202790975570679e-01 -3.893634676933288574e-02
-6.532477140426635742e-01 -1.677447259426116943e-01 2.803081832826137543e-02
-7.632572054862976074e-01 -1.051472574472427368e-01 -2.787283062934875488e-02
-7.634241580963134766e-01 -1.449225246906280518e-01 3.589018434286117554e-02
-6.220059394836425781e-01 -1.670272201299667358e-01 2.497676573693752289e-02
-7.041475772857666016e-01 -1.788795441389083862e-01 8.205998688936233521e-03
-7.997711300849914551e-01 -1.604313999414443970e-01 2.086274884641170502e-02
-6.500666141510009766e-01 -1.022071391344070435e-01 1.372799091041088104e-02
-7.453954815864562988e-01 -1.770510524511337280e-01 4.130541346967220306e-03
-6.701083183288574219e-01 -1.629789024591445923e-01 -3.027752041816711426e-02
-7.675999402999877930e-01 -1.747546494007110596e-01 2.566916169598698616e-03
-8.190217018127441406e-01 -1.381568312644958496e-01 2.730564214289188385e-02
-6.716043353080749512e-01 -1.680088490247726440e-01 2.868519537150859833e-02
-8.115533590316772461e-01 -1.051915436983108521e-01 1.393412146717309952e-02
-7.205713391304016113e-01 -1.735086292028427124e-01 2.013682015240192413e-02
-7.311672568321228027e-01 -1.299732327461242676e-01 3.895314037799835205e-02
-8.690543770790100098e-01 -1.208629459142684937e-01 -1.107270084321498871e-02
-6.308501958847045898e-01 -1.074742972850799561e-01 1.855156384408473969e-02
-7.778318524360656738e-01 -1.101246476173400879e-01 2.625684998929500580e-02
-7.711954116821289062e-01 -1.008019521832466125e-01 -2.158461138606071472e-02
-6.115917563438415527e-01 -1.283895969390869141e-01 -2.792660146951675415e-02
-6.306329369544982910e-01 -1.450886130332946777e-01 -3.303263336420059204e-02
