6.867463886737823486e-02 -2.431608140468597412e-01 -2.723580896854400635e-01
1.353339552879333496e-01 -1.909190118312835693e-01 6.578048467636108398e-01
1.752743721008300781e-01 -2.272522896528244019e-01 5.845265388488769531e-01
1.742855906486511230e-01 -1.853940784931182861e-01 4.119217097759246826e-01
1.123753339052200317e-01 -1.849094629287719727e-01 5.152813792228698730e-01
3.012844920158386230e-02 -2.019206136465072632e-01 -4.682250618934631348e-01
1.068806499242782593e-01 -1.794834434986114502e-01 -1.769860088825225830e-02
-6.789810955524444580e-03 -2.238416224718093872e-01 5.710624456405639648e-01
1.108067482709884644e-01 -1.832062155008316040e-01 4.537089467048645020e-01
5.293086543679237366e-02 -1.928868293762207031e-01 5.664442777633666992e-01
4.334979876875877380e-02 -2.493005692958831787e-01 1.188380867242813110e-01
-3.350421786308288574e-02 -2.204215228557586670e-01 3.145918548107147217e-01
5.583864077925682068e-02 -1.848056763410568237e-01 2.848773598670959473e-01
5.227228254079818726e-02 -2.472312599420547485e-01 3.962067365646362305e-01
1.983386427164077759e-01 -1.882896721363067627e-01 2.957368791103363037e-01
1.137500032782554626e-01 -2.292341142892837524e-01 -4.709370732307434082e-01
3.994130343198776245e-02 -2.420595586299896240e-01 -2.961913943290710449e-01
-4.061567038297653198e-02 -2.210226207971572876e-01 -2.143202722072601318e-02
8.646541088819503784e-02 -2.479384541511535645e-01 -5.722194910049438477e-04
1.758307814598083496e-01 -2.345506399869918823e-01 9.238777309656143188e-02
1.257805526256561279e-01 -2.449750453233718872e-01 2.168502807617187500e-01
-1.403890550136566162e-03 -2.447982132434844971e-01 9.629891812801361084e-02
1.813969910144805908e-01 -1.846144348382949829e-01 3.152723908424377441e-01
1.109949722886085510e-01 -2.440966665744781494e-01 4.501067101955413818e-01
1.336068361997604370e-01 -1.844972372055053711e-01 -2.686783671379089355e-01
7.292471826076507568e-03 -2.008948028087615967e-01 4.703125357627868652e-01
5.496576428413391113e-02 -2.104270756244659424e-01 -5.860762596130371094e-01
7.413505762815475464e-02 -2.031957060098648071e-01 -5.699434280395507812e-01
1.171651482582092285e-01 -2.451779544353485107e-01 5.508773028850555420e-03
1.312537938356399536e-01 -1.994528919458389282e-01 -5.116744637489318848e-01
-1.037567108869552612e-02 -1.998998224735260010e-01 2.177324146032333374e-01
1.418031007051467896e-01 -2.414534986019134521e-01 6.428852677345275879e-03
7.283252477645874023e-02 -2.493362128734588623e-01 1.246577277779579163e-01
1.793518811464309692e-01 -1.856771856546401978e-01 3.884489834308624268e-01
1.474302858114242554e-01 -1.794864535331726074e-01 1.443338990211486816e-01
9.528309851884841919e-02 -1.928487569093704224e-01 6.808493733406066895e-01
1.444002687931060791e-01 -2.390817999839782715e-01 4.658870995044708252e-01
7.767461985349655151e-02 -2.448449581861495972e-01 5.052219033241271973e-01
8.843678981065750122e-02 -1.858675181865692139e-01 -3.124051094055175781e-01
6.157337129116058350e-02 -2.305263280868530273e-01 7.681511044502258301e-01
8.446920663118362427e-02 -2.488208413124084473e-01 2.045030295848846436e-01
1.764954328536987305e-01 -1.828367412090301514e-01 2.342057824134826660e-01
6.659345328807830811e-02 -2.380152791738510132e-01 6.761834621429443359e-01
1.494405865669250488e-01 -2.408519983291625977e-01 9.340295940637588501e-02
-9.013883769512176514e-03 -1.990820765495300293e-01 -8.595161139965057373e-02
6.012856587767601013e-02 -1.884086430072784424e-01 4.767862260341644287e-01
1.383170187473297119e-01 -1.822134405374526978e-01 4.124167561531066895e-01
1.046379059553146362e-01 -2.340898811817169189e-01 7.285271883010864258e-01
1.974382102489471436e-01 -2.228953838348388672e-01 4.686540663242340088e-01
1.854849010705947876e-01 -2.319409400224685669e-01 1.497862040996551514e-01
8.222602307796478271e-02 -2.279156446456909180e-01 8.064929842948913574e-01
1.046474426984786987e-01 -2.403062134981155396e-01 6.036252975463867188e-01
1.133572533726692200e-01 -2.074752599000930786e-01 8.397277593612670898e-01
1.782166659832000732e-01 -1.925134062767028809e-01 5.788152813911437988e-01
2.075649201869964600e-01 -2.171304374933242798e-01 -6.873314082622528076e-02
1.561037600040435791e-01 -1.974335908889770508e-01 7.183822393417358398e-01
1.087920814752578735e-01 -2.431419193744659424e-01 5.011374950408935547e-01
1.431237161159515381e-02 -2.471692264080047607e-01 1.178815215826034546e-01
8.889600634574890137e-02 -1.807981580495834351e-01 2.499541044235229492e-01
1.180698871612548828e-01 -1.790436357259750366e-01 1.819065958261489868e-02
4.461942240595817566e-02 -1.906632483005523682e-01 -3.109116852283477783e-01
6.549260020256042480e-02 -2.108730822801589966e-01 8.158648610115051270e-01
1.167356669902801514e-01 -2.347928285598754883e-01 -3.731118142604827881e-01
7.108602672815322876e-02 -1.986543238162994385e-01 7.247695326805114746e-01
2.141268253326416016e-01 -2.149381041526794434e-01 3.816720247268676758e-01
3.105796128511428833e-02 -1.967664361000061035e-01 -3.921656608581542969e-01
1.847584843635559082e-01 -1.965857744216918945e-01 -2.932049632072448730e-01
1.999882459640502930e-01 -1.895923316478729248e-01 -1.928849518299102783e-02
1.194174438714981079e-01 -1.804016083478927612e-01 3.234462738037109375e-01
7.733989506959915161e-02 -2.487580478191375732e-01 3.785946965217590332e-02
7.439676672220230103e-02 -2.461450248956680298e-01 -1.531986892223358154e-01
1.256180703639984131e-01 -1.800236254930496216e-01 -8.154621720314025879e-02
1.397097408771514893e-01 -1.889108121395111084e-01 -3.624451458454132080e-01
2.388773858547210693e-02 -1.902792751789093018e-01 2.566815018653869629e-01
1.154476106166839600e-01 -1.788412332534790039e-01 8.825500309467315674e-02
2.653004229068756104e-02 -2.411718815565109253e-01 5.335673689842224121e-01
3.106358274817466736e-02 -1.924743354320526123e-01 4.295665323734283447e-01
7.025164365768432617e-02 -2.491285651922225952e-01 2.480379939079284668e-01
2.996831014752388000e-02 -2.431913614273071289e-01 4.924212396144866943e-01
5.573182180523872375e-02 -2.436361163854598999e-01 5.391757488250732422e-01
4.555254057049751282e-02 -1.989504247903823853e-01 6.514670848846435547e-01
6.755701452493667603e-02 -2.494899481534957886e-01 1.483240425586700439e-01
1.614599823951721191e-01 -2.132044434547424316e-01 -4.477995038032531738e-01
2.213896512985229492e-01 -2.008964121341705322e-01 1.201570481061935425e-01
1.564508378505706787e-01 -2.392092496156692505e-01 6.902895867824554443e-02
1.838823258876800537e-01 -1.918458938598632812e-01 5.378192663192749023e-01
2.220442295074462891e-01 -2.011947780847549438e-01 1.738480031490325928e-01
6.927218288183212280e-02 -2.372319400310516357e-01 -4.134622812271118164e-01
7.127062231302261353e-02 -1.839269101619720459e-01 -1.853025853633880615e-01
1.146377772092819214e-01 -1.795304417610168457e-01 -4.092015326023101807e-02
1.995318531990051270e-01 -2.266669422388076782e-01 2.275212109088897705e-01
1.398367881774902344e-01 -2.025645673274993896e-01 7.921772599220275879e-01
1.160077527165412903e-01 -2.436083406209945679e-01 -1.067558377981185913e-01
8.868443220853805542e-02 -1.847169697284698486e-01 -2.754240334033966064e-01
1.332757622003555298e-01 -2.279824763536453247e-01 7.568027377128601074e-01
1.546793431043624878e-01 -1.867489516735076904e-01 5.348864793777465820e-01
1.143208593130111694e-01 -1.896335184574127197e-01 6.372947692871093750e-01
2.654167264699935913e-02 -2.359533607959747314e-01 -4.009818434715270996e-01
6.491298228502273560e-02 -1.823301464319229126e-01 1.486961841583251953e-01
6.864009797573089600e-02 -1.859286576509475708e-01 4.298121333122253418e-01
1.535486280918121338e-01 -1.807997226715087891e-01 2.821117341518402100e-01
-1.349873840808868408e-03 -2.029664367437362671e-01 4.402552545070648193e-01
2.233388274908065796e-02 -1.902371644973754883e-01 -9.965139627456665039e-02
1.223161369562149048e-01 -1.903419345617294312e-01 -4.174804091453552246e-01
1.313550770282745361e-01 -2.442342787981033325e-01 1.856526434421539307e-01
9.306475520133972168e-03 -2.232246249914169312e-01 6.602507233619689941e-01
5.014728009700775146e-02 -1.909582763910293579e-01 -3.444219231605529785e-01
1.986444294452667236e-01 -1.874889135360717773e-01 9.351056814193725586e-02
1.956557929515838623e-01 -1.865960806608200073e-01 2.108693718910217285e-01
7.933174073696136475e-02 -1.821162104606628418e-01 -1.204173713922500610e-01
1.242575123906135559e-01 -2.140405774116516113e-01 -5.590811967849731445e-01
7.023143768310546875e-02 -2.172995954751968384e-01 8.364771604537963867e-01
2.137991786003112793e-02 -1.908746063709259033e-01 -1.290562450885772705e-01
1.481538116931915283e-01 -1.822266727685928345e-01 3.919653594493865967e-01
5.374049395322799683e-02 -1.999547630548477173e-01 -5.125147700309753418e-01
1.424021422863006592e-01 -2.408701628446578979e-01 3.914648294448852539e-01
9.122096747159957886e-02 -2.422486543655395508e-01 -2.624498903751373291e-01
-2.765089273452758789e-03 -2.425712347030639648e-01 3.093411922454833984e-01
1.520538628101348877e-01 -2.358206659555435181e-01 5.304951667785644531e-01
7.208864390850067139e-02 -1.907220929861068726e-01 5.873262882232666016e-01
1.754952967166900635e-01 -2.348613440990447998e-01 2.649991810321807861e-01
8.365739881992340088e-02 -1.839133650064468384e-01 4.132579863071441650e-01
3.621710091829299927e-02 -1.864139735698699951e-01 6.937324255704879761e-02
-2.891737222671508789e-02 -2.341417968273162842e-01 2.563048303127288818e-01
5.333624035120010376e-02 -2.043138742446899414e-01 7.434443235397338867e-01
1.421639174222946167e-01 -2.394282966852188110e-01 -1.078091710805892944e-01
1.414260268211364746e-01 -2.132053375244140625e-01 8.229851722717285156e-01
-1.199993491172790527e-02 -2.359190434217453003e-01 4.233324527740478516e-01
-2.996337413787841797e-02 -2.160922139883041382e-01 3.350147008895874023e-01
1.981695592403411865e-01 -1.944490373134613037e-01 4.915250539779663086e-01
1.068578585982322693e-01 -1.791148483753204346e-01 5.109641700983047485e-02
1.957912445068359375e-01 -2.070308029651641846e-01 6.181434392929077148e-01
6.043492630124092102e-02 -2.011405378580093384e-01 -5.372820496559143066e-01
1.805715262889862061e-01 -2.052035778760910034e-01 6.955104470252990723e-01
1.332884430885314941e-01 -1.890753060579299927e-01 6.232674717903137207e-01
2.069876343011856079e-02 -1.973835229873657227e-01 4.916140437126159668e-01
2.022359669208526611e-01 -2.163807153701782227e-01 5.265291929244995117e-01
8.632983267307281494e-02 -1.804157346487045288e-01 1.802959144115447998e-01
1.241890937089920044e-01 -2.293249368667602539e-01 -4.412133097648620605e-01
1.432839334011077881e-01 -2.415344566106796265e-01 3.682804852724075317e-02
1.775207221508026123e-01 -2.276207804679870605e-01 -1.862052679061889648e-01
2.088007628917694092e-01 -2.205964624881744385e-01 5.490905046463012695e-02
1.622354090213775635e-01 -2.356633394956588745e-01 4.498990178108215332e-01
3.037841990590095520e-02 -1.875891238451004028e-01 2.252777665853500366e-02
1.703908741474151611e-01 -1.834124177694320679e-01 -7.288950681686401367e-02
1.421380043029785156e-01 -1.794905066490173340e-01 2.537105977535247803e-02
2.217085063457489014e-01 -2.048996686935424805e-01 2.935608029365539551e-01
8.258239924907684326e-02 -2.471053600311279297e-01 3.936074674129486084e-01
1.702251285314559937e-01 -1.861111223697662354e-01 -1.821278333663940430e-01
1.031331717967987061e-02 -2.019015103578567505e-01 5.137386918067932129e-01
1.334593892097473145e-01 -2.386114001274108887e-01 -2.025443613529205322e-01
1.438906788825988770e-01 -2.338829040527343750e-01 -2.761170566082000732e-01
6.814077496528625488e-02 -2.484371662139892578e-01 -2.648913860321044922e-02
1.881655007600784302e-01 -1.865877211093902588e-01 3.486317694187164307e-01
1.235801130533218384e-01 -1.847162544727325439e-01 -2.896001935005187988e-01
3.354016691446304321e-02 -2.466306835412979126e-01 -1.145604103803634644e-01
2.119876295328140259e-01 -2.121361494064331055e-01 4.547130763530731201e-01
1.701568365097045898e-01 -1.873098164796829224e-01 4.972155392169952393e-01
5.886184796690940857e-02 -1.852000802755355835e-01 3.356840908527374268e-01
5.179651826620101929e-02 -2.479934841394424438e-01 3.507192134857177734e-01
4.012633487582206726e-02 -1.911831647157669067e-01 4.518438577651977539e-01
1.340976357460021973e-02 -2.193514406681060791e-01 -5.008302330970764160e-01
7.076530903577804565e-02 -1.845853924751281738e-01 3.828109800815582275e-01
1.326104104518890381e-01 -1.861570775508880615e-01 5.539073944091796875e-01
1.272609829902648926e-01 -2.428152412176132202e-01 4.162537157535552979e-01
2.366476505994796753e-02 -2.471630573272705078e-01 2.839701771736145020e-01
8.103796094655990601e-02 -1.805633902549743652e-01 6.889361888170242310e-02
1.316071301698684692e-02 -2.030342668294906616e-01 5.527377128601074219e-01
9.897922724485397339e-02 -1.861134022474288940e-01 -3.320620059967041016e-01
8.927358686923980713e-02 -2.374138981103897095e-01 6.876032352447509766e-01
2.076916694641113281e-01 -1.921160966157913208e-01 3.153825998306274414e-01
-3.959328681230545044e-02 -2.280992269515991211e-01 1.249373257160186768e-01
1.310800760984420776e-01 -1.818900257349014282e-01 -1.783013343811035156e-01
2.092258632183074951e-01 -2.210666984319686890e-01 2.994219362735748291e-01
4.814575985074043274e-02 -1.864279508590698242e-01 -1.646188795566558838e-01
6.579683721065521240e-02 -1.860810369253158569e-01 -2.553676664829254150e-01
1.449927836656570435e-01 -1.996782571077346802e-01 7.617835402488708496e-01
2.354409545660018921e-02 -1.890269666910171509e-01 1.116143837571144104e-01
-3.451507538557052612e-02 -2.123385816812515259e-01 -4.873578250408172607e-02
2.091965824365615845e-01 -2.128239572048187256e-01 4.849604666233062744e-01
-3.798051923513412476e-02 -2.144818603992462158e-01 4.963905364274978638e-02
7.925189286470413208e-02 -2.081064581871032715e-01 -5.972115993499755859e-01
7.398873567581176758e-02 -2.299689948558807373e-01 7.850675582885742188e-01
1.062337383627891541e-01 -1.889061629772186279e-01 6.156835556030273438e-01
1.291554868221282959e-01 -1.835987716913223267e-01 4.760968685150146484e-01
1.344141811132431030e-01 -2.369937002658843994e-01 -2.469219565391540527e-01
2.732478082180023193e-02 -1.888214945793151855e-01 2.004773914813995361e-01
6.103508174419403076e-03 -2.427933365106582642e-01 -1.590979099273681641e-01
1.952487230300903320e-01 -2.078883796930313110e-01 -2.716251015663146973e-01
-1.778373122215270996e-02 -2.033737748861312866e-01 -1.196728199720382690e-01
-1.220687478780746460e-02 -2.352463901042938232e-01 -2.480190396308898926e-01
4.412000998854637146e-02 -1.852517724037170410e-01 -4.993662238121032715e-03
1.819900274276733398e-01 -2.056328654289245605e-01 -3.587189018726348877e-01
-2.083104848861694336e-02 -2.370623797178268433e-01 -1.180638223886489868e-01
-6.176188588142395020e-03 -2.424416840076446533e-01 -6.564609706401824951e-02
4.613764584064483643e-03 -2.131990939378738403e-01 6.138917207717895508e-01
6.589159369468688965e-02 -2.355936467647552490e-01 -4.434159398078918457e-01
1.192689090967178345e-01 -1.787978112697601318e-01 1.185685470700263977e-01
3.437720239162445068e-02 -1.891581118106842041e-01 3.234322071075439453e-01
1.501077711582183838e-01 -2.333425581455230713e-01 6.089258790016174316e-01
1.197503805160522461e-01 -1.945575773715972900e-01 7.234698534011840820e-01
-4.156433790922164917e-02 -2.230678200721740723e-01 9.144720435142517090e-02
1.609108895063400269e-01 -2.377967536449432373e-01 3.460972309112548828e-01
9.970378875732421875e-02 -1.970435231924057007e-01 7.486650943756103516e-01
7.806105911731719971e-02 -2.358063310384750366e-01 7.169858217239379883e-01
2.017729282379150391e-01 -2.221827059984207153e-01 -3.771872818470001221e-02
1.626458019018173218e-01 -2.343306690454483032e-01 -1.258028447628021240e-01
-1.994862407445907593e-02 -2.064552307128906250e-01 -1.862552464008331299e-01
4.780970513820648193e-02 -1.857222765684127808e-01 -1.163368225097656250e-01
3.029988706111907959e-02 -2.459883987903594971e-01 -1.369716525077819824e-01
1.129564642906188965e-01 -1.794507950544357300e-01 2.324582338333129883e-01
1.449384987354278564e-01 -1.795391142368316650e-01 1.954053044319152832e-01
1.847017854452133179e-01 -1.840998083353042603e-01 7.644125819206237793e-02
1.863089203834533691e-01 -2.304503917694091797e-01 2.927530556917190552e-02
-2.184677124023437500e-02 -2.057598978281021118e-01 2.460383474826812744e-01
1.766692698001861572e-01 -2.202928066253662109e-01 -3.169502317905426025e-01
1.721061319112777710e-01 -2.240905463695526123e-01 -2.956073284149169922e-01
5.724425241351127625e-02 -1.870031505823135376e-01 4.096782207489013672e-01
1.943469494581222534e-01 -1.886611878871917725e-01 -6.166285276412963867e-02
1.694079488515853882e-02 -1.908364892005920410e-01 1.615439355373382568e-01
7.369540631771087646e-02 -1.828648149967193604e-01 3.051722049713134766e-01
5.694265291094779968e-02 -2.452723681926727295e-01 4.870799779891967773e-01
1.191285178065299988e-01 -1.803838759660720825e-01 -1.108961701393127441e-01
1.616109162569046021e-01 -1.813402622938156128e-01 -1.126316189765930176e-02
-4.857923835515975952e-02 -1.672405153512954712e-01 3.370652794837951660e-01
-5.479259043931961060e-02 -2.483285367488861084e-01 4.892561733722686768e-01
-1.211498454213142395e-01 -1.279642730951309204e-01 6.305261850357055664e-01
-8.229080587625503540e-02 -1.528530716896057129e-01 6.754634380340576172e-01
-9.480516612529754639e-02 -2.575774192810058594e-01 6.321696043014526367e-01
-1.305472105741500854e-01 -1.361893564462661743e-01 6.834555268287658691e-01
-2.039872854948043823e-01 -2.117695063352584839e-01 7.014756202697753906e-01
-2.183092683553695679e-01 -2.204142063856124878e-01 6.162395477294921875e-01
-2.156573235988616943e-01 -1.551381051540374756e-01 5.388642549514770508e-01
-2.206152975559234619e-01 -1.810116171836853027e-01 3.917340040206909180e-01
-6.766515970230102539e-02 -1.452136039733886719e-01 5.877645015716552734e-01
-1.433037221431732178e-01 -1.187551915645599365e-01 5.178549885749816895e-01
-2.054841667413711548e-01 -1.678960323333740234e-01 3.363375663757324219e-01
-1.180944442749023438e-01 -1.209680959582328796e-01 5.550461411476135254e-01
-2.116564512252807617e-01 -2.109035849571228027e-01 3.367983102798461914e-01
-6.494936347007751465e-02 -1.396593898534774780e-01 5.070913434028625488e-01
-1.648133844137191772e-01 -2.702151834964752197e-01 5.171430110931396484e-01
-1.028840765357017517e-01 -1.871950775384902954e-01 7.670680284500122070e-01
-1.264456212520599365e-01 -1.343431919813156128e-01 3.009827136993408203e-01
-1.365601271390914917e-01 -1.247140094637870789e-01 6.133921742439270020e-01
-1.211353838443756104e-01 -1.195838376879692078e-01 4.376951158046722412e-01
-1.671878993511199951e-01 -1.231294497847557068e-01 4.817511141300201416e-01
-2.197287976741790771e-01 -1.734973639249801636e-01 6.181823611259460449e-01
-5.977968126535415649e-02 -2.332697212696075439e-01 2.930366396903991699e-01
-1.954123973846435547e-01 -1.731804013252258301e-01 2.882161736488342285e-01
-2.288364470005035400e-01 -1.822965443134307861e-01 5.204359292984008789e-01
-1.231258064508438110e-01 -1.460437625646591187e-01 2.520737051963806152e-01
-7.958713173866271973e-02 -1.314938664436340332e-01 5.265954732894897461e-01
-1.406344026327133179e-01 -2.485362589359283447e-01 2.514868974685668945e-01
-6.139382719993591309e-02 -1.539433300495147705e-01 6.035540103912353516e-01
-1.200993657112121582e-01 -1.187723875045776367e-01 5.014530420303344727e-01
-7.990444451570510864e-02 -1.316946595907211304e-01 4.134624898433685303e-01
-5.859839171171188354e-02 -2.515139877796173096e-01 4.193125367164611816e-01
-7.215058803558349609e-02 -2.394639104604721069e-01 2.739706635475158691e-01
-7.171848416328430176e-02 -2.608692944049835205e-01 4.909449517726898193e-01
-3.995785117149353027e-02 -1.694133430719375610e-01 5.130711197853088379e-01
-1.175219118595123291e-01 -2.499916851520538330e-01 2.500279843807220459e-01
-1.229266077280044556e-01 -1.228274405002593994e-01 5.876192450523376465e-01
-1.481356024742126465e-01 -2.656891345977783203e-01 3.427998423576354980e-01
-2.064013183116912842e-01 -2.415963709354400635e-01 4.112372994422912598e-01
-6.197114288806915283e-02 -1.413047611713409424e-01 4.891510307788848877e-01
-1.962138414382934570e-01 -2.486461102962493896e-01 3.903480172157287598e-01
-5.150082707405090332e-02 -1.692886352539062500e-01 6.090196371078491211e-01
-1.049479618668556213e-01 -1.278977096080780029e-01 6.027979254722595215e-01
-2.123990058898925781e-01 -1.978546380996704102e-01 3.315925896167755127e-01
-2.154321819543838501e-01 -1.763967424631118774e-01 6.521662473678588867e-01
-2.265012264251708984e-01 -1.934973299503326416e-01 5.946072936058044434e-01
-1.209729909896850586e-01 -1.186567023396492004e-01 4.739070832729339600e-01
-2.211002856492996216e-01 -2.200387120246887207e-01 4.206647276878356934e-01
-1.791932731866836548e-01 -1.420240104198455811e-01 3.362331986427307129e-01
-3.915009647607803345e-02 -2.290751039981842041e-01 4.552767276763916016e-01
-1.737835407257080078e-01 -2.656031847000122070e-01 4.260659515857696533e-01
-3.556968271732330322e-02 -2.034081369638442993e-01 5.407198667526245117e-01
-2.225395441055297852e-01 -2.118031233549118042e-01 4.081840217113494873e-01
-1.783829629421234131e-01 -2.557370364665985107e-01 6.301225423812866211e-01
-1.699507832527160645e-01 -1.614031791687011719e-01 2.503355145454406738e-01
-1.796018779277801514e-01 -2.649923563003540039e-01 4.843172729015350342e-01
-4.762273281812667847e-02 -2.331457585096359253e-01 3.554146289825439453e-01
-1.213061437010765076e-01 -2.748135328292846680e-01 5.187650322914123535e-01
-9.544230997562408447e-02 -1.459123343229293823e-01 6.815604567527770996e-01
-7.248875498771667480e-02 -2.110845148563385010e-01 7.074692845344543457e-01
-3.859435766935348511e-02 -2.036379426717758179e-01 5.683114528656005859e-01
-3.627130389213562012e-02 -2.147639244794845581e-01 5.247893333435058594e-01
-8.358412981033325195e-02 -1.320629268884658813e-01 3.857110738754272461e-01
-5.008627474308013916e-02 -2.421936392784118652e-01 4.008323550224304199e-01
-2.231917828321456909e-01 -2.228881567716598511e-01 4.671792089939117432e-01
-8.672960102558135986e-02 -2.681452333927154541e-01 4.872798025608062744e-01
-6.349755823612213135e-02 -2.486903369426727295e-01 5.689698457717895508e-01
-1.322684288024902344e-01 -2.547940015792846680e-01 6.869293451309204102e-01
-1.546378582715988159e-01 -1.200210601091384888e-01 5.033408403396606445e-01
-8.987383544445037842e-02 -1.678602546453475952e-01 7.277159690856933594e-01
-1.961224377155303955e-01 -1.365096271038055420e-01 5.144074559211730957e-01
-1.264281868934631348e-01 -1.994812339544296265e-01 1.749202609062194824e-01
-1.801105588674545288e-01 -2.256550490856170654e-01 7.355035543441772461e-01
-1.889765262603759766e-01 -2.561610639095306396e-01 4.087694585323333740e-01
-2.011959850788116455e-01 -2.342288792133331299e-01 3.429337143898010254e-01
-5.826114118099212646e-02 -2.234889715909957886e-01 6.442898511886596680e-01
-2.159648835659027100e-01 -1.568833440542221069e-01 4.628423750400543213e-01
-7.835838198661804199e-02 -1.723669171333312988e-01 2.280420362949371338e-01
-1.677870303392410278e-01 -1.541492491960525513e-01 7.298954725265502930e-01
-1.185025423765182495e-01 -1.191967427730560303e-01 4.569541513919830322e-01
-9.371422231197357178e-02 -2.332997769117355347e-01 2.202488183975219727e-01
-1.607308536767959595e-01 -1.234276220202445984e-01 4.282721281051635742e-01
-6.635699421167373657e-02 -1.933152824640274048e-01 2.309490740299224854e-01
-2.130784541368484497e-01 -1.666293740272521973e-01 6.397038698196411133e-01
-2.008901834487915039e-01 -2.247798740863800049e-01 3.145799636840820312e-01
-2.129372358322143555e-01 -1.748836785554885864e-01 3.561013340950012207e-01
-2.214582413434982300e-01 -2.234280705451965332e-01 5.724774599075317383e-01
-1.641681045293807983e-01 -1.235356479883193970e-01 5.547912716865539551e-01
-2.186053693294525146e-01 -1.674200147390365601e-01 6.046519279479980469e-01
-1.969598382711410522e-01 -1.378610283136367798e-01 4.695721268653869629e-01
-1.675412803888320923e-01 -2.696578800678253174e-01 4.717514514923095703e-01
-2.275246083736419678e-01 -1.893162876367568970e-01 5.793852806091308594e-01
-1.426181644201278687e-01 -1.653061807155609131e-01 2.100466787815093994e-01
-3.374220430850982666e-02 -2.150434553623199463e-01 4.722646474838256836e-01
-1.555619537830352783e-01 -1.380202025175094604e-01 3.042856454849243164e-01
-1.062764897942543030e-01 -1.213955506682395935e-01 4.467717111110687256e-01
-1.579675972461700439e-01 -2.611794471740722656e-01 3.303276300430297852e-01
-9.811232984066009521e-02 -2.620790302753448486e-01 6.120671629905700684e-01
-5.493585020303726196e-02 -1.493364721536636353e-01 4.056975543498992920e-01
-1.701508015394210815e-01 -1.444922983646392822e-01 6.955319046974182129e-01
-1.533679366111755371e-01 -2.491725683212280273e-01 7.030618190765380859e-01
-4.542442411184310913e-02 -2.242915332317352295e-01 3.343804478645324707e-01
-2.186561822891235352e-01 -1.630741059780120850e-01 5.798027515411376953e-01
-7.114256918430328369e-02 -2.429564446210861206e-01 2.891810536384582520e-01
-3.365975618362426758e-02 -1.820931583642959595e-01 4.361697733402252197e-01
-1.335673332214355469e-01 -1.317048966884613037e-01 3.166747689247131348e-01
-9.775251895189285278e-02 -1.255852580070495605e-01 4.039259850978851318e-01
-1.235793605446815491e-01 -2.655531764030456543e-01 3.237684071063995361e-01
-5.062772333621978760e-02 -2.448730468750000000e-01 4.638989865779876709e-01
-9.508749097585678101e-02 -2.702988684177398682e-01 5.102331042289733887e-01
-1.032000184059143066e-01 -2.693568766117095947e-01 3.754624426364898682e-01
-1.380286812782287598e-01 -2.737244963645935059e-01 5.445064306259155273e-01
-1.218938007950782776e-01 -2.677477598190307617e-01 3.399757146835327148e-01
-1.652814000844955444e-01 -1.229937002062797546e-01 4.639467000961303711e-01
-1.207535490393638611e-01 -1.349615156650543213e-01 6.714706420898437500e-01
-4.869993776082992554e-02 -1.549389660358428955e-01 5.037013292312622070e-01
-1.290198713541030884e-01 -1.456178426742553711e-01 7.193424105644226074e-01
-5.869687348604202271e-02 -2.499274462461471558e-01 5.205749869346618652e-01
-4.623546451330184937e-02 -2.395697087049484253e-01 4.356472492218017578e-01
-1.981627196073532104e-01 -1.532100737094879150e-01 3.537012338638305664e-01
-2.105042338371276855e-01 -2.359119653701782227e-01 5.996978282928466797e-01
-3.333549201488494873e-02 -1.825827062129974365e-01 4.544982314109802246e-01
-3.374548256397247314e-02 -1.837715506553649902e-01 4.189510643482208252e-01
-4.721160233020782471e-02 -2.383458316326141357e-01 5.126777887344360352e-01
-9.016385674476623535e-02 -2.496240139007568359e-01 6.599043011665344238e-01
-1.280562579631805420e-01 -2.471722960472106934e-01 2.409328818321228027e-01
-9.916196763515472412e-02 -1.243608742952346802e-01 5.418094396591186523e-01
-2.089214920997619629e-01 -1.516316980123519897e-01 5.908081531524658203e-01
-1.760949343442916870e-01 -1.278375834226608276e-01 5.634882450103759766e-01
-2.094422429800033569e-01 -2.435861527919769287e-01 5.299096107482910156e-01
-1.626674979925155640e-01 -2.635245919227600098e-01 6.152464151382446289e-01
-6.193760782480239868e-02 -2.022563815116882324e-01 6.827186942100524902e-01
-5.130954086780548096e-02 -2.303326576948165894e-01 3.206497430801391602e-01
-6.562183797359466553e-02 -2.176733314990997314e-01 2.429325878620147705e-01
-1.320250630378723145e-01 -1.633366346359252930e-01 7.634629011154174805e-01
-1.890511214733123779e-01 -1.419653892517089844e-01 6.371219158172607422e-01
-1.384996622800827026e-01 -2.754372656345367432e-01 4.617982506752014160e-01
-1.593541055917739868e-01 -1.725520640611648560e-01 2.146379947662353516e-01
-1.879942566156387329e-01 -1.601048558950424194e-01 2.945161163806915283e-01
-4.839532822370529175e-02 -2.121462970972061157e-01 2.938870191574096680e-01
-2.221499830484390259e-01 -2.265884727239608765e-01 5.225022435188293457e-01
-1.087170615792274475e-01 -1.250402629375457764e-01 5.850986242294311523e-01
-1.823590397834777832e-01 -1.424547582864761353e-01 6.612842679023742676e-01
-1.675381958484649658e-01 -2.455382496118545532e-01 2.777596712112426758e-01
-6.038155406713485718e-02 -2.406944036483764648e-01 5.977612137794494629e-01
-1.008795052766799927e-01 -2.715529799461364746e-01 4.165370762348175049e-01
-1.444296836853027344e-01 -1.458347886800765991e-01 7.216264009475708008e-01
-5.710971355438232422e-02 -1.513444930315017700e-01 5.621639490127563477e-01
-8.383010327816009521e-02 -1.358081251382827759e-01 5.977032184600830078e-01
-5.641353875398635864e-02 -1.475005149841308594e-01 5.181174874305725098e-01
-7.868185639381408691e-02 -2.600638568401336670e-01 3.636725842952728271e-01
-1.914530545473098755e-01 -1.922306716442108154e-01 2.584387660026550293e-01
-8.859559148550033569e-02 -2.633958160877227783e-01 5.732579231262207031e-01
-2.082633227109909058e-01 -2.452643811702728271e-01 4.921881556510925293e-01
-2.185216546058654785e-01 -2.320247292518615723e-01 5.363107919692993164e-01
-1.041399836540222168e-01 -2.272607982158660889e-01 7.440423965454101562e-01
-1.832681149244308472e-01 -2.077427953481674194e-01 2.406515330076217651e-01
-4.388699680566787720e-02 -1.906771212816238403e-01 3.111917376518249512e-01
-1.022105589509010315e-01 -2.525452077388763428e-01 6.705766916275024414e-01
-7.431801408529281616e-02 -2.298437356948852539e-01 2.434529662132263184e-01
-4.619961231946945190e-02 -2.108455449342727661e-01 6.103818416595458984e-01
-7.795677334070205688e-02 -2.109074592590332031e-01 7.207785844802856445e-01
-1.943905949592590332e-01 -1.432565450668334961e-01 6.226370930671691895e-01
-4.625126719474792480e-02 -2.171026617288589478e-01 3.118342161178588867e-01
-1.631710827350616455e-01 -1.277176141738891602e-01 6.107891798019409180e-01
-1.890167593955993652e-01 -1.493961513042449951e-01 6.740293502807617188e-01
-4.204476624727249146e-02 -2.327153086662292480e-01 4.901254475116729736e-01
-9.514962136745452881e-02 -1.425688862800598145e-01 2.860110402107238770e-01
-8.345297724008560181e-02 -2.594324946403503418e-01 3.400529623031616211e-01
-7.209338247776031494e-02 -1.367613971233367920e-01 4.001966714859008789e-01
-1.450772732496261597e-01 -2.713325023651123047e-01 3.902727365493774414e-01
-1.713955551385879517e-01 -2.677540183067321777e-01 4.507373571395874023e-01
-2.161494195461273193e-01 -2.362247705459594727e-01 5.028356313705444336e-01
-1.100423038005828857e-01 -2.476087063550949097e-01 6.997961997985839844e-01
-1.954471766948699951e-01 -1.636104583740234375e-01 7.009047269821166992e-01
-1.169850528240203857e-01 -2.268173098564147949e-01 1.949926018714904785e-01
-1.261556595563888550e-01 -1.189927011728286743e-01 5.310196876525878906e-01
-2.286438345909118652e-01 -1.982612013816833496e-01 4.574097096920013428e-01
-1.546412557363510132e-01 -2.638288736343383789e-01 6.271262168884277344e-01
-1.574295461177825928e-01 -2.721876204013824463e-01 4.526673257350921631e-01
-1.241790503263473511e-01 -2.306374013423919678e-01 7.548092603683471680e-01
-2.012858092784881592e-01 -1.421823799610137939e-01 4.515374004840850830e-01
-9.420493245124816895e-02 -1.803789734840393066e-01 1.959637999534606934e-01
-1.102360337972640991e-01 -2.653919458389282227e-01 3.293197154998779297e-01
-1.357602030038833618e-01 -2.694965898990631104e-01 5.974556803703308105e-01
-2.173249721527099609e-01 -2.069965302944183350e-01 3.627204298973083496e-01
-1.369162797927856445e-01 -2.051142305135726929e-01 7.883539199829101562e-01
-1.579576581716537476e-01 -1.869446337223052979e-01 7.843410968780517578e-01
-1.136526539921760559e-01 -1.342483460903167725e-01 3.059059977531433105e-01
-7.016666978597640991e-02 -1.358209550380706787e-01 4.391415119171142578e-01
-6.681082397699356079e-02 -1.628984361886978149e-01 6.580929756164550781e-01
-2.208866178989410400e-01 -1.847815811634063721e-01 6.334707736968994141e-01
-2.131115198135375977e-01 -2.233970016241073608e-01 6.394081711769104004e-01
-6.188362836837768555e-02 -2.549471259117126465e-01 4.573855102062225342e-01
-1.784528344869613647e-01 -1.448079049587249756e-01 3.210189342498779297e-01
-4.800279438495635986e-02 -2.349482327699661255e-01 5.475643873214721680e-01
-1.634127199649810791e-01 -1.241749897599220276e-01 5.691567659378051758e-01
-1.614502370357513428e-01 -2.193961590528488159e-01 2.119569778442382812e-01
-2.238059639930725098e-01 -1.792162507772445679e-01 4.235532581806182861e-01
-2.127594351768493652e-01 -1.532692909240722656e-01 5.650458335876464844e-01
-5.804709345102310181e-02 -1.749534755945205688e-01 2.741056084632873535e-01
-1.482835859060287476e-01 -2.531942129135131836e-01 2.757460474967956543e-01
-3.248848021030426025e-02 -2.004629820585250854e-01 4.998860359191894531e-01
-2.079726159572601318e-01 -2.425714582204818726e-01 5.682884454727172852e-01
-1.176080554723739624e-01 -1.537185460329055786e-01 7.353324890136718750e-01
-1.990163922309875488e-01 -1.417985558509826660e-01 4.332626461982727051e-01
-1.145605742931365967e-01 -1.966985464096069336e-01 7.805963754653930664e-01
-6.958144903182983398e-02 -1.774169057607650757e-01 6.946321725845336914e-01
-1.458565294742584229e-01 -2.699814438819885254e-01 5.855516195297241211e-01
-1.123234629631042480e-01 -2.596170306205749512e-01 2.927224338054656982e-01
-6.040511280298233032e-02 -2.436579614877700806e-01 5.826840400695800781e-01
-1.315380930900573730e-01 -1.180482208728790283e-01 4.903816580772399902e-01
-1.639631241559982300e-01 -2.681506574153900146e-01 5.642154216766357422e-01
-6.343280524015426636e-02 -2.223753333091735840e-01 2.557347118854522705e-01
-3.650846332311630249e-02 -1.952598392963409424e-01 5.521299839019775391e-01
-2.030693888664245605e-01 -1.475136578083038330e-01 6.035449504852294922e-01
-3.591781854629516602e-02 -1.888502538204193115e-01 3.708271980285644531e-01
-1.468966305255889893e-01 -1.212247014045715332e-01 5.680434107780456543e-01
-1.865120381116867065e-01 -1.309630572795867920e-01 5.247402787208557129e-01
-2.057131826877593994e-01 -1.444927006959915161e-01 5.388952493667602539e-01
-1.674442738294601440e-01 -2.556894421577453613e-01 6.567252874374389648e-01
-1.501175165176391602e-01 -2.334378659725189209e-01 7.502000927925109863e-01
-6.837151944637298584e-02 -2.359072268009185791e-01 6.487223505973815918e-01
-8.007720112800598145e-02 -1.608412861824035645e-01 6.923390626907348633e-01
-1.145135834813117981e-01 -2.750860452651977539e-01 4.692489206790924072e-01
-5.066972970962524414e-02 -1.554431468248367310e-01 5.365144610404968262e-01
-3.419895470142364502e-02 -1.854960024356842041e-01 5.086710453033447266e-01
-1.231809258460998535e-01 -1.414317488670349121e-01 2.690238952636718750e-01
-1.395597308874130249e-01 -1.195165663957595825e-01 5.469355583190917969e-01
-7.237816601991653442e-02 -2.581363022327423096e-01 3.779127597808837891e-01
-1.881194263696670532e-01 -1.322532892227172852e-01 5.402911305427551270e-01
-2.088027745485305786e-01 -2.183089703321456909e-01 6.730608344078063965e-01
-4.670684039592742920e-02 -1.613893061876296997e-01 3.811360001564025879e-01
-2.070332467555999756e-01 -2.312234044075012207e-01 3.613013625144958496e-01
-8.427650481462478638e-02 -1.647173315286636353e-01 7.107086181640625000e-01
-1.125558987259864807e-01 -1.314524412155151367e-01 3.231573402881622314e-01
-1.232246309518814087e-01 -2.701674699783325195e-01 3.607090413570404053e-01
-9.294933825731277466e-02 -1.250680088996887207e-01 4.441933631896972656e-01
-1.584636270999908447e-01 -1.335937380790710449e-01 3.322794735431671143e-01
-6.516138464212417603e-02 -1.724291443824768066e-01 2.573297619819641113e-01
-6.128199398517608643e-02 -1.417623758316040039e-01 4.483644962310791016e-01
-1.299787163734436035e-01 -2.653917670249938965e-01 6.297014951705932617e-01
-8.054724335670471191e-02 -2.096871137619018555e-01 2.061267197132110596e-01
-1.749902367591857910e-01 -2.550082802772521973e-01 6.441118717193603516e-01
-1.776669174432754517e-01 -2.438621968030929565e-01 2.951441407203674316e-01
-1.750553846359252930e-01 -1.464947015047073364e-01 3.052822351455688477e-01
-1.085204035043716431e-01 -2.722207903861999512e-01 5.377632975578308105e-01
-1.111936867237091064e-01 -1.289390176534652710e-01 3.416644334793090820e-01
-2.045359760522842407e-01 -1.673802882432937622e-01 6.806430220603942871e-01
-1.034079492092132568e-01 -1.221135184168815613e-01 5.179227590560913086e-01
-1.544244438409805298e-01 -1.597300022840499878e-01 7.540988922119140625e-01
-7.880631089210510254e-02 -2.437050044536590576e-01 6.544827222824096680e-01
-4.531925916671752930e-02 -2.222370803356170654e-01 5.816448926925659180e-01
-4.662206768989562988e-02 -1.660442799329757690e-01 5.657231211662292480e-01
-4.365387558937072754e-02 -2.256024032831192017e-01 5.576856732368469238e-01
-4.777210950851440430e-02 -1.551541388034820557e-01 4.850313961505889893e-01
-1.051274985074996948e-01 -2.181388586759567261e-01 7.585052847862243652e-01
-2.284541130065917969e-01 -2.078786492347717285e-01 5.437586903572082520e-01
-1.623614430427551270e-01 -1.322851628065109253e-01 3.482125699520111084e-01
-1.971258819103240967e-01 -2.430357635021209717e-01 3.612939119338989258e-01
-1.053612381219863892e-01 -2.430361658334732056e-01 2.337130755186080933e-01
-1.650016158819198608e-01 -1.265552043914794922e-01 4.032928347587585449e-01
-1.866110861301422119e-01 -1.672796458005905151e-01 2.740083038806915283e-01
-8.919503539800643921e-02 -2.686562538146972656e-01 4.269676208496093750e-01
-4.024896770715713501e-02 -2.239981293678283691e-01 3.747827410697937012e-01
-3.807148337364196777e-02 -1.997094005346298218e-01 3.439821600914001465e-01
-1.729595214128494263e-01 -1.579080224037170410e-01 2.643100023269653320e-01
-3.456145524978637695e-02 -2.122727185487747192e-01 5.092182755470275879e-01
-1.424041539430618286e-01 -2.746168971061706543e-01 4.427472352981567383e-01
-1.055612340569496155e-01 -2.734807133674621582e-01 4.459627866744995117e-01
-1.516531109809875488e-01 -2.728199362754821777e-01 5.309643149375915527e-01
-1.098553836345672607e-01 -1.608822345733642578e-01 7.440065145492553711e-01
-3.898704797029495239e-02 -2.192001640796661377e-01 5.397742986679077148e-01
-1.949789524078369141e-01 -2.562171220779418945e-01 5.097362995147705078e-01
-2.198968231678009033e-01 -2.263991683721542358e-01 4.409728646278381348e-01
-9.613502025604248047e-02 -2.468911111354827881e-01 2.541370987892150879e-01
-1.025880277156829834e-01 -2.370040863752365112e-01 7.216785550117492676e-01
-2.236053943634033203e-01 -1.999074369668960571e-01 4.008613824844360352e-01
-2.012251615524291992e-01 -1.402731835842132568e-01 4.964272975921630859e-01
-1.908574849367141724e-01 -1.403638720512390137e-01 3.917676806449890137e-01
-1.882291883230209351e-01 -1.338211148977279663e-01 4.410794377326965332e-01
-1.534760445356369019e-01 -2.710929214954376221e-01 4.092031121253967285e-01
-3.193055838346481323e-02 -1.915158629417419434e-01 4.751615226268768311e-01
-1.725533008575439453e-01 -2.426198869943618774e-01 7.037503719329833984e-01
-1.350583583116531372e-01 -1.264203190803527832e-01 6.273069381713867188e-01
-3.667865693569183350e-02 -2.238133251667022705e-01 4.410163164138793945e-01
-2.114044725894927979e-01 -1.538985669612884521e-01 4.339687824249267578e-01
-1.090060397982597351e-01 -1.401060074567794800e-01 6.815280914306640625e-01
-1.821798384189605713e-01 -2.636302709579467773e-01 5.100334286689758301e-01
-1.740296930074691772e-01 -2.472287863492965698e-01 6.840822100639343262e-01
-7.699093222618103027e-02 -1.362873762845993042e-01 5.691433548927307129e-01
-2.295717298984527588e-01 -1.944815516471862793e-01 5.482327342033386230e-01
-7.108138501644134521e-02 -1.404457390308380127e-01 3.680359721183776855e-01
-1.294442862272262573e-01 -1.229188665747642517e-01 3.829470574855804443e-01
-2.036394476890563965e-01 -1.932599991559982300e-01 7.132532596588134766e-01
-2.015731781721115112e-01 -2.510225474834442139e-01 4.749349951744079590e-01
-1.903929710388183594e-01 -2.471117079257965088e-01 6.409610509872436523e-01
-1.017165184020996094e-01 -2.185164093971252441e-01 1.906253099441528320e-01
-6.021215766668319702e-02 -2.488295882940292358e-01 5.456252098083496094e-01
-2.298608124256134033e-01 -1.885143667459487915e-01 5.067821741104125977e-01
-1.777181029319763184e-01 -2.590088248252868652e-01 6.084083318710327148e-01
-4.867130517959594727e-02 -2.416811585426330566e-01 4.165609776973724365e-01
-2.053283452987670898e-01 -2.444067150354385376e-01 4.254892170429229736e-01
-8.737021684646606445e-02 -2.534942626953125000e-01 2.946587800979614258e-01
-1.869803518056869507e-01 -1.780923902988433838e-01 7.441976070404052734e-01
-1.031345650553703308e-01 -1.215835809707641602e-01 4.813756346702575684e-01
-2.070053517818450928e-01 -2.362236529588699341e-01 6.211998462677001953e-01
-7.448294758796691895e-02 -1.692760586738586426e-01 2.411885559558868408e-01
-4.471652209758758545e-02 -1.588852405548095703e-01 4.456314742565155029e-01
-7.142494618892669678e-02 -1.587728559970855713e-01 2.747852802276611328e-01
-3.262642771005630493e-02 -2.024345695972442627e-01 4.058354198932647705e-01
-2.206934988498687744e-01 -1.755067110061645508e-01 4.056909978389739990e-01
-1.901254951953887939e-01 -2.314340472221374512e-01 7.016819715499877930e-01
-9.214791655540466309e-02 -1.903289854526519775e-01 7.531362771987915039e-01
-1.385312825441360474e-01 -1.189861595630645752e-01 4.480122923851013184e-01
-1.024450212717056274e-01 -2.032821774482727051e-01 7.669645547866821289e-01
-1.642497479915618896e-01 -1.294349282979965210e-01 3.736888468265533447e-01
-2.219862639904022217e-01 -1.684052199125289917e-01 4.502131938934326172e-01
-1.771708726882934570e-01 -1.312518119812011719e-01 6.008376479148864746e-01
-1.356119364500045776e-01 -1.381344199180603027e-01 2.849922180175781250e-01
-1.957123279571533203e-01 -1.559509038925170898e-01 3.328679203987121582e-01
-5.542059987783432007e-02 -2.192148715257644653e-01 2.758695185184478760e-01
-1.374846696853637695e-01 -1.400342881679534912e-01 7.013628482818603516e-01
-6.033892184495925903e-02 -1.875008493661880493e-01 2.500165104866027832e-01
-5.063787102699279785e-02 -2.272819131612777710e-01 5.986752510070800781e-01
-9.420935064554214478e-02 -2.027622759342193604e-01 1.868769824504852295e-01
-8.535955846309661865e-02 -2.356710731983184814e-01 6.954636573791503906e-01
-1.211603879928588867e-01 -2.374478131532669067e-01 2.144134938716888428e-01
-1.725661158561706543e-01 -2.543386816978454590e-01 3.267833590507507324e-01
-1.651684641838073730e-01 -1.474746465682983398e-01 7.130111455917358398e-01
-1.108639910817146301e-01 -2.681723237037658691e-01 3.507419824600219727e-01
-1.588020175695419312e-01 -1.434118449687957764e-01 2.859162688255310059e-01
-1.795269250869750977e-01 -2.566864490509033203e-01 3.642807006835937500e-01
-3.583022952079772949e-02 -2.095917165279388428e-01 3.730708360671997070e-01
-1.934830844402313232e-01 -2.058067768812179565e-01 2.654175162315368652e-01
-6.294810771942138672e-02 -2.503149211406707764e-01 3.632353544235229492e-01
-1.834377944469451904e-01 -2.451880425214767456e-01 3.168054819107055664e-01
-1.789658665657043457e-01 -1.788122951984405518e-01 7.582182288169860840e-01
-1.866308301687240601e-01 -2.169368267059326172e-01 2.569094300270080566e-01
-1.392214447259902954e-01 -2.669695615768432617e-01 6.176764965057373047e-01
-1.693646609783172607e-01 -2.078606188297271729e-01 2.140061855316162109e-01
-1.108225956559181213e-01 -1.283614337444305420e-01 6.188856959342956543e-01
-3.155592828989028931e-02 -1.967998892068862915e-01 4.325847923755645752e-01
-1.915852725505828857e-01 -1.437965631484985352e-01 3.722981214523315430e-01
-6.073815375566482544e-02 -1.447528153657913208e-01 5.339559912681579590e-01
-1.975012868642807007e-01 -2.495718002319335938e-01 5.895900130271911621e-01
-2.254396677017211914e-01 -1.726359874010086060e-01 4.815476536750793457e-01
-9.015181660652160645e-02 -2.661012709140777588e-01 3.782213926315307617e-01
-2.000993043184280396e-01 -1.516820788383483887e-01 6.443414092063903809e-01
-1.670553088188171387e-01 -2.528513073921203613e-01 3.056445717811584473e-01
-8.776416629552841187e-02 -2.687706649303436279e-01 4.705389738082885742e-01
-4.737290740013122559e-02 -1.707226336002349854e-01 5.887648463249206543e-01
-1.580591499805450439e-01 -2.520274221897125244e-01 6.875302791595458984e-01
-1.498450338840484619e-01 -2.177506387233734131e-01 7.763417959213256836e-01
-3.832563012838363647e-02 -1.774320751428604126e-01 3.783681988716125488e-01
-1.961099803447723389e-01 -1.380067318677902222e-01 5.592838525772094727e-01
-1.771166920661926270e-01 -1.293395757675170898e-01 4.248217046260833740e-01
-7.726386189460754395e-02 -2.215303182601928711e-01 2.232577800750732422e-01
-1.853994280099868774e-01 -2.616693079471588135e-01 4.631983339786529541e-01
-1.546920835971832275e-01 -1.209855973720550537e-01 4.489156007766723633e-01
-1.748015284538269043e-01 -2.352965921163558960e-01 2.628706395626068115e-01
-7.145330309867858887e-02 -1.497093439102172852e-01 3.092665076255798340e-01
-8.675770461559295654e-02 -1.362529546022415161e-01 6.117479801177978516e-01
-1.636247336864471436e-01 -2.617600560188293457e-01 3.473457694053649902e-01
-1.559010595083236694e-01 -2.710135579109191895e-01 5.506406426429748535e-01
-1.523316502571105957e-01 -2.405241727828979492e-01 7.316023707389831543e-01
-1.876924782991409302e-01 -1.602932363748550415e-01 7.122602462768554688e-01
-1.546314358711242676e-01 -2.671156525611877441e-01 6.005408763885498047e-01
-2.273446619510650635e-01 -1.773833185434341431e-01 5.348398089408874512e-01
-5.613530427217483521e-02 -2.486979663372039795e-01 5.056779980659484863e-01
-1.554579734802246094e-01 -1.319977045059204102e-01 6.544650793075561523e-01
-5.417204648256301880e-02 -1.477907598018646240e-01 4.633376896381378174e-01
-1.101651638746261597e-01 -2.726387977600097656e-01 4.046552181243896484e-01
-8.518585562705993652e-02 -2.580320239067077637e-01 3.251773715019226074e-01
-1.732590794563293457e-01 -2.237613946199417114e-01 7.491274476051330566e-01
-1.480298489332199097e-01 -2.602232694625854492e-01 6.566789150238037109e-01
-2.160373628139495850e-01 -2.346529364585876465e-01 4.592097997665405273e-01
-3.774180263280868530e-02 -2.212988734245300293e-01 3.910768926143646240e-01
-1.327448934316635132e-01 -1.202643290162086487e-01 4.175955057144165039e-01
-9.151616692543029785e-02 -2.700096666812896729e-01 4.518405795097351074e-01
-8.032470196485519409e-02 -2.499871253967285156e-01 6.325506567955017090e-01
-2.233530580997467041e-01 -2.090240716934204102e-01 6.086133718490600586e-01
-1.982690691947937012e-01 -1.668586432933807373e-01 3.103357553482055664e-01
-1.084509268403053284e-01 -1.778521388769149780e-01 1.885671615600585938e-01
-8.826364576816558838e-02 -1.452106833457946777e-01 6.627393960952758789e-01
-1.915747970342636108e-01 -1.379136592149734497e-01 4.170009195804595947e-01
-1.388200819492340088e-01 -1.497739106416702271e-01 2.442065477371215820e-01
-8.850248157978057861e-02 -2.667864561080932617e-01 3.948071897029876709e-01
-1.955404728651046753e-01 -2.558916509151458740e-01 4.893276393413543701e-01
-9.392835199832916260e-02 -2.654837369918823242e-01 3.590427339076995850e-01
-1.768693923950195312e-01 -2.079953104257583618e-01 2.274129688739776611e-01
-5.275979638099670410e-02 -2.240697145462036133e-01 6.187868118286132812e-01
-7.744850963354110718e-02 -2.639923095703125000e-01 4.324359297752380371e-01
-2.106520235538482666e-01 -1.926916539669036865e-01 6.892424225807189941e-01
-6.159946322441101074e-02 -2.526418864727020264e-01 3.981975018978118896e-01
-8.185563981533050537e-02 -1.913752853870391846e-01 7.346748709678649902e-01
-1.981559544801712036e-01 -2.529967427253723145e-01 5.404981374740600586e-01
-1.470065712928771973e-01 -2.182001918554306030e-01 1.948021650314331055e-01
-1.849492639303207397e-01 -2.611908316612243652e-01 5.416004657745361328e-01
-1.897182911634445190e-01 -2.576711177825927734e-01 5.566449761390686035e-01
