2.861325442790985107e-01 6.574209034442901611e-02 -3.182320594787597656e-01
-3.687731921672821045e-01 1.337504386901855469e-01 -5.072740316390991211e-01
2.902044057846069336e-01 1.416254490613937378e-01 5.957790613174438477e-01
4.339988231658935547e-01 1.210345327854156494e-01 2.863887548446655273e-01
4.493860304355621338e-01 1.126602888107299805e-01 2.302432954311370850e-01
5.096845328807830811e-03 2.318549901247024536e-02 7.642278075218200684e-01
-4.523332118988037109e-01 7.027160376310348511e-02 -2.826635241508483887e-01
3.015793859958648682e-01 1.491109430789947510e-01 4.385451674461364746e-01
2.097443640232086182e-01 1.228522658348083496e-01 8.713433742523193359e-01
-3.484183251857757568e-01 1.377188712358474731e-01 5.013568401336669922e-01
1.374235004186630249e-01 3.848047927021980286e-02 -2.922416925430297852e-01
-3.661048412322998047e-01 1.246805638074874878e-01 -5.564705729484558105e-01
-2.424365282058715820e-01 5.664457008242607117e-02 8.496341705322265625e-01
1.548496037721633911e-01 1.797496527433395386e-02 5.547370910644531250e-01
-3.298797011375427246e-01 4.345181584358215332e-02 -2.740432620048522949e-01
-2.243188582360744476e-02 2.645947784185409546e-02 8.022569417953491211e-01
-4.165934920310974121e-01 1.208766400814056396e-01 4.848647713661193848e-01
7.653494179248809814e-02 7.629744708538055420e-02 -6.191254854202270508e-01
4.237620905041694641e-02 1.569966077804565430e-01 6.348068118095397949e-01
1.282582432031631470e-02 1.353325098752975464e-01 -6.688586473464965820e-01
-3.797102868556976318e-01 1.518631428480148315e-01 -2.542915344238281250e-01
-4.167858362197875977e-01 1.130591109395027161e-01 5.339173078536987305e-01
-4.726464748382568359e-01 8.732619136571884155e-02 -3.286244273185729980e-01
2.227281406521797180e-02 1.625156104564666748e-01 -4.619989991188049316e-01
-1.935628205537796021e-01 1.666223704814910889e-01 3.485865592956542969e-01
8.995361626148223877e-02 1.605887711048126221e-01 -4.279232025146484375e-01
2.671304345130920410e-01 2.620796859264373779e-02 2.732362449169158936e-01
4.141482114791870117e-01 8.470082283020019531e-02 -8.134835958480834961e-02
3.681267797946929932e-01 8.144900202751159668e-02 -2.188835889101028442e-01
-4.661753177642822266e-01 1.310948729515075684e-01 -2.211735993623733521e-01
8.665543794631958008e-02 1.697996854782104492e-01 3.806976079940795898e-01
2.921575903892517090e-01 1.540593206882476807e-01 3.432607650756835938e-01
-1.674211025238037109e-01 1.585180312395095825e-02 6.351576745510101318e-02
-4.419181644916534424e-01 5.496769025921821594e-02 3.489558696746826172e-01
-3.183386921882629395e-01 1.604202687740325928e-01 -2.738576531410217285e-01
-4.567654728889465332e-01 5.336583033204078674e-02 1.260099261999130249e-01
-2.906555831432342529e-01 4.303135350346565247e-02 6.885192394256591797e-01
6.259571015834808350e-02 1.367029696702957153e-01 -6.345342993736267090e-01
-4.383338987827301025e-01 1.435857415199279785e-01 -5.094504356384277344e-02
3.618394732475280762e-01 1.395428180694580078e-01 -4.688189923763275146e-02
-2.397054433822631836e-01 1.698057055473327637e-01 1.457775980234146118e-01
-3.208433985710144043e-01 1.194132417440414429e-01 -6.308854818344116211e-01
-4.754618406295776367e-01 1.319589912891387939e-01 -1.061284691095352173e-01
2.386090606451034546e-01 7.524704188108444214e-02 -4.488744735717773438e-01
1.440828889608383179e-01 1.564008295536041260e-01 -4.109617471694946289e-01
2.820930778980255127e-01 9.152438491582870483e-02 -4.344183206558227539e-01
-2.815293967723846436e-01 1.376964747905731201e-01 6.242591738700866699e-01
-1.282297223806381226e-01 1.714553683996200562e-02 5.709298253059387207e-01
-2.639612257480621338e-01 1.444837152957916260e-01 -5.769658684730529785e-01
-3.035368323326110840e-01 1.053132340312004089e-01 7.853141427040100098e-01
-2.576862275600433350e-02 1.712824702262878418e-01 -3.478168249130249023e-01
1.505749523639678955e-01 1.320312470197677612e-01 8.485575914382934570e-01
1.544768214225769043e-01 1.722059398889541626e-01 5.045525729656219482e-02
1.915658563375473022e-01 4.110739752650260925e-02 8.741589784622192383e-01
-1.675136685371398926e-01 1.379468888044357300e-01 7.546411156654357910e-01
-1.569857746362686157e-01 1.719114780426025391e-01 -3.029778599739074707e-01
1.563502252101898193e-01 4.576582089066505432e-02 -3.490882515907287598e-01
-2.977956831455230713e-01 3.609113395214080811e-02 5.952295064926147461e-01
-3.843111097812652588e-01 1.547133326530456543e-01 -6.400294601917266846e-02
1.470610126852989197e-02 1.900341361761093140e-02 -9.061683714389801025e-02
-1.231490969657897949e-01 1.598103940486907959e-01 -5.227215886116027832e-01
-2.018185406923294067e-01 4.724700748920440674e-02 -4.615803360939025879e-01
7.124347984790802002e-02 1.753553450107574463e-01 -1.260532587766647339e-01
-1.009498685598373413e-01 6.219723820686340332e-02 -6.049699187278747559e-01
-1.662706136703491211e-01 1.757812798023223877e-01 -1.210276335477828979e-01
-2.477892190217971802e-01 3.970461711287498474e-02 7.325949668884277344e-01
-2.724176347255706787e-01 2.163659781217575073e-02 1.841179728507995605e-01
2.106287330389022827e-01 1.578839719295501709e-01 -2.697905898094177246e-01
-3.124423325061798096e-01 6.318769603967666626e-02 -5.005682110786437988e-01
-2.299263030290603638e-01 4.442074149847030640e-02 -4.134179949760437012e-01
-2.643310129642486572e-01 2.139155566692352295e-02 3.246308565139770508e-01
-3.252331167459487915e-02 9.894900023937225342e-03 3.538357019424438477e-01
3.949403762817382812e-01 1.357188522815704346e-01 2.316585183143615723e-01
-6.324131786823272705e-02 2.703673392534255981e-02 -2.578880190849304199e-01
-2.508083879947662354e-01 5.788068845868110657e-02 -5.198351144790649414e-01
5.538900569081306458e-02 4.049080237746238708e-02 9.360498785972595215e-01
-3.444960713386535645e-01 5.425762385129928589e-02 -3.796584010124206543e-01
1.866548806428909302e-01 1.624391078948974609e-01 4.254755973815917969e-01
4.615650773048400879e-01 8.497569710016250610e-02 2.960766255855560303e-01
1.030133515596389771e-01 2.386529743671417236e-02 -1.136896163225173950e-01
-4.480205774307250977e-01 7.348877936601638794e-02 4.863210916519165039e-01
2.810688912868499756e-01 1.361569166183471680e-01 6.785992383956909180e-01
2.989111244678497314e-01 3.534159436821937561e-02 6.106606125831604004e-01
-1.640241146087646484e-01 2.608384191989898682e-02 -2.090400606393814087e-01
3.800494372844696045e-01 5.116193741559982300e-02 5.692543983459472656e-01
1.680882275104522705e-01 9.329763054847717285e-02 -5.920327305793762207e-01
5.889996513724327087e-02 5.512998625636100769e-02 1.011453509330749512e+00
-3.749897181987762451e-01 1.553587317466735840e-01 6.391756981611251831e-02
9.183529019355773926e-02 1.759675145149230957e-01 4.884655028581619263e-02
1.623138487339019775e-01 2.716579288244247437e-02 7.481541037559509277e-01
-1.892295032739639282e-01 7.076796889305114746e-02 -6.352905631065368652e-01
9.866122901439666748e-02 1.277928054332733154e-02 2.371818423271179199e-01
1.436496675014495850e-01 1.705127805471420288e-01 2.682654559612274170e-01
-1.766349822282791138e-01 2.237188071012496948e-02 6.140842437744140625e-01
2.805934548377990723e-01 5.663161724805831909e-02 8.718885779380798340e-01
-4.262005686759948730e-01 1.367863863706588745e-01 2.814711332321166992e-01
9.540784358978271484e-02 1.451592594385147095e-01 -5.631963014602661133e-01
-1.957783550024032593e-01 1.546322554349899292e-02 3.088358640670776367e-01
1.958863437175750732e-01 4.426144063472747803e-02 -2.825779318809509277e-01
1.658662557601928711e-01 3.463065251708030701e-02 -2.074133008718490601e-01
9.670102596282958984e-02 1.720702648162841797e-01 3.003748655319213867e-01
-3.465238809585571289e-01 1.578393280506134033e-01 1.507822424173355103e-01
-2.311084568500518799e-01 1.386205255985260010e-01 6.843107938766479492e-01
1.560256183147430420e-01 1.697781682014465332e-02 1.781308352947235107e-01
1.180650293827056885e-02 1.694733500480651855e-01 4.265425205230712891e-01
2.594799995422363281e-01 3.620005398988723755e-02 -5.482836067676544189e-02
-3.319612145423889160e-01 1.548759937286376953e-01 2.883326411247253418e-01
-2.905851006507873535e-01 1.591213643550872803e-01 3.145318627357482910e-01
1.632279753684997559e-01 2.211723476648330688e-02 6.548809409141540527e-01
-5.024790018796920776e-02 1.627041399478912354e-01 5.447995662689208984e-01
-6.551750004291534424e-02 1.729253530502319336e-01 -3.198344707489013672e-01
-1.481926143169403076e-01 1.496154367923736572e-01 -6.097600460052490234e-01
-1.280190199613571167e-01 1.524157077074050903e-02 2.687090635299682617e-02
-1.729165315628051758e-01 1.566174775362014771e-01 5.495912432670593262e-01
-1.313067972660064697e-01 1.632559597492218018e-01 -4.782419800758361816e-01
-3.071726858615875244e-01 1.644981205463409424e-01 -1.683252304792404175e-01
-2.091364189982414246e-02 1.737022250890731812e-01 3.206182420253753662e-01
-2.702452987432479858e-02 1.020436733961105347e-02 3.979704082012176514e-01
-2.467020452022552490e-01 1.135291904211044312e-01 8.275535702705383301e-01
2.071657776832580566e-01 6.065936014056205750e-02 -4.094386696815490723e-01
3.766948282718658447e-01 5.379233881831169128e-02 6.245169639587402344e-01
1.356387510895729065e-02 1.936110854148864746e-02 7.029549479484558105e-01
-2.102740108966827393e-01 1.764585822820663452e-02 9.304488450288772583e-02
5.542160943150520325e-02 1.408845782279968262e-01 8.088768720626831055e-01
-3.034297935664653778e-02 1.385974287986755371e-01 8.232755661010742188e-01
1.040180921554565430e-01 2.885061502456665039e-02 -1.983981877565383911e-01
4.518875479698181152e-01 1.084733232855796814e-01 3.533817827701568604e-01
-3.163407146930694580e-01 2.650731056928634644e-02 1.845005750656127930e-01
-2.129554152488708496e-01 2.268687635660171509e-02 -8.215902745723724365e-02
-4.628207683563232422e-01 5.530067533254623413e-02 8.144777268171310425e-02
-4.297087341547012329e-02 3.162806481122970581e-02 8.514893651008605957e-01
-4.140511453151702881e-01 5.290371179580688477e-02 4.534767866134643555e-01
-1.869979649782180786e-01 1.961056143045425415e-02 5.332410931587219238e-01
-5.824966728687286377e-02 1.519946753978729248e-01 6.856875419616699219e-01
2.756258845329284668e-02 1.576334238052368164e-01 -5.136678814888000488e-01
-4.060234427452087402e-01 5.290886759757995605e-02 -2.251942902803421021e-01
3.309926688671112061e-01 1.331546753644943237e-01 6.119488477706909180e-01
-8.418523520231246948e-02 1.574757695198059082e-01 -5.511940717697143555e-01
3.341446220874786377e-01 1.485774815082550049e-01 2.942147850990295410e-01
2.332224994897842407e-01 1.353664249181747437e-01 -4.483687877655029297e-01
1.928349435329437256e-01 1.672758162021636963e-01 2.544163465499877930e-01
4.552317261695861816e-01 8.341798931360244751e-02 4.340724945068359375e-01
7.743592560291290283e-02 1.677376776933670044e-01 -3.332124352455139160e-01
-1.905790418386459351e-01 1.749261021614074707e-01 1.718564331531524658e-02
-4.939608275890350342e-01 1.231962889432907104e-01 9.049285203218460083e-02
1.117422580718994141e-01 5.210936814546585083e-02 -4.499298334121704102e-01
2.207267135381698608e-01 1.609768867492675781e-01 -1.819715350866317749e-01
2.744486331939697266e-01 3.095653653144836426e-02 1.070187762379646301e-01
2.301818504929542542e-02 1.737473905086517334e-02 -4.727502167224884033e-02
9.889088571071624756e-02 1.930903643369674683e-02 6.692812442779541016e-01
1.172512173652648926e-01 1.247268915176391602e-01 9.130394458770751953e-01
-4.956100136041641235e-03 1.451707184314727783e-01 7.699045538902282715e-01
-1.334078758955001831e-01 1.379892230033874512e-02 9.581124782562255859e-02
-6.701359152793884277e-02 1.619116365909576416e-01 -5.022058486938476562e-01
-4.757450893521308899e-03 1.564399302005767822e-01 6.441193222999572754e-01
-5.998557060956954956e-02 6.653511524200439453e-02 -6.277041435241699219e-01
1.953036710619926453e-02 1.658525317907333374e-01 4.987357258796691895e-01
-1.911994218826293945e-01 1.402748972177505493e-01 -6.530957818031311035e-01
6.769484281539916992e-02 1.602745056152343750e-02 3.015792369842529297e-02
2.624900341033935547e-01 3.869913518428802490e-02 7.559935450553894043e-01
1.868696957826614380e-01 1.944520324468612671e-02 5.218079686164855957e-01
1.660775840282440186e-01 6.561716645956039429e-02 1.009238243103027344e+00
-3.023652359843254089e-02 1.032496243715286255e-02 2.056010663509368896e-01
-9.944108128547668457e-02 1.087015867233276367e-02 3.023874163627624512e-01
-9.228406846523284912e-02 1.559358686208724976e-01 6.224147677421569824e-01
-4.104864597320556641e-01 1.489761620759963989e-01 -1.435204297304153442e-01
-6.136380881071090698e-02 1.184441223740577698e-01 9.425352811813354492e-01
-3.828616142272949219e-01 4.421038925647735596e-02 -1.516748517751693726e-01
1.569563895463943481e-01 1.161752939224243164e-01 9.430043697357177734e-01
-1.592742279171943665e-02 7.072283327579498291e-02 -6.391907334327697754e-01
-4.928929507732391357e-01 9.932208806276321411e-02 -2.815096974372863770e-01
1.004305481910705566e-01 1.752623021602630615e-01 1.157141327857971191e-01
-2.699137032032012939e-01 1.687525212764739990e-01 -1.362415403127670288e-01
3.495001196861267090e-01 1.135169789195060730e-01 7.407324910163879395e-01
-3.166002631187438965e-01 1.538292765617370605e-01 -4.083001017570495605e-01
-2.635618150234222412e-01 1.655640155076980591e-01 2.241244614124298096e-01
-3.070243597030639648e-01 1.359434425830841064e-01 -5.854243636131286621e-01
2.186555564403533936e-01 1.663359701633453369e-01 3.025288879871368408e-02
2.490708678960800171e-01 2.596068382263183594e-02 1.650269478559494019e-01
-2.207189798355102539e-02 1.260484755039215088e-02 7.866115123033523560e-02
3.614956140518188477e-01 8.980834484100341797e-02 -2.641684412956237793e-01
2.693677246570587158e-01 3.359889239072799683e-02 6.662043929100036621e-01
-2.201538383960723877e-01 1.629997342824935913e-01 -4.191238880157470703e-01
3.774186074733734131e-01 1.406060755252838135e-01 1.592876017093658447e-01
2.438948899507522583e-01 1.602564007043838501e-01 -1.175855249166488647e-01
-1.242705285549163818e-01 2.013293653726577759e-02 6.420277953147888184e-01
1.049124300479888916e-01 1.342498511075973511e-02 4.644628167152404785e-01
-3.954078257083892822e-01 3.941341862082481384e-02 2.431683987379074097e-01
2.458466142416000366e-01 7.117706537246704102e-02 9.600344896316528320e-01
-3.084265589714050293e-01 1.653356999158859253e-01 -7.350301742553710938e-02
4.235775470733642578e-01 5.972220748662948608e-02 3.912124335765838623e-01
4.185981750488281250e-01 1.244081482291221619e-01 3.824647068977355957e-01
-2.552912235260009766e-01 2.825371176004409790e-02 -1.426623612642288208e-01
7.906090468168258667e-04 1.616911590099334717e-02 6.369965672492980957e-01
-7.700672745704650879e-02 1.879696547985076904e-02 -1.025821417570114136e-01
-7.837419211864471436e-02 1.307596266269683838e-02 6.844957917928695679e-02
1.207668781280517578e-01 7.991242408752441406e-02 -5.998774766921997070e-01
5.815551802515983582e-02 2.891001105308532715e-02 -2.400439232587814331e-01
3.234109580516815186e-01 4.635817557573318481e-02 -3.799588978290557861e-02
-1.505949944257736206e-01 4.583195224404335022e-02 -4.710662961006164551e-01
-1.612475216388702393e-01 1.828944683074951172e-02 -3.408806025981903076e-02
-3.069720566272735596e-01 1.638989001512527466e-01 1.131098121404647827e-01
-4.176675677299499512e-01 1.430488824844360352e-01 2.022070586681365967e-01
3.081040829420089722e-02 1.752279996871948242e-01 -2.018577605485916138e-01
-1.820182204246520996e-01 4.022480919957160950e-02 -3.993394970893859863e-01
2.653713524341583252e-01 1.545165926218032837e-01 -1.754397600889205933e-01
6.116936728358268738e-02 1.064750999212265015e-01 1.009527921676635742e+00
-2.962307818233966827e-02 1.861495524644851685e-02 -9.842540323734283447e-02
-1.996564418077468872e-01 1.736288517713546753e-01 9.275025129318237305e-02
6.980668008327484131e-02 2.034702152013778687e-02 -7.777722179889678955e-02
-1.230425387620925903e-01 1.121369525790214539e-01 -7.428034543991088867e-01
-8.626852929592132568e-02 1.211006194353103638e-02 4.568052887916564941e-01
3.566085100173950195e-01 4.173531755805015564e-02 2.292109876871109009e-01
2.708122730255126953e-01 1.420948803424835205e-01 -3.263739347457885742e-01
1.302188187837600708e-01 1.612398624420166016e-01 -3.684023618698120117e-01
-3.380550444126129150e-01 1.613731384277343750e-01 -1.199580878019332886e-01
-2.252762317657470703e-01 1.272255778312683105e-01 7.775321602821350098e-01
-9.218920767307281494e-02 7.536067813634872437e-02 -6.729774475097656250e-01
2.217520624399185181e-01 1.634317636489868164e-01 3.067312836647033691e-01
-4.560367465019226074e-01 5.401959270238876343e-02 2.460470795631408691e-02
-4.405819475650787354e-01 1.248411685228347778e-01 -3.937439322471618652e-01
3.429440855979919434e-01 1.460969299077987671e-01 -3.057584166526794434e-03
-3.248719871044158936e-01 3.375887125730514526e-02 4.785360097885131836e-01
1.500869095325469971e-01 1.508256047964096069e-02 2.957870364189147949e-01
-2.006130367517471313e-01 1.900433748960494995e-02 4.835442304611206055e-01
-1.281424015760421753e-01 1.584177017211914062e-01 5.651611685752868652e-01
5.776084586977958679e-02 1.763153076171875000e-01 1.685360372066497803e-01
-1.848046630620956421e-01 1.538726687431335449e-02 1.395116895437240601e-01
2.484869807958602905e-01 1.456328630447387695e-01 6.178254485130310059e-01
-4.365128576755523682e-01 8.699154108762741089e-02 -4.291775822639465332e-01
-3.505010902881622314e-01 6.220357120037078857e-02 -4.425869584083557129e-01
-2.146083712577819824e-01 6.522508710622787476e-02 -5.931328535079956055e-01
2.857217490673065186e-01 3.588998317718505859e-02 2.684454619884490967e-02
4.415725767612457275e-01 7.075789570808410645e-02 1.991472840309143066e-01
3.505510091781616211e-01 5.774458870291709900e-02 7.450723052024841309e-01
2.834089845418930054e-02 1.427907496690750122e-02 5.846248269081115723e-01
2.410817295312881470e-01 1.500473320484161377e-01 5.661269426345825195e-01
-3.552190959453582764e-01 4.618851095438003540e-02 5.715071558952331543e-01
2.817255854606628418e-01 3.051006793975830078e-02 5.527232289314270020e-01
1.036656200885772705e-01 3.304844722151756287e-02 -2.593156099319458008e-01
-3.275994658470153809e-01 2.806404232978820801e-02 2.367077469825744629e-01
-1.519934684038162231e-01 7.347436249256134033e-02 -6.592807173728942871e-01
2.948816120624542236e-01 1.226725354790687561e-01 7.760976552963256836e-01
1.047624945640563965e-01 2.558467537164688110e-02 7.736047506332397461e-01
-3.451151549816131592e-01 3.109872341156005859e-02 2.847099304199218750e-01
-4.400197044014930725e-02 7.716805487871170044e-02 -6.746677160263061523e-01
-4.017679095268249512e-01 4.042937606573104858e-02 8.516733348369598389e-02
-1.796433031558990479e-01 2.268192917108535767e-02 -1.265419572591781616e-01
-3.254188895225524902e-01 1.467317640781402588e-01 4.432632327079772949e-01
-1.937451511621475220e-01 5.751397088170051575e-02 -5.519348978996276855e-01
1.608109623193740845e-01 5.593836680054664612e-02 -4.316024780273437500e-01
2.781156003475189209e-01 1.581131070852279663e-01 2.561006546020507812e-01
-1.937049441039562225e-02 1.759400218725204468e-01 2.449860274791717529e-01
3.758110404014587402e-01 1.267483681440353394e-01 5.604315996170043945e-01
3.725588023662567139e-01 8.446763455867767334e-02 7.801474332809448242e-01
4.292731583118438721e-01 7.428966462612152100e-02 5.607784539461135864e-02
-2.903655171394348145e-01 1.492935270071029663e-01 -5.059067010879516602e-01
5.590115115046501160e-02 1.288812309503555298e-01 9.004327654838562012e-01
5.456054583191871643e-02 1.659806370735168457e-01 -3.879410624504089355e-01
2.525589168071746826e-01 2.488401532173156738e-02 4.727658629417419434e-01
9.944973886013031006e-02 1.504890620708465576e-02 1.131070107221603394e-01
3.203389346599578857e-01 7.691581547260284424e-02 8.743702173233032227e-01
-1.953521221876144409e-01 1.602240800857543945e-01 -4.827941060066223145e-01
-1.925029605627059937e-01 1.557769179344177246e-01 -5.360099673271179199e-01
-8.528524637222290039e-02 1.557896286249160767e-02 -1.577819883823394775e-02
1.775410920381546021e-01 1.692965924739837646e-01 2.117731124162673950e-01
-8.954290300607681274e-02 3.667153045535087585e-02 -3.865587115287780762e-01
-1.550070941448211670e-01 2.771473675966262817e-02 7.270391583442687988e-01
3.536150455474853516e-01 5.346276983618736267e-02 7.010656595230102539e-01
-5.161277949810028076e-02 1.496122479438781738e-01 -6.133356690406799316e-01
-3.531224429607391357e-01 4.354556649923324585e-02 -2.254188507795333862e-01
2.742518857121467590e-02 1.732048094272613525e-01 3.264195024967193604e-01
1.064050197601318359e-01 1.531213074922561646e-01 -4.907363057136535645e-01
-4.895507693290710449e-01 7.015617936849594116e-02 2.529107630252838135e-01
1.958087533712387085e-01 7.127451151609420776e-02 -4.867050051689147949e-01
-1.081749796867370605e-01 2.410610020160675049e-02 7.241181135177612305e-01
-1.981768459081649780e-01 1.204435825347900391e-01 8.445912003517150879e-01
-1.549092382192611694e-01 3.427011519670486450e-02 -3.401481509208679199e-01
-6.948746740818023682e-04 1.331275105476379395e-01 8.704974651336669922e-01
-1.365464925765991211e-01 1.376221925020217896e-01 -6.825579404830932617e-01
-1.885589659214019775e-01 1.644260287284851074e-01 4.024429619312286377e-01
-1.224654167890548706e-01 5.139925703406333923e-02 -5.264990329742431641e-01
3.128191232681274414e-01 1.408979743719100952e-01 5.542147159576416016e-01
-3.360095024108886719e-01 1.476100236177444458e-01 -4.496359229087829590e-01
-6.455364078283309937e-02 1.181354373693466187e-02 1.191921457648277283e-01
-1.189259141683578491e-01 2.901766449213027954e-02 -2.800818085670471191e-01
2.929293513298034668e-01 3.053543716669082642e-02 4.913114905357360840e-01
-1.325884610414505005e-01 1.367211788892745972e-01 7.911628484725952148e-01
3.052956461906433105e-01 1.392053663730621338e-01 -2.667518258094787598e-01
1.941369473934173584e-01 1.192595660686492920e-01 -5.631272792816162109e-01
4.207015633583068848e-01 1.196947097778320312e-01 4.530408978462219238e-01
-2.518535852432250977e-01 4.207144677639007568e-02 -3.667405247688293457e-01
3.689140081405639648e-01 1.409975141286849976e-01 4.269549995660781860e-02
1.120711863040924072e-01 1.170069500803947449e-01 9.569205641746520996e-01
7.568599283695220947e-02 1.493433117866516113e-02 5.761934518814086914e-01
1.498659700155258179e-02 1.389209181070327759e-01 8.273184299468994141e-01
-2.843497395515441895e-01 3.726993873715400696e-02 6.405181884765625000e-01
1.706527173519134521e-01 1.572756916284561157e-01 5.510601401329040527e-01
3.425847291946411133e-01 8.850654959678649902e-02 -3.070535659790039062e-01
-4.844448566436767578e-01 1.289318501949310303e-01 2.431158721446990967e-02
-1.551461592316627502e-02 1.785898506641387939e-01 9.010862559080123901e-02
-1.009477823972702026e-01 1.130809634923934937e-02 3.713262081146240234e-01
-1.082507967948913574e-01 1.253687739372253418e-01 8.837459087371826172e-01
3.904716372489929199e-01 1.066005825996398926e-01 6.819555759429931641e-01
3.807877600193023682e-01 4.992527142167091370e-02 1.495957821607589722e-01
-1.649414375424385071e-02 4.965958744287490845e-02 -5.042070746421813965e-01
4.254922568798065186e-01 6.493063271045684814e-02 1.534570902585983276e-01
1.232437193393707275e-01 1.564420014619827271e-01 6.079572439193725586e-01
4.879837110638618469e-02 1.469955146312713623e-01 7.516348361968994141e-01
-1.773636974394321442e-02 6.089398264884948730e-02 -5.855382084846496582e-01
1.785629838705062866e-01 4.591752216219902039e-02 9.200232028961181641e-01
2.509000152349472046e-02 2.159405499696731567e-02 -1.385642737150192261e-01
3.418186902999877930e-01 4.509020596742630005e-02 5.046918988227844238e-02
-1.332591921091079712e-01 4.125665128231048584e-02 8.769298195838928223e-01
1.689538508653640747e-01 1.650271564722061157e-02 4.183868765830993652e-01
2.655839920043945312e-01 4.899167269468307495e-02 -2.148630172014236450e-01
-1.150780767202377319e-01 1.102703213691711426e-01 9.522364735603332520e-01
3.916299045085906982e-01 1.360137313604354858e-01 2.804310917854309082e-01
1.037291735410690308e-01 1.405777782201766968e-02 1.680625230073928833e-01
-3.330872356891632080e-01 3.264977037906646729e-02 -4.933996498584747314e-02
-2.599877119064331055e-02 1.773158162832260132e-01 1.832812130451202393e-01
-2.875156700611114502e-01 2.937296777963638306e-02 -1.007842272520065308e-01
-4.801147580146789551e-01 8.434943854808807373e-02 3.934379220008850098e-01
9.314143657684326172e-02 1.902717351913452148e-02 -2.027538418769836426e-02
-4.831719100475311279e-01 1.105643734335899353e-01 3.206270337104797363e-01
2.099365293979644775e-01 1.997774839401245117e-02 4.355632662773132324e-01
1.612544953823089600e-01 2.576284110546112061e-02 -6.742860376834869385e-02
-3.626323640346527100e-01 3.702488914132118225e-02 3.967281877994537354e-01
1.000590473413467407e-01 1.234567165374755859e-02 3.729891777038574219e-01
-4.250985085964202881e-01 1.265964955091476440e-01 4.113005995750427246e-01
-2.410083264112472534e-02 9.748831391334533691e-03 3.018836379051208496e-01
1.526471674442291260e-01 3.367081657052040100e-02 8.387135863304138184e-01
2.332635670900344849e-01 1.150186508893966675e-01 -5.177337527275085449e-01
-4.521081596612930298e-02 1.790715456008911133e-01 5.568116903305053711e-04
-3.701511919498443604e-01 1.493411958217620850e-01 -3.429935574531555176e-01
-1.075787097215652466e-01 1.471499502658843994e-01 -6.338815689086914062e-01
1.342291831970214844e-01 1.730008721351623535e-01 -4.344905912876129150e-02
2.362786233425140381e-02 1.213683038949966431e-01 9.456609487533569336e-01
-2.864786982536315918e-01 3.972404077649116516e-02 -2.935961484909057617e-01
-4.258947372436523438e-01 6.970982253551483154e-02 5.428192019462585449e-01
-1.439803838729858398e-02 1.081250011920928955e-01 9.990108013153076172e-01
-2.465756237506866455e-01 1.712955832481384277e-01 -5.490574240684509277e-02
2.788067758083343506e-01 1.487917602062225342e-01 -2.292141169309616089e-01
9.502027928829193115e-02 1.496193706989288330e-01 7.110436558723449707e-01
6.868244707584381104e-02 4.391956701874732971e-02 -4.113996028900146484e-01
-5.195477604866027832e-01 8.896419405937194824e-02 1.251216977834701538e-01
3.040025532245635986e-01 6.244270503520965576e-02 -2.590523958206176758e-01
-1.674368232488632202e-01 5.160740762948989868e-02 -5.166912674903869629e-01
1.251683980226516724e-01 1.640504598617553711e-01 4.758740067481994629e-01
-4.488506019115447998e-01 1.324364542961120605e-01 -2.959562540054321289e-01
2.431422919034957886e-01 3.089139610528945923e-02 4.963010549545288086e-03
3.528143465518951416e-01 1.422008872032165527e-01 3.866213262081146240e-01
3.331425786018371582e-01 1.406638175249099731e-01 4.996116161346435547e-01
2.726937532424926758e-01 1.306256651878356934e-01 -4.026042222976684570e-01
1.918910443782806396e-01 2.036806941032409668e-02 1.525330394506454468e-01
1.224096715450286865e-01 1.657016575336456299e-01 -3.073939681053161621e-01
-4.033248424530029297e-01 7.022672891616821289e-02 6.084191203117370605e-01
-3.054361641407012939e-01 1.534280478954315186e-01 3.868513703346252441e-01
-3.175221085548400879e-01 1.276953667402267456e-01 6.486457586288452148e-01
-5.157678127288818359e-01 1.087771058082580566e-01 -9.297896921634674072e-02
3.500581160187721252e-02 1.366842538118362427e-02 7.285052537918090820e-02
1.874343007802963257e-01 1.647268831729888916e-01 3.635764718055725098e-01
-4.389526247978210449e-01 7.421168684959411621e-02 -3.547653555870056152e-01
-1.285417191684246063e-02 3.690780699253082275e-02 -3.795339465141296387e-01
-2.350530475378036499e-01 1.504921764135360718e-01 5.546578764915466309e-01
-3.735336959362030029e-01 1.383901685476303101e-01 4.333352446556091309e-01
-1.518974006175994873e-01 1.756535321474075317e-01 1.244118511676788330e-01
-4.521485269069671631e-01 5.525832623243331909e-02 2.847842574119567871e-01
-2.989499568939208984e-01 2.472923696041107178e-02 2.795993983745574951e-01
4.451064765453338623e-01 9.232831001281738281e-02 5.234715342521667480e-01
-2.145504504442214966e-01 1.725397109985351562e-01 -1.690101176500320435e-01
2.074613869190216064e-01 3.619104996323585510e-02 -1.640500873327255249e-01
2.180401235818862915e-02 1.019134372472763062e-02 2.681703269481658936e-01
3.455994725227355957e-01 1.370162069797515869e-01 -1.604968160390853882e-01
2.030314356088638306e-01 2.903281152248382568e-02 -5.291385948657989502e-02
-1.489855796098709106e-01 1.994954794645309448e-02 -9.206725656986236572e-02
6.411103904247283936e-02 1.107291877269744873e-02 2.871852517127990723e-01
-4.347898811101913452e-02 2.218843996524810791e-02 7.371499538421630859e-01
-2.459019869565963745e-01 1.603664457798004150e-01 3.872636556625366211e-01
-1.253042072057723999e-01 5.774982646107673645e-02 9.655424952507019043e-01
-1.795554533600807190e-02 1.787455081939697266e-01 -5.834640562534332275e-02
2.001137733459472656e-01 1.867896318435668945e-02 3.622971177101135254e-01
3.812358677387237549e-01 1.388308256864547729e-01 9.430965036153793335e-02
2.299367338418960571e-01 5.033335462212562561e-02 9.003533124923706055e-01
-3.147477507591247559e-01 7.494652271270751953e-02 -5.695374608039855957e-01
3.555797040462493896e-01 6.425414979457855225e-02 -1.464366465806961060e-01
1.008377969264984131e-01 1.450964063405990601e-01 7.573357224464416504e-01
-2.726035118103027344e-01 1.177700757980346680e-01 -6.784687638282775879e-01
-3.819214552640914917e-02 4.732847586274147034e-02 9.656448960304260254e-01
-3.509622216224670410e-01 1.138561069965362549e-01 6.736281514167785645e-01
-1.153694838285446167e-01 1.634200960397720337e-01 4.978170394897460938e-01
7.668274641036987305e-02 1.313167065382003784e-02 5.056564211845397949e-01
-6.681033968925476074e-02 1.737601459026336670e-01 3.049504756927490234e-01
-1.202654838562011719e-01 2.084311097860336304e-02 -1.327183395624160767e-01
2.752550542354583740e-01 1.201426684856414795e-01 8.204334378242492676e-01
-2.456729114055633545e-01 1.693614423274993896e-01 -2.171372026205062866e-01
-2.999562025070190430e-01 3.595847636461257935e-02 -2.114637047052383423e-01
2.219155281782150269e-01 1.492952853441238403e-01 -3.591243624687194824e-01
-4.459047690033912659e-02 1.754016429185867310e-01 -2.491316050291061401e-01
-3.187596201896667480e-01 1.334382593631744385e-01 6.008772850036621094e-01
-1.454170346260070801e-01 1.405196636915206909e-02 4.321415424346923828e-01
3.604746162891387939e-01 4.181994870305061340e-02 4.381437897682189941e-01
-2.684532403945922852e-01 1.554272323846817017e-01 -4.669573903083801270e-01
-3.102713525295257568e-01 1.619122326374053955e-01 1.774799972772598267e-01
1.346608549356460571e-01 4.004363343119621277e-02 9.074931144714355469e-01
-2.352288961410522461e-01 3.755304217338562012e-02 -3.260273933410644531e-01
-2.982077300548553467e-01 5.614223703742027283e-02 7.660378813743591309e-01
-3.989646732807159424e-01 1.404973715543746948e-01 3.282847404479980469e-01
-4.403611123561859131e-01 5.013969168066978455e-02 2.408356666564941406e-01
2.579323053359985352e-01 1.541875004768371582e-01 4.557781219482421875e-01
-3.975269794464111328e-01 1.520949155092239380e-01 1.029370725154876709e-02
-1.738721430301666260e-01 1.631797552108764648e-01 4.449898600578308105e-01
-2.045802921056747437e-01 1.864943653345108032e-02 2.951493859291076660e-02
-7.038927078247070312e-02 1.388718187808990479e-02 5.449042916297912598e-01
-1.718259006738662720e-01 1.642093062400817871e-01 -4.442383646965026855e-01
-1.501596122980117798e-01 1.745305806398391724e-01 1.849982142448425293e-01
-6.932054460048675537e-02 1.786357164382934570e-01 6.714705377817153931e-02
-3.525851964950561523e-01 1.546791940927505493e-01 2.193686515092849731e-01
-8.137603104114532471e-02 1.692494451999664307e-01 -3.957017660140991211e-01
3.623533248901367188e-01 4.160341247916221619e-02 3.654050230979919434e-01
1.695131063461303711e-01 1.707293093204498291e-01 -3.758266568183898926e-03
-4.334004819393157959e-01 5.424438044428825378e-02 -1.445082277059555054e-01
-1.901425421237945557e-01 1.695904880762100220e-02 4.375774860382080078e-01
3.926810920238494873e-01 4.952000081539154053e-02 2.884480357170104980e-01
4.230603277683258057e-01 7.114636152982711792e-02 5.846881270408630371e-01
4.475633427500724792e-02 1.524627953767776489e-01 6.919025778770446777e-01
-4.681624770164489746e-01 8.295310288667678833e-02 4.404482245445251465e-01
2.025160938501358032e-02 1.487383991479873657e-02 2.003055810928344727e-02
-1.133415699005126953e-01 1.460730284452438354e-02 5.179842114448547363e-01
3.731542527675628662e-01 4.594331979751586914e-02 4.886834621429443359e-01
2.824285626411437988e-01 2.920591831207275391e-02 2.124699056148529053e-01
7.842531800270080566e-02 2.133087813854217529e-02 7.215152382850646973e-01
-1.497701704502105713e-01 1.769628226757049561e-01 -5.381435155868530273e-03
-7.999198883771896362e-02 3.843260928988456726e-02 8.922237157821655273e-01
1.224037557840347290e-01 1.783921569585800171e-02 6.085149645805358887e-01
1.725035160779953003e-02 1.026093214750289917e-02 3.908094167709350586e-01
6.866075098514556885e-03 1.608722805976867676e-01 5.826082229614257812e-01
1.906466186046600342e-01 1.827018707990646362e-02 2.712652087211608887e-01
3.144167736172676086e-02 8.359346538782119751e-02 -6.710895299911499023e-01
3.133345395326614380e-03 1.108494400978088379e-02 1.639124304056167603e-01
-4.020774364471435547e-01 4.012633487582206726e-02 1.700481027364730835e-01
-2.300492078065872192e-01 3.090194612741470337e-02 -2.306936532258987427e-01
4.377016425132751465e-01 1.056500524282455444e-01 1.475125551223754883e-02
-3.512040972709655762e-01 3.307126462459564209e-02 2.398331463336944580e-02
-1.134108006954193115e-01 1.490303874015808105e-01 6.906709671020507812e-01
-1.458544582128524780e-01 1.715368628501892090e-01 2.947161495685577393e-01
2.592653632164001465e-01 1.617460250854492188e-01 6.442248076200485229e-02
-3.436743468046188354e-02 1.577113866806030273e-01 -5.412419438362121582e-01
-5.463495105504989624e-02 1.011087745428085327e-02 2.475653290748596191e-01
3.457379639148712158e-01 1.247375160455703735e-01 6.647560000419616699e-01
2.479538172483444214e-01 1.594169586896896362e-01 3.508698940277099609e-01
-1.684124395251274109e-02 1.098527014255523682e-02 4.583504199981689453e-01
2.257622331380844116e-01 2.473657578229904175e-02 1.134051457047462463e-01
-8.703653514385223389e-02 8.689237385988235474e-02 1.020387530326843262e+00
2.021297514438629150e-01 2.187403291463851929e-02 5.655671954154968262e-01
3.026843667030334473e-01 4.188149422407150269e-02 7.088273167610168457e-01
-1.433954834938049316e-01 1.769708395004272461e-01 4.382006824016571045e-02
-3.326988518238067627e-01 1.618451774120330811e-01 4.628931730985641479e-02
-2.773147821426391602e-01 2.303689718246459961e-02 9.325025975704193115e-02
1.128459274768829346e-01 1.204218417406082153e-01 -6.454071998596191406e-01
2.008761465549468994e-01 1.590780317783355713e-01 4.742678403854370117e-01
-2.104256600141525269e-01 1.701906025409698486e-01 2.181643396615982056e-01
-3.434455692768096924e-01 7.259574532508850098e-02 7.451060414314270020e-01
3.214060887694358826e-02 1.759971380233764648e-01 2.207100689411163330e-01
-2.868586778640747070e-01 1.428792774677276611e-01 5.640999674797058105e-01
-2.834734879434108734e-02 1.778787672519683838e-01 -1.391263157129287720e-01
-2.825129628181457520e-01 6.250844895839691162e-02 8.174037933349609375e-01
-2.185271233320236206e-01 -3.525161147117614746e-01 6.934327483177185059e-01
-1.536492705345153809e-01 -5.515859127044677734e-01 7.316251397132873535e-01
3.229083493351936340e-02 -3.995142281055450439e-01 7.511340379714965820e-01
1.809115707874298096e-01 -5.745280981063842773e-01 7.059839963912963867e-01
-1.450549364089965820e-01 -4.946953952312469482e-01 7.429953813552856445e-01
-1.238714680075645447e-01 -3.275888860225677490e-01 6.882504224777221680e-01
-1.884239315986633301e-01 -5.518248081207275391e-01 7.267620563507080078e-01
1.610755771398544312e-01 -4.984427988529205322e-01 7.414218783378601074e-01
-1.335181891918182373e-01 -3.144927918910980225e-01 7.369017004966735840e-01
-1.310438215732574463e-01 -4.862003922462463379e-01 7.448180317878723145e-01
-1.134441643953323364e-01 -4.545622766017913818e-01 6.757399439811706543e-01
-1.883552819490432739e-01 -3.854577541351318359e-01 7.422121763229370117e-01
1.295621693134307861e-01 -5.024858117103576660e-01 7.431772351264953613e-01
7.652557641267776489e-02 -2.947911024093627930e-01 7.361027002334594727e-01
-9.346622973680496216e-02 -4.368398785591125488e-01 7.495353221893310547e-01
2.911621034145355225e-01 -3.867812156677246094e-01 7.236338853836059570e-01
-1.787410527467727661e-01 -3.656601309776306152e-01 7.414308190345764160e-01
-3.095742464065551758e-01 -4.437924623489379883e-01 7.070609331130981445e-01
6.634555011987686157e-02 -3.685167133808135986e-01 7.488836646080017090e-01
-2.527548372745513916e-02 -4.480407834053039551e-01 7.509144544601440430e-01
-8.103429339826107025e-03 -3.382335305213928223e-01 6.819466948509216309e-01
-2.879393100738525391e-01 -4.027621448040008545e-01 7.258859872817993164e-01
-1.912995129823684692e-01 -4.155290722846984863e-01 6.821208596229553223e-01
-2.649383842945098877e-01 -4.579734206199645996e-01 7.318517565727233887e-01
2.035613358020782471e-01 -5.410841703414916992e-01 6.929590702056884766e-01
-7.598198950290679932e-02 -3.704446852207183838e-01 6.786842346191406250e-01
-5.542588979005813599e-02 -6.016609668731689453e-01 7.010015845298767090e-01
5.577056482434272766e-02 -5.052853226661682129e-01 7.459748983383178711e-01
9.219245612621307373e-02 -3.687237203121185303e-01 7.480171322822570801e-01
-8.593972772359848022e-03 -5.125111341476440430e-01 7.457054257392883301e-01
-3.849675506353378296e-02 -5.907301902770996094e-01 7.255151867866516113e-01
5.412390455603599548e-02 -4.006132483482360840e-01 6.753188967704772949e-01
1.220103725790977478e-01 -3.677504658699035645e-01 6.810148358345031738e-01
1.176467835903167725e-01 -5.322064757347106934e-01 6.816866397857666016e-01
1.847150549292564392e-02 -3.996796309947967529e-01 6.748549938201904297e-01
-2.276657614856958389e-03 -5.585653185844421387e-01 7.371854782104492188e-01
-9.871850907802581787e-02 -5.261116027832031250e-01 6.795526146888732910e-01
-5.441009998321533203e-02 -5.141788125038146973e-01 7.448163032531738281e-01
-4.369732365012168884e-02 -2.694635987281799316e-01 7.062922120094299316e-01
4.761358350515365601e-02 -5.192768573760986328e-01 7.442638874053955078e-01
4.845727235078811646e-02 -4.277717173099517822e-01 7.511165738105773926e-01
-1.867704242467880249e-01 -4.341677725315093994e-01 7.435652017593383789e-01
3.131233155727386475e-01 -4.458915293216705322e-01 7.111679315567016602e-01
-1.260775774717330933e-01 -3.694473505020141602e-01 6.811687946319580078e-01
2.107235044240951538e-01 -4.660936594009399414e-01 7.399084568023681641e-01
-3.429234027862548828e-02 -4.827472269535064697e-01 6.740241050720214844e-01
2.397335916757583618e-01 -5.449020862579345703e-01 7.076259255409240723e-01
-6.490944325923919678e-02 -5.291811227798461914e-01 7.422040104866027832e-01
-1.711641699075698853e-01 -5.081241130828857422e-01 6.824721693992614746e-01
1.827969998121261597e-01 -3.404923081398010254e-01 7.380815744400024414e-01
-5.627299100160598755e-02 -4.272112548351287842e-01 6.740740537643432617e-01
-3.009488284587860107e-01 -4.371777772903442383e-01 7.226002812385559082e-01
5.686501041054725647e-02 -3.119442462921142578e-01 6.882721185684204102e-01
1.467566192150115967e-01 -5.088288187980651855e-01 7.411229610443115234e-01
2.208886891603469849e-01 -3.716973662376403809e-01 7.377254366874694824e-01
-1.612360030412673950e-01 -5.728530883789062500e-01 6.968458890914916992e-01
-2.649323046207427979e-01 -4.915444850921630859e-01 7.275893688201904297e-01
1.579991430044174194e-01 -5.627976655960083008e-01 6.926048994064331055e-01
2.574065327644348145e-01 -3.363723158836364746e-01 7.102251648902893066e-01
-2.049775868654251099e-01 -5.390222072601318359e-01 6.920526027679443359e-01
1.453047841787338257e-01 -2.864064574241638184e-01 7.063111066818237305e-01
1.381020247936248779e-01 -3.618575930595397949e-01 7.449602484703063965e-01
2.105845510959625244e-01 -4.072495400905609131e-01 7.414036393165588379e-01
-1.807655245065689087e-01 -5.347859859466552734e-01 7.329435348510742188e-01
-2.769992053508758545e-01 -3.669495284557342529e-01 7.048168182373046875e-01
-1.941746026277542114e-01 -3.676794171333312988e-01 7.399731278419494629e-01
-6.558333337306976318e-02 -5.632497072219848633e-01 6.847546696662902832e-01
-2.613709270954132080e-01 -5.020422935485839844e-01 6.954518556594848633e-01
-1.251281797885894775e-01 -3.893837928771972656e-01 6.789820194244384766e-01
2.270669788122177124e-01 -4.006361365318298340e-01 7.391183376312255859e-01
1.861889213323593140e-01 -3.873506784439086914e-01 6.837021708488464355e-01
3.526654466986656189e-02 -4.753678739070892334e-01 6.737768054008483887e-01
2.991105243563652039e-02 -5.040643215179443359e-01 7.466036081314086914e-01
2.928620576858520508e-01 -4.921754002571105957e-01 7.161790132522583008e-01
-2.307980954647064209e-01 -5.193537473678588867e-01 6.920938491821289062e-01
6.282985210418701172e-02 -4.347487390041351318e-01 6.740521192550659180e-01
2.098136693239212036e-01 -4.280390143394470215e-01 6.834888458251953125e-01
5.388328060507774353e-02 -3.073473870754241943e-01 7.404823899269104004e-01
2.417368888854980469e-01 -3.936606943607330322e-01 7.365731596946716309e-01
-3.763035312294960022e-02 -5.237633585929870605e-01 7.437638640403747559e-01
-1.818312145769596100e-02 -5.624076128005981445e-01 6.834166646003723145e-01
-1.967505365610122681e-01 -4.882659912109375000e-01 6.832187771797180176e-01
1.241188123822212219e-01 -5.173990130424499512e-01 7.413790822029113770e-01
1.087778247892856598e-02 -4.882957041263580322e-01 6.740982532501220703e-01
-7.015854120254516602e-02 -4.428676962852478027e-01 6.741052269935607910e-01
-2.375748753547668457e-01 -4.390149414539337158e-01 7.374862432479858398e-01
2.297940701246261597e-01 -3.632501959800720215e-01 6.925305128097534180e-01
-1.836632639169692993e-01 -4.138501286506652832e-01 7.438616156578063965e-01
-7.153942435979843140e-02 -2.828471660614013672e-01 7.312778830528259277e-01
2.949439920485019684e-02 -5.916327238082885742e-01 7.252496480941772461e-01
8.555205166339874268e-02 -2.796926498413085938e-01 7.291830182075500488e-01
3.186007216572761536e-02 -3.643988668918609619e-01 6.783025860786437988e-01
-1.801967322826385498e-01 -5.463589429855346680e-01 6.901302933692932129e-01
-1.003837659955024719e-01 -4.775991737842559814e-01 7.471880316734313965e-01
-1.200128272175788879e-01 -4.693611264228820801e-01 7.468429207801818848e-01
-2.149950861930847168e-01 -5.614404678344726562e-01 7.100949883460998535e-01
2.341352701187133789e-01 -4.211529195308685303e-01 7.386634945869445801e-01
-1.483515799045562744e-01 -2.929475307464599609e-01 7.267192006111145020e-01
-6.678652763366699219e-02 -3.745014965534210205e-01 7.491177320480346680e-01
1.179722845554351807e-01 -3.654882609844207764e-01 7.465270757675170898e-01
-1.414336264133453369e-01 -5.669870376586914062e-01 7.278398871421813965e-01
1.953477412462234497e-01 -3.707090616226196289e-01 6.866445541381835938e-01
-1.347138732671737671e-01 -2.861269712448120117e-01 7.056040763854980469e-01
1.497090756893157959e-01 -4.253723621368408203e-01 7.469456195831298828e-01
1.049715727567672729e-01 -4.827833771705627441e-01 7.466429471969604492e-01
7.811230421066284180e-02 -3.553382158279418945e-01 7.473466992378234863e-01
2.751632593572139740e-02 -5.562299489974975586e-01 6.822668910026550293e-01
-6.103431433439254761e-02 -5.129365921020507812e-01 6.766607165336608887e-01
-1.108659952878952026e-01 -4.024069905281066895e-01 6.772059798240661621e-01
-2.814922928810119629e-01 -4.485509991645812988e-01 7.286341786384582520e-01
1.076725572347640991e-01 -4.045571982860565186e-01 6.768849492073059082e-01
1.755904108285903931e-01 -5.487499237060546875e-01 6.906409263610839844e-01
-2.208188362419605255e-02 -4.689851701259613037e-01 6.734076738357543945e-01
-2.763440907001495361e-01 -3.877609372138977051e-01 7.276088595390319824e-01
-1.645656973123550415e-01 -3.329449295997619629e-01 7.379362583160400391e-01
3.070786297321319580e-01 -4.603523313999176025e-01 7.174814343452453613e-01
-1.547065675258636475e-01 -4.257571995258331299e-01 6.785964369773864746e-01
1.945777684450149536e-01 -5.091359019279479980e-01 7.365261912345886230e-01
-1.239048838615417480e-01 -4.387266337871551514e-01 6.763495206832885742e-01
1.899341195821762085e-01 -3.297830522060394287e-01 6.941976547241210938e-01
1.703346073627471924e-01 -4.133093059062957764e-01 6.803225874900817871e-01
1.011745631694793701e-01 -5.524815320968627930e-01 7.356899380683898926e-01
-2.907610833644866943e-01 -4.128316044807434082e-01 6.994446516036987305e-01
2.617390751838684082e-01 -4.844653308391571045e-01 7.297942638397216797e-01
-1.628375500440597534e-01 -4.855163991451263428e-01 6.798489689826965332e-01
-2.058811187744140625e-01 -5.160425901412963867e-01 7.337605357170104980e-01
9.570012986660003662e-02 -5.106862783432006836e-01 6.778193116188049316e-01
2.761312425136566162e-01 -5.023810267448425293e-01 7.213776707649230957e-01
-1.996663049794733524e-04 -6.028223633766174316e-01 6.996033191680908203e-01
9.129869192838668823e-02 -3.868559598922729492e-01 6.775191426277160645e-01
8.363207429647445679e-02 -4.596714079380035400e-01 6.746041774749755859e-01
1.497797518968582153e-01 -4.902220070362091064e-01 6.793195009231567383e-01
2.135363817214965820e-01 -4.929210841655731201e-01 7.366791367530822754e-01
-1.420167833566665649e-01 -5.232371687889099121e-01 6.818606257438659668e-01
-1.084994822740554810e-01 -3.022588789463043213e-01 6.942346096038818359e-01
1.124509051442146301e-01 -2.850440442562103271e-01 7.292159795761108398e-01
-2.739012837409973145e-01 -4.154294133186340332e-01 6.944555640220642090e-01
-2.187658995389938354e-01 -5.369554758071899414e-01 7.262378931045532227e-01
2.986362874507904053e-01 -4.207901060581207275e-01 7.245495915412902832e-01
1.706431955099105835e-01 -3.913456201553344727e-01 7.446945309638977051e-01
-2.700995504856109619e-01 -5.232228636741638184e-01 7.100341320037841797e-01
2.169179618358612061e-01 -3.285717368125915527e-01 6.993381381034851074e-01
-1.880402565002441406e-01 -2.992991209030151367e-01 7.113727927207946777e-01
-1.153989285230636597e-01 -4.185793995857238770e-01 7.487077116966247559e-01
-4.498180747032165527e-02 -3.319917917251586914e-01 7.451912760734558105e-01
-1.973308175802230835e-01 -3.998384177684783936e-01 7.420850992202758789e-01
-4.389578849077224731e-02 -4.483729898929595947e-01 7.506291270256042480e-01
-2.550489306449890137e-01 -3.450202345848083496e-01 7.229299545288085938e-01
-1.772358566522598267e-01 -5.621605515480041504e-01 6.948539018630981445e-01
-4.566235002130270004e-03 -5.066308975219726562e-01 6.753085851669311523e-01
2.560817897319793701e-01 -4.535524845123291016e-01 6.898775696754455566e-01
2.764652371406555176e-01 -3.614909946918487549e-01 7.228337526321411133e-01
-1.067559272050857544e-01 -5.385453701019287109e-01 7.385884523391723633e-01
1.255558282136917114e-01 -3.940309882164001465e-01 7.479063868522644043e-01
-1.481127887964248657e-01 -4.567370116710662842e-01 7.458935976028442383e-01
2.099030762910842896e-01 -5.347060561180114746e-01 7.285248637199401855e-01
2.186458706855773926e-01 -3.818735182285308838e-01 6.880069971084594727e-01
7.853964716196060181e-02 -5.876084566116333008e-01 6.939293742179870605e-01
1.369932889938354492e-01 -3.258474171161651611e-01 6.893783807754516602e-01
1.046492680907249451e-01 -4.952691197395324707e-01 6.769448518753051758e-01
-2.614208757877349854e-01 -4.676664173603057861e-01 6.913758516311645508e-01
2.473940551280975342e-01 -4.929655790328979492e-01 6.912451982498168945e-01
-9.282428771257400513e-02 -3.307987451553344727e-01 7.431855797767639160e-01
