7.236722856760025024e-03 -1.244398057460784912e-01 2.546105068176984787e-03
-1.902931742370128632e-02 -1.289932057261466980e-02 4.102604836225509644e-02
2.000758051872253418e-02 -8.921997249126434326e-02 -3.580999374389648438e-02
1.973794959485530853e-02 1.230333745479583740e-02 1.165759377181529999e-02
-1.801376231014728546e-02 -8.640465140342712402e-02 -3.281279653310775757e-02
1.569210179150104523e-02 -5.332231521606445312e-04 4.760444909334182739e-02
9.605904109776020050e-03 3.520777076482772827e-02 -3.539080545306205750e-02
9.678185917437076569e-03 -3.855598717927932739e-02 7.242773473262786865e-02
2.247968874871730804e-02 -8.022163808345794678e-02 -2.943233586847782135e-02
1.756693050265312195e-02 -9.477594494819641113e-02 -4.168228060007095337e-02
2.491038292646408081e-02 -6.857929378747940063e-02 -1.306598167866468430e-02
-5.250296089798212051e-03 -5.066235736012458801e-02 -8.445347845554351807e-02
-2.243148721754550934e-02 -6.197469308972358704e-02 2.049862965941429138e-02
-3.541105892509222031e-03 -1.240946054458618164e-01 1.132625527679920197e-02
2.255588583648204803e-02 -9.244786575436592102e-03 -3.774147480726242065e-02
1.203634683042764664e-02 -6.867904216051101685e-03 6.036708503961563110e-02
-9.292806498706340790e-03 -1.156793758273124695e-01 -2.328309416770935059e-02
2.054808847606182098e-02 -8.538052439689636230e-02 2.573391981422901154e-02
-1.496495772153139114e-02 1.204564794898033142e-02 -4.666839540004730225e-02
8.454910479485988617e-03 4.013109952211380005e-02 -2.373652532696723938e-02
-1.222922746092081070e-02 -1.051028072834014893e-01 -3.464798256754875183e-02
-1.183731015771627426e-02 -9.141621738672256470e-02 -5.413457006216049194e-02
-2.008720859885215759e-02 -8.573801070451736450e-02 -1.163594238460063934e-02
2.529909461736679077e-02 -6.318469345569610596e-02 -1.560372021049261093e-02
2.269236743450164795e-02 -4.718105867505073547e-02 -4.933624714612960815e-02
-2.181130647659301758e-02 -6.747052073478698730e-03 1.564972102642059326e-02
-8.119711652398109436e-03 1.538787782192230225e-02 -6.255006045103073120e-02
1.725307479500770569e-02 1.808829605579376221e-02 -3.587845712900161743e-02
-1.581494812853634357e-03 2.672694623470306396e-02 -5.886234343051910400e-02
1.184742059558629990e-02 -2.639267593622207642e-03 -7.275085151195526123e-02
2.603768929839134216e-02 -5.161396041512489319e-02 -5.156487692147493362e-03
-3.865662030875682831e-03 2.492817491292953491e-02 4.677863419055938721e-02
1.390532124787569046e-02 2.043015137314796448e-02 3.202338516712188721e-02
-2.225898578763008118e-02 -4.849776625633239746e-03 -8.310242556035518646e-03
-1.923897303640842438e-02 -9.104511886835098267e-02 -2.160980366170406342e-03
-1.235147379338741302e-02 -6.334867328405380249e-03 -6.795753538608551025e-02
2.019865252077579498e-02 -7.125210016965866089e-02 -5.222870409488677979e-02
-2.070231176912784576e-02 -7.956516742706298828e-02 1.606737822294235229e-02
-1.026330329477787018e-02 2.572406083345413208e-02 3.498731553554534912e-02
2.433914924040436745e-04 3.797537833452224731e-02 -4.259094595909118652e-02
1.608929410576820374e-02 -6.451851874589920044e-02 -6.906635314226150513e-02
-1.093695312738418579e-02 3.627903014421463013e-02 3.627467900514602661e-03
2.425830252468585968e-02 -2.806039154529571533e-02 -3.699079155921936035e-02
-1.592833362519741058e-02 -9.292030334472656250e-02 -3.620146214962005615e-02
-3.531045280396938324e-03 -1.210088804364204407e-01 2.331369742751121521e-02
2.326540835201740265e-02 -1.952667534351348877e-02 2.464678138494491577e-02
1.860493421554565430e-02 -5.710405111312866211e-02 -6.430718302726745605e-02
2.202742546796798706e-02 -4.261306673288345337e-02 -5.321040004491806030e-02
-2.475788351148366928e-03 1.743267476558685303e-02 5.530430376529693604e-02
1.157675683498382568e-02 3.730001300573348999e-02 -3.823158331215381622e-03
-1.335480809211730957e-02 -1.107071787118911743e-01 -4.433612804859876633e-03
-2.173490077257156372e-02 -7.593457400798797607e-02 -1.007720082998275757e-02
1.982193253934383392e-02 -9.874871373176574707e-02 -1.253740303218364716e-02
1.083341334015130997e-02 -1.172328889369964600e-01 -2.663492225110530853e-02
1.054955460131168365e-02 -6.743831932544708252e-02 6.767261773347854614e-02
2.399813942611217499e-02 -7.704521715641021729e-02 -2.135934075340628624e-03
-5.010926630347967148e-03 -1.013206169009208679e-01 5.282434076070785522e-02
-1.750114257447421551e-03 2.266984432935714722e-03 -7.813391089439392090e-02
-9.606092236936092377e-03 -1.040197387337684631e-01 -4.588428139686584473e-02
1.463175471872091293e-02 -4.799170047044754028e-02 6.369476020336151123e-02
-1.654109172523021698e-02 -3.989086672663688660e-02 5.721658468246459961e-02
5.224442109465599060e-03 3.521353006362915039e-02 -4.510965198278427124e-02
-4.658919759094715118e-03 -1.156287193298339844e-01 3.377594053745269775e-02
1.262316294014453888e-02 -9.988892823457717896e-02 -5.247934907674789429e-02
-1.179061736911535263e-02 -2.075825817883014679e-02 -7.404949516057968140e-02
-9.530661627650260925e-03 3.676124662160873413e-02 1.281131990253925323e-02
-2.241253480315208435e-02 -6.592425704002380371e-02 -1.991203427314758301e-02
-1.137073268182575703e-03 -6.771759688854217529e-02 7.491675764322280884e-02
-1.461993716657161713e-02 -8.808669447898864746e-02 4.392489045858383179e-02
-1.108547952026128769e-02 2.389603853225708008e-02 -4.606935381889343262e-02
1.514829974621534348e-02 2.975779026746749878e-02 -4.033753648400306702e-04
1.091651432216167450e-02 6.728652715682983398e-01 3.666164353489875793e-02
-5.964444018900394440e-03 6.380430459976196289e-01 1.925961300730705261e-02
4.664667882025241852e-03 6.685653328895568848e-01 -2.945984154939651489e-02
-5.025655031204223633e-03 5.469569563865661621e-01 5.982499569654464722e-04
2.090796455740928650e-02 5.936496257781982422e-01 3.524116054177284241e-02
2.804829552769660950e-02 5.698323249816894531e-01 1.168788317590951920e-02
2.792642265558242798e-02 6.384326219558715820e-01 -3.580305725336074829e-03
2.144869416952133179e-02 6.970084905624389648e-01 8.073811419308185577e-03
-7.153593935072422028e-03 6.391103267669677734e-01 1.431159581989049911e-02
-7.952732034027576447e-03 6.240627169609069824e-01 1.157376915216445923e-02
3.790742717683315277e-03 5.193380713462829590e-01 1.368992216885089874e-02
2.312884666025638580e-02 6.010191440582275391e-01 3.276986256241798401e-02
1.878837868571281433e-02 7.045915126800537109e-01 1.512993313372135162e-02
2.079817280173301697e-02 6.911303400993347168e-01 2.096258290112018585e-02
-2.638458274304866791e-03 6.640000343322753906e-01 -2.289521694183349609e-02
2.925833314657211304e-02 6.206963062286376953e-01 4.704501479864120483e-03
-2.539861947298049927e-03 5.490323901176452637e-01 1.487071905285120010e-02
-4.847504198551177979e-03 6.340509653091430664e-01 -2.495251037180423737e-02
2.772941812872886658e-02 6.183184385299682617e-01 -1.037223450839519501e-02
2.113137394189834595e-02 5.772463083267211914e-01 3.286880254745483398e-02
-6.644411943852901459e-03 5.724185705184936523e-01 8.516960777342319489e-03
2.097327634692192078e-02 6.370189189910888672e-01 3.560151904821395874e-02
-2.128126099705696106e-03 6.451353430747985840e-01 2.855084091424942017e-02
1.635203510522842407e-02 6.424245834350585938e-01 3.932127356529235840e-02
2.607658505439758301e-02 6.624925136566162109e-01 -2.462632022798061371e-03
-5.911110900342464447e-03 6.688376069068908691e-01 1.130815502256155014e-02
1.841851696372032166e-02 5.699419379234313965e-01 -3.197263926267623901e-02
-3.108575008809566498e-03 5.329856276512145996e-01 -2.271279226988554001e-03
5.591427907347679138e-04 6.686378121376037598e-01 2.979421056807041168e-02
2.713396400213241577e-02 6.520121097564697266e-01 1.539886742830276489e-02
-6.835323758423328400e-03 6.254442334175109863e-01 1.681784540414810181e-02
2.504524961113929749e-02 5.969324111938476562e-01 2.877427451312541962e-02
2.848996967077255249e-02 6.107861399650573730e-01 -7.122771348804235458e-03
2.735668793320655823e-02 6.283158063888549805e-01 2.160996012389659882e-02
2.555103227496147156e-02 5.769644379615783691e-01 2.466555126011371613e-02
1.464714296162128448e-02 5.156564116477966309e-01 -2.190395258367061615e-02
-7.949586026370525360e-03 6.493468880653381348e-01 6.228728219866752625e-03
1.661062240600585938e-02 6.834656596183776855e-01 -2.008220553398132324e-02
-3.241903148591518402e-03 6.693561673164367676e-01 2.167410403490066528e-02
2.511199936270713806e-02 6.328420042991638184e-01 2.843405492603778839e-02
-8.958366699516773224e-03 6.070224046707153320e-01 2.449348568916320801e-03
4.069469869136810303e-03 6.984381675720214844e-01 2.538164146244525909e-02
-2.174703404307365417e-03 6.781352162361145020e-01 -1.859990879893302917e-02
1.616804488003253937e-02 5.834130048751831055e-01 3.778823837637901306e-02
1.720289699733257294e-02 5.435497760772705078e-01 2.863535471260547638e-02
-8.968121372163295746e-03 6.249212026596069336e-01 -7.470226380974054337e-03
2.568358182907104492e-02 5.444474220275878906e-01 -7.868516258895397186e-03
1.574144512414932251e-02 5.390326976776123047e-01 2.802376076579093933e-02
-5.998753942549228668e-03 5.535044670104980469e-01 -6.732087116688489914e-03
2.108174562454223633e-02 5.195236206054687500e-01 -1.100982725620269775e-02
-8.315240032970905304e-03 6.260302066802978516e-01 -1.329669263213872910e-02
2.691533043980598450e-02 6.517823338508605957e-01 -3.876706119626760483e-03
-7.686781696975231171e-03 6.192764639854431152e-01 -1.749877817928791046e-02
-6.514937616884708405e-03 5.835310220718383789e-01 -2.029919065535068512e-02
2.473029866814613342e-02 6.602551937103271484e-01 -1.068992819637060165e-02
1.457226835191249847e-02 6.805538535118103027e-01 3.406043350696563721e-02
2.778174355626106262e-02 5.742461681365966797e-01 -8.738613687455654144e-03
-8.770233951508998871e-03 6.301956176757812500e-01 -8.508364669978618622e-03
1.383570767939090729e-02 6.512730121612548828e-01 -3.193625435233116150e-02
1.824370026588439941e-02 5.342866182327270508e-01 -2.525628916919231415e-02
2.804446592926979065e-02 6.421135067939758301e-01 -3.252694150432944298e-04
1.128154993057250977e-02 7.059431076049804688e-01 -1.409341208636760712e-02
3.058689180761575699e-03 5.142983794212341309e-01 -1.699864491820335388e-02
-4.823608323931694031e-04 5.830332636833190918e-01 2.895813062787055969e-02
2.327266149222850800e-02 6.154001355171203613e-01 3.303040564060211182e-02
1.452908478677272797e-02 5.828714370727539062e-01 -3.646554425358772278e-02
5.356594920158386230e-05 5.544136166572570801e-01 -3.003501519560813904e-02
-2.844035625457763672e-04 5.403672456741333008e-01 1.695315912365913391e-02
2.909934893250465393e-02 5.830379128456115723e-01 1.895595109090209007e-03
1.001069322228431702e-03 7.005635499954223633e-01 1.888516917824745178e-02
7.007969543337821960e-03 5.233272314071655273e-01 -2.699619345366954803e-02
2.909982576966285706e-02 6.178069710731506348e-01 1.169429160654544830e-02
2.089378982782363892e-02 6.489329338073730469e-01 3.443342074751853943e-02
2.127728238701820374e-02 5.442127585411071777e-01 2.421252429485321045e-02
2.226132899522781372e-02 6.064850687980651855e-01 3.439379855990409851e-02
-9.178246371448040009e-03 6.163405179977416992e-01 -4.735758993774652481e-03
-3.067469224333763123e-03 6.951476931571960449e-01 4.623107612133026123e-03
2.849068492650985718e-02 5.763769149780273438e-01 -3.950388170778751373e-03
-8.214241825044155121e-03 5.932626724243164062e-01 6.204215344041585922e-03
1.784362643957138062e-02 5.622716546058654785e-01 -3.178074210882186890e-02
-6.383805535733699799e-03 5.627151727676391602e-01 -1.343891862779855728e-02
2.376917004585266113e-02 5.769709944725036621e-01 -2.347249537706375122e-02
3.574717324227094650e-03 5.432825088500976562e-01 2.493045851588249207e-02
1.867315918207168579e-02 5.102336406707763672e-01 7.225529290735721588e-03
-6.510182283818721771e-03 6.061640381813049316e-01 -2.242448180913925171e-02
3.706770017743110657e-03 5.994536876678466797e-01 -3.766188025474548340e-02
-7.506118156015872955e-03 6.540554165840148926e-01 7.926766760647296906e-03
2.663886547088623047e-02 5.505355596542358398e-01 9.400121867656707764e-03
1.838603988289833069e-02 5.511366724967956543e-01 -2.933094091713428497e-02
8.889436721801757812e-03 6.314364075660705566e-01 4.056734219193458557e-02
-3.438306041061878204e-03 5.902394056320190430e-01 2.424523979425430298e-02
7.170906290411949158e-03 6.394059062004089355e-01 -3.584961593151092529e-02
1.885971240699291229e-02 6.836869120597839355e-01 2.893956750631332397e-02
-9.099167771637439728e-03 6.044656634330749512e-01 -2.123110461980104446e-03
2.108084037899971008e-02 5.225591063499450684e-01 1.288370601832866669e-02
-3.651945851743221283e-03 6.697853803634643555e-01 -1.857182756066322327e-02
2.478575333952903748e-04 6.783625483512878418e-01 -2.271123230457305908e-02
2.618387341499328613e-03 6.399983763694763184e-01 -3.413613140583038330e-02
2.370456978678703308e-02 5.886350274085998535e-01 3.061966970562934875e-02
1.214429736137390137e-02 7.171235084533691406e-01 1.570927351713180542e-02
-8.537144400179386139e-03 6.211157441139221191e-01 -1.242314465343952179e-02
-3.114856779575347900e-03 5.518386363983154297e-01 -2.281623519957065582e-02
1.018937863409519196e-02 5.170395970344543457e-01 -2.484818734228610992e-02
2.668050583451986313e-03 5.699702501296997070e-01 -3.543382138013839722e-02
6.833141669631004333e-04 5.499641299247741699e-01 2.281833067536354065e-02
-7.078862749040126801e-03 5.999996662139892578e-01 -2.014091052114963531e-02
2.154672890901565552e-02 6.849515438079833984e-01 -8.725715801119804382e-03
2.252034284174442291e-02 5.830151438713073730e-01 3.184406086802482605e-02
2.294501662254333496e-02 6.695168018341064453e-01 -1.271090842783451080e-02
2.380284667015075684e-02 6.560407280921936035e-01 2.771441452205181122e-02
9.700590744614601135e-03 5.806640386581420898e-01 3.787847235798835754e-02
2.737029269337654114e-02 5.883543491363525391e-01 -1.307254657149314880e-02
-6.118870340287685394e-03 6.412609219551086426e-01 -2.016279473900794983e-02
-8.556836284697055817e-03 5.946007966995239258e-01 -1.041569653898477554e-02
2.253341488540172577e-03 6.069225072860717773e-01 -3.666696324944496155e-02
1.116342470049858093e-02 5.923423171043395996e-01 3.958313167095184326e-02
2.245259471237659454e-02 6.427394747734069824e-01 3.284539654850959778e-02
2.844560891389846802e-03 5.092837810516357422e-01 -8.529385551810264587e-03
2.866908162832260132e-02 6.358295679092407227e-01 8.179771713912487030e-03
1.967622339725494385e-02 5.104129314422607422e-01 2.109503839164972305e-03
2.636866644024848938e-02 5.446047782897949219e-01 -3.041985910385847092e-04
1.025949232280254364e-02 4.983080923557281494e-01 -4.475821740925312042e-03
1.773679256439208984e-02 5.173388719558715820e-01 -1.858131214976310730e-02
1.366960909217596054e-02 7.128252983093261719e-01 1.890718936920166016e-02
1.305628847330808640e-02 4.999988079071044922e-01 2.838952699676156044e-03
1.761940307915210724e-03 6.221468448638916016e-01 3.536763414740562439e-02
2.006985247135162354e-03 5.255405306816101074e-01 1.412239950150251389e-02
4.119866527616977692e-03 7.102746367454528809e-01 -9.535954333841800690e-03
5.878846626728773117e-03 5.391496419906616211e-01 2.600114978849887848e-02
2.354381978511810303e-02 6.678113341331481934e-01 2.478150464594364166e-02
2.137655764818191528e-02 6.717640161514282227e-01 2.869366109371185303e-02
2.029601484537124634e-03 5.837193131446838379e-01 -3.612541407346725464e-02
2.424747869372367859e-02 6.290788650512695312e-01 -2.066962234675884247e-02
2.308612316846847534e-02 6.623661518096923828e-01 2.779493853449821472e-02
2.938644960522651672e-02 6.104344725608825684e-01 8.459362201392650604e-03
2.436988428235054016e-02 5.585354566574096680e-01 2.285649441182613373e-02
-2.703732810914516449e-03 6.074573993682861328e-01 2.777409926056861877e-02
-7.852564565837383270e-03 5.771719217300415039e-01 -9.413862600922584534e-03
1.373239606618881226e-02 6.576024889945983887e-01 3.882664814591407776e-02
-2.961910329759120941e-03 6.859472393989562988e-01 -1.217275112867355347e-02
6.188564933836460114e-03 5.272766351699829102e-01 2.145056612789630890e-02
1.850986853241920471e-02 5.147421956062316895e-01 1.260841265320777893e-02
1.993091963231563568e-02 5.390086174011230469e-01 -2.400160580873489380e-02
-7.831125520169734955e-03 6.561663150787353516e-01 1.621778821572661400e-03
1.344033796340227127e-02 5.701403021812438965e-01 3.653381764888763428e-02
3.354799933731555939e-03 6.749309301376342773e-01 -2.691336162388324738e-02
2.256589382886886597e-02 6.913469433784484863e-01 4.817068111151456833e-03
1.194650307297706604e-03 5.940518975257873535e-01 3.296106308698654175e-02
-7.118345238268375397e-03 6.342217922210693359e-01 -1.795461401343345642e-02
1.144738402217626572e-02 5.312814116477966309e-01 2.599870413541793823e-02
-7.336626760661602020e-03 6.591788530349731445e-01 6.296836305409669876e-03
1.880013197660446167e-02 5.107189416885375977e-01 -1.024265121668577194e-02
2.726407721638679504e-02 5.804626941680908203e-01 1.974738761782646179e-02
7.998170331120491028e-03 5.615392327308654785e-01 -3.664964437484741211e-02
2.854422479867935181e-02 6.240478754043579102e-01 -4.190488718450069427e-03
1.987208798527717590e-02 6.393716335296630859e-01 -2.758442051708698273e-02
1.701705530285835266e-02 5.058752298355102539e-01 -9.738119319081306458e-03
-6.749578751623630524e-03 6.693952679634094238e-01 9.390365448780357838e-04
2.595993876457214355e-02 5.441114902496337891e-01 8.667122572660446167e-03
-1.439799554646015167e-03 5.921504497528076172e-01 -3.282873705029487610e-02
2.496411837637424469e-02 6.600048542022705078e-01 2.301743999123573303e-02
2.935433387756347656e-02 5.958856344223022461e-01 1.260924153029918671e-03
1.728074997663497925e-02 7.032963037490844727e-01 -7.428656797856092453e-03
-4.585396498441696167e-03 6.627911329269409180e-01 -1.866488531231880188e-02
2.010548859834671021e-02 5.317720174789428711e-01 -2.110819146037101746e-02
2.569901198148727417e-02 6.506888866424560547e-01 -1.075054798275232315e-02
4.290964454412460327e-03 6.638351082801818848e-01 -3.049885667860507965e-02
-7.282619364559650421e-03 5.922792553901672363e-01 1.179808098822832108e-02
-4.457224160432815552e-03 5.467600226402282715e-01 -1.475493609905242920e-02
1.272743009030818939e-02 7.132671475410461426e-01 -6.860579829663038254e-03
1.351975835859775543e-03 6.957544684410095215e-01 2.238546684384346008e-02
1.819681748747825623e-02 6.751786470413208008e-01 3.254466876387596130e-02
2.359503693878650665e-02 5.329108238220214844e-01 1.238953694701194763e-02
8.672974072396755219e-03 6.420435905456542969e-01 4.004796221852302551e-02
1.196661405265331268e-02 7.201576232910156250e-01 9.371933527290821075e-03
-2.033323049545288086e-03 6.346569061279296875e-01 -3.011273033916950226e-02
2.322030067443847656e-02 6.067021489143371582e-01 -2.526256628334522247e-02
2.915403991937637329e-02 5.872107744216918945e-01 8.224778808653354645e-03
1.605854928493499756e-02 5.038073062896728516e-01 4.828588571399450302e-03
1.966333016753196716e-03 5.745766162872314453e-01 3.106474317610263824e-02
2.103278040885925293e-02 5.841765403747558594e-01 -2.929461933672428131e-02
2.867966890335083008e-02 5.821002721786499023e-01 -4.123232793062925339e-03
2.330853790044784546e-02 5.395415425300598145e-01 1.772697456181049347e-02
2.235817909240722656e-02 6.381978392601013184e-01 -2.340406365692615509e-02
-6.747304461896419525e-03 5.818553566932678223e-01 1.159735769033432007e-02
2.566506899893283844e-02 5.391470789909362793e-01 -1.392781152389943600e-03
1.617297530174255371e-02 6.061846613883972168e-01 -3.522368893027305603e-02
-8.159837685525417328e-03 5.841779112815856934e-01 2.564067021012306213e-03
-8.960450999438762665e-03 5.982333421707153320e-01 -2.415881026536226273e-03
1.835269853472709656e-03 5.302861928939819336e-01 1.653645187616348267e-02
1.015811320394277573e-02 5.393593311309814453e-01 2.864840067923069000e-02
2.677532285451889038e-02 6.613833308219909668e-01 9.456128813326358795e-03
1.834688708186149597e-02 6.876931190490722656e-01 -1.534439623355865479e-02
-6.826763041317462921e-03 5.639437437057495117e-01 1.243327977135777473e-03
1.421103999018669128e-02 5.877977013587951660e-01 -3.683856874704360962e-02
2.282726392149925232e-02 5.334125757217407227e-01 -1.457545906305313110e-02
1.851714029908180237e-02 6.971613168716430664e-01 -9.207891300320625305e-03
3.050290513783693314e-03 5.542379021644592285e-01 2.771273814141750336e-02
2.469866350293159485e-02 5.526770353317260742e-01 -1.631252467632293701e-02
-3.011351451277732849e-03 5.596449971199035645e-01 -2.556713484227657318e-02
2.312393859028816223e-02 6.849247813224792480e-01 1.602640934288501740e-02
7.341980934143066406e-03 6.795541644096374512e-01 3.424791619181632996e-02
7.939049042761325836e-03 5.220729708671569824e-01 2.043577283620834351e-02
2.472223155200481415e-02 6.013829708099365234e-01 -2.198834531009197235e-02
-5.903291516005992889e-03 5.669509768486022949e-01 1.000417862087488174e-02
4.591615870594978333e-04 6.482752561569213867e-01 -3.100995160639286041e-02
-1.268986612558364868e-03 6.052513122558593750e-01 -3.324633836746215820e-02
-5.063190124928951263e-03 6.786131858825683594e-01 1.002207584679126740e-02
1.806770823895931244e-02 5.058282017707824707e-01 -3.241706173866987228e-03
2.710246667265892029e-02 5.578756928443908691e-01 -6.677143741399049759e-03
1.620471850037574768e-02 6.596295833587646484e-01 -2.808961085975170135e-02
2.051416784524917603e-02 5.920276641845703125e-01 -3.032467328011989594e-02
1.788055524230003357e-03 7.105206251144409180e-01 1.188040431588888168e-02
3.450037911534309387e-04 5.180950164794921875e-01 9.015255491249263287e-04
2.037135139107704163e-02 6.557626724243164062e-01 -2.329533733427524567e-02
-3.792786970734596252e-03 6.144263744354248047e-01 2.580063790082931519e-02
4.505584482103586197e-03 5.522406697273254395e-01 -3.400016948580741882e-02
-7.699132896959781647e-03 5.860345959663391113e-01 -1.493431255221366882e-02
5.518832243978977203e-03 6.850022077560424805e-01 3.165027499198913574e-02
5.498025566339492798e-04 6.145375370979309082e-01 3.363162651658058167e-02
-7.687802426517009735e-03 5.757081508636474609e-01 2.066211309283971786e-03
2.871469408273696899e-02 5.793222784996032715e-01 1.032022945582866669e-02
4.499174188822507858e-03 7.176970243453979492e-01 5.200848681852221489e-04
2.193088456988334656e-02 5.205749273300170898e-01 7.355797570198774338e-03
-8.401085622608661652e-03 6.061140298843383789e-01 -1.372731570154428482e-02
2.185525745153427124e-02 6.326933503150939941e-01 -2.532175928354263306e-02
2.463573589920997620e-02 6.396373510360717773e-01 -1.759683154523372650e-02
-9.180056862533092499e-03 6.108341217041015625e-01 -1.927830628119409084e-03
2.778922766447067261e-02 6.500889062881469727e-01 7.891923189163208008e-03
9.869565255939960480e-03 6.612452268600463867e-01 -3.168812021613121033e-02
1.096619199961423874e-02 6.779296398162841797e-01 -2.682958170771598816e-02
2.703218162059783936e-02 6.584941744804382324e-01 3.979601897299289703e-03
-5.245301872491836548e-03 6.534362435340881348e-01 1.941824331879615784e-02
3.851926885545253754e-03 7.158533930778503418e-01 1.082064490765333176e-02
2.936577796936035156e-02 5.946713685989379883e-01 7.265717256814241409e-03
4.013697616755962372e-03 5.490415096282958984e-01 2.734175510704517365e-02
5.438334774225950241e-03 5.053508877754211426e-01 3.318294882774353027e-03
2.531139552593231201e-02 5.377961993217468262e-01 6.545401643961668015e-03
2.520280703902244568e-02 5.703348517417907715e-01 -1.880726590752601624e-02
-4.151861183345317841e-03 6.748589873313903809e-01 -1.475312560796737671e-02
2.457331307232379913e-02 5.418054461479187012e-01 -1.225025858730077744e-02
2.296842820942401886e-02 6.816663742065429688e-01 -5.426838062703609467e-03
8.583364076912403107e-03 6.076250076293945312e-01 -3.862230479717254639e-02
1.105521991848945618e-02 7.033746838569641113e-01 2.688008360564708710e-02
-8.483287878334522247e-03 6.454663872718811035e-01 2.081573475152254105e-04
2.890162914991378784e-02 6.060752868652343750e-01 -4.540109541267156601e-03
2.926617115736007690e-02 6.016439795494079590e-01 1.067601889371871948e-02
-8.919929154217243195e-03 6.247705221176147461e-01 3.697407897561788559e-03
-1.438548788428306580e-04 5.238019824028015137e-01 -1.590224914252758026e-02
2.010719478130340576e-02 5.601253509521484375e-01 3.061664104461669922e-02
1.918602734804153442e-03 6.335412859916687012e-01 3.543367609381675720e-02
-5.061656236648559570e-03 6.773500442504882812e-01 -9.184492751955986023e-03
-4.558688960969448090e-03 5.980011224746704102e-01 2.252331189811229706e-02
1.855211704969406128e-02 6.343945860862731934e-01 -3.019533492624759674e-02
2.504380792379379272e-02 5.693905949592590332e-01 2.426343224942684174e-02
1.696561649441719055e-02 7.087459564208984375e-01 -2.487892750650644302e-03
7.798451930284500122e-03 5.962576866149902344e-01 3.894834220409393311e-02
8.856846950948238373e-03 5.945006608963012695e-01 -3.880124911665916443e-02
-3.472533077001571655e-03 6.898697018623352051e-01 1.001211721450090408e-02
2.146728336811065674e-02 5.717374682426452637e-01 3.145772963762283325e-02
-7.105442695319652557e-03 5.796234011650085449e-01 -1.660564169287681580e-02
1.482987124472856522e-02 5.270189642906188965e-01 2.372531406581401825e-02
1.849554851651191711e-02 6.648779511451721191e-01 3.464586287736892700e-02
2.395715191960334778e-02 6.523426175117492676e-01 -1.615813560783863068e-02
1.313513703644275665e-02 6.352357268333435059e-01 4.084621369838714600e-02
6.566818337887525558e-03 6.948928236961364746e-01 -2.081906981766223907e-02
2.771848812699317932e-02 5.602118968963623047e-01 -2.187276259064674377e-03
1.045654527842998505e-02 6.696470379829406738e-01 -2.944237180054187775e-02
2.235196158289909363e-02 6.891303062438964844e-01 -1.465379144065082073e-03
1.010101288557052612e-03 5.272720456123352051e-01 -2.174486219882965088e-02
1.036507822573184967e-02 5.076542496681213379e-01 -1.918268948793411255e-02
2.727313339710235596e-02 6.554014086723327637e-01 1.061587594449520111e-02
2.716498449444770813e-02 5.756670832633972168e-01 1.894289255142211914e-02
2.291467599570751190e-02 6.802192330360412598e-01 2.082932926714420319e-02
6.587731651961803436e-03 5.845041871070861816e-01 3.696825727820396423e-02
3.313168883323669434e-03 5.371991395950317383e-01 2.227968350052833557e-02
-3.514982759952545166e-03 5.389459729194641113e-01 3.840974532067775726e-03
-8.597010746598243713e-04 5.228021144866943359e-01 5.344804376363754272e-04
2.058058045804500580e-02 6.556252241134643555e-01 3.383718058466911316e-02
2.510545030236244202e-02 6.647104620933532715e-01 -6.793445441871881485e-03
2.060981467366218567e-02 6.233989596366882324e-01 3.669834509491920471e-02
2.592954039573669434e-02 6.695807576179504395e-01 7.141676265746355057e-03
6.873849779367446899e-04 7.101247906684875488e-01 2.939469646662473679e-03
1.366727426648139954e-02 5.467028617858886719e-01 3.112698532640933990e-02
-5.123443901538848877e-03 6.666088700294494629e-01 1.621570810675621033e-02
2.139418944716453552e-02 6.800718307495117188e-01 -1.211390364915132523e-02
7.226352114230394363e-03 5.297405123710632324e-01 -2.950376085937023163e-02
-6.881442852318286896e-03 6.480060219764709473e-01 1.393598224967718124e-02
-5.277724005281925201e-03 5.487310290336608887e-01 -9.952307678759098053e-03
1.994774118065834045e-02 6.173353791236877441e-01 3.744789212942123413e-02
2.443207427859306335e-02 5.504678487777709961e-01 1.967873983085155487e-02
2.657651528716087341e-02 5.532512068748474121e-01 -7.738027255982160568e-03
-4.661069251596927643e-03 5.860809087753295898e-01 -2.643106132745742798e-02
2.880543470382690430e-04 6.806426048278808594e-01 2.630897238850593567e-02
2.798645943403244019e-02 6.455329656600952148e-01 1.114396378397941589e-02
5.847597029060125351e-03 5.024026632308959961e-01 -4.192803055047988892e-03
-1.458404585719108582e-04 6.734555363655090332e-01 2.752449922263622284e-02
2.270172163844108582e-02 6.906018257141113281e-01 1.023361738771200180e-02
-8.027707226574420929e-03 6.525797843933105469e-01 -4.132133442908525467e-03
1.788697019219398499e-02 6.530395746231079102e-01 -2.766937203705310822e-02
-8.859224617481231689e-04 6.938188672065734863e-01 -1.295319385826587677e-02
4.482790827751159668e-04 6.557495594024658203e-01 3.176959231495857239e-02
2.354595437645912170e-02 5.301129817962646484e-01 -9.062491357326507568e-03
5.429566837847232819e-03 6.575856804847717285e-01 3.692772239446640015e-02
2.204641327261924744e-02 6.162713766098022461e-01 -2.692172303795814514e-02
-1.117338426411151886e-03 5.376269817352294922e-01 -2.217361144721508026e-02
6.971941329538822174e-03 7.208016514778137207e-01 7.553037256002426147e-03
7.922193035483360291e-04 5.658329725265502930e-01 2.755531854927539825e-02
-5.173204466700553894e-03 6.806797385215759277e-01 -4.841592628508806229e-03
1.909100636839866638e-02 6.256557703018188477e-01 -3.061132319271564484e-02
1.246204040944576263e-02 5.183844566345214844e-01 2.005493640899658203e-02
2.362637035548686981e-02 6.842657923698425293e-01 1.806249725632369518e-03
1.429778151214122772e-02 6.963952183723449707e-01 -1.697790436446666718e-02
2.401133812963962555e-02 5.288378000259399414e-01 -3.547825850546360016e-03
9.476475417613983154e-03 6.086165308952331543e-01 4.045105352997779846e-02
-7.587051950395107269e-03 6.595706343650817871e-01 -2.468929160386323929e-03
9.683851152658462524e-03 5.052862167358398438e-01 9.997811168432235718e-03
-7.101028226315975189e-03 6.645218133926391602e-01 3.820698242634534836e-03
2.669376134872436523e-02 5.876787304878234863e-01 2.321658469736576080e-02
1.069040782749652863e-02 6.553225517272949219e-01 -3.272987157106399536e-02
2.511211112141609192e-02 6.738058328628540039e-01 9.977562585845589638e-04
-3.894544206559658051e-03 5.609486103057861328e-01 1.560419984161853790e-02
2.807515673339366913e-03 7.154002189636230469e-01 4.639320541173219681e-03
2.211672626435756683e-02 5.371987819671630859e-01 -1.856048591434955597e-02
2.113547176122665405e-03 5.582829713821411133e-01 -3.326291218400001526e-02
-2.749560400843620300e-03 5.706789493560791016e-01 -2.851898595690727234e-02
-4.218311980366706848e-03 6.869853734970092773e-01 -4.640433005988597870e-03
2.016868442296981812e-02 6.076666712760925293e-01 -3.055243007838726044e-02
2.811150997877120972e-02 6.154049038887023926e-01 1.933233626186847687e-02
2.578648179769515991e-02 6.644610166549682617e-01 1.688599027693271637e-02
1.689749583601951599e-02 6.468420028686523438e-01 -3.008286096155643463e-02
5.162799730896949768e-03 7.125222086906433105e-01 1.795539632439613342e-02
2.297841943800449371e-02 6.283759474754333496e-01 3.320476040244102478e-02
2.164068445563316345e-02 5.486044287681579590e-01 -2.336445450782775879e-02
-7.592438720166683197e-03 6.402296423912048340e-01 -1.435894612222909927e-02
-5.529866553843021393e-03 5.673238039016723633e-01 -2.007007226347923279e-02
-6.051178090274333954e-03 6.758103370666503906e-01 1.685784896835684776e-03
-8.799405768513679504e-04 5.881311297416687012e-01 2.907652780413627625e-02
2.573837712407112122e-02 6.269274353981018066e-01 2.731558680534362793e-02
1.424163952469825745e-02 6.351227760314941406e-01 -3.427767753601074219e-02
-6.643901579082012177e-03 6.115301251411437988e-01 -2.194917388260364532e-02
-8.723727427423000336e-03 6.023001670837402344e-01 -1.057884283363819122e-02
2.002342604100704193e-03 6.007151007652282715e-01 3.462555631995201111e-02
2.497464418411254883e-02 6.695529222488403320e-01 1.827297918498516083e-02
-7.686062715947628021e-03 5.875399112701416016e-01 8.151601999998092651e-03
1.754838600754737854e-02 6.123399138450622559e-01 3.931775316596031189e-02
2.622004598379135132e-02 6.392792463302612305e-01 -1.237848401069641113e-02
4.754989407956600189e-03 6.458412408828735352e-01 -3.432767465710639954e-02
1.855427399277687073e-02 6.049145460128784180e-01 3.830781206488609314e-02
2.831566333770751953e-02 6.057459712028503418e-01 1.836316287517547607e-02
-6.074023433029651642e-03 5.567505955696105957e-01 -1.112523302435874939e-02
2.826906740665435791e-02 5.947454571723937988e-01 -8.937730453908443451e-03
9.321520105004310608e-03 7.205022573471069336e-01 2.395811607129871845e-04
1.541309617459774017e-02 6.936424374580383301e-01 2.909562177956104279e-02
-1.051974482834339142e-03 6.726064085960388184e-01 -2.287657372653484344e-02
4.859342705458402634e-03 5.441412925720214844e-01 -3.246727585792541504e-02
-2.162450924515724182e-03 5.672915577888488770e-01 2.234595827758312225e-02
2.879278734326362610e-02 6.114735603332519531e-01 1.534844003617763519e-02
7.331777829676866531e-03 5.560344457626342773e-01 3.212423995137214661e-02
1.304863579571247101e-02 5.587826371192932129e-01 -3.524020686745643616e-02
-7.369392551481723785e-03 5.780149698257446289e-01 6.442066747695207596e-03
2.724004536867141724e-02 6.462795138359069824e-01 -4.699168726801872253e-03
7.159729488193988800e-03 5.739934444427490234e-01 3.573128581047058105e-02
-4.876230843365192413e-03 5.519741177558898926e-01 6.839638575911521912e-03
1.999034546315670013e-03 5.596269369125366211e-01 2.778476290404796600e-02
2.305616810917854309e-02 6.624677777290344238e-01 -1.528956927359104156e-02
-8.966729976236820221e-03 6.130664348602294922e-01 -8.882666006684303284e-03
-8.944694884121417999e-03 6.158503890037536621e-01 3.813848830759525299e-03
-3.312454558908939362e-03 5.348368883132934570e-01 -9.631050750613212585e-03
-4.862419329583644867e-03 5.856243968009948730e-01 1.964352466166019440e-02
2.122402749955654144e-02 5.529797077178955078e-01 2.724246121942996979e-02
4.751374945044517517e-04 6.464427113533020020e-01 3.281760960817337036e-02
2.320950105786323547e-02 5.618572235107421875e-01 2.640726231038570404e-02
2.852774411439895630e-02 5.702327489852905273e-01 1.412818557582795620e-03
-4.914609715342521667e-03 6.845350265502929688e-01 1.783652463927865028e-03
2.752792462706565857e-02 5.993278026580810547e-01 -1.276192255318164825e-02
2.348255738615989685e-02 5.663344264030456543e-01 -2.283794246613979340e-02
-4.774623550474643707e-03 5.437893271446228027e-01 -7.754128891974687576e-03
-1.582249999046325684e-03 5.994079709053039551e-01 -3.282939270138740540e-02
-6.790936924517154694e-03 6.646927595138549805e-01 -7.506868336349725723e-03
-4.258581437170505524e-03 6.181191802024841309e-01 -2.788814343512058258e-02
2.117113023996353149e-02 5.288866758346557617e-01 -1.727459765970706940e-02
2.466988936066627502e-02 6.156670451164245605e-01 -2.127999067306518555e-02
9.268691763281822205e-03 6.528373956680297852e-01 3.935601934790611267e-02
-1.751317642629146576e-03 6.270987987518310547e-01 -3.139126300811767578e-02
2.779285609722137451e-02 6.324097514152526855e-01 1.872694864869117737e-02
-8.094585500657558441e-03 6.115747094154357910e-01 1.046870276331901550e-02
9.453049860894680023e-03 5.833979845046997070e-01 -3.847771137952804565e-02
7.296696305274963379e-03 6.132633686065673828e-01 -3.834858909249305725e-02
4.326392430812120438e-03 6.421844959259033203e-01 3.746221959590911865e-02
4.868052434176206589e-03 7.082126736640930176e-01 2.093607932329177856e-02
-4.636645317077636719e-04 7.059315443038940430e-01 6.692929193377494812e-03
-4.435321316123008728e-03 6.855723261833190918e-01 7.629000116139650345e-03
-7.255855016410350800e-03 6.549391746520996094e-01 -1.056930609047412872e-02
-5.805176682770252228e-03 6.151971817016601562e-01 2.036648988723754883e-02
-1.170786097645759583e-03 6.899049282073974609e-01 1.941163092851638794e-02
-8.435883559286594391e-03 5.843835473060607910e-01 -3.651657607406377792e-03
1.302534807473421097e-02 6.305363774299621582e-01 -3.560268878936767578e-02
2.470249868929386139e-02 6.699298024177551270e-01 -5.521032493561506271e-03
5.431812256574630737e-03 5.662015080451965332e-01 3.304988890886306763e-02
1.731085404753684998e-02 5.231222510337829590e-01 2.002487890422344208e-02
1.461724750697612762e-03 7.026890516281127930e-01 -1.166379079222679138e-02
6.286976858973503113e-03 7.167803049087524414e-01 1.503654103726148605e-02
8.500088006258010864e-05 5.176583528518676758e-01 -4.048209171742200851e-03
-3.302183002233505249e-03 6.841160655021667480e-01 1.540631614625453949e-02
2.776396274566650391e-02 6.486144661903381348e-01 2.009640214964747429e-03
-3.468407317996025085e-03 6.409032344818115234e-01 -2.677545323967933655e-02
2.126914262771606445e-02 5.349742770195007324e-01 2.026174217462539673e-02
-7.365704514086246490e-03 5.688456296920776367e-01 -7.407175144180655479e-04
-8.849090896546840668e-03 6.366251707077026367e-01 -3.681121161207556725e-04
8.927845396101474762e-03 5.460834503173828125e-01 3.029446303844451904e-02
3.000426571816205978e-03 6.886843442916870117e-01 2.789944410324096680e-02
2.091830037534236908e-02 6.945507526397705078e-01 -3.138159401714801788e-03
-4.556462168693542480e-03 5.561086535453796387e-01 -1.968329213559627533e-02
-2.461156807839870453e-03 6.362286210060119629e-01 2.854467555880546570e-02
1.006070524454116821e-04 6.411567926406860352e-01 3.267417475581169128e-02
-3.825229592621326447e-03 5.459218025207519531e-01 8.159629069268703461e-03
2.628601714968681335e-02 5.557017922401428223e-01 1.516638696193695068e-02
4.550575744360685349e-03 7.030111551284790039e-01 -1.546298339962959290e-02
-6.326812319457530975e-03 6.725749969482421875e-01 -3.155162557959556580e-03
1.587738841772079468e-02 5.086930394172668457e-01 1.141812372952699661e-02
2.719325944781303406e-02 5.521495342254638672e-01 1.958738779649138451e-03
1.396853663027286530e-02 5.404211878776550293e-01 -3.132691979408264160e-02
7.266174070537090302e-03 5.110182166099548340e-01 1.286301761865615845e-02
3.471215255558490753e-03 5.291445851325988770e-01 -2.656412310898303986e-02
-6.719931028783321381e-03 6.563141345977783203e-01 1.233615074306726456e-02
-5.482542328536510468e-03 6.793923377990722656e-01 5.090655758976936340e-03
2.813271805644035339e-02 5.642949938774108887e-01 2.987047773785889149e-04
2.620772644877433777e-02 5.780528783798217773e-01 -1.659675315022468567e-02
-5.428783595561981201e-03 5.805200934410095215e-01 1.664036326110363007e-02
2.592679578810930252e-03 6.280939579010009766e-01 -3.556713089346885681e-02
-4.549887962639331818e-03 6.074218750000000000e-01 -2.766538225114345551e-02
1.908218488097190857e-02 6.902647614479064941e-01 2.569917403161525726e-02
1.466876454651355743e-02 6.698362231254577637e-01 -2.688116021454334259e-02
7.950344122946262360e-03 6.742009520530700684e-01 -2.858115173876285553e-02
1.840505935251712799e-02 6.989149451255798340e-01 2.194631658494472504e-02
-2.349952235817909241e-03 5.297902226448059082e-01 -1.035353541374206543e-02
1.436286047101020813e-02 7.169093489646911621e-01 2.684561070054769516e-03
2.255875617265701294e-02 5.207267999649047852e-01 1.321982825174927711e-03
-8.552447892725467682e-03 5.895708203315734863e-01 6.133866263553500175e-04
-6.228792481124401093e-03 5.949294567108154297e-01 -2.282916195690631866e-02
-5.979240871965885162e-03 6.331848502159118652e-01 1.960933953523635864e-02
2.853835374116897583e-02 6.329756975173950195e-01 1.288155000656843185e-02
1.163931377232074738e-02 5.713065266609191895e-01 -3.721445426344871521e-02
-6.377584300935268402e-03 6.043350696563720703e-01 1.761349104344844818e-02
1.965682022273540497e-03 6.624171733856201172e-01 3.287737816572189331e-02
1.631296612322330475e-02 6.699719429016113281e-01 3.551239520311355591e-02
2.354140020906925201e-02 5.573596954345703125e-01 -2.101214416325092316e-02
-1.065351068973541260e-03 5.322031974792480469e-01 -1.926663331687450409e-02
2.317627333104610443e-02 5.269271135330200195e-01 8.532248437404632568e-03
2.744408324360847473e-02 5.644810199737548828e-01 1.327171083539724350e-02
-6.477742455899715424e-03 6.288764476776123047e-01 -2.115011587738990784e-02
-5.596708506345748901e-04 5.246480703353881836e-01 5.183499306440353394e-03
-1.057166606187820435e-03 5.353445410728454590e-01 1.208727806806564331e-02
1.768725737929344177e-02 5.977267622947692871e-01 3.844659402966499329e-02
2.568900771439075470e-02 6.680355668067932129e-01 -4.812767729163169861e-04
5.793026182800531387e-03 6.585189700126647949e-01 -3.225769102573394775e-02
2.559130638837814331e-02 5.614997148513793945e-01 -1.568213477730751038e-02
1.543041877448558807e-02 6.172910332679748535e-01 4.049597680568695068e-02
-3.373137675225734711e-03 6.624119877815246582e-01 2.309941686689853668e-02
1.063845399767160416e-02 6.948111653327941895e-01 3.061213716864585876e-02
2.856297418475151062e-02 6.193324923515319824e-01 1.631438359618186951e-02
1.462204381823539734e-02 5.771463513374328613e-01 3.745836392045021057e-02
-6.727126426994800568e-03 5.884456038475036621e-01 -2.029192820191383362e-02
2.652681618928909302e-02 6.021866202354431152e-01 -1.661572977900505066e-02
2.720406278967857361e-02 6.304532885551452637e-01 -1.047271769493818283e-02
-5.169715732336044312e-03 6.487454771995544434e-01 2.052034996449947357e-02
1.511153113096952438e-02 6.891834735870361328e-01 3.105722367763519287e-02
1.610015518963336945e-02 7.142678499221801758e-01 7.598358206450939178e-03
4.956390708684921265e-03 5.061534643173217773e-01 -1.218318473547697067e-02
-3.619967959821224213e-03 5.765621662139892578e-01 2.113593183457851410e-02
1.863822340965270996e-03 5.185703635215759277e-01 8.435137569904327393e-03
2.556719072163105011e-02 6.352632045745849609e-01 -1.571833528578281403e-02
6.471034605056047440e-03 6.364841461181640625e-01 3.929599374532699585e-02
2.152586355805397034e-02 6.469228267669677734e-01 -2.328346110880374908e-02
2.648613974452018738e-02 5.682719945907592773e-01 -1.381288748234510422e-02
2.903810515999794006e-02 6.260753870010375977e-01 9.166635572910308838e-03
5.621402058750391006e-03 5.095068216323852539e-01 -1.757595315575599670e-02
2.091753110289573669e-02 6.673713326454162598e-01 3.081140294671058655e-02
-4.973406903445720673e-03 6.259762644767761230e-01 2.297701686620712280e-02
2.849338948726654053e-02 6.380665898323059082e-01 2.780692186206579208e-03
7.592746987938880920e-03 6.215798258781433105e-01 4.011736065149307251e-02
-6.069236434996128082e-03 5.580306053161621094e-01 3.206989727914333344e-03
2.496954984962940216e-02 5.453050136566162109e-01 1.524785999208688736e-02
-2.389875240623950958e-03 6.982498168945312500e-01 -7.737771375104784966e-04
8.691125549376010895e-03 5.037704706192016602e-01 -1.517655886709690094e-02
2.022991888225078583e-02 6.906086206436157227e-01 -9.109200909733772278e-03
-3.651345148682594299e-03 5.900805592536926270e-01 -2.902451716363430023e-02
2.635534852743148804e-02 6.187731623649597168e-01 2.600478194653987885e-02
2.415050566196441650e-02 6.826041936874389648e-01 7.222125306725502014e-03
2.101080492138862610e-02 6.732103228569030762e-01 -1.631115563213825226e-02
-4.762738011777400970e-03 6.727120876312255859e-01 1.522320974618196487e-02
2.003188617527484894e-02 5.297658443450927734e-01 1.987679116427898407e-02
2.265268005430698395e-03 6.197146177291870117e-01 -3.606127202510833740e-02
-4.008700139820575714e-03 5.783091187477111816e-01 -2.701526693999767303e-02
2.412769943475723267e-02 6.750547289848327637e-01 -4.819786176085472107e-03
2.297360450029373169e-02 5.244241952896118164e-01 -6.078583654016256332e-03
2.470850571990013123e-02 5.335505604743957520e-01 -4.183423239737749100e-03
-7.016490213572978973e-03 5.675312876701354980e-01 -1.142250839620828629e-02
5.022381898015737534e-03 6.068325638771057129e-01 3.800410777330398560e-02
2.016644552350044250e-02 -4.073945581912994385e-01 1.721576452255249023e-01
-5.930001381784677505e-03 -3.078963160514831543e-01 1.523474901914596558e-01
-2.879333123564720154e-02 -3.775555789470672607e-01 2.690974622964859009e-02
-1.224145479500293732e-02 -4.438660442829132080e-01 -7.641506195068359375e-02
-2.841370366513729095e-02 -3.986929655075073242e-01 1.179203838109970093e-01
2.243791706860065460e-02 -4.303905963897705078e-01 9.419557452201843262e-02
-2.425587736070156097e-02 -3.467753529548645020e-01 -6.881508976221084595e-03
2.632915042340755463e-02 -4.099049866199493408e-01 4.840739816427230835e-02
2.433459274470806122e-02 -3.662240505218505859e-01 1.540329307317733765e-01
-1.222033705562353134e-02 -2.985860705375671387e-01 6.633803993463516235e-02
-8.698699995875358582e-03 -4.851857125759124756e-01 1.121406704187393188e-01
2.026389911770820618e-02 -4.396826922893524170e-01 2.665605582296848297e-02
-2.363236621022224426e-02 -4.514892697334289551e-01 -1.399777829647064209e-04
2.855820767581462860e-02 -3.608428835868835449e-01 -3.013487905263900757e-03
-2.875709719955921173e-02 -4.166978299617767334e-01 1.100400760769844055e-01
1.927766762673854828e-02 -3.961654603481292725e-01 1.862247139215469360e-01
-2.379018813371658325e-02 -4.062657654285430908e-01 1.724923700094223022e-01
2.826988138258457184e-02 -3.863615095615386963e-01 1.865804940462112427e-02
1.765879429876804352e-02 -2.921433150768280029e-01 8.538047969341278076e-02
2.467227168381214142e-02 -4.177276194095611572e-01 2.329532243311405182e-02
2.837444469332695007e-02 -3.467179834842681885e-01 9.008069336414337158e-02
1.851688511669635773e-02 -3.664014041423797607e-01 1.935439854860305786e-01
2.183780260384082794e-02 -4.296064674854278564e-01 1.124971061944961548e-01
-2.956718765199184418e-02 -4.187430739402770996e-01 4.032617807388305664e-02
-2.920670248568058014e-02 -4.127685725688934326e-01 1.881449297070503235e-02
-2.795905992388725281e-02 -3.663969039916992188e-01 3.195403516292572021e-02
-2.826310135424137115e-02 -4.379709959030151367e-01 5.576028302311897278e-02
1.991365291178226471e-02 -4.421543478965759277e-01 9.184531867504119873e-02
1.895575970411300659e-02 -3.970240950584411621e-01 -7.902272045612335205e-02
-2.769025228917598724e-02 -3.827751874923706055e-01 -9.332425892353057861e-03
1.057650893926620483e-02 -4.430946409702301025e-01 -5.786805227398872375e-02
2.465387992560863495e-02 -3.401112854480743408e-01 -5.086795613169670105e-02
-2.299534156918525696e-02 -3.484490811824798584e-01 -3.100008144974708557e-02
-8.476888760924339294e-03 -3.179724812507629395e-01 -8.571667969226837158e-02
-2.588263014331459999e-03 -2.922209203243255615e-01 -4.783609136939048767e-02
-5.768000613898038864e-03 -4.864686727523803711e-01 4.427224397659301758e-02
-2.092966437339782715e-02 -4.165991842746734619e-01 -6.954419612884521484e-02
-2.411305531859397888e-02 -4.394305348396301270e-01 -2.091524377465248108e-02
1.848253607749938965e-02 -3.300362229347229004e-01 -8.652441203594207764e-02
2.919285371899604797e-02 -3.662015795707702637e-01 7.802048325538635254e-02
2.239235304296016693e-02 -3.163334429264068604e-01 -4.432159289717674255e-02
-2.773563005030155182e-02 -3.888055980205535889e-01 1.229510903358459473e-01
-2.745766006410121918e-02 -4.346207380294799805e-01 1.508892700076103210e-02
1.121078338474035263e-02 -4.676320552825927734e-01 1.009494066238403320e-01
-2.579682692885398865e-02 -4.109881520271301270e-01 1.542161256074905396e-01
2.179559320211410522e-02 -3.064628541469573975e-01 9.990808367729187012e-02
-1.668059267103672028e-02 -4.803933203220367432e-01 8.143757283687591553e-02
-1.892510987818241119e-02 -3.905803561210632324e-01 2.002524882555007935e-01
2.145484648644924164e-02 -3.349141478538513184e-01 -7.306785881519317627e-02
2.001890353858470917e-02 -3.022300004959106445e-01 -3.368290141224861145e-02
2.107116021215915680e-02 -4.055525660514831543e-01 -5.454779043793678284e-02
-1.986134302569553256e-04 -4.353686571121215820e-01 2.234449833631515503e-01
-2.399203926324844360e-02 -3.818685710430145264e-01 -5.434066429734230042e-02
-1.754888519644737244e-02 -4.733225107192993164e-01 1.632179319858551025e-02
1.598297618329524994e-02 -3.997882008552551270e-01 -9.255619347095489502e-02
-1.048892084509134293e-02 -4.210091233253479004e-01 -1.053008437156677246e-01
2.531756646931171417e-02 -3.350953459739685059e-01 1.230228543281555176e-01
-2.375363837927579880e-04 -2.807726562023162842e-01 5.987100675702095032e-02
-2.476113103330135345e-02 -4.546988010406494141e-01 2.775282040238380432e-02
9.090888313949108124e-03 -4.387115240097045898e-01 1.990829855203628540e-01
