-1.364810466766357422e-01 -1.665174067020416260e-01 -1.644301563501358032e-01
-2.254782989621162415e-02 -1.405430138111114502e-01 3.123542964458465576e-01
-1.502073556184768677e-01 -8.783486485481262207e-02 -2.213272303342819214e-01
-1.310088336467742920e-01 -1.811267435550689697e-01 1.905788779258728027e-01
-2.028153091669082642e-01 -1.013049185276031494e-01 -1.123766899108886719e-01
8.130513131618499756e-03 -1.723403930664062500e-01 -8.648152649402618408e-02
-2.115893810987472534e-01 -1.488717496395111084e-01 2.620449289679527283e-03
-7.617785036563873291e-02 -9.847886860370635986e-02 3.219391107559204102e-01
-2.248869836330413818e-02 -6.684661656618118286e-02 -8.771219849586486816e-02
-8.847427368164062500e-02 -1.342232972383499146e-01 3.711597025394439697e-01
-8.841633796691894531e-03 -1.670001000165939331e-01 2.182155102491378784e-01
-9.947366267442703247e-02 -5.992332100868225098e-02 -7.460334897041320801e-02
-1.050145402550697327e-01 -1.626558005809783936e-01 -2.242402881383895874e-01
3.124544024467468262e-02 -9.052781760692596436e-02 -1.278570145368576050e-01
-1.285604536533355713e-01 -8.015935122966766357e-02 -2.254453003406524658e-01
-1.904180645942687988e-01 -1.076950803399085999e-01 -1.713233739137649536e-01
-7.764919847249984741e-02 -7.017512619495391846e-02 1.831064373254776001e-01
-4.246520996093750000e-02 -9.192857891321182251e-02 2.708591222763061523e-01
1.249860227108001709e-02 -1.333432942628860474e-01 -2.619940936565399170e-01
-5.759112164378166199e-02 -1.035407707095146179e-01 3.223384022712707520e-01
-6.634071469306945801e-02 -6.820379197597503662e-02 -1.894002258777618408e-01
-7.978302985429763794e-02 -1.841101050376892090e-01 1.961732059717178345e-01
3.332925587892532349e-02 -1.593554615974426270e-01 -9.972989559173583984e-02
-1.663715094327926636e-01 -6.918929517269134521e-02 4.120539873838424683e-02
-7.781185209751129150e-03 -1.785895973443984985e-01 -6.339943408966064453e-02
-1.059462875127792358e-02 -1.075126826763153076e-01 -2.969917356967926025e-01
2.150846272706985474e-02 -1.666942834854125977e-01 1.070754379034042358e-01
-1.605630218982696533e-01 -1.587975174188613892e-01 -1.563979536294937134e-01
5.188770592212677002e-02 -1.408705115318298340e-01 -1.052003502845764160e-01
3.218474239110946655e-02 -1.558652669191360474e-01 -1.341225206851959229e-01
-1.228406131267547607e-01 -8.602702617645263672e-02 -2.553485631942749023e-01
2.362865209579467773e-02 -1.595264077186584473e-01 1.521794199943542480e-01
-1.306378841400146484e-01 -1.854850649833679199e-01 6.539109349250793457e-02
-2.143687903881072998e-01 -1.016177088022232056e-01 1.556291729211807251e-01
-1.089593470096588135e-01 -9.057445079088211060e-02 -2.819520235061645508e-01
-6.510403752326965332e-02 -1.765004694461822510e-01 2.514522075653076172e-01
-1.090369299054145813e-01 -1.731140315532684326e-01 -1.623764932155609131e-01
3.954857587814331055e-02 -1.554511189460754395e-01 8.725903928279876709e-02
-1.643301248550415039e-01 -7.258438318967819214e-02 -9.042523801326751709e-02
1.645866036415100098e-02 -1.727926582098007202e-01 -9.526442736387252808e-03
4.413640499114990234e-02 -1.443853229284286499e-01 -1.398917883634567261e-01
4.114668071269989014e-02 -9.370560944080352783e-02 -3.776662051677703857e-02
-1.045419275760650635e-01 -1.836252212524414062e-01 1.969054490327835083e-01
-1.476951837539672852e-01 -1.411090195178985596e-01 3.496469855308532715e-01
-1.400648355484008789e-01 -8.702200651168823242e-02 -2.357492744922637939e-01
-2.103852182626724243e-01 -1.531772464513778687e-01 1.118067502975463867e-01
-1.441560685634613037e-02 -1.810330152511596680e-01 -4.649638757109642029e-02
-2.228716164827346802e-01 -1.386786252260208130e-01 1.073215752840042114e-01
-4.575884714722633362e-02 -1.843704581260681152e-01 1.558314859867095947e-01
-9.948162734508514404e-02 -1.205930411815643311e-01 -3.195327222347259521e-01
-4.005646705627441406e-02 -6.580344587564468384e-02 7.845024764537811279e-02
-1.554327309131622314e-01 -1.787929534912109375e-01 1.392637491226196289e-01
2.156753838062286377e-02 -1.295675784349441528e-01 -2.482238411903381348e-01
-2.253730595111846924e-01 -1.270894706249237061e-01 1.025210414081811905e-02
-3.014004230499267578e-02 -1.739323735237121582e-01 2.231851220130920410e-01
-1.086380705237388611e-01 -7.611581683158874512e-02 2.329151630401611328e-01
-5.759493261575698853e-02 -1.891351342201232910e-01 5.795387178659439087e-02
-1.967545151710510254e-01 -1.628196537494659424e-01 5.332576856017112732e-02
3.135368227958679199e-02 -1.478984206914901733e-01 -1.792863309383392334e-01
-1.262744069099426270e-01 -8.666566759347915649e-02 2.828746736049652100e-01
-2.181289345026016235e-01 -9.796911478042602539e-02 4.394603520631790161e-02
-7.339693605899810791e-02 -1.053814888000488281e-01 3.377298712730407715e-01
4.519805312156677246e-02 -1.522509157657623291e-01 6.391765177249908447e-02
3.137609362602233887e-02 -1.654779016971588135e-01 -8.719468489289283752e-03
-7.124237716197967529e-02 -1.838458329439163208e-01 -9.270611405372619629e-02
-2.409374341368675232e-02 -1.650714874267578125e-01 2.586712837219238281e-01
-4.040348902344703674e-02 -1.874504387378692627e-01 5.385777726769447327e-02
-9.121844172477722168e-02 -1.047277450561523438e-01 3.435494899749755859e-01
-1.827272176742553711e-01 -1.053399443626403809e-01 -1.904963999986648560e-01
-8.620289713144302368e-02 -1.082471162080764771e-01 -3.232920765876770020e-01
-1.216035336256027222e-02 -8.531959354877471924e-02 -2.392794787883758545e-01
-2.470457181334495544e-02 -1.676649153232574463e-01 -1.972536146640777588e-01
-1.988708078861236572e-01 -1.574787795543670654e-01 -1.579245924949645996e-02
-5.987641215324401855e-02 -8.816772699356079102e-02 2.745736837387084961e-01
-1.237757802009582520e-01 -1.074961423873901367e-01 -2.965089380741119385e-01
1.014925539493560791e-02 -1.562918424606323242e-01 2.143119424581527710e-01
-1.215649843215942383e-01 -7.486791163682937622e-02 2.200075984001159668e-01
-1.795641183853149414e-01 -7.660713046789169312e-02 1.182887852191925049e-01
-3.068649396300315857e-02 -1.557697057723999023e-01 2.993115186691284180e-01
-5.637425929307937622e-02 -1.872424185276031494e-01 1.283478140830993652e-01
-1.735621690750122070e-01 -1.216452494263648987e-01 3.230051100254058838e-01
-7.697358727455139160e-02 -1.884933859109878540e-01 -1.455529779195785522e-02
-1.473200023174285889e-01 -1.783628165721893311e-01 -3.430069983005523682e-02
-1.561460196971893311e-01 -8.320683985948562622e-02 2.372454255819320679e-01
-7.618999481201171875e-02 -5.905994772911071777e-02 7.224950939416885376e-03
-1.838507652282714844e-01 -8.142790198326110840e-02 -9.176424145698547363e-02
-1.034422367811203003e-01 -8.066149055957794189e-02 2.596984505653381348e-01
5.138768255710601807e-02 -1.072652041912078857e-01 -9.912568330764770508e-02
3.978212922811508179e-02 -1.081970110535621643e-01 1.189720779657363892e-01
-1.808831691741943359e-01 -7.403878122568130493e-02 3.094497695565223694e-02
-4.147098585963249207e-02 -1.782550364732742310e-01 2.116973400115966797e-01
-1.431071013212203979e-01 -1.600438803434371948e-01 -1.866340190172195435e-01
-1.822993308305740356e-01 -1.705398559570312500e-01 8.854837715625762939e-02
-9.309835731983184814e-02 -6.067585945129394531e-02 -9.772321581840515137e-02
-1.887252181768417358e-02 -1.803069561719894409e-01 -7.543958723545074463e-02
-1.076127812266349792e-01 -7.500764727592468262e-02 -2.229318618774414062e-01
1.414719223976135254e-02 -1.725878864526748657e-01 -4.565151408314704895e-02
-5.889533460140228271e-02 -1.890113353729248047e-01 7.848196476697921753e-02
-9.862838685512542725e-02 -6.602107733488082886e-02 -1.651573330163955688e-01
-1.360089778900146484e-01 -1.016427427530288696e-01 3.290204405784606934e-01
-9.744806587696075439e-02 -1.782043278217315674e-01 -1.354945898056030273e-01
-8.723244071006774902e-03 -1.340441852807998657e-01 2.929721474647521973e-01
-7.863079011440277100e-02 -1.884117424488067627e-01 1.287735551595687866e-01
-2.023346722126007080e-03 -1.696691215038299561e-01 -1.461928933858871460e-01
-4.444601386785507202e-02 -8.398038148880004883e-02 2.382335960865020752e-01
-1.193164288997650146e-01 -1.618285328149795532e-01 -2.134411931037902832e-01
-9.994822740554809570e-02 -1.561584174633026123e-01 3.449271321296691895e-01
-1.956263780593872070e-01 -8.154861629009246826e-02 7.642982155084609985e-02
-1.608203947544097900e-01 -1.377010047435760498e-01 3.389146029949188232e-01
-7.056438922882080078e-02 -6.294746696949005127e-02 -1.343256086111068726e-01
-2.250874042510986328e-01 -1.345748752355575562e-01 5.225802212953567505e-02
-8.072905987501144409e-02 -1.675424575805664062e-01 3.055927157402038574e-01
-1.549427211284637451e-02 -9.315905719995498657e-02 2.327487766742706299e-01
-2.160741984844207764e-01 -1.356138437986373901e-01 -4.483691975474357605e-02
-1.730795800685882568e-01 -1.740314662456512451e-01 1.089175194501876831e-01
2.652086317539215088e-03 -1.451530456542968750e-01 -2.544992566108703613e-01
-1.946090459823608398e-01 -1.290144175291061401e-01 -1.566922664642333984e-01
-1.113736778497695923e-01 -1.572439670562744141e-01 -2.408963441848754883e-01
2.318534255027770996e-02 -8.214631676673889160e-02 -4.612195864319801331e-02
-1.528315693140029907e-01 -1.782107353210449219e-01 -1.204798370599746704e-02
-2.262913137674331665e-01 -1.207536309957504272e-01 1.251943409442901611e-01
-1.412493884563446045e-01 -7.617404311895370483e-02 2.121035605669021606e-01
-1.694087386131286621e-01 -1.753261089324951172e-01 5.074403434991836548e-02
-1.320148408412933350e-01 -1.374052315950393677e-01 -2.726813256740570068e-01
-1.975318640470504761e-01 -1.315048336982727051e-01 2.735604941844940186e-01
1.194632798433303833e-02 -1.006352305412292480e-01 1.962505728006362915e-01
-1.359943151473999023e-01 -1.826321929693222046e-01 1.529101133346557617e-01
-1.550108194351196289e-01 -6.719452887773513794e-02 7.598455250263214111e-02
-1.658724844455718994e-01 -1.448818743228912354e-01 -1.986051797866821289e-01
-9.949808567762374878e-02 -1.418415307998657227e-01 -2.946090102195739746e-01
-5.348998308181762695e-02 -1.888369917869567871e-01 4.093167930841445923e-02
-1.636084914207458496e-02 -1.544266045093536377e-01 2.799675166606903076e-01
-3.104826807975769043e-02 -1.468622088432312012e-01 -2.856263220310211182e-01
-1.433543562889099121e-01 -6.431460380554199219e-02 6.087338179349899292e-02
4.520344734191894531e-02 -1.016754657030105591e-01 4.507419094443321228e-02
1.814488321542739868e-02 -1.667061895132064819e-01 -1.065394431352615356e-01
-1.831716299057006836e-01 -1.302258819341659546e-01 -1.887794882059097290e-01
-1.239299625158309937e-01 -1.308725178241729736e-01 -2.917087078094482422e-01
-4.627418145537376404e-02 -1.220574304461479187e-01 3.412850201129913330e-01
5.231267213821411133e-02 -1.174202635884284973e-01 -1.332536637783050537e-01
-4.293841868638992310e-02 -1.822312474250793457e-01 1.769939363002777100e-01
4.823483526706695557e-03 -7.872425019741058350e-02 -1.495045423507690430e-01
-1.766239106655120850e-01 -1.568855345249176025e-01 -1.220404207706451416e-01
-1.895291358232498169e-02 -7.644328474998474121e-02 -1.991379112005233765e-01
-1.268090307712554932e-01 -7.299987226724624634e-02 2.027621567249298096e-01
-6.001335382461547852e-02 -1.645245552062988281e-01 -2.330899834632873535e-01
-2.110827714204788208e-01 -9.296861290931701660e-02 1.039956659078598022e-01
-7.329070568084716797e-02 -1.854576468467712402e-01 1.768526732921600342e-01
-2.101351320743560791e-01 -1.300119608640670776e-01 -9.375524520874023438e-02
-1.224310398101806641e-01 -9.156329184770584106e-02 -2.719692587852478027e-01
5.776181817054748535e-02 -1.366891413927078247e-01 -5.755696073174476624e-02
1.171357184648513794e-02 -9.150780737400054932e-02 1.544589996337890625e-01
-2.622826024889945984e-02 -6.895375251770019531e-02 -1.424407213926315308e-01
-1.041749045252799988e-01 -1.819314658641815186e-01 2.155227363109588623e-01
-1.122554764151573181e-01 -1.880633234977722168e-01 6.495180726051330566e-02
-6.671252101659774780e-02 -1.041601896286010742e-01 -3.231684565544128418e-01
1.844379305839538574e-02 -1.702244877815246582e-01 8.146547526121139526e-02
-1.597018539905548096e-01 -1.049760878086090088e-01 3.162817060947418213e-01
-1.201095581054687500e-01 -1.072539985179901123e-01 3.486680984497070312e-01
2.061887830495834351e-02 -8.814355731010437012e-02 9.429612755775451660e-02
-1.704452931880950928e-01 -1.501786708831787109e-01 3.032761514186859131e-01
-5.950246751308441162e-02 -1.825932860374450684e-01 -1.051163673400878906e-01
-1.720558553934097290e-01 -1.177447363734245300e-01 -2.247036546468734741e-01
4.971417784690856934e-02 -1.507111638784408569e-01 -3.395759686827659607e-02
-7.255718111991882324e-03 -1.196901276707649231e-01 2.838889956474304199e-01
-1.861794143915176392e-01 -1.646039038896560669e-01 1.819663345813751221e-01
-5.071724206209182739e-02 -8.543761819601058960e-02 2.530985474586486816e-01
-9.113934636116027832e-02 -1.856694519519805908e-01 1.774794310331344604e-01
-9.684140235185623169e-02 -5.885688960552215576e-02 1.271949056535959244e-02
-1.274358928203582764e-01 -1.366221457719802856e-01 3.669993579387664795e-01
-1.398958414793014526e-01 -7.155972719192504883e-02 1.761805415153503418e-01
-4.711188375949859619e-03 -1.431760042905807495e-01 2.787844538688659668e-01
5.720096826553344727e-02 -1.139994859695434570e-01 -9.005358442664146423e-03
3.495357185602188110e-02 -1.564549505710601807e-01 1.120689809322357178e-01
1.097577810287475586e-02 -7.670675218105316162e-02 -6.532150506973266602e-02
1.950062811374664307e-03 -1.453276574611663818e-01 2.617595791816711426e-01
-1.715945154428482056e-01 -1.001062840223312378e-01 -2.097020596265792847e-01
-1.271209865808486938e-01 -6.997688114643096924e-02 -1.659404337406158447e-01
4.942402243614196777e-03 -9.200768917798995972e-02 -2.350836396217346191e-01
2.970465272665023804e-02 -8.625356853008270264e-02 -7.308003306388854980e-02
3.288352489471435547e-02 -9.264272451400756836e-02 6.152583658695220947e-02
2.485742419958114624e-02 -8.362929522991180420e-02 -1.898381859064102173e-03
-1.696243435144424438e-01 -1.693818718194961548e-01 -5.361257120966911316e-02
-1.478986442089080811e-02 -1.661169230937957764e-01 2.361363470554351807e-01
-5.645365267992019653e-02 -7.771085202693939209e-02 2.177682667970657349e-01
-3.871666640043258667e-02 -1.575704514980316162e-01 -2.560023665428161621e-01
-2.062154114246368408e-01 -9.647334367036819458e-02 1.724223047494888306e-01
4.169996082782745361e-02 -1.287220269441604614e-01 -1.899019777774810791e-01
2.287687361240386963e-02 -1.674229353666305542e-01 -7.122734189033508301e-02
-8.559940755367279053e-02 -5.873575061559677124e-02 -3.556399047374725342e-02
-1.873819231986999512e-01 -1.501301974058151245e-01 2.650312483310699463e-01
2.381223440170288086e-02 -8.468782901763916016e-02 3.360841050744056702e-02
-1.493626236915588379e-01 -1.814982891082763672e-01 6.030504405498504639e-02
-1.982247531414031982e-01 -1.090744435787200928e-01 -1.469097733497619629e-01
-1.191714257001876831e-01 -6.159260869026184082e-02 7.165370881557464600e-02
5.516265332698822021e-02 -1.231203526258468628e-01 6.158773973584175110e-02
-1.821332573890686035e-01 -1.699830740690231323e-01 4.060095548629760742e-02
-1.422967016696929932e-01 -1.779233664274215698e-01 -5.780073627829551697e-02
2.264459431171417236e-02 -1.024502813816070557e-01 -2.260300219058990479e-01
-1.298846602439880371e-01 -6.593226641416549683e-02 -1.205499321222305298e-01
-3.815825283527374268e-02 -1.866604834794998169e-01 -1.882320269942283630e-03
1.827042549848556519e-02 -9.406962990760803223e-02 -2.090173512697219849e-01
-9.806528687477111816e-02 -6.368553638458251953e-02 1.235685646533966064e-01
1.634205877780914307e-02 -1.724882423877716064e-01 5.227309465408325195e-02
2.527127414941787720e-02 -9.487215429544448853e-02 1.213527470827102661e-01
-7.895508408546447754e-02 -1.803387850522994995e-01 2.316670715808868408e-01
-7.460288703441619873e-02 -5.894599109888076782e-02 -1.858463883399963379e-02
-1.155378967523574829e-01 -1.248247325420379639e-01 3.710865080356597900e-01
-4.639223590493202209e-02 -1.589455902576446533e-01 3.102479279041290283e-01
2.057718485593795776e-02 -1.131277084350585938e-01 2.073532640933990479e-01
2.371960878372192383e-02 -1.057945564389228821e-01 1.773754954338073730e-01
-1.291176229715347290e-01 -6.127234548330307007e-02 1.841252297163009644e-02
-3.295079991221427917e-02 -1.609241366386413574e-01 -2.387562394142150879e-01
-5.867243185639381409e-02 -7.583780586719512939e-02 -2.386330366134643555e-01
-2.868272364139556885e-03 -1.576333940029144287e-01 2.434627264738082886e-01
2.631483227014541626e-02 -1.683518290519714355e-01 1.329328585416078568e-02
-1.664372235536575317e-01 -7.832554727792739868e-02 1.837574541568756104e-01
-1.836631745100021362e-01 -8.324559032917022705e-02 1.728413999080657959e-01
-1.342493593692779541e-01 -1.740428209304809570e-01 -1.165113151073455811e-01
-7.201807945966720581e-02 -1.243629604578018188e-01 -3.282957077026367188e-01
-1.138244122266769409e-01 -1.504230648279190063e-01 3.553551435470581055e-01
-1.240208894014358521e-01 -1.728675365447998047e-01 -1.440395265817642212e-01
-1.947189718484878540e-01 -1.625658720731735229e-01 1.767990924417972565e-02
-1.020635068416595459e-01 -1.883134692907333374e-01 1.140477210283279419e-01
-1.683685034513473511e-01 -1.738460659980773926e-01 3.692340105772018433e-04
-1.407871395349502563e-01 -1.684397757053375244e-01 -1.444193720817565918e-01
-2.094637602567672729e-01 -9.022721648216247559e-02 1.820327341556549072e-02
-5.312769487500190735e-02 -1.838025003671646118e-01 -8.671237528324127197e-02
-1.631152331829071045e-01 -7.559381425380706787e-02 -1.252282261848449707e-01
-1.150767058134078979e-01 -1.745787113904953003e-01 2.668271660804748535e-01
-1.256496012210845947e-01 -1.804952323436737061e-01 2.078301310539245605e-01
-1.978676319122314453e-01 -8.354943245649337769e-02 9.494566917419433594e-02
1.747360080480575562e-02 -8.174292743206024170e-02 -1.170642822980880737e-01
-9.224697947502136230e-03 -7.581171393394470215e-02 -1.702901870012283325e-01
-1.341462731361389160e-01 -1.613796949386596680e-01 3.158782720565795898e-01
-2.026353776454925537e-02 -6.646622717380523682e-02 -3.643575310707092285e-02
-6.538734585046768188e-02 -9.226044267416000366e-02 2.950430512428283691e-01
-2.076737731695175171e-01 -1.423886120319366455e-01 -6.738425791263580322e-02
5.114276707172393799e-02 -1.492391824722290039e-01 5.673948675394058228e-03
-3.122962638735771179e-02 -7.277315855026245117e-02 1.394039988517761230e-01
-1.560139358043670654e-01 -1.792847812175750732e-01 1.198507249355316162e-01
-1.561268419027328491e-02 -1.487582772970199585e-01 -2.677723467350006104e-01
-1.531314551830291748e-01 -1.692032366991043091e-01 2.533141970634460449e-01
-1.588172316551208496e-01 -1.779626309871673584e-01 2.083170786499977112e-02
-5.999816954135894775e-02 -6.043162941932678223e-02 -6.459082663059234619e-02
-1.216334551572799683e-01 -1.846258491277694702e-01 -1.980268582701683044e-02
-3.257156163454055786e-02 -7.866649329662322998e-02 1.886710077524185181e-01
-8.723565191030502319e-02 -1.186179369688034058e-01 3.647243082523345947e-01
-1.704966425895690918e-01 -7.255004346370697021e-02 1.023611128330230713e-01
-1.142364293336868286e-01 -1.835886836051940918e-01 -5.544741079211235046e-02
-4.834790900349617004e-02 -6.244918704032897949e-02 3.762510418891906738e-02
-3.441384434700012207e-02 -9.756361693143844604e-02 -3.026678264141082764e-01
-2.411085739731788635e-02 -6.995818018913269043e-02 8.801707625389099121e-02
-4.140100255608558655e-02 -6.553620100021362305e-02 -1.324937641620635986e-01
3.393581509590148926e-02 -1.050931662321090698e-01 1.346568763256072998e-01
4.132033884525299072e-02 -9.547514468431472778e-02 1.469548791646957397e-02
-6.350981444120407104e-02 -7.041639089584350586e-02 -2.058882713317871094e-01
-1.706362068653106689e-01 -1.732459068298339844e-01 1.547379642724990845e-01
-2.171618789434432983e-01 -1.268160045146942139e-01 2.001410573720932007e-01
-2.097311913967132568e-01 -9.235286712646484375e-02 -1.640935242176055908e-02
-2.414630725979804993e-02 -6.648014485836029053e-02 2.241227589547634125e-02
-9.031573683023452759e-02 -1.761494278907775879e-01 -1.572249978780746460e-01
-1.132912188768386841e-01 -1.878260076045989990e-01 8.939492702484130859e-02
-1.292968094348907471e-01 -1.790956854820251465e-01 -7.911920547485351562e-02
-8.103748410940170288e-02 -6.495244801044464111e-02 -1.612168699502944946e-01
-2.007187902927398682e-02 -6.916972994804382324e-02 5.983700975775718689e-02
-7.693724334239959717e-02 -1.676101684570312500e-01 -2.163033038377761841e-01
-4.359808564186096191e-02 -7.377456128597259521e-02 1.725066304206848145e-01
-8.775043487548828125e-02 -1.897301822900772095e-01 6.023241952061653137e-02
-1.232736557722091675e-02 -1.530251950025558472e-01 -2.505213618278503418e-01
-2.160186171531677246e-01 -1.041549518704414368e-01 -4.641707614064216614e-02
4.701536893844604492e-02 -9.931670129299163818e-02 -1.589371636509895325e-02
-1.908681094646453857e-01 -8.463968336582183838e-02 1.555891185998916626e-01
-6.213906407356262207e-02 -6.212252750992774963e-02 -1.133212149143218994e-01
4.553072154521942139e-02 -1.515977829694747925e-01 -8.319741487503051758e-02
-4.877938702702522278e-02 -1.544254422187805176e-01 -2.713055610656738281e-01
-2.022532522678375244e-01 -1.596616953611373901e-01 9.791596233844757080e-02
-1.719282120466232300e-01 -1.657727658748626709e-01 -7.813267409801483154e-02
-1.544516980648040771e-01 -9.777224063873291016e-02 -2.404526174068450928e-01
3.238137066364288330e-02 -1.034592911601066589e-01 -1.973668485879898071e-01
-1.303079724311828613e-01 -7.356242835521697998e-02 -1.869475543498992920e-01
-7.213075459003448486e-02 -1.427797973155975342e-01 3.595466315746307373e-01
-8.341947942972183228e-02 -8.227846026420593262e-02 2.636199593544006348e-01
-1.014476418495178223e-01 -1.867950111627578735e-01 1.529461145401000977e-01
-1.403549611568450928e-01 -6.484478712081909180e-02 -7.279250025749206543e-02
-1.485684812068939209e-01 -1.770160645246505737e-01 1.967151463031768799e-01
-6.534665822982788086e-02 -1.859695762395858765e-01 -6.277367472648620605e-02
-3.169731050729751587e-02 -1.858336627483367920e-01 7.555808126926422119e-02
-1.678748726844787598e-01 -9.056907147169113159e-02 2.561733722686767578e-01
-7.456174492835998535e-02 -1.796921193599700928e-01 -1.351695209741592407e-01
-1.166175603866577148e-01 -1.244920417666435242e-01 -3.047297894954681396e-01
-2.045973986387252808e-01 -1.581352651119232178e-01 7.777303457260131836e-02
6.057046353816986084e-03 -7.619738578796386719e-02 -1.067652851343154907e-01
-1.636217534542083740e-02 -1.262281686067581177e-01 3.050815165042877197e-01
4.228383302688598633e-02 -9.582615643739700317e-02 -8.462840318679809570e-02
5.787429213523864746e-02 -1.357671618461608887e-01 1.862709596753120422e-02
5.269365012645721436e-02 -1.440660655498504639e-01 4.576488584280014038e-02
1.642744988203048706e-02 -1.728658378124237061e-01 3.389982506632804871e-02
4.504096508026123047e-02 -1.547508239746093750e-01 3.359441086649894714e-02
-1.305623352527618408e-01 -6.229024007916450500e-02 -5.367467924952507019e-02
-1.466987133026123047e-01 -1.792457848787307739e-01 1.729308813810348511e-01
-8.764778822660446167e-02 -6.787244230508804321e-02 -1.872605532407760620e-01
-7.356245070695877075e-02 -1.756751388311386108e-01 -1.675904989242553711e-01
-6.970854103565216064e-02 -1.896324008703231812e-01 3.444024920463562012e-02
-4.552118107676506042e-02 -1.791662126779556274e-01 -1.318530440330505371e-01
-1.443224102258682251e-01 -1.824644207954406738e-01 4.353169351816177368e-02
-6.284555792808532715e-02 -5.981723219156265259e-02 -3.436444327235221863e-03
-6.488838046789169312e-02 -1.601957082748413086e-01 -2.521468102931976318e-01
4.751710593700408936e-02 -1.515784710645675659e-01 -6.081822887063026428e-02
9.844861924648284912e-03 -8.364170789718627930e-02 1.054345071315765381e-01
-1.457418799400329590e-01 -8.976924419403076172e-02 2.820508480072021484e-01
-1.319129467010498047e-01 -6.722569465637207031e-02 1.421182304620742798e-01
-2.131643146276473999e-02 -1.840995699167251587e-01 4.215583205223083496e-03
-1.077286750078201294e-01 -1.805738508701324463e-01 -1.022220253944396973e-01
-1.973648369312286377e-02 -1.768666058778762817e-01 -1.196802407503128052e-01
-3.126442432403564453e-02 -1.848420202732086182e-01 -2.935310453176498413e-02
5.622917413711547852e-02 -1.114496290683746338e-01 -5.063300207257270813e-02
-8.067697286605834961e-02 -6.429535150527954102e-02 1.257394999265670776e-01
-1.349916458129882812e-01 -1.212552413344383240e-01 3.617096841335296631e-01
-4.144870489835739136e-02 -1.641086637973785400e-01 2.880128920078277588e-01
-5.506924167275428772e-02 -1.876336783170700073e-01 -2.145721763372421265e-02
-5.465023964643478394e-02 -1.147277653217315674e-01 -3.297264873981475830e-01
-2.094909846782684326e-01 -1.525768190622329712e-01 1.385029554367065430e-01
-2.613826096057891846e-02 -7.088699191808700562e-02 1.062717139720916748e-01
-6.081323325634002686e-02 -6.607869267463684082e-02 1.259700357913970947e-01
-2.133654952049255371e-01 -1.064100489020347595e-01 1.854646950960159302e-01
-6.555877625942230225e-02 -6.817473471164703369e-02 1.544274836778640747e-01
-1.271831095218658447e-01 -7.839110493659973145e-02 2.395000308752059937e-01
-5.107441172003746033e-02 -1.681781262159347534e-01 -2.126743048429489136e-01
-1.534633338451385498e-01 -8.369067311286926270e-02 -1.987853646278381348e-01
-3.484665602445602417e-02 -6.394149363040924072e-02 -7.365809381008148193e-02
-8.424193412065505981e-02 -1.896587908267974854e-01 8.264596760272979736e-02
-1.645854562520980835e-01 -1.011383682489395142e-01 2.999864518642425537e-01
-8.465952426195144653e-02 -1.852122098207473755e-01 -7.089418172836303711e-02
-7.849709689617156982e-02 -1.511916965246200562e-01 -2.811352610588073730e-01
-1.201375722885131836e-01 -6.013804674148559570e-02 -9.984225034713745117e-04
-2.131651043891906738e-01 -1.488133221864700317e-01 1.964413374662399292e-02
-1.990728378295898438e-01 -1.322092413902282715e-01 -1.359016150236129761e-01
-1.968823373317718506e-01 -1.411997228860855103e-01 -1.205475032329559326e-01
-9.740313887596130371e-02 -1.701064407825469971e-01 -1.921216845512390137e-01
-7.161959260702133179e-02 -7.352241128683090210e-02 2.045028060674667358e-01
9.804472327232360840e-03 -1.048581153154373169e-01 -2.616855204105377197e-01
-1.883261352777481079e-01 -1.054045557975769043e-01 2.688827514648437500e-01
-1.455821990966796875e-01 -6.765072792768478394e-02 -9.916834533214569092e-02
-1.271671652793884277e-01 -6.392098963260650635e-02 1.029715836048126221e-01
-9.933531284332275391e-02 -8.218232542276382446e-02 -2.619831264019012451e-01
-1.724652945995330811e-03 -1.738104224205017090e-01 -1.064580231904983521e-01
-3.238840028643608093e-02 -7.080382108688354492e-02 1.224894225597381592e-01
-2.156286388635635376e-01 -1.443411707878112793e-01 1.572445929050445557e-01
-4.342550784349441528e-02 -1.696858406066894531e-01 2.671070992946624756e-01
-7.684077322483062744e-02 -7.402457296848297119e-02 -2.315560281276702881e-01
-8.408162742853164673e-02 -1.891550123691558838e-01 1.076824367046356201e-01
-1.953202635049819946e-01 -1.571414917707443237e-01 -4.209766164422035217e-02
-2.170628011226654053e-01 -1.364611089229583740e-01 1.845992207527160645e-01
-1.338308602571487427e-01 -1.838611513376235962e-01 1.334758400917053223e-01
-6.112615391612052917e-02 -4.935539662837982178e-01 4.258509874343872070e-01
-9.673255681991577148e-02 -6.144879460334777832e-01 2.074446082115173340e-01
4.423301666975021362e-03 -6.035524606704711914e-01 4.871028661727905273e-01
-8.532488346099853516e-02 -4.546853005886077881e-01 1.822355389595031738e-01
5.233864486217498779e-02 -4.518617093563079834e-01 2.757146060466766357e-01
-9.210680425167083740e-02 -6.129068732261657715e-01 2.782424688339233398e-01
-3.020793572068214417e-02 -6.437085866928100586e-01 2.695056498050689697e-01
-1.264232862740755081e-02 -6.307540535926818848e-01 2.453530877828598022e-01
-5.434335395693778992e-02 -5.601045489311218262e-01 -4.489035904407501221e-02
9.079165756702423096e-03 -3.997386097908020020e-01 1.220115870237350464e-01
4.097355902194976807e-02 -5.277180075645446777e-01 2.093801200389862061e-01
-5.986416712403297424e-02 -4.240790903568267822e-01 2.461576759815216064e-01
-6.906475871801376343e-02 -4.382036030292510986e-01 2.517508864402770996e-01
4.478909075260162354e-02 -5.065996050834655762e-01 2.059527337551116943e-01
2.768216654658317566e-03 -6.236044168472290039e-01 3.547592759132385254e-01
-7.120196521282196045e-02 -6.371536254882812500e-01 1.613323092460632324e-01
-6.504181772470474243e-02 -6.188862323760986328e-01 4.029230773448944092e-01
-5.664717033505439758e-02 -5.558805465698242188e-01 4.812076389789581299e-01
-6.887114048004150391e-02 -4.256844818592071533e-01 8.338306844234466553e-02
-1.156264357268810272e-02 -5.472851395606994629e-01 5.586500167846679688e-01
3.268035128712654114e-02 -4.876771569252014160e-01 1.170381605625152588e-01
-9.703172743320465088e-02 -4.753185808658599854e-01 1.000807583332061768e-01
-6.940580904483795166e-02 -4.801223576068878174e-01 -6.685434281826019287e-02
-9.432002156972885132e-02 -4.697506129741668701e-01 7.322460412979125977e-02
-1.304325740784406662e-02 -6.197953224182128906e-01 1.783010959625244141e-01
-2.603711187839508057e-02 -6.308701634407043457e-01 1.807832121849060059e-01
3.414843231439590454e-02 -5.797939300537109375e-01 3.837219476699829102e-01
-8.321053534746170044e-02 -4.704698622226715088e-01 2.713321447372436523e-01
3.881265223026275635e-02 -4.529699683189392090e-01 4.734573662281036377e-01
-2.995494380593299866e-02 -4.694558978080749512e-01 4.798658490180969238e-01
-4.714005440473556519e-02 -6.370487213134765625e-01 1.591851711273193359e-01
4.045870900154113770e-02 -5.460149049758911133e-01 4.867042899131774902e-01
4.716242104768753052e-02 -4.528213739395141602e-01 2.145046591758728027e-01
-8.712488412857055664e-02 -5.447312593460083008e-01 3.629734814167022705e-01
4.315415769815444946e-02 -5.349641442298889160e-01 2.435698807239532471e-01
-6.348969042301177979e-02 -4.852971732616424561e-01 4.049763679504394531e-01
-8.442723006010055542e-02 -6.246749758720397949e-01 1.235711053013801575e-01
-8.146086335182189941e-02 -4.894690811634063721e-01 3.285847306251525879e-01
-7.468102872371673584e-02 -4.510990977287292480e-01 2.658992111682891846e-01
1.294973492622375488e-02 -3.924256563186645508e-01 1.847383379936218262e-01
-8.512109518051147461e-02 -6.138858199119567871e-01 3.253675103187561035e-01
2.720211818814277649e-02 -5.674525499343872070e-01 2.081615030765533447e-01
-2.384049072861671448e-02 -5.015639662742614746e-01 -5.165521800518035889e-02
4.406248033046722412e-02 -4.607579410076141357e-01 1.837635785341262817e-01
4.797617346048355103e-02 -4.715029001235961914e-01 4.669117331504821777e-01
-1.068953424692153931e-01 -5.287106633186340332e-01 1.951761245727539062e-01
2.403201907873153687e-02 -5.973718166351318359e-01 3.577369749546051025e-01
2.091303095221519470e-02 -5.051611065864562988e-01 7.353037595748901367e-02
-7.502426207065582275e-02 -6.066513061523437500e-01 3.892011344432830811e-01
-3.565707057714462280e-02 -5.204031467437744141e-01 5.202279090881347656e-01
1.880671083927154541e-02 -5.959016084671020508e-01 4.601868689060211182e-01
-8.113939315080642700e-02 -5.076463222503662109e-01 3.598155379295349121e-01
4.079511016607284546e-02 -4.364298880100250244e-01 4.285733699798583984e-01
3.583884984254837036e-02 -5.606184005737304688e-01 2.549677193164825439e-01
9.053047746419906616e-03 -4.054062068462371826e-01 1.008976101875305176e-01
3.595423698425292969e-02 -4.271284043788909912e-01 4.175314605236053467e-01
3.670287132263183594e-02 -5.711421966552734375e-01 3.210186660289764404e-01
-9.994484484195709229e-02 -6.013175249099731445e-01 2.384459525346755981e-01
-1.267986372113227844e-02 -5.825155377388000488e-01 6.492918729782104492e-02
-5.643098801374435425e-02 -4.106534421443939209e-01 1.444930434226989746e-01
-9.555234014987945557e-02 -5.012910962104797363e-01 2.574799656867980957e-01
-8.235031366348266602e-02 -4.815676212310791016e-01 3.065964281558990479e-01
-1.056288927793502808e-01 -5.443033576011657715e-01 2.647960186004638672e-02
9.370427578687667847e-03 -5.435936450958251953e-01 6.975220143795013428e-02
-3.568712621927261353e-02 -4.220440387725830078e-01 -5.128487944602966309e-03
1.174290478229522705e-02 -3.959953188896179199e-01 1.512173116207122803e-01
1.455740258097648621e-02 -6.076157093048095703e-01 3.005526661872863770e-01
-9.407267719507217407e-02 -5.185186266899108887e-01 -3.242225944995880127e-02
4.357780516147613525e-02 -5.518651604652404785e-01 3.096930384635925293e-01
3.102608025074005127e-02 -4.563526213169097900e-01 4.958837628364562988e-01
2.405307441949844360e-02 -3.978985548019409180e-01 2.996794879436492920e-01
3.075782209634780884e-03 -6.168185472488403320e-01 4.356631636619567871e-01
5.163130909204483032e-02 -5.050913691520690918e-01 2.684694528579711914e-01
9.942315518856048584e-03 -4.687820672988891602e-01 2.450008690357208252e-02
-1.107375323772430420e-02 -4.036986529827117920e-01 3.497231900691986084e-01
-1.888913661241531372e-02 -6.029599308967590332e-01 9.715160727500915527e-02
-6.587938219308853149e-02 -6.444953083992004395e-01 2.365765124559402466e-01
-8.094956725835800171e-02 -4.960670769214630127e-01 -5.875952541828155518e-02
-5.687907338142395020e-02 -6.275470852851867676e-01 1.038406193256378174e-01
2.755799517035484314e-02 -5.796220898628234863e-01 4.741247892379760742e-01
1.549616083502769470e-02 -4.175579547882080078e-01 9.140595793724060059e-02
5.187023431062698364e-02 -4.652550518512725830e-01 2.508694529533386230e-01
3.443142026662826538e-02 -5.790104269981384277e-01 3.603799343109130859e-01
-8.429141342639923096e-02 -5.516062974929809570e-01 3.795127868652343750e-01
3.603065758943557739e-02 -4.084400832653045654e-01 2.964118719100952148e-01
1.513091847300529480e-02 -6.058582067489624023e-01 4.282311797142028809e-01
1.799768209457397461e-02 -6.052811145782470703e-01 3.963803052902221680e-01
-7.614708691835403442e-02 -4.658080339431762695e-01 -3.755508363246917725e-02
2.991036325693130493e-02 -4.367467164993286133e-01 4.591466188430786133e-01
-1.670975610613822937e-02 -4.091215133666992188e-01 3.658933937549591064e-02
-5.793664604425430298e-02 -4.131344556808471680e-01 1.705842018127441406e-01
-1.066954955458641052e-01 -5.108141899108886719e-01 8.065366744995117188e-02
2.009912207722663879e-02 -6.009048819541931152e-01 3.136962056159973145e-01
5.134595185518264771e-02 -5.106830000877380371e-01 4.570930600166320801e-01
2.934677526354789734e-02 -4.734935760498046875e-01 9.796363115310668945e-02
-1.025378853082656860e-01 -5.883441567420959473e-01 7.294015586376190186e-02
1.125912740826606750e-02 -5.252541303634643555e-01 5.401141941547393799e-02
6.004907190799713135e-03 -5.980136394500732422e-01 1.820100396871566772e-01
-2.075636759400367737e-03 -4.670414030551910400e-01 5.180037021636962891e-01
4.585158824920654297e-02 -5.496476888656616211e-01 3.416653275489807129e-01
-9.969349950551986694e-02 -4.916676580905914307e-01 3.459647297859191895e-02
3.141414001584053040e-02 -4.751336276531219482e-01 5.199359059333801270e-01
-4.152579978108406067e-02 -6.322665810585021973e-01 1.445100307464599609e-01
4.500795900821685791e-02 -5.187050104141235352e-01 2.254798114299774170e-01
3.902423381805419922e-02 -4.992634057998657227e-01 5.201824903488159180e-01
5.477834492921829224e-03 -5.888255238533020020e-01 1.488169431686401367e-01
-5.191663652658462524e-02 -4.410564899444580078e-01 -3.642193973064422607e-02
2.914385870099067688e-02 -5.795395374298095703e-01 2.722682058811187744e-01
-6.801360845565795898e-02 -5.327303409576416016e-01 4.385899901390075684e-01
-5.674853175878524780e-02 -6.435603499412536621e-01 1.965841948986053467e-01
-4.131783545017242432e-02 -6.107852458953857422e-01 4.744018316268920898e-01
-2.461280487477779388e-02 -4.867094755172729492e-01 -5.503799021244049072e-02
3.812269866466522217e-02 -4.281867742538452148e-01 1.844541132450103760e-01
-5.696139857172966003e-02 -4.824177622795104980e-01 -7.679067552089691162e-02
-3.562041372060775757e-02 -6.403265595436096191e-01 3.848456740379333496e-01
-8.765486627817153931e-02 -5.918468236923217773e-01 3.492894768714904785e-01
-1.232420466840267181e-02 -6.095974445343017578e-01 1.404181122779846191e-01
-5.647402256727218628e-02 -5.127562284469604492e-01 4.624019265174865723e-01
-7.108703255653381348e-02 -5.040971636772155762e-01 4.011185169219970703e-01
-5.456138402223587036e-03 -5.784333348274230957e-01 7.912787795066833496e-02
4.922264814376831055e-02 -5.117040276527404785e-01 4.736000597476959229e-01
-3.300863504409790039e-02 -4.128279089927673340e-01 3.291547000408172607e-01
5.642756819725036621e-02 -4.793291091918945312e-01 3.956749439239501953e-01
-1.050447970628738403e-01 -5.142395496368408203e-01 1.871880441904067993e-01
-1.079629361629486084e-02 -6.330174207687377930e-01 2.842039763927459717e-01
5.582980811595916748e-02 -5.069882869720458984e-01 3.788639903068542480e-01
-7.164880633354187012e-02 -4.456010162830352783e-01 -6.639644503593444824e-03
1.387628167867660522e-02 -5.486652255058288574e-01 9.551227092742919922e-02
-6.965865194797515869e-02 -4.696277678012847900e-01 3.486098349094390869e-01
-6.121443212032318115e-02 -5.378590822219848633e-01 4.638944268226623535e-01
-2.334970608353614807e-02 -6.208673715591430664e-01 1.437007784843444824e-01
1.256391406059265137e-03 -6.239700317382812500e-01 3.843955397605895996e-01
-1.722608134150505066e-02 -6.388422846794128418e-01 3.288320004940032959e-01
-4.622785001993179321e-02 -4.425972700119018555e-01 3.806552886962890625e-01
-9.300150722265243530e-02 -4.677965939044952393e-01 1.521806120872497559e-01
5.714952200651168823e-02 -4.792484045028686523e-01 3.511296808719635010e-01
-5.055008456110954285e-03 -4.122395217418670654e-01 4.601855576038360596e-02
2.441801875829696655e-02 -4.394389986991882324e-01 9.282092750072479248e-02
-7.325056195259094238e-02 -5.793977975845336914e-01 -2.070312201976776123e-02
2.979304268956184387e-02 -4.550901055335998535e-01 1.045380681753158569e-01
4.077877104282379150e-02 -4.701876938343048096e-01 4.936478137969970703e-01
-2.943270653486251831e-02 -6.414078474044799805e-01 3.709295392036437988e-01
1.054242625832557678e-02 -4.038006365299224854e-01 3.692028224468231201e-01
-4.591447114944458008e-02 -4.091188609600067139e-01 5.338780581951141357e-02
3.097913786768913269e-02 -5.845713019371032715e-01 3.382813930511474609e-01
6.916001439094543457e-03 -6.112702488899230957e-01 2.507026791572570801e-01
-3.819518163800239563e-02 -5.429646968841552734e-01 5.233197212219238281e-01
9.931363165378570557e-03 -3.978168070316314697e-01 3.379673659801483154e-01
-1.031223386526107788e-01 -4.956415295600891113e-01 1.357938647270202637e-01
4.846210777759552002e-02 -5.269632339477539062e-01 4.621651768684387207e-01
-2.736387774348258972e-03 -5.940866470336914062e-01 1.284450590610504150e-01
-5.929124727845191956e-02 -6.466039419174194336e-01 2.532095909118652344e-01
-2.066315338015556335e-02 -4.820665717124938965e-01 5.142742395401000977e-01
-1.104357615113258362e-01 -5.638957023620605469e-01 1.188376694917678833e-01
-1.013145521283149719e-01 -5.187641978263854980e-01 2.414605021476745605e-01
3.893210738897323608e-02 -5.661483407020568848e-01 4.305237233638763428e-01
-5.067492276430130005e-02 -5.535564422607421875e-01 4.967839717864990234e-01
2.311475202441215515e-02 -5.505950450897216797e-01 5.422304868698120117e-01
-5.865534767508506775e-02 -4.465392827987670898e-01 3.412953913211822510e-01
4.810664802789688110e-03 -4.288226962089538574e-01 4.511775374412536621e-01
2.169827371835708618e-02 -5.487298965454101562e-01 1.313732266426086426e-01
3.561212867498397827e-02 -5.348296165466308594e-01 1.847829371690750122e-01
-3.902878239750862122e-02 -4.748687744140625000e-01 4.666997194290161133e-01
-4.595204070210456848e-02 -4.905999004840850830e-01 4.697370827198028564e-01
1.782814413309097290e-02 -4.290029108524322510e-01 7.968425750732421875e-02
-9.412620961666107178e-02 -4.965587854385375977e-01 -1.622556149959564209e-02
-1.043089181184768677e-01 -5.291517972946166992e-01 1.688909530639648438e-02
4.212278127670288086e-02 -4.296225309371948242e-01 2.133904695510864258e-01
-5.925171077251434326e-02 -6.453740000724792480e-01 2.204918861389160156e-01
-8.803543448448181152e-02 -5.135720372200012207e-01 3.304377794265747070e-01
4.401348531246185303e-02 -5.076263546943664551e-01 5.036298036575317383e-01
-7.786905765533447266e-02 -6.379272937774658203e-01 2.288704067468643188e-01
2.987956628203392029e-03 -5.492200851440429688e-01 5.507630109786987305e-02
5.707618594169616699e-02 -4.903444945812225342e-01 3.728847801685333252e-01
-5.002297461032867432e-03 -5.047815442085266113e-01 -1.105503737926483154e-02
-8.147601783275604248e-02 -4.537901580333709717e-01 2.215803861618041992e-01
-4.693357273936271667e-03 -5.454338788986206055e-01 2.553033828735351562e-02
-3.498935699462890625e-02 -6.442012190818786621e-01 3.505131602287292480e-01
-6.593182682991027832e-02 -4.467587769031524658e-01 3.052998781204223633e-01
-7.849808782339096069e-02 -5.920091271400451660e-01 3.930123448371887207e-01
-9.386938065290451050e-03 -3.870354294776916504e-01 1.744403243064880371e-01
-4.232695698738098145e-02 -4.964506626129150391e-01 4.859097003936767578e-01
-1.362867746502161026e-02 -4.681181311607360840e-01 -3.366415202617645264e-02
-9.616769105195999146e-02 -6.065775752067565918e-01 2.623437047004699707e-01
-5.941056087613105774e-02 -5.944111943244934082e-01 7.247000932693481445e-03
-9.222827106714248657e-02 -5.327527523040771484e-01 -3.819854557514190674e-02
-2.231013774871826172e-02 -3.909585475921630859e-01 1.304441988468170166e-01
-4.126686975359916687e-02 -5.346802473068237305e-01 -5.819369852542877197e-02
4.365350306034088135e-02 -5.425084829330444336e-01 2.707406580448150635e-01
-6.485675275325775146e-02 -4.228371381759643555e-01 1.909999996423721313e-01
1.713415980339050293e-02 -4.691738784313201904e-01 4.849439859390258789e-02
-1.058804020285606384e-01 -5.530422925949096680e-01 2.331059277057647705e-01
-1.003829836845397949e-01 -5.265021324157714844e-01 2.619661092758178711e-01
4.556929320096969604e-02 -4.245121479034423828e-01 3.241059184074401855e-01
1.019401475787162781e-02 -5.616794228553771973e-01 1.036552041769027710e-01
5.026283860206604004e-02 -4.970178902149200439e-01 2.429060935974121094e-01
4.095399379730224609e-02 -5.648931264877319336e-01 3.766547143459320068e-01
-9.715665876865386963e-02 -5.561456084251403809e-01 3.077368438243865967e-01
-1.058009862899780273e-01 -5.822126865386962891e-01 2.140816152095794678e-01
-7.147055864334106445e-02 -5.770047903060913086e-01 4.304547011852264404e-01
-1.715000160038471222e-02 -5.679620504379272461e-01 5.474306941032409668e-01
3.956820070743560791e-02 -5.182355642318725586e-01 1.836159825325012207e-01
-1.048639714717864990e-01 -5.364241600036621094e-01 2.318447530269622803e-01
-5.135080218315124512e-02 -4.184974133968353271e-01 2.360793948173522949e-02
-1.108323335647583008e-01 -5.560913085937500000e-01 1.402764618396759033e-01
-4.872289299964904785e-02 -5.098847150802612305e-01 4.822457432746887207e-01
4.833319038152694702e-02 -4.367365539073944092e-01 3.789283335208892822e-01
-7.654568552970886230e-02 -6.224237680435180664e-01 3.480455875396728516e-01
-8.668732643127441406e-02 -6.174890995025634766e-01 9.593613445758819580e-02
-1.041289269924163818e-01 -5.548574328422546387e-01 2.516481876373291016e-01
-7.820540666580200195e-02 -5.399481654167175293e-01 4.025425910949707031e-01
2.932071313261985779e-02 -5.002203583717346191e-01 5.413962602615356445e-01
-5.864873155951499939e-02 -6.108285784721374512e-01 4.713886976242065430e-02
-8.823453634977340698e-02 -5.305461883544921875e-01 3.478152453899383545e-01
3.785151243209838867e-02 -4.357417225837707520e-01 1.675254702568054199e-01
5.658925324678421021e-02 -4.825067520141601562e-01 3.232594728469848633e-01
3.665857017040252686e-02 -4.131250679492950439e-01 3.469614684581756592e-01
4.879970103502273560e-02 -5.171791315078735352e-01 2.587484419345855713e-01
1.518541574478149414e-02 -5.959022641181945801e-01 4.780590534210205078e-01
8.308306336402893066e-03 -4.158176183700561523e-01 7.115393877029418945e-02
5.593888461589813232e-02 -4.677086174488067627e-01 3.160637021064758301e-01
-9.371247887611389160e-02 -5.880177617073059082e-01 2.755887806415557861e-02
-1.531801279634237289e-02 -5.767533183097839355e-01 4.559117555618286133e-02
-1.882405951619148254e-03 -4.510113596916198730e-01 -6.538927555084228516e-04
5.481002479791641235e-02 -4.988519251346588135e-01 4.265267252922058105e-01
-7.940781116485595703e-02 -4.698930978775024414e-01 2.954136431217193604e-01
-2.567620202898979187e-02 -4.317686259746551514e-01 4.131100773811340332e-01
2.894264087080955505e-02 -5.753430128097534180e-01 2.504268288612365723e-01
-6.046769395470619202e-02 -4.315462112426757812e-01 2.792298495769500732e-01
-5.518484860658645630e-02 -5.838816761970520020e-01 4.764315485954284668e-01
1.069884374737739563e-02 -3.892831206321716309e-01 2.206196188926696777e-01
-6.633894890546798706e-02 -5.553591251373291016e-01 -5.376277863979339600e-02
-4.476212710142135620e-02 -6.313916444778442383e-01 4.183418750762939453e-01
-4.310613498091697693e-02 -3.999860882759094238e-01 1.282252371311187744e-01
1.673925668001174927e-03 -4.871944487094879150e-01 6.341189146041870117e-04
-7.798544317483901978e-02 -5.188111066818237305e-01 -6.832768023014068604e-02
-8.191484957933425903e-02 -6.334421038627624512e-01 1.825135946273803711e-01
-2.969307079911231995e-02 -6.080285310745239258e-01 8.250054717063903809e-02
-8.875585347414016724e-02 -4.856729507446289062e-01 2.733829915523529053e-01
2.817357331514358521e-02 -4.310014843940734863e-01 1.206884905695915222e-01
-2.575620263814926147e-02 -5.474657416343688965e-01 -2.259619534015655518e-02
-1.090889647603034973e-01 -5.375463962554931641e-01 6.431928277015686035e-02
-9.337768703699111938e-02 -5.550022721290588379e-01 -2.230696380138397217e-02
-7.429361343383789062e-02 -4.655778110027313232e-01 3.143955469131469727e-01
-2.107868529856204987e-02 -5.675878524780273438e-01 1.480725407600402832e-02
-7.478335499763488770e-02 -4.836520254611968994e-01 3.526599705219268799e-01
1.918300986289978027e-02 -4.068838953971862793e-01 1.354535371065139771e-01
2.112653106451034546e-03 -4.714263081550598145e-01 1.418635249137878418e-03
-5.319926887750625610e-03 -4.029908478260040283e-01 7.201226055622100830e-02
5.479540675878524780e-03 -5.892437696456909180e-01 5.196886062622070312e-01
-8.711619302630424500e-03 -6.045932769775390625e-01 5.032479166984558105e-01
4.743142426013946533e-02 -4.392508566379547119e-01 3.989575803279876709e-01
-9.937455505132675171e-02 -5.420397520065307617e-01 2.856962978839874268e-01
2.708747982978820801e-02 -4.450836479663848877e-01 4.812630116939544678e-01
-1.090724915266036987e-01 -5.260701179504394531e-01 8.378213644027709961e-02
-9.009663015604019165e-02 -5.684473514556884766e-01 -1.553027331829071045e-02
-8.787599951028823853e-02 -4.549986124038696289e-01 1.323906779289245605e-01
-9.869405627250671387e-02 -5.595523715019226074e-01 -2.082735300064086914e-04
-1.923490688204765320e-02 -3.887846469879150391e-01 1.571099460124969482e-01
-4.473965987563133240e-02 -4.328255951404571533e-01 -2.569900453090667725e-02
2.401303127408027649e-02 -4.038874506950378418e-01 1.737835407257080078e-01
-1.147749368101358414e-02 -5.938461422920227051e-01 5.239051580429077148e-01
4.789859801530838013e-02 -4.971177279949188232e-01 4.848026633262634277e-01
2.677389979362487793e-02 -4.898918867111206055e-01 8.990758657455444336e-02
-9.886676073074340820e-02 -5.146862864494323730e-01 -9.627386927604675293e-03
1.891142874956130981e-02 -4.839737117290496826e-01 5.410177707672119141e-01
-7.765610516071319580e-02 -4.423328638076782227e-01 1.954517513513565063e-01
-2.677828632295131683e-02 -3.909765183925628662e-01 1.900309026241302490e-01
