-4.730521142482757568e-01 -9.980123490095138550e-02 1.018857881426811218e-01
-5.867914557456970215e-01 -8.522389084100723267e-02 8.863919228315353394e-02
-4.158936738967895508e-01 -1.085811406373977661e-01 2.992453798651695251e-02
-5.181145668029785156e-01 -1.494578123092651367e-01 5.014195665717124939e-02
-4.864860177040100098e-01 -5.883753299713134766e-03 -5.335940420627593994e-02
-4.382161200046539307e-01 -1.126303300261497498e-01 -3.525117412209510803e-02
-5.033303499221801758e-01 -1.497984826564788818e-01 1.568290963768959045e-02
-4.320882856845855713e-01 -1.735294610261917114e-02 -2.889754995703697205e-02
-5.035136342048645020e-01 -3.172216191887855530e-02 -7.912760227918624878e-02
-5.764428377151489258e-01 -1.296605542302131653e-02 -3.726509399712085724e-03
-5.065248608589172363e-01 -4.535188525915145874e-02 -8.376342058181762695e-02
-4.050453603267669678e-01 -8.880675584077835083e-02 -7.181822322309017181e-03
-5.479989647865295410e-01 -1.249586194753646851e-01 -3.530192375183105469e-02
-4.283503890037536621e-01 -5.649324506521224976e-02 6.740893423557281494e-02
-5.214600563049316406e-01 -7.387999445199966431e-02 1.117681488394737244e-01
-5.260297656059265137e-01 -1.394347250461578369e-01 -1.886443048715591431e-02
-4.863697588443756104e-01 -1.410585194826126099e-01 -1.400180067867040634e-02
-4.193304181098937988e-01 -8.336336165666580200e-02 6.180834025144577026e-02
-5.246462225914001465e-01 -3.964486718177795410e-02 -7.924684882164001465e-02
-4.772205948829650879e-01 -8.324722200632095337e-02 1.056870445609092712e-01
-4.999399781227111816e-01 -9.337596595287322998e-03 5.851729959249496460e-02
-4.727693796157836914e-01 8.469447493553161621e-04 -3.020835295319557190e-02
-4.007704257965087891e-01 -7.789993286132812500e-02 9.252342395484447479e-03
-6.123905181884765625e-01 -9.435988217592239380e-02 1.551124919205904007e-02
-4.784871339797973633e-01 -1.456688344478607178e-01 9.750213474035263062e-03
-6.113432645797729492e-01 -7.550959289073944092e-02 5.275519937276840210e-02
-4.218041300773620605e-01 -3.481134399771690369e-02 -4.131044819951057434e-02
-5.554964542388916016e-01 -9.557992219924926758e-02 -6.021705269813537598e-02
-5.677278637886047363e-01 -1.219944357872009277e-01 8.493427187204360962e-02
-5.920677185058593750e-01 -3.094287216663360596e-02 4.242440685629844666e-02
-5.618180632591247559e-01 -1.367928087711334229e-01 -1.254081726074218750e-04
-5.458459854125976562e-01 -1.105376705527305603e-02 -4.668769240379333496e-02
-4.750937819480895996e-01 2.531133592128753662e-03 1.397247705608606339e-02
-5.494434237480163574e-01 -1.046958267688751221e-01 -5.670341104269027710e-02
-4.749580621719360352e-01 -1.287079155445098877e-01 8.292365819215774536e-02
-4.325142502784729004e-01 -4.530692473053932190e-02 -6.074199080467224121e-02
-5.348822474479675293e-01 -1.260577589273452759e-01 9.547453373670578003e-02
-5.885702371597290039e-01 -1.235563308000564575e-01 5.538890138268470764e-02
-6.012135148048400879e-01 -5.078180134296417236e-02 -2.380802854895591736e-02
-5.059417486190795898e-01 -1.889384537935256958e-02 -7.018814980983734131e-02
-5.818296074867248535e-01 -1.253160536289215088e-01 -1.630643382668495178e-03
-4.188298881053924561e-01 -9.269008040428161621e-02 5.782376229763031006e-02
-5.640041232109069824e-01 -1.159729361534118652e-01 -3.688902035355567932e-02
-4.190378487110137939e-01 -2.631182968616485596e-02 -1.789834350347518921e-02
-5.443418622016906738e-01 -5.196072161197662354e-02 -7.564710080623626709e-02
-5.356940031051635742e-01 -1.409043073654174805e-01 7.369911670684814453e-02
-5.948449969291687012e-01 -9.376201778650283813e-02 7.892232388257980347e-02
-5.616491436958312988e-01 -4.779711365699768066e-03 -1.732340082526206970e-03
-4.432880878448486328e-01 -1.030492037534713745e-02 1.989125460386276245e-02
-4.340806603431701660e-01 -5.801857262849807739e-02 -6.454581767320632935e-02
-4.393578171730041504e-01 -1.299331188201904297e-01 7.301258388906717300e-03
-5.194479823112487793e-01 -1.395936608314514160e-01 7.947860658168792725e-02
5.780231952667236328e-01 2.605053782463073730e-02 1.517082899808883667e-01
3.140332400798797607e-01 4.812684655189514160e-02 7.468186318874359131e-02
3.042521476745605469e-01 9.792577475309371948e-04 4.449971392750740051e-02
3.232060074806213379e-01 5.212423950433731079e-02 -6.515716016292572021e-02
3.903702795505523682e-01 5.267557874321937561e-02 1.610241830348968506e-01
3.553180396556854248e-01 4.187176376581192017e-02 -2.909293472766876221e-01
4.911431670188903809e-01 6.827957928180694580e-03 -1.540017575025558472e-01
5.873996019363403320e-01 4.517863690853118896e-02 5.902899056673049927e-02
4.338435828685760498e-01 3.572750091552734375e-02 3.004689514636993408e-01
4.555865526199340820e-01 2.738332375884056091e-03 1.533907651901245117e-01
3.457373976707458496e-01 1.680215634405612946e-02 -3.090633749961853027e-01
4.165511727333068848e-01 5.862531065940856934e-02 7.090343534946441650e-02
4.719668328762054443e-01 6.323648616671562195e-03 1.895264983177185059e-01
3.813914656639099121e-01 1.725550182163715363e-02 2.793591618537902832e-01
3.253341913223266602e-01 1.032358035445213318e-03 -1.549974083900451660e-01
4.738846123218536377e-01 5.550102889537811279e-02 1.589004546403884888e-01
5.265849828720092773e-01 2.022893354296684265e-02 -2.159011512994766235e-01
4.460500776767730713e-01 6.062411144375801086e-02 -2.978469245135784149e-03
4.063139259815216064e-01 5.922254174947738647e-02 2.356355264782905579e-02
4.549864530563354492e-01 5.981913581490516663e-02 -8.971749246120452881e-02
3.642386794090270996e-01 4.977875202894210815e-02 -2.309897691011428833e-01
3.493279516696929932e-01 5.401120334863662720e-02 5.288507044315338135e-02
3.255224227905273438e-01 -5.000922828912734985e-04 -1.181797310709953308e-01
5.390103459358215332e-01 4.185499250888824463e-02 2.301643490791320801e-01
4.049581289291381836e-01 5.930599570274353027e-02 -6.585491448640823364e-02
3.478590250015258789e-01 -2.120941877365112305e-03 5.598618835210800171e-02
3.829255998134613037e-01 5.637720227241516113e-02 -1.398213356733322144e-01
3.191990852355957031e-01 5.450988188385963440e-03 1.528678238391876221e-01
5.824750065803527832e-01 4.059378057718276978e-02 -1.028685271739959717e-01
4.211604595184326172e-01 1.049751415848731995e-03 -1.643064618110656738e-01
5.532838702201843262e-01 1.794337108731269836e-02 1.677083224058151245e-01
4.037453830242156982e-01 5.790295451879501343e-02 -1.271159648895263672e-01
5.062102079391479492e-01 5.854840576648712158e-02 5.505022406578063965e-02
4.478616118431091309e-01 1.098965108394622803e-02 -2.589897811412811279e-01
4.064520001411437988e-01 -5.341451615095138550e-04 -1.445084065198898315e-01
3.672143518924713135e-01 4.505842179059982300e-02 2.159329652786254883e-01
4.331415295600891113e-01 1.790203899145126343e-02 -3.092558085918426514e-01
4.639993309974670410e-01 2.002447843551635742e-02 -2.967971265316009521e-01
4.236184060573577881e-01 6.004525721073150635e-02 1.381258387118577957e-02
4.183841347694396973e-01 5.864765495061874390e-02 -1.195734813809394836e-01
5.071023106575012207e-01 7.067715749144554138e-03 -1.168921813368797302e-01
3.920482695102691650e-01 5.150809139013290405e-02 -2.329814136028289795e-01
3.740907013416290283e-01 -3.641545772552490234e-03 6.520313210785388947e-03
5.563116073608398438e-01 2.247652038931846619e-02 -1.602259725332260132e-01
4.077353179454803467e-01 1.002713665366172791e-02 -2.757887840270996094e-01
4.687682986259460449e-01 1.395602524280548096e-02 2.617697417736053467e-01
4.263301789760589600e-01 5.705451592803001404e-02 -1.640127897262573242e-01
3.143382072448730469e-01 -9.144339710474014282e-04 -6.518523395061492920e-02
4.503086805343627930e-01 1.305084768682718277e-02 2.653077840805053711e-01
4.747493863105773926e-01 5.820773541927337646e-02 -1.268753558397293091e-01
3.494801521301269531e-01 1.476986426860094070e-02 2.494497150182723999e-01
5.597714781761169434e-01 4.957539215683937073e-02 -1.055153980851173401e-01
4.851738512516021729e-01 1.662782207131385803e-02 -2.587806880474090576e-01
4.854715168476104736e-01 5.829543247818946838e-02 -1.129272133111953735e-01
4.293767511844635010e-01 5.971601605415344238e-02 -8.794328570365905762e-02
4.236755669116973877e-01 5.938653647899627686e-02 5.239775031805038452e-02
2.907128334045410156e-01 2.099926955997943878e-02 1.880188137292861938e-01
3.835259974002838135e-01 2.530742436647415161e-03 -2.063815295696258545e-01
2.444950342178344727e-01 3.217781335115432739e-02 -7.371044903993606567e-02
4.699713587760925293e-01 5.744757875800132751e-02 1.246555298566818237e-01
3.521102964878082275e-01 2.537946589291095734e-02 2.720230519771575928e-01
4.812420010566711426e-01 4.364240169525146484e-02 2.667010128498077393e-01
5.533251762390136719e-01 5.037416517734527588e-02 1.340907663106918335e-01
4.349381625652313232e-01 7.181882858276367188e-03 -2.356525808572769165e-01
3.329557776451110840e-01 3.303558006882667542e-02 -3.104961216449737549e-01
4.810537695884704590e-01 2.050835639238357544e-03 -7.123168557882308960e-02
3.982098102569580078e-01 5.742915719747543335e-02 7.862719148397445679e-02
4.420400261878967285e-01 2.137877047061920166e-03 -1.607229411602020264e-01
3.798944056034088135e-01 4.869744554162025452e-02 1.970361322164535522e-01
2.685596942901611328e-01 3.882228210568428040e-02 -1.480432748794555664e-01
4.306300878524780273e-01 9.301297366619110107e-03 -2.584224641323089600e-01
2.830808460712432861e-01 4.905609413981437683e-03 6.221386045217514038e-02
3.911398351192474365e-01 4.278393462300300598e-02 2.535918951034545898e-01
3.986629247665405273e-01 -1.074669882655143738e-03 1.153603196144104004e-01
3.074403405189514160e-01 9.062735363841056824e-03 -2.360113859176635742e-01
5.502879619598388672e-01 1.141774468123912811e-02 2.981114387512207031e-02
3.160911202430725098e-01 -1.255946233868598938e-03 -1.550618745386600494e-02
5.149216055870056152e-01 5.673921108245849609e-02 -1.002771779894828796e-01
5.942996740341186523e-01 3.958083689212799072e-02 -4.010366275906562805e-02
3.414628803730010986e-01 5.374724790453910828e-02 -1.070264205336570740e-01
4.607149362564086914e-01 4.707041382789611816e-02 -2.708807885646820068e-01
2.449996769428253174e-01 3.232711926102638245e-02 -2.979897707700729370e-02
4.867230653762817383e-01 5.861745774745941162e-02 8.576881885528564453e-02
3.762861490249633789e-01 4.393118619918823242e-02 2.338049411773681641e-01
3.240398466587066650e-01 7.951211184263229370e-03 1.831694096326828003e-01
5.830775499343872070e-01 4.748741537332534790e-02 2.012536302208900452e-02
5.143896341323852539e-01 9.138612076640129089e-03 -1.330362856388092041e-01
4.877640604972839355e-01 2.052312716841697693e-03 5.172497034072875977e-02
4.064925909042358398e-01 4.371798783540725708e-02 -3.014320433139801025e-01
4.995245337486267090e-01 3.083024173974990845e-03 9.564931504428386688e-03
5.173884630203247070e-01 7.673144340515136719e-03 -9.426894038915634155e-02
4.564462304115295410e-01 5.897812545299530029e-02 8.823574334383010864e-02
5.865973234176635742e-01 2.343189716339111328e-02 7.261877506971359253e-02
4.440828561782836914e-01 5.374270677566528320e-02 1.837204098701477051e-01
5.542500019073486328e-01 4.678320884704589844e-02 -1.521389037370681763e-01
5.327249765396118164e-01 5.451902002096176147e-02 1.123621165752410889e-01
3.901628553867340088e-01 2.169728651642799377e-02 -3.325456380844116211e-01
4.486510455608367920e-01 4.622744396328926086e-02 2.552407681941986084e-01
3.637132048606872559e-01 -2.266237512230873108e-03 7.153069972991943359e-02
5.901114344596862793e-01 4.299609363079071045e-02 7.742734998464584351e-02
3.407060801982879639e-01 3.932529687881469727e-02 2.223584502935409546e-01
4.612076580524444580e-01 9.724497795104980469e-05 -6.792658567428588867e-02
2.917058467864990234e-01 4.412892460823059082e-02 6.431906670331954956e-02
4.470607340335845947e-01 5.175419896841049194e-02 -2.378620952367782593e-01
5.430192947387695312e-01 1.937652751803398132e-02 -1.740553975105285645e-01
5.397063493728637695e-01 5.587118119001388550e-02 4.276450723409652710e-02
4.223237335681915283e-01 8.779313415288925171e-03 2.424182444810867310e-01
3.576847016811370850e-01 -3.411654382944107056e-03 -4.986502230167388916e-03
3.815280795097351074e-01 -3.179211169481277466e-03 4.626362398266792297e-02
4.100950360298156738e-01 -3.356285393238067627e-03 -9.793370962142944336e-03
5.302260518074035645e-01 9.371964260935783386e-03 1.117021143436431885e-01
3.003619611263275146e-01 4.800133407115936279e-02 6.941334344446659088e-03
3.563855588436126709e-01 5.519242212176322937e-02 3.787687048316001892e-02
3.283264338970184326e-01 1.359567046165466309e-03 1.103808730840682983e-01
5.206320285797119141e-01 1.619472540915012360e-02 -1.997535377740859985e-01
5.080686807632446289e-01 4.985161498188972473e-02 -2.099605053663253784e-01
4.190741777420043945e-01 -3.010116517543792725e-03 1.438517775386571884e-02
3.112912774085998535e-01 4.982843995094299316e-02 -1.016068533062934875e-01
3.115109205245971680e-01 4.023259505629539490e-02 1.673267632722854614e-01
5.335683226585388184e-01 8.795486763119697571e-03 7.539539039134979248e-02
4.606850445270538330e-01 1.859619468450546265e-02 2.886270880699157715e-01
3.190425336360931396e-01 3.900374844670295715e-02 -2.710174620151519775e-01
4.984511733055114746e-01 5.856240168213844299e-02 7.176015526056289673e-02
2.523049712181091309e-01 1.734292879700660706e-02 7.530909776687622070e-02
3.859650790691375732e-01 5.847749859094619751e-02 -2.974263392388820648e-02
4.333536028861999512e-01 3.750750795006752014e-02 -3.234940171241760254e-01
3.572363257408142090e-01 -2.839393913745880127e-03 4.079329967498779297e-02
5.260357260704040527e-01 1.281866058707237244e-02 -1.535483896732330322e-01
3.580792546272277832e-01 -3.432482481002807617e-05 -1.619639247655868530e-01
2.795903086662292480e-01 2.304925955832004547e-02 -2.550474405288696289e-01
4.000579118728637695e-01 -3.539141267538070679e-03 7.475239224731922150e-03
4.991680085659027100e-01 4.883620887994766235e-02 2.236984074115753174e-01
2.824506461620330811e-01 4.077426344156265259e-02 -1.781343817710876465e-01
5.091583728790283203e-01 2.022896893322467804e-02 -2.456036508083343506e-01
3.106327652931213379e-01 -6.007775664329528809e-04 3.409422002732753754e-03
4.799880981445312500e-01 1.028773561120033264e-02 -2.165980488061904907e-01
5.204159021377563477e-01 5.789861828088760376e-02 -3.559989109635353088e-02
5.501532554626464844e-01 5.281464010477066040e-02 -8.402992039918899536e-02
5.377090573310852051e-01 9.542156010866165161e-03 -4.044852778315544128e-02
4.849290549755096436e-01 5.538510158658027649e-02 -1.715052723884582520e-01
4.097256958484649658e-01 1.540388911962509155e-03 -1.817069351673126221e-01
3.055382370948791504e-01 4.549271613359451294e-02 -1.832194626331329346e-01
5.029538869857788086e-01 3.771694377064704895e-03 -2.789064310491085052e-02
5.447564125061035156e-01 5.551955848932266235e-02 -1.725358888506889343e-04
3.679940104484558105e-01 5.647625774145126343e-03 2.037566304206848145e-01
5.400470495223999023e-01 1.374972239136695862e-02 1.568644046783447266e-01
3.258174061775207520e-01 5.220796167850494385e-02 2.922977320849895477e-03
2.515835762023925781e-01 3.529736772179603577e-02 -8.880109339952468872e-02
4.598426818847656250e-01 5.500204861164093018e-02 1.684051454067230225e-01
5.200759172439575195e-01 5.754633992910385132e-02 -5.763159692287445068e-02
4.081644117832183838e-01 5.725353211164474487e-02 9.868569672107696533e-02
4.238426387310028076e-01 4.526041075587272644e-02 -2.927612066268920898e-01
2.723765671253204346e-01 4.167279228568077087e-02 5.855149589478969574e-03
3.011803030967712402e-01 1.250809989869594574e-02 -2.528926730155944824e-01
4.856264591217041016e-01 6.006665155291557312e-02 1.230467204004526138e-02
4.937684535980224609e-01 1.136356405913829803e-02 -2.057984024286270142e-01
3.507472872734069824e-01 5.549899488687515259e-02 -5.206571146845817566e-02
4.486458301544189453e-01 -1.409156247973442078e-03 3.435651212930679321e-02
3.943259418010711670e-01 3.925817087292671204e-02 2.738431692123413086e-01
4.260845184326171875e-01 -2.195253968238830566e-03 5.815806239843368530e-02
5.807050466537475586e-01 2.043600007891654968e-02 -1.211874559521675110e-02
5.525786280632019043e-01 1.292774733155965805e-02 8.627123385667800903e-02
2.674932181835174561e-01 5.673214793205261230e-03 -7.126207463443279266e-03
2.921991348266601562e-01 3.951151669025421143e-02 -2.197284102439880371e-01
4.146273732185363770e-01 1.255443319678306580e-03 1.575890928506851196e-01
3.432483971118927002e-01 5.308395624160766602e-02 -1.366776525974273682e-01
5.369452834129333496e-01 1.213659718632698059e-02 -1.093337163329124451e-01
2.658074796199798584e-01 6.640208885073661804e-03 -1.002530977129936218e-01
4.951700568199157715e-01 5.950042605400085449e-02 -4.498665779829025269e-02
4.113885760307312012e-01 5.982133001089096069e-02 -2.332693338394165039e-02
5.496051907539367676e-01 1.152283884584903717e-02 -1.590211689472198486e-02
3.433778285980224609e-01 8.191801607608795166e-03 -2.585455477237701416e-01
3.482513427734375000e-01 -2.864662557840347290e-03 2.005106583237648010e-02
3.837612271308898926e-01 3.864765167236328125e-03 -2.235260307788848877e-01
4.549634158611297607e-01 3.804026171565055847e-03 -1.711666882038116455e-01
4.348968863487243652e-01 6.822217255830764771e-04 -1.414849460124969482e-01
4.052714407444000244e-01 -2.761999145150184631e-03 -7.713409513235092163e-02
2.833881974220275879e-01 4.414968192577362061e-03 -1.299927085638046265e-01
5.638476014137268066e-01 1.822099834680557251e-02 -9.188366681337356567e-02
4.369279146194458008e-01 1.589347608387470245e-02 2.837418615818023682e-01
2.492866516113281250e-01 3.395280614495277405e-02 -1.029329560697078705e-02
3.035287559032440186e-01 4.540582001209259033e-02 8.774933964014053345e-02
5.339568853378295898e-01 4.641271382570266724e-02 2.097958177328109741e-01
2.421509176492691040e-01 2.530621923506259918e-02 2.861566841602325439e-02
4.384166896343231201e-01 -3.768429160118103027e-04 1.053751856088638306e-01
5.874373912811279297e-01 4.562349990010261536e-02 -6.155246868729591370e-03
4.985811114311218262e-01 1.533031370490789413e-02 2.457153648138046265e-01
3.464637696743011475e-01 1.669183373451232910e-03 1.393308937549591064e-01
4.654543995857238770e-01 5.965494364500045776e-02 6.420691311359405518e-02
3.291231393814086914e-01 4.243879020214080811e-02 1.830029338598251343e-01
4.045780301094055176e-01 5.346103012561798096e-02 -2.147948294878005981e-01
4.866612851619720459e-01 1.854345202445983887e-03 -2.945036441087722778e-02
4.652386009693145752e-01 1.029320061206817627e-02 2.374327927827835083e-01
5.488319396972656250e-01 3.171763569116592407e-02 -2.101137042045593262e-01
4.839215278625488281e-01 5.241664126515388489e-03 1.560322493314743042e-01
4.973575770854949951e-01 5.757834762334823608e-02 1.032198593020439148e-01
4.461902081966400146e-01 1.667994260787963867e-02 -2.958857715129852295e-01
4.415929615497589111e-01 5.657920986413955688e-02 1.393778920173645020e-01
5.028988122940063477e-01 5.721575766801834106e-02 -1.134045273065567017e-01
4.969832599163055420e-01 5.874560028314590454e-02 -7.902565598487854004e-02
5.247218608856201172e-01 2.613029256463050842e-02 -2.439692318439483643e-01
4.037139117717742920e-01 5.945885553956031799e-02 -3.925419971346855164e-02
5.610408782958984375e-01 5.232666432857513428e-02 -3.980588167905807495e-02
2.948002517223358154e-01 4.477507621049880981e-02 -1.598936319351196289e-01
3.176364302635192871e-01 4.755371063947677612e-02 9.740555286407470703e-02
5.279679298400878906e-01 4.238852113485336304e-02 -2.294448763132095337e-01
5.138659477233886719e-01 5.560588091611862183e-03 -4.391534253954887390e-02
4.704732298851013184e-01 2.992035821080207825e-03 -1.284036338329315186e-01
2.408186346292495728e-01 1.676153019070625305e-02 2.798789180815219879e-03
2.943218648433685303e-01 1.561421900987625122e-03 2.024038136005401611e-02
5.353680849075317383e-01 8.513003587722778320e-03 -3.458830527961254120e-03
4.164690971374511719e-01 -1.867940649390220642e-03 -9.802614897489547729e-02
5.259438753128051758e-01 4.931957647204399109e-02 1.953909993171691895e-01
3.543041050434112549e-01 5.142106115818023682e-02 -1.955553889274597168e-01
4.940961599349975586e-01 5.979853868484497070e-02 -9.756136685609817505e-03
4.301426708698272705e-01 5.073188245296478271e-02 -2.506448328495025635e-01
5.271758437156677246e-01 5.162943899631500244e-02 -1.626075357198715210e-01
5.206147432327270508e-01 1.852468028664588928e-02 2.385679334402084351e-01
3.544021248817443848e-01 -1.534204930067062378e-03 -1.250845342874526978e-01
3.736827969551086426e-01 5.719871446490287781e-02 1.739805191755294800e-02
5.809706449508666992e-01 4.634202644228935242e-02 -5.434771254658699036e-02
2.992405295372009277e-01 1.490589231252670288e-03 -1.089700609445571899e-01
4.299753606319427490e-01 2.515379339456558228e-03 1.712425351142883301e-01
4.513390958309173584e-01 5.735620856285095215e-02 -1.584475785493850708e-01
3.822114765644073486e-01 -2.521120011806488037e-03 7.403907179832458496e-02
4.817706346511840820e-01 5.971809104084968567e-02 4.829119890928268433e-02
3.118845224380493164e-01 2.617985010147094727e-03 1.017825007438659668e-01
3.484465777873992920e-01 5.478856712579727173e-02 1.711430773138999939e-02
3.256158530712127686e-01 1.342762354761362076e-02 -2.821897566318511963e-01
5.718190670013427734e-01 2.370353043079376221e-02 -1.168559193611145020e-01
3.053251802921295166e-01 4.813104122877120972e-02 -1.275468617677688599e-01
4.569413661956787109e-01 2.943221479654312134e-04 -8.901359885931015015e-02
2.695498168468475342e-01 2.932805381715297699e-02 -2.263864129781723022e-01
2.741316258907318115e-01 4.204334691166877747e-03 -6.867351382970809937e-02
2.951058149337768555e-01 4.577148705720901489e-02 -1.401683092117309570e-01
5.481606721878051758e-01 1.321338210254907608e-02 1.182908564805984497e-01
2.445182949304580688e-01 1.296368241310119629e-02 -7.812711596488952637e-02
3.816104531288146973e-01 3.129871562123298645e-03 1.828130781650543213e-01
5.315926074981689453e-01 5.611588805913925171e-02 7.254548370838165283e-02
3.340071737766265869e-01 -2.217071130871772766e-03 -6.590997427701950073e-02
2.763045430183410645e-01 4.171418026089668274e-03 -8.783271163702011108e-02
3.333424925804138184e-01 -2.453735098242759705e-03 -3.393250703811645508e-02
4.858467876911163330e-01 5.883922427892684937e-02 -9.622085094451904297e-02
5.747053623199462891e-01 1.834222301840782166e-02 6.254786998033523560e-02
3.471094369888305664e-01 5.233915150165557861e-02 8.981339633464813232e-02
4.077380597591400146e-01 2.060189098119735718e-02 2.977825403213500977e-01
3.938509523868560791e-01 4.705099761486053467e-02 -2.766375839710235596e-01
4.076995849609375000e-01 5.958519130945205688e-02 -3.147328272461891174e-03
3.916638493537902832e-01 5.831538140773773193e-02 -8.723448961973190308e-02
5.532970428466796875e-01 1.828148216009140015e-02 -1.344045549631118774e-01
5.696661472320556641e-01 4.725378006696701050e-02 1.264096349477767944e-01
3.480501472949981689e-01 5.804637446999549866e-03 1.905975788831710815e-01
4.744454324245452881e-01 4.154011607170104980e-02 -2.907638549804687500e-01
4.546195864677429199e-01 7.661601528525352478e-03 -2.219095081090927124e-01
3.301720619201660156e-01 4.014364629983901978e-02 2.018608599901199341e-01
5.018811225891113281e-01 5.936948955059051514e-02 1.006956305354833603e-02
3.949553668498992920e-01 1.055214740335941315e-02 2.530227005481719971e-01
2.580072283744812012e-01 9.303821250796318054e-03 2.473392710089683533e-02
3.504882454872131348e-01 -3.860443830490112305e-04 1.068728193640708923e-01
3.041711747646331787e-01 1.098822429776191711e-02 1.757048964500427246e-01
3.713786005973815918e-01 5.072115361690521240e-02 1.631691157817840576e-01
5.057664513587951660e-01 5.892790108919143677e-02 3.426072746515274048e-02
3.657338917255401611e-01 5.553875863552093506e-02 5.885936319828033447e-02
2.595598697662353516e-01 3.087338991463184357e-02 8.781448751688003540e-02
5.187275409698486328e-01 4.986526072025299072e-02 -1.951391249895095825e-01
4.328669011592864990e-01 1.298022549599409103e-02 -2.839092314243316650e-01
2.994253933429718018e-01 3.619933500885963440e-03 8.970192074775695801e-02
3.912048935890197754e-01 5.574766546487808228e-02 1.089621782302856445e-01
5.715796947479248047e-01 1.814777962863445282e-02 -4.320812225341796875e-02
5.111387968063354492e-01 1.682397164404392242e-02 -2.221825569868087769e-01
3.017049431800842285e-01 4.872514307498931885e-02 -6.918212026357650757e-02
3.392616808414459229e-01 6.417555734515190125e-03 -2.404644191265106201e-01
3.825601339340209961e-01 5.213509500026702881e-02 -2.183813601732254028e-01
4.128284156322479248e-01 -3.004468977451324463e-03 -4.950102791190147400e-02
3.699008226394653320e-01 5.401993542909622192e-02 1.074121966958045959e-01
3.558771014213562012e-01 3.185426816344261169e-03 1.687751710414886475e-01
2.520745396614074707e-01 2.989937178790569305e-02 6.081739813089370728e-02
3.763730227947235107e-01 5.715575069189071655e-02 -9.666556864976882935e-02
4.158099889755249023e-01 -2.198874950408935547e-03 7.323487848043441772e-02
4.464042186737060547e-01 5.235952138900756836e-02 2.009916007518768311e-01
3.026008009910583496e-01 6.930144503712654114e-03 1.399728506803512573e-01
4.954355955123901367e-01 5.686557665467262268e-02 -1.331266164779663086e-01
4.466872513294219971e-01 5.852661281824111938e-02 -1.328725218772888184e-01
3.788632452487945557e-01 5.731944367289543152e-02 3.333447501063346863e-02
4.625568687915802002e-01 5.609969049692153931e-02 -1.766733676195144653e-01
3.183714151382446289e-01 5.050963163375854492e-02 3.036457300186157227e-02
4.541105329990386963e-01 5.520404502749443054e-02 -1.940058916807174683e-01
4.657098054885864258e-01 5.282469838857650757e-02 -2.188688516616821289e-01
4.002725481986999512e-01 5.161947757005691528e-02 1.848813146352767944e-01
5.691792964935302734e-01 4.320373013615608215e-02 -1.362436264753341675e-01
5.076599717140197754e-01 7.495796307921409607e-03 1.459114551544189453e-01
4.486837983131408691e-01 4.136985167860984802e-03 1.825206726789474487e-01
2.881320714950561523e-01 3.070205450057983398e-03 4.046750813722610474e-02
2.845821976661682129e-01 7.937211543321609497e-03 -1.881026327610015869e-01
4.691412150859832764e-01 6.054821982979774475e-02 -4.383474588394165039e-03
5.240938663482666016e-01 5.148454383015632629e-02 1.745361387729644775e-01
5.215213894844055176e-01 5.764414370059967041e-02 4.582178220152854919e-02
3.346379399299621582e-01 4.970822855830192566e-02 1.079891845583915710e-01
4.779991805553436279e-01 2.669532597064971924e-02 -3.027642369270324707e-01
4.433060288429260254e-01 -1.911010593175888062e-03 -7.125875912606716156e-03
4.012720584869384766e-01 4.985146224498748779e-04 1.471397131681442261e-01
3.602581620216369629e-01 -2.388492226600646973e-03 -1.019687578082084656e-01
3.212983608245849609e-01 4.634551703929901123e-02 1.256880313158035278e-01
4.822661578655242920e-01 2.673245966434478760e-03 -8.814694732427597046e-02
4.061401784420013428e-01 5.887252837419509888e-02 4.228045046329498291e-02
3.248951733112335205e-01 2.103671431541442871e-04 8.058939874172210693e-02
5.064077377319335938e-01 4.844695329666137695e-03 8.267761766910552979e-02
3.480046093463897705e-01 1.092299260199069977e-02 2.292882204055786133e-01
2.363264113664627075e-01 1.890764199197292328e-02 -5.768508091568946838e-02
4.752507805824279785e-01 5.450680106878280640e-02 -1.922697126865386963e-01
4.723282754421234131e-01 6.045804545283317566e-02 -2.835386991500854492e-02
4.919996559619903564e-01 5.373486876487731934e-02 1.763628721237182617e-01
4.995625913143157959e-01 4.867844283580780029e-03 1.108282059431076050e-01
4.153034687042236328e-01 4.355089738965034485e-03 -2.179939150810241699e-01
3.854802548885345459e-01 5.692514032125473022e-02 6.773049384355545044e-02
3.388836085796356201e-01 5.094445869326591492e-02 -1.746139824390411377e-01
4.727206230163574219e-01 1.848593354225158691e-03 1.033557951450347900e-01
4.355673193931579590e-01 4.798609390854835510e-02 -2.730847001075744629e-01
4.925797283649444580e-01 4.668353125452995300e-03 -1.089302673935890198e-01
5.667576789855957031e-01 1.884689182043075562e-02 1.290928870439529419e-01
2.887564301490783691e-01 4.595785588026046753e-02 -7.071502506732940674e-03
5.228970646858215332e-01 4.634834080934524536e-02 2.232257872819900513e-01
4.010083675384521484e-01 -3.359947353601455688e-03 2.714966610074043274e-02
4.245528876781463623e-01 2.653991803526878357e-03 -1.881140917539596558e-01
3.145714104175567627e-01 1.462477352470159531e-02 2.103121280670166016e-01
3.788763582706451416e-01 5.399018153548240662e-02 1.241674572229385376e-01
4.644967913627624512e-01 6.003465875983238220e-02 -7.439524680376052856e-02
2.891604900360107422e-01 3.931955993175506592e-02 1.201618313789367676e-01
3.715384900569915771e-01 4.097381234169006348e-02 -3.057714700698852539e-01
5.293597579002380371e-01 5.396286398172378540e-02 1.303257048130035400e-01
2.738760113716125488e-01 1.432584971189498901e-02 -2.182212918996810913e-01
4.469249844551086426e-01 5.954744294285774231e-03 2.068728953599929810e-01
4.261658489704132080e-01 -1.484207808971405029e-03 8.722493052482604980e-02
4.633798599243164062e-01 -5.191210657358169556e-04 -2.933560870587825775e-03
3.505478501319885254e-01 3.494881838560104370e-02 2.541759014129638672e-01
2.996205687522888184e-01 5.331873893737792969e-03 1.155362874269485474e-01
4.671227931976318359e-01 6.857698783278465271e-03 -1.968787610530853271e-01
5.148956775665283203e-01 5.139706656336784363e-03 3.071605227887630463e-03
3.289305269718170166e-01 5.298580229282379150e-02 -3.954326361417770386e-02
3.870164155960083008e-01 5.376897007226943970e-02 1.401269584894180298e-01
4.473779201507568359e-01 4.990303516387939453e-02 -2.550141811370849609e-01
5.755650997161865234e-01 1.816936582326889038e-02 2.997230738401412964e-02
5.582013726234436035e-01 2.232014946639537811e-02 1.901816278696060181e-01
3.818727135658264160e-01 5.464954674243927002e-02 -1.775770485401153564e-01
4.435898065567016602e-01 6.028446182608604431e-02 -6.604360789060592651e-02
4.906029403209686279e-01 2.585276216268539429e-02 2.930118739604949951e-01
5.609642267227172852e-01 1.815455779433250427e-02 1.442021876573562622e-01
5.296698808670043945e-01 1.156635582447052002e-02 -1.254572123289108276e-01
4.379008710384368896e-01 5.557538196444511414e-02 1.552135199308395386e-01
3.743522465229034424e-01 4.784880205988883972e-02 -2.598330378532409668e-01
3.159893751144409180e-01 4.895911365747451782e-02 -1.511342227458953857e-01
3.238516747951507568e-01 4.694336652755737305e-02 -2.064822763204574585e-01
5.388595461845397949e-01 5.199524015188217163e-02 1.438533812761306763e-01
5.460911393165588379e-01 1.073629781603813171e-02 5.179515480995178223e-02
4.603257775306701660e-01 2.421925216913223267e-02 -3.123144209384918213e-01
4.863785505294799805e-01 5.206760019063949585e-02 1.994520723819732666e-01
4.138846695423126221e-01 6.547644734382629395e-03 -2.430633455514907837e-01
4.798708856105804443e-01 1.903371699154376984e-02 2.807711660861968994e-01
3.719931840896606445e-01 3.994937986135482788e-02 2.538049221038818359e-01
3.266434967517852783e-01 4.574327170848846436e-02 -2.263500392436981201e-01
3.043738007545471191e-01 4.214560240507125854e-02 1.332863271236419678e-01
4.780850410461425781e-01 5.701450258493423462e-02 -1.498463749885559082e-01
5.238101482391357422e-01 3.518377617001533508e-02 2.673175036907196045e-01
5.834618806838989258e-01 2.452966198325157166e-02 -6.724327802658081055e-02
5.374107360839843750e-01 3.122614696621894836e-02 2.538888752460479736e-01
3.386539220809936523e-01 -2.649325877428054810e-03 -2.406788989901542664e-04
2.781799733638763428e-01 8.744614198803901672e-03 1.009247303009033203e-01
2.584775686264038086e-01 3.670720010995864868e-02 1.757271587848663330e-02
2.726331353187561035e-01 3.521603345870971680e-02 -2.036136239767074585e-01
4.266682863235473633e-01 6.003670021891593933e-02 -6.596912443637847900e-02
3.406299948692321777e-01 4.961320012807846069e-02 1.239296495914459229e-01
3.130715191364288330e-01 5.058588087558746338e-02 -1.838755607604980469e-02
5.390297770500183105e-01 5.587932467460632324e-02 -3.823338076472282410e-02
4.146170318126678467e-01 5.184667557477951050e-02 1.933163404464721680e-01
2.826320230960845947e-01 2.654220722615718842e-02 1.701311618089675903e-01
4.382681250572204590e-01 -6.207972764968872070e-04 -1.026029437780380249e-01
3.458562195301055908e-01 1.098690740764141083e-02 -2.800894677639007568e-01
3.678103983402252197e-01 5.600127577781677246e-02 -1.176486462354660034e-01
2.746235728263854980e-01 4.989152774214744568e-03 2.490141242742538452e-02
2.616997957229614258e-01 8.328542113304138184e-03 -1.171331629157066345e-01
3.508124053478240967e-01 5.504868179559707642e-02 -9.219416975975036621e-02
4.488939344882965088e-01 8.914228528738021851e-04 -1.240264847874641418e-01
5.346783399581909180e-01 1.116595789790153503e-02 1.328094303607940674e-01
3.434775173664093018e-01 5.459863692522048950e-02 -8.811458945274353027e-03
5.593585371971130371e-01 5.114399641752243042e-02 1.015321463346481323e-01
3.654159605503082275e-01 6.661489605903625488e-04 1.395407319068908691e-01
4.302718937397003174e-01 -2.293724566698074341e-03 -4.877253621816635132e-02
2.789860367774963379e-01 4.370814189314842224e-02 -9.454207122325897217e-02
3.132851123809814453e-01 3.667655587196350098e-02 1.944950520992279053e-01
5.934305191040039062e-01 2.753092534840106964e-02 -2.195535227656364441e-02
4.250899255275726318e-01 -2.787083387374877930e-03 -2.266232483088970184e-02
2.616248130798339844e-01 1.684754341840744019e-02 -2.011127024888992310e-01
3.447242975234985352e-01 4.719251021742820740e-02 -2.374559044837951660e-01
5.123747587203979492e-01 5.091842263936996460e-03 5.583943426609039307e-02
3.722890913486480713e-01 -5.234424024820327759e-04 1.217211037874221802e-01
4.542827308177947998e-01 6.049736216664314270e-02 1.882886514067649841e-02
5.475698709487915039e-01 5.016647279262542725e-02 -1.348812431097030640e-01
2.485695779323577881e-01 2.303195744752883911e-02 -1.720290184020996094e-01
5.024517774581909180e-01 5.540675297379493713e-02 1.429909169673919678e-01
2.691326141357421875e-01 4.155680909752845764e-02 -3.454547747969627380e-02
3.134869039058685303e-01 4.029287397861480713e-02 -2.544423937797546387e-01
4.864350259304046631e-01 7.542859762907028198e-03 -1.741026341915130615e-01
5.224106907844543457e-01 7.662160322070121765e-03 -7.168754190206527710e-02
3.514163494110107422e-01 4.509855806827545166e-02 1.954917013645172119e-01
4.379765689373016357e-01 5.419490858912467957e-03 -2.134640365839004517e-01
2.946344017982482910e-01 4.178253933787345886e-03 -1.577231734991073608e-01
2.450423240661621094e-01 2.942609600722789764e-02 -1.299296766519546509e-01
2.838848233222961426e-01 3.375513851642608643e-02 1.477585732936859131e-01
4.958603978157043457e-01 3.808752074837684631e-02 2.825185656547546387e-01
2.463852316141128540e-01 1.404493115842342377e-02 -1.181999072432518005e-01
3.219620585441589355e-01 3.496618568897247314e-02 2.172466963529586792e-01
4.462489187717437744e-01 5.024651437997817993e-02 2.227647304534912109e-01
3.722193837165832520e-01 7.680410519242286682e-03 -2.624063491821289062e-01
5.649217367172241211e-01 3.375358879566192627e-02 -1.736142784357070923e-01
5.178368687629699707e-01 5.328861624002456665e-02 1.589408814907073975e-01
4.188878238201141357e-01 5.502277240157127380e-02 -1.976745873689651489e-01
2.584272623062133789e-01 3.489569574594497681e-02 4.638090357184410095e-02
3.552145361900329590e-01 -3.304809331893920898e-03 -4.129483178257942200e-02
3.421714901924133301e-01 4.792924225330352783e-02 1.505858749151229858e-01
2.786523997783660889e-01 7.174586877226829529e-03 -1.638062447309494019e-01
2.843532562255859375e-01 1.416748017072677612e-02 1.557697504758834839e-01
5.152239799499511719e-01 5.737684667110443115e-02 7.821987569332122803e-02
4.548097252845764160e-01 3.865707665681838989e-02 2.928531765937805176e-01
5.571761727333068848e-01 1.308888290077447891e-02 -1.413799822330474854e-03
3.786870241165161133e-01 5.790354311466217041e-02 -1.057240180671215057e-02
4.345411956310272217e-01 1.064318232238292694e-02 2.542549371719360352e-01
2.896189689636230469e-01 4.483870416879653931e-02 3.858523815870285034e-02
4.843942821025848389e-01 1.084959320724010468e-02 2.256024628877639771e-01
3.326844274997711182e-01 -1.875666901469230652e-03 -8.201102167367935181e-02
2.698286175727844238e-01 1.368792727589607239e-02 1.170554459095001221e-01
3.512318134307861328e-01 -2.890739589929580688e-03 -6.817221641540527344e-02
5.504483580589294434e-01 5.466177687048912048e-02 2.383266761898994446e-02
4.069205522537231445e-01 1.404797099530696869e-02 2.749631404876708984e-01
2.930419445037841797e-01 4.619190096855163574e-02 -1.170470789074897766e-01
5.050109028816223145e-01 3.824875131249427795e-02 -2.727912962436676025e-01
4.202327728271484375e-01 3.235870972275733948e-02 -3.357222676277160645e-01
3.636710047721862793e-01 2.964274957776069641e-02 -3.339867591857910156e-01
3.632331788539886475e-01 5.418199300765991211e-02 -1.584109812974929810e-01
5.886971354484558105e-01 3.772626072168350220e-02 -8.567604422569274902e-02
4.713745117187500000e-01 4.876483976840972900e-02 -2.528364062309265137e-01
3.098953664302825928e-01 4.831765964627265930e-02 5.355602502822875977e-02
4.785756766796112061e-01 1.927126199007034302e-02 -2.799416184425354004e-01
2.501002252101898193e-01 1.041317731142044067e-02 -2.396698668599128723e-02
3.343268036842346191e-01 5.336091667413711548e-02 -8.355509489774703979e-02
4.622612595558166504e-01 5.364302918314933777e-02 1.868602633476257324e-01
4.907885193824768066e-01 4.620648175477981567e-02 -2.550648748874664307e-01
3.978784084320068359e-01 3.439493477344512939e-03 -2.149087339639663696e-01
3.961568474769592285e-01 1.310380175709724426e-02 -2.988660335540771484e-01
4.260043203830718994e-01 -2.131501212716102600e-03 -7.034590095281600952e-02
4.145446121692657471e-01 1.349671743810176849e-02 -2.960159480571746826e-01
4.574033319950103760e-01 3.735125064849853516e-04 9.425173699855804443e-02
5.088669061660766602e-01 9.418962523341178894e-03 1.738460063934326172e-01
3.080567717552185059e-01 7.947720587253570557e-05 -9.009602665901184082e-02
4.222173094749450684e-01 5.236679688096046448e-02 -2.334373146295547485e-01
2.786960601806640625e-01 4.259376227855682373e-02 -1.288433820009231567e-01
4.364382326602935791e-01 1.447347924113273621e-03 1.488830447196960449e-01
4.099620878696441650e-01 3.726042062044143677e-02 2.894591391086578369e-01
5.082079172134399414e-01 5.454948544502258301e-02 -1.554605811834335327e-01
4.313827753067016602e-01 6.123403087258338928e-03 2.161372005939483643e-01
3.946833014488220215e-01 -3.115143626928329468e-04 -1.560382694005966187e-01
4.085692763328552246e-01 5.870734900236129761e-02 -1.059811115264892578e-01
4.496591091156005859e-01 4.321254044771194458e-02 -2.974324226379394531e-01
4.173158407211303711e-01 4.902353882789611816e-02 2.238781601190567017e-01
3.890515863895416260e-01 -3.599502146244049072e-03 -4.064406827092170715e-02
4.014372527599334717e-01 8.072583004832267761e-03 2.365696579217910767e-01
4.363259673118591309e-01 5.405317246913909912e-02 -2.133428901433944702e-01
3.341031074523925781e-01 4.242833703756332397e-03 1.596077084541320801e-01
5.879423618316650391e-01 4.091278463602066040e-02 1.136510372161865234e-01
5.523326396942138672e-01 3.928625583648681641e-02 2.203172594308853149e-01
2.718182802200317383e-01 8.708309382200241089e-03 8.013731986284255981e-02
4.470426142215728760e-01 -1.495636999607086182e-03 -3.528437018394470215e-02
2.936248183250427246e-01 2.037131227552890778e-02 -2.737864851951599121e-01
3.300495743751525879e-01 5.191493406891822815e-02 4.158407077193260193e-02
2.857890129089355469e-01 4.553869366645812988e-02 -7.721119374036788940e-02
5.053983926773071289e-01 5.332534015178680420e-02 -1.765785217285156250e-01
4.770939946174621582e-01 5.046528577804565430e-02 2.191175669431686401e-01
4.758315682411193848e-01 4.843728989362716675e-02 2.370115071535110474e-01
3.018489480018615723e-01 5.001924932003021240e-03 -1.847892552614212036e-01
3.785934746265411377e-01 7.998958230018615723e-03 2.293829470872879028e-01
5.189945697784423828e-01 5.821590125560760498e-02 -1.342830155044794083e-02
5.800999402999877930e-01 3.599281981587409973e-02 -1.258730143308639526e-01
5.591527819633483887e-01 4.037599265575408936e-02 2.038174718618392944e-01
5.435224771499633789e-01 1.932999864220619202e-02 2.041051685810089111e-01
5.387787222862243652e-01 1.059991866350173950e-02 -6.838519871234893799e-02
5.713312029838562012e-01 5.038693919777870178e-02 5.126565694808959961e-02
4.666295349597930908e-01 2.515148371458053589e-04 6.082564592361450195e-02
5.575551390647888184e-01 5.223737657070159912e-02 8.368758857250213623e-02
5.983131527900695801e-01 3.150659799575805664e-02 -3.704759292304515839e-03
3.108913302421569824e-01 4.222401976585388184e-02 1.483590006828308105e-01
4.032133221626281738e-01 5.453523248434066772e-02 1.469331532716751099e-01
4.789784252643585205e-01 1.296789478510618210e-02 2.478582412004470825e-01
2.556939721107482910e-01 3.605382144451141357e-02 -1.148838400840759277e-01
5.325717329978942871e-01 9.105404838919639587e-03 9.288465231657028198e-02
4.075272083282470703e-01 4.372628405690193176e-02 2.582161724567413330e-01
3.291898965835571289e-01 9.252984076738357544e-03 1.994391381740570068e-01
5.580806136131286621e-01 1.499617379158735275e-02 1.054326966404914856e-01
4.958792328834533691e-01 6.066517904400825500e-03 -1.293572187423706055e-01
3.885922431945800781e-01 4.242173582315444946e-02 -3.049037754535675049e-01
4.636498689651489258e-01 6.007105857133865356e-02 4.584827646613121033e-02
3.680425286293029785e-01 2.891596406698226929e-02 2.833088040351867676e-01
-7.512458562850952148e-01 3.398003801703453064e-02 1.288870126008987427e-01
-6.972551941871643066e-01 1.118369773030281067e-02 -4.727286100387573242e-02
-5.078156590461730957e-01 5.714033171534538269e-02 7.561999559402465820e-02
-4.016907811164855957e-01 3.525495901703834534e-02 9.231375157833099365e-02
-5.225903987884521484e-01 1.337255164980888367e-02 -2.003228217363357544e-01
-4.721451401710510254e-01 1.077987998723983765e-02 -6.911043077707290649e-02
-3.894154429435729980e-01 3.137378394603729248e-02 4.513337463140487671e-02
-5.424064993858337402e-01 6.584504619240760803e-03 -2.037621662020683289e-02
-4.858458638191223145e-01 5.744163319468498230e-02 -1.281333900988101959e-02
-6.087677478790283203e-01 8.085032925009727478e-03 6.889961659908294678e-02
-4.906041622161865234e-01 9.035445749759674072e-03 -3.835717588663101196e-02
-5.165832638740539551e-01 7.987670600414276123e-03 1.740330643951892853e-02
-6.379572749137878418e-01 5.396756529808044434e-02 1.506469845771789551e-01
-4.908118844032287598e-01 4.353456571698188782e-02 -2.461823225021362305e-01
-5.565270781517028809e-01 4.237313941121101379e-02 -2.792047262191772461e-01
-6.097750663757324219e-01 9.141072630882263184e-03 9.304800629615783691e-02
-7.488718032836914062e-01 4.176000505685806274e-02 1.104983240365982056e-01
-7.113783955574035645e-01 1.259395107626914978e-02 -2.920450642704963684e-02
-6.888759136199951172e-01 1.038728468120098114e-02 -6.774008274078369141e-03
-5.995036959648132324e-01 1.177732832729816437e-02 1.393047571182250977e-01
-5.609530210494995117e-01 6.059129536151885986e-02 -2.753753587603569031e-02
-6.060186624526977539e-01 6.390523165464401245e-03 -5.033090710639953613e-04
-4.678984880447387695e-01 2.939588204026222229e-02 1.969542056322097778e-01
-5.302678346633911133e-01 5.384103208780288696e-02 1.523648649454116821e-01
-6.496526002883911133e-01 5.821772664785385132e-02 5.548530071973800659e-02
-5.914902091026306152e-01 6.625534966588020325e-03 -8.610585331916809082e-02
-4.218438267707824707e-01 2.209695801138877869e-02 9.024824202060699463e-02
-7.753466367721557617e-01 2.687600441277027130e-02 -6.063386797904968262e-03
-5.470356941223144531e-01 5.873597413301467896e-02 -1.085110083222389221e-01
-7.344038486480712891e-01 5.010232329368591309e-02 -6.768012791872024536e-02
-6.296303272247314453e-01 6.917323917150497437e-03 -7.410164922475814819e-03
-6.041613817214965820e-01 6.603017449378967285e-03 -7.684983313083648682e-02
-7.065613865852355957e-01 5.432453006505966187e-02 -5.273229628801345825e-02
-5.109828710556030273e-01 5.634948983788490295e-02 -1.322828978300094604e-01
-5.035492777824401855e-01 5.683102458715438843e-02 -1.113908290863037109e-01
-7.241898179054260254e-01 2.910588495433330536e-02 1.695187538862228394e-01
-4.073752760887145996e-01 2.144179865717887878e-02 -9.340007603168487549e-02
-5.536176562309265137e-01 1.366427168250083923e-02 1.584104150533676147e-01
-4.886383712291717529e-01 9.985823184251785278e-03 -9.556464850902557373e-02
-7.153881192207336426e-01 4.349486902356147766e-02 -1.927882432937622070e-01
-5.848484039306640625e-01 7.735019549727439880e-03 6.583806872367858887e-02
-4.446931481361389160e-01 1.425040885806083679e-02 -8.899629861116409302e-02
-3.898077011108398438e-01 2.750533819198608398e-02 -8.124786615371704102e-02
-7.598432302474975586e-01 2.113917469978332520e-02 -3.565843775868415833e-02
-5.764034986495971680e-01 4.417902603745460510e-02 -2.731188535690307617e-01
-6.308323144912719727e-01 5.353742837905883789e-02 -1.885838359594345093e-01
-5.770443081855773926e-01 5.352501571178436279e-02 1.712377965450286865e-01
-6.093427538871765137e-01 6.030679866671562195e-02 -4.473760724067687988e-02
-7.518720626831054688e-01 4.314182326197624207e-02 9.145125746726989746e-02
-5.258368253707885742e-01 4.420608654618263245e-02 2.216254472732543945e-01
-5.697760581970214844e-01 1.976352185010910034e-02 2.123894542455673218e-01
-4.474536180496215820e-01 4.720157757401466370e-02 -1.728361696004867554e-01
-6.311559081077575684e-01 5.761204287409782410e-02 9.566237032413482666e-02
-6.054525375366210938e-01 5.738701671361923218e-02 -1.427336186170578003e-01
-7.320315837860107422e-01 4.625344276428222656e-02 1.133868694305419922e-01
-7.566015720367431641e-01 2.484148368239402771e-02 -1.208014711737632751e-01
-6.435922384262084961e-01 1.146796159446239471e-02 1.143040359020233154e-01
-5.217353701591491699e-01 5.111347138881683350e-02 1.754873991012573242e-01
-5.011131763458251953e-01 4.740644246339797974e-02 1.897316575050354004e-01
-4.429275989532470703e-01 4.294462129473686218e-02 1.510690897703170776e-01
-6.292682886123657227e-01 5.994539707899093628e-02 -3.601621836423873901e-03
-7.758455276489257812e-01 3.944430127739906311e-02 3.371011465787887573e-03
-6.139009594917297363e-01 9.346509352326393127e-03 -1.529504805803298950e-01
-4.737078547477722168e-01 5.520983785390853882e-02 5.709382146596908569e-02
-5.481798648834228516e-01 6.038464605808258057e-02 -1.868764124810695648e-02
-7.383738756179809570e-01 5.027879774570465088e-02 -2.263498120009899139e-02
-6.302517652511596680e-01 5.965985357761383057e-02 -5.034701153635978699e-02
-4.209715127944946289e-01 1.731724292039871216e-02 -5.384763702750205994e-03
-5.753202438354492188e-01 1.101956330239772797e-02 -1.884472072124481201e-01
-6.491386294364929199e-01 5.059617385268211365e-02 -2.082519680261611938e-01
-5.954025387763977051e-01 5.952091142535209656e-02 6.640778481960296631e-02
-5.682294368743896484e-01 6.848674267530441284e-03 3.360775113105773926e-02
-4.971324801445007324e-01 4.082566127181053162e-02 2.167822867631912231e-01
-6.252664923667907715e-01 5.630194395780563354e-02 1.248597502708435059e-01
-5.541059970855712891e-01 6.306463852524757385e-03 -4.137261211872100830e-02
-4.447475075721740723e-01 3.913715109229087830e-02 -2.180724740028381348e-01
-6.916810870170593262e-01 2.793304808437824249e-02 2.034873664379119873e-01
-6.510691642761230469e-01 1.217561587691307068e-02 -1.724872440099716187e-01
-4.992218911647796631e-01 9.717946872115135193e-03 -1.112517341971397400e-01
-7.126692533493041992e-01 1.953234151005744934e-02 1.321625411510467529e-01
