2.097807079553604126e-01 4.850659891963005066e-02 -2.931524515151977539e-01
-2.690929919481277466e-03 6.348125636577606201e-02 1.521837711334228516e-02
-2.298184111714363098e-02 1.636021137237548828e-01 -1.188993155956268311e-01
-9.557631611824035645e-02 1.614887118339538574e-01 -2.322179079055786133e-01
1.219243258237838745e-01 1.636654734611511230e-01 -3.085286915302276611e-01
7.578158378601074219e-02 1.596281528472900391e-01 -4.348482489585876465e-01
-3.879690542817115784e-02 1.626446843147277832e-01 -3.134635686874389648e-01
-4.702881351113319397e-02 1.617079824209213257e-01 -7.669624686241149902e-02
1.239757388830184937e-01 1.255879104137420654e-01 2.311122417449951172e-01
9.307990968227386475e-02 1.649273037910461426e-01 -1.276991367340087891e-01
2.806046009063720703e-01 1.279342472553253174e-01 -6.665619611740112305e-01
1.843183934688568115e-01 1.601627618074417114e-01 -3.559097647666931152e-02
2.715412154793739319e-02 1.592424958944320679e-01 2.340075373649597168e-02
2.132543921470642090e-02 1.640803366899490356e-01 -3.058910667896270752e-01
1.468703597784042358e-01 1.597999036312103271e-01 -4.049470424652099609e-01
3.910111635923385620e-02 1.632116734981536865e-01 -3.450113236904144287e-01
5.142735317349433899e-02 1.403153836727142334e-01 1.909582912921905518e-01
-9.262600541114807129e-02 4.765120893716812134e-02 -5.308316946029663086e-01
-1.808934286236763000e-02 5.930620059370994568e-02 -7.414242029190063477e-01
-2.981002032756805420e-01 6.605579704046249390e-02 -4.344172477722167969e-01
-3.839236199855804443e-01 1.003840789198875427e-01 -2.353202551603317261e-01
4.284519553184509277e-01 1.188602671027183533e-01 5.418300628662109375e-03
-1.578763425350189209e-01 5.612917989492416382e-02 -1.776139438152313232e-01
-8.645135164260864258e-02 4.654711857438087463e-02 -4.975998699665069580e-01
-5.489306524395942688e-02 1.561752706766128540e-01 -4.652833342552185059e-01
4.539652764797210693e-01 1.269145905971527100e-01 -3.916577994823455811e-01
-6.068009510636329651e-02 1.344369947910308838e-01 -6.993317604064941406e-01
-4.523615911602973938e-02 5.083240941166877747e-02 -1.656490713357925415e-01
-4.798454418778419495e-02 4.853701591491699219e-02 -2.156979143619537354e-01
2.931714057922363281e-01 6.017385423183441162e-02 -1.447507292032241821e-01
-2.828910052776336670e-01 6.622171401977539062e-02 -2.538614273071289062e-01
-1.371828466653823853e-01 5.276212096214294434e-02 -2.159456908702850342e-01
4.828685224056243896e-01 1.166704967617988586e-01 -3.745001852512359619e-01
-2.256396710872650146e-01 1.126397997140884399e-01 -7.112615704536437988e-01
2.223780304193496704e-01 4.806926101446151733e-02 -4.168640971183776855e-01
2.868368327617645264e-01 1.566350907087326050e-01 -2.710783779621124268e-01
1.866122782230377197e-01 4.616640508174896240e-02 -4.115359783172607422e-01
-1.339810341596603394e-01 1.571383476257324219e-01 -3.531009554862976074e-01
2.430889308452606201e-01 1.548882126808166504e-01 -4.157416224479675293e-01
-9.064868092536926270e-02 4.658567532896995544e-02 -3.357917964458465576e-01
-8.088256418704986572e-02 6.978262960910797119e-02 4.182618856430053711e-02
4.044871330261230469e-01 1.195838749408721924e-01 -5.675467252731323242e-01
-2.608164846897125244e-01 1.426523923873901367e-01 -9.225392341613769531e-02
-2.692230045795440674e-01 9.579112380743026733e-02 2.713084220886230469e-02
-3.668119385838508606e-02 4.612091928720474243e-02 -2.741236686706542969e-01
-5.628954619169235229e-03 5.015743151307106018e-02 -6.454534530639648438e-01
3.921786844730377197e-01 7.743644714355468750e-02 -8.477757871150970459e-02
-3.129813969135284424e-01 7.960148155689239502e-02 -1.427197903394699097e-01
-5.828366801142692566e-02 1.486720144748687744e-01 1.077027916908264160e-01
1.607359796762466431e-01 4.609606787562370300e-02 -3.065916001796722412e-01
2.247977554798126221e-01 1.526225060224533081e-01 -4.752974212169647217e-01
1.551118493080139160e-01 1.622357070446014404e-01 -6.318591535091400146e-02
1.859100759029388428e-01 5.535947158932685852e-02 -1.088535040616989136e-01
3.540999591350555420e-01 1.488320976495742798e-01 -1.042390018701553345e-01
1.938814669847488403e-02 6.660097837448120117e-02 4.766350984573364258e-02
1.730863004922866821e-01 1.548755019903182983e-01 6.096380949020385742e-02
3.702335357666015625e-01 1.072671115398406982e-01 -6.609348058700561523e-01
3.200480639934539795e-01 5.796984210610389709e-02 -2.483568638563156128e-01
3.371224403381347656e-01 6.691338121891021729e-02 -6.012264490127563477e-01
-1.343579590320587158e-01 6.360408663749694824e-02 -5.027008056640625000e-02
-1.590879410505294800e-01 1.500393152236938477e-01 3.550857305526733398e-03
4.566291570663452148e-01 1.027926206588745117e-01 -5.800913274288177490e-02
-1.191362738609313965e-01 1.515451222658157349e-01 -4.916516244411468506e-01
2.183352410793304443e-01 5.193152651190757751e-02 -2.024431824684143066e-01
-1.799233555793762207e-01 5.470403656363487244e-02 -2.446361631155014038e-01
-1.012331992387771606e-01 5.941371992230415344e-02 -7.323545217514038086e-02
-1.718835681676864624e-01 1.114127039909362793e-01 -7.581398487091064453e-01
-2.992750406265258789e-01 1.096182242035865784e-01 9.035319089889526367e-03
-8.977231383323669434e-02 1.616730839014053345e-01 -1.724341660737991333e-01
8.699973672628402710e-02 1.633519232273101807e-01 -5.952884256839752197e-02
-8.545579016208648682e-02 7.441344857215881348e-02 7.401508092880249023e-02
-3.326680660247802734e-01 7.267901301383972168e-02 -3.729129135608673096e-01
2.543350756168365479e-01 1.568235158920288086e-01 -3.534465432167053223e-01
8.438888192176818848e-02 7.385321706533432007e-02 1.055123805999755859e-01
2.841376513242721558e-02 5.504533648490905762e-02 -7.477697730064392090e-02
2.291885167360305786e-01 1.607837080955505371e-01 -1.399265378713607788e-01
4.259627163410186768e-01 8.718886971473693848e-02 -5.661881566047668457e-01
1.519454717636108398e-01 1.509210318326950073e-01 1.116092801094055176e-01
-1.637682467699050903e-01 5.263683944940567017e-02 -5.450802445411682129e-01
-2.660079896450042725e-01 1.420551687479019165e-01 -4.088625311851501465e-01
6.602475792169570923e-02 1.199004799127578735e-01 2.402483224868774414e-01
-1.806649416685104370e-01 1.335845142602920532e-01 -6.353183388710021973e-01
-6.678327918052673340e-05 1.198455542325973511e-01 2.327286601066589355e-01
2.862923741340637207e-01 5.540549010038375854e-02 -2.324542999267578125e-01
4.799478650093078613e-01 1.122681871056556702e-01 -4.189364910125732422e-01
9.614929556846618652e-03 4.328688606619834900e-02 -4.444985687732696533e-01
3.890993893146514893e-01 6.541675329208374023e-02 -2.936526834964752197e-01
1.827038228511810303e-01 6.751821935176849365e-02 3.330957889556884766e-02
3.335476219654083252e-01 7.546277344226837158e-02 -6.686799526214599609e-01
1.106218695640563965e-01 4.547484591603279114e-02 -2.766892313957214355e-01
2.328593432903289795e-01 1.590908467769622803e-01 -7.434932887554168701e-02
1.152742058038711548e-01 4.465559497475624084e-02 -3.158435523509979248e-01
-1.856551766395568848e-01 7.057365030050277710e-02 -2.865320444107055664e-02
-1.795745939016342163e-01 6.141738593578338623e-02 -1.231257617473602295e-01
-2.598746716976165771e-01 1.335223168134689331e-01 -5.411143898963928223e-01
-2.482981979846954346e-01 6.034311652183532715e-02 -5.109159946441650391e-01
2.773330919444561005e-02 4.305042698979377747e-02 -4.030605554580688477e-01
4.162400066852569580e-01 7.220631092786788940e-02 -4.622722268104553223e-01
2.499235048890113831e-02 4.584213346242904663e-02 -5.677728056907653809e-01
1.688548177480697632e-01 1.437283754348754883e-01 1.582543253898620605e-01
-6.257648766040802002e-02 1.586102396249771118e-01 -1.813256740570068359e-02
1.101925522089004517e-01 1.574282795190811157e-01 -4.680516123771667480e-01
9.706519544124603271e-02 1.478119045495986938e-01 -5.993930101394653320e-01
-1.570974141359329224e-01 1.300360858440399170e-01 -6.796020269393920898e-01
-1.604825854301452637e-01 7.084728777408599854e-02 -2.670526504516601562e-03
-1.578045338392257690e-01 4.981034621596336365e-02 -4.312713444232940674e-01
2.510794699192047119e-01 6.857089698314666748e-02 2.557158470153808594e-03
1.192592978477478027e-01 1.426025032997131348e-01 -6.448302268981933594e-01
3.973595499992370605e-01 1.242161840200424194e-01 4.619109630584716797e-02
2.156608849763870239e-01 1.618633270263671875e-01 -1.849437057971954346e-01
2.830803096294403076e-01 1.558884978294372559e-01 -8.814759552478790283e-02
1.233295500278472900e-01 6.917724013328552246e-02 6.601402163505554199e-02
5.549287796020507812e-02 1.438683569431304932e-01 -6.425338983535766602e-01
-1.940455585718154907e-01 8.120837807655334473e-02 4.196467995643615723e-02
3.443984091281890869e-01 1.326273977756500244e-01 -5.682660341262817383e-01
-2.935872673988342285e-01 1.333422511816024780e-01 -4.771285653114318848e-01
-1.735095530748367310e-01 5.126449093222618103e-02 -3.571687638759613037e-01
1.447606831789016724e-01 5.382661521434783936e-02 -1.092535257339477539e-01
-3.779145479202270508e-01 9.020366519689559937e-02 -4.200944304466247559e-01
3.622413873672485352e-01 7.019649446010589600e-02 -1.121316701173782349e-01
-1.036624759435653687e-01 4.655087366700172424e-02 -3.960524201393127441e-01
-1.318536251783370972e-01 7.253198325634002686e-02 3.305509686470031738e-02
-2.482650279998779297e-01 1.373660862445831299e-01 -3.149092197418212891e-03
2.662979960441589355e-01 6.343069672584533691e-02 -6.665786504745483398e-01
1.114801019430160522e-01 4.369461163878440857e-02 -4.195720255374908447e-01
4.207763373851776123e-01 8.181737363338470459e-02 -1.011459231376647949e-01
-2.610630989074707031e-01 1.395583748817443848e-01 -4.992273449897766113e-02
-1.434288918972015381e-01 1.540691852569580078e-01 -3.548982739448547363e-02
2.849742174148559570e-01 6.890591233968734741e-02 -2.337622642517089844e-02
-1.833544969558715820e-01 8.549733459949493408e-02 7.499977946281433105e-02
-1.191997155547142029e-02 1.621655523777008057e-01 -5.531644821166992188e-02
2.510809004306793213e-01 1.379399448633193970e-01 1.473259031772613525e-01
3.229373097419738770e-01 6.994083523750305176e-02 -5.502082407474517822e-02
2.952593266963958740e-01 1.565336883068084717e-01 -1.884417235851287842e-01
-1.863128393888473511e-01 1.536425650119781494e-01 -1.208788156509399414e-01
8.540856838226318359e-02 1.383900046348571777e-01 -6.857562065124511719e-01
3.375104069709777832e-01 1.523409187793731689e-01 -2.349573969841003418e-01
2.901744246482849121e-01 1.564370393753051758e-01 -1.359784454107284546e-01
2.825292050838470459e-01 5.339808017015457153e-02 -4.762293100357055664e-01
3.932693973183631897e-02 6.983367353677749634e-02 -8.075398802757263184e-01
3.947463035583496094e-01 1.447592824697494507e-01 -1.899701207876205444e-01
-1.797423213720321655e-01 1.531563103199005127e-01 -8.813439309597015381e-02
2.994056046009063721e-01 5.861593037843704224e-02 -1.839847266674041748e-01
1.751097887754440308e-01 1.628837138414382935e-01 -2.762622535228729248e-01
1.618202775716781616e-01 7.700997591018676758e-02 1.122326254844665527e-01
-8.832269906997680664e-02 1.186292096972465515e-01 -7.755941748619079590e-01
-3.398715555667877197e-01 1.291973739862442017e-01 -1.755466908216476440e-01
2.542082965373992920e-01 5.494597181677818298e-02 -5.782983303070068359e-01
1.372819989919662476e-01 6.565311551094055176e-02 -7.693374156951904297e-01
-1.316022872924804688e-01 1.432283520698547363e-01 -5.871724486351013184e-01
4.409428238868713379e-01 1.104667037725448608e-01 -5.380042195320129395e-01
6.128681823611259460e-02 1.654746830463409424e-01 -2.245270907878875732e-01
4.497743025422096252e-02 6.251029670238494873e-02 -7.693486809730529785e-01
-3.888048231601715088e-01 9.613101184368133545e-02 -3.271178305149078369e-01
-2.117190659046173096e-01 1.458362489938735962e-01 -4.621131420135498047e-01
-1.026596128940582275e-01 6.333535164594650269e-02 -7.382228374481201172e-01
1.927608102560043335e-01 1.608713865280151367e-01 -3.321000039577484131e-01
-5.581370368599891663e-02 1.258423030376434326e-01 2.096216678619384766e-01
-1.284161657094955444e-01 1.415037661790847778e-01 1.117101311683654785e-01
-2.833450958132743835e-02 5.232961103320121765e-02 -1.306891143321990967e-01
1.080527603626251221e-01 1.345613002777099609e-01 -7.093958854675292969e-01
-2.112890779972076416e-01 5.861330032348632812e-02 -5.736477971076965332e-01
1.829461604356765747e-01 1.152195259928703308e-01 -7.823251485824584961e-01
6.761229038238525391e-02 4.422789439558982849e-02 -3.062150478363037109e-01
-4.319781437516212463e-02 5.703550949692726135e-02 -6.938700377941131592e-02
5.171918123960494995e-02 1.507110446691513062e-01 -5.713678002357482910e-01
-8.310669660568237305e-02 1.608352065086364746e-01 -3.192318975925445557e-01
-1.225835829973220825e-01 1.535542458295822144e-01 -4.541655182838439941e-01
-2.268812358379364014e-01 1.443261653184890747e-01 -3.537228703498840332e-02
4.018945395946502686e-01 1.254893690347671509e-01 -5.354733467102050781e-01
-2.933475375175476074e-01 1.415017694234848022e-01 -2.276424765586853027e-01
3.973051011562347412e-01 1.370879858732223511e-01 -3.065174818038940430e-02
-5.482796207070350647e-02 1.633428633213043213e-01 -2.186229676008224487e-01
-4.838129505515098572e-02 1.449879407882690430e-01 1.397503614425659180e-01
-2.433172166347503662e-01 1.480249464511871338e-01 -3.248321115970611572e-01
-1.731060445308685303e-01 1.522206068038940430e-01 -4.085066616535186768e-01
3.848015069961547852e-01 9.378585964441299438e-02 3.770521283149719238e-02
4.415102303028106689e-04 4.428666830062866211e-02 -3.172807097434997559e-01
-1.192803233861923218e-01 5.215801298618316650e-02 -6.035993099212646484e-01
-1.877200752496719360e-01 8.179894834756851196e-02 -7.622258663177490234e-01
-3.171109557151794434e-01 7.067070901393890381e-02 -2.968572974205017090e-01
-1.171564683318138123e-02 1.437090337276458740e-01 -6.379826068878173828e-01
2.561083137989044189e-01 1.554277241230010986e-01 -2.387812733650207520e-02
1.704235225915908813e-01 4.729763790965080261e-02 -5.266882181167602539e-01
-2.776571214199066162e-01 8.610762655735015869e-02 -2.836906909942626953e-02
2.578752636909484863e-01 5.050984397530555725e-02 -4.250164031982421875e-01
1.560458391904830933e-01 1.579985916614532471e-01 -4.365954399108886719e-01
-3.364049270749092102e-02 6.055623665452003479e-02 -2.391809225082397461e-02
-8.737573027610778809e-02 1.592786014080047607e-01 -6.240309774875640869e-02
-1.107245534658432007e-01 1.477254927158355713e-01 -5.514653325080871582e-01
2.118426412343978882e-01 1.486476510763168335e-01 1.026286482810974121e-01
1.499995961785316467e-02 4.589089006185531616e-02 -2.507379055023193359e-01
-2.262858748435974121e-01 8.497751504182815552e-02 3.108760714530944824e-02
6.854704022407531738e-02 6.187987327575683594e-02 6.740689277648925781e-03
-2.903884053230285645e-01 1.415190547704696655e-01 -3.159078359603881836e-01
2.540398389101028442e-02 7.578091323375701904e-02 1.162652671337127686e-01
-1.876857131719589233e-01 5.368698388338088989e-02 -2.943211495876312256e-01
3.755703270435333252e-01 6.304968893527984619e-02 -4.084595739841461182e-01
1.475352793931961060e-03 4.852601513266563416e-02 -1.895411014556884766e-01
-2.195340991020202637e-01 6.438417732715606689e-02 -6.360327005386352539e-01
4.754419624805450439e-01 9.071443974971771240e-02 -1.879596710205078125e-01
-1.433058679103851318e-01 4.970060288906097412e-02 -4.976823925971984863e-01
9.973669797182083130e-02 1.574401408433914185e-01 5.338913202285766602e-02
3.124313652515411377e-01 6.031473353505134583e-02 -5.639165043830871582e-01
3.154586255550384521e-01 1.407836079597473145e-01 -5.286463499069213867e-01
1.064371317625045776e-02 5.760822445154190063e-02 -4.500588774681091309e-02
1.083246469497680664e-01 4.379761591553688049e-02 -3.673703968524932861e-01
-1.690709888935089111e-01 1.445129364728927612e-01 5.018073320388793945e-02
7.718619704246520996e-02 4.953067749738693237e-02 -1.624367386102676392e-01
3.565235733985900879e-01 6.537808477878570557e-02 -5.430593490600585938e-01
6.165395304560661316e-02 4.489596560597419739e-02 -5.391085147857666016e-01
8.652420341968536377e-02 1.513413041830062866e-01 -5.610183477401733398e-01
1.254608482122421265e-01 5.977523326873779297e-02 -7.345750331878662109e-01
3.517836034297943115e-01 1.460138112306594849e-01 -3.945415019989013672e-01
-2.816637456417083740e-01 6.940597295761108398e-02 -1.915382742881774902e-01
-2.280750572681427002e-01 7.029016315937042236e-02 -8.194038271903991699e-02
-1.186133921146392822e-01 9.388440102338790894e-02 -8.159033060073852539e-01
3.529814779758453369e-01 6.094441935420036316e-02 -4.606621861457824707e-01
-1.970505118370056152e-01 1.474024802446365356e-01 -2.035018801689147949e-02
3.431344628334045410e-01 5.858735367655754089e-02 -4.044711589813232422e-01
6.047071889042854309e-02 1.302401423454284668e-01 -7.424663305282592773e-01
-1.283687204122543335e-01 5.706935003399848938e-02 -1.279292404651641846e-01
1.023417860269546509e-01 1.165991351008415222e-01 -8.009645938873291016e-01
-1.348445266485214233e-01 1.590126007795333862e-01 -2.574323117733001709e-01
6.232988089323043823e-03 1.648435592651367188e-01 -2.435539215803146362e-01
1.214550435543060303e-01 4.788245260715484619e-02 -2.120681852102279663e-01
2.332139909267425537e-01 5.943899974226951599e-02 -8.645588159561157227e-02
-6.472775340080261230e-02 6.878218799829483032e-02 -7.863500118255615234e-01
2.868814766407012939e-01 5.276641249656677246e-02 -3.569206893444061279e-01
2.232938408851623535e-01 1.332739144563674927e-01 1.822649836540222168e-01
-1.207766681909561157e-01 4.836899042129516602e-02 -3.209288120269775391e-01
-3.053533136844635010e-01 8.416186273097991943e-02 -8.817860484123229980e-02
1.534451097249984741e-01 1.394834965467453003e-01 -6.604933738708496094e-01
2.137770205736160278e-01 1.586082279682159424e-01 -3.697352111339569092e-01
-1.103952825069427490e-01 6.571198254823684692e-02 -1.093113422393798828e-02
1.561193913221359253e-01 1.113562658429145813e-01 2.298360466957092285e-01
2.977677881717681885e-01 1.514790654182434082e-01 -3.998808860778808594e-01
9.572550654411315918e-02 1.649730503559112549e-01 -2.587992846965789795e-01
2.694142460823059082e-01 6.334291398525238037e-02 -6.990562379360198975e-02
-1.355941146612167358e-01 4.850000143051147461e-02 -3.686927258968353271e-01
-3.519640266895294189e-01 7.845921814441680908e-02 -3.190361559391021729e-01
1.986512392759323120e-01 7.463272660970687866e-02 8.266544342041015625e-02
-2.036441862583160400e-01 6.929798424243927002e-02 -6.959944963455200195e-01
3.093598484992980957e-01 1.519217938184738159e-01 -5.037593841552734375e-02
-1.929322257637977600e-02 1.643788516521453857e-01 -1.703932732343673706e-01
-2.225906550884246826e-01 7.412804663181304932e-02 -3.895720839500427246e-02
2.567463517189025879e-01 1.103446856141090393e-01 -7.578597068786621094e-01
1.958035975694656372e-01 1.553613841533660889e-01 -4.558807313442230225e-01
2.430314123630523682e-01 1.590172946453094482e-01 -3.046197593212127686e-01
-1.200946718454360962e-01 7.241038233041763306e-02 -7.775734663009643555e-01
4.213077425956726074e-01 1.287918090820312500e-01 -4.685745835304260254e-01
4.448291063308715820e-01 8.531643450260162354e-02 -1.293652057647705078e-01
3.074078559875488281e-01 7.797154039144515991e-02 3.290492296218872070e-02
1.221018731594085693e-01 7.873413711786270142e-02 1.319853663444519043e-01
4.993478655815124512e-01 1.075907424092292786e-01 -2.442233860492706299e-01
-1.761984452605247498e-02 7.716502249240875244e-02 1.167767345905303955e-01
1.618420779705047607e-01 4.532973840832710266e-02 -3.604638874530792236e-01
3.952516317367553711e-01 6.958766281604766846e-02 -4.970545470714569092e-01
-1.597756892442703247e-01 6.223038583993911743e-02 -8.981372416019439697e-02
-6.318461149930953979e-03 7.082020491361618042e-02 7.659822702407836914e-02
3.643968403339385986e-01 1.469359248876571655e-01 -3.372165560722351074e-01
-2.227777540683746338e-01 1.229494884610176086e-01 9.789884090423583984e-02
3.037391304969787598e-01 5.457260087132453918e-02 -3.271553814411163330e-01
-6.831887364387512207e-02 1.382928639650344849e-01 1.667964756488800049e-01
4.037152975797653198e-03 6.847696006298065186e-02 -8.001645803451538086e-01
1.637173593044281006e-01 6.350858509540557861e-02 -7.449955940246582031e-01
3.626119494438171387e-01 1.420379281044006348e-01 -9.015500545501708984e-03
4.748354554176330566e-01 -6.661598384380340576e-02 -1.945630609989166260e-01
3.988146781921386719e-01 -1.155567690730094910e-01 -1.887457221746444702e-01
4.437203407287597656e-01 -9.139311313629150391e-02 4.344303607940673828e-01
4.767394065856933594e-01 1.788002438843250275e-02 -6.469315290451049805e-02
4.082225263118743896e-01 4.775451123714447021e-02 -4.375373721122741699e-01
4.081773757934570312e-01 -9.390116482973098755e-02 5.084049105644226074e-01
4.604817032814025879e-01 5.076292157173156738e-02 -4.543233513832092285e-01
4.084792137145996094e-01 -9.198752045631408691e-02 -5.122518539428710938e-01
3.841589093208312988e-01 -5.174692720174789429e-03 -3.265376687049865723e-01
3.847764134407043457e-01 1.978397183120250702e-02 -9.784138947725296021e-02
4.755443334579467773e-01 1.972491480410099030e-02 -2.295654639601707458e-02
4.565798342227935791e-01 1.460856013000011444e-02 -6.931298375129699707e-01
4.579345583915710449e-01 -3.092436306178569794e-02 4.405765533447265625e-01
4.188245236873626709e-01 -1.331414431333541870e-01 -4.557351395487785339e-02
4.671282172203063965e-01 4.273110628128051758e-02 -4.106227159500122070e-01
4.410344362258911133e-01 -1.264951974153518677e-01 -9.163494408130645752e-02
4.630151391029357910e-01 5.624607205390930176e-02 -1.287403106689453125e-01
3.989705741405487061e-01 -1.042986959218978882e-01 -3.277902007102966309e-01
3.931503891944885254e-01 2.368151210248470306e-02 -3.762500882148742676e-01
4.024548530578613281e-01 3.079300560057163239e-02 3.489083647727966309e-01
4.674895405769348145e-01 -8.641179651021957397e-02 2.661760151386260986e-02
4.622538387775421143e-01 -8.362914621829986572e-02 -4.333331584930419922e-01
4.808894097805023193e-01 -1.795555651187896729e-02 -1.240816935896873474e-01
4.013085663318634033e-01 5.007764697074890137e-02 -2.641115188598632812e-01
3.930178284645080566e-01 -6.868150085210800171e-04 -4.923067092895507812e-01
3.825885355472564697e-01 -8.984243124723434448e-02 1.660908460617065430e-01
3.921884596347808838e-01 3.755380958318710327e-02 4.014531522989273071e-02
4.040119946002960205e-01 -6.775084882974624634e-02 -5.848196148872375488e-01
3.868554532527923584e-01 -1.961320638656616211e-03 3.421545028686523438e-01
4.148635864257812500e-01 6.553415209054946899e-02 4.030033946037292480e-02
4.750196635723114014e-01 -4.384906962513923645e-02 -4.300042986869812012e-01
4.740440249443054199e-01 -6.601179018616676331e-03 1.583990603685379028e-01
4.148691892623901367e-01 -1.940701156854629517e-02 -7.284563779830932617e-01
4.145702719688415527e-01 4.983469843864440918e-02 2.806621789932250977e-01
3.810667395591735840e-01 -3.847948461771011353e-02 -3.031125068664550781e-01
4.326748847961425781e-01 -1.251387298107147217e-01 2.209405452013015747e-01
4.030850827693939209e-01 4.856008291244506836e-02 1.674906760454177856e-01
4.593078196048736572e-01 5.638396739959716797e-02 6.604671478271484375e-03
4.764287173748016357e-01 -2.492216974496841431e-02 1.108766645193099976e-01
4.682893455028533936e-01 -2.940936759114265442e-02 2.968496084213256836e-01
4.029962718486785889e-01 1.851567067205905914e-02 4.341217279434204102e-01
3.951720893383026123e-01 2.676930092275142670e-02 -3.957294821739196777e-01
4.557967185974121094e-01 -7.727409899234771729e-02 -5.638666749000549316e-01
3.861315846443176270e-01 -8.124394714832305908e-02 3.528441190719604492e-01
4.711145758628845215e-01 -4.494315385818481445e-02 2.213222533464431763e-01
4.093008041381835938e-01 6.212770938873291016e-02 -2.192970812320709229e-01
4.755335748195648193e-01 -5.304425209760665894e-02 5.478632450103759766e-02
4.669909477233886719e-01 4.992692917585372925e-02 -2.573375999927520752e-01
4.164635241031646729e-01 6.166502833366394043e-02 -3.806834220886230469e-01
3.798319399356842041e-01 -1.817978918552398682e-04 -1.076342314481735229e-01
4.408736824989318848e-01 -1.269692927598953247e-01 -2.477498352527618408e-02
4.477775990962982178e-01 4.759848862886428833e-02 2.609050273895263672e-01
4.067037701606750488e-01 -3.388497978448867798e-02 6.030562520027160645e-01
4.492803215980529785e-01 -9.369065612554550171e-02 3.644938468933105469e-01
4.356944262981414795e-01 -1.293547451496124268e-01 6.401370465755462646e-02
4.226641356945037842e-01 -1.147947609424591064e-01 -4.071043729782104492e-01
4.799236655235290527e-01 3.449676558375358582e-03 -1.534499377012252808e-01
4.479540884494781494e-01 -1.002896055579185486e-01 3.336313366889953613e-01
4.435321688652038574e-01 -2.138281799852848053e-02 5.539644956588745117e-01
4.796854257583618164e-01 3.194352611899375916e-03 -1.157311201095581055e-01
3.865542411804199219e-01 1.360074616968631744e-02 2.228774875402450562e-01
4.095774590969085693e-01 6.317612528800964355e-02 -1.855165511369705200e-01
3.769692778587341309e-01 -6.391789764165878296e-02 1.388888657093048096e-01
4.735470414161682129e-01 -7.193230092525482178e-02 -1.590817719697952271e-01
4.770144224166870117e-01 -1.567547023296356201e-02 8.894896507263183594e-02
4.379709362983703613e-01 2.482381649315357208e-02 -7.235811948776245117e-01
4.546817243099212646e-01 -1.119195371866226196e-01 -1.563765406608581543e-01
4.412316679954528809e-01 -5.245722457766532898e-02 5.653933882713317871e-01
4.655717611312866211e-01 1.386710442602634430e-02 -6.128581762313842773e-01
4.507574141025543213e-01 -2.548978291451931000e-02 5.071019530296325684e-01
3.826151788234710693e-01 9.214853867888450623e-03 1.231441348791122437e-01
4.543105959892272949e-01 6.678941845893859863e-02 -2.475733160972595215e-01
4.700060486793518066e-01 -3.676826879382133484e-02 2.595443129539489746e-01
3.805382847785949707e-01 -2.532964944839477539e-02 -2.812263369560241699e-01
4.707184135913848877e-01 3.659389168024063110e-02 -3.782036900520324707e-01
3.900735080242156982e-01 -9.905808418989181519e-02 -2.159881889820098877e-01
4.079956710338592529e-01 3.505760803818702698e-03 -6.564578413963317871e-01
3.906461000442504883e-01 -1.033651307225227356e-01 2.654446363449096680e-01
4.114345014095306396e-01 -1.280095875263214111e-01 -1.527824103832244873e-01
3.758880496025085449e-01 -3.893207758665084839e-02 1.436858028173446655e-01
4.663283824920654297e-01 5.074958503246307373e-02 -2.777429521083831787e-01
4.180054962635040283e-01 -1.204093024134635925e-01 3.388350605964660645e-01
3.876673877239227295e-01 -4.021853208541870117e-03 3.670211434364318848e-01
3.784242570400238037e-01 -2.018177695572376251e-02 -1.900680959224700928e-01
4.771941006183624268e-01 8.092695847153663635e-03 -3.915601968765258789e-01
3.835378289222717285e-01 -9.437524527311325073e-02 -2.457490563392639160e-02
3.755166232585906982e-01 -3.722825646400451660e-02 -5.301380902528762817e-02
3.969780206680297852e-01 -2.195965871214866638e-02 -5.795139670372009277e-01
4.190785586833953857e-01 -9.658424556255340576e-02 -5.417098999023437500e-01
4.396162629127502441e-01 -9.506985545158386230e-02 -5.538791418075561523e-01
4.386178255081176758e-01 7.505859434604644775e-02 -1.622296720743179321e-01
3.905025422573089600e-01 -1.095549464225769043e-01 -4.592755064368247986e-02
3.765912055969238281e-01 -2.117918431758880615e-02 -8.003910630941390991e-02
4.182851016521453857e-01 1.473494060337543488e-02 -7.001514434814453125e-01
4.545239806175231934e-01 -9.865070134401321411e-02 2.490685135126113892e-01
4.424157440662384033e-01 4.988612234592437744e-02 -5.972153544425964355e-01
4.797629714012145996e-01 5.289824679493904114e-03 -2.321453690528869629e-01
4.535807669162750244e-01 3.785493969917297363e-02 2.808433175086975098e-01
3.791581988334655762e-01 -8.097570389509201050e-04 -2.699552103877067566e-02
4.271630346775054932e-01 6.674317270517349243e-02 -4.061328172683715820e-01
4.621732234954833984e-01 -6.819164380431175232e-03 3.676990270614624023e-01
3.782151341438293457e-01 -8.788796141743659973e-03 9.823474287986755371e-02
3.800739943981170654e-01 -7.337933033704757690e-02 2.350430339574813843e-01
4.786436259746551514e-01 4.515163600444793701e-04 -3.638684153556823730e-01
4.806266427040100098e-01 -3.066392242908477783e-02 -1.845761239528656006e-01
4.017457067966461182e-01 -6.215073168277740479e-03 5.279893875122070312e-01
4.808439612388610840e-01 -1.342319883406162262e-02 -2.498390674591064453e-01
4.341323971748352051e-01 7.531568408012390137e-02 -1.928627789020538330e-01
4.577033519744873047e-01 -9.750463813543319702e-02 -3.673273921012878418e-01
3.782416582107543945e-01 -5.561608821153640747e-03 -8.053608238697052002e-03
4.785326421260833740e-01 -2.943891659379005432e-02 2.646797895431518555e-02
3.839674293994903564e-01 -1.767285168170928955e-03 -3.053982257843017578e-01
4.656886756420135498e-01 -7.073929905891418457e-02 -4.759976267814636230e-01
3.951297104358673096e-01 -1.175368502736091614e-01 1.034931391477584839e-01
3.890889286994934082e-01 -1.460250746458768845e-02 4.294812083244323730e-01
4.026226103305816650e-01 -9.643722325563430786e-02 -4.335886240005493164e-01
3.828307092189788818e-01 -8.856377005577087402e-02 1.994488686323165894e-01
4.577066898345947266e-01 8.444560691714286804e-03 3.804810643196105957e-01
4.717878699302673340e-01 2.336116693913936615e-02 -4.685907363891601562e-01
3.924419879913330078e-01 6.536269560456275940e-03 3.871867060661315918e-01
4.769815802574157715e-01 -3.538369759917259216e-02 7.718138396739959717e-02
4.466713964939117432e-01 -7.314790040254592896e-02 4.846023321151733398e-01
4.713065922260284424e-01 -7.097095251083374023e-02 -3.343068957328796387e-01
4.444513618946075439e-01 2.542337402701377869e-03 5.053980946540832520e-01
4.723517000675201416e-01 -6.331904232501983643e-02 -3.780372738838195801e-01
3.811108171939849854e-01 -8.406868577003479004e-02 -7.694561034440994263e-02
3.934011161327362061e-01 3.930271416902542114e-02 -1.790158748626708984e-01
4.597693681716918945e-01 -3.868009895086288452e-02 4.167383313179016113e-01
4.763067960739135742e-01 1.984911225736141205e-02 -3.399577140808105469e-01
4.094604253768920898e-01 5.678956210613250732e-02 1.402979940176010132e-01
4.726277887821197510e-01 3.596638888120651245e-02 -2.912548184394836426e-01
4.439171850681304932e-01 -1.203470602631568909e-01 -2.365133017301559448e-01
3.818277418613433838e-01 -2.226728200912475586e-02 3.224347233772277832e-01
3.832159042358398438e-01 -8.301532268524169922e-02 -1.828171461820602417e-01
4.673029184341430664e-01 -6.357906758785247803e-02 2.399028986692428589e-01
3.775982260704040527e-01 -4.060584306716918945e-02 2.352774292230606079e-01
4.738532304763793945e-01 -6.842099875211715698e-02 -2.723151445388793945e-02
3.870519101619720459e-01 -4.353167489171028137e-02 4.484056234359741211e-01
4.456640183925628662e-01 -5.088711157441139221e-02 5.387128591537475586e-01
4.797264337539672852e-01 -3.255337104201316833e-02 -5.310359224677085876e-02
3.798587620258331299e-01 -3.409461304545402527e-02 3.010612726211547852e-01
4.490776956081390381e-01 6.939806044101715088e-02 -3.041139245033264160e-01
4.474951028823852539e-01 -1.178394109010696411e-01 1.200103461742401123e-01
3.912319242954254150e-01 -1.081812232732772827e-01 -1.150028109550476074e-01
4.640965163707733154e-01 -8.745814114809036255e-02 1.439640671014785767e-01
4.727268517017364502e-01 4.611564800143241882e-03 -5.256128311157226562e-01
4.149616062641143799e-01 -1.215940341353416443e-01 -2.974775433540344238e-01
4.749332368373870850e-01 -6.519107520580291748e-02 -5.359465628862380981e-02
4.045347273349761963e-01 -1.091728582978248596e-01 3.946321010589599609e-01
4.483794867992401123e-01 5.310209840536117554e-02 -5.514152646064758301e-01
4.751088023185729980e-01 -2.763050049543380737e-02 1.487065106630325317e-01
4.329646229743957520e-01 -1.117042228579521179e-01 3.781836628913879395e-01
4.037929177284240723e-01 -1.013717949390411377e-01 -4.096838235855102539e-01
3.837464153766632080e-01 -7.616851478815078735e-02 3.281179070472717285e-01
4.634258449077606201e-01 1.680722460150718689e-03 3.312822580337524414e-01
3.951524198055267334e-01 4.136312752962112427e-02 -2.168031781911849976e-01
3.857340216636657715e-01 2.172430045902729034e-02 -1.309237033128738403e-01
3.907139897346496582e-01 2.291549183428287506e-02 -3.227730393409729004e-01
4.628378748893737793e-01 -7.319606095552444458e-02 -5.053838491439819336e-01
3.899457752704620361e-01 -3.132165595889091492e-02 4.766302704811096191e-01
4.669032990932464600e-01 1.485270075500011444e-02 -5.928190946578979492e-01
4.400546550750732422e-01 -6.696351617574691772e-02 5.480171442031860352e-01
4.332677423954010010e-01 -1.291437447071075439e-01 -1.583220511674880981e-01
4.736542999744415283e-01 -4.636559262871742249e-02 -4.543101191520690918e-01
4.004910886287689209e-01 -1.231732964515686035e-01 1.256654262542724609e-01
4.035425484180450439e-01 -4.216172546148300171e-02 -6.375773549079895020e-01
3.796807825565338135e-01 -6.459359079599380493e-02 2.685173153877258301e-01
4.410409331321716309e-01 6.308642774820327759e-02 1.470474451780319214e-01
4.754745364189147949e-01 2.729260735213756561e-02 -2.699455916881561279e-01
4.579122066497802734e-01 -6.176745146512985229e-02 -6.220234036445617676e-01
4.175483882427215576e-01 -1.323063522577285767e-01 1.101874560117721558e-01
4.549521803855895996e-01 -2.270144224166870117e-02 4.682183265686035156e-01
4.553529322147369385e-01 -9.962368756532669067e-02 2.233505100011825562e-01
4.456344544887542725e-01 -1.226511970162391663e-01 1.713114976882934570e-02
4.469328224658966064e-01 5.573447793722152710e-02 1.916521340608596802e-01
3.767358064651489258e-01 -4.552566260099411011e-02 1.976129561662673950e-01
4.796993136405944824e-01 6.374398246407508850e-03 -1.981853693723678589e-01
4.642743468284606934e-01 -6.326268613338470459e-02 -5.434785485267639160e-01
3.939925134181976318e-01 2.280727215111255646e-02 3.011799454689025879e-01
4.029163420200347900e-01 -1.240233182907104492e-01 -9.975949674844741821e-02
4.043989479541778564e-01 1.165239140391349792e-03 -6.290314197540283203e-01
4.257070422172546387e-01 4.258912801742553711e-02 3.762479424476623535e-01
3.912440538406372070e-01 2.662840671837329865e-02 2.068385034799575806e-01
4.787266552448272705e-01 -4.595354944467544556e-02 -8.429575711488723755e-02
4.164673089981079102e-01 6.376929581165313721e-02 -3.454422950744628906e-01
4.778975844383239746e-01 -4.270070791244506836e-02 -3.302637934684753418e-01
3.981997370719909668e-01 -7.826657965779304504e-03 5.066563487052917480e-01
4.648901224136352539e-01 3.395232558250427246e-02 1.518938094377517700e-01
4.609078764915466309e-01 -7.391811162233352661e-02 3.116645812988281250e-01
4.677588343620300293e-01 -7.360356301069259644e-02 1.692355275154113770e-01
4.684005379676818848e-01 2.626994065940380096e-02 -5.214598178863525391e-01
3.787188231945037842e-01 -2.995243854820728302e-02 -2.262883931398391724e-01
3.790295124053955078e-01 -3.222126513719558716e-03 7.715725898742675781e-02
4.562315642833709717e-01 -8.133046329021453857e-02 -5.339264273643493652e-01
4.483348429203033447e-01 6.850153207778930664e-02 -3.429822921752929688e-01
4.472464919090270996e-01 -2.725801244378089905e-02 5.346007347106933594e-01
4.293133318424224854e-01 -1.185539662837982178e-01 -3.681946992874145508e-01
4.631021618843078613e-01 -9.870293736457824707e-02 -1.437351107597351074e-01
4.113850593566894531e-01 -1.169307529926300049e-01 3.609060049057006836e-01
3.937192261219024658e-01 -6.379050761461257935e-02 -4.875497221946716309e-01
4.408186972141265869e-01 -7.626640051603317261e-02 5.183743238449096680e-01
4.771817624568939209e-01 -1.305044069886207581e-02 -4.412558078765869141e-01
4.705832004547119141e-01 3.360050171613693237e-02 1.643236726522445679e-02
3.916214108467102051e-01 -9.831285476684570312e-02 3.369972705841064453e-01
4.669363200664520264e-01 -5.790054798126220703e-03 2.974384427070617676e-01
3.976054191589355469e-01 -6.819318979978561401e-02 -5.206040740013122559e-01
4.546832442283630371e-01 4.195269197225570679e-02 2.394124418497085571e-01
3.844006061553955078e-01 -9.729903191328048706e-02 -3.400951623916625977e-03
4.311013519763946533e-01 -1.192882731556892395e-01 3.146790266036987305e-01
4.776387214660644531e-01 -2.214155904948711395e-02 -4.207091331481933594e-01
4.371417164802551270e-01 7.433813065290451050e-02 -2.587118148803710938e-01
4.522947669029235840e-01 1.048581115901470184e-02 -7.265077233314514160e-01
4.336235523223876953e-01 -5.287167057394981384e-02 6.007928252220153809e-01
4.315977096557617188e-01 7.469623535871505737e-02 -2.303432822227478027e-01
3.965064287185668945e-01 3.747267648577690125e-03 -5.310547351837158203e-01
4.706828892230987549e-01 -5.602950602769851685e-02 1.949923485517501831e-01
4.702352881431579590e-01 -3.291288763284683228e-02 -5.664757490158081055e-01
4.662602543830871582e-01 -8.306280523538589478e-02 -3.495177626609802246e-01
4.609736800193786621e-01 -9.846042841672897339e-02 -2.710745334625244141e-01
4.727412462234497070e-01 1.451346091926097870e-02 -4.927580356597900391e-01
4.751091599464416504e-01 1.022120937705039978e-03 1.075800210237503052e-01
4.518344998359680176e-01 -7.982687652111053467e-02 -5.827198624610900879e-01
3.753885328769683838e-01 -3.313393518328666687e-02 -1.793393492698669434e-02
4.575125575065612793e-01 5.439005792140960693e-02 7.512129843235015869e-02
4.698586761951446533e-01 -2.160534262657165527e-02 -5.896056890487670898e-01
4.659509956836700439e-01 -3.546388819813728333e-02 3.328999280929565430e-01
3.893046081066131592e-01 2.106526307761669159e-02 -2.996655702590942383e-01
4.418815970420837402e-01 -1.234117075800895691e-01 -1.962483823299407959e-01
4.625180363655090332e-01 3.408854454755783081e-02 1.920848637819290161e-01
4.572264254093170166e-01 5.249350517988204956e-02 -4.822018146514892578e-01
4.158439338207244873e-01 -6.616119295358657837e-02 -6.663906574249267578e-01
4.572271406650543213e-01 2.051901072263717651e-03 4.044818878173828125e-01
4.578036665916442871e-01 -2.205127850174903870e-03 -7.127926349639892578e-01
4.602085053920745850e-01 4.859004169702529907e-02 9.895704686641693115e-02
4.503969550132751465e-01 6.642832607030868530e-02 -8.642993867397308350e-03
3.791508376598358154e-01 -6.862496584653854370e-02 -1.454681158065795898e-01
3.843457400798797607e-01 -3.981499373912811279e-02 4.044835567474365234e-01
4.448163509368896484e-01 7.144182920455932617e-02 -5.250788480043411255e-02
3.819635212421417236e-01 1.066933013498783112e-02 -7.066950947046279907e-02
4.174095690250396729e-01 -1.065337881445884705e-01 4.575562477111816406e-01
4.077938199043273926e-01 6.192973256111145020e-02 -1.404984891414642334e-01
4.546758532524108887e-01 6.681706756353378296e-02 -1.858360171318054199e-01
4.732189178466796875e-01 -6.886994093656539917e-02 8.449107408523559570e-03
4.646038413047790527e-01 -3.672505170106887817e-02 3.527712821960449219e-01
4.026143252849578857e-01 5.592382699251174927e-02 -1.178493872284889221e-01
3.983606696128845215e-01 -8.171085268259048462e-02 -4.731833934783935547e-01
4.612597525119781494e-01 -2.688654884696006775e-02 4.009257555007934570e-01
3.967910110950469971e-01 -1.112928688526153564e-01 2.890517115592956543e-01
3.812873363494873047e-01 -2.966953441500663757e-03 -2.196935266256332397e-01
3.769410848617553711e-01 -3.220510855317115784e-02 -1.504056453704833984e-01
4.385121464729309082e-01 -1.242140233516693115e-01 1.664691567420959473e-01
3.970083594322204590e-01 -9.003190696239471436e-02 4.567430019378662109e-01
4.788652360439300537e-01 7.400816306471824646e-03 -3.080441355705261230e-01
4.767571985721588135e-01 9.902229532599449158e-03 7.232531905174255371e-03
4.320746362209320068e-01 -1.317638158798217773e-01 -5.658656358718872070e-03
4.427604675292968750e-01 -8.574185520410537720e-02 4.693495035171508789e-01
4.715376198291778564e-01 -6.105964630842208862e-02 -4.197261929512023926e-01
4.628487825393676758e-01 -7.515671104192733765e-02 2.705164551734924316e-01
4.408257901668548584e-01 -1.159259527921676636e-01 2.672694325447082520e-01
4.133026599884033203e-01 -5.508440732955932617e-02 -6.832042336463928223e-01
4.022656679153442383e-01 2.516036666929721832e-02 3.875129222869873047e-01
4.205000102519989014e-01 -3.788854926824569702e-02 -7.448996901512145996e-01
4.205841422080993652e-01 3.622166067361831665e-02 4.135178923606872559e-01
4.743143916130065918e-01 -2.830533310770988464e-02 -4.990989565849304199e-01
4.348554909229278564e-01 -1.250378787517547607e-01 2.000207751989364624e-01
4.543719291687011719e-01 6.235159933567047119e-02 -3.840250372886657715e-01
4.598295092582702637e-01 3.219828754663467407e-02 -6.037801504135131836e-01
4.219897687435150146e-01 -6.826646625995635986e-02 6.051018238067626953e-01
4.731902480125427246e-01 -2.786056511104106903e-02 1.978838592767715454e-01
4.083153605461120605e-01 -9.708476066589355469e-02 -4.796198010444641113e-01
4.145180881023406982e-01 -8.197958767414093018e-02 -6.001393795013427734e-01
4.758925735950469971e-01 1.133628003299236298e-02 3.158567100763320923e-02
4.549592733383178711e-01 -6.148318201303482056e-02 -6.473523378372192383e-01
4.504900872707366943e-01 -9.787320345640182495e-02 -4.627287387847900391e-01
4.129649400711059570e-01 -4.633890464901924133e-03 -7.067228555679321289e-01
4.530626833438873291e-01 -1.146731078624725342e-01 -1.363325119018554688e-02
3.756863474845886230e-01 -5.611845105886459351e-02 5.130591988563537598e-02
4.341561496257781982e-01 -1.159839257597923279e-01 -3.869296908378601074e-01
4.751285314559936523e-01 1.685928739607334137e-02 -4.153059720993041992e-01
3.898480236530303955e-01 -5.880798399448394775e-02 -4.462101459503173828e-01
4.624816477298736572e-01 5.302605032920837402e-02 -1.761617511510848999e-02
4.573292434215545654e-01 4.803760349750518799e-02 -5.240542888641357422e-01
3.782789707183837891e-01 -7.370943576097488403e-02 -3.476925939321517944e-02
4.749369025230407715e-01 -4.432179778814315796e-02 1.205985844135284424e-01
4.415648281574249268e-01 4.691830277442932129e-02 -6.186704635620117188e-01
4.660816788673400879e-01 -8.939941227436065674e-02 -2.540225684642791748e-01
4.077842831611633301e-01 -1.294011026620864868e-01 8.169303834438323975e-02
4.460737109184265137e-01 -9.404952079057693481e-02 3.974701762199401855e-01
4.573784768581390381e-01 -1.057245135307312012e-01 -2.361892610788345337e-01
4.688594937324523926e-01 4.420653730630874634e-02 -8.622141927480697632e-02
4.294052720069885254e-01 -7.057712227106094360e-02 5.864260196685791016e-01
3.833564519882202148e-01 -6.350001692771911621e-02 -3.058086633682250977e-01
3.850954771041870117e-01 -8.473014086484909058e-02 3.089841008186340332e-01
4.690902233123779297e-01 3.443491458892822266e-02 5.252207815647125244e-02
3.964034020900726318e-01 4.675776511430740356e-02 -6.473171710968017578e-02
4.229649305343627930e-01 -1.262536495923995972e-01 2.574915885925292969e-01
4.551877081394195557e-01 6.629122793674468994e-02 -2.171146422624588013e-01
3.874078989028930664e-01 -2.380750514566898346e-02 -4.398256540298461914e-01
4.650306105613708496e-01 -9.506250172853469849e-02 -1.181674450635910034e-01
4.247591793537139893e-01 6.124433875083923340e-02 1.967018395662307739e-01
3.756424784660339355e-01 -2.689846791326999664e-02 3.115393966436386108e-02
4.476654529571533203e-01 6.550555676221847534e-02 -4.113039374351501465e-01
4.030852615833282471e-01 -1.201847419142723083e-01 2.554392814636230469e-01
3.939434885978698730e-01 -3.680410236120223999e-02 5.241962671279907227e-01
4.487960636615753174e-01 1.540634594857692719e-02 4.358425736427307129e-01
4.478389620780944824e-01 -6.476268172264099121e-02 -6.773355603218078613e-01
3.863121569156646729e-01 1.918195746839046478e-02 1.465939581394195557e-01
4.809532165527343750e-01 -1.928586885333061218e-02 -2.308629453182220459e-01
3.899354636669158936e-01 1.068428345024585724e-02 3.226950764656066895e-01
3.767378628253936768e-01 -2.626498788595199585e-02 -1.221883147954940796e-01
4.577879607677459717e-01 4.046712815761566162e-02 2.129881531000137329e-01
4.349563121795654297e-01 5.879620462656021118e-02 2.247441262006759644e-01
4.804746210575103760e-01 -2.566937170922756195e-02 -2.668220698833465576e-01
3.824127912521362305e-01 -9.018894284963607788e-02 -4.596612229943275452e-02
4.101212024688720703e-01 6.121351569890975952e-02 5.933840572834014893e-02
4.792651832103729248e-01 -4.339886084198951721e-02 -2.116930633783340454e-01
4.003378748893737793e-01 -5.058844387531280518e-02 -5.950749516487121582e-01
4.208252727985382080e-01 -9.236840158700942993e-02 -5.726267099380493164e-01
4.144687056541442871e-01 -1.195551827549934387e-01 -3.211125135421752930e-01
4.487468600273132324e-01 -1.061302945017814636e-01 -3.956412672996520996e-01
4.178422093391418457e-01 3.968276828527450562e-02 -5.950070619583129883e-01
3.817713558673858643e-01 -6.800422072410583496e-02 -2.433642596006393433e-01
4.641570746898651123e-01 -9.524156898260116577e-02 -2.061849087476730347e-01
4.017420709133148193e-01 -4.647149145603179932e-02 -6.154649257659912109e-01
4.652352035045623779e-01 1.339166425168514252e-02 2.648952603340148926e-01
4.759164452552795410e-01 -4.461930692195892334e-02 -3.983150124549865723e-01
4.446340203285217285e-01 -7.776670157909393311e-02 -6.352639198303222656e-01
4.796345531940460205e-01 1.304687932133674622e-03 -9.154815226793289185e-02
4.216659963130950928e-01 9.370630607008934021e-03 5.450025796890258789e-01
4.250041544437408447e-01 -1.131109893321990967e-01 4.009033441543579102e-01
3.784463107585906982e-01 -1.195048540830612183e-02 1.519721597433090210e-01
4.696714282035827637e-01 -7.917989790439605713e-02 -2.839865088462829590e-01
3.795102536678314209e-01 -6.440579891204833984e-02 -1.873600333929061890e-01
4.136500656604766846e-01 -7.091998308897018433e-02 -6.398295164108276367e-01
4.693277776241302490e-01 4.541962593793869019e-02 -1.744960695505142212e-01
4.611034095287322998e-01 1.515179686248302460e-02 3.160979747772216797e-01
3.865022659301757812e-01 5.061285570263862610e-03 2.924878001213073730e-01
4.345862865447998047e-01 7.355251908302307129e-02 -3.002910315990447998e-02
4.001568853855133057e-01 3.184986114501953125e-02 -4.491474628448486328e-01
4.067515432834625244e-01 4.186452925205230713e-02 -4.703171849250793457e-01
4.230632781982421875e-01 7.256898283958435059e-02 -7.024767249822616577e-02
4.080707728862762451e-01 2.758588455617427826e-02 -5.759215354919433594e-01
3.802516758441925049e-01 -4.990188404917716980e-02 3.181655406951904297e-01
4.244173765182495117e-01 5.819658935070037842e-02 -4.959745407104492188e-01
4.553901851177215576e-01 3.144851326942443848e-02 -6.439170241355895996e-01
4.115693569183349609e-01 -7.308890670537948608e-02 -6.204174160957336426e-01
3.973769545555114746e-01 2.070792950689792633e-02 -4.743162393569946289e-01
4.141710698604583740e-01 4.486379027366638184e-02 -5.311137437820434570e-01
4.088968932628631592e-01 -1.267138272523880005e-01 2.020959407091140747e-01
4.696924984455108643e-01 4.416275024414062500e-02 -1.465799212455749512e-01
4.537360370159149170e-01 -2.270159125328063965e-02 -7.396544814109802246e-01
4.762784838676452637e-01 -6.115115433931350708e-02 -1.229765042662620544e-01
4.008570015430450439e-01 -6.004365533590316772e-02 5.690534710884094238e-01
4.110810160636901855e-01 -1.243689954280853271e-01 -2.240645736455917358e-01
4.081518948078155518e-01 -2.159737050533294678e-02 -6.854509115219116211e-01
3.946599662303924561e-01 -1.007909178733825684e-01 -2.932271957397460938e-01
4.043306112289428711e-01 3.778800368309020996e-02 3.099006414413452148e-01
3.843806385993957520e-01 -2.748554758727550507e-02 -3.820492029190063477e-01
4.743113815784454346e-01 -3.042733855545520782e-02 1.681465804576873779e-01
4.709076285362243652e-01 -7.401455193758010864e-02 5.725251138210296631e-02
4.484180212020874023e-01 7.045100629329681396e-02 -2.775163650512695312e-01
3.834653198719024658e-01 1.077467016875743866e-02 -1.870003342628479004e-01
