-6.415467858314514160e-01 -3.494929671287536621e-01 -2.059313654899597168e-02
7.160811126232147217e-02 -2.440057396888732910e-01 6.366068720817565918e-01
8.337348699569702148e-02 -4.599190354347229004e-01 4.715718924999237061e-01
2.986228764057159424e-01 -4.925521910190582275e-01 1.803791373968124390e-01
3.279049992561340332e-01 -4.855389297008514404e-01 8.378421515226364136e-02
-5.632079243659973145e-01 1.241866648197174072e-01 -6.682798266410827637e-02
-3.764583170413970947e-01 1.384471654891967773e-01 -2.059468626976013184e-01
-1.952535510063171387e-01 1.757414042949676514e-01 2.408336251974105835e-01
-8.778054267168045044e-02 4.755617678165435791e-02 5.429278612136840820e-01
-2.988322079181671143e-02 1.019555628299713135e-01 4.053855836391448975e-01
-3.841097652912139893e-01 4.849936068058013916e-02 5.346379876136779785e-01
1.109292209148406982e-01 -3.796511292457580566e-01 -4.605459570884704590e-01
-1.946297883987426758e-01 -4.998830854892730713e-01 3.925123512744903564e-01
-3.287533223628997803e-01 6.091890335083007812e-01 4.281958043575286865e-01
-3.318319320678710938e-01 7.504084110260009766e-01 -1.190766245126724243e-01
-1.043917238712310791e-02 3.784308731555938721e-01 -3.856614530086517334e-01
-3.081138134002685547e-01 7.747706174850463867e-01 -7.996464520692825317e-02
2.036370337009429932e-02 5.151157975196838379e-01 -1.336288601160049438e-01
-1.283077299594879150e-01 5.333900451660156250e-01 4.962471127510070801e-01
-1.272134482860565186e-02 2.299956828355789185e-01 -3.150820732116699219e-01
-1.555599272251129150e-02 1.515751332044601440e-01 -4.010068625211715698e-02
-1.028577387332916260e-01 1.039919853210449219e-01 -4.157160818576812744e-01
-1.748186945915222168e-01 -5.997627973556518555e-03 8.806322515010833740e-02
-1.675687283277511597e-01 5.236761569976806641e-01 -5.804920196533203125e-01
-1.254691630601882935e-01 7.732634544372558594e-01 1.470906138420104980e-01
-7.185560464859008789e-02 3.770780265331268311e-01 4.369484484195709229e-01
-4.200146198272705078e-01 4.127559363842010498e-01 -3.878780007362365723e-01
-1.575855612754821777e-01 1.216414570808410645e-01 -5.120045542716979980e-01
-2.884535193443298340e-01 1.412079930305480957e-01 -5.281661152839660645e-01
-6.855967640876770020e-02 3.341662287712097168e-01 -5.253393054008483887e-01
-4.142519533634185791e-01 1.201629340648651123e-01 5.174597725272178650e-02
-3.373825848102569580e-01 6.393176317214965820e-01 -3.876051008701324463e-01
2.472309768199920654e-02 4.938587546348571777e-01 4.265176877379417419e-02
-9.606242179870605469e-03 2.917630672454833984e-01 2.340702265501022339e-01
-4.218757152557373047e-01 1.272690296173095703e-01 -6.957724690437316895e-05
-2.453538626432418823e-01 7.588529586791992188e-01 -2.722451090812683105e-01
-3.109510838985443115e-01 -7.665872573852539062e-03 -9.755840525031089783e-03
-2.631939947605133057e-02 1.275275349617004395e-01 -1.142103224992752075e-01
-4.446636438369750977e-01 5.316604375839233398e-01 1.510337591171264648e-01
-2.209813147783279419e-01 4.832750558853149414e-02 2.750926911830902100e-01
-4.680664837360382080e-01 4.217534959316253662e-01 -1.112051308155059814e-01
-4.473695158958435059e-01 4.853496849536895752e-01 -2.247767746448516846e-01
-4.482587575912475586e-01 4.971987009048461914e-01 1.749454140663146973e-01
2.557179331779479980e-02 4.027224481105804443e-01 9.556017816066741943e-02
-3.608154058456420898e-01 5.814199447631835938e-01 -4.160527884960174561e-01
-1.999841183423995972e-01 1.893663406372070312e-02 -3.711067736148834229e-01
-1.444617807865142822e-01 5.470332503318786621e-01 -5.518484115600585938e-01
-2.273011505603790283e-01 4.856790900230407715e-01 5.555543899536132812e-01
-3.117353022098541260e-01 1.140715181827545166e-01 3.384691178798675537e-01
-4.628481864929199219e-01 2.632539272308349609e-01 -8.167332410812377930e-02
-3.926258087158203125e-01 2.963612675666809082e-01 -4.626553058624267578e-01
-1.111477613449096680e-04 4.590188860893249512e-01 -3.266531229019165039e-01
-8.602532744407653809e-02 1.238470673561096191e-01 2.533473074436187744e-01
-1.322356164455413818e-01 7.607376575469970703e-01 -2.113377153873443604e-01
-2.525691688060760498e-01 5.678477287292480469e-01 -5.510830283164978027e-01
-3.979224562644958496e-01 6.473280787467956543e-01 1.910152882337570190e-01
-8.296701312065124512e-02 6.432459354400634766e-01 -3.772855401039123535e-01
-1.463949382305145264e-01 7.742237448692321777e-01 1.971981674432754517e-01
-1.425699293613433838e-01 7.784695625305175781e-01 -1.611480563879013062e-01
2.245795726776123047e-02 2.952648103237152100e-01 -1.457891613245010376e-01
-4.259359836578369141e-01 6.218390464782714844e-01 -3.634095191955566406e-04
-1.357824206352233887e-01 3.412199616432189941e-01 -6.093968152999877930e-01
-1.351922154426574707e-01 6.851214766502380371e-01 3.779405653476715088e-01
-4.621574282646179199e-02 9.027105569839477539e-02 -7.475536316633224487e-02
-2.299207746982574463e-01 7.475955486297607422e-01 3.206375539302825928e-01
1.994064450263977051e-02 4.929688870906829834e-01 1.023725569248199463e-01
-7.522186636924743652e-02 5.297820568084716797e-01 -4.829047620296478271e-01
-4.667370021343231201e-01 3.606292009353637695e-01 -1.548540145158767700e-01
-4.509564042091369629e-01 4.242319166660308838e-01 2.082302570343017578e-01
-3.720112442970275879e-01 5.714632272720336914e-01 3.847523629665374756e-01
-2.299572825431823730e-01 -4.063963890075683594e-03 1.370657086372375488e-01
-1.112471148371696472e-01 4.424732923507690430e-02 1.296940743923187256e-01
-4.196687936782836914e-01 4.414191246032714844e-01 3.320534527301788330e-01
-3.621834516525268555e-01 1.130503416061401367e-01 -3.841775357723236084e-01
-4.180529713630676270e-01 5.624206066131591797e-01 -2.711763978004455566e-01
-3.340548872947692871e-01 7.489080429077148438e-01 1.379856914281845093e-01
-3.187474608421325684e-01 1.659032702445983887e-02 -2.661710977554321289e-01
-4.543475806713104248e-01 3.871554434299468994e-01 1.939975470304489136e-01
-2.198648005723953247e-01 6.228616833686828613e-01 -5.090401172637939453e-01
-3.195190429687500000e-01 4.833060503005981445e-01 5.089458227157592773e-01
-5.638226866722106934e-03 5.208710432052612305e-01 2.356415838003158569e-01
-1.586405932903289795e-02 5.691533684730529785e-01 -2.881706953048706055e-01
-3.027653992176055908e-01 6.918046474456787109e-01 3.632120788097381592e-01
-2.864559292793273926e-01 2.312958240509033203e-03 1.177721768617630005e-01
-2.882635593414306641e-02 6.342706084251403809e-01 1.902442127466201782e-01
-3.824857473373413086e-01 6.799737215042114258e-01 1.758317351341247559e-01
1.280768215656280518e-02 2.507238984107971191e-01 3.165042027831077576e-02
-4.179284572601318359e-01 5.670391321182250977e-01 2.499121874570846558e-01
-1.653771102428436279e-01 1.852352619171142578e-01 -5.738908052444458008e-01
9.427934885025024414e-03 2.347110211849212646e-01 -1.625586301088333130e-01
-1.889923512935638428e-01 -1.780191063880920410e-02 5.054298415780067444e-02
-3.988676071166992188e-01 6.009866595268249512e-01 -2.859137356281280518e-01
-2.971561551094055176e-01 7.815839648246765137e-01 1.081902086734771729e-01
-3.432473540306091309e-01 6.902972459793090820e-01 2.911763489246368408e-01
-4.131467640399932861e-02 1.698415577411651611e-01 1.996896713972091675e-01
-4.339152574539184570e-01 2.097807377576828003e-01 1.616643369197845459e-01
-3.841583430767059326e-02 4.579824805259704590e-01 -4.486395716667175293e-01
-2.279890775680541992e-01 4.351562261581420898e-01 -6.278706789016723633e-01
-1.835067123174667358e-01 7.161598205566406250e-01 3.723869025707244873e-01
-2.392364144325256348e-01 7.921776771545410156e-01 1.810228824615478516e-01
-1.826358437538146973e-01 8.013427257537841797e-02 -4.766494035720825195e-01
-2.700953185558319092e-01 3.266707956790924072e-01 5.363898277282714844e-01
-4.397807419300079346e-01 2.922493219375610352e-01 -3.092273771762847900e-01
2.136485278606414795e-02 3.622910976409912109e-01 -2.262128293514251709e-01
-3.299441337585449219e-01 1.409894227981567383e-02 5.654736980795860291e-02
-4.276885986328125000e-01 2.313723564147949219e-01 -3.187064528465270996e-01
-2.573077082633972168e-01 7.673442363739013672e-01 2.551357150077819824e-01
-5.397939682006835938e-02 3.744689524173736572e-01 -5.003700256347656250e-01
9.881019592285156250e-03 5.121763348579406738e-01 1.602157652378082275e-01
-9.146966040134429932e-02 6.956369876861572266e-01 -3.014653325080871582e-01
-9.124243259429931641e-02 3.395730257034301758e-02 -2.443485334515571594e-02
-2.804899215698242188e-01 2.627599239349365234e-01 -6.065371632575988770e-01
-3.252542018890380859e-02 6.793675422668457031e-01 5.547945573925971985e-02
-1.266882419586181641e-01 1.946404576301574707e-02 8.310052752494812012e-02
-2.458654344081878662e-01 1.869687885046005249e-01 4.611013531684875488e-01
-3.669678568840026855e-01 6.720726490020751953e-01 2.612165808677673340e-01
4.050195217132568359e-03 5.022374391555786133e-01 2.027823030948638916e-01
-1.630598902702331543e-01 7.178542017936706543e-01 -3.588068783283233643e-01
-9.367524087429046631e-02 6.443421840667724609e-01 3.676595687866210938e-01
-2.679353058338165283e-01 -2.064180374145507812e-02 -2.084958702325820923e-01
-2.066851854324340820e-01 8.118495345115661621e-01 3.033501282334327698e-02
-4.451560974121093750e-01 5.665687322616577148e-01 -3.078733757138252258e-02
-1.322071254253387451e-02 4.725953638553619385e-01 -3.691767156124114990e-01
-3.591599464416503906e-01 3.652212619781494141e-01 4.636734724044799805e-01
-3.772669434547424316e-01 5.099579691886901855e-01 4.140782952308654785e-01
-4.540360569953918457e-01 2.224330604076385498e-01 -1.048482805490493774e-01
-4.588684737682342529e-01 2.428208142518997192e-01 1.548580825328826904e-03
-4.526566863059997559e-01 2.240713983774185181e-01 4.036461934447288513e-02
-4.077620506286621094e-01 6.459962725639343262e-01 -1.264487057924270630e-01
-3.560013771057128906e-01 5.336697697639465332e-01 -4.701872467994689941e-01
-1.966127306222915649e-01 5.561615824699401855e-01 -5.676663517951965332e-01
-2.774541079998016357e-02 5.831047892570495605e-01 2.653493285179138184e-01
-1.304149627685546875e-01 2.129830271005630493e-01 4.332758486270904541e-01
-2.080310732126235962e-01 6.982188224792480469e-01 -4.099456965923309326e-01
-3.451178073883056641e-01 3.782653212547302246e-01 -5.540642738342285156e-01
2.970455586910247803e-02 4.573344588279724121e-01 -1.031521111726760864e-01
3.040371835231781006e-02 3.806245028972625732e-01 -1.348662674427032471e-01
-6.746357679367065430e-02 5.083087682723999023e-01 4.193762838840484619e-01
-2.257097512483596802e-01 3.251937627792358398e-01 -6.387456655502319336e-01
-2.604404985904693604e-01 5.273990035057067871e-01 5.361923575401306152e-01
-7.991696894168853760e-02 1.798457354307174683e-01 -4.660653769969940186e-01
-3.533558845520019531e-01 2.036513984203338623e-01 -4.971454441547393799e-01
-3.386489748954772949e-01 4.466865658760070801e-01 -5.464515089988708496e-01
-3.991867899894714355e-01 4.286575615406036377e-01 -4.408642947673797607e-01
1.244103908538818359e-02 3.261439204216003418e-01 1.534930765628814697e-01
-1.446734070777893066e-01 7.959164381027221680e-01 -3.382165357470512390e-02
-1.473147571086883545e-01 3.063967227935791016e-01 5.076581239700317383e-01
-7.937932014465332031e-02 5.924520492553710938e-01 3.926569521427154541e-01
-1.051157712936401367e-01 6.815119981765747070e-01 -3.560230731964111328e-01
-2.864406704902648926e-01 -1.938039064407348633e-02 -1.663846075534820557e-01
-6.784236431121826172e-02 5.595293641090393066e-01 -4.456796646118164062e-01
-2.534671127796173096e-02 2.432570308446884155e-01 -3.799666166305541992e-01
3.729939460754394531e-03 2.106199711561203003e-01 5.773540586233139038e-03
-3.452356457710266113e-01 6.715708971023559570e-02 1.957751661539077759e-01
-3.489656746387481689e-02 3.395021259784698486e-01 -4.545627534389495850e-01
2.765595912933349609e-02 3.412014245986938477e-01 -1.464238762855529785e-01
-4.227957129478454590e-01 2.569259405136108398e-01 -3.582506477832794189e-01
-7.048413157463073730e-02 1.085496842861175537e-01 1.783802360296249390e-01
1.276642084121704102e-03 5.763232111930847168e-01 1.245049834251403809e-01
-2.623410224914550781e-01 2.729890346527099609e-01 5.166490077972412109e-01
-4.491090774536132812e-01 5.528973340988159180e-01 1.277538761496543884e-02
-1.521653831005096436e-01 -1.450806856155395508e-02 -1.350660026073455811e-01
-1.921382546424865723e-01 4.199333190917968750e-01 5.570095777511596680e-01
-1.673394888639450073e-01 8.052895665168762207e-01 3.233490511775016785e-02
-4.423319697380065918e-01 3.495309650897979736e-01 2.478005439043045044e-01
-1.384874582290649414e-01 2.293545007705688477e-02 -3.063352406024932861e-01
-1.220484599471092224e-01 2.190843671560287476e-01 -5.589627027511596680e-01
-1.242243275046348572e-01 4.066425263881683350e-01 -5.960164666175842285e-01
-3.532693386077880859e-01 1.010202765464782715e-01 2.500438988208770752e-01
-2.552246749401092529e-01 5.762249827384948730e-01 5.144208073616027832e-01
-1.438840925693511963e-01 9.553787112236022949e-02 3.075048625469207764e-01
-4.053148627281188965e-01 5.580198168754577637e-01 3.079929053783416748e-01
2.237504720687866211e-02 4.490355849266052246e-01 1.155439615249633789e-01
1.458995044231414795e-02 5.555155277252197266e-01 2.610972151160240173e-02
2.667962014675140381e-02 4.929159283638000488e-01 1.017194241285324097e-03
-2.981225252151489258e-01 7.864595651626586914e-01 -3.429166972637176514e-03
-2.769657969474792480e-02 1.509990692138671875e-01 9.082137048244476318e-02
-1.092906072735786438e-01 7.293444871902465820e-01 2.543761134147644043e-01
-2.529489696025848389e-01 8.059679269790649414e-01 -1.166340522468090057e-02
-3.845788240432739258e-01 1.197149753570556641e-01 2.018904983997344971e-01
-2.320993542671203613e-01 1.098809242248535156e-01 -5.236336588859558105e-01
-1.607431471347808838e-02 3.882761001586914062e-01 3.051419854164123535e-01
-3.299428522586822510e-02 1.223845481872558594e-01 -1.819026321172714233e-01
-1.616428941488265991e-01 4.010879099369049072e-01 5.420850515365600586e-01
-1.462498903274536133e-01 1.564023494720458984e-01 3.938753306865692139e-01
-1.012630686163902283e-01 7.686110734939575195e-01 -2.551369741559028625e-02
-3.718413710594177246e-01 6.167871952056884766e-01 3.379663825035095215e-01
-3.204687535762786865e-01 7.183993458747863770e-01 -2.699771225452423096e-01
-4.413411617279052734e-01 3.120473623275756836e-01 2.352141886949539185e-01
-2.739782035350799561e-01 6.674694418907165527e-01 4.257114827632904053e-01
-3.789875507354736328e-01 7.049826383590698242e-01 7.475908100605010986e-02
-1.091122478246688843e-01 2.511551976203918457e-02 3.951841220259666443e-02
-4.039881229400634766e-01 6.138966083526611328e-01 -2.407659739255905151e-01
-3.570119738578796387e-01 2.759027481079101562e-02 -2.537560835480690002e-02
-1.637080758810043335e-01 5.794764161109924316e-01 5.015681385993957520e-01
-4.644121229648590088e-01 4.023332893848419189e-01 1.190671920776367188e-01
3.002758324146270752e-02 3.927864432334899902e-01 4.131746664643287659e-02
-4.225001335144042969e-01 4.998863935470581055e-01 -3.277992010116577148e-01
-3.798788189888000488e-01 5.153893232345581055e-01 -4.370959103107452393e-01
-3.637082874774932861e-02 6.627594232559204102e-01 -1.892169415950775146e-01
-4.598901271820068359e-01 2.722173631191253662e-01 -1.571352332830429077e-01
-4.018257558345794678e-01 5.339293479919433594e-01 -3.643258810043334961e-01
-4.596976637840270996e-01 3.530016839504241943e-01 -2.164658159017562866e-01
-2.942787110805511475e-01 5.510684251785278320e-01 -5.367817878723144531e-01
-2.413421869277954102e-02 4.363509118556976318e-01 3.328073620796203613e-01
-3.466649353504180908e-02 6.279093027114868164e-01 -2.668888568878173828e-01
-4.355598688125610352e-01 5.311393737792968750e-01 2.109634429216384888e-01
-2.142967432737350464e-01 8.005876541137695312e-01 1.499639600515365601e-01
-4.374413490295410156e-01 1.790715157985687256e-01 -1.736508458852767944e-01
3.334149718284606934e-03 5.970083475112915039e-01 -7.521168887615203857e-02
-3.138829171657562256e-01 7.502843141555786133e-01 2.085391134023666382e-01
-3.586968183517456055e-01 4.646004736423492432e-01 4.629386067390441895e-01
-3.304620385169982910e-01 6.193470358848571777e-01 -4.263815879821777344e-01
2.914530038833618164e-02 4.291905164718627930e-01 -1.454886943101882935e-01
-3.870487809181213379e-01 7.100254297256469727e-02 -1.748780906200408936e-01
-5.979730188846588135e-02 1.694356352090835571e-01 -4.077802002429962158e-01
-2.796408534049987793e-01 6.895979642868041992e-01 -3.902924954891204834e-01
-4.571309089660644531e-01 5.194707512855529785e-01 -3.508668765425682068e-02
-4.621464610099792480e-01 4.507593512535095215e-01 1.113710254430770874e-01
-4.195852279663085938e-01 5.067645311355590820e-01 3.028600215911865234e-01
-4.307025074958801270e-01 5.452024936676025391e-01 -2.372498959302902222e-01
-2.824867367744445801e-01 2.278071641921997070e-02 -3.526766002178192139e-01
-2.084072530269622803e-01 7.780997753143310547e-01 2.432682663202285767e-01
-3.738899230957031250e-01 1.097312867641448975e-01 -3.466170430183410645e-01
-2.975831925868988037e-01 7.381756901741027832e-01 2.796255350112915039e-01
-2.992112338542938232e-01 4.395628273487091064e-01 -5.919376015663146973e-01
1.325227320194244385e-02 5.465241670608520508e-01 7.830768823623657227e-02
-2.975601553916931152e-01 -1.058751344680786133e-02 2.678058668971061707e-02
-4.371917843818664551e-01 4.681746959686279297e-01 2.574659585952758789e-01
-3.613960742950439453e-01 2.592540383338928223e-01 -5.131672024726867676e-01
-6.986849009990692139e-02 6.329017281532287598e-01 3.315241336822509766e-01
-4.510810375213623047e-01 2.470274865627288818e-01 1.121244579553604126e-01
-3.908547759056091309e-01 1.792380064725875854e-01 2.811706364154815674e-01
-1.304383575916290283e-02 6.264393925666809082e-01 1.078111380338668823e-01
-4.612360596656799316e-01 4.414965510368347168e-01 -1.697403937578201294e-01
-3.236055672168731689e-01 1.087141633033752441e-01 -4.526870846748352051e-01
1.690271496772766113e-02 4.310898184776306152e-01 1.611025929450988770e-01
-1.602073013782501221e-02 4.740881621837615967e-01 3.000195622444152832e-01
-2.952544391155242920e-02 5.297190546989440918e-01 3.173391520977020264e-01
-7.046981155872344971e-02 7.125515937805175781e-01 -1.915506124496459961e-01
-3.304045200347900391e-01 6.791340112686157227e-01 3.392598032951354980e-01
-1.939764171838760376e-01 1.116788983345031738e-01 3.723048567771911621e-01
-2.671238481998443604e-01 7.164112329483032227e-01 3.605723679065704346e-01
-2.388575673103332520e-02 2.806557118892669678e-01 -4.019596576690673828e-01
-3.822102546691894531e-01 6.959120631217956543e-01 -9.355322271585464478e-02
2.614745497703552246e-02 3.033253550529479980e-01 -6.314785033464431763e-02
-5.208954215049743652e-02 6.669139862060546875e-01 -2.501075863838195801e-01
-2.301041036844253540e-01 1.581032574176788330e-01 4.349693059921264648e-01
3.532931208610534668e-03 3.051699995994567871e-01 1.857074797153472900e-01
-2.140170931816101074e-01 4.148748517036437988e-02 -4.242539405822753906e-01
-4.347174167633056641e-01 1.693485826253890991e-01 5.786846205592155457e-02
-4.008417725563049316e-01 4.616653323173522949e-01 3.794631063938140869e-01
-1.483213901519775391e-01 2.402160465717315674e-01 4.714069366455078125e-01
-1.369068026542663574e-02 2.082545757293701172e-01 1.449942737817764282e-01
-2.379518449306488037e-01 2.008612304925918579e-01 -5.971851944923400879e-01
9.152084589004516602e-03 5.627426505088806152e-01 -1.412677764892578125e-01
-4.380971491336822510e-01 1.665700078010559082e-01 -5.929078906774520874e-03
-4.700352549552917480e-01 3.254865109920501709e-01 8.280940353870391846e-03
-4.166995882987976074e-01 3.057200312614440918e-01 3.212728500366210938e-01
-9.116265177726745605e-02 7.556049823760986328e-01 -8.193433284759521484e-02
-4.202361702919006348e-01 4.027154445648193359e-01 3.351232111454010010e-01
-4.544925689697265625e-01 4.519283771514892578e-01 1.736820489168167114e-01
-6.024937331676483154e-02 3.508052229881286621e-01 4.081781208515167236e-01
-3.048055469989776611e-01 3.384932875633239746e-01 5.189471244812011719e-01
-3.969922661781311035e-01 6.797142028808593750e-01 -2.406728267669677734e-02
-4.270565211772918701e-01 1.645241826772689819e-01 1.066125184297561646e-01
-1.073677688837051392e-01 2.503184974193572998e-01 4.341160953044891357e-01
-4.397928118705749512e-01 3.426442146301269531e-01 -3.242354691028594971e-01
-4.381002783775329590e-01 3.825318217277526855e-01 -3.301911652088165283e-01
-1.365081369876861572e-01 4.765523672103881836e-01 -5.856120586395263672e-01
-6.767550110816955566e-02 4.106655418872833252e-01 -5.222473144531250000e-01
-6.950953602790832520e-02 4.486378729343414307e-01 4.368106126785278320e-01
-9.467127174139022827e-02 6.829352974891662598e-01 3.157515227794647217e-01
4.064202308654785156e-03 3.732757568359375000e-01 -3.283635079860687256e-01
-1.057032719254493713e-01 2.680365443229675293e-01 -5.633675456047058105e-01
-4.466166198253631592e-01 2.437723577022552490e-01 -2.312713563442230225e-01
-3.077672421932220459e-02 1.866601258516311646e-01 -3.347383439540863037e-01
-4.172233641147613525e-01 1.914901435375213623e-01 2.109862118959426880e-01
-5.885019898414611816e-03 4.410107135772705078e-01 2.709273695945739746e-01
-3.760009407997131348e-01 1.897648423910140991e-01 -4.419445097446441650e-01
-2.682867050170898438e-01 -1.189562678337097168e-02 8.277367055416107178e-02
7.304415106773376465e-03 2.416736483573913574e-01 -2.053944319486618042e-01
-3.827326893806457520e-01 6.835204958915710449e-01 -1.510890126228332520e-01
-2.872895002365112305e-01 4.704452157020568848e-01 5.383701324462890625e-01
-2.825970351696014404e-01 7.507479190826416016e-01 -2.536857426166534424e-01
-4.260081648826599121e-01 1.331703662872314453e-01 -7.922133058309555054e-02
-2.666936218738555908e-01 4.916888773441314697e-01 -5.932071805000305176e-01
-3.494125008583068848e-01 5.664047598838806152e-01 4.314739704132080078e-01
-4.124842286109924316e-01 2.938042283058166504e-01 -4.096828997135162354e-01
-2.262852042913436890e-01 4.780747890472412109e-01 -6.128322482109069824e-01
-3.573844432830810547e-01 6.755225658416748047e-01 -2.771281003952026367e-01
-8.067579567432403564e-02 7.233217954635620117e-01 1.851462572813034058e-01
-3.823062479496002197e-01 2.439736872911453247e-01 -4.652163088321685791e-01
2.733260393142700195e-03 2.001607865095138550e-01 -9.521551430225372314e-02
-1.916314363479614258e-01 -4.689514636993408203e-03 -2.946752309799194336e-01
-8.380132913589477539e-02 2.168500572443008423e-01 3.694817721843719482e-01
-3.213285803794860840e-01 2.624945640563964844e-01 4.712963104248046875e-01
-1.387428194284439087e-01 7.422838211059570312e-01 2.792484462261199951e-01
-5.920989811420440674e-02 5.959863662719726562e-01 3.460788726806640625e-01
-3.206210732460021973e-01 3.007808625698089600e-01 -5.815388560295104980e-01
-9.716473519802093506e-02 1.846100091934204102e-01 -5.013099312782287598e-01
-3.526567816734313965e-01 1.559585481882095337e-01 -4.584370553493499756e-01
-3.548277318477630615e-01 6.484346985816955566e-01 -3.366186618804931641e-01
-4.327957034111022949e-01 3.996563255786895752e-01 2.929946780204772949e-01
-2.007195949554443359e-01 5.572602152824401855e-01 5.286706686019897461e-01
-3.989681601524353027e-01 3.525297641754150391e-01 3.856420218944549561e-01
-4.707435965538024902e-01 3.634587228298187256e-01 -9.654016792774200439e-02
-2.759865522384643555e-01 2.994425892829895020e-01 -6.183701157569885254e-01
-3.430724442005157471e-01 7.326045036315917969e-01 1.730885654687881470e-01
-3.697642982006072998e-01 6.524473428726196289e-02 1.110766381025314331e-01
-4.676213562488555908e-01 3.688835203647613525e-01 8.638305962085723877e-02
-3.183091282844543457e-01 9.494641423225402832e-02 3.004766702651977539e-01
-8.200359344482421875e-02 7.064108252525329590e-01 2.373331338167190552e-01
-2.666920423507690430e-03 3.653649687767028809e-01 2.501723468303680420e-01
-3.203178346157073975e-01 6.712773442268371582e-01 -3.673273026943206787e-01
-2.085808217525482178e-01 2.246367186307907104e-01 -6.111518144607543945e-01
-8.191779255867004395e-03 4.926447868347167969e-01 2.639650106430053711e-01
-4.277316331863403320e-01 2.991584539413452148e-01 2.816365957260131836e-01
-4.145165085792541504e-01 6.429588794708251953e-01 7.125544548034667969e-02
-2.743115127086639404e-01 9.594351053237915039e-02 -4.897057712078094482e-01
-2.617903649806976318e-01 8.124718070030212402e-02 3.278827965259552002e-01
-4.881575703620910645e-03 2.630718350410461426e-01 1.834769695997238159e-01
-4.651769995689392090e-01 4.669502675533294678e-01 4.044620320200920105e-02
-3.857849836349487305e-01 9.410983324050903320e-02 -2.691067159175872803e-01
-2.378925681114196777e-02 6.519664525985717773e-01 -1.414705216884613037e-01
1.267963647842407227e-02 2.956233024597167969e-01 1.201028674840927124e-01
-3.036171197891235352e-03 6.155071854591369629e-01 3.050902113318443298e-02
-3.223522901535034180e-01 6.883566379547119141e-01 -3.327927589416503906e-01
-1.937706321477890015e-01 5.145562887191772461e-01 5.440373420715332031e-01
-3.608143925666809082e-01 1.342281103134155273e-01 -4.172164499759674072e-01
2.364853024482727051e-02 2.930165827274322510e-01 -1.192669011652469635e-02
-3.200088441371917725e-02 3.007471263408660889e-01 -4.359097778797149658e-01
1.128982007503509521e-02 2.798146605491638184e-01 -2.367138713598251343e-01
-4.586241245269775391e-01 2.912858724594116211e-01 -1.938308328390121460e-01
-2.179215401411056519e-01 -2.944865822792053223e-02 2.079896628856658936e-03
-5.241176486015319824e-02 7.021266222000122070e-01 -1.364626586437225342e-01
-3.504589200019836426e-03 2.868323922157287598e-01 -3.282509744167327881e-01
-4.536338448524475098e-01 5.242347717285156250e-01 -9.534686803817749023e-02
-4.590914845466613770e-01 3.621023893356323242e-01 1.603202968835830688e-01
-2.399227023124694824e-02 1.314060389995574951e-01 -7.292223721742630005e-02
-7.556112110614776611e-02 7.442983388900756836e-01 -7.302995771169662476e-03
-3.410144150257110596e-02 4.899593889713287354e-01 -4.216910898685455322e-01
-4.697635769844055176e-01 3.144347369670867920e-01 -4.880847781896591187e-02
-4.008279442787170410e-01 1.204759180545806885e-01 1.390864849090576172e-01
-3.875746130943298340e-01 5.296507477760314941e-01 3.803877532482147217e-01
-2.533622980117797852e-01 5.441844463348388672e-03 -3.323639631271362305e-01
-4.135943949222564697e-01 2.450419515371322632e-01 2.875508666038513184e-01
-4.382790923118591309e-01 5.656430125236511230e-01 1.304676979780197144e-01
-4.537975788116455078e-01 4.381671845912933350e-01 -2.289215475320816040e-01
-4.072059988975524902e-01 4.824175536632537842e-01 -3.916932344436645508e-01
-4.643844068050384521e-02 1.389617919921875000e-01 1.574741303920745850e-01
-5.861425399780273438e-02 7.410886883735656738e-02 -2.436375990509986877e-02
-4.152861535549163818e-01 6.077942848205566406e-01 -1.971276253461837769e-01
-2.889435589313507080e-01 7.033048272132873535e-01 -3.554928898811340332e-01
-3.774785995483398438e-01 7.017950415611267090e-01 1.141226738691329956e-01
-3.303949534893035889e-01 7.624936699867248535e-01 4.000484570860862732e-02
-1.255335658788681030e-01 4.376469254493713379e-01 5.143957734107971191e-01
-4.105798900127410889e-02 1.186093986034393311e-01 6.981554627418518066e-02
-1.208790391683578491e-01 6.538032293319702148e-01 3.994098007678985596e-01
-3.303915262222290039e-01 3.848963975906372070e-01 5.040928721427917480e-01
-2.779384851455688477e-01 3.998923599720001221e-01 5.473687052726745605e-01
-4.160549044609069824e-01 1.157568693161010742e-01 -1.313961744308471680e-01
-3.342125713825225830e-01 3.282821178436279297e-02 1.237819641828536987e-01
-7.211174070835113525e-02 2.773434221744537354e-01 3.956081867218017578e-01
-2.599210143089294434e-01 4.579724669456481934e-01 -6.110974550247192383e-01
-3.965674042701721191e-01 2.360388487577438354e-01 -4.261906445026397705e-01
-6.790161132812500000e-03 1.991164237260818481e-01 7.937143743038177490e-02
-1.941119134426116943e-01 3.661122024059295654e-01 -6.381075382232666016e-01
-3.211082518100738525e-02 1.215753257274627686e-01 3.711890429258346558e-03
-2.680650651454925537e-01 2.383290082216262817e-01 4.939879179000854492e-01
-5.594171583652496338e-02 1.314599812030792236e-01 -3.369503319263458252e-01
-2.811929881572723389e-01 7.316926121711730957e-02 -4.525807201862335205e-01
-4.710872769355773926e-01 3.617796003818511963e-01 2.833658829331398010e-02
-2.906279563903808594e-01 7.782308459281921387e-01 1.550652235746383667e-01
-1.522389054298400879e-02 3.213795423507690430e-01 -3.920611143112182617e-01
-4.700239896774291992e-01 4.295831918716430664e-01 -4.873080924153327942e-02
-4.138879477977752686e-02 5.860648751258850098e-01 -3.551006317138671875e-01
-2.043718695640563965e-01 6.403080821037292480e-01 4.720326662063598633e-01
-5.760960280895233154e-02 8.225229382514953613e-02 -1.962539553642272949e-01
-3.520488440990447998e-01 6.049191355705261230e-01 3.942354917526245117e-01
-2.033646553754806519e-01 7.888344526290893555e-01 2.041435539722442627e-01
-3.595114350318908691e-01 6.578585505485534668e-02 1.516079306602478027e-01
-3.751798272132873535e-01 1.845868974924087524e-01 3.258844614028930664e-01
-5.931358039379119873e-02 7.206755876541137695e-01 -7.828789949417114258e-02
-2.010834068059921265e-01 7.942309975624084473e-01 -1.603889763355255127e-01
-3.913334906101226807e-01 5.701115131378173828e-01 -3.548859953880310059e-01
1.008136570453643799e-02 5.776714682579040527e-01 -3.782167285680770874e-02
-4.660749733448028564e-01 2.854754924774169922e-01 1.484308391809463501e-03
3.233365714550018311e-02 3.807168900966644287e-01 -8.896511793136596680e-02
-5.545425415039062500e-02 7.131694555282592773e-01 8.223897218704223633e-02
-4.243656992912292480e-02 5.282377004623413086e-01 -4.163281023502349854e-01
-3.946275115013122559e-01 6.052403450012207031e-01 2.865351438522338867e-01
-2.236776947975158691e-01 1.645790785551071167e-01 -5.749214887619018555e-01
-1.777723580598831177e-01 2.757509946823120117e-01 5.123500227928161621e-01
-1.651091575622558594e-01 -1.658189296722412109e-02 -5.265325307846069336e-05
-4.292865395545959473e-01 6.069756746292114258e-01 7.642193138599395752e-02
-4.025425612926483154e-01 8.999121189117431641e-02 -2.077039331197738647e-03
-1.991465985774993896e-01 1.612064242362976074e-02 1.909957528114318848e-01
-4.548907279968261719e-01 2.209736257791519165e-01 -5.825101211667060852e-02
-1.576875001192092896e-01 7.980287075042724609e-01 -7.610639184713363647e-02
-2.719875872135162354e-01 7.942752242088317871e-01 -8.212342858314514160e-02
-3.291686475276947021e-01 7.615679502487182617e-01 -4.920987039804458618e-02
-3.797659277915954590e-02 2.438222467899322510e-01 -4.203816354274749756e-01
-1.918680667877197266e-01 7.595334649085998535e-01 -2.796813845634460449e-01
-1.368868499994277954e-01 8.180215954780578613e-02 -4.364693760871887207e-01
-1.832860112190246582e-01 5.950883030891418457e-02 2.813009321689605713e-01
-3.417747020721435547e-01 2.255824804306030273e-01 -5.286623239517211914e-01
-8.467821776866912842e-02 3.902998566627502441e-02 -1.253164261579513550e-01
-7.903680205345153809e-03 5.302043557167053223e-01 -3.028424084186553955e-01
-4.080308377742767334e-01 4.932375848293304443e-01 3.476767838001251221e-01
-3.917540311813354492e-01 8.389148116111755371e-02 6.546388566493988037e-02
-1.323721408843994141e-01 2.974366843700408936e-01 -6.002358198165893555e-01
-2.099061757326126099e-01 8.109588623046875000e-01 -3.158786520361900330e-02
-2.752625942230224609e-01 1.218998432159423828e-01 3.801622688770294189e-01
-1.056852936744689941e-02 1.688086241483688354e-01 1.906681805849075317e-03
-4.207143187522888184e-01 6.155184507369995117e-01 1.341812908649444580e-01
-2.521375119686126709e-01 7.806061506271362305e-01 2.164547890424728394e-01
-3.790499269962310791e-01 1.340177357196807861e-01 2.455620318651199341e-01
-1.781270951032638550e-01 -2.588528394699096680e-02 -5.646774917840957642e-02
-3.594474792480468750e-01 1.287518441677093506e-01 2.844081819057464600e-01
-1.796441823244094849e-01 7.616018056869506836e-01 2.776430547237396240e-01
-4.012174904346466064e-02 2.706714868545532227e-01 3.180315792560577393e-01
-4.555013775825500488e-02 3.918551206588745117e-01 3.865084350109100342e-01
1.578289270401000977e-02 5.496143698692321777e-01 -9.154535084962844849e-02
-4.022371768951416016e-01 6.163532733917236328e-01 2.394215017557144165e-01
-1.712594926357269287e-02 1.930218636989593506e-01 -2.806423306465148926e-01
-1.718327403068542480e-02 5.893694162368774414e-01 2.132750600576400757e-01
-2.392545491456985474e-01 6.189888715744018555e-02 -4.584159553050994873e-01
-4.580762386322021484e-01 5.136718750000000000e-01 2.402788028120994568e-02
-4.119974374771118164e-02 5.793251991271972656e-01 3.135896623134613037e-01
-2.955467998981475830e-02 4.212226271629333496e-01 -4.381889104843139648e-01
-2.128127664327621460e-01 2.232529819011688232e-01 4.907630085945129395e-01
-3.000544309616088867e-01 5.888699889183044434e-01 -4.987902939319610596e-01
-3.561069071292877197e-01 4.919430613517761230e-02 -2.577131092548370361e-01
-2.744032442569732666e-02 3.147962093353271484e-01 3.121748566627502441e-01
-4.040908217430114746e-01 5.709302425384521484e-01 -3.132725358009338379e-01
-3.580834269523620605e-01 6.932200193405151367e-01 -2.311215549707412720e-01
-1.862469911575317383e-01 7.778045535087585449e-02 3.165292143821716309e-01
-7.550507783889770508e-02 5.356666445732116699e-02 -1.690443009138107300e-01
-3.943888843059539795e-01 4.261001944541931152e-01 4.016126990318298340e-01
-1.064620539546012878e-01 6.478040218353271484e-01 -4.111497998237609863e-01
-4.250362515449523926e-02 4.960647225379943848e-01 3.693605065345764160e-01
-1.086492016911506653e-01 1.844454854726791382e-01 3.782786130905151367e-01
-8.956317603588104248e-02 4.928550720214843750e-01 4.618489146232604980e-01
-2.378802001476287842e-02 3.794200122356414795e-01 -4.276823997497558594e-01
-3.944905996322631836e-01 7.403066754341125488e-02 -3.939585015177726746e-02
-2.243035435676574707e-01 6.683507561683654785e-01 -4.533991515636444092e-01
2.258665859699249268e-02 4.726862907409667969e-01 -1.797736734151840210e-01
-2.295566648244857788e-01 8.059275150299072266e-01 1.052946895360946655e-01
-3.649244904518127441e-01 3.903481364250183105e-02 -1.566349714994430542e-01
-1.557168364524841309e-01 6.842358708381652832e-01 -4.119647443294525146e-01
-4.341894984245300293e-01 1.834961771965026855e-01 -2.134539484977722168e-01
-3.446646332740783691e-01 1.553281098604202271e-01 3.484081625938415527e-01
-4.720515608787536621e-01 3.795172274112701416e-01 -5.885499715805053711e-02
1.113024353981018066e-02 3.087300658226013184e-01 -2.669388353824615479e-01
-1.413028985261917114e-01 5.075487494468688965e-02 2.148558646440505981e-01
-4.537414908409118652e-01 2.345216870307922363e-01 -1.520048379898071289e-01
-2.647935748100280762e-01 7.809697985649108887e-01 -1.758933961391448975e-01
-2.244182229042053223e-01 7.188023328781127930e-01 -3.722426295280456543e-01
-3.695358633995056152e-01 6.841549873352050781e-01 2.232904583215713501e-01
-3.143820762634277344e-01 4.362798929214477539e-01 5.214698314666748047e-01
-1.877733916044235229e-01 8.061586618423461914e-01 9.355676174163818359e-02
1.401878893375396729e-02 2.450627386569976807e-01 -1.254403442144393921e-01
-4.077871143817901611e-02 4.372616112232208252e-01 3.773659467697143555e-01
-4.316074252128601074e-01 1.970290839672088623e-01 -2.564080357551574707e-01
-1.656552702188491821e-01 -1.713660359382629395e-02 -1.811566501855850220e-01
-2.431792169809341431e-01 3.056326508522033691e-02 -3.997784256935119629e-01
-1.078878492116928101e-01 6.060250997543334961e-01 -4.642493426799774170e-01
2.458976209163665771e-02 5.054718852043151855e-01 -8.606176078319549561e-02
-2.183052897453308105e-02 1.590645164251327515e-01 -2.301649153232574463e-01
-5.552953481674194336e-02 6.233726143836975098e-01 -3.431693017482757568e-01
-3.763486444950103760e-01 3.361372947692871094e-01 -5.036429166793823242e-01
-4.249284863471984863e-01 6.142969131469726562e-01 -9.934656322002410889e-02
-3.159618377685546875e-02 6.813787221908569336e-01 -3.443951904773712158e-02
-4.355027973651885986e-01 5.616941452026367188e-01 -1.761627644300460815e-01
-1.351331174373626709e-01 2.461215406656265259e-01 -5.856618285179138184e-01
-1.080789491534233093e-01 2.613204717636108398e-02 -2.193098813295364380e-01
-2.124471217393875122e-01 8.013666868209838867e-01 -1.226390600204467773e-01
-1.081167459487915039e-01 5.044793486595153809e-01 -5.449807047843933105e-01
-4.520433843135833740e-01 3.168269991874694824e-01 1.837072372436523438e-01
-2.094628512859344482e-01 6.862800717353820801e-01 4.228268563747406006e-01
-4.051898419857025146e-01 3.911663293838500977e-01 3.765786886215209961e-01
-9.817598015069961548e-02 5.697898268699645996e-01 4.405595064163208008e-01
-8.261546492576599121e-02 4.819139838218688965e-02 1.635054871439933777e-02
-2.925314307212829590e-01 2.685073018074035645e-02 1.892420798540115356e-01
-7.657161355018615723e-02 2.744666635990142822e-01 -5.230207443237304688e-01
-3.143409490585327148e-01 3.597438335418701172e-03 -2.220398634672164917e-01
-4.397045969963073730e-01 5.746216773986816406e-01 -9.593412280082702637e-02
-2.547948956489562988e-01 -1.404568552970886230e-02 -2.613306343555450439e-01
-1.604885309934616089e-01 6.131016016006469727e-01 -5.053721070289611816e-01
-3.020718693733215332e-01 6.898146867752075195e-02 2.743406891822814941e-01
-4.031913876533508301e-01 6.502711772918701172e-01 1.494704186916351318e-01
-3.774620294570922852e-01 6.081964969635009766e-01 -3.426091670989990234e-01
-3.957250714302062988e-01 7.713186740875244141e-02 -1.170497238636016846e-01
-4.448597729206085205e-01 5.576579570770263672e-01 8.237232267856597900e-02
-4.537580311298370361e-01 2.780489921569824219e-01 1.373318284749984741e-01
-1.073832660913467407e-01 5.576153993606567383e-01 -5.085363388061523438e-01
-5.149978399276733398e-02 2.791592478752136230e-01 -4.755766093730926514e-01
-2.621417939662933350e-01 -3.072506189346313477e-02 -6.718716025352478027e-02
-3.052544593811035156e-01 1.914149522781372070e-02 -3.068898022174835205e-01
-4.475082159042358398e-01 4.147256314754486084e-01 -2.779690623283386230e-01
-1.293417215347290039e-01 7.888147830963134766e-01 1.863553375005722046e-02
2.273118495941162109e-02 3.314543366432189941e-01 -1.961002945899963379e-01
-4.704631567001342773e-01 4.218905866146087646e-01 9.951490908861160278e-03
-1.566174924373626709e-01 6.135941743850708008e-01 4.733203649520874023e-01
-3.372227251529693604e-01 6.446626186370849609e-01 3.764699995517730713e-01
-4.234766960144042969e-02 2.061712741851806641e-01 -3.996822535991668701e-01
-3.436216711997985840e-01 1.875739544630050659e-01 3.857759535312652588e-01
-3.013403415679931641e-01 5.015698075294494629e-01 -5.629767179489135742e-01
-3.996298611164093018e-01 3.514719605445861816e-01 -4.535126090049743652e-01
-2.051026970148086548e-01 5.907889604568481445e-01 -5.405752658843994141e-01
-1.620180755853652954e-01 -7.066100835800170898e-03 -2.380127906799316406e-01
-2.461038678884506226e-01 8.078814744949340820e-01 3.309638425707817078e-02
6.426445245742797852e-01 -3.593066334724426270e-01 -1.017265766859054565e-02
8.690778017044067383e-01 -8.528748154640197754e-02 -6.647379696369171143e-02
5.353832244873046875e-01 2.732897400856018066e-01 -1.276441961526870728e-01
3.534564673900604248e-01 1.896224170923233032e-01 2.352116703987121582e-01
3.311276733875274658e-01 2.265471667051315308e-01 -1.496228426694869995e-01
5.760928392410278320e-01 2.746199965476989746e-01 -3.136418759822845459e-03
2.218752503395080566e-01 -9.840062260627746582e-02 1.298582553863525391e-01
8.363188505172729492e-01 -1.562124788761138916e-01 8.477740734815597534e-02
7.829412221908569336e-01 1.255373805761337280e-01 1.603566110134124756e-01
8.418943881988525391e-01 4.759470373392105103e-02 -1.568753570318222046e-01
2.328438162803649902e-01 1.139907985925674438e-01 -2.597350180149078369e-01
1.867397427558898926e-01 8.304715156555175781e-03 -2.566793560981750488e-01
7.071388959884643555e-01 -1.666199564933776855e-01 -5.666282773017883301e-01
7.483078837394714355e-01 1.912056952714920044e-01 -3.615076839923858643e-02
1.783920824527740479e-01 -5.330547690391540527e-03 -4.299287497997283936e-02
6.106863021850585938e-01 5.537223815917968750e-02 -5.811393857002258301e-01
2.329872846603393555e-01 -2.296914160251617432e-01 -1.031109020113945007e-01
8.473160266876220703e-01 -6.002768874168395996e-02 1.221409812569618225e-01
5.254008769989013672e-01 2.348778694868087769e-01 2.590180039405822754e-01
6.928337812423706055e-01 1.314349770545959473e-01 -4.098908603191375732e-01
5.943602323532104492e-01 -1.563125550746917725e-01 4.013870060443878174e-01
8.167991042137145996e-01 1.092413663864135742e-01 1.910766214132308960e-02
3.798191547393798828e-01 -2.184200733900070190e-01 2.694919705390930176e-01
4.658962786197662354e-01 -2.533457875251770020e-01 -6.156406402587890625e-01
8.355208635330200195e-01 3.922706097364425659e-02 -2.181466221809387207e-01
7.700561881065368652e-01 -2.190371453762054443e-01 -4.286481738090515137e-01
6.008168458938598633e-01 2.433653622865676880e-01 1.974730789661407471e-01
7.548983097076416016e-01 -3.086252808570861816e-01 -6.931079924106597900e-02
6.980262994766235352e-01 -3.493235111236572266e-01 -1.024349182844161987e-01
4.053767323493957520e-01 -3.491248488426208496e-01 -3.886334896087646484e-01
2.803596258163452148e-01 -2.662948966026306152e-01 -3.695585727691650391e-01
1.843341290950775146e-01 -1.211612522602081299e-01 -2.283807545900344849e-01
4.750801026821136475e-01 -3.255811333656311035e-01 1.413832306861877441e-01
3.647699356079101562e-01 -3.248763084411621094e-01 -4.054508209228515625e-01
7.631479501724243164e-01 1.438387185335159302e-01 -2.375183999538421631e-01
4.278965294361114502e-01 -1.848577857017517090e-01 3.473296761512756348e-01
2.492346763610839844e-01 -5.075537040829658508e-02 -4.872879981994628906e-01
4.099188745021820068e-01 -3.545578122138977051e-01 -2.893853932619094849e-02
5.268947482109069824e-01 2.671151161193847656e-01 1.412654221057891846e-01
7.802115082740783691e-01 -8.997954428195953369e-02 -4.690599739551544189e-01
6.378598213195800781e-01 2.508955597877502441e-01 9.509228914976119995e-02
7.431294918060302734e-01 -2.633892297744750977e-01 1.357948184013366699e-01
3.963087201118469238e-01 1.908656656742095947e-01 -3.883960843086242676e-01
3.180071115493774414e-01 6.218416988849639893e-02 -5.157092809677124023e-01
2.992467880249023438e-01 -1.791086792945861816e-01 2.155151367187500000e-01
4.190828502178192139e-01 -3.736494183540344238e-01 -2.428469061851501465e-01
3.885542750358581543e-01 -1.082317456603050232e-01 -6.504441499710083008e-01
4.752552509307861328e-01 2.334547787904739380e-01 2.533637881278991699e-01
2.482305765151977539e-01 -2.411625832319259644e-01 -5.336012318730354309e-02
4.808432757854461670e-01 2.589876055717468262e-01 1.724177598953247070e-01
8.043078184127807617e-01 1.304119378328323364e-01 -3.384076058864593506e-02
8.176125884056091309e-01 -2.309771478176116943e-01 -2.368756532669067383e-01
2.986492514610290527e-01 1.459065973758697510e-01 -3.627199232578277588e-01
1.753253638744354248e-01 -5.006883665919303894e-02 -2.126162648200988770e-01
8.435658216476440430e-01 -2.169373258948326111e-02 -2.682723402976989746e-01
7.973831892013549805e-01 9.931232035160064697e-02 -2.439018785953521729e-01
2.599885463714599609e-01 -2.559867501258850098e-01 -3.194168508052825928e-01
7.085212469100952148e-01 2.213207632303237915e-01 -2.363998442888259888e-02
3.125813603401184082e-01 -3.179294466972351074e-01 -1.668279469013214111e-01
7.950620651245117188e-01 -1.144504174590110779e-01 -4.382186233997344971e-01
2.952453494071960449e-01 1.822844743728637695e-01 -2.537321448326110840e-01
8.033218979835510254e-01 -2.143679410219192505e-01 -3.437523841857910156e-01
5.114964842796325684e-01 1.336979866027832031e-02 4.659337103366851807e-01
3.760497570037841797e-01 -3.560703396797180176e-01 -2.477655708789825439e-01
4.527284204959869385e-01 -2.340931594371795654e-01 3.025912642478942871e-01
6.744831204414367676e-01 -3.525871634483337402e-01 -3.114965558052062988e-01
3.976443707942962646e-01 -3.561206459999084473e-01 -3.380616307258605957e-01
6.698304414749145508e-01 1.125846803188323975e-01 -4.678068459033966064e-01
2.065718472003936768e-01 -1.903520971536636353e-01 -1.622280776500701904e-01
6.651505231857299805e-01 -2.632433176040649414e-01 -5.391801595687866211e-01
3.242697715759277344e-01 2.131550759077072144e-01 -2.074518948793411255e-01
2.705932259559631348e-01 -2.163941711187362671e-01 9.741712361574172974e-02
7.211276888847351074e-01 1.429240405559539795e-01 -3.422343432903289795e-01
3.717719614505767822e-01 2.029569596052169800e-01 -3.332600891590118408e-01
5.151574015617370605e-01 -3.922892212867736816e-01 -2.183129638433456421e-01
4.171227812767028809e-01 -3.345192670822143555e-01 6.490684300661087036e-02
5.578286647796630859e-01 -3.910269737243652344e-01 -2.417177557945251465e-01
8.182494640350341797e-01 7.608072459697723389e-02 1.318052411079406738e-01
4.367327690124511719e-01 1.974706500768661499e-01 -3.988220989704132080e-01
6.918419599533081055e-01 -3.072808980941772461e-01 1.108528599143028259e-01
2.749873995780944824e-01 6.035971641540527344e-02 -4.574669003486633301e-01
8.394092321395874023e-01 -1.899347007274627686e-01 -1.109579205513000488e-02
4.276425540447235107e-01 2.284736484289169312e-01 2.352502048015594482e-01
3.250779509544372559e-01 -2.893182635307312012e-01 4.690159112215042114e-02
8.425836563110351562e-01 -1.962649226188659668e-01 -8.771634101867675781e-02
7.370508909225463867e-01 -1.993733346462249756e-01 2.554719150066375732e-01
4.708366990089416504e-01 1.860214322805404663e-01 -4.342961907386779785e-01
5.635500550270080566e-01 -3.197615146636962891e-01 1.725516915321350098e-01
8.077173233032226562e-01 4.346350580453872681e-02 2.125168740749359131e-01
2.494612336158752441e-01 -2.055849134922027588e-01 -4.088576734066009521e-01
7.666809558868408203e-01 -3.197938576340675354e-02 -4.760099947452545166e-01
8.337681889533996582e-01 -1.582891866564750671e-02 1.691192388534545898e-01
2.763074040412902832e-01 -1.326851546764373779e-02 -5.190057754516601562e-01
7.322767972946166992e-01 -3.223816156387329102e-01 -2.758449316024780273e-01
4.448538422584533691e-01 2.723649740219116211e-01 5.063796788454055786e-02
6.371619105339050293e-01 -3.373230695724487305e-01 -4.346272349357604980e-01
6.788958311080932617e-01 -1.154653728008270264e-02 -5.787103772163391113e-01
6.275703907012939453e-01 -3.195722103118896484e-01 -4.864659309387207031e-01
1.816141307353973389e-01 -2.669807896018028259e-02 -4.824608564376831055e-03
4.320995807647705078e-01 -3.191145658493041992e-01 1.270010769367218018e-01
4.452962279319763184e-01 -2.248688340187072754e-01 -6.337125897407531738e-01
8.591409921646118164e-01 -5.607005208730697632e-02 -2.119921147823333740e-01
8.647431731224060059e-01 -4.346686229109764099e-02 -1.566058844327926636e-01
4.974549710750579834e-01 -2.357736825942993164e-01 3.177980780601501465e-01
5.556914210319519043e-01 -3.688235282897949219e-01 1.662322133779525757e-02
2.161478102207183838e-01 1.287141442298889160e-02 -3.748567700386047363e-01
7.924678921699523926e-01 -1.526996493339538574e-01 -4.324091970920562744e-01
8.071041107177734375e-01 -2.583132386207580566e-01 -1.466063559055328369e-01
5.530568957328796387e-01 2.091142982244491577e-01 3.126096427440643311e-01
6.671894788742065430e-01 -3.024469614028930664e-01 -4.776564836502075195e-01
5.393939018249511719e-01 -3.900104761123657227e-01 -1.243726313114166260e-01
2.244763970375061035e-01 1.228321194648742676e-01 -1.790888011455535889e-01
6.801952123641967773e-01 2.307106405496597290e-01 -1.240989491343498230e-01
8.231831789016723633e-01 -2.331857234239578247e-01 -9.223015606403350830e-02
